# .PCD v0.7 - Point Cloud Data file format
VERSION 0.7
FIELDS x y z
SIZE 4 4 4
TYPE F F F
COUNT 1 1 1
WIDTH 1362
HEIGHT 1
VIEWPOINT 0 0 0 1 0 0 0
POINTS 1362
DATA ascii
0.013029741 -0.062626898 0.77796328
0.016870152 -0.06150673 0.77586675
0.038282488 -0.061534334 0.77718914
0.041290738 -0.062322307 0.77930003
0.012943045 -0.057464898 0.77896351
0.017249063 -0.057774495 0.77662796
0.021421093 -0.057406623 0.77556026
0.038449988 -0.057561267 0.77765006
0.009319026 -0.05074247 0.77956671
0.012372879 -0.052408058 0.7773751
0.016921962 -0.054210398 0.77582878
0.020829309 -0.054774884 0.77506673
0.03860449 -0.052523542 0.77640843
0.042228874 -0.051653713 0.77872229
0.0049532941 -0.046354357 0.77893341
0.0078371922 -0.04767615 0.77684295
0.011449967 -0.049079441 0.77620023
0.039655004 -0.049049929 0.77573341
0.043008566 -0.047865849 0.77657163
0.047195554 -0.047192004 0.77780002
0.050762903 -0.047124088 0.77968347
0.0030107351 -0.042751942 0.77782601
0.0063807936 -0.044728588 0.77586681
0.04816046 -0.043824147 0.7758168
0.051879466 -0.042212594 0.77825028
-0.00085782574 -0.03694693 0.77915007
0.0013170675 -0.03755163 0.77666682
0.053214863 -0.038026683 0.77654457
0.05577822 -0.036923002 0.77865005
-0.0013408662 -0.03205828 0.77777785
0.00059286645 -0.032465003 0.77596688
0.054093078 -0.033159163 0.77531129
0.057005428 -0.032327279 0.77736372
0.060172122 -0.030423542 0.77913338
-0.0018928542 -0.027251778 0.77726209
0.00059238251 -0.028111817 0.7753334
0.057810381 -0.027438259 0.77667791
0.0601069 -0.027495278 0.7782889
-0.0052178702 -0.022456054 0.77925009
-0.0025949171 -0.022670493 0.77669346
0.057771966 -0.022366608 0.77616686
0.061475333 -0.022247648 0.77889401
-0.0052158982 -0.017375907 0.77895564
-0.0024853039 -0.017499199 0.77641678
0.057756349 -0.017308915 0.77595574
0.061594937 -0.017370768 0.77873337
-0.0052165305 -0.012305264 0.77905005
-0.0023050082 -0.012266188 0.77659458
0.05884343 -0.012256864 0.77597511
0.061264522 -0.012726376 0.77824003
-0.0052202134 -0.0079633789 0.77960008
-0.0021269976 -0.0074017015 0.7777167
0.00095403282 -0.0068410342 0.77565014
0.058476903 -0.0072043687 0.77591354
0.060611989 -0.0072293435 0.77855557
-0.0012210174 -0.0032470555 0.77903348
0.0013169789 -0.0028757181 0.77657789
0.053533822 -0.002584052 0.7755869
0.057103913 -0.0028770631 0.77691489
0.060178559 -0.0036108755 0.77921677
0.0030564277 0.0020365342 0.77736342
0.049294278 0.0038604171 0.7756446
0.052763361 0.0021821111 0.77701396
0.056915294 0.0018957828 0.77830327
0.0049505383 0.0072553158 0.77850014
0.0078342156 0.0072367373 0.77658534
0.011199011 0.00818747 0.77551126
0.043127261 0.0078050517 0.77573359
0.047657087 0.0072349138 0.77645016
0.05288206 0.0072565749 0.778763
0.055839114 0.006538 0.77950007
0.0049594413 0.010167925 0.77990001
0.0082663326 0.011388727 0.77830011
0.012183643 0.01229791 0.77685016
0.016656142 0.013004106 0.77594686
0.02155827 0.014434571 0.77530015
0.033835974 0.014428989 0.77500015
0.039200518 0.012768622 0.77627796
0.042636324 0.012304895 0.77732778
0.047371171 0.011928456 0.7781719
0.050992917 0.011613391 0.77950019
0.012952914 0.015963472 0.77953351
0.017487524 0.017258281 0.77843642
0.022324108 0.01735349 0.77680755
0.027362851 0.017332768 0.77588916
0.032423064 0.017329939 0.77577055
0.037530139 0.017349316 0.77663344
0.042230587 0.016913369 0.77875012
0.045668527 0.01596484 0.77960014
0.019499673 0.020318061 0.7797001
0.022683522 0.020884743 0.77917999
0.02773672 0.021439966 0.7782768
0.032499757 0.021710875 0.77760005
0.037059929 0.021416517 0.77860379
0.0089949928 -0.062253606 0.78300005
0.010795553 -0.06247437 0.78120399
0.042869028 -0.061048914 0.78155637
0.0090651056 -0.057938904 0.78275722
0.011084752 -0.057524037 0.78107786
0.042905897 -0.057462856 0.78220993
0.048904605 -0.055467475 0.78486657
0.051096871 -0.055463854 0.78481543
0.0049863616 -0.051039733 0.78413337
0.0078860903 -0.052338991 0.78174776
0.010782138 -0.053688645 0.78023338
0.043814901 -0.053265113 0.78111124
0.047287829 -0.052379284 0.7823298
0.052046765 -0.052468289 0.78367472
0.002967129 -0.047090191 0.782121
0.0064213662 -0.049370322 0.78080016
0.047907893 -0.049354509 0.78055012
0.053130127 -0.048016224 0.78240025
0.056228306 -0.045981355 0.78493327
-0.0012278958 -0.041863509 0.78300846
0.00059659738 -0.04283772 0.78085017
0.053908754 -0.042991575 0.78101349
0.057022244 -0.041685119 0.78376007
-0.0052536922 -0.035015516 0.78459996
-0.0025668491 -0.037848327 0.78282803
0.057876151 -0.038005821 0.7817573
0.061829418 -0.037359871 0.78401679
0.065011792 -0.036490515 0.78493327
-0.0056110574 -0.031682912 0.78338349
-0.0032904157 -0.033184554 0.78156132
0.058801934 -0.03482065 0.78023356
0.062555894 -0.03256508 0.78235912
-0.0067003304 -0.027642362 0.78243715
-0.0037693898 -0.028290093 0.78025013
0.063345052 -0.027640153 0.78240013
-0.0078625884 -0.022242505 0.78195012
0.064424187 -0.022952609 0.78135353
0.066421114 -0.021871781 0.78428894
-0.011110623 -0.017507382 0.78486663
-0.0081514977 -0.017436512 0.78168535
0.064639993 -0.017408928 0.78044462
0.067026734 -0.017461501 0.78281134
-0.0081524616 -0.012348584 0.78178638
0.063954212 -0.012334515 0.78095436
0.06665089 -0.012813644 0.78354681
-0.0078594731 -0.0071117142 0.78162682
-0.0037685041 -0.0057917219 0.78006679
0.06346941 -0.0070760339 0.78169608
0.066802084 -0.007648062 0.78446662
-0.0069941343 -0.0030445154 0.78265017
-0.0031893279 -0.0026013565 0.78072011
0.06299632 -0.0027503353 0.78170025
0.067025006 -0.0026142416 0.78450668
-0.0059794262 0.0014716269 0.78376681
-0.002320135 0.002195609 0.78188348
0.00096022215 0.0032797335 0.7805168
0.058819517 0.0036423774 0.78046679
0.061881635 0.0017333198 0.78235459
-0.0052554775 0.0058526676 0.78486669
-0.0021403381 0.0071118455 0.78282523
0.002052705 0.0072770515 0.78100753
0.057866897 0.0074911527 0.7816335
0.061025303 0.0063315057 0.7838667
-0.001350279 0.010703699 0.78371125
0.0026389179 0.012528437 0.78226459
0.0072926939 0.013662109 0.78058016
0.048601381 0.014522078 0.78000015
0.053053413 0.012829336 0.78128397
0.057055116 0.011858365 0.78371263
0.0040091518 0.017024161 0.78385574
0.0078908466 0.017474215 0.78220391
0.01204063 0.017861832 0.78099537
0.015147575 0.018880581 0.7802335
0.043792259 0.018408388 0.78071117
0.047407728 0.017635355 0.78129601
0.052457202 0.017497519 0.78325015
0.056218751 0.016071329 0.78479987
0.0087825488 0.021586405 0.78360015
0.012275115 0.021853073 0.78269649
0.017209196 0.022689281 0.78137571
0.022235151 0.023670908 0.7809239
0.027046273 0.024216002 0.78066683
0.032607779 0.024685049 0.78020018
0.0382175 0.023737103 0.78083903
0.042519856 0.022376381 0.78246385
0.047365215 0.021878112 0.78360391
0.051434919 0.020805074 0.7843833
0.018431734 0.026839659 0.78377348
0.022494515 0.027678337 0.78273356
0.0276128 0.027686464 0.78295022
0.032549083 0.027512379 0.78317523
0.03690007 0.027273709 0.78305727
0.040833153 0.026279306 0.78446674
0.024012081 0.030662298 0.78460002
0.0064723557 -0.061474122 0.78700006
0.046877827 -0.060063522 0.78770006
0.006977383 -0.056728158 0.78885871
0.047331329 -0.057200272 0.78609467
0.051840987 -0.056207024 0.78499997
0.0032454699 -0.052172214 0.78802001
0.0057347477 -0.054126743 0.78660011
0.054810919 -0.052597314 0.78559995
0.056827337 -0.051677167 0.7864483
-0.0052889595 -0.045535702 0.78986686
-0.0021557135 -0.046733271 0.7883625
0.0014813708 -0.048885457 0.78700006
0.057996862 -0.047639176 0.78685111
0.062144704 -0.046712711 0.78802055
0.065316744 -0.045463566 0.78861535
-0.0060220356 -0.042569946 0.78936118
-0.0032161889 -0.042740487 0.78709334
0.058493756 -0.043112703 0.78586668
0.062265668 -0.042454764 0.78721118
0.065303437 -0.042521436 0.78845477
-0.01154699 -0.036711179 0.78967452
-0.0074865338 -0.037384342 0.78837144
-0.0037981346 -0.039474379 0.78619999
0.063642323 -0.038738735 0.78609997
0.066209428 -0.036781762 0.78672022
-0.011167247 -0.032271322 0.78886646
-0.0083917901 -0.032384433 0.78715003
0.067493789 -0.032247063 0.78826457
-0.011158753 -0.027848354 0.7882666
-0.0096651362 -0.027781079 0.78635567
0.068224847 -0.02784594 0.78821111
-0.011441475 -0.022251826 0.78744006
-0.0096509317 -0.024087567 0.78519988
0.068609267 -0.022924237 0.78700745
-0.012021598 -0.017553473 0.78692204
0.069444768 -0.017518783 0.78539997
0.07250572 -0.017779034 0.7888096
-0.015583619 -0.013196507 0.78900003
-0.011877354 -0.012432054 0.78706741
0.068942972 -0.012114415 0.78682381
0.071258649 -0.014669161 0.78926682
-0.011507934 -0.0076725087 0.78695238
0.068966813 -0.007011014 0.78662205
0.071672261 -0.0073329262 0.78976893
-0.01116709 -0.0029218809 0.78885537
-0.0096579008 -0.0021796927 0.78576672
0.069180004 -0.0032794601 0.78654611
0.072213352 -0.0027120283 0.78821242
-0.011175268 0.0014816596 0.7894333
-0.0083564362 0.0026494781 0.78724992
0.063596435 0.0036661462 0.78553331
0.066849679 0.0016420449 0.78742594
0.071213335 1.2716682e-05 0.78876466
-0.0074834377 0.0073428438 0.78806001
-0.0037958806 0.0087823588 0.78573334
0.062687568 0.0078145219 0.78637224
0.065383591 0.0073556527 0.78942227
-0.0062671714 0.011270014 0.7893334
-0.0026638918 0.013035045 0.78753334
0.058852844 0.013533697 0.7857666
0.062356841 0.012478947 0.78836948
-0.0016044868 0.017622439 0.78885555
0.0015780308 0.018056529 0.78646678
0.058007881 0.017757133 0.78671247
0.061540883 0.017336957 0.78923333
-0.00086938619 0.021311998 0.78965008
0.0026354003 0.022344034 0.78814101
0.0067983018 0.023601733 0.78702217
0.012326431 0.024867857 0.78597784
0.04380367 0.024845362 0.78526676
0.047523122 0.024875946 0.78623343
0.052865591 0.02315337 0.7863788
0.057233498 0.022203866 0.78869164
0.0082590524 0.027034139 0.78946
0.012367523 0.027884755 0.78857404
0.016729182 0.028427646 0.78621906
0.034281295 0.029225117 0.78520006
0.037952296 0.029232562 0.78540003
0.042690709 0.028098395 0.78634673
0.047566321 0.027826509 0.78694457
0.051520336 0.027314266 0.78905332
0.055110924 0.026461335 0.78990018
0.013118926 0.032323282 0.78951669
0.017505925 0.032268953 0.78817505
0.022433056 0.032402638 0.78694999
0.027757114 0.032223891 0.78705829
0.032904539 0.032232955 0.78728515
0.037301529 0.032226451 0.78713334
0.042489573 0.032264184 0.78806949
0.047452394 0.032082114 0.78809589
0.017978257 0.035554655 0.78952682
0.022683702 0.036535639 0.78929174
0.027234143 0.037253961 0.78930908
0.032038439 0.037135076 0.78921181
0.037399784 0.036715105 0.78920364
0.042567156 0.035994172 0.78950012
0.047221299 0.035742853 0.7893557
-0.0053166356 -0.056112934 0.79400003
0.0030708949 -0.056546956 0.7931779
0.005030822 -0.057381399 0.791125
-0.0053183688 -0.050959937 0.79425883
-0.0023515187 -0.05160249 0.79276192
0.0014896224 -0.053588349 0.79160011
-0.011211603 -0.045658685 0.79200006
-0.0075226082 -0.047150318 0.79228956
-0.002344033 -0.049240202 0.79036689
0.059537984 -0.049952038 0.79000002
-0.011586864 -0.042362414 0.79235715
-0.0089906976 -0.0426853 0.79150707
0.066972539 -0.042647421 0.79079998
-0.016349927 -0.035278831 0.79050004
-0.013223735 -0.037868552 0.79084647
-0.0097123859 -0.039675217 0.79020029
0.069851503 -0.035256516 0.79000002
-0.015663816 -0.032441955 0.79306036
-0.013408381 -0.032352086 0.79084843
0.069869183 -0.030855663 0.79020017
0.071213491 -0.032063965 0.7928459
-0.021123921 -0.0256027 0.79445219
-0.016776932 -0.026547236 0.7932322
-0.013515401 -0.027521804 0.79094684
0.072537646 -0.027549807 0.79174387
-0.020731736 -0.022453222 0.79455471
-0.017139345 -0.022111326 0.79288727
-0.013404206 -0.022782972 0.79061681
0.072761543 -0.022594579 0.79104543
-0.016952917 -0.017869225 0.79275507
-0.014141495 -0.017636664 0.7906422
0.074291043 -0.016156571 0.79020697
0.075819515 -0.017639032 0.79077774
-0.016354864 -0.014696726 0.79075003
-0.014149685 -0.013231445 0.79110003
0.073005363 -0.012290449 0.79078501
0.076500706 -0.012183964 0.79128802
-0.012694566 -0.0066199899 0.79236662
0.073821142 -0.007347981 0.79147923
0.076598227 -0.0070650042 0.79273337
-0.012705426 -0.0029377278 0.79304457
0.074398547 -0.0036679348 0.79135048
0.075920723 -0.0036704156 0.7918334
-0.012326967 0.0022234512 0.79244781
0.06846182 0.0033228253 0.7909584
0.071239814 0.0022281096 0.79317218
-0.011218838 0.0073856316 0.79251128
-0.0097115673 0.008831542 0.79013354
0.067749396 0.0073726922 0.79125565
0.070573419 0.007397688 0.793975
-0.0078842174 0.013078373 0.79144174
0.067079321 0.012536486 0.7920472
0.070690818 0.013057434 0.79391217
-0.0065947995 0.017502621 0.79175001
-0.0038170291 0.017649924 0.79011136
0.06365034 0.018032281 0.79075009
0.066955142 0.017295059 0.79308158
0.070230976 0.017004581 0.79429173
-0.0058081099 0.021173477 0.79364449
-0.0027698744 0.022306291 0.79140484
0.05845236 0.023900688 0.79025853
0.062235039 0.021906754 0.79216665
-0.0013679423 0.025609465 0.79384452
0.0020832305 0.027539905 0.7927075
0.0065018642 0.02858822 0.79065722
0.052932046 0.028682049 0.79035848
0.057490237 0.02771925 0.79222673
0.061288584 0.025847012 0.79358983
0.0035697822 0.031042673 0.79433346
0.0074616359 0.032334935 0.7930637
0.010935381 0.03239762 0.79132223
0.049265999 0.033840973 0.7906667
0.052329905 0.032441981 0.79238904
0.05608568 0.031000996 0.79326677
0.0094947526 0.036211908 0.79426664
0.012557173 0.03738983 0.79216975
0.017365439 0.038398329 0.79088193
0.022717753 0.039347388 0.79048347
0.025651781 0.039692327 0.79003358
0.033761345 0.039699025 0.79016691
0.037459563 0.039713535 0.79045576
0.042637572 0.038995646 0.79080009
0.048063383 0.038175572 0.79242218
0.051439505 0.035947338 0.79386663
0.013441033 0.041863743 0.79404449
0.017820783 0.042671904 0.79324245
0.02278775 0.042788789 0.79291856
0.027186399 0.042730264 0.79182976
0.032344077 0.042714298 0.79153895
0.037514299 0.042717766 0.79161114
0.042190079 0.042473853 0.79317051
0.046242408 0.04257476 0.79445332
0.017656032 0.045851491 0.79490006
0.022845766 0.045853421 0.79493338
0.027270736 0.045816258 0.79428893
0.032462507 0.046564355 0.79444176
0.037624765 0.046535064 0.79394245
-0.0023630273 -0.056325216 0.79700398
0.0012022477 -0.05806734 0.79648823
-0.0062312386 -0.052782543 0.79725337
-0.0027342176 -0.054434396 0.79645073
-0.015721878 -0.038485717 0.79600006
-0.017249661 -0.031160245 0.79800004
-0.02017553 -0.026640009 0.79600006
-0.017213635 -0.028873784 0.79633343
-0.023448471 -0.02249996 0.79620004
-0.020661587 -0.018734878 0.79567784
-0.014290986 -0.010391177 0.79900008
-0.01577165 -0.0066720629 0.79852009
-0.014270574 -0.0074092918 0.79785877
-0.016534232 -0.0033323409 0.79936343
-0.014260779 -0.0029533673 0.79731113
-0.016075077 0.0020938707 0.79877633
-0.013946757 0.0026799086 0.79634631
0.073057376 0.0027262403 0.79549474
0.07585527 0.0029852677 0.79891902
-0.013530943 0.0074355793 0.79804832
0.072797708 0.0074212439 0.79643565
-0.011670982 0.011520584 0.79814816
-0.0097935107 0.01409469 0.79680008
0.072690055 0.011130499 0.79688102
-0.009437371 0.018196899 0.79800004
0.068149932 0.019260496 0.79593343
0.071570612 0.017830016 0.79821426
-0.0071212947 0.022542879 0.79686671
0.064454615 0.02296879 0.7961334
0.06717173 0.021153653 0.79752558
-0.005344016 0.026736932 0.79808897
-0.0026935432 0.028004982 0.79662234
0.00060801965 0.029619645 0.79580009
0.059955001 0.028870303 0.79553342
0.063380994 0.027756277 0.79754454
-0.0014749626 0.032392699 0.79845345
0.0019078546 0.032806039 0.7967751
0.0050571579 0.034037855 0.79526675
0.057253111 0.033023532 0.79626685
0.061915707 0.032516092 0.79784006
0.0025236167 0.036933072 0.79844767
0.0068460405 0.037200637 0.79645336
0.010995418 0.039975345 0.79566669
0.053083967 0.037539206 0.79631114
0.05679274 0.036946595 0.79874289
0.060971517 0.035689887 0.79913324
0.0035919533 0.040156227 0.79926664
0.0078021348 0.041827023 0.79803348
0.011993061 0.04346079 0.79624444
0.015435549 0.044382136 0.79506671
0.043612584 0.044385858 0.79513341
0.048643243 0.043477748 0.79655558
0.05260469 0.042149648 0.79860002
0.055806287 0.040186368 0.79986656
0.0088118911 0.046118755 0.79953331
0.012516419 0.04752082 0.79808152
0.017687315 0.047712527 0.79633337
0.022878895 0.048141465 0.79608893
0.027318319 0.048116099 0.79566675
0.032507379 0.048848759 0.79555005
0.037695486 0.048841882 0.79543811
0.042235523 0.047463663 0.79711866
0.046934821 0.047208771 0.79838526
0.051335312 0.046141829 0.7999332
0.018321268 0.051690131 0.79880011
0.022939622 0.052278616 0.79820013
0.027529381 0.052500628 0.7978729
0.032635398 0.052528191 0.79746681
0.037785202 0.052668054 0.79733348
0.041851044 0.051553849 0.7992444
0.019989023 0.055024099 0.7992667
0.02297641 0.055931449 0.79947996
0.027453801 0.056038756 0.79959995
0.031171059 0.055772536 0.79933333
0.037158463 0.056552168 0.79984993
-0.02033711 -0.011926943 0.80237502
-0.017519156 -0.011732912 0.80181253
-0.021090815 -0.0074524097 0.80257875
-0.017746584 -0.0076531479 0.80124283
-0.02073548 -0.003348181 0.80331612
-0.017914167 -0.0026688243 0.80109197
-0.018198209 0.0023577814 0.80227286
-0.015872926 0.0074888342 0.8036477
0.075211734 0.0059655146 0.80000001
-0.015892437 0.011238519 0.80463552
-0.013411263 0.013254542 0.80201489
-0.020359287 0.017943349 0.80325001
-0.012436989 0.017936159 0.80289996
0.072247773 0.019364281 0.80022222
-0.011373769 0.022432247 0.80345559
-0.0094781471 0.022750881 0.80152494
0.068232477 0.023290429 0.8021248
0.0714145 0.021399029 0.80204391
-0.011388554 0.025453897 0.80450022
-0.0078260982 0.027569348 0.80269396
0.067238748 0.027639715 0.80277354
-0.0059839096 0.032618873 0.80402672
-0.0034969854 0.033171579 0.80112499
0.064816229 0.033521891 0.80059993
0.067075081 0.032560356 0.80260581
-0.0021936393 0.037140727 0.8023625
0.00061223481 0.038023762 0.80131662
0.058857195 0.037998423 0.80078328
0.0624431 0.037462018 0.80126661
0.065600388 0.037408251 0.80411118
-0.0013851337 0.042136732 0.80394453
0.0019720858 0.042744227 0.80216354
0.0058395234 0.043962695 0.80089164
0.054350745 0.044679839 0.80039984
0.057584479 0.04273282 0.80195147
0.062044244 0.042604994 0.80336672
-0.00088584574 0.046411011 0.80460012
0.002111573 0.04784324 0.80350369
0.0070398711 0.048028473 0.80161321
0.049386885 0.048662055 0.80058885
0.053103548 0.047897678 0.80128741
0.057539124 0.047826007 0.80322224
0.061396297 0.04716526 0.80470026
0.0036174194 0.05092223 0.80493355
0.0079405038 0.052001789 0.80361122
0.012576077 0.052222036 0.80188882
0.016038878 0.053124517 0.80051094
0.043455619 0.053180873 0.80135554
0.046994999 0.052245036 0.8022334
0.051748663 0.052012201 0.80377048
0.0096206693 0.055405054 0.80480021
0.012939473 0.056998193 0.80379629
0.017072389 0.057476338 0.80234456
0.022031236 0.05863978 0.80125552
0.027302366 0.058580067 0.80140942
0.032500993 0.058161154 0.80150002
0.037502632 0.058687195 0.80190361
0.042533446 0.05750474 0.8027361
0.046803199 0.055954069 0.80408019
0.051651876 0.055409644 0.80486691
0.018119603 0.061870422 0.80451125
0.022548916 0.062659889 0.80357879
0.027570041 0.062749803 0.80299258
0.03207225 0.062767968 0.80322587
0.037324633 0.062783331 0.80341941
0.041631054 0.061877161 0.80460018
0.027636793 0.06589555 0.80493355
0.033633284 0.065879181 0.80473351
0.03738701 0.065881908 0.80476683
-0.021904977 -0.010469208 0.80500007
-0.022724787 -0.0022399623 0.80740392
-0.025031412 1.3042921e-05 0.80900002
-0.021612843 0.0018925202 0.80807245
-0.020525303 0.0090513593 0.80980003
-0.018222302 0.0075296354 0.80812293
-0.020498689 0.012800468 0.80875003
-0.017864989 0.012229274 0.80655396
-0.020403642 0.019479895 0.80500007
-0.017454887 0.017286954 0.80747753
-0.014408624 0.017995246 0.80557716
-0.020454336 0.021029467 0.80700004
-0.016723394 0.02219977 0.80857462
-0.013670919 0.02251271 0.8063314
0.072375931 0.023537373 0.80719274
-0.020505026 0.027101168 0.80900002
-0.012931637 0.026787231 0.80708694
-0.0098963454 0.029219553 0.80516672
0.069744118 0.026994189 0.80578154
0.071875185 0.026711924 0.80861783
-0.011824859 0.031979628 0.80865651
-0.0086586801 0.03301429 0.80638891
0.06943877 0.032687068 0.80572522
0.072032265 0.032115873 0.80896968
-0.0064820042 0.037339676 0.80724758
-0.0038899228 0.038956486 0.80520004
0.068342961 0.037540264 0.80696285
0.070022687 0.039140336 0.80900002
-0.0057909396 0.041747548 0.80848324
-0.003293877 0.04290133 0.80615997
0.06707222 0.042002 0.80616075
0.070046291 0.042164844 0.80927277
-0.0023952092 0.047618944 0.80697143
0.062791333 0.048546817 0.80526686
0.066800751 0.047272325 0.80653054
0.0021218166 0.052583162 0.80743808
0.0056207716 0.053435605 0.8052001
0.05418374 0.053443003 0.80531138
0.057748981 0.052500315 0.8061555
0.061944004 0.05238232 0.80763805
0.067014582 0.051186223 0.80910629
0.0036367944 0.05721733 0.80924457
0.0071822819 0.057197098 0.80703032
0.011631149 0.059444979 0.80544466
0.047171544 0.058682114 0.80525571
0.052578796 0.057160508 0.80650908
0.057691865 0.056725342 0.80836189
0.061755326 0.055721752 0.80939996
0.0086612208 0.061190229 0.80870003
0.012861689 0.062959664 0.80807495
0.016654745 0.063504919 0.80625558
0.020134071 0.064408869 0.80506688
0.043187361 0.063456617 0.80564451
0.047438201 0.062781185 0.80723315
0.05188901 0.061512914 0.80854797
0.014205452 0.066266678 0.80946666
0.017390329 0.067498229 0.80842501
0.022411032 0.067483015 0.80600005
0.027658829 0.067874737 0.80557156
0.031969182 0.067615345 0.80535018
0.037421063 0.068189763 0.80550009
0.042777609 0.067595869 0.80734801
0.046402991 0.066756152 0.80931115
0.018739078 0.070801467 0.80966675
0.022646546 0.071943969 0.80712122
0.027694754 0.072035082 0.80660743
0.03223053 0.072087251 0.80718511
0.037541583 0.072168857 0.80809444
0.042482335 0.07111086 0.80890012
0.024262695 0.075780667 0.80922222
0.02777951 0.0752661 0.80908895
0.031565525 0.075298138 0.8094334
-0.022050103 0.0037815049 0.81033343
-0.022254778 0.0073667401 0.81090003
-0.021311983 0.010573389 0.81100005
-0.020543046 0.015844237 0.81050003
-0.018162612 0.022979591 0.81220567
0.074943997 0.024219004 0.81328583
0.076245897 0.024150936 0.81100005
-0.016558615 0.026217842 0.81272221
-0.013755655 0.02868739 0.81129998
0.07415773 0.027479872 0.81131256
0.076452121 0.027241116 0.81319362
-0.013435192 0.032361839 0.81153613
-0.0099557508 0.034668449 0.81000006
0.07415691 0.032310531 0.81131399
0.07639119 0.030999091 0.81254548
-0.011518318 0.037852537 0.81366676
-0.0093748886 0.038072854 0.81191999
0.072959408 0.037601084 0.81289327
-0.010002459 0.040886398 0.81380004
-0.0078589488 0.042598855 0.81180012
0.071807787 0.040802237 0.81212509
-0.0060874424 0.047274444 0.81207627
-0.0039164918 0.049025312 0.81070018
0.070222236 0.046797592 0.81130558
-0.0069732391 0.050014362 0.81453341
-0.0019796877 0.052736469 0.81310475
0.00061912375 0.054278623 0.81033349
0.064111412 0.053540736 0.81056672
0.066461585 0.053607345 0.8115685
-0.00089641515 0.056809839 0.81420004
0.0013758717 0.057359934 0.8112669
0.058820739 0.058817666 0.81056678
0.062750392 0.057699267 0.8125065
0.065875962 0.056017064 0.81368965
0.0021341005 0.061960321 0.8122223
0.0068380102 0.063211896 0.81105202
0.0111981 0.064830258 0.81033349
0.052789096 0.064113833 0.81080014
0.057601884 0.062063873 0.81177592
0.061800599 0.06103437 0.8133111
0.0028986512 0.065875821 0.81393337
0.0077498825 0.067486934 0.81327331
0.012542902 0.068159536 0.8118251
0.015744887 0.069409408 0.81100017
0.047996666 0.068381526 0.8107335
0.052140966 0.068025045 0.81247413
0.056780539 0.066623732 0.81382006
0.012755821 0.07263536 0.81333327
0.017068859 0.072620638 0.81105852
0.020264115 0.073868409 0.81026685
0.043267973 0.073323801 0.81090677
0.0475806 0.072537273 0.81222969
0.051730424 0.072187155 0.81396675
0.017316706 0.077030845 0.81380844
0.021995429 0.07740666 0.81223708
0.027850881 0.077724613 0.81117779
0.032609466 0.077409074 0.81125724
0.037497628 0.076872841 0.81159401
0.042797044 0.077336177 0.81344014
0.046676617 0.076236345 0.814089
0.023710594 0.080917783 0.81446683
0.027958244 0.081052989 0.81430006
0.032205768 0.080888882 0.8141734
0.037067011 0.080287471 0.81422234
0.040116031 0.080311567 0.81446677
-0.017673641 0.028151155 0.81762505
-0.016120192 0.032655198 0.8161667
-0.014579914 0.034889039 0.81515384
-0.01385972 0.038028087 0.8174305
0.075941682 0.038714036 0.8158651
-0.011256864 0.042246856 0.81667721
0.073039383 0.04182858 0.81742859
-0.010066371 0.04724218 0.81900018
-0.0085023195 0.04703952 0.81548911
0.072445147 0.047260862 0.81933337
-0.0063953227 0.052381832 0.81836003
-0.0039474126 0.053972155 0.81709993
0.06926433 0.054022744 0.8178612
0.070671842 0.050135128 0.81650001
-0.0054893917 0.056437705 0.81980002
-0.0028611459 0.058000971 0.81726682
0.064493701 0.059168391 0.81540024
0.066709898 0.057814997 0.81770629
-0.0015112266 0.062084399 0.81784022
0.063581139 0.062806815 0.81668329
-0.00090228696 0.066328958 0.81953335
0.001893236 0.067906097 0.81711119
0.005693695 0.069301523 0.81564456
0.058436349 0.068677694 0.81575024
0.061632711 0.066948302 0.81778681
0.0031715147 0.071625166 0.81908894
0.0074779564 0.072957933 0.81693894
0.053407419 0.07392168 0.81640005
0.057043348 0.073015459 0.81757784
0.060171619 0.070827454 0.8186667
0.0086960066 0.077471659 0.81876194
0.012805719 0.077478208 0.81653333
0.01734253 0.078848116 0.81500018
0.048311871 0.077939294 0.8160575
0.051909249 0.077044375 0.81837571
0.055659033 0.076250114 0.81966668
0.0097952001 0.081560515 0.81940013
0.01302659 0.082035489 0.81843346
0.017382545 0.082071789 0.81689638
0.021929059 0.082634166 0.81602865
0.027992755 0.083425827 0.81528902
0.03295045 0.08308883 0.81570011
0.037138481 0.082718827 0.81578898
0.042529456 0.082085453 0.81703347
0.047676168 0.08137688 0.81908369
0.014376267 0.085349903 0.81920016
0.017732799 0.085937448 0.81898671
0.022297945 0.086637445 0.81839341
0.027481256 0.087680452 0.81818229
0.032683682 0.087566383 0.81853896
0.037123471 0.087138712 0.81881344
0.041095823 0.086075529 0.81885004
0.023564247 0.090002023 0.8199333
0.028142644 0.091497488 0.81966668
0.03121018 0.091527253 0.8199333
-0.017761488 0.037206098 0.82164508
-0.013478339 0.043140672 0.82212257
-0.011641145 0.04743484 0.82234335
0.073043957 0.04782762 0.8203333
-0.010621767 0.051016241 0.82253331
-0.0080538895 0.052982841 0.82139987
0.072056003 0.052870374 0.82361424
-0.0072148019 0.057483613 0.82264441
0.068692438 0.058202464 0.82319045
-0.0055155084 0.062069491 0.82370007
-0.003585509 0.063039392 0.82136655
0.067347385 0.062734909 0.82237768
-0.0026960212 0.067325801 0.82239991
0.064171277 0.067210898 0.82099974
0.067088671 0.067612737 0.82323819
-0.0012919245 0.071679078 0.82408345
0.0017209251 0.072907165 0.82126659
0.062075384 0.072676688 0.82139987
0.066471629 0.071811877 0.82340837
-0.00090815901 0.075199418 0.82486665
0.0023835213 0.077246554 0.82331437
0.0058344272 0.078227721 0.82121325
0.053474806 0.078697443 0.82133323
0.057510123 0.078143768 0.82153314
0.061872978 0.077567272 0.82352507
0.065147556 0.075090036 0.82366675
0.007271328 0.082609639 0.82225919
0.011334445 0.083928362 0.82019997
0.044998445 0.083948836 0.82039994
0.048477359 0.083630353 0.82101655
0.052753232 0.082585312 0.82201165
0.056991179 0.082478322 0.82312375
0.0088162012 0.086789273 0.82321101
0.012685278 0.087258257 0.82101649
0.017081548 0.088181682 0.82073313
0.042589974 0.087691531 0.82114661
0.047417749 0.087229304 0.8225444
0.05242908 0.087144159 0.82380956
0.055966891 0.085870847 0.82420009
0.012914374 0.090385012 0.82342213
0.017955085 0.091672681 0.82318085
0.021902166 0.091965504 0.82213324
0.02758191 0.093195863 0.82118654
0.032970108 0.093356684 0.82092488
0.037519462 0.092630774 0.82110286
0.041889265 0.09233015 0.82213938
0.047292136 0.091843195 0.82400614
0.051369995 0.091262996 0.82443339
0.028026691 0.096807688 0.82376671
0.032840855 0.097933196 0.82248884
0.037447114 0.097942568 0.82257032
0.041663043 0.097624645 0.82358104
0.045236133 0.095131397 0.82473344
0.03445245 0.10121892 0.82433343
0.037526742 0.10121892 0.82433343
0.040621713 0.10126804 0.82473338
-0.017090049 0.039974641 0.82624447
-0.016351093 0.042362496 0.82785726
-0.014790471 0.044622343 0.82692599
-0.013649626 0.047366988 0.82784259
-0.012015583 0.052618481 0.82689559
-0.011279601 0.056772266 0.82785362
-0.0086112143 0.059932716 0.8259334
0.069976203 0.058419902 0.82626683
0.072423868 0.05699129 0.82782149
-0.010191195 0.061709765 0.82915574
-0.0075197862 0.063288264 0.82675236
0.069955498 0.063011967 0.82602239
0.07300961 0.062244739 0.82839912
0.076263048 0.063130543 0.8276
-0.0066466229 0.06754446 0.82775253
-0.0039891195 0.069134362 0.8257333
0.0699348 0.067601927 0.82577783
0.073211461 0.067782864 0.82799274
0.076332025 0.067813314 0.82834858
-0.0055509955 0.07249292 0.82900023
-0.0033771708 0.072591148 0.82661325
0.069395401 0.072182871 0.82546663
0.072845399 0.07250043 0.82733583
-0.002649701 0.077202238 0.82782507
0.0011437229 0.079353429 0.82551104
0.063732401 0.079070762 0.82523352
0.067148685 0.077127509 0.82701671
0.071518227 0.076881155 0.82850724
-0.0014278843 0.081976287 0.82873362
0.0021730736 0.083084702 0.82697773
0.0052513229 0.084501401 0.8258
0.059170119 0.083754413 0.82599998
0.062342007 0.083106667 0.8271926
0.065913804 0.081307568 0.82846677
0.071056053 0.08028774 0.8298806
0.0026943684 0.08739382 0.82894462
0.0062853508 0.088202395 0.82688898
0.054548617 0.088363171 0.82600009
0.057925638 0.087941132 0.82745004
0.061886668 0.087335989 0.82937348
0.008348858 0.092010692 0.82770836
0.012951241 0.092945792 0.82575554
0.016030278 0.092939541 0.82569999
0.049866673 0.093627475 0.82499999
0.053457402 0.092439272 0.82613331
0.057568062 0.092412099 0.82786018
0.0099075679 0.096371874 0.8288002
0.012990173 0.097078323 0.82824451
0.017599532 0.096943885 0.82710356
0.022210933 0.096872099 0.82648879
0.027071321 0.098844588 0.82584453
0.043748632 0.098314337 0.8256889
0.047626093 0.097218402 0.82616663
0.053082403 0.096949145 0.8271482
0.057357073 0.096876658 0.82841069
0.014561115 0.10033853 0.82973349
0.018154856 0.10127309 0.82895583
0.022273688 0.10254192 0.82882243
0.027276486 0.10284809 0.82818341
0.032508444 0.10343493 0.8270545
0.03761493 0.10376393 0.82627779
0.042500161 0.10335185 0.82759172
0.047000263 0.10175909 0.82872391
0.052156162 0.1007374 0.82877797
0.056307368 0.10027577 0.82921445
0.023851637 0.10653803 0.82993346
0.025395392 0.10652091 0.82980019
0.032505073 0.10680058 0.82957351
0.037695691 0.10706756 0.82805568
0.041978292 0.10676713 0.82871675
-0.018001985 0.043697365 0.83275717
-0.017710699 0.04684709 0.83367682
-0.014886978 0.048785545 0.83232147
-0.016488733 0.051260393 0.83482611
-0.014361192 0.052620094 0.83177978
-0.013841202 0.057764944 0.83159322
-0.012214704 0.062326048 0.83150113
-0.011016113 0.066645063 0.83301675
-0.008667862 0.06883347 0.83136666
-0.0077448287 0.072450183 0.83205336
-0.0063524568 0.077452399 0.83257771
0.074447013 0.078268595 0.83029634
-0.0059737843 0.081851974 0.83401662
-0.0036294102 0.082368292 0.83140004
0.067791551 0.082711898 0.83096665
0.072189234 0.082430817 0.83146989
0.075161964 0.081316866 0.83249998
-0.0055902777 0.085429154 0.83486646
-0.0022756355 0.087118335 0.83245003
0.0011514907 0.089163125 0.83106661
0.063377723 0.088862702 0.83066672
0.067425348 0.086769469 0.83281904
0.071396552 0.086102076 0.83385557
-0.0016967894 0.090806484 0.83433318
0.0021886642 0.092978016 0.83291847
0.0060581248 0.093522668 0.83088332
0.059485294 0.092695646 0.83039993
0.062477205 0.092425704 0.83193338
0.066001788 0.090821549 0.8344667
0.0032309571 0.096764088 0.83439988
0.0071556941 0.097737208 0.83254659
0.059630617 0.098343335 0.83242857
0.0088018198 0.10123669 0.83394992
0.01285899 0.10238805 0.83226669
0.016640605 0.10301308 0.83055562
0.048636533 0.10349193 0.83026665
0.052795127 0.10303374 0.83072215
0.057437606 0.10248902 0.83214742
0.014019482 0.10679471 0.83434659
0.017712662 0.10686073 0.83243704
0.022347359 0.1082946 0.83156198
0.027183428 0.10844662 0.83124167
0.032303501 0.10913221 0.83120954
0.037812054 0.10971382 0.83060008
0.042804398 0.10918387 0.83126676
0.047175847 0.10677905 0.83179998
0.051881537 0.10611226 0.83264446
0.055059325 0.10625084 0.83373332
0.018274728 0.11229256 0.83445179
0.022230636 0.1128221 0.83301336
0.027060475 0.11318579 0.83340746
0.032306604 0.11310803 0.83387262
0.037946895 0.11320635 0.83355552
0.042015482 0.1126565 0.83407992
0.045762688 0.11098345 0.83433324
0.022856576 0.11769599 0.83398092
0.026900196 0.11779082 0.83445829
0.031783685 0.11650802 0.83499986
0.038786717 0.11649406 0.83489978
-0.021189373 0.043556869 0.83600003
-0.021195007 0.046681374 0.83622223
-0.018701326 0.048859399 0.83624905
-0.022775734 0.051393878 0.83700001
-0.017826816 0.052933175 0.8367126
-0.014939178 0.054393224 0.83524001
-0.017315747 0.057634931 0.83718246
-0.014937867 0.057495907 0.83516669
-0.016935203 0.061954178 0.83767217
-0.014952849 0.062219601 0.83600432
-0.01501456 0.067160062 0.83945441
-0.012895774 0.067508124 0.83731848
-0.010921734 0.072309978 0.83762664
-0.0087168636 0.074665233 0.83606654
-0.010298538 0.077945501 0.83788896
-0.0087259011 0.077856638 0.8369332
-0.010314654 0.081189364 0.83920014
-0.0081070801 0.082884416 0.83740008
-0.0069112736 0.087261468 0.83754444
-0.0040351744 0.088577628 0.83526635
0.06927447 0.088697799 0.83639997
0.072452307 0.087211505 0.83706897
-0.0056161713 0.091286287 0.83873343
-0.0027045351 0.092691176 0.83633322
0.063784137 0.094874859 0.83599138
0.067847185 0.091988258 0.83802664
-0.0019652396 0.096948139 0.83822227
0.0016785744 0.098561324 0.83647776
0.063206136 0.097518623 0.83866096
0.066434175 0.095322222 0.8399334
0.0027248554 0.10242579 0.83838898
0.0070719547 0.10327011 0.83628321
0.059915695 0.10270198 0.83640814
0.062307179 0.10304359 0.83920014
0.0070895925 0.10743279 0.8384167
0.011109965 0.10757236 0.83625698
0.05204672 0.10877936 0.83528876
0.057566777 0.10754738 0.83627498
0.06162883 0.10741321 0.83848572
0.0084701339 0.11089382 0.83953345
0.012561556 0.11201167 0.8372727
0.016214062 0.11264746 0.83516645
0.034903836 0.11497308 0.83513314
0.04347568 0.1134332 0.83523321
0.04786833 0.11222696 0.83616191
0.052183092 0.11218192 0.8374815
0.056718711 0.11187903 0.83855259
0.060115691 0.11084979 0.83920014
0.014180365 0.11584791 0.8377111
0.017581476 0.11719817 0.83675241
0.02090602 0.11897106 0.83593321
0.028685136 0.1196814 0.83546656
0.032749668 0.11848494 0.83579332
0.037825845 0.11861651 0.83578074
0.042783633 0.11755405 0.83691329
0.04736568 0.11681627 0.83860016
0.050761249 0.1156156 0.83980006
0.018621715 0.12010158 0.83840001
0.02303387 0.12260532 0.83774042
0.027190583 0.12307806 0.83742219
0.032659527 0.1230899 0.83750558
0.038109951 0.1230363 0.8371408
0.042405311 0.12275265 0.8382476
0.046062525 0.12030215 0.83980006
0.027256647 0.12650065 0.83946675
0.031944782 0.12646717 0.8392446
0.036937863 0.12672672 0.83889341
0.041304708 0.12637006 0.83860016
-0.021316104 0.051639486 0.84100002
-0.01707555 0.067574017 0.84181583
-0.016461037 0.072182812 0.84339595
-0.01308181 0.072367899 0.84099525
-0.015105968 0.075424217 0.84456527
-0.01259235 0.077204421 0.84194416
-0.010889426 0.083148547 0.84324455
-0.010374878 0.087159365 0.8441
-0.0087599577 0.087537855 0.84020013
0.072904631 0.089323096 0.84229624
-0.0066828546 0.09239012 0.84168893
0.069685832 0.09313792 0.84136665
0.071423449 0.09257444 0.84335548
-0.0056427312 0.096420728 0.84270006
-0.0035414358 0.098079674 0.84124446
0.068355501 0.097305506 0.84188336
0.071540125 0.097438253 0.84473342
-0.0021863985 0.10160333 0.84278679
0.0014262915 0.1040268 0.84083319
0.063879199 0.10139959 0.84065884
0.067864358 0.10215192 0.84213334
0.071434431 0.10200249 0.84348512
-0.00092981162 0.10527024 0.84453326
0.0020570201 0.10786146 0.8426801
0.0053467099 0.10949703 0.84079987
0.063436851 0.10961862 0.8417334
0.06748154 0.10706931 0.84323114
0.071548127 0.10687877 0.84482753
0.0027433895 0.11254726 0.84412235
0.0067279623 0.11298685 0.84203339
0.010051813 0.11419824 0.84086645
0.057901464 0.11423445 0.84113324
0.061927266 0.11285987 0.84254283
0.066192061 0.11190913 0.84483987
0.0074634682 0.11721332 0.84380001
0.011806437 0.11780792 0.84181488
0.049210615 0.11877765 0.84006661
0.052613202 0.11757436 0.84123325
0.057219367 0.11757195 0.84262222
0.060527962 0.11789718 0.84495544
0.013039405 0.12188198 0.84397495
0.017682742 0.12256683 0.84155238
0.021032741 0.12360288 0.84100002
0.044538669 0.12276268 0.84059989
0.047888041 0.12222133 0.84090823
0.052571423 0.12243187 0.84370375
0.057115525 0.12227786 0.84399998
0.014827862 0.12575275 0.84493327
0.018473597 0.12658785 0.84351116
0.022421774 0.12702718 0.8416549
0.027296888 0.12825207 0.84071112
0.032320328 0.12889996 0.84085321
0.037760738 0.12907025 0.84094429
0.043561865 0.12738971 0.84189993
0.047827397 0.12707774 0.84328884
0.052196052 0.12709716 0.84491414
0.055801872 0.1273312 0.84497768
0.023751074 0.13095744 0.84471107
0.027401891 0.1318855 0.84394097
0.031869095 0.13220988 0.84315258
0.03767056 0.13223393 0.84282982
0.042221155 0.13226518 0.84350485
0.03293924 0.13514051 0.8446666
0.036874115 0.13591383 0.84458882
0.041199259 0.13589126 0.84445
-0.015928552 0.077160962 0.84637892
-0.016235799 0.082110785 0.8487156
-0.013175951 0.082342207 0.84703624
-0.01835208 0.085296087 0.84900004
-0.012464465 0.08727397 0.84848875
-0.0088211251 0.089722924 0.84606677
-0.010436538 0.092415974 0.8491168
-0.0084493188 0.093503736 0.84824181
0.073440149 0.092347443 0.84848344
-0.0067248098 0.097691692 0.84693336
0.073416598 0.097838603 0.84821129
-0.0056758397 0.10250595 0.84764463
-0.0035603028 0.10332263 0.84573323
0.073678255 0.10278061 0.84666562
0.07506825 0.10266844 0.84900016
-0.0056855856 0.10583953 0.84910035
-0.0027109529 0.10733595 0.84688342
0.073737808 0.10711459 0.84669834
0.076693341 0.10588457 0.84946167
-0.0019886428 0.11144408 0.84767795
0.0014348875 0.11409485 0.8459
0.063703135 0.11479584 0.84526652
0.067526206 0.11297607 0.8457638
0.07219249 0.11154264 0.8468293
-0.00093458249 0.11528472 0.848867
0.0022267534 0.11771651 0.84742236
0.0059025683 0.11903275 0.84557772
0.062982298 0.11806626 0.84616661
0.067015052 0.1174318 0.84726679
0.071052887 0.11600006 0.84832048
0.0038145587 0.12159144 0.84880024
0.0071663554 0.12278453 0.84749192
0.011295415 0.1239395 0.8459667
0.058978479 0.12423979 0.84533322
0.062254276 0.12290878 0.84699273
0.066040784 0.1215179 0.84828907
0.0077756187 0.12639271 0.84923351
0.012500929 0.12771413 0.8475135
0.016944205 0.12849066 0.84571123
0.054231711 0.12813053 0.84506655
0.05823743 0.12748729 0.84601098
0.061914433 0.12763996 0.84851933
0.014113802 0.13115767 0.84940016
0.018045459 0.13253163 0.84807414
0.022212848 0.13275419 0.84614444
0.044805948 0.13215129 0.84564441
0.048028708 0.13233897 0.84684443
0.052791342 0.13240021 0.84723723
0.056431651 0.13220514 0.84851694
0.019131364 0.13643169 0.84944463
0.022799667 0.1373207 0.84842247
0.027511211 0.13713902 0.84729642
0.03197642 0.1373778 0.84600002
0.036905583 0.13838853 0.84531099
0.043251939 0.13761266 0.84606659
0.048104983 0.13728331 0.84819275
0.052691944 0.13718669 0.84881687
0.056120332 0.13596176 0.84980011
0.024424506 0.14071518 0.84986681
0.027571067 0.14059745 0.8491559
0.032516282 0.14158627 0.84831446
0.037007362 0.14192565 0.84764463
0.042059701 0.14174342 0.84750015
0.048195779 0.14070417 0.84980011
-0.016796339 0.079109102 0.85040009
-0.017089652 0.082412995 0.85184956
-0.016028441 0.087153167 0.8517108
-0.015909087 0.091817662 0.85383749
-0.012445515 0.092625968 0.85105336
0.073646441 0.094980277 0.85086668
0.076531753 0.090758078 0.8520807
-0.015272732 0.095317639 0.85388887
-0.012068059 0.09779568 0.85241169
-0.0084720505 0.098511837 0.85060835
0.075344332 0.098288529 0.85212231
-0.015289029 0.10018963 0.85480005
-0.011629358 0.1027719 0.85360658
-0.0080862949 0.10299709 0.85171109
0.076413989 0.10305875 0.85222429
-0.011032564 0.10702642 0.85436982
-0.0073026977 0.10790306 0.85291916
0.07680966 0.1084197 0.85075009
-0.0057217446 0.11128121 0.85450017
-0.0035847311 0.11352929 0.85148883
0.073571414 0.1138575 0.85000008
-0.0018932403 0.11766283 0.85235995
0.072464854 0.11833917 0.85095698
-0.00094005035 0.12151883 0.85383338
0.0017080667 0.12250042 0.85145551
0.0054073315 0.12497468 0.85033327
0.068279892 0.12225588 0.85122001
0.072054543 0.12221308 0.853136
0.0026968517 0.12676582 0.85325718
0.006999081 0.12851711 0.85109448
0.010164185 0.12970984 0.8502667
0.06416788 0.12830396 0.85143334
0.066983402 0.12651001 0.85357237
0.070776373 0.12559193 0.85453343
0.0038388269 0.13030982 0.85420007
0.006793546 0.1322861 0.8537668
0.012241921 0.13338511 0.85151339
0.058701277 0.13321891 0.85045338
0.061918631 0.13254876 0.85326672
0.0078233555 0.13511364 0.85443342
0.013208052 0.13778448 0.85347039
0.017579647 0.13826673 0.85101104
0.054554723 0.13917249 0.85009998
0.058038697 0.13806084 0.85177493
0.061200928 0.13748479 0.85435021
0.014193352 0.14142719 0.85416675
0.018161748 0.14290874 0.85351861
0.022695212 0.14283727 0.85190839
0.027622849 0.14323561 0.85074997
0.031576551 0.14396735 0.85040009
0.047573432 0.14305592 0.85124815
0.05310376 0.14269653 0.85224807
0.057434708 0.14239597 0.85362226
0.019783651 0.14630231 0.85480011
0.023489928 0.14727846 0.85431117
0.027692655 0.14756908 0.85292596
0.032403212 0.14728351 0.85127765
0.037181329 0.1473421 0.85161108
0.041970558 0.14743108 0.85212219
0.046842296 0.14775494 0.85400015
0.050586287 0.14677717 0.85447788
0.028791184 0.15146463 0.85402226
0.032707974 0.15233001 0.85404593
0.037286684 0.15252654 0.85403705
0.042076558 0.15256822 0.8542704
-0.017739952 0.09414392 0.85766673
0.077562436 0.093275636 0.85555494
-0.015306404 0.097916216 0.85577154
0.077727616 0.096903324 0.85586625
0.080570564 0.095664926 0.85700005
-0.015316455 0.10275844 0.85633337
-0.013706166 0.10265997 0.85550833
0.078229159 0.10158797 0.85586309
-0.011345237 0.10932269 0.85785198
-0.0089226048 0.10985857 0.85580021
0.078787953 0.10657492 0.85500002
-0.0065371674 0.11318099 0.85685015
-0.0065501854 0.11580297 0.85856664
-0.0041448921 0.11811974 0.85797787
-0.0021443181 0.12322435 0.85741669
0.074035913 0.12253209 0.85536677
0.075816043 0.12203427 0.85745716
-0.00094370823 0.12757327 0.85715562
0.00065411674 0.12821653 0.85613352
0.06879802 0.12851493 0.85635573
0.072591007 0.12730359 0.85713577
0.0025190858 0.13236074 0.85718894
0.06372577 0.13299665 0.85615021
0.067660719 0.13228127 0.85795844
0.071129762 0.13101161 0.85879999
0.0033249191 0.13632296 0.85871118
0.0068176826 0.13754715 0.85685718
0.011022503 0.13923886 0.85536689
0.063801758 0.13714124 0.85716683
0.066363364 0.13668293 0.85930008
0.007595703 0.1416585 0.85877776
0.011604835 0.14269467 0.85632408
0.015014464 0.14404669 0.85556686
0.058890194 0.14403486 0.85550022
0.062520809 0.14150718 0.85786122
0.0086759496 0.14558123 0.8599335
0.011863478 0.14694031 0.85852379
0.01751809 0.1480352 0.85664463
0.021941058 0.14916968 0.85604471
0.052656777 0.14833747 0.85605747
0.057707194 0.14705898 0.85766679
0.061572254 0.14551353 0.85953337
0.013486786 0.15117419 0.85990018
0.017396811 0.15233476 0.85865444
0.023032092 0.15306678 0.85705936
0.027255038 0.15337266 0.85580021
0.030962458 0.15434901 0.85533363
0.046942797 0.15284808 0.85583729
0.051643699 0.15280734 0.85816193
0.055937953 0.15024611 0.85916668
0.018297253 0.15516707 0.8598668
0.023485813 0.15701154 0.85901666
0.027875736 0.15732507 0.85854453
0.032664578 0.15805146 0.85814828
0.037404541 0.1577936 0.85674828
0.042203214 0.15781076 0.8568446
0.046845105 0.1576073 0.85821909
0.050296295 0.15653566 0.8585999
0.03433653 0.16157763 0.8599335
0.038311593 0.16143358 0.85916674
0.042309046 0.16140226 0.85900003
0.045555968 0.16155261 0.8598001
-0.011152796 0.11248937 0.86376709
-0.008968994 0.11283025 0.8602494
-0.010624364 0.11739375 0.86439824
-0.0079145133 0.1175692 0.86175179
-0.010610345 0.1220568 0.86325777
-0.0073814234 0.12189143 0.86208564
-0.0041570221 0.12326641 0.86048889
0.076070361 0.12484396 0.86033338
-0.010621313 0.12539779 0.86415005
-0.0068537947 0.12634353 0.86328083
-0.0031994029 0.12793414 0.86173999
0.073813722 0.12990879 0.86208332
0.076842368 0.1279054 0.86298996
-0.0014869134 0.13215949 0.86281115
0.00065742736 0.13366702 0.86046672
0.069684617 0.13450877 0.86073321
0.072750114 0.13290612 0.86280668
0.076403402 0.13021269 0.86410016
0.001727839 0.13836692 0.86149454
0.068586148 0.13803481 0.86132383
0.071958683 0.13742086 0.86394179
0.0030688939 0.14269476 0.86181664
0.0060058846 0.14352269 0.86037797
0.06437581 0.14367424 0.86128885
0.067777507 0.14261457 0.86271906
0.0034767834 0.14735198 0.86327505
0.0068828762 0.1476413 0.86145008
0.010281335 0.14880361 0.86006677
0.058402408 0.14880361 0.86006671
0.062666006 0.14775929 0.86197144
0.065637708 0.14784487 0.86381131
0.0075563747 0.152289 0.86297625
0.011437761 0.15238726 0.86094296
0.057165381 0.15282743 0.86213344
0.06165842 0.15241693 0.86353761
0.065142594 0.15115544 0.86436683
0.0087173181 0.15591897 0.86403358
0.012121943 0.15708368 0.86270005
0.017191622 0.15724456 0.86072671
0.022313204 0.15841526 0.86013341
0.052515101 0.15724078 0.86120957
0.056583863 0.15725103 0.86378109
0.060325023 0.15602721 0.86463356
0.013557886 0.16081522 0.86443347
0.017559087 0.16216107 0.86303335
0.023153462 0.16188584 0.86157042
0.027959807 0.1618026 0.86112595
0.03254725 0.16345364 0.86033338
0.037339527 0.16374166 0.86049527
0.041975275 0.16365989 0.86036682
0.047722191 0.16213726 0.86168575
0.051952656 0.16192201 0.86282921
0.055479899 0.16163504 0.86451685
0.02360745 0.16585737 0.8634752
0.028013386 0.1669295 0.86278528
0.032989152 0.16806297 0.86139989
0.037425913 0.16814558 0.86182487
0.042665437 0.1670052 0.86214161
0.04699045 0.16596946 0.86405849
0.02968541 0.17130046 0.86460018
0.032827932 0.17194267 0.86244446
0.037904706 0.17223021 0.86292392
0.042091779 0.17173779 0.86390966
0.03372243 0.17535153 0.86475015
-0.01230351 0.11480365 0.86913341
-0.011749074 0.11788578 0.86803079
-0.013254146 0.12235303 0.86763
-0.010667687 0.12836792 0.86792314
-0.0084980754 0.12846215 0.86674452
-0.0071110809 0.13149786 0.86833704
-0.0037865434 0.13275087 0.86754179
0.074878402 0.13358195 0.86510015
0.0776008 0.13253593 0.86666983
-0.0017665693 0.1372823 0.86814451
0.074294917 0.13723688 0.86582011
0.077504538 0.13716519 0.86740381
0.08007805 0.13741714 0.86900008
-0.00095577026 0.14212126 0.86811107
0.00066145137 0.14253733 0.8657335
0.072271354 0.14232458 0.86607236
0.076241672 0.14162393 0.8683629
-0.00095687737 0.14632802 0.86911666
0.0010659248 0.14721735 0.86721677
0.067704499 0.14825347 0.86620009
0.07150232 0.1457655 0.86817503
0.075290963 0.14564477 0.86986691
0.0030905877 0.1518005 0.86805838
0.0055120438 0.15400004 0.86680013
0.063599139 0.15453792 0.86530018
0.06724561 0.15266182 0.86770958
0.0039069871 0.15607315 0.86936659
0.0068091629 0.15751062 0.86748677
0.010365809 0.15970446 0.86713338
0.058784902 0.15863557 0.86570024
0.062122334 0.15810606 0.86720955
0.066436544 0.15707262 0.86863345
0.0087697804 0.16090006 0.86923331
0.011789281 0.16326907 0.86785835
0.053903922 0.16415776 0.86510015
0.057734091 0.16317858 0.86722392
0.062272847 0.16118373 0.86931115
0.01309305 0.1671046 0.86926669
0.017052615 0.16772665 0.86794585
0.021883236 0.16834077 0.86695427
0.047911122 0.16882752 0.86759341
0.05245683 0.16791002 0.86784822
0.056754399 0.16752562 0.86921328
0.018497275 0.17141642 0.86926669
0.022813957 0.17244624 0.86902225
0.027705846 0.1729228 0.86754769
0.031331677 0.17390029 0.86553353
0.04425405 0.17312923 0.86570013
0.047428757 0.17250259 0.86891896
0.028628722 0.17666824 0.86925
0.033058509 0.17772791 0.86850005
0.037874065 0.17752261 0.86748898
0.042555545 0.17744325 0.86809182
0.039594043 0.18121558 0.86973327
0.041209769 0.18118782 0.8696
-0.013133664 0.11902742 0.87046671
-0.012329932 0.12963226 0.87100005
-0.011268724 0.13204618 0.87266779
-0.0074571422 0.13395135 0.87099123
0.080202274 0.13358292 0.87034822
-0.0069310009 0.13721262 0.8728444
-0.0042082323 0.13774802 0.87108898
0.080193244 0.13599597 0.87024999
-0.0032380831 0.1424454 0.87207299
0.078144923 0.14376365 0.87153816
0.080576733 0.14477922 0.87441188
-0.0021823565 0.14813817 0.87264162
0.072427906 0.14834979 0.87054682
0.076929733 0.1478107 0.87310547
-0.00096148299 0.15190631 0.87329996
0.0010721406 0.15283553 0.8716501
