# .PCD v0.7 - Point Cloud Data file format
VERSION 0.7
FIELDS x y z
SIZE 4 4 4
TYPE F F F
COUNT 1 1 1
WIDTH 1321
HEIGHT 1
VIEWPOINT 0 0 0 1 0 0 0
POINTS 1321
DATA ascii
-0.051038072 0.0072612017 0.075423114
-0.050254241 0.010632798 0.075423114
-0.050989926 0.0072612017 0.078794718
-0.050184131 0.010632798 0.078794718
-0.052092269 0.00051799417 0.082166329
-0.051622614 0.0038895905 0.082166329
-0.052073419 0.00051799417 0.085537933
-0.051563695 0.0038895905 0.085537933
-0.051421896 0.0050063729 0.082166329
-0.051421896 0.004663378 0.085537933
-0.050949425 0.0072612017 0.082166329
-0.050135255 0.010632798 0.082166329
-0.050883129 0.0072612017 0.085537933
-0.050129935 0.010632798 0.085537933
-0.049343035 0.014004409 0.075423114
-0.048267037 0.017376021 0.075423114
-0.049280941 0.014004409 0.078794718
-0.048296571 0.017376021 0.078794718
-0.048050284 0.01797846 0.075423114
-0.046886891 0.020747617 0.075423114
-0.044966355 0.024119228 0.075423114
-0.048050284 0.018128887 0.078794718
-0.046986595 0.020747617 0.078794718
-0.04507339 0.024119228 0.078794718
-0.049258232 0.014004409 0.082166329
-0.048312679 0.017376021 0.082166329
-0.049305484 0.014004409 0.085537933
-0.048311546 0.017376021 0.085537933
-0.048050284 0.018206179 0.082166329
-0.047026098 0.020747617 0.082166329
-0.045142159 0.024119228 0.082166329
-0.048050284 0.018151313 0.085537933
-0.047004074 0.020747617 0.085537933
-0.045186311 0.024119228 0.085537933
-0.051973671 0.00051799417 0.088909537
-0.051437706 0.0038895905 0.088909537
-0.051904574 0.00051799417 0.092281148
-0.051430956 0.0038895905 0.092281148
-0.051421896 0.003976956 0.088909537
-0.051421896 0.0039433539 0.092281148
-0.050808758 0.0072612017 0.088909537
-0.050145462 0.010632798 0.088909537
-0.050829858 0.0072612017 0.092281148
-0.050187498 0.010632798 0.092281148
-0.051996991 0.00051799417 0.095652744
-0.051559776 0.0038895905 0.095652744
-0.052223071 0.00051799417 0.099024355
-0.051809251 0.0038895905 0.099024355
-0.051421896 0.0047181994 0.095652744
-0.051421896 0.0061411262 0.099024355
-0.050961599 0.0072612017 0.095652744
-0.050288558 0.010632798 0.095652744
-0.051205024 0.0072612017 0.099024355
-0.050510198 0.010632798 0.099024355
-0.049353153 0.014004409 0.088909537
-0.048316553 0.017376021 0.088909537
-0.049415931 0.014004409 0.092281148
-0.048354477 0.017376021 0.092281148
-0.048050284 0.018129066 0.088909537
-0.047005832 0.020747617 0.088909537
-0.045211107 0.024119228 0.088909537
-0.048050284 0.018225864 0.092281148
-0.047059432 0.020747617 0.092281148
-0.045266554 0.024119228 0.092281148
-0.049504444 0.014004409 0.095652744
-0.048457578 0.017376021 0.095652744
-0.049690381 0.014004409 0.099024355
-0.048637927 0.017376021 0.099024355
-0.048050284 0.018515587 0.095652744
-0.047155857 0.020747617 0.095652744
-0.045348778 0.024119228 0.095652744
-0.048050284 0.019016489 0.099024355
-0.047329426 0.020747617 0.099024355
-0.04547441 0.024119228 0.099024355
-0.044678688 0.024560094 0.075423114
-0.044678688 0.024728298 0.078794718
-0.044678688 0.024844915 0.082166329
-0.044678688 0.024934664 0.085537933
-0.04244034 0.027490839 0.075423114
-0.041307077 0.028763831 0.075423114
-0.039227366 0.030862436 0.075423114
-0.042578265 0.027490839 0.078794718
-0.041307077 0.0289298 0.078794718
-0.039414749 0.030862436 0.078794718
-0.037935466 0.032072976 0.075423114
-0.037935466 0.03222166 0.078794718
-0.035414621 0.034234032 0.075423114
-0.034563869 0.034895167 0.075423114
-0.031192258 0.037573025 0.075423114
-0.03550978 0.034234032 0.078794718
-0.034563869 0.034958914 0.078794718
-0.031192258 0.037567541 0.078794718
-0.042680666 0.027490839 0.082166329
-0.041307077 0.0290474 0.082166329
-0.039525971 0.030862436 0.082166329
-0.042760789 0.027490839 0.085537933
-0.041307077 0.02911377 0.085537933
-0.039526433 0.030862436 0.085537933
-0.037935466 0.032308117 0.082166329
-0.037935466 0.032287106 0.085537933
-0.035614237 0.034234032 0.082166329
-0.034563869 0.035020038 0.082166329
-0.031192258 0.037522033 0.082166329
-0.035593078 0.034234032 0.085537933
-0.034563869 0.034993872 0.085537933
-0.031192258 0.037477478 0.085537933
-0.044678688 0.024971411 0.088909537
-0.044678688 0.02504769 0.092281148
-0.044678688 0.025186956 0.095652744
-0.044678688 0.025365233 0.099024355
-0.042770684 0.027490839 0.088909537
-0.041307077 0.029120669 0.088909537
-0.039540172 0.030862436 0.088909537
-0.042828292 0.027490839 0.092281148
-0.041307077 0.029164344 0.092281148
-0.039590076 0.030862436 0.092281148
-0.037935466 0.032277748 0.088909537
-0.037935466 0.032350793 0.092281148
-0.035529882 0.034234032 0.088909537
-0.034563869 0.03494902 0.088909537
-0.031192258 0.037446871 0.088909537
-0.035617471 0.034234032 0.092281148
-0.034563869 0.035008386 0.092281148
-0.031192258 0.037488386 0.092281148
-0.042943612 0.027490839 0.095652744
-0.041307077 0.029301852 0.095652744
-0.03973186 0.030862436 0.095652744
-0.043063447 0.027490839 0.099024355
-0.041307077 0.029470727 0.099024355
-0.039937526 0.030862436 0.099024355
-0.037935466 0.032491848 0.095652744
-0.037935466 0.032699838 0.099024355
-0.035807759 0.034234032 0.095652744
-0.034563869 0.035151049 0.095652744
-0.031248122 0.037605658 0.095652744
-0.031192258 0.037605658 0.095002383
-0.036092892 0.034234032 0.099024355
-0.034563869 0.035413012 0.099024355
-0.031668842 0.037605658 0.099024355
-0.031192258 0.037645921 0.095652744
-0.031192258 0.037948802 0.099024355
-0.031149447 0.037605658 0.075423114
-0.031140372 0.037605658 0.078794718
-0.03107588 0.037605658 0.082166329
-0.03101328 0.037605658 0.085537933
-0.027820647 0.040123537 0.075423114
-0.026607454 0.040977255 0.075423114
-0.02444905 0.042412385 0.075423114
-0.027820647 0.040090963 0.078794718
-0.02656576 0.040977255 0.078794718
-0.02444905 0.042378917 0.078794718
-0.021347195 0.044348851 0.075423114
-0.021303967 0.044348851 0.078794718
-0.021077439 0.044506326 0.075423114
-0.017705828 0.046402618 0.075423114
-0.021077439 0.04448171 0.078794718
-0.017705828 0.046364889 0.078794718
-0.027820647 0.04001759 0.082166329
-0.026457593 0.040977255 0.082166329
-0.02444905 0.042315826 0.082166329
-0.027820647 0.039942011 0.085537933
-0.026345953 0.040977255 0.085537933
-0.02444905 0.042228684 0.085537933
-0.021222472 0.044348851 0.082166329
-0.021101177 0.044348851 0.085537933
-0.021077439 0.044431165 0.082166329
-0.017705828 0.046264544 0.082166329
-0.021077439 0.044362679 0.085537933
-0.017705828 0.046197101 0.085537933
-0.014461249 0.047720477 0.075423114
-0.014334232 0.047720477 0.072494194
-0.014334232 0.047760352 0.075423114
-0.01096262 0.048643306 0.075423114
-0.014443114 0.047720477 0.078794718
-0.014334232 0.047756687 0.078794718
-0.01096262 0.048677459 0.078794718
-0.007591024 0.049181864 0.075423114
-0.0042194128 0.049364552 0.075423114
-0.007591024 0.049213871 0.078794718
-0.0042194128 0.049377963 0.078794718
-0.014361486 0.047720477 0.082166329
-0.014334232 0.047730312 0.082166329
-0.01096262 0.048705176 0.082166329
-0.014334232 0.047698662 0.085537933
-0.014334232 0.047720477 0.082884409
-0.01427573 0.047720477 0.085537933
-0.01096262 0.048708662 0.085537933
-0.007591024 0.049227372 0.082166329
-0.0042194128 0.049372926 0.082166329
-0.007591024 0.049244687 0.085537933
-0.0042194128 0.049403861 0.085537933
-0.03096956 0.037605658 0.088909537
-0.031027988 0.037605658 0.092281148
-0.027820647 0.039886221 0.088909537
-0.02624397 0.040977255 0.088909537
-0.02444905 0.042157248 0.088909537
-0.027820647 0.039927915 0.092281148
-0.02626887 0.040977255 0.092281148
-0.02444905 0.042163447 0.092281148
-0.021077439 0.044348285 0.088909537
-0.021077439 0.044348851 0.086528681
-0.021076456 0.044348851 0.088909537
-0.021146759 0.044348851 0.092281148
-0.021077439 0.044348851 0.0889723
-0.017705828 0.046197996 0.088909537
-0.021077439 0.044392422 0.092281148
-0.017705828 0.046270922 0.092281148
-0.027820647 0.040100947 0.095652744
-0.026506126 0.040977255 0.095652744
-0.02444905 0.042298362 0.095652744
-0.027820647 0.040405735 0.099024355
-0.026969448 0.040977255 0.099024355
-0.02444905 0.042605057 0.099024355
-0.021297112 0.044348851 0.095652744
-0.021693319 0.044348851 0.099024355
-0.021077439 0.044482127 0.095652744
-0.017705828 0.046419427 0.095652744
-0.021077439 0.044713005 0.099024355
-0.017705828 0.046634331 0.099024355
-0.014334232 0.047691986 0.088909537
-0.014260754 0.047720477 0.088909537
-0.01096262 0.048736647 0.088909537
-0.014425814 0.047720477 0.092281148
-0.014334232 0.047720477 0.091124356
-0.014334232 0.04775621 0.092281148
-0.01096262 0.048798904 0.092281148
-0.007591024 0.049278781 0.088909537
-0.0042194128 0.049455509 0.088909537
-0.007591024 0.049339607 0.092281148
-0.0042194128 0.049513921 0.092281148
-0.014861852 0.047720477 0.095652744
-0.014334232 0.047914252 0.095652744
-0.01096262 0.048897102 0.095652744
-0.015320167 0.047720477 0.099024355
-0.014334232 0.048078582 0.099024355
-0.01096262 0.049022004 0.099024355
-0.007591024 0.049436793 0.095652744
-0.0042194128 0.04961051 0.095652744
-0.007591024 0.049553826 0.099024355
-0.0042194128 0.049747095 0.099024355
-0.052538007 0.00051799417 0.10239597
-0.052132338 0.0038895905 0.10239597
-0.052891523 0.00051799417 0.10576756
-0.05247283 0.0038895905 0.10576756
-0.051543519 0.0072612017 0.10239597
-0.051421896 0.0072612017 0.10126735
-0.051421896 0.0078757852 0.10239597
-0.051894709 0.0072612017 0.10576756
-0.051421896 0.0095300525 0.10576756
-0.050842509 0.010632798 0.10239597
-0.051159889 0.010632798 0.10576756
-0.05321756 0.00051799417 0.10913917
-0.052814439 0.0038895905 0.10913917
-0.053508431 0.00051799417 0.11251079
-0.053115591 0.0038895905 0.11251079
-0.052236393 0.0072612017 0.10913917
-0.051453769 0.010632798 0.10913917
-0.051421896 0.010632798 0.10878523
-0.052533969 0.0072612017 0.11251079
-0.051718324 0.010632798 0.11251079
-0.049962744 0.014004409 0.10239597
-0.048862085 0.017376021 0.10239597
-0.05022572 0.014004409 0.10576756
-0.049098566 0.017376021 0.10576756
-0.048050284 0.019571856 0.10239597
-0.047542199 0.020747617 0.10239597
-0.045649245 0.024119228 0.10239597
-0.048050284 0.020080924 0.10576756
-0.047755837 0.020747617 0.10576756
-0.04586719 0.024119228 0.10576756
-0.051421896 0.01075232 0.10913917
-0.051421896 0.011692971 0.11251079
-0.050495178 0.014004409 0.10913917
-0.049330339 0.017376021 0.10913917
-0.050725922 0.014004409 0.11251079
-0.049504966 0.017376021 0.11251079
-0.048050284 0.020482495 0.10913917
-0.047929212 0.020747617 0.10913917
-0.046043918 0.024119228 0.10913917
-0.048050284 0.020724401 0.11251079
-0.048039392 0.020747617 0.11251079
-0.046112493 0.024119228 0.11251079
-0.053759366 0.00051799417 0.11588238
-0.053347886 0.0038895905 0.11588238
-0.05394499 0.00051799417 0.11925399
-0.053524137 0.0038895905 0.11925399
-0.052731752 0.0072612017 0.11588238
-0.051898867 0.010632798 0.11588238
-0.052874014 0.0072612017 0.11925399
-0.052015811 0.010632798 0.11925399
-0.054047048 0.00051799417 0.12262559
-0.053607807 0.0038895905 0.12262559
-0.054042101 0.00051799417 0.1259972
-0.05361177 0.0038895905 0.1259972
-0.05294162 0.0072612017 0.12262559
-0.052048147 0.010632798 0.12262559
-0.052951515 0.0072612017 0.1259972
-0.052001849 0.010632798 0.1259972
-0.051421896 0.012294739 0.11588238
-0.051421896 0.012613684 0.11925399
-0.050879225 0.014004409 0.11588238
-0.049583286 0.017376021 0.11588238
-0.05095461 0.014004409 0.11925399
-0.049592108 0.017376021 0.11925399
-0.048050284 0.020740554 0.11588238
-0.048046872 0.020747617 0.11588238
-0.046079502 0.024119228 0.11588238
-0.048050284 0.020610973 0.11925399
-0.047980681 0.020747617 0.11925399
-0.045980647 0.024119228 0.11925399
-0.051421896 0.012625828 0.12262559
-0.051421896 0.012398452 0.1259972
-0.050939292 0.014004409 0.12262559
-0.049531296 0.017376021 0.12262559
-0.050850391 0.014004409 0.1259972
-0.04940562 0.017376021 0.1259972
-0.048050284 0.02041778 0.12262559
-0.047878563 0.020747617 0.12262559
-0.045845151 0.024119228 0.12262559
-0.048050284 0.020163134 0.1259972
-0.047748551 0.020747617 0.1259972
-0.04569532 0.024119228 0.1259972
-0.044678688 0.025607347 0.10239597
-0.044678688 0.025912479 0.10576756
-0.044678688 0.026140794 0.10913917
-0.044678688 0.026196688 0.11251079
-0.043242157 0.027490839 0.10239597
-0.041307077 0.029671609 0.10239597
-0.040151566 0.030862436 0.10239597
-0.043459237 0.027490839 0.10576756
-0.041307077 0.029861003 0.10576756
-0.040329173 0.030862436 0.10576756
-0.037935466 0.03295292 0.10239597
-0.037935466 0.033202574 0.10576756
-0.036432162 0.034234032 0.10239597
-0.034563869 0.035741493 0.10239597
-0.032167196 0.037605658 0.10239597
-0.036778778 0.034234032 0.10576756
-0.034563869 0.036067829 0.10576756
-0.032605872 0.037605658 0.10576756
-0.043615311 0.027490839 0.10913917
-0.041307077 0.030035093 0.10913917
-0.040510923 0.030862436 0.10913917
-0.043675885 0.027490839 0.11251079
-0.041307077 0.030202821 0.11251079
-0.040689319 0.030862436 0.11251079
-0.037935466 0.033426806 0.10913917
-0.037935466 0.033620253 0.11251079
-0.037049547 0.034234032 0.10913917
-0.034563869 0.036355987 0.10913917
-0.0329974 0.037605658 0.10913917
-0.037269101 0.034234032 0.11251079
-0.034563869 0.036580935 0.11251079
-0.033269376 0.037605658 0.11251079
-0.031192258 0.038321182 0.10239597
-0.031192258 0.038665578 0.10576756
-0.031192258 0.038946256 0.10913917
-0.031192258 0.039131597 0.11251079
-0.044678688 0.026161328 0.11588238
-0.044678688 0.026061207 0.11925399
-0.044678688 0.025866508 0.12262559
-0.044678688 0.025662884 0.1259972
-0.043670624 0.027490839 0.11588238
-0.041307077 0.030279428 0.11588238
-0.040776357 0.030862436 0.11588238
-0.043607935 0.027490839 0.11925399
-0.041307077 0.030273139 0.11925399
-0.040785164 0.030862436 0.11925399
-0.037935466 0.03375484 0.11588238
-0.037935466 0.033809856 0.11925399
-0.037426427 0.034234032 0.11588238
-0.034563869 0.036735937 0.11588238
-0.033442914 0.037605658 0.11588238
-0.03749305 0.034234032 0.11925399
-0.034563869 0.036814883 0.11925399
-0.033544376 0.037605658 0.11925399
-0.043478876 0.027490839 0.12262559
-0.041307077 0.03017512 0.12262559
-0.040711373 0.030862436 0.12262559
-0.043345913 0.027490839 0.1259972
-0.041307077 0.030011043 0.1259972
-0.04056938 0.030862436 0.1259972
-0.037935466 0.033760086 0.12262559
-0.037935466 0.033615157 0.1259972
-0.037446216 0.034234032 0.12262559
-0.034563869 0.036798134 0.12262559
-0.033535853 0.037605658 0.12262559
-0.037299648 0.034234032 0.1259972
-0.034563869 0.036700711 0.1259972
-0.033446029 0.037605658 0.1259972
-0.031192258 0.039238259 0.11588238
-0.031192258 0.039312884 0.11925399
-0.031192258 0.039337203 0.12262559
-0.031192258 0.039314166 0.1259972
-0.027820647 0.040773228 0.10239597
-0.027519867 0.040977255 0.10239597
-0.02444905 0.042996928 0.10239597
-0.027973905 0.040977255 0.10576756
-0.027820647 0.040977255 0.10452552
-0.027820647 0.041081026 0.10576756
-0.02444905 0.043327585 0.10576756
-0.022248879 0.044348851 0.10239597
-0.022742838 0.044348851 0.10576756
-0.021077439 0.045040682 0.10239597
-0.017705828 0.046901837 0.10239597
-0.021077439 0.045288786 0.10576756
-0.017705828 0.047112331 0.10576756
-0.028296962 0.040977255 0.10913917
-0.027820647 0.041294739 0.10913917
-0.02444905 0.043511078 0.10913917
-0.028499007 0.040977255 0.11251079
-0.027820647 0.041416094 0.11251079
-0.02444905 0.043598518 0.11251079
-0.023005173 0.044348851 0.10913917
-0.023135796 0.044348851 0.11251079
-0.021077439 0.045408472 0.10913917
-0.017705828 0.047215119 0.10913917
-0.021077439 0.045471355 0.11251079
-0.017705828 0.047254935 0.11251079
-0.015815467 0.047720477 0.10239597
-0.014334232 0.048254654 0.10239597
-0.01096262 0.049168751 0.10239597
-0.0163102 0.047720477 0.10576756
-0.014334232 0.048419222 0.10576756
-0.01096262 0.049299881 0.10576756
-0.007591024 0.049689308 0.10239597
-0.0042194128 0.049912289 0.10239597
-0.007591024 0.049820587 0.10576756
-0.0042194128 0.050046638 0.10576756
-0.016554132 0.047720477 0.10913917
-0.014334232 0.048497632 0.10913917
-0.01096262 0.049350336 0.10913917
-0.016623005 0.047720477 0.11251079
-0.014334232 0.048514351 0.11251079
-0.01096262 0.049352214 0.11251079
-0.007591024 0.049868241 0.10913917
-0.0042194128 0.050091907 0.10913917
-0.007591024 0.049857304 0.11251079
-0.0042194128 0.050075814 0.11251079
-0.028626159 0.040977255 0.11588238
-0.027820647 0.041495577 0.11588238
-0.02444905 0.043692306 0.11588238
-0.028732345 0.040977255 0.11925399
-0.027820647 0.041570112 0.11925399
-0.02444905 0.043807372 0.11925399
-0.023322135 0.044348851 0.11588238
-0.023548171 0.044348851 0.11925399
-0.021077439 0.045575663 0.11588238
-0.017705828 0.047288194 0.11588238
-0.021077439 0.045714632 0.11925399
-0.017705828 0.047346309 0.11925399
-0.02881448 0.040977255 0.12262559
-0.027820647 0.041630879 0.12262559
-0.02444905 0.043882474 0.12262559
-0.028836042 0.040977255 0.1259972
-0.027820647 0.04165189 0.1259972
-0.02444905 0.04391028 0.1259972
-0.023672447 0.044348851 0.12262559
-0.023711979 0.044348851 0.1259972
-0.021077439 0.04578723 0.12262559
-0.017705828 0.047391579 0.12262559
-0.021077439 0.045806065 0.1259972
-0.017705828 0.047392204 0.1259972
-0.016657144 0.047720477 0.11588238
-0.014334232 0.048513427 0.11588238
-0.01096262 0.049355313 0.11588238
-0.016762689 0.047720477 0.11925399
-0.014334232 0.048533186 0.11925399
-0.01096262 0.049362913 0.11925399
-0.007591024 0.049851313 0.11588238
-0.0042194128 0.05006732 0.11588238
-0.007591024 0.049840435 0.11925399
-0.0042194128 0.050059274 0.11925399
-0.016851813 0.047720477 0.12262559
-0.014334232 0.048541263 0.12262559
-0.01096262 0.049352571 0.12262559
-0.016819924 0.047720477 0.1259972
-0.014334232 0.048512504 0.1259972
-0.01096262 0.049332604 0.1259972
-0.007591024 0.049840227 0.12262559
-0.0042194128 0.050053015 0.12262559
-0.007591024 0.049839959 0.1259972
-0.0042194128 0.050042734 0.1259972
-0.053930923 0.00051799417 0.12936881
-0.053551659 0.0038895905 0.12936881
-0.053767473 0.00051799417 0.13274041
-0.053399101 0.0038895905 0.13274041
-0.052882895 0.0072612017 0.12936881
-0.051892415 0.010632798 0.12936881
-0.05272907 0.0072612017 0.13274041
-0.051763654 0.010632798 0.13274041
-0.05352892 0.00051799417 0.13611202
-0.053190351 0.0038895905 0.13611202
-0.053306952 0.00051799417 0.13948362
-0.053016976 0.0038895905 0.13948362
-0.052567706 0.0072612017 0.13611202
-0.051639393 0.010632798 0.13611202
-0.052426636 0.0072612017 0.13948362
-0.051535144 0.010632798 0.13948362
-0.051421896 0.012064621 0.12936881
-0.051421896 0.011699066 0.13274041
-0.050731122 0.014004409 0.12936881
-0.049279153 0.017376021 0.12936881
-0.050609306 0.014004409 0.13274041
-0.049176738 0.017376021 0.13274041
-0.048050284 0.019955859 0.12936881
-0.047643885 0.020747617 0.12936881
-0.045582384 0.024119228 0.12936881
-0.048050284 0.01980941 0.13274041
-0.047573835 0.020747617 0.13274041
-0.045520127 0.024119228 0.13274041
-0.051421896 0.011323035 0.13611202
-0.051421896 0.011011586 0.13948362
-0.05050379 0.014004409 0.13611202
-0.049115315 0.017376021 0.13611202
-0.050452024 0.014004409 0.13948362
-0.049127445 0.017376021 0.13948362
-0.048050284 0.019742042 0.13611202
-0.047552317 0.020747617 0.13611202
-0.045519799 0.024119228 0.13611202
-0.048050284 0.019812554 0.13948362
-0.047588736 0.020747617 0.13948362
-0.045583978 0.024119228 0.13948362
-0.053217068 0.00051799417 0.14285523
-0.052932292 0.0038895905 0.14285523
-0.053203955 0.00051799417 0.14622684
-0.052934304 0.0038895905 0.14622684
-0.052357107 0.0072612017 0.14285523
-0.051517233 0.010632798 0.14285523
-0.052381262 0.0072612017 0.14622684
-0.051574945 0.010632798 0.14622684
-0.0533306 0.00051799417 0.14959843
-0.053028703 0.0038895905 0.14959843
-0.053626612 0.00051799417 0.15297005
-0.053245693 0.0038895905 0.15297005
-0.052480847 0.0072612017 0.14959843
-0.051679179 0.010632798 0.14959843
-0.052657425 0.0072612017 0.15297005
-0.051841542 0.010632798 0.15297005
-0.051421896 0.010973871 0.14285523
-0.051421896 0.01120849 0.14622684
-0.050499558 0.014004409 0.14285523
-0.049221501 0.017376021 0.14285523
-0.05060333 0.014004409 0.14622684
-0.049342975 0.017376021 0.14622684
-0.048050284 0.020015687 0.14285523
-0.047685832 0.020747617 0.14285523
-0.045693189 0.024119228 0.14285523
-0.048050284 0.020271376 0.14622684
-0.047814295 0.020747617 0.14622684
-0.045824662 0.024119228 0.14622684
-0.051421896 0.011600852 0.14959843
-0.051421896 0.012134582 0.15297005
-0.050709113 0.014004409 0.14959843
-0.049474478 0.017376021 0.14959843
-0.05084376 0.014004409 0.15297005
-0.049628928 0.017376021 0.15297005
-0.048050284 0.020579621 0.14959843
-0.047967061 0.020747617 0.14959843
-0.046002701 0.024119228 0.14959843
-0.048142537 0.020747617 0.15297005
-0.048050284 0.020747617 0.15122414
-0.048050284 0.020932704 0.15297005
-0.046218023 0.024119228 0.15297005
-0.044678688 0.025507122 0.12936881
-0.044678688 0.025421292 0.13274041
-0.044678688 0.025418103 0.13611202
-0.044678688 0.025513887 0.13948362
-0.043239966 0.027490839 0.12936881
-0.041307077 0.029864222 0.12936881
-0.040434152 0.030862436 0.12936881
-0.043174937 0.027490839 0.13274041
-0.041307077 0.029767215 0.13274041
-0.040336281 0.030862436 0.13274041
-0.037935466 0.033452883 0.12936881
-0.037935466 0.033310041 0.13274041
-0.037123367 0.034234032 0.12936881
-0.034563869 0.036552235 0.12936881
-0.033306628 0.037605658 0.12936881
-0.036963314 0.034234032 0.13274041
-0.034563869 0.036412761 0.13274041
-0.03317152 0.037605658 0.13274041
-0.043162927 0.027490839 0.13611202
-0.041307077 0.029715389 0.13611202
-0.040270954 0.030862436 0.13611202
-0.043202505 0.027490839 0.13948362
-0.041307077 0.029726446 0.13948362
-0.040274471 0.030862436 0.13948362
-0.037935466 0.033216342 0.13611202
-0.037935466 0.033222601 0.13948362
-0.036864251 0.034234032 0.13611202
-0.034563869 0.036354497 0.13611202
-0.033137873 0.037605658 0.13611202
-0.036879808 0.034234032 0.13948362
-0.034563869 0.036424264 0.13948362
-0.033264473 0.037605658 0.13948362
-0.031192258 0.039258346 0.12936881
-0.031192258 0.039200887 0.13274041
-0.031192258 0.039223507 0.13611202
-0.031192258 0.03935717 0.13948362
-0.044678688 0.025659263 0.14285523
-0.044678688 0.02581948 0.14622684
-0.044678688 0.026074797 0.14959843
-0.044678688 0.026367545 0.15297005
-0.043280914 0.027490839 0.14285523
-0.041307077 0.029814392 0.14285523
-0.040357411 0.030862436 0.14285523
-0.043404728 0.027490839 0.14622684
-0.041307077 0.029959992 0.14622684
-0.040488139 0.030862436 0.14622684
-0.037935466 0.033332661 0.14285523
-0.037935466 0.033511832 0.14622684
-0.037020043 0.034234032 0.14285523
-0.034563869 0.036602482 0.14285523
-0.033473223 0.037605658 0.14285523
-0.037215441 0.034234032 0.14622684
-0.034563869 0.036806539 0.14622684
-0.033690497 0.037605658 0.14622684
-0.043590456 0.027490839 0.14959843
-0.041307077 0.030149564 0.14959843
-0.040662989 0.030862436 0.14959843
-0.043804541 0.027490839 0.15297005
-0.041307077 0.030405492 0.15297005
-0.040902466 0.030862436 0.15297005
-0.037935466 0.033730432 0.14959843
-0.037935466 0.034015283 0.15297005
-0.037443876 0.034234032 0.14959843
-0.034563869 0.037048623 0.14959843
-0.033948839 0.037605658 0.14959843
-0.037726089 0.034234032 0.15297005
-0.034563869 0.037307695 0.15297005
-0.034223557 0.037605658 0.15297005
-0.031192258 0.039524749 0.14285523
-0.031192258 0.039682254 0.14622684
-0.031192258 0.039843366 0.14959843
-0.031192258 0.040006652 0.15297005
-0.02881138 0.040977255 0.12936881
-0.027820647 0.041643456 0.12936881
-0.02444905 0.043932781 0.12936881
-0.028811544 0.040977255 0.13274041
-0.027820647 0.041655019 0.13274041
-0.02444905 0.043940768 0.13274041
-0.023761213 0.044348851 0.12936881
-0.023764059 0.044348851 0.13274041
-0.021077439 0.045824662 0.12936881
-0.017705828 0.047371671 0.12936881
-0.021077439 0.045802906 0.13274041
-0.017705828 0.047356233 0.13274041
-0.02889353 0.040977255 0.13611202
-0.027820647 0.041709825 0.13611202
-0.02444905 0.043948606 0.13611202
-0.029038787 0.040977255 0.13948362
-0.027820647 0.041799948 0.13948362
-0.02444905 0.043997422 0.13948362
-0.023756653 0.044348851 0.13611202
-0.023836106 0.044348851 0.13948362
-0.021077439 0.045786873 0.13611202
-0.017705828 0.047358498 0.13611202
-0.021077439 0.045824274 0.13948362
-0.017705828 0.047368094 0.13948362
-0.016750798 0.047720477 0.12936881
-0.014334232 0.048487946 0.12936881
-0.01096262 0.049320623 0.12936881
-0.016723275 0.047720477 0.13274041
-0.014334232 0.048479214 0.13274041
-0.01096262 0.049311832 0.13274041
-0.007591024 0.049828425 0.12936881
-0.0042194128 0.050019667 0.12936881
-0.007591024 0.049807414 0.13274041
-0.0042194128 0.049996927 0.13274041
-0.016730592 0.047720477 0.13611202
-0.014334232 0.048476413 0.13611202
-0.01096262 0.049314395 0.13611202
-0.016746134 0.047720477 0.13948362
-0.014334232 0.048474029 0.13948362
-0.01096262 0.049308196 0.13948362
-0.007591024 0.049804762 0.13611202
-0.0042194128 0.04998897 0.13611202
-0.007591024 0.049793407 0.13948362
-0.0042194128 0.049970224 0.13948362
-0.029197052 0.040977255 0.14285523
-0.027820647 0.041888818 0.14285523
-0.02444905 0.044054493 0.14285523
-0.029362574 0.040977255 0.14622684
-0.027820647 0.041968688 0.14622684
-0.02444905 0.044079617 0.14622684
-0.02393046 0.044348851 0.14285523
-0.023963377 0.044348851 0.14622684
-0.021077439 0.045855805 0.14285523
-0.017705828 0.047370896 0.14285523
-0.021077439 0.045839861 0.14622684
-0.017705828 0.047341511 0.14622684
-0.02952677 0.040977255 0.14959843
-0.027820647 0.042045131 0.14959843
-0.02444905 0.044097736 0.14959843
-0.029733256 0.040977255 0.15297005
-0.027820647 0.042157963 0.15297005
-0.02444905 0.044170782 0.15297005
-0.023989692 0.044348851 0.14959843
-0.024120599 0.044348851 0.15297005
-0.021077439 0.045836881 0.14959843
-0.017705828 0.04730393 0.14959843
-0.021077439 0.045903102 0.15297005
-0.017705828 0.047339931 0.15297005
-0.016753003 0.047720477 0.14285523
-0.014334232 0.048462465 0.14285523
-0.01096262 0.04924418 0.14285523
-0.016666576 0.047720477 0.14622684
-0.014334232 0.048422888 0.14622684
-0.01096262 0.049168095 0.14622684
-0.007591024 0.049709931 0.14285523
-0.0042194128 0.049917266 0.14285523
-0.007591024 0.04962717 0.14622684
-0.0042194128 0.049866632 0.14622684
-0.016516075 0.047720477 0.14959843
-0.014334232 0.048361763 0.14959843
-0.01096262 0.049104705 0.14959843
-0.016587973 0.047720477 0.15297005
-0.014334232 0.048374161 0.15297005
-0.01096262 0.049105063 0.15297005
-0.007591024 0.049567714 0.14959843
-0.0042194128 0.049832061 0.14959843
-0.007591024 0.0495639 0.15297005
-0.0042194128 0.04983677 0.15297005
-0.054010928 0.00051799417 0.15634166
-0.053585023 0.0038895905 0.15634166
-0.054495782 0.00051799417 0.15971325
-0.053968966 0.0038895905 0.15971325
-0.052919835 0.0072612017 0.15634166
-0.052048072 0.010632798 0.15634166
-0.053232253 0.0072612017 0.15971325
-0.052336097 0.010632798 0.15971325
-0.054972172 0.00051799417 0.16308486
-0.054793492 0.00051799417 0.16167435
-0.054793492 0.0015287101 0.16308486
-0.054339454 0.0038895905 0.16308486
-0.055302396 0.00051799417 0.16645648
-0.054793492 0.0032242388 0.16645648
-0.054656565 0.0038895905 0.16645648
-0.053570494 0.0072612017 0.16308486
-0.052666694 0.010632798 0.16308486
-0.053883672 0.0072612017 0.16645648
-0.052937791 0.010632798 0.16645648
-0.051421896 0.012783408 0.15634166
-0.051421896 0.013650924 0.15971325
-0.051035106 0.014004409 0.15634166
-0.049832687 0.017376021 0.15634166
-0.051304728 0.014004409 0.15971325
-0.050087288 0.017376021 0.15971325
-0.048346296 0.020747617 0.15634166
-0.048050284 0.021342814 0.15634166
-0.046462566 0.024119228 0.15634166
-0.048597649 0.020747617 0.15971325
-0.048050284 0.02183865 0.15971325
-0.046731457 0.024119228 0.15971325
-0.051605389 0.014004409 0.16308486
-0.051421896 0.014004409 0.16099048
-0.051421896 0.014532283 0.16308486
-0.051841781 0.014004409 0.16645648
-0.051421896 0.015174538 0.16645648
-0.050338954 0.017376021 0.16308486
-0.050549582 0.017376021 0.16645648
-0.048838466 0.020747617 0.16308486
-0.048050284 0.022303879 0.16308486
-0.046953142 0.024119228 0.16308486
-0.049000204 0.020747617 0.16645648
-0.048050284 0.022556081 0.16645648
-0.047075048 0.024119228 0.16645648
-0.0554609 0.00051799417 0.16982807
-0.054850757 0.0038895905 0.16982807
-0.054793492 0.0038895905 0.16851921
-0.055468529 0.00051799417 0.17319968
-0.054924324 0.0038895905 0.17319968
-0.054793492 0.0041517615 0.16982807
-0.054059416 0.0072612017 0.16982807
-0.053102121 0.010632798 0.16982807
-0.054793492 0.0044967085 0.17319968
-0.054117188 0.0072612017 0.17319968
-0.053149372 0.010632798 0.17319968
-0.055414185 0.00051799417 0.17657128
-0.054880396 0.0038895905 0.17657128
-0.055315584 0.00051799417 0.17994289
-0.054826677 0.0038895905 0.17994289
-0.054793492 0.0043055713 0.17657128
-0.054100692 0.0072612017 0.17657128
-0.053169459 0.010632798 0.17657128
-0.054793492 0.004066959 0.17994289
-0.054121181 0.0072612017 0.17994289
-0.053237557 0.010632798 0.17994289
-0.051980674 0.014004409 0.16982807
-0.051421896 0.015515342 0.16982807
-0.052043065 0.014004409 0.17319968
-0.051421896 0.015663803 0.17319968
-0.050673813 0.017376021 0.16982807
-0.050730392 0.017376021 0.17319968
-0.049079612 0.020747617 0.16982807
-0.048050284 0.022643328 0.16982807
-0.047114491 0.024119228 0.16982807
-0.049103871 0.020747617 0.17319968
-0.048050284 0.022664219 0.17319968
-0.047130257 0.024119228 0.17319968
-0.052093104 0.014004409 0.17657128
-0.051421896 0.015833318 0.17657128
-0.05218415 0.014004409 0.17994289
-0.051421896 0.016095772 0.17994289
-0.050796911 0.017376021 0.17657128
-0.050894246 0.017376021 0.17994289
-0.049136654 0.020747617 0.17657128
-0.048050284 0.022684276 0.17657128
-0.047143057 0.024119228 0.17657128
-0.049201518 0.020747617 0.17994289
-0.048050284 0.022757277 0.17994289
-0.047175288 0.024119228 0.17994289
-0.044678688 0.026684716 0.15634166
-0.044678688 0.027016014 0.15971325
-0.044678688 0.027242035 0.16308486
-0.044678688 0.027381435 0.16645648
-0.044052362 0.027490839 0.15634166
-0.041307077 0.030710459 0.15634166
-0.041173607 0.030862436 0.15634166
-0.044309825 0.027490839 0.15971325
-0.041423246 0.030862436 0.15971325
-0.041307077 0.030862436 0.15807623
-0.037997693 0.034234032 0.15634166
-0.037935466 0.034234032 0.15552177
-0.037935466 0.034297749 0.15634166
-0.041307077 0.030993372 0.15971325
-0.038230091 0.034234032 0.15971325
-0.037935466 0.03452383 0.15971325
-0.034563869 0.037506834 0.15634166
-0.034448266 0.037605658 0.15634166
-0.034602672 0.037605658 0.15971325
-0.034563869 0.037605658 0.15872836
-0.04448548 0.027490839 0.16308486
-0.041596234 0.030862436 0.16308486
-0.044593886 0.027490839 0.16645648
-0.041677192 0.030862436 0.16645648
-0.041307077 0.031185582 0.16308486
-0.038382113 0.034234032 0.16308486
-0.037935466 0.034664676 0.16308486
-0.041307077 0.03126581 0.16645648
-0.038422763 0.034234032 0.16645648
-0.037935466 0.034707293 0.16645648
-0.034714326 0.037605658 0.16308486
-0.034790576 0.037605658 0.16645648
-0.031192258 0.04017736 0.15634166
-0.034563869 0.037638858 0.15971325
-0.031192258 0.040350214 0.15971325
-0.034563869 0.037734196 0.16308486
-0.031192258 0.040494546 0.16308486
-0.034563869 0.037800714 0.16645648
-0.031192258 0.040587083 0.16645648
-0.044678688 0.027433112 0.16982807
-0.044678688 0.027423978 0.17319968
-0.044678688 0.027435839 0.17657128
-0.044678688 0.027474403 0.17994289
-0.044634104 0.027490839 0.16982807
-0.041699186 0.030862436 0.16982807
-0.044626027 0.027490839 0.17319968
-0.0416978 0.030862436 0.17319968
-0.041307077 0.031282783 0.16982807
-0.038399652 0.034234032 0.16982807
-0.037935466 0.034683004 0.16982807
-0.041307077 0.031285286 0.17319968
-0.038371235 0.034234032 0.17319968
-0.037935466 0.034648314 0.17319968
-0.034810126 0.037605658 0.16982807
-0.034780651 0.037605658 0.17319968
-0.044634789 0.027490839 0.17657128
-0.041701391 0.030862436 0.17657128
-0.044665709 0.027490839 0.17994289
-0.041753501 0.030862436 0.17994289
-0.041307077 0.031291455 0.17657128
-0.038380459 0.034234032 0.17657128
-0.037935466 0.034656122 0.17657128
-0.041307077 0.031349897 0.17994289
-0.038446739 0.034234032 0.17994289
-0.037935466 0.034719303 0.17994289
-0.03478381 0.037605658 0.17657128
-0.034843162 0.037605658 0.17994289
-0.034563869 0.037824407 0.16982807
-0.031192258 0.04065378 0.16982807
-0.034563869 0.037801132 0.17319968
-0.031192258 0.040694937 0.17319968
-0.034563869 0.037803635 0.17657128
-0.031192258 0.04071869 0.17657128
-0.034563869 0.03785415 0.17994289
-0.031192258 0.040728167 0.17994289
-0.030004129 0.040977255 0.15634166
-0.027820647 0.042355165 0.15634166
-0.02444905 0.044347659 0.15634166
-0.030292347 0.040977255 0.15971325
-0.027820647 0.042587861 0.15971325
-0.024876267 0.044348851 0.15971325
-0.02444905 0.044348851 0.15635942
-0.0244468 0.044348851 0.15634166
-0.02444905 0.04458566 0.15971325
-0.021077439 0.046078578 0.15634166
-0.017705828 0.047497794 0.15634166
-0.021077439 0.046325937 0.15971325
-0.017705828 0.047705308 0.15971325
-0.030527413 0.040977255 0.16308486
-0.027820647 0.042803958 0.16308486
-0.025276303 0.044348851 0.16308486
-0.030665815 0.040977255 0.16645648
-0.027820647 0.04296352 0.16645648
-0.025587574 0.044348851 0.16645648
-0.02444905 0.044809237 0.16308486
-0.02444905 0.044981435 0.16645648
-0.021077439 0.046550289 0.16308486
-0.018161207 0.047720477 0.16308486
-0.017705828 0.047720477 0.15997419
-0.017705828 0.0478753 0.16308486
-0.021077439 0.046695277 0.16645648
-0.018423766 0.047720477 0.16645648
-0.017705828 0.047953263 0.16645648
-0.017060786 0.047720477 0.15634166
-0.014334232 0.048528001 0.15634166
-0.01096262 0.049221441 0.15634166
-0.017662719 0.047720477 0.15971325
-0.014334232 0.048719212 0.15971325
-0.01096262 0.049372807 0.15971325
-0.007591024 0.049643412 0.15634166
-0.0042194128 0.049907401 0.15634166
-0.007591024 0.049761996 0.15971325
-0.0042194128 0.050010368 0.15971325
-0.014334232 0.048851535 0.16308486
-0.01096262 0.049504623 0.16308486
-0.014334232 0.04887332 0.16645648
-0.01096262 0.049510226 0.16645648
-0.007591024 0.04987134 0.16308486
-0.0042194128 0.050061151 0.16308486
-0.007591024 0.049861953 0.16645648
-0.0042194128 0.050014272 0.16645648
-0.030755922 0.040977255 0.16982807
-0.027820647 0.043046221 0.16982807
-0.025753275 0.044348851 0.16982807
-0.030825347 0.040977255 0.17319968
-0.027820647 0.043114349 0.17319968
-0.025823981 0.044348851 0.17319968
-0.02444905 0.045085952 0.16982807
-0.02444905 0.045117721 0.17319968
-0.021077439 0.046761587 0.16982807
-0.018397123 0.047720477 0.16982807
-0.017705828 0.047926262 0.16982807
-0.021077439 0.046773478 0.17319968
-0.01830551 0.047720477 0.17319968
-0.017705828 0.047884896 0.17319968
-0.030862182 0.040977255 0.17657128
-0.027820647 0.043147817 0.17657128
-0.025840059 0.044348851 0.17657128
-0.030871749 0.040977255 0.17994289
-0.027820647 0.043160632 0.17994289
-0.02586633 0.044348851 0.17994289
-0.02444905 0.045114473 0.17657128
-0.02444905 0.045125321 0.17994289
-0.021077439 0.046768084 0.17657128
-0.018271625 0.047720477 0.17657128
-0.017705828 0.047871336 0.17657128
-0.021077439 0.04677783 0.17994289
-0.018300697 0.047720477 0.17994289
-0.017705828 0.047875538 0.17994289
-0.014334232 0.048787996 0.16982807
-0.01096262 0.049397394 0.16982807
-0.014334232 0.048682675 0.17319968
-0.01096262 0.049269065 0.17319968
-0.007591024 0.04975535 0.16982807
-0.0042194128 0.049924359 0.16982807
-0.007591024 0.049643412 0.17319968
-0.0042194128 0.049827859 0.17319968
-0.014334232 0.04862611 0.17657128
-0.01096262 0.049198851 0.17657128
-0.014334232 0.048628971 0.17994289
-0.01096262 0.049214646 0.17994289
-0.007591024 0.049581811 0.17657128
-0.0042194128 0.049763575 0.17657128
-0.007591024 0.049594447 0.17994289
-0.0042194128 0.049760744 0.17994289
-0.00084780157 0.046741471 0.014734216
-0.00084780157 0.044348851 0.01196222
0.0025237948 0.04729794 0.014734216
0.0025237948 0.044348851 0.011435606
-0.0029764622 0.047720477 0.01810582
-0.00084780157 0.047720477 0.016853385
0.0025237948 0.047720477 0.015674498
-0.00084780157 0.048205718 0.01810582
0.0025237948 0.048632398 0.01810582
0.005895406 0.046988383 0.014734216
0.005895406 0.044348851 0.011861082
0.0092670023 0.045667604 0.014734216
0.0092670023 0.044348851 0.013420157
0.005895406 0.047720477 0.016049936
0.0092670023 0.047720477 0.018076032
0.005895406 0.048550114 0.01810582
0.0092670023 0.04773207 0.01810582
0.011194453 0.044348851 0.014734216
0.0092963874 0.047720477 0.01810582
0.012638614 0.045831129 0.01810582
0.012638614 0.044348851 0.016055286
0.014402285 0.044348851 0.01810582
0.047683477 0.00051799417 0.024849031
0.049437046 0.00051799417 0.028220639
0.047577649 0.0038895905 0.024849031
0.049224079 0.0038895905 0.028220639
0.049726278 0.00051799417 0.029024266
0.049726278 0.0038895905 0.029843792
0.047230899 0.0072612017 0.024849031
0.048567384 0.0072612017 0.028220639
0.046873569 0.010632798 0.024849031
0.047831357 0.010632798 0.028220639
0.049308419 0.0072612017 0.031592242
0.049726278 0.0055274218 0.031592242
0.048367769 0.010632798 0.031592242
0.04136166 0.024119228 0.024849031
0.042299867 0.024119228 0.028220639
0.042983055 0.021982208 0.024849031
0.042983055 0.023119465 0.028220639
0.042732894 0.024119228 0.031592242
0.042983055 0.023716688 0.031592242
0.045371115 0.017376021 0.024849031
0.046025217 0.017376021 0.028220639
0.04383266 0.020747617 0.024849031
0.044580042 0.020747617 0.028220639
0.04634437 0.017376021 0.031592242
0.044806868 0.020747617 0.031592242
0.049535215 0.0072612017 0.034963846
0.049726278 0.0064219981 0.034963846
0.048664302 0.010632798 0.034963846
0.049522549 0.0072612017 0.038335457
0.049726278 0.0062312335 0.038335457
0.048727125 0.010632798 0.038335457
0.049547553 0.0038895905 0.045078665
0.049726278 0.0018772632 0.045078665
0.049726278 0.0038895905 0.043108679
0.049341202 0.0072612017 0.041707061
0.049726278 0.004894495 0.041707061
0.048600942 0.010632798 0.041707061
0.049091607 0.0072612017 0.045078665
0.048435628 0.010632798 0.045078665
0.047440618 0.014004409 0.031592242
0.047711343 0.014004409 0.034963846
0.046354681 0.017346695 0.031592242
0.046354681 0.017376021 0.031724475
0.04650411 0.017376021 0.034963846
0.047775924 0.014004409 0.038335457
0.046533018 0.017376021 0.038335457
0.042921275 0.024119228 0.034963846
0.042983055 0.024018496 0.034963846
0.04296869 0.024119228 0.038335457
0.042983055 0.024096236 0.038335457
0.044919729 0.020747617 0.034963846
0.046354681 0.017734677 0.034963846
0.044974267 0.020747617 0.038335457
0.046354681 0.01780048 0.038335457
0.047672927 0.014004409 0.041707061
0.046483248 0.017376021 0.041707061
0.047517926 0.014004409 0.045078665
0.046342939 0.017376021 0.045078665
0.046354681 0.017345354 0.045078665
0.046354681 0.017376021 0.044851966
0.042931914 0.024119228 0.041707061
0.042983055 0.024037942 0.041707061
0.04284513 0.024119228 0.045078665
0.042983055 0.023903534 0.045078665
0.044941396 0.020747617 0.041707061
0.046354681 0.017697603 0.041707061
0.044836521 0.020747617 0.045078665
-0.00084780157 0.04921557 0.021477424
0.0025237948 0.049506143 0.021477424
-0.00084780157 0.04986845 0.024849031
0.0025237948 0.050067797 0.024849031
0.005895406 0.049347952 0.021477424
0.0092670023 0.048608348 0.021477424
0.005895406 0.049787566 0.024849031
0.0092670023 0.049019739 0.024849031
-0.00084780157 0.050279185 0.028220639
0.0025237948 0.05039303 0.028220639
-0.00084780157 0.050439939 0.031592242
0.0025237948 0.050521359 0.031592242
0.005895406 0.050044283 0.028220639
0.0092670023 0.049313411 0.028220639
0.005895406 0.05018203 0.031592242
0.0092670023 0.049521908 0.031592242
0.011509717 0.047720477 0.021477424
0.012638614 0.047149763 0.021477424
0.016010225 0.044761345 0.021477424
0.016010225 0.044348851 0.020552661
0.012638614 0.047720477 0.024408925
0.012791693 0.047720477 0.024849031
0.016010225 0.046007797 0.024849031
0.012638614 0.047784463 0.024849031
0.018435985 0.044348851 0.024849031
0.019381821 0.043701127 0.024849031
0.019381821 0.044348851 0.026715137
0.019956127 0.044348851 0.028220639
0.022753432 0.041424677 0.024849031
0.022753432 0.042468295 0.028220639
0.020734817 0.044348851 0.031592242
0.022753432 0.042980894 0.031592242
0.013923138 0.047720477 0.028220639
0.016010225 0.046763405 0.028220639
0.012638614 0.048219755 0.028220639
0.014661521 0.047720477 0.031592242
0.016010225 0.047101393 0.031592242
0.012638614 0.048511729 0.031592242
0.019381821 0.044725701 0.028220639
0.019381821 0.045200095 0.031592242
-0.00084780157 0.050430313 0.034963846
0.0025237948 0.050492808 0.034963846
-0.00084780157 0.050323442 0.038335457
0.0025237948 0.050386772 0.038335457
0.005895406 0.050208464 0.034963846
0.0092670023 0.049604133 0.034963846
0.005895406 0.0501066 0.038335457
0.0092670023 0.049499735 0.038335457
-0.00084780157 0.05015026 0.041707061
0.0025237948 0.050177649 0.041707061
-0.00084780157 0.049921349 0.045078665
0.0025237948 0.049878404 0.045078665
0.005895406 0.049890086 0.041707061
0.0092670023 0.049297914 0.041707061
0.005895406 0.049615785 0.045078665
0.0092670023 0.049085721 0.045078665
0.021130413 0.044348851 0.034963846
0.022753432 0.043293729 0.034963846
0.021368131 0.044348851 0.038335457
0.022753432 0.043476686 0.038335457
0.014944807 0.047720477 0.034963846
0.016010225 0.047246411 0.034963846
0.012638614 0.04860504 0.034963846
0.014949694 0.047720477 0.038335457
0.016010225 0.047282115 0.038335457
0.012638614 0.048541293 0.038335457
0.019381821 0.045410588 0.034963846
0.019381821 0.045519009 0.038335457
0.021488667 0.044348851 0.041707061
0.022753432 0.043572173 0.041707061
0.021548316 0.044348851 0.045078665
0.022753432 0.043631151 0.045078665
0.014756113 0.047720477 0.041707061
0.016010225 0.04722546 0.041707061
0.012638614 0.048421159 0.041707061
0.01435551 0.047720477 0.045078665
0.016010225 0.0471095 0.045078665
0.012638614 0.048253879 0.045078665
0.019381821 0.045534924 0.041707061
0.019381821 0.045513198 0.045078665
0.025862142 0.034234032 0.01810582
0.026125044 0.034002021 0.01810582
0.026125044 0.034234032 0.018325604
0.029350922 0.034234032 0.021477424
0.02949664 0.030938044 0.01810582
0.02949664 0.034106717 0.021477424
0.025355428 0.037605658 0.021477424
0.022753432 0.036884293 0.01810582
0.026125044 0.036979958 0.021477424
0.022753432 0.037605658 0.018887848
0.02949664 0.034234032 0.021650851
0.026125044 0.037605658 0.022404771
0.027906224 0.037605658 0.024849031
0.02949664 0.036284581 0.024849031
0.029579625 0.030862436 0.01810582
0.032868236 0.031017572 0.021477424
0.032868236 0.030862436 0.021282405
0.033026457 0.030862436 0.021477424
0.031858444 0.034234032 0.024849031
0.032868236 0.033320263 0.024849031
0.035378993 0.030862436 0.024849031
0.036239862 0.029992759 0.024849031
0.036239862 0.030862436 0.026470058
0.029410988 0.037605658 0.028220639
0.02949664 0.037536725 0.028220639
0.02949664 0.037605658 0.028551601
0.032868236 0.034234032 0.026815891
0.033362478 0.034234032 0.028220639
0.036239862 0.031505153 0.028220639
0.032868236 0.034672394 0.028220639
0.034063667 0.034234032 0.031592242
0.036239862 0.032180771 0.031592242
0.030052871 0.037605658 0.031592242
0.032868236 0.035284057 0.031592242
0.038552225 0.027490839 0.024849031
0.039611459 0.026212409 0.024849031
0.039611459 0.027490839 0.027462728
0.039801568 0.027490839 0.028220639
0.036880583 0.030862436 0.028220639
0.039611459 0.027744845 0.028220639
0.040328562 0.027490839 0.031592242
0.037499636 0.030862436 0.031592242
0.039611459 0.028412625 0.031592242
0.022753432 0.03958796 0.021477424
0.023417071 0.040977255 0.024849031
0.026125044 0.039023533 0.024849031
0.022753432 0.040977255 0.023890272
0.024923831 0.040977255 0.028220639
0.026125044 0.040157661 0.028220639
0.025620118 0.040977255 0.031592242
0.026125044 0.040630326 0.031592242
0.02949664 0.038040593 0.031592242
0.034345776 0.034234032 0.034963846
0.036239862 0.032426789 0.034963846
0.030402571 0.037605658 0.034963846
0.032868236 0.03555508 0.034963846
0.034403086 0.034234032 0.038335457
0.036239862 0.032432213 0.038335457
0.030583471 0.037605658 0.038335457
0.032868236 0.03564705 0.038335457
0.034343004 0.034234032 0.041707061
0.036239862 0.032323226 0.041707061
0.030636668 0.037605658 0.041707061
0.032868236 0.035629377 0.041707061
0.034247726 0.034234032 0.045078665
0.036239862 0.032221302 0.045078665
0.030640185 0.037605658 0.045078665
0.032868236 0.035566345 0.045078665
0.040529311 0.027490839 0.034963846
0.037723243 0.030862436 0.034963846
0.039611459 0.028666511 0.034963846
0.04053548 0.027490839 0.038335457
0.037715673 0.030862436 0.038335457
0.039611459 0.028665513 0.038335457
0.040456235 0.027490839 0.041707061
0.037597388 0.030862436 0.041707061
0.039611459 0.028542817 0.041707061
0.040321231 0.027490839 0.045078665
0.037495971 0.030862436 0.045078665
0.039611459 0.028377831 0.045078665
0.026041105 0.040977255 0.034963846
0.026125044 0.040918276 0.034963846
0.02949664 0.038319066 0.034963846
0.026125044 0.040977255 0.035852045
0.026288196 0.040977255 0.038335457
0.02949664 0.038476035 0.038335457
0.026125044 0.041095689 0.038335457
0.02640903 0.040977255 0.041707061
0.02949664 0.038545325 0.041707061
0.026125044 0.041184619 0.041707061
0.026489228 0.040977255 0.045078665
0.02949664 0.038582638 0.045078665
0.026125044 0.041245535 0.045078665
0.04947719 0.00051799417 0.048450269
0.049726278 0.00051799417 0.04594931
0.0492495 0.0038895905 0.048450269
0.049165487 0.00051799417 0.051821873
0.048986971 0.0038895905 0.051821873
0.048838377 0.0072612017 0.048450269
0.048214763 0.010632798 0.048450269
0.048592985 0.0072612017 0.051821873
0.047982752 0.010632798 0.051821873
0.048924446 0.00051799417 0.055193484
0.048750162 0.0038895905 0.055193484
0.048743159 0.00051799417 0.058565088
0.048567563 0.0038895905 0.058565088
0.048373163 0.0072612017 0.055193484
0.047803193 0.010632798 0.055193484
0.048216432 0.0072612017 0.058565088
0.047694743 0.010632798 0.058565088
0.047314405 0.014004409 0.048450269
0.046188563 0.017376021 0.048450269
0.046354681 0.016915694 0.048450269
0.047145665 0.014004409 0.051821873
0.046079725 0.017376021 0.051821873
0.046354681 0.016574562 0.051821873
0.042733252 0.024119228 0.048450269
0.042983055 0.023735777 0.048450269
0.042614758 0.024119228 0.051821873
0.042983055 0.023547813 0.051821873
0.044716597 0.020747617 0.048450269
0.044601917 0.020747617 0.051821873
0.047027409 0.014004409 0.055193484
0.045997828 0.017376021 0.055193484
0.046354681 0.016312644 0.055193484
0.046953231 0.014004409 0.058565088
0.04591763 0.017376021 0.058565088
0.046354681 0.016087458 0.058565088
0.042504013 0.024119228 0.055193484
0.042983055 0.023351446 0.055193484
0.042399287 0.024119228 0.058565088
0.042983055 0.023170739 0.058565088
0.044477195 0.020747617 0.055193484
0.044358045 0.020747617 0.058565088
0.048637241 0.00051799417 0.061936691
0.048487067 0.0038895905 0.061936691
0.048626572 0.00051799417 0.065308303
0.048495859 0.0038895905 0.065308303
0.048169076 0.0072612017 0.061936691
0.047666103 0.010632798 0.061936691
0.048199624 0.0072612017 0.065308303
0.047680944 0.010632798 0.065308303
0.048678845 0.00051799417 0.068679906
0.048545569 0.0038895905 0.068679906
0.048719347 0.00051799417 0.07205151
0.048609585 0.0038895905 0.07205151
0.048260331 0.0072612017 0.068679906
0.047718227 0.010632798 0.068679906
0.048329085 0.0072612017 0.07205151
0.047769129 0.010632798 0.07205151
0.046924025 0.014004409 0.061936691
0.045863837 0.017376021 0.061936691
0.046354681 0.015970036 0.061936691
0.046913475 0.014004409 0.065308303
0.045824796 0.017376021 0.065308303
0.046354681 0.015901089 0.065308303
0.042326421 0.024119228 0.061936691
0.042983055 0.023053557 0.061936691
0.042265058 0.024119228 0.065308303
0.042983055 0.022948101 0.065308303
0.044280708 0.020747617 0.061936691
0.044211984 0.020747617 0.065308303
0.04690817 0.014004409 0.068679906
0.04578647 0.017376021 0.068679906
0.046354681 0.015832201 0.068679906
0.046920776 0.014004409 0.07205151
0.045765132 0.017376021 0.07205151
0.046354681 0.015813634 0.07205151
0.042184919 0.024119228 0.068679906
0.042983055 0.02281478 0.068679906
0.042117119 0.024119228 0.07205151
0.042983055 0.022708461 0.07205151
0.044136077 0.020747617 0.068679906
0.044087231 0.020747617 0.07205151
