# .PCD v0.7 - Point Cloud Data file format
VERSION 0.7
FIELDS x y z
SIZE 4 4 4
TYPE F F F
COUNT 1 1 1
WIDTH 1309
HEIGHT 1
VIEWPOINT 0 0 0 1 0 0 0
POINTS 1309
DATA ascii
0.0053276159 -0.018217862 0.34641045
-0.014814273 -0.021576345 0.34342906
0.0091440808 -0.02233839 0.34220761
-0.01510703 -0.023316503 0.3384248
-0.0065012593 -0.026250839 0.33754489
0.0049598198 -0.02502048 0.33797932
-0.015308183 -0.024115145 0.33478266
-0.0053751133 -0.026606023 0.33449996
0.0038882811 -0.025493503 0.33343756
-0.0092362948 -0.02569586 0.33081481
-0.00074429065 -0.026871622 0.32950839
-0.0065363795 -0.041807771 0.30053887
-0.0066597871 -0.043451011 0.29817948
0.0020320024 -0.043804646 0.29729754
-0.0071072243 -0.045948088 0.29382342
0.0023677573 -0.046540976 0.29367408
-0.011374112 -0.048546314 0.28984386
-0.0028326232 -0.049063206 0.28964931
0.0071106739 -0.048703074 0.28894565
-0.011517087 -0.049490631 0.2871426
-0.003066849 -0.051120102 0.28513101
0.0068853516 -0.052120507 0.28511351
0.015415534 -0.049861252 0.28351927
0.0016931649 -0.054666519 0.28111097
0.011437805 -0.05381459 0.28030545
-0.0035281405 -0.055615366 0.27627701
0.0064281784 -0.056647539 0.27629396
-0.00354084 -0.05744648 0.27207494
0.0057955924 -0.057460785 0.27136302
-0.0024789758 -0.058508933 0.26889968
-0.013620758 -0.013770282 0.35098499
-0.004563801 -0.011819303 0.34912485
0.0057762805 -0.013688803 0.34908891
-0.019735079 -0.01469785 0.34436101
-0.016167881 -0.015845895 0.34859142
0.0095601901 -0.014956772 0.34562606
-0.023168199 -0.015621364 0.33969864
-0.020182338 -0.016705573 0.34120661
-0.019491605 -0.019443691 0.33767956
-0.019027099 -0.023204982 0.33491033
0.0060232617 -0.022877634 0.33085611
-0.014281053 -0.023870945 0.33031213
-0.0062909201 -0.025716603 0.32757795
0.0043046679 -0.024171472 0.32696453
0.012091922 -0.022061884 0.3273499
-0.010732405 -0.02553308 0.32308388
-0.0011012871 -0.026324689 0.32213324
0.0075668804 -0.023314774 0.322696
-0.0015722457 -0.029137075 0.31286639
-0.0054302271 -0.032226741 0.30780065
0.0030083526 -0.033248305 0.30846548
-0.016113997 -0.035306871 0.30396608
-0.0069961902 -0.035242081 0.30534527
0.0030191112 -0.035958588 0.30514494
0.012242239 -0.034703076 0.30249038
-0.017099939 -0.037791014 0.30100858
-0.0072679147 -0.039375246 0.30212277
0.0027966946 -0.038991153 0.30106819
0.012402032 -0.03816855 0.29950964
-0.021216922 -0.040434718 0.29431865
-0.012411151 -0.041594326 0.29758888
0.0036914498 -0.041469872 0.29786155
0.012554184 -0.040885448 0.29592365
-0.022605155 -0.041992486 0.29176813
-0.012631562 -0.044232011 0.29333532
0.0073648933 -0.044042826 0.29297775
0.017193563 -0.042190433 0.29053879
-0.026183359 -0.044369459 0.28726283
-0.017886896 -0.04575634 0.28879631
0.013220452 -0.046334207 0.28766993
0.021373916 -0.043738306 0.28491789
-0.026095692 -0.046752751 0.28332856
-0.018115452 -0.04814446 0.28441584
-0.0078988671 -0.049758494 0.28354129
0.021012042 -0.04608798 0.28083074
-0.026327576 -0.049086511 0.27890566
-0.0183449 -0.050507724 0.28002298
-0.0083278008 -0.051263273 0.27988547
0.013704168 -0.051909328 0.27745679
0.020199388 -0.048338592 0.27607501
-0.023637306 -0.05158931 0.27522442
-0.01357349 -0.052927315 0.27539703
0.013046183 -0.053353012 0.27368727
0.019973718 -0.050397277 0.27150583
-0.018851636 -0.054110467 0.27064255
-0.0087948795 -0.055691481 0.27095687
0.0075787287 -0.056742668 0.26985198
0.016182115 -0.053931773 0.2687147
-0.0183638 -0.055386066 0.26643014
-0.0090432353 -0.057359993 0.26619485
0.001146283 -0.057724595 0.26551157
0.010811009 -0.056805372 0.26502022
-0.01430269 -0.057585359 0.26170877
-0.0042810384 -0.059357524 0.26134104
0.0055416264 -0.058093965 0.26034063
0.013584595 -0.057391286 0.2593329
-0.0044766944 -0.059518456 0.25735685
-0.0096834637 -0.0091671944 0.35020024
-0.018561732 -0.011619091 0.34552336
-0.023285113 -0.015180647 0.33798385
-0.021817368 -0.015904725 0.33820078
-0.021915883 -0.015837371 0.33663532
-0.016079988 -0.021566093 0.32107568
-0.0069382321 -0.024734974 0.32019535
0.0067076646 -0.021849036 0.31897947
-0.011492774 -0.023531616 0.31599087
0.0027345717 -0.024874687 0.31562975
-0.014694389 -0.025904953 0.31013659
-0.0066677071 -0.026624203 0.3116115
0.0034464635 -0.027413428 0.31221414
-0.01644071 -0.028783143 0.30724117
-0.0075654872 -0.030254781 0.30819085
0.007973507 -0.029248416 0.30776671
0.015843503 -0.027774453 0.30435055
-0.01785372 -0.031966805 0.30439508
0.012726311 -0.031294584 0.30363956
0.02085178 -0.029919744 0.29819837
-0.022488944 -0.033400536 0.29896367
0.021949705 -0.032712519 0.29607743
-0.022784982 -0.036928654 0.29531008
0.021882631 -0.036334991 0.29243758
-0.027563848 -0.038319767 0.29026437
0.022051059 -0.039696634 0.2887055
-0.031905908 -0.040097415 0.28510565
0.022931892 -0.041251957 0.28599888
-0.032092769 -0.042335451 0.28140125
0.026638273 -0.043666899 0.27882361
-0.03234205 -0.044428229 0.27681732
0.022374105 -0.04685539 0.27519512
-0.032553501 -0.046261072 0.27290586
0.022144891 -0.049135625 0.27073082
-0.029096954 -0.050111711 0.26905376
0.020694401 -0.051646352 0.26680005
-0.029005133 -0.050741673 0.26541981
-0.020444145 -0.05442673 0.26384747
0.020179167 -0.052045166 0.26228964
-0.024079919 -0.05336374 0.25963509
-0.014452074 -0.057167292 0.25903413
0.0070718974 -0.057427406 0.25805697
0.018684778 -0.052898824 0.2574259
-0.019413497 -0.055952132 0.25566247
-0.010022404 -0.057734847 0.25482157
-0.00034044869 -0.058973968 0.25355652
0.0097754821 -0.057348728 0.25376731
-0.010572538 -0.05731231 0.25068125
-0.00052963942 -0.059043884 0.24948215
0.0095442086 -0.058000326 0.24837083
-0.0050069056 -0.059154749 0.24646536
0.0036424305 -0.058906555 0.24587604
-0.017645353 -0.020249426 0.31854048
-0.020236837 -0.01885289 0.31596345
0.0044028331 -0.021226108 0.31569153
0.01142928 -0.018772721 0.30948126
-0.016839877 -0.022543728 0.31009489
0.012548994 -0.022363961 0.30766937
-0.021815058 -0.024412692 0.30564332
0.014042072 -0.02514869 0.30588269
0.021189451 -0.022798061 0.30123854
-0.022952858 -0.028255165 0.30293512
0.022277258 -0.02632153 0.2987394
-0.031510003 -0.028722584 0.2956129
0.023691256 -0.029532611 0.29626966
0.02950082 -0.02669245 0.29301214
-0.032259911 -0.031485319 0.29261744
0.028085809 -0.03183347 0.2905564
0.030657288 -0.030352533 0.2882756
-0.036344729 -0.033335388 0.28682208
-0.030245032 -0.035640061 0.29005367
0.031012613 -0.032918692 0.28434885
-0.036474142 -0.035613716 0.28391114
0.031631231 -0.036176026 0.28059927
-0.036744375 -0.037452757 0.27916661
0.031557173 -0.039234936 0.27647489
-0.03697256 -0.039927363 0.27473909
0.031151515 -0.041374385 0.27190551
-0.037184779 -0.04263854 0.27043411
0.030942824 -0.043006361 0.26705557
-0.034207501 -0.0459584 0.26731947
0.030302044 -0.044196606 0.26335028
-0.029791731 -0.050115347 0.26199865
0.025761843 -0.048472762 0.25889555
-0.029582031 -0.050882518 0.2581625
0.020525314 -0.051451445 0.25547963
0.027494788 -0.04738301 0.25477755
-0.024956074 -0.053191483 0.25325814
0.016209003 -0.05472517 0.25032157
0.023391981 -0.050226152 0.25103357
-0.019567557 -0.05485934 0.24847341
-0.010715917 -0.056861877 0.24794775
0.018275928 -0.053411901 0.24615666
-0.010811275 -0.056698501 0.24336207
-0.00082157552 -0.058966219 0.24314612
0.0094358511 -0.05810374 0.24211895
-0.009731153 -0.057251155 0.23893926
-0.001063684 -0.059232354 0.23796532
-0.00483278 -0.0600124 0.23525974
-0.020284709 -0.015414715 0.31603253
-0.024867676 -0.015015066 0.31292629
-0.021975011 -0.016271889 0.31205747
-0.019011462 -0.017951548 0.31233007
0.01314443 -0.016752243 0.31027299
0.016613442 -0.014350593 0.30881667
-0.026287146 -0.018159509 0.30683917
-0.022615049 -0.019043803 0.30877349
0.014267072 -0.019233525 0.30794793
0.017966248 -0.017891526 0.30578017
0.022064529 -0.016644239 0.30380785
-0.031303901 -0.020305336 0.30208316
-0.027560156 -0.021012723 0.30399895
-0.023729943 -0.021937728 0.30563274
0.023047231 -0.02090168 0.3016867
0.026943471 -0.019338787 0.29965594
0.03005705 -0.017983675 0.29934511
-0.032696463 -0.023157239 0.29926956
-0.02885272 -0.024495006 0.30069399
0.02396524 -0.023823559 0.29836923
0.027013496 -0.023542702 0.29667488
0.031208497 -0.022210062 0.29493651
-0.033172429 -0.026250184 0.29633218
0.032184526 -0.024651945 0.29206029
0.035327785 -0.023763418 0.28807801
-0.037573859 -0.02733773 0.28996658
-0.034334786 -0.029195428 0.29244894
0.032716945 -0.027410269 0.28781685
0.036107685 -0.026346266 0.28550398
-0.038382377 -0.030224323 0.28701669
0.033067983 -0.030508876 0.28378326
0.036397349 -0.028648734 0.28228858
-0.042635884 -0.030032635 0.28226492
-0.039545558 -0.033231258 0.2828835
0.036015153 -0.031129301 0.27847743
0.039198589 -0.029480815 0.27929923
-0.042859133 -0.032603681 0.27784547
-0.039778732 -0.03564775 0.27840969
0.036292899 -0.033178329 0.27274182
-0.043165803 -0.035645247 0.27203214
-0.040025882 -0.037865579 0.2738353
0.038590658 -0.035781145 0.26780865
-0.040272571 -0.040091515 0.26926133
0.038416937 -0.037184715 0.2636115
-0.036058847 -0.044481933 0.26478142
0.034864169 -0.039917648 0.26052576
-0.035496678 -0.04551214 0.26035342
0.033921096 -0.04131937 0.25579122
-0.032182008 -0.049011052 0.25546557
0.02986237 -0.045967996 0.2520712
-0.03426718 -0.04749614 0.25107324
-0.026650898 -0.051436961 0.24987614
0.024619993 -0.049367726 0.2479066
-0.029622644 -0.050656378 0.24645877
-0.02197044 -0.053515613 0.24635717
0.023956124 -0.04949826 0.2430262
-0.028547574 -0.051041961 0.24305812
-0.020378821 -0.053891301 0.24191198
-0.011855129 -0.056192577 0.24011394
0.019246172 -0.052036226 0.23913521
-0.015687121 -0.054603934 0.23686779
0.0042619742 -0.057279348 0.2355926
0.013448469 -0.055081606 0.23479822
-0.0067242607 -0.057883382 0.23207811
0.0037710108 -0.056927502 0.23131213
0.012590975 -0.055100501 0.23147574
0.0028740559 -0.057416379 0.22769314
-0.025147118 -0.012328982 0.30934826
0.018787522 -0.013163388 0.30737156
0.02135504 -0.011870444 0.30625424
-0.027344301 -0.014166057 0.3066048
0.022822838 -0.013581038 0.30440861
0.027114484 -0.012940466 0.30185586
-0.036022451 -0.015856028 0.29946595
-0.033092547 -0.017978489 0.30190629
-0.029840715 -0.015588224 0.30385169
0.027979497 -0.016501784 0.30118364
0.0315025 -0.016953945 0.29718399
-0.042097278 -0.018058836 0.29596019
-0.038067944 -0.0188151 0.29757464
-0.034417294 -0.019836307 0.29961804
0.032809474 -0.018764138 0.29446328
0.035659514 -0.019856215 0.2934784
-0.04223004 -0.020288408 0.29296377
-0.038432702 -0.022152424 0.29365167
0.035821881 -0.02196914 0.28962076
-0.043216832 -0.022503197 0.28838533
-0.039964661 -0.024223506 0.28969592
0.036739573 -0.023950338 0.28647271
-0.047160443 -0.024508595 0.28385392
-0.044104934 -0.025244236 0.28487313
-0.040979654 -0.02704066 0.28640488
0.039371863 -0.02628088 0.27933612
-0.047364462 -0.026570916 0.27996758
-0.044782273 -0.028544903 0.28054595
0.03767046 -0.028774619 0.27494514
0.039833378 -0.027053118 0.2757706
-0.0476055 -0.028939009 0.27541515
-0.044932485 -0.031128883 0.27615204
0.037523281 -0.0304721 0.27253225
0.038996931 -0.029737353 0.27126095
-0.047784105 -0.029791176 0.27255884
-0.045253936 -0.032867014 0.27180475
0.039879046 -0.031687438 0.26645121
-0.044591993 -0.035191715 0.26715526
0.039984141 -0.034699798 0.26222774
-0.044569619 -0.036318481 0.26253244
-0.042246789 -0.038692236 0.26284367
0.038747631 -0.03550297 0.25815561
-0.043355592 -0.037685394 0.25820163
-0.040136933 -0.039948344 0.25848266
0.038265262 -0.036175072 0.2547949
-0.036897484 -0.042075157 0.25356436
-0.038664155 -0.041929305 0.24938506
0.031401437 -0.045498073 0.24554512
-0.035161056 -0.047039688 0.2444914
0.025552507 -0.048891664 0.24071321
0.031586431 -0.044341385 0.23950621
-0.031182133 -0.048988819 0.23932031
-0.0229396 -0.052389801 0.23849002
0.024246082 -0.048712492 0.23612422
-0.030550912 -0.049133778 0.23530525
-0.021176329 -0.051476657 0.23463854
0.018604334 -0.050952554 0.23212683
-0.024885856 -0.050881267 0.23092768
-0.016821999 -0.052605867 0.22982335
0.0098023526 -0.055205584 0.22885484
0.017864197 -0.051316738 0.22765505
-0.011770006 -0.055076778 0.22529107
-0.0017715972 -0.056888402 0.22528851
0.0087595545 -0.055854678 0.22423664
0.016085584 -0.052407861 0.22459939
-0.0068193562 -0.056891322 0.22006014
0.0030699708 -0.057626247 0.21999907
-0.00056221709 -0.057520866 0.2165294
0.0067741629 -0.057882369 0.21594492
-0.031475086 -0.01263243 0.30258688
-0.043980964 -0.018917859 0.28995931
-0.047266096 -0.017776608 0.28630853
-0.04563424 -0.019744217 0.28717577
-0.048862282 -0.022453845 0.28211179
-0.052243777 -0.023417115 0.27617148
-0.049635962 -0.025093079 0.27819642
0.041303523 -0.023748994 0.27195513
-0.052366696 -0.02496022 0.27364537
-0.049985576 -0.026889145 0.27449933
0.040641084 -0.025648952 0.26909766
-0.049541347 -0.028819144 0.26950163
0.041382473 -0.028038561 0.2642085
0.043354977 -0.027242064 0.26231101
-0.048783615 -0.03020066 0.26563293
-0.046747182 -0.032818377 0.26495582
0.041616078 -0.031025708 0.2602151
0.043123737 -0.030268073 0.25973874
-0.047044672 -0.032966495 0.26088172
0.040842172 -0.032559514 0.25573248
0.043352548 -0.031041801 0.2551282
-0.045044482 -0.035704315 0.25638521
0.039300915 -0.033823967 0.25152624
-0.043447889 -0.037583172 0.2518656
-0.041508973 -0.040043712 0.25185278
0.038095526 -0.03554523 0.24607944
-0.04335409 -0.03831917 0.24762711
0.035668693 -0.040184259 0.24298823
0.037868597 -0.03771919 0.24138123
-0.037553795 -0.044216812 0.24301985
0.038162433 -0.039532661 0.23701388
0.028358698 -0.046952128 0.23354754
-0.035487078 -0.046355844 0.23437434
-0.027760863 -0.050200462 0.23238066
0.028278638 -0.046353877 0.22980151
-0.03000433 -0.047818124 0.22882006
-0.02278354 -0.051847458 0.22882974
0.023595072 -0.049897373 0.22614303
-0.026016567 -0.049273252 0.22489893
-0.017488655 -0.05328536 0.22307885
0.014418755 -0.053622782 0.22027165
0.022590119 -0.049879968 0.22104138
-0.016842056 -0.053880155 0.21897107
-0.0093193725 -0.056866646 0.21829891
0.017004769 -0.051831424 0.21664524
-0.012434995 -0.057126701 0.21516865
-0.0023077819 -0.057436049 0.21462536
0.0077970754 -0.057356 0.21362805
-0.011912292 -0.055981517 0.21097147
-0.0022969469 -0.056091607 0.21054879
0.0065713897 -0.055833399 0.20993572
-0.050637558 -0.02040863 0.2795434
0.042289749 -0.021830499 0.26707187
0.043806996 -0.020709276 0.26559004
-0.053182051 -0.024375498 0.26739553
-0.051259842 -0.026575685 0.26776659
0.042114262 -0.023691416 0.26387304
-0.053160802 -0.025513709 0.26313296
-0.05060311 -0.027690232 0.26274249
-0.055580989 -0.027068377 0.25987801
-0.049933963 -0.028539717 0.25892055
0.044490311 -0.029739857 0.25269994
-0.049023092 -0.029968619 0.25602829
-0.047284 -0.03198117 0.25322706
0.040762249 -0.031045735 0.24821016
0.042944066 -0.02930069 0.24833235
-0.04638461 -0.033809662 0.24928683
0.04046011 -0.03218478 0.24411359
-0.046091296 -0.035965562 0.24431014
0.040001396 -0.03415221 0.23956835
-0.045750748 -0.03750056 0.23964825
-0.041874006 -0.040017664 0.23973602
0.03969045 -0.037973821 0.23520517
-0.044244602 -0.038628936 0.23507935
-0.041109845 -0.040767074 0.23614076
0.038844652 -0.039428294 0.23145092
-0.037307106 -0.043724835 0.23129234
0.032838289 -0.042071104 0.22679013
-0.035665017 -0.044494152 0.22686803
0.028615471 -0.045250118 0.22256878
-0.0311969 -0.046341002 0.22226763
-0.023546342 -0.049874425 0.22053689
0.027022891 -0.045579612 0.21939707
-0.026594445 -0.048270345 0.21741563
-0.019314893 -0.05171746 0.21624619
0.021913782 -0.048893511 0.21391797
-0.018925514 -0.053291202 0.21289322
0.021390118 -0.049830854 0.20916826
-0.01781339 -0.053602695 0.20820928
-0.0076943841 -0.055816412 0.20743966
0.0017525647 -0.056027949 0.20632383
0.012393303 -0.054319441 0.20608187
0.019948877 -0.050928533 0.20620912
-0.01259388 -0.055651426 0.2026515
-0.0026891418 -0.056658745 0.20219928
0.0067304969 -0.055016935 0.20126581
0.015275061 -0.053381741 0.20272541
-0.0028594565 -0.056216836 0.1984137
0.0045811553 -0.055829525 0.1977883
-0.055370212 -0.02320689 0.26096138
-0.059547439 -0.024230182 0.2566821
-0.054858118 -0.02532357 0.25688976
-0.052110262 -0.026436627 0.25683275
-0.055450499 -0.025692165 0.25293982
-0.050945699 -0.027145326 0.25207266
-0.050463833 -0.029296815 0.24726674
-0.048078425 -0.031028271 0.2480917
-0.050414715 -0.031974971 0.24305639
-0.04821125 -0.032484293 0.245498
0.041023474 -0.032864928 0.23766237
-0.050225496 -0.033889949 0.23783901
-0.048565432 -0.035857558 0.23886567
0.042389274 -0.033207119 0.23265266
-0.050417922 -0.035410464 0.23441663
-0.047369875 -0.03687042 0.23423329
-0.045734681 -0.037453949 0.23060888
-0.041681577 -0.038274646 0.22914636
0.034326009 -0.040330768 0.2234045
-0.037101492 -0.04101944 0.22359711
0.036162727 -0.039081275 0.21954668
-0.03341388 -0.043772578 0.21969059
0.031712476 -0.040651381 0.21540621
-0.028318688 -0.04708153 0.21469504
0.027367193 -0.043668628 0.21128124
-0.027649414 -0.048438311 0.21060127
0.026377168 -0.045857668 0.20625055
-0.023573831 -0.050542951 0.20621878
0.017860908 -0.05122906 0.20358315
-0.027385842 -0.050338328 0.20210484
-0.018570438 -0.052465975 0.20105636
0.0076235197 -0.053541422 0.1979388
0.016813006 -0.05205828 0.1989339
-0.017043188 -0.053507149 0.19598696
-0.0091260374 -0.055313289 0.19616669
0.001187183 -0.056279421 0.1954248
0.011220012 -0.054293454 0.19470179
-0.016628882 -0.054185569 0.19249773
-0.0091399886 -0.055631578 0.19216484
0.0013030432 -0.056538284 0.19133547
0.010953929 -0.055514455 0.1903435
-0.0033710841 -0.057591021 0.18768525
0.0052472893 -0.056491554 0.18710268
-0.055080041 -0.018561125 0.26213464
-0.059436277 -0.019722939 0.25874028
-0.061349623 -0.021473467 0.25722012
-0.055424497 -0.022095442 0.25554305
-0.054995507 -0.023679793 0.25041264
-0.052849315 -0.024709046 0.24829885
-0.052995741 -0.024539411 0.24650398
0.040825471 -0.031485379 0.22485521
-0.041936129 -0.036864936 0.2261768
0.039175753 -0.032672405 0.22128582
-0.041660182 -0.035558105 0.22208831
-0.039162897 -0.037848532 0.22226563
0.037885863 -0.03628701 0.21737689
0.033768155 -0.039050579 0.21355912
-0.037413299 -0.040788174 0.213442
0.029375538 -0.041996777 0.20899752
-0.036921594 -0.041239738 0.20929417
0.0287911 -0.043798923 0.20442012
-0.031539127 -0.04466188 0.20362267
0.026737556 -0.045326114 0.2006208
-0.023841973 -0.050453246 0.1984607
0.026360668 -0.046171665 0.19601795
-0.023854662 -0.049883306 0.19467157
0.017186053 -0.052324414 0.19224891
0.024169859 -0.047340691 0.19315389
-0.014075087 -0.054358244 0.18963021
0.011698395 -0.055027425 0.18804836
0.019303102 -0.051200032 0.18695819
-0.014000766 -0.054327786 0.18531394
-0.0047320109 -0.057176292 0.1852293
0.0058241133 -0.056711018 0.18480664
0.015761741 -0.052882373 0.18420684
-0.0040290877 -0.055999994 0.18032783
0.0051653739 -0.056014776 0.18029892
0.043287683 -0.027110457 0.22221163
0.042267893 -0.027176142 0.2188077
0.04549326 -0.026997983 0.21853796
-0.043504033 -0.032429516 0.2189416
0.039052993 -0.032640159 0.21574828
0.041506797 -0.028971314 0.21463278
-0.045978926 -0.033993483 0.21330833
-0.042799231 -0.034312487 0.21509907
0.038102482 -0.03370595 0.20970094
-0.04610835 -0.035547972 0.21071631
-0.043013159 -0.036372066 0.21105665
-0.039843444 -0.038345158 0.21208829
0.036428928 -0.035169184 0.20625415
-0.041746669 -0.037145972 0.20703679
0.033231486 -0.038447797 0.20184579
-0.037942156 -0.040282309 0.20196611
0.032133557 -0.04099232 0.19764614
-0.036115959 -0.042045534 0.1982221
-0.030070283 -0.045590818 0.19658324
-0.031826306 -0.044312656 0.19317892
-0.02528239 -0.04833734 0.19154406
0.030394327 -0.044894099 0.1898891
-0.024481818 -0.049123764 0.18782896
0.021604314 -0.048749804 0.1852518
0.028615329 -0.044508517 0.18574861
-0.019614138 -0.051246405 0.18341053
0.020661321 -0.049677968 0.18050736
-0.019046191 -0.052204192 0.17916435
-0.0098369606 -0.054555357 0.17805648
0.00066061318 -0.055074573 0.17606694
0.011338525 -0.053851068 0.17755157
0.019022852 -0.050036073 0.17721346
-0.014607701 -0.05449307 0.17372456
-0.0047682449 -0.056286991 0.17353263
0.0052040033 -0.054354548 0.17208812
0.013230529 -0.053036511 0.17346272
-0.010288777 -0.056074321 0.16911826
-0.00041300245 -0.055115044 0.16888168
0.044020869 -0.02614218 0.21811703
0.046306822 -0.025609136 0.21681142
-0.046236828 -0.029152632 0.21749973
0.042872749 -0.028303862 0.21276155
0.045329832 -0.028246462 0.21400964
-0.050823368 -0.029047906 0.21236545
-0.047617972 -0.03054601 0.21353886
0.038911536 -0.031931996 0.20771194
0.041690513 -0.029051125 0.20811927
-0.047818441 -0.033189833 0.20937607
0.038823895 -0.032124043 0.20428964
0.041194506 -0.030089915 0.20293689
-0.046627525 -0.032236934 0.20517817
-0.043936785 -0.035079718 0.20474118
0.037878882 -0.033706009 0.19996724
0.040614806 -0.03176707 0.19819245
-0.042951733 -0.0361498 0.20114329
-0.039714016 -0.038382828 0.19908896
0.036626678 -0.035957873 0.19713935
0.040087122 -0.033566654 0.19619855
-0.034842238 -0.041871428 0.19447017
-0.037173271 -0.039678454 0.19079828
0.032530293 -0.042804837 0.18715262
-0.032653295 -0.043015897 0.18654042
0.026940186 -0.045700669 0.18210119
-0.03247932 -0.043813348 0.18297663
-0.026420809 -0.048098087 0.18094409
0.029019397 -0.043981731 0.17743418
-0.025349673 -0.048524141 0.17640492
0.017376237 -0.050762355 0.17415294
0.024607044 -0.047126234 0.17379099
-0.023865055 -0.048911214 0.17225704
-0.01628001 -0.054153264 0.17084897
0.015553758 -0.050516427 0.17003268
-0.018989423 -0.05146867 0.16794205
-0.010455711 -0.05503422 0.16567343
0.00045269355 -0.054545403 0.16609865
0.0095377937 -0.052913427 0.16541609
-0.014177155 -0.053683043 0.16248047
-0.0060691796 -0.054962397 0.16172922
0.0046216566 -0.053702354 0.16124547
-0.049300432 -0.027447104 0.21310735
0.043755297 -0.026561618 0.20601952
-0.051269501 -0.027704179 0.20712847
-0.049690161 -0.029033244 0.20695621
0.043564245 -0.028318226 0.20174417
-0.04775171 -0.029391766 0.20170507
0.042783145 -0.029791713 0.197676
-0.044412594 -0.033243179 0.19807214
0.040146757 -0.031710923 0.19415012
-0.04332348 -0.032509029 0.19380358
-0.041307759 -0.035724878 0.19180846
-0.038931187 -0.0381006 0.18807328
-0.037533805 -0.038473129 0.18385392
0.031696104 -0.040787637 0.18048057
-0.034082331 -0.041883111 0.17952323
0.030915629 -0.041520894 0.175363
-0.033054978 -0.043766201 0.17385781
0.026117589 -0.045436144 0.17076635
-0.033274248 -0.043950379 0.17031991
-0.025967021 -0.04755944 0.17027578
0.024946772 -0.046625793 0.16734773
-0.024732824 -0.047739685 0.16630918
0.015521947 -0.049425542 0.16328678
0.024770074 -0.047248662 0.16225973
-0.020017983 -0.050676942 0.16114619
-0.010753557 -0.054224968 0.15961114
0.0045081116 -0.053696275 0.15848061
0.013913799 -0.051574171 0.15905881
0.023596458 -0.04829818 0.15872616
-0.01503535 -0.052868366 0.15579218
-0.0063394327 -0.054524362 0.15589827
0.0043576676 -0.053846776 0.15488982
0.013361488 -0.052918971 0.1540235
-0.006541824 -0.053360224 0.15137392
0.0041665584 -0.053666234 0.15012342
0.011873797 -0.053429008 0.15050423
-0.051597126 -0.026220858 0.20355934
-0.052247107 -0.026649177 0.19980201
-0.049860843 -0.02751857 0.20021456
-0.048841465 -0.027715921 0.19554302
-0.04590895 -0.03003037 0.19479769
0.037168026 -0.028172612 0.18940109
0.040954631 -0.026732802 0.18975922
-0.047775313 -0.027606189 0.19156563
-0.044956062 -0.030047774 0.19077206
0.037143454 -0.027720571 0.18730721
-0.043801293 -0.031181395 0.18754739
-0.041748263 -0.033924043 0.18615198
0.036761038 -0.030979037 0.17845625
-0.040666997 -0.035583377 0.18146193
0.035419688 -0.033868015 0.17718184
-0.038697772 -0.037389517 0.17753363
0.034182478 -0.036164999 0.17241874
0.043292847 -0.035092831 0.16978285
-0.035325348 -0.041266143 0.17362332
0.033470482 -0.037766457 0.1688191
0.043996364 -0.035767138 0.16834876
-0.035196163 -0.042346299 0.16795692
0.031104915 -0.043696046 0.16322327
-0.034246493 -0.042827606 0.16345111
-0.026449084 -0.046332359 0.16359133
-0.029817224 -0.0451442 0.15923563
-0.023078158 -0.04873395 0.15920204
0.028495014 -0.04558748 0.155377
-0.021295592 -0.049819112 0.15418154
0.015023004 -0.051341951 0.15074199
0.023294315 -0.047108948 0.15133253
-0.015932962 -0.051234543 0.14846903
-0.0066674314 -0.053623855 0.14876565
0.004097525 -0.053585351 0.14838949
0.013535149 -0.051830411 0.14718866
0.021231137 -0.047733784 0.14789689
-0.016135156 -0.051725388 0.14460254
-0.0068959258 -0.053297222 0.14385542
0.0039033666 -0.054165602 0.14394093
0.012655981 -0.05226326 0.14277065
-0.0024462901 -0.053986669 0.1398924
-0.052701771 -0.025292099 0.19446424
-0.050854534 -0.026214182 0.19267228
0.041914623 -0.025308073 0.18737409
0.043486312 -0.025117934 0.18808389
-0.052693564 -0.025987089 0.18897822
-0.049714349 -0.027016222 0.18924499
-0.046385918 -0.028872371 0.18864864
0.037096322 -0.027297676 0.18431598
0.040240575 -0.026482105 0.18455356
0.043359406 -0.025882065 0.1840184
-0.057504609 -0.02732718 0.18641084
-0.054474644 -0.02801466 0.184861
-0.04982233 -0.027955174 0.18458542
-0.04530713 -0.029871166 0.1842038
0.036954612 -0.028198898 0.1803304
0.040013801 -0.028515041 0.17946106
0.043175194 -0.027840257 0.18069988
-0.050341114 -0.029263735 0.18104357
-0.04514724 -0.031683564 0.18008828
0.036634862 -0.031473041 0.17419589
0.039775219 -0.030836642 0.17454374
0.0432637 -0.030481458 0.17367834
-0.044837583 -0.032073915 0.17595175
-0.041724931 -0.033894718 0.17513889
0.036454961 -0.033352911 0.17083138
0.039556831 -0.03312254 0.17052275
0.043431111 -0.03334564 0.17139331
-0.041165475 -0.036045194 0.17098489
0.03563191 -0.035083175 0.16610229
0.039404832 -0.033884823 0.16548684
0.042455502 -0.034927249 0.16602245
-0.039837088 -0.037706196 0.16693032
0.034946326 -0.036981165 0.16194782
0.03776262 -0.034110725 0.16200942
-0.035486154 -0.041283906 0.16075879
-0.034197778 -0.041310251 0.15650761
0.030871309 -0.043456972 0.15379125
-0.030763384 -0.04425627 0.15243691
0.025453448 -0.046373188 0.14923084
0.032371722 -0.041978121 0.14894894
-0.022519991 -0.048038065 0.14728725
0.023244992 -0.047168672 0.14551961
-0.02133191 -0.048844576 0.14300561
-0.012431305 -0.051948547 0.1412791
0.014142357 -0.050744295 0.13972282
0.022348296 -0.047415435 0.14062265
-0.016194746 -0.050178766 0.13753784
-0.0073718354 -0.053077817 0.13782325
0.003117796 -0.05259043 0.13655534
0.012766857 -0.051114678 0.13587642
-0.011271955 -0.051472068 0.13328701
-0.0027751774 -0.053222775 0.13224065
0.0080829486 -0.052791178 0.13138738
0.0032047294 -0.054087102 0.12685448
-0.054270975 -0.022657037 0.1906302
-0.055226795 -0.024501026 0.18725809
-0.053002454 -0.02556783 0.18506736
-0.053252563 -0.028134048 0.18028128
-0.049854547 -0.028880537 0.1782856
-0.047212005 -0.029091239 0.17690369
-0.05082453 -0.02876699 0.17038423
-0.045918863 -0.030669093 0.17231256
-0.042808317 -0.031434 0.17173114
-0.045359083 -0.030571342 0.16757146
-0.043001223 -0.031392336 0.1689263
-0.040255956 -0.033970535 0.16211376
0.038980868 -0.032119036 0.15921816
0.042528443 -0.031424999 0.15904072
-0.039348807 -0.035586715 0.15941384
0.035984579 -0.035447896 0.15553355
0.037631236 -0.033203781 0.15393078
0.034990389 -0.037122309 0.15016466
-0.032545768 -0.042365909 0.14932686
-0.031233594 -0.042096972 0.14529067
0.02899098 -0.043713689 0.14185196
-0.030429736 -0.043587506 0.14092797
-0.024070501 -0.046894014 0.14201957
0.027099855 -0.044370413 0.13790998
-0.022488371 -0.047599196 0.13674575
0.017589752 -0.04958874 0.13334364
0.025949907 -0.045180261 0.13307375
-0.017595636 -0.049514472 0.1316914
-0.008558711 -0.052029252 0.1303795
0.013305809 -0.050182998 0.13017309
0.020705357 -0.047349215 0.13060716
-0.012418825 -0.051836967 0.12595606
-0.003030885 -0.053167045 0.12647951
0.0076237209 -0.053664863 0.1257754
0.015818447 -0.048484683 0.12592906
-0.011574224 -0.05260855 0.1219973
-0.0032683555 -0.05416441 0.1214667
0.0078908466 -0.053735256 0.12114686
-0.0065618977 -0.054356039 0.11791271
-0.05052454 -0.028360724 0.16660297
-0.047449812 -0.029178739 0.16613334
-0.050797429 -0.029345393 0.16178858
-0.045945715 -0.029147089 0.16141021
-0.042061649 -0.029785872 0.16032696
0.040274441 -0.028569341 0.15536633
0.042600669 -0.028704882 0.15440109
-0.046992857 -0.029485285 0.1575495
-0.041525446 -0.030703366 0.15621197
0.03898121 -0.029455185 0.1522629
0.042568937 -0.028583944 0.15243727
-0.047270179 -0.03422749 0.15134588
-0.040190268 -0.032642484 0.15179449
-0.037711311 -0.03531003 0.15255713
0.035812881 -0.035347581 0.14795595
0.037604146 -0.030708611 0.14656821
-0.047342319 -0.034967721 0.14996532
-0.037453908 -0.0359115 0.14823028
0.03575534 -0.033938229 0.14224508
-0.032978017 -0.041021347 0.14272052
-0.035977807 -0.039860427 0.1387406
0.028833706 -0.04294908 0.13466704
-0.032226097 -0.043018222 0.13416189
0.028094109 -0.042964756 0.13050723
-0.031098653 -0.042985618 0.12999901
-0.023579612 -0.045891583 0.12866604
0.022445843 -0.044686973 0.12641925
-0.023043606 -0.046224773 0.12453026
0.014155377 -0.048415601 0.12307209
-0.022110783 -0.04703176 0.12093401
-0.013098964 -0.051748276 0.12013978
0.0020916201 -0.052391708 0.11794108
0.012840509 -0.04987514 0.11884242
-0.0082525257 -0.052963316 0.11500043
0.00096353516 -0.052592218 0.11450964
0.01173142 -0.051059365 0.1139667
-0.0037723593 -0.052580059 0.10961694
0.0051860008 -0.052643538 0.10852832
-0.050116926 -0.028163135 0.15870214
-0.046184517 -0.028107464 0.15846676
-0.050189242 -0.028905153 0.15731829
-0.045876227 -0.028262317 0.15429956
-0.042622831 -0.028199852 0.15267274
0.039439637 -0.026898146 0.14861411
0.041553538 -0.026763976 0.1487332
-0.04545889 -0.02966249 0.15028816
-0.042758856 -0.029808164 0.1499804
0.038621265 -0.028942108 0.14530405
0.041712191 -0.026940107 0.14409322
-0.045747392 -0.031479657 0.14528909
-0.041388385 -0.032173097 0.14582634
-0.038204953 -0.034356892 0.1452823
0.038270198 -0.03058517 0.14074159
0.042456117 -0.029465556 0.13951567
0.04539524 -0.029661655 0.13878769
-0.046842009 -0.031858325 0.14157784
-0.040862884 -0.032000363 0.14185798
-0.038502991 -0.033610642 0.14095163
0.03708614 -0.031920016 0.13654059
0.043438248 -0.032079041 0.13621503
0.046779402 -0.032094061 0.13659132
-0.037960239 -0.036336839 0.13614026
0.035487127 -0.033941031 0.13077667
0.04426511 -0.03327167 0.13275015
0.04498861 -0.033900082 0.13123724
0.033200629 -0.038885057 0.1286552
-0.03600771 -0.038278699 0.12875551
-0.029155307 -0.043612599 0.12714523
0.03182777 -0.040102184 0.12349391
-0.031974476 -0.041764021 0.1223734
-0.0251537 -0.045855045 0.12311816
0.022095967 -0.043911517 0.12031573
0.031303644 -0.040563345 0.11933368
-0.02798355 -0.044508636 0.11817598
-0.019131213 -0.047967374 0.11760134
0.021892849 -0.045341134 0.11556089
-0.023694571 -0.045969844 0.11388516
-0.014088774 -0.049532473 0.11333632
0.016943973 -0.047663987 0.11169964
-0.016380874 -0.048008263 0.1096822
-0.0089199189 -0.052144766 0.10904688
0.0012610443 -0.052891791 0.10765344
0.011511948 -0.051223814 0.10796958
0.019939922 -0.047920287 0.1068514
-0.0085372441 -0.051700473 0.10451418
0.00049634837 -0.052911043 0.10420126
0.010523386 -0.051870704 0.10366482
-0.0042126272 -0.052391589 0.099663734
0.003728712 -0.0516572 0.099692285
0.04420384 -0.024319291 0.14185202
-0.047887143 -0.029920995 0.14458945
0.042444516 -0.02684623 0.14081085
0.046214879 -0.024986327 0.13837916
-0.046356797 -0.031235874 0.1385217
-0.042104505 -0.031186759 0.13887903
0.038070329 -0.031327784 0.13360739
0.041014995 -0.030634701 0.13361248
0.047152679 -0.026013196 0.13519913
-0.04774984 -0.030078232 0.13507298
-0.041565359 -0.030811012 0.13412398
-0.038885958 -0.033457696 0.13509619
0.037634462 -0.031783342 0.13037276
0.04198461 -0.030677557 0.12941736
-0.038139857 -0.034358919 0.12990731
0.037960339 -0.032941282 0.12549341
0.043443836 -0.031675577 0.12586409
0.045045432 -0.03140229 0.12558866
-0.037288517 -0.035547435 0.12450397
0.036766734 -0.035514772 0.12120026
-0.034183592 -0.040046513 0.12180084
0.032741334 -0.039940894 0.11750674
-0.036725219 -0.038532495 0.11728996
-0.029556602 -0.043682575 0.11587852
0.031582993 -0.039620459 0.11276764
-0.033672821 -0.042169392 0.11396819
-0.024568569 -0.045687318 0.11106849
0.022899963 -0.044667542 0.10865176
0.030661762 -0.04047507 0.10953027
-0.024284627 -0.045129299 0.1064682
0.021979634 -0.045458674 0.10360563
-0.018909255 -0.047079325 0.1018647
-0.010452397 -0.050578237 0.10152239
0.020569388 -0.046643138 0.099926949
-0.013641454 -0.049563706 0.097171724
-0.0043436997 -0.052436054 0.096734941
0.0054199155 -0.051241577 0.097057521
0.014248747 -0.048882604 0.095692992
-0.0085075311 -0.051802337 0.092460454
0.00025619939 -0.053396642 0.093294263
0.0097671747 -0.05105716 0.090982735
0.00046243705 -0.053078532 0.088544846
-0.046016783 -0.029620945 0.13337135
-0.043180443 -0.029915094 0.13182291
0.041197747 -0.029536307 0.12638539
-0.041103154 -0.02907753 0.12722939
-0.039431401 -0.031911373 0.12723595
0.041361649 -0.030194521 0.12328535
0.045130581 -0.029026866 0.12193477
-0.041483097 -0.031792581 0.12040973
-0.03964515 -0.033355236 0.12341607
0.038507249 -0.031785607 0.11840099
0.040839177 -0.030103385 0.11823767
-0.039082516 -0.035402834 0.11901516
0.037899055 -0.033544302 0.11335224
0.040004652 -0.031687617 0.1133548
-0.038535766 -0.037211239 0.11443311
0.036217634 -0.036047637 0.10988212
-0.033934727 -0.038939774 0.11057204
0.028170247 -0.040552676 0.10577369
0.035530001 -0.037164152 0.10581928
0.027610108 -0.042141676 0.10256195
-0.028730515 -0.042592227 0.10020906
-0.020144681 -0.04625839 0.098644257
0.02623621 -0.043350399 0.098102152
-0.028266754 -0.04355675 0.096944988
-0.020277407 -0.046861589 0.096132576
0.015777435 -0.048231542 0.0931198
0.02343338 -0.043735385 0.093892097
-0.020380728 -0.047409892 0.091170907
-0.010943824 -0.05005914 0.091201365
0.018954247 -0.0469473 0.088720381
-0.014844337 -0.049678802 0.086219072
-0.0048511084 -0.051487148 0.085024834
0.0047298372 -0.052163839 0.085101724
0.014420271 -0.048635602 0.084829211
-0.0093109272 -0.051540136 0.080918252
-0.00026772544 -0.051845431 0.080052972
-0.0068236366 -0.052946627 0.077217996
-0.046516865 -0.025979519 0.1257624
-0.043669596 -0.026870549 0.12577254
-0.043114655 -0.027944148 0.12161827
0.043144442 -0.02710104 0.11623794
0.04518792 -0.026843846 0.11742252
-0.042881329 -0.0306409 0.1171084
0.041751664 -0.028740048 0.11169666
-0.042843975 -0.033739924 0.11364317
-0.040405139 -0.035171568 0.11103106
0.038161367 -0.033484221 0.10688901
0.040479608 -0.030746996 0.1077078
-0.04215581 -0.033188164 0.10963517
-0.038507961 -0.034708798 0.10728598
0.036775589 -0.035134912 0.10274732
0.039853781 -0.03091836 0.1038987
-0.037612971 -0.034552932 0.1044721
-0.031176988 -0.039507687 0.1029405
0.035239112 -0.036399841 0.098307014
-0.030972693 -0.041189849 0.099239886
0.034401953 -0.037684321 0.092940509
-0.030230816 -0.043040991 0.094388247
0.025000878 -0.042614877 0.090943873
0.032599892 -0.040131748 0.090310633
-0.025615808 -0.04575032 0.09026891
0.023866162 -0.042420626 0.085775137
-0.025304068 -0.046645105 0.086383641
-0.017673239 -0.048959792 0.084632456
0.01951661 -0.046286225 0.082709491
-0.019510347 -0.047153652 0.08024019
-0.011012286 -0.051367342 0.078838289
0.0041708201 -0.050760984 0.078152955
0.01426867 -0.046827018 0.078543425
-0.014453162 -0.050141335 0.076827407
-0.0051243044 -0.052916229 0.074828088
0.0043225642 -0.052213967 0.074730039
-0.0094655529 -0.051138282 0.071801305
-0.00069459528 -0.054519236 0.071100056
0.0079338625 -0.050982356 0.070153534
0.0039853044 -0.053376019 0.066867054
-0.049600411 -0.023947001 0.12298602
-0.048044138 -0.023293376 0.11905652
-0.046806179 -0.025286555 0.11592156
-0.045247287 -0.027118921 0.11421525
0.043513689 -0.025607467 0.10970616
0.044349369 -0.024975359 0.10919803
-0.045412138 -0.027572989 0.11158031
0.04162693 -0.028605103 0.10506785
0.043393083 -0.025765181 0.10386837
0.040449981 -0.028643429 0.10017413
0.044777133 -0.02788341 0.098390281
-0.038477175 -0.031615138 0.10029131
-0.035674486 -0.034499526 0.10100871
0.036279969 -0.034356713 0.096702814
0.038461428 -0.031573713 0.096981466
-0.038114302 -0.032723606 0.097100377
-0.0355081 -0.034484208 0.096712291
0.037817162 -0.034009874 0.092355013
0.034781758 -0.038400233 0.087851942
0.037648153 -0.034962714 0.087054253
-0.031567693 -0.040886045 0.086978137
0.029497318 -0.040794075 0.083528578
-0.029624257 -0.042038739 0.083068728
-0.022667892 -0.044948399 0.081668735
0.024157938 -0.042170763 0.07954514
-0.025270607 -0.042397618 0.078737915
0.014179073 -0.046255589 0.075346053
0.022956748 -0.042042613 0.075095177
-0.016898628 -0.047552943 0.072728574
0.010715242 -0.048817694 0.070969224
0.01785237 -0.044875383 0.070819259
-0.015692212 -0.047971129 0.067964852
0.0094687231 -0.049630523 0.066921234
-0.01093993 -0.049847424 0.064247727
-0.00096448511 -0.051745474 0.063352644
0.0085212216 -0.049815655 0.062225282
-0.001153579 -0.05162698 0.058796883
-0.049382366 -0.02181375 0.11550117
-0.047904778 -0.022542834 0.11297786
0.04502007 -0.025201142 0.10237193
-0.041287716 -0.026462674 0.10055214
0.04157459 -0.027146339 0.097993314
0.043682624 -0.026006401 0.098537982
-0.040376838 -0.028263509 0.097170353
0.040775027 -0.028100133 0.093328714
0.043851588 -0.028360486 0.093777955
-0.039321929 -0.03155154 0.093841851
-0.036698941 -0.033405304 0.093525052
0.040292345 -0.029259741 0.088992357
0.043748651 -0.028563201 0.088896215
-0.03945905 -0.032396555 0.088833332
-0.036886554 -0.034353316 0.090224624
0.037737258 -0.032754719 0.085338593
-0.03879163 -0.033964932 0.085957766
-0.035900958 -0.03567785 0.08471781
-0.034198843 -0.036192417 0.080350816
0.029901378 -0.038562417 0.076055825
-0.029959671 -0.038755119 0.075535119
0.025020715 -0.040852964 0.073631406
-0.025680292 -0.042150557 0.071395814
0.015581731 -0.045062363 0.067665994
0.024051975 -0.04220587 0.068779051
-0.025089439 -0.043349087 0.067198575
-0.01778831 -0.046785414 0.066576719
0.018761542 -0.044775367 0.065221071
0.026973639 -0.041756213 0.063382685
-0.017425846 -0.047374308 0.062329888
-0.0091658942 -0.049961984 0.060544431
0.013865024 -0.046996534 0.060843349
0.022705518 -0.044285476 0.060500979
-0.012550497 -0.050156295 0.057763636
-0.0015641451 -0.050909698 0.056417942
0.008294452 -0.050172627 0.056333125
0.01730454 -0.046873212 0.056001544
-0.0074483119 -0.050835311 0.052598238
0.0038301051 -0.050069869 0.052541554
0.011682708 -0.048440397 0.052039325
-0.044677787 -0.023790538 0.096684992
-0.041624546 -0.023595691 0.096388042
-0.04470126 -0.025055647 0.091852069
-0.041728459 -0.027581394 0.093346059
-0.044327617 -0.026711285 0.087384045
-0.042101428 -0.027866244 0.087486923
0.041313149 -0.026722729 0.083541214
-0.043922126 -0.030728579 0.083678663
-0.041132338 -0.03222543 0.084032774
-0.037482381 -0.032982171 0.081042945
0.037747864 -0.029211044 0.076461077
-0.039263055 -0.031794727 0.079169154
-0.036298845 -0.034110844 0.077780068
0.034866516 -0.032887995 0.073760688
-0.039509833 -0.032885015 0.07490623
-0.03594524 -0.03456068 0.073598444
0.033480763 -0.034562111 0.069615066
-0.035625339 -0.035395861 0.070539951
-0.028269887 -0.039372504 0.069267154
0.03299867 -0.036381602 0.06491375
-0.027184576 -0.040763319 0.064147413
0.029076144 -0.040210068 0.060682714
-0.025448218 -0.041870475 0.060824811
0.020133242 -0.044676244 0.05680269
0.027397782 -0.040320814 0.056305826
-0.018101217 -0.047125995 0.05513823
0.018888187 -0.045366764 0.052582026
0.026702274 -0.041460395 0.052767098
-0.017793251 -0.047418892 0.05049485
-0.0096600279 -0.049444556 0.049734771
0.0033827052 -0.049190462 0.04889518
0.013442207 -0.047280908 0.048622191
0.022305746 -0.044609308 0.047247589
-0.013108242 -0.04992044 0.046112001
-0.0031006094 -0.05062753 0.045977771
0.0081222765 -0.049316108 0.044581831
0.016383547 -0.046674311 0.044032276
-0.0084655881 -0.05095768 0.040468156
0.0016844254 -0.050704181 0.039976537
-0.0087042898 -0.052783906 0.035724342
0.0027901307 -0.051882207 0.035449862
-0.0088319108 -0.055191338 0.033602953
-0.046655376 -0.022050202 0.095467269
-0.046996467 -0.023782969 0.089682221
-0.045534644 -0.025829732 0.086082041
0.040501799 -0.02518791 0.07933253
0.044237427 -0.024435222 0.079077542
0.040608123 -0.02478677 0.075321019
0.044555236 -0.024810493 0.075322688
-0.039478045 -0.03148973 0.075855196
0.038578104 -0.027070284 0.071136773
0.04443888 -0.025440931 0.071114659
-0.041139077 -0.031372786 0.071368814
-0.038028158 -0.033385575 0.072140276
0.035732146 -0.032552898 0.067895234
0.038341925 -0.029656231 0.06700325
-0.039948784 -0.032185256 0.068164349
-0.036658272 -0.034395874 0.067366958
0.035594985 -0.033111572 0.063176095
0.03736826 -0.030910134 0.063391984
-0.036118306 -0.033617258 0.062897742
0.034169406 -0.034909308 0.058992803
-0.027827881 -0.038920879 0.057805836
0.031869277 -0.037455142 0.054415762
0.028795879 -0.040663779 0.050657392
-0.026529055 -0.041711926 0.04871583
0.019740261 -0.04549104 0.044967353
0.027932439 -0.04218632 0.046243787
-0.0224602 -0.044757366 0.044953883
0.014076754 -0.047595382 0.041419685
0.022966597 -0.044992566 0.042281866
-0.018056124 -0.047295511 0.039875329
-0.0020126402 -0.050689518 0.037815869
0.01699828 -0.047009647 0.03795743
-0.016922057 -0.049347222 0.035234153
-0.0034455284 -0.050872207 0.035075247
0.0059518479 -0.052720249 0.03285116
0.014988355 -0.048221231 0.033163548
-0.014474828 -0.052904189 0.031855762
-0.003973715 -0.05038625 0.030206263
0.0058324784 -0.05280906 0.029742837
0.014167164 -0.049350977 0.029503047
0.039623462 -0.023560762 0.071936369
0.044530734 -0.024330676 0.072301328
0.040102828 -0.025566638 0.068944514
0.043856274 -0.025359511 0.069011867
0.046090502 -0.024639547 0.068334162
-0.043279782 -0.02990061 0.068566382
0.039210685 -0.028247416 0.065316737
0.043033663 -0.027237654 0.064917505
0.04599335 -0.025138438 0.064586639
-0.042285807 -0.029327214 0.064933598
-0.038559116 -0.032198668 0.063947797
0.03852329 -0.028794467 0.060242712
0.042556439 -0.026010931 0.060588479
0.045897208 -0.025611877 0.060801804
-0.040406864 -0.029414535 0.061778903
-0.037144069 -0.032520115 0.059963524
0.03729805 -0.0295946 0.056600213
-0.036549106 -0.032850862 0.0560112
0.033620071 -0.034307003 0.051732063
0.035410296 -0.031770289 0.051654041
0.032955766 -0.037014484 0.047183454
0.035191797 -0.033848941 0.047070026
-0.02886555 -0.040619373 0.046956301
0.035008896 -0.035600543 0.04326129
-0.028139338 -0.041858852 0.04204905
0.027310956 -0.041577756 0.038735986
-0.028381146 -0.042143404 0.037699699
-0.020121519 -0.045117259 0.037031353
0.025856633 -0.041971445 0.03446883
-0.026898384 -0.042924583 0.03439194
-0.019502539 -0.046689153 0.03303951
0.020415768 -0.045313478 0.030656278
-0.019246247 -0.047740102 0.028387547
0.012372613 -0.050131142 0.025999963
0.019144978 -0.046550333 0.026807606
0.0098245926 -0.050905287 0.024663627
-0.04208979 -0.027236164 0.062190711
0.042909484 -0.024504244 0.056707084
0.045966327 -0.023567855 0.057063639
-0.041681465 -0.027757943 0.057975113
0.038415078 -0.028214276 0.053498089
0.041211501 -0.025202334 0.052836001
-0.041480161 -0.028330564 0.053937912
-0.038791925 -0.030811787 0.053913355
0.037972957 -0.029745281 0.049864769
0.040558133 -0.027501523 0.047894061
-0.0411615 -0.029965103 0.049629748
-0.037592087 -0.032093823 0.049371839
0.037727021 -0.032507956 0.045832515
0.040949274 -0.030679226 0.043732405
-0.036824845 -0.03353405 0.04443866
0.037121557 -0.035236776 0.041492999
0.040704578 -0.033727944 0.040778816
0.033112086 -0.036887944 0.035947382
0.036276102 -0.03622812 0.036565006
0.039849572 -0.035997093 0.038061738
-0.030204132 -0.040968776 0.03499645
0.030975029 -0.037744462 0.031870425
-0.028976999 -0.041524589 0.030866385
0.025784172 -0.040127337 0.028605759
-0.023969397 -0.043990314 0.026960611
0.046005081 -0.022110164 0.053784013
0.043684158 -0.022831738 0.05096519
0.046778619 -0.022225559 0.050674617
-0.04194637 -0.02788204 0.051124394
0.043263528 -0.023913622 0.046931803
0.045871399 -0.022233367 0.046490014
-0.042167574 -0.028537095 0.047433019
-0.039684519 -0.031015813 0.046187937
0.04218059 -0.027079463 0.044289529
-0.041580897 -0.029711902 0.043055892
-0.039324358 -0.031357765 0.042908847
-0.038428072 -0.031696916 0.039235353
-0.035221417 -0.032494664 0.036543906
0.033015396 -0.036057234 0.0298962
-0.033236768 -0.037288606 0.029384017
-0.033483528 -0.038574398 0.024897575
-0.025024299 -0.042223096 0.022941232
-0.024312485 -0.042070627 0.020607293
-0.042010888 -0.028429151 0.036641955
-0.038688339 -0.029767871 0.035466313
-0.037846275 -0.028573513 0.031175852
-0.035537448 -0.031546652 0.031446397
-0.03751744 -0.03094399 0.026697814
-0.035771184 -0.03388232 0.026987731
-0.037667371 -0.03260386 0.023798168
-0.040097028 -0.027290523 0.029753983
-0.039961591 -0.029349387 0.025873125
0.0066970629 -0.020845396 0.34708956
0.013317422 -0.013628745 0.34504434
0.018538412 -0.0063845376 0.34414709
0.0090144472 -0.022918701 0.343885
0.015057881 -0.015175317 0.3423171
0.019930134 -0.007274223 0.34197962
0.0096422061 -0.023818176 0.33939973
0.01489578 -0.015956724 0.33846039
-0.0023361128 -0.01969699 0.34715232
0.0046503358 -0.011355689 0.3484799
0.012052144 -0.0053279521 0.34853458
-0.0018720999 -0.024400685 0.34417862
-4.3529086e-05 -0.021793496 0.34616712
0.0075006839 -0.013687296 0.34730649
0.014538737 -0.0072891996 0.34575117
-0.0021772878 -0.026121166 0.34101936
0.017454505 -0.0096572982 0.33959195
-0.0011674976 -0.027531195 0.33672035
0.0079417415 -0.02316221 0.33588082
0.015016852 -0.014923595 0.33559513
0.019857705 -0.0066679195 0.3350693
-0.00051881466 -0.027632639 0.33327311
0.0081054708 -0.023308765 0.33219892
0.015301619 -0.015963167 0.33160079
0.021318311 -0.0059140329 0.33164704
0.012599433 -0.020318603 0.32790667
0.016442787 -0.033654306 0.30254674
0.023253415 -0.02664778 0.3025949
0.01510792 -0.037089601 0.29986674
0.021559913 -0.031832304 0.30022556
0.028757468 -0.024868075 0.29977188
0.034758657 -0.017816417 0.29734313
0.019231958 -0.037092246 0.29617056
0.027178146 -0.030622799 0.29671159
0.033794187 -0.023107091 0.29587525
0.038419846 -0.016913738 0.29302755
0.020925313 -0.03871762 0.29184464
0.029117646 -0.032872189 0.29261208
0.035601538 -0.025238365 0.29168484
0.039875753 -0.018430198 0.28959423
0.02250356 -0.04099749 0.2877968
0.030712178 -0.034788068 0.28828272
0.037120074 -0.027081544 0.28729853
0.042470444 -0.01904406 0.28512412
0.020091433 -0.045862231 0.28285483
0.027932776 -0.039433308 0.28363127
0.035451777 -0.03279788 0.28342065
0.041825909 -0.025042001 0.28239954
0.018370647 -0.04946192 0.27971092
0.025121247 -0.044130407 0.27816746
0.033147741 -0.03789347 0.2790941
0.040112458 -0.030724002 0.27849418
0.045632724 -0.022802796 0.27631509
0.02668583 -0.046016891 0.27380037
0.034595206 -0.039668217 0.27465647
0.040881082 -0.031824 0.2735554
0.046210833 -0.025250666 0.27238536
0.028026223 -0.047633775 0.27005723
0.035547294 -0.040967524 0.26985314
0.04204477 -0.033315901 0.26889619
0.046759337 -0.026803097 0.26942772
0.028730275 -0.048534088 0.26742417
0.036226045 -0.041485745 0.26640612
0.042124223 -0.034965564 0.26581979
0.00011199061 -0.012909194 0.3486532
-0.0055943429 -0.025119461 0.34042323
-0.001751855 -0.026626082 0.33106911
0.016454916 -0.0098852618 0.32823223
0.0033705151 -0.023811083 0.32554382
0.010454402 -0.020435698 0.32479221
0.015742365 -0.010971993 0.32413185
0.0064612939 -0.021890385 0.32164732
0.013431746 -0.016122887 0.31981024
0.013746036 -0.022249563 0.31025758
0.019482426 -0.016609859 0.30922666
0.011488855 -0.02845953 0.30631757
0.018190866 -0.021858247 0.30664083
0.024955062 -0.014743729 0.30547589
0.007034611 -0.036617722 0.30166173
0.013614423 -0.030757017 0.30381462
0.02081996 -0.023933923 0.3040058
0.027958719 -0.017482156 0.30249444
0.032711215 -0.009968536 0.29963601
0.011798625 -0.037643086 0.29967996
0.035926826 -0.011759549 0.29701394
0.0088677891 -0.041031383 0.29429406
0.038464502 -0.013594358 0.29340181
0.008015234 -0.045352284 0.28900599
0.014911336 -0.042369097 0.2907474
0.042136483 -0.011497064 0.28762636
0.0089462437 -0.047870912 0.28571966
0.01658766 -0.043382078 0.28771603
0.044089146 -0.013792384 0.28351176
0.01056372 -0.050207313 0.28134888
0.044876404 -0.01900667 0.28018853
0.047435589 -0.012354856 0.27837616
0.016626695 -0.050359905 0.27756467
0.047121927 -0.017478742 0.27466241
