# .PCD v0.7 - Point Cloud Data file format
VERSION 0.7
FIELDS x y z
SIZE 4 4 4
TYPE F F F
COUNT 1 1 1
WIDTH 1243
HEIGHT 1
VIEWPOINT 0 0 0 1 0 0 0
POINTS 1243
DATA ascii
-0.024167359 0.0028361192 0.34435454
-0.02665031 -0.0049543069 0.34493676
-0.025227547 -0.014361536 0.34294423
-0.027148366 0.00022808803 0.34011489
-0.028138518 -0.0096565746 0.33998808
-0.02730459 -0.00033347341 0.3371053
-0.028126657 -0.0094942357 0.33619049
-0.016151547 -0.0010030328 0.34929895
-0.015460432 -0.015380794 0.34855106
-0.018782914 0.0048100147 0.34723896
-0.019707143 -0.0054491931 0.34773028
-0.018494248 -0.015237315 0.34618214
-0.017968774 -0.019318722 0.3452256
-0.022712052 0.005577385 0.34370825
-0.021919131 -0.015323976 0.3438313
-0.022303164 0.0097482279 0.33914673
-0.026189923 0.0018061619 0.33675748
-0.025396168 -0.018060921 0.33611926
-0.027365804 0.00052230025 0.3341209
-0.027478814 -0.0093640443 0.33287024
-0.024048746 -0.018702313 0.33322799
-0.027926445 0.00024047647 0.33025199
-0.027605236 -0.0088775642 0.32894015
-0.042213082 0.001285193 0.30097896
-0.041795671 -0.0077221659 0.30040661
-0.043315351 0.0052793543 0.29725152
-0.045003772 -0.0026036263 0.29843795
-0.044345081 -0.011829426 0.29763117
-0.04667294 0.0026057246 0.29400122
-0.047548532 -0.0073421546 0.29390472
-0.048660338 0.0078163194 0.28971264
-0.049888551 -0.0021487388 0.28979835
-0.049588263 -0.01208075 0.28912488
-0.050796866 0.0080504222 0.28522846
-0.052240372 -0.001920533 0.28543568
-0.052220821 -0.011851381 0.28490201
-0.050074816 -0.021918872 0.28216791
-0.053660929 0.0032923587 0.28085503
-0.054726481 -0.0066579883 0.28088048
-0.052041709 -0.016176429 0.28006539
-0.054231405 0.0063628661 0.27650517
-0.057042599 -0.0014653269 0.27676159
-0.056369781 -0.011396323 0.27588895
-0.058595836 0.0028762606 0.27251223
-0.058610618 -0.006198247 0.27172276
-0.056420207 -0.015503981 0.27168459
-0.059340537 -0.0010893426 0.26915911
-0.058170557 -0.01104056 0.26801172
-0.0113554 -0.0013071784 0.34994462
-0.012437999 -0.010313669 0.34886268
-0.012845457 -0.013663344 0.34934515
-0.020996869 0.010370396 0.33659896
-0.022313893 0.0066759246 0.33130097
-0.02178508 -0.017931992 0.33001056
-0.023226082 0.0051409933 0.32713729
-0.026400864 -0.010040095 0.32596332
-0.023256719 -0.018586541 0.32673514
-0.025286496 0.00089093082 0.32264262
-0.026008725 -0.0089027714 0.32145888
-0.023630559 -0.016876418 0.32233271
-0.030164838 -0.0043573906 0.31089592
-0.032599747 0.00044847987 0.30691954
-0.032685816 -0.0082118399 0.30807245
-0.035084486 0.011196449 0.30286244
-0.034915149 0.0018280125 0.30471992
-0.035965443 -0.0080170929 0.30488169
-0.034699559 -0.016524602 0.30194446
-0.038169146 0.0070789712 0.30104476
-0.039019763 -0.0030938634 0.30237943
-0.03856194 -0.013032183 0.30058381
-0.03669101 -0.021568626 0.29765993
-0.039056778 0.015878722 0.2957544
-0.04125911 0.0078453971 0.29734376
-0.040491402 -0.017553024 0.29546863
-0.038947701 -0.025928028 0.29359871
-0.043114007 0.012551214 0.29230556
-0.044605315 -0.014454571 0.29208514
-0.042969048 -0.022316819 0.29086691
-0.044494689 0.01726874 0.28733495
-0.0462749 -0.017594723 0.28824311
-0.044161141 -0.027111294 0.28562674
-0.04719615 0.017324351 0.28341246
-0.049575806 -0.017267494 0.28194582
-0.048099101 -0.026841298 0.2820254
-0.04926753 0.01857711 0.27875227
-0.05139935 0.0090738488 0.27930701
-0.051122725 -0.021675562 0.27787951
-0.047895849 -0.030007482 0.27586856
-0.05181694 0.013611748 0.27481771
-0.053149581 -0.016532745 0.27415454
-0.050648689 -0.026435807 0.27210617
-0.053918421 0.013850781 0.27027935
-0.056353629 0.0048767249 0.2707004
-0.055759549 -0.016349588 0.26921555
-0.052964032 -0.024405215 0.2673651
-0.055229902 0.013650305 0.26633179
-0.057917595 0.0041994355 0.26575631
-0.057860255 -0.0060748314 0.26518893
-0.055836856 -0.015597201 0.2640844
-0.054070771 -0.02367812 0.2646108
-0.058304787 0.0043032314 0.26076475
-0.059410691 -0.0057189474 0.26084992
-0.056914091 -0.01375581 0.25971639
-0.059927762 -0.00087099778 0.2561096
-0.059819341 -0.0097938003 0.25563556
-0.061726809 -0.0043360209 0.25184423
-0.018941641 -0.019371122 0.32796165
-0.021071196 0.0074145342 0.32486898
-0.021329939 0.0062096636 0.32035998
-0.02462852 -0.0016654249 0.3196871
-0.022580266 -0.017018195 0.31900728
-0.02397126 0.0021240113 0.31568432
-0.025984943 -0.0079356283 0.31564814
-0.022406816 -0.015872326 0.31402612
-0.026458383 0.0023540517 0.31130615
-0.027871013 -0.0083287936 0.31215835
-0.025221467 -0.015906706 0.30929798
-0.0293805 0.0070935334 0.30722603
-0.029566705 -0.012579076 0.30798173
-0.02806896 -0.022277016 0.30424911
-0.031722844 0.016118135 0.30237615
-0.032446146 0.0071183979 0.30495009
-0.032405138 -0.017909877 0.30269495
-0.030663908 -0.027016759 0.29994425
-0.035059631 -0.023084652 0.2983892
-0.032049 -0.031138025 0.29507419
-0.037045062 0.01863692 0.29492772
-0.035355628 -0.031671796 0.29112533
-0.034508705 -0.034811806 0.28846613
-0.0394665 0.019421652 0.29087687
-0.038904071 -0.031699426 0.28757763
-0.040027916 0.023207176 0.28541705
-0.041659474 -0.03201006 0.28391969
-0.042200983 0.026433624 0.27941701
-0.044153988 0.020479325 0.28171444
-0.04199779 -0.035890773 0.27748841
-0.04530549 0.023645874 0.27681378
-0.044797242 -0.035767894 0.27331403
-0.047492683 0.023886744 0.2722823
-0.048869133 -0.030759625 0.27013913
-0.048602045 0.023102343 0.26902625
-0.051144421 -0.026968382 0.26666865
-0.047642529 -0.033565801 0.26527902
-0.054766476 0.01478793 0.26362693
-0.054225802 -0.020496659 0.26116672
-0.050459146 -0.029277932 0.26096082
-0.054262042 0.01446529 0.25907779
-0.056577265 -0.015927922 0.2582978
-0.054683208 -0.025101315 0.25724813
-0.054772139 0.017511759 0.25622845
-0.056239069 0.0099608144 0.25485018
-0.059439898 0.0013029326 0.25359327
-0.05809021 -0.014799458 0.25392058
-0.054641843 -0.024253972 0.25315982
-0.058752179 0.0053717112 0.24972001
-0.060367644 -0.0048505226 0.24933282
-0.059177876 -0.014577416 0.24877453
-0.059789717 0.0047377655 0.24614993
-0.059760571 -0.0043350989 0.24549738
-0.058818638 -0.014458564 0.2452659
-0.019792855 0.0084972456 0.31811187
-0.017518342 0.010644395 0.31433195
-0.01906991 -0.018910307 0.31180644
-0.023117185 0.0082780775 0.31045321
-0.021301091 -0.022283595 0.30623004
-0.025137842 0.012347743 0.30688995
-0.024021566 -0.027725037 0.30265054
-0.022472262 -0.031355795 0.30054611
-0.026808918 0.018067269 0.30180049
-0.02669847 -0.028641768 0.30065578
-0.026178658 -0.031403858 0.29779586
-0.030749857 0.019623036 0.29914778
-0.029375017 -0.033192623 0.29441226
-0.027626753 -0.035228863 0.29154658
-0.032561243 0.02367463 0.29337177
-0.032165647 -0.033557888 0.29140526
-0.031118095 -0.036253572 0.28875181
-0.030363023 -0.03931259 0.28620917
-0.036318004 0.024481166 0.28927776
-0.034854233 -0.037252534 0.28569531
-0.032700896 -0.039138183 0.28413552
-0.037398398 -0.038807839 0.28082994
-0.034880221 -0.040976029 0.27911097
-0.039248228 -0.038616803 0.27692032
-0.037641466 -0.041376825 0.27494586
-0.042315781 -0.038355861 0.27282554
-0.039914072 -0.040380742 0.27121112
-0.044368684 -0.037396822 0.26743281
-0.0453192 0.028213006 0.26669484
-0.047637463 -0.032059543 0.26290396
-0.04290688 -0.038083479 0.26253197
-0.047980189 0.024337053 0.26242226
-0.049385369 -0.031264503 0.25943455
-0.044264972 -0.03793126 0.25915027
-0.051284134 0.020785604 0.25753999
-0.048892617 -0.03357533 0.25404555
-0.055160224 0.015306556 0.25247678
-0.054979444 -0.021229882 0.24937567
-0.051045358 -0.029948335 0.24970943
-0.05551523 0.015055927 0.24824011
-0.058041632 0.0078365831 0.24763805
-0.054293931 -0.024324197 0.245675
-0.055206597 0.014523855 0.24470678
-0.059084237 0.0063540069 0.24316728
-0.059144199 -0.0041873874 0.2418237
-0.05820483 -0.014340916 0.24159092
-0.054469407 -0.023195598 0.2423335
-0.059223294 0.0010646482 0.23795938
-0.059211195 -0.0092666233 0.23762879
-0.059704483 0.0055653723 0.23511657
-0.059688091 -0.0016901966 0.23473307
-0.016230166 0.012986725 0.31599972
-0.017086685 0.012084704 0.31175029
-0.01578182 -0.022834551 0.30929774
-0.014228761 -0.026045702 0.30666137
-0.01902467 0.011887642 0.30925223
-0.018070579 -0.023699354 0.30612364
-0.017282307 -0.027108241 0.30433127
-0.016419411 -0.030722484 0.30313674
-0.019899786 0.026215069 0.30162439
-0.021127105 0.022460271 0.30279461
-0.020287156 -0.027881972 0.30292031
-0.019031167 -0.032806512 0.30000263
-0.021973968 0.026365317 0.29857802
-0.023513317 0.019542512 0.3021422
-0.023132324 -0.033534188 0.29625553
-0.020500004 -0.035656858 0.29458839
-0.024760842 0.027630318 0.29441082
-0.024045765 -0.036858864 0.29136378
-0.026452422 0.031963922 0.2897034
-0.028146625 0.028335165 0.29120225
-0.027621746 -0.037593603 0.28927338
-0.026459336 -0.041414876 0.28597987
-0.025855243 -0.046069779 0.28365636
-0.029187024 0.032856155 0.28621584
-0.028448582 -0.042055663 0.28209347
-0.027053297 -0.045513645 0.28134653
-0.032740474 0.033480737 0.28199279
-0.031742215 -0.043130472 0.27826539
-0.029996634 -0.04557215 0.27642643
-0.034733653 -0.043182015 0.27520713
-0.033621371 -0.045386367 0.27289703
-0.037969887 -0.04237872 0.26901281
-0.035806537 -0.045891739 0.26825741
-0.039016426 -0.041428909 0.26420885
-0.036931634 -0.045310672 0.26335278
-0.03574723 -0.048735123 0.26396757
-0.043046176 0.031116471 0.26507473
-0.037934601 -0.044624053 0.25982904
-0.044715047 0.03009887 0.2602317
-0.046046972 -0.036290549 0.25524524
-0.046193123 0.030059434 0.2554664
-0.046889901 -0.035588551 0.25209743
-0.047195196 0.02846799 0.25135568
-0.051042974 0.021789428 0.24995816
-0.047859132 -0.034418218 0.24743277
-0.052221417 0.020714162 0.24650505
-0.048808038 -0.033278149 0.24236286
-0.054617226 0.015582644 0.24141026
-0.054494083 -0.020025343 0.2388275
-0.051913977 -0.028848197 0.23864585
-0.054658711 0.015214254 0.23659456
-0.058038592 0.0079151085 0.2365042
-0.058258832 -0.0075578694 0.23527437
-0.055425227 -0.018974189 0.23454535
-0.053269684 -0.026604194 0.23306495
-0.057050705 0.011543238 0.23217377
-0.058933139 0.00163171 0.23192865
-0.057813168 -0.0088746967 0.23157144
-0.055715024 -0.018393751 0.23069102
-0.058072686 0.0062074582 0.22775823
-0.058219433 -0.0033110685 0.22682795
-0.011428952 0.016386123 0.30847725
-0.01235348 -0.027569689 0.30627227
-0.01360476 -0.031173833 0.30610716
-0.01263994 0.02622012 0.30392325
-0.012919545 0.022482947 0.30465704
-0.013334095 0.018471861 0.30597067
-0.014079034 -0.028190181 0.30488026
-0.014720857 -0.032508615 0.30333856
-0.016126931 0.02784517 0.30166745
-0.016345143 0.022477899 0.30380496
-0.01519227 -0.034598324 0.30023134
-0.01605922 -0.036524884 0.2969853
-0.016838253 0.031770766 0.29645893
-0.018479109 0.029476028 0.2971054
-0.017153203 -0.037824817 0.29258066
-0.015940607 -0.040964063 0.29216832
-0.021257639 0.032416642 0.2923665
-0.021167517 0.029591396 0.29433405
-0.019299269 -0.038545929 0.29063755
-0.020057321 -0.041525237 0.28863132
-0.020505488 -0.04463445 0.28724042
-0.023696482 0.034202777 0.28815964
-0.023626745 -0.04259637 0.28600606
-0.023667395 -0.045018259 0.28535655
-0.024078906 0.038309392 0.28399301
-0.02554661 0.035275385 0.28455487
-0.026808918 -0.047030009 0.27959967
-0.023676515 -0.049756844 0.27750111
-0.025456786 0.041503377 0.27992412
-0.027935624 0.038687743 0.28000429
-0.028698623 0.035353191 0.28203332
-0.02780807 -0.047706164 0.27605909
-0.024871051 -0.049985811 0.27398059
-0.029899299 0.038517863 0.27562949
-0.030523539 -0.047737665 0.27120039
-0.028841734 -0.049280558 0.26944128
-0.030396283 0.038176253 0.27236363
-0.03316164 0.035960168 0.27119228
-0.031801283 -0.049508143 0.26545221
-0.033182144 0.037710264 0.2671636
-0.035819829 0.036123902 0.26762983
-0.036537945 -0.047187805 0.26198795
-0.034453273 -0.05023627 0.26108697
-0.037905574 -0.046055533 0.25808284
-0.036735475 -0.050027817 0.25780499
-0.040654182 -0.040907852 0.25290602
-0.037760377 -0.044207964 0.25366721
-0.036220968 -0.049270794 0.25424439
-0.041144371 -0.040203534 0.24870455
-0.044831395 0.031150952 0.24850655
-0.046329141 -0.035997346 0.24376136
-0.045870185 0.029897399 0.24376908
-0.047157228 -0.035291605 0.24057049
-0.046840727 0.028835315 0.23983124
-0.051190853 0.021874052 0.23816437
-0.048801184 -0.034215406 0.23600081
-0.048858225 0.024680145 0.23484224
-0.05253607 0.017625207 0.23390284
-0.049814999 -0.032583456 0.231592
-0.053501308 0.016788939 0.23035055
-0.055361211 -0.018310752 0.22794321
-0.053613365 -0.02749962 0.22837824
-0.056241214 0.01173379 0.22598505
-0.057799995 0.0013878413 0.22428235
-0.057204366 -0.00861621 0.22477457
-0.055111051 -0.018167786 0.22354022
-0.053539872 -0.026347123 0.22474539
-0.057140529 0.0068139392 0.22021085
-0.058464706 -0.0030776102 0.22050771
-0.055792987 -0.012245123 0.21894744
-0.057718158 0.0064411028 0.21695113
-0.05821079 -0.0023489229 0.21594238
-0.057329834 -0.011201014 0.21581039
-0.0072429185 0.025442455 0.30628285
-0.0067643528 0.021031454 0.30583224
-0.0076105595 0.018964807 0.30717695
-0.0092614293 0.025497068 0.30477315
-0.0089934468 0.022510067 0.30529892
-0.01188153 -0.038553812 0.29527181
-0.013905763 -0.040392678 0.29448959
-0.013178408 0.033569716 0.29320824
-0.014620245 -0.038854502 0.29328382
-0.015565812 -0.043166332 0.29106376
-0.014109849 -0.044690438 0.28948504
-0.01623565 0.036784012 0.2882899
-0.016556561 0.034588929 0.29132634
-0.016436756 -0.04454286 0.28896424
-0.019685924 0.037399575 0.28638488
-0.020002246 0.035180122 0.28838146
-0.021447361 0.04149735 0.28204891
-0.022553146 -0.051263615 0.27522472
-0.025399148 0.041625313 0.27825692
-0.024499178 -0.050605442 0.27294034
-0.025071383 0.041944683 0.27398026
-0.028607368 0.040391896 0.2732169
-0.026147187 -0.050556805 0.26924205
-0.027602315 0.042294323 0.26782724
-0.028866172 0.039373562 0.26865807
-0.027703047 -0.051245913 0.26517624
-0.028848588 0.042500898 0.26431873
-0.030586243 0.039677463 0.26403788
-0.032960415 0.036480814 0.26366118
-0.032145619 0.039719112 0.26006258
-0.034300089 0.036619395 0.26104537
-0.033869326 0.039310321 0.25660613
-0.03679496 0.036852133 0.25654474
-0.034921348 -0.04530507 0.25007114
-0.03249377 -0.048717327 0.25059724
-0.035754442 -0.043813106 0.24610654
-0.040536225 -0.040696174 0.24280164
-0.037889898 -0.042292222 0.24124551
-0.043190837 0.032857645 0.24177337
-0.044882178 0.03072102 0.2379598
-0.044501424 0.0292335 0.23425859
-0.049504638 0.023379613 0.2317476
-0.046595216 0.025102098 0.22842041
-0.052127898 0.019141402 0.22795439
-0.046950817 -0.031092688 0.22573373
-0.052153945 0.017433977 0.22331303
-0.05297786 -0.023646481 0.21983907
-0.053043664 0.015824258 0.2183719
-0.056866646 0.0093193715 0.21829891
-0.055178821 -0.017950781 0.21724954
-0.055222273 0.012147133 0.21502155
-0.058035791 0.0024462056 0.21418324
-0.057956278 -0.007422267 0.21380216
-0.055966318 -0.016860034 0.2131727
-0.056245923 0.0057993713 0.20966464
-0.058172047 -0.0020471502 0.20901549
-0.056516409 -0.012047724 0.20834279
-0.058365166 -0.0018601406 0.20479664
-0.0053924923 0.02405072 0.3053785
-0.011161447 0.035174437 0.29234371
-0.01343888 0.037137277 0.28984067
-0.016052425 0.038390242 0.28664649
-0.020122349 0.043992274 0.27905032
-0.020429671 0.04408757 0.27556601
-0.020816207 0.043460816 0.270657
-0.025171399 0.04406973 0.26740518
-0.026710153 0.04907234 0.26382443
-0.027489364 0.045135938 0.26291066
-0.029002845 0.044588558 0.25827262
-0.029644728 0.043846868 0.25558412
-0.031543076 0.040672652 0.2528246
-0.030048966 -0.049030297 0.2470949
-0.031580925 0.039511308 0.24907938
-0.033379734 0.037539545 0.24798331
-0.034203768 -0.045515526 0.24326742
-0.031298041 -0.04824907 0.2434639
-0.035716593 0.037272576 0.24360591
-0.035019338 -0.044652235 0.2395249
-0.033096552 -0.046994161 0.23918563
-0.038927257 -0.040603824 0.234276
-0.035675526 -0.04341564 0.2352761
-0.040677309 0.033345155 0.23526004
-0.03846693 -0.039809097 0.23063865
-0.044805586 0.027314492 0.22920117
-0.040795922 -0.036747228 0.22596097
-0.04524219 -0.029570717 0.2213673
-0.041646063 -0.035723414 0.22237808
-0.048331797 0.022732846 0.22146049
-0.047427475 -0.028400686 0.21841612
-0.044168055 -0.035460498 0.21696779
-0.050802946 0.018737674 0.2165668
-0.047808468 -0.027375694 0.21350077
-0.05219084 0.017792778 0.21240565
-0.053831041 -0.018481251 0.20982483
-0.048698425 -0.026854295 0.20971975
-0.053504288 0.012504932 0.20752418
-0.056939662 0.0040042973 0.20594299
-0.055825055 -0.013063055 0.20524633
-0.05104202 -0.019947123 0.20627967
-0.056555986 0.0076809372 0.20254815
-0.057896316 -0.0017407655 0.20188338
-0.056718588 -0.01215594 0.20148206
-0.056861579 0.0065675448 0.19901383
-0.058075547 -0.0017470017 0.19782749
-0.057539761 -0.011540414 0.1970188
-0.058962584 -0.010297419 0.19333732
-0.017083347 0.046324506 0.26932743
-0.019918025 0.046946928 0.26544327
-0.024637699 0.047717914 0.25649083
-0.026653886 0.045638077 0.25138748
-0.027899742 -0.05190799 0.24541706
-0.028051257 0.045079 0.24679074
-0.030073822 0.041227549 0.24664322
-0.029986978 -0.050215241 0.24155173
-0.030110419 0.044389196 0.24159017
-0.031742632 0.040987905 0.24215171
-0.030872285 -0.048633259 0.23956892
-0.033301473 0.040755041 0.2375887
-0.036202431 0.038159911 0.23766604
-0.033761322 -0.044132981 0.23184654
-0.034040749 0.039981656 0.23395568
-0.037074149 0.037818655 0.23351192
-0.037608802 -0.04055199 0.22839129
-0.034197867 -0.043309484 0.22825772
-0.039115191 0.033289067 0.22812358
-0.038115621 -0.038945775 0.22446293
-0.036197901 -0.0416441 0.22320867
-0.042930961 0.02842512 0.22384739
-0.038307786 -0.040903449 0.21876168
-0.043820143 0.027685877 0.21942556
-0.043068528 -0.0371801 0.21622211
-0.0472036 0.024411839 0.2149176
-0.045245051 -0.032290433 0.21169299
-0.046593845 0.026250783 0.20939404
-0.049821794 -0.024490926 0.20704025
-0.046940982 -0.032075692 0.20662555
-0.048559129 0.022936437 0.20575619
-0.052307785 0.014446056 0.20532075
-0.04954505 -0.02158552 0.2032927
-0.047468603 -0.030810054 0.20218807
-0.052944064 0.013532645 0.20059419
-0.052800357 -0.016986337 0.19895148
-0.049154639 -0.02578906 0.19953409
-0.054640889 0.0091453409 0.19573659
-0.057297587 2.3355024e-05 0.19543535
-0.053517222 -0.01627668 0.19416818
-0.055999458 0.0039388626 0.19125104
-0.057431936 -0.0059896712 0.19049603
-0.054290295 -0.014795908 0.19008312
-0.057323396 -0.00090290676 0.18675208
-0.057434022 -0.0093821036 0.18795586
-0.023588359 0.048371114 0.24831137
-0.024491608 0.048742454 0.24282548
-0.026076674 0.047390953 0.24491394
-0.025726557 0.048768379 0.24178937
-0.028295338 0.046581835 0.24138266
-0.031800568 0.04290244 0.2362794
-0.030128479 -0.047508635 0.2294974
-0.033889353 0.040861353 0.23218992
-0.032790542 -0.045279972 0.2262401
-0.030330181 -0.04767628 0.22557059
-0.035978138 0.038820274 0.22810042
-0.034364104 -0.044352219 0.22200274
-0.031822443 -0.047359165 0.22158676
-0.036183894 0.037214093 0.22205496
-0.035700142 -0.043424435 0.21709606
-0.034163713 -0.044995833 0.21575791
-0.038103521 -0.04169675 0.21302262
-0.034837663 -0.044895224 0.21266174
-0.042799115 0.028633777 0.21245837
-0.039949656 -0.041501462 0.20888853
-0.038793445 -0.044528499 0.20627451
-0.044154823 -0.037414066 0.2046378
-0.040722191 -0.044347696 0.20305464
-0.047547877 0.02458787 0.20344818
-0.046015203 -0.032859355 0.20038435
-0.042656302 -0.040404122 0.20003164
-0.050340176 0.01969545 0.19862083
-0.049308121 -0.02638191 0.19670913
-0.048877656 0.023429919 0.19477111
-0.052163541 0.014432999 0.19428286
-0.050927222 -0.020985179 0.19204706
-0.047654808 -0.030666512 0.19242984
-0.052439332 0.013543545 0.18993697
-0.053819656 -0.016686868 0.18853748
-0.050186455 -0.024377178 0.18723801
-0.053859353 0.0095001301 0.18477935
-0.056948483 -0.00094547751 0.18330064
-0.055083573 -0.011102666 0.18418369
-0.052152336 -0.019171406 0.18400478
-0.055922151 0.0038361188 0.1808663
-0.056318104 -0.0053188899 0.17961267
-0.053788841 -0.014449139 0.17992958
-0.026803017 0.042251803 0.2264576
-0.029853582 -0.048333436 0.21830153
-0.03250289 0.038780816 0.21909243
-0.03107208 -0.047683217 0.21437907
-0.034237146 0.037095867 0.21520209
-0.032565176 -0.046676766 0.20923752
-0.034122288 0.036987484 0.21115714
-0.035653055 -0.04599192 0.20664695
-0.042170465 0.029605564 0.20507643
-0.037584364 -0.045278937 0.20196399
-0.041316628 -0.037631791 0.19638115
-0.040385485 -0.040846087 0.19682217
-0.044975579 -0.033326164 0.19296795
-0.044079006 0.027290702 0.19279942
-0.046435475 -0.031455394 0.18908378
-0.048252165 0.023984876 0.18783689
-0.050603569 0.014695621 0.18650153
-0.049218655 -0.025853775 0.18474334
-0.04940325 0.018865155 0.18272695
-0.052475631 -0.017539915 0.18070602
-0.049933493 -0.025192756 0.18044689
-0.050104439 0.017369848 0.17909551
-0.053824425 0.0099682761 0.17915601
-0.055297434 -0.00066336122 0.17621613
-0.054076791 -0.012481098 0.17796624
-0.051232636 -0.020460919 0.17612293
-0.04995209 -0.02860409 0.17607063
-0.053867936 0.009794374 0.17448777
-0.05573976 -0.00051128928 0.17289731
-0.055854797 -0.0099248337 0.17270324
-0.055272639 0.0032181006 0.16852146
-0.055758119 -0.0048605655 0.16814253
-0.023388445 0.046313848 0.22470373
-0.022489071 0.044094317 0.22407168
-0.024668157 0.045829143 0.22013918
-0.024899483 0.042637009 0.22187021
-0.02458179 0.039730884 0.21977419
-0.026969373 0.045901611 0.21795952
-0.026803434 0.042612538 0.21819657
-0.029260337 0.039824642 0.21634936
-0.028089523 0.046543207 0.21379107
-0.027541518 0.041653641 0.2127699
-0.030610919 0.039270766 0.21270761
-0.032774866 0.03722588 0.20814049
-0.033234417 -0.047874764 0.20449778
-0.033888698 0.036537461 0.20424432
-0.034528494 0.036142148 0.20068809
-0.039658904 0.03007891 0.1982041
-0.037230134 -0.041331396 0.19304335
-0.040243387 0.030267231 0.19500011
-0.03808254 -0.039735463 0.19186765
-0.041844964 0.029438701 0.19032878
-0.042843878 0.028717201 0.18638095
-0.045700371 -0.032415736 0.18236509
-0.045746446 0.024736758 0.18090048
-0.04729557 -0.031323489 0.17840388
-0.046058238 0.02363582 0.17673215
-0.051179469 0.016005188 0.17611367
-0.049017847 -0.030100655 0.17356038
-0.049135625 0.018158693 0.17166278
-0.053349853 0.01017172 0.17121303
-0.051100314 -0.020287484 0.17059204
-0.049415886 -0.029248416 0.16953039
-0.051311314 0.014419998 0.16760603
-0.05425024 0.0056770681 0.16631997
-0.055224776 -0.0047450499 0.16504222
-0.052167296 -0.014736869 0.16519588
-0.050427675 -0.023200955 0.16542146
-0.05496645 0.00073854934 0.16146576
-0.054488361 -0.0091617825 0.16064057
-0.055426896 -0.0048083183 0.15736103
-0.021435916 0.046657689 0.22095266
-0.025241911 0.04386944 0.21506917
-0.026215672 0.043503322 0.21163052
-0.02852875 0.04029841 0.20973697
-0.027809501 0.040004574 0.20536277
-0.029773653 0.039286055 0.20150775
-0.032261014 0.037942275 0.19758183
-0.033827126 0.037190516 0.19281161
-0.035183609 -0.040732596 0.18783274
-0.03606838 -0.040433478 0.18334788
-0.040954351 0.030461811 0.18343592
-0.037988961 -0.040087178 0.17951542
-0.044351101 0.026617456 0.17848802
-0.039931834 -0.038127076 0.17550638
-0.045010448 0.025528006 0.17407691
-0.043541074 -0.03512777 0.17027065
-0.045012951 0.025096703 0.16939399
-0.047603786 -0.030218855 0.16590783
-0.044897556 -0.037264518 0.16648531
-0.050722539 0.016063858 0.16545096
-0.049528003 -0.025147729 0.16353074
-0.045725226 -0.034827366 0.16256455
-0.051102757 0.015122875 0.16099221
-0.052960813 0.006653897 0.15975976
-0.05140543 -0.01913552 0.15893134
-0.048915625 -0.027661331 0.15863845
-0.051858425 0.010646406 0.15536392
-0.054099619 0.0013171912 0.15497872
-0.05510211 -0.009532393 0.15477049
-0.05225122 -0.018337764 0.15369549
-0.053509593 -0.000367128 0.15113479
-0.054535925 -0.0089751491 0.15009797
-0.052704453 -0.016482554 0.14976335
-0.023650825 0.043721758 0.20698527
-0.022930086 0.043986332 0.20357215
-0.025708854 0.04419513 0.19926733
-0.027966321 0.041008838 0.19958705
-0.028409362 0.044367403 0.19552019
-0.029506803 0.040851399 0.19556934
-0.030165672 0.044611327 0.19119117
-0.031246662 0.040148474 0.19096369
-0.030750692 -0.04310824 0.18618342
-0.027804971 -0.044433385 0.18562537
-0.032663286 0.039004032 0.18612
-0.033845484 -0.042798221 0.17998767
-0.030259848 -0.043651648 0.18093494
-0.033678949 0.037382618 0.18212453
-0.036147535 -0.042104769 0.17785978
-0.03323704 -0.043782782 0.1758939
-0.038657606 -0.040232703 0.1737439
-0.035266459 -0.042549226 0.1717734
-0.040717602 0.030619718 0.17262861
-0.039049149 -0.039513413 0.1682896
-0.036792696 -0.043138884 0.16722631
-0.043841124 0.026802212 0.16684854
-0.040964007 -0.04312383 0.16262537
-0.044331729 0.026004184 0.16282201
-0.044848561 -0.03018086 0.15942836
-0.043361247 -0.038222063 0.15955624
-0.04478395 0.025202848 0.15875643
-0.045892 -0.029690247 0.15526295
-0.04811579 0.020435404 0.15440154
-0.051275074 0.011480221 0.15248349
-0.050702095 -0.020726815 0.15187281
-0.047456384 -0.028863471 0.15082929
-0.049786747 0.015683448 0.1495418
-0.052042246 0.0066618207 0.14857951
-0.053187966 -0.0040866775 0.14792103
-0.052390277 -0.013314267 0.14689457
-0.049190462 -0.023553845 0.1471394
-0.051683128 0.010479747 0.14413425
-0.053372324 0.0017002927 0.14382261
-0.053650677 -0.0085184881 0.14334154
-0.05139643 -0.017045662 0.14224666
-0.054473937 0.002696357 0.13938087
-0.053337634 -0.00837518 0.13935894
-0.055969775 0.0041856575 0.13622117
-0.02079922 0.047349758 0.20095149
-0.022347987 0.045743726 0.20090571
-0.022473037 0.047474936 0.19835785
-0.026492238 -0.046420123 0.18424508
-0.027723312 0.04440695 0.18416104
-0.029857576 0.04153084 0.18354642
-0.028739333 -0.045672365 0.17931607
-0.028311133 -0.048710834 0.17820364
-0.029154956 0.045099963 0.17914385
-0.030563176 0.039623264 0.17885289
-0.033821523 0.036066182 0.17848477
-0.031145155 -0.045946248 0.17443076
-0.030088663 -0.0488385 0.17359993
-0.031815052 0.038587883 0.17398876
-0.034532845 0.03590022 0.17480019
-0.032961845 -0.044979163 0.17014274
-0.03172642 -0.047991745 0.16955197
-0.035482407 -0.044196915 0.16630542
-0.033637106 -0.047166873 0.16493386
-0.039927244 0.032093063 0.16571134
-0.038167238 -0.044132743 0.16300827
-0.040722191 0.031006433 0.16108173
-0.041249335 0.030196849 0.15570298
-0.041724801 -0.034775563 0.15146637
-0.044225097 0.026109647 0.15218353
-0.045278072 -0.030717973 0.15132344
-0.045147479 0.025280461 0.14840037
-0.048641324 0.017577261 0.14671549
-0.047196805 -0.029417276 0.14460602
-0.047020078 0.019346632 0.14282119
-0.051285744 0.012131804 0.14204645
-0.051651001 -0.013083768 0.13979793
-0.048939407 -0.023092374 0.14130405
-0.049641669 0.015295633 0.13833907
-0.053105772 0.0079406193 0.13810936
-0.052689493 -0.0030900955 0.13708839
-0.051674128 -0.012948447 0.13603497
-0.048879445 -0.022381432 0.13639426
-0.053929031 0.0076204347 0.13276097
-0.053207695 -0.0026558235 0.13196105
-0.051713347 -0.012036894 0.13230932
-0.054554939 0.0028006707 0.12773627
-0.054176331 -0.007601284 0.12785149
-0.027790964 0.04456722 0.17808214
-0.028558075 0.041999195 0.17721751
-0.027758956 -0.050781593 0.17199722
-0.029848814 0.044731531 0.17287561
-0.029383898 0.04168538 0.17271557
-0.027540565 -0.050737195 0.16815937
-0.030883133 0.045235727 0.16851756
-0.031402647 0.039944336 0.16784868
-0.034124255 0.036762115 0.16763467
-0.03034848 -0.048137534 0.16363528
-0.032495439 0.03911322 0.16418236
-0.034033 0.037008859 0.16385952
-0.035611749 0.036042258 0.15889105
-0.038986385 0.032396525 0.1548191
-0.038741589 -0.037198186 0.14834452
-0.04281354 0.02784824 0.14940497
-0.037406325 -0.037209049 0.14553189
-0.042992353 0.027059104 0.14508176
-0.04226315 -0.033099893 0.14119104
-0.045357168 0.02258765 0.14084768
-0.045394003 -0.029192287 0.13782471
-0.04497999 0.022035193 0.13674417
-0.049977839 -0.01755346 0.1326758
-0.046371341 -0.026890393 0.13364828
-0.051221132 0.012482799 0.13087231
-0.049697757 -0.017462794 0.12961245
-0.047483385 -0.025963642 0.12891346
-0.051279902 0.012158913 0.12662888
-0.054578483 0.0046455073 0.12569076
-0.053915679 -0.0082016448 0.12504321
-0.050493121 -0.017396986 0.12418765
-0.048482895 -0.025195446 0.1254642
-0.053724527 0.0079150675 0.12233007
-0.054220557 -0.0016019649 0.12169671
-0.051882446 -0.012775858 0.12041575
-0.028689206 0.044114739 0.16532737
-0.029345572 0.04490795 0.16165257
-0.030476689 0.040945396 0.16104952
-0.03100884 0.040152058 0.15697736
-0.032206059 0.037615929 0.15514937
-0.034083486 0.036165897 0.1525836
-0.034089446 -0.040558103 0.14685133
-0.038451016 0.033227816 0.14788803
-0.034827232 -0.038329903 0.1424191
-0.038629413 0.032446161 0.14354265
-0.038505852 -0.035451032 0.13975263
-0.03654319 -0.037890192 0.13872653
-0.041797459 0.027666472 0.13832226
-0.037805021 -0.036631886 0.134812
-0.044122875 0.023218442 0.1337257
-0.045162082 -0.028618027 0.13053983
-0.042809844 0.026387293 0.12963772
-0.04654032 0.019027598 0.12942863
-0.043947697 -0.030117806 0.1257419
-0.047228515 0.018189274 0.1245802
-0.049437761 -0.023499783 0.12240517
-0.04820919 0.016886849 0.12026048
-0.052149236 0.008091609 0.11825937
-0.052569389 -0.0028754796 0.11803627
-0.051689625 -0.012299945 0.11787844
-0.050241351 -0.021993309 0.11897522
-0.050623536 0.012475017 0.11565953
-0.052836895 0.0035521307 0.11467367
-0.052752137 -0.0066383597 0.11410981
-0.050527811 -0.016900677 0.11354083
-0.051542759 0.011527277 0.11213547
-0.052755654 0.0033549715 0.11021966
-0.053534806 -0.0059509207 0.10908949
-0.028096318 0.045398034 0.1584197
-0.027816474 0.043973234 0.1562703
-0.02833879 0.0417597 0.15367237
-0.028542817 0.040134143 0.15024757
-0.029413104 0.038110644 0.14852181
-0.033814669 0.036665659 0.14482728
-0.032087266 -0.039035793 0.14364922
-0.030685246 -0.041972838 0.14008039
-0.034519374 0.036499038 0.14101279
-0.034172893 -0.040397026 0.13932073
-0.032590687 -0.042329889 0.13658795
-0.035769463 0.035930716 0.13707399
-0.036031604 -0.038029343 0.13181859
-0.034884155 -0.040226899 0.13313234
-0.041203916 0.028948437 0.13116744
-0.037554145 -0.036029626 0.1285187
-0.042351067 0.028311159 0.12722737
-0.038990617 -0.035716709 0.1232295
-0.042621136 0.028213039 0.12208986
-0.042943358 -0.031384349 0.11938471
-0.043474793 0.027021766 0.11852831
-0.047426045 0.019609775 0.11851519
-0.043793857 -0.030380715 0.11528587
-0.049909532 0.014583736 0.11397153
-0.048489332 -0.022265904 0.11128086
-0.048461437 0.016924869 0.10939986
-0.052091062 0.0089211622 0.10900575
-0.053096414 -0.0016161582 0.10681415
-0.0499807 -0.016536385 0.1078552
-0.050522208 0.012932978 0.10488755
-0.052440584 0.0042010504 0.10438275
-0.053378522 -0.0054371939 0.10390073
-0.050503314 -0.014187158 0.10321742
-0.052622914 0.0042082402 0.0998438
-0.052768648 -0.0043073338 0.098948777
-0.024944425 0.042462058 0.14853612
-0.024380624 -0.043673597 0.14192319
-0.026221454 0.040102705 0.14355075
-0.029042721 0.038444251 0.14350659
-0.025232911 -0.043292694 0.13869452
-0.02759552 -0.045500744 0.1373454
-0.028180182 0.040405236 0.13819793
-0.030577004 0.038711257 0.13883197
-0.029320002 -0.042118397 0.13198927
-0.027706861 -0.045425482 0.13358015
-0.031391144 0.038234297 0.13359568
-0.030999899 -0.041436322 0.12935311
-0.034236848 0.035906889 0.13164306
-0.034661889 -0.038514003 0.12631565
-0.032585084 -0.040187974 0.12473863
-0.036482036 -0.038312994 0.12182873
-0.035066187 -0.040356338 0.12069762
-0.041064799 -0.033167295 0.11571878
-0.037567675 -0.039728608 0.1167112
-0.042622089 0.028943591 0.1168713
-0.041669071 -0.031864729 0.11232585
-0.041722238 0.028968558 0.11274612
-0.046051502 0.020544317 0.11101627
-0.041732252 -0.031060193 0.10888326
-0.043889821 0.024438679 0.10792804
-0.048202217 -0.018261258 0.10420132
-0.044959962 -0.026113771 0.10354894
-0.047242701 0.0178423 0.10193884
-0.050685048 0.010449271 0.10160512
-0.048702776 -0.0161401 0.10049826
-0.045159519 -0.024600286 0.099577069
-0.050902903 0.0092570828 0.097507656
-0.052939415 0.00037586625 0.096936584
-0.050585866 -0.0099871131 0.096570194
-0.04755497 -0.018015325 0.095800042
-0.051335335 0.0083418572 0.092482746
-0.053603232 -0.00025861961 0.093457997
-0.05184567 -0.0095795291 0.091864765
-0.052736342 0.0046916003 0.089023054
-0.054125965 -0.0048217927 0.088668108
-0.022020519 0.044869326 0.14569947
-0.022945225 0.043269373 0.14529392
-0.01922369 -0.047145378 0.1398102
-0.022660613 0.042591181 0.1412124
-0.022978485 -0.044233102 0.13901111
-0.02040863 -0.047785573 0.13513187
-0.024576426 0.042564299 0.13722974
-0.023561716 -0.048047919 0.13151139
-0.027807236 0.040811896 0.1321483
-0.027937591 -0.043319318 0.12805164
-0.025320411 -0.047056865 0.1269803
-0.030151963 0.037525207 0.12763
-0.029352844 -0.042847518 0.12283927
-0.026682854 -0.046687875 0.12236941
-0.031960309 0.037304044 0.12293702
-0.034289181 0.034858406 0.12288201
-0.032312334 -0.04262875 0.11858052
-0.029037356 -0.046032671 0.11877358
-0.033552706 0.037610456 0.11758053
-0.033347845 -0.042307179 0.1134789
-0.037679136 -0.037989415 0.11002558
-0.035422027 -0.040109701 0.10971433
-0.039978921 0.029201854 0.10914844
-0.038064122 -0.035960667 0.10588104
-0.043234468 0.024911519 0.10527861
-0.038197994 -0.034578197 0.10169739
-0.04553175 0.020584306 0.10042149
-0.044292152 -0.026408795 0.097685874
-0.043866396 0.023503125 0.095953584
-0.047664046 0.015851073 0.095148742
-0.046947062 -0.020084783 0.093233585
-0.043062031 -0.029329102 0.093746841
-0.048855424 0.015431969 0.090869129
-0.05097276 -0.011286394 0.088844836
-0.047365069 -0.019391526 0.088598311
-0.0477373 0.019116167 0.087755859
-0.050088108 0.0094212284 0.085383713
-0.052513182 0.00046769279 0.085132241
-0.051013112 -0.0099940309 0.084642172
-0.047375441 -0.0176966 0.085679114
-0.051565468 0.0050283442 0.081067622
-0.051650882 -0.0045516402 0.080239236
-0.052870095 -0.0043797088 0.076614201
-0.016401827 0.047466777 0.14166009
-0.016211867 -0.048642829 0.13799816
-0.018801272 0.04624971 0.13872612
-0.020775497 0.043690272 0.13996476
-0.019033074 -0.047607958 0.13515702
-0.019910097 0.052197047 0.13396138
-0.020354092 0.046853542 0.1342828
-0.02282387 0.043992773 0.13461939
-0.022584915 0.043179691 0.13084054
-0.022778153 -0.050396312 0.12501556
-0.025021374 0.041701593 0.12581807
-0.026646614 0.039672568 0.12541366
-0.026793838 -0.048444327 0.12016422
-0.023889959 -0.050271902 0.12190431
-0.028303921 0.047904305 0.12211591
-0.027200818 0.041559119 0.1210022
-0.028987706 0.039456345 0.12170213
-0.027001023 -0.046748687 0.11549473
-0.029917955 0.04174849 0.11708331
-0.031156123 0.04011704 0.11692649
-0.028368354 -0.04500426 0.1126411
-0.030836403 0.041939836 0.11381984
-0.032535434 0.038461864 0.11213678
-0.034393907 0.035582341 0.11120087
-0.032372713 -0.04223714 0.106848
-0.033092797 0.037336346 0.10932654
-0.037995458 0.03097092 0.10674745
-0.035823643 -0.037396643 0.10240734
-0.032938302 -0.041325942 0.10302138
-0.038299084 0.030817706 0.10249907
-0.033789217 -0.03960621 0.10009992
-0.042000473 0.026577253 0.098652005
-0.038095474 -0.035199568 0.093617618
-0.043359101 0.02566056 0.094378173
-0.039892793 -0.03341179 0.090085983
-0.0445683 0.025462277 0.089580953
-0.044709802 -0.024480514 0.086686194
-0.044845045 0.024636291 0.085055411
-0.0485484 0.015745979 0.084613264
-0.04573369 -0.019257072 0.082282126
-0.047091663 0.019459933 0.081202209
-0.050575078 0.010389718 0.080528557
-0.051716745 0.0011547314 0.077970028
-0.049911201 -0.0093283141 0.078026414
-0.0466398 -0.018250395 0.076982915
-0.050596893 0.010495859 0.075481415
-0.05274564 0.00050851452 0.074719191
-0.049620211 -0.0088726217 0.074158013
-0.048892975 -0.017880961 0.07313174
-0.052963376 0.0022810057 0.070914268
-0.016055226 0.050635122 0.13509721
-0.016363263 0.048858404 0.13717115
-0.017766297 0.051330373 0.13359046
-0.01915127 0.049107097 0.13229996
-0.01851064 0.046715796 0.12813944
-0.021275878 0.043696743 0.12765741
-0.020806074 0.044309288 0.12276751
-0.022942662 0.046790056 0.11718589
-0.023191452 0.04427693 0.11823082
-0.024087608 0.04690164 0.11505061
-0.026292861 0.044249307 0.11494577
-0.026437402 -0.046133932 0.10886538
-0.027364194 0.04286468 0.10931146
-0.029960632 0.040649489 0.10914016
-0.027222872 -0.045743838 0.10483319
-0.029693246 0.039245069 0.10588241
-0.0321064 0.035169043 0.10549676
-0.031365395 -0.042974003 0.10009903
-0.028920889 -0.045551132 0.10013068
-0.027807057 -0.04803326 0.099173069
-0.032868028 0.033813111 0.10101271
-0.032688856 -0.040136874 0.096577704
-0.030421197 -0.044363193 0.095567167
-0.037460148 0.031593822 0.096397817
-0.033889115 -0.03943824 0.092181623
-0.031794608 -0.042801671 0.092423439
-0.038442016 0.031355418 0.091113925
-0.035431862 -0.038197234 0.088737309
-0.040868819 -0.029962637 0.082958758
-0.04086566 0.029111233 0.082789958
-0.043517947 0.022734828 0.080528677
-0.043283761 -0.024096195 0.079082906
-0.042397261 0.024517111 0.077681541
-0.045269728 -0.020685453 0.075762272
-0.041165292 -0.027346693 0.076217771
-0.046955884 0.016660303 0.072814643
-0.046719491 -0.010204379 0.069960594
-0.047321558 -0.020048555 0.070828259
-0.047406375 0.015712855 0.067501426
-0.05152303 0.005616372 0.067843378
-0.048615575 -0.0089556808 0.066794038
-0.047758162 -0.018204663 0.065935194
-0.050656497 0.0058171987 0.06302458
-0.051537812 0.0060266848 0.058611095
-0.017566979 0.046675216 0.12122512
-0.019371033 0.046802916 0.11856478
-0.023221731 0.047106013 0.11243969
-0.023556828 0.045590796 0.11061841
-0.024155855 0.044999659 0.10703629
-0.024926186 -0.048256211 0.10100871
-0.024955511 0.044349771 0.10426164
-0.027244091 0.039563857 0.10172552
-0.029169321 0.036229182 0.10234129
-0.02691555 -0.048082009 0.098501384
-0.028208733 0.038543239 0.098212957
-0.030277789 0.036031425 0.098653495
-0.030183792 -0.046153918 0.093040705
-0.027176499 -0.048002198 0.094689548
-0.028384566 0.038409553 0.093798339
-0.031351924 0.035897892 0.093925893
-0.030851901 -0.04377402 0.089235187
-0.033313692 0.034955461 0.088817239
-0.03311336 -0.039871607 0.084836602
-0.030984759 -0.043519594 0.084697127
-0.036871076 0.031766918 0.084504247
-0.033954442 -0.037974939 0.080679357
-0.039305687 -0.02987954 0.076648831
-0.038099349 0.030083645 0.07587105
-0.040130973 -0.029136926 0.073006332
-0.041685462 0.025518388 0.071421981
-0.045544207 0.018438205 0.069702089
-0.041157186 -0.028752055 0.067956448
-0.041978538 0.025101494 0.0671103
-0.046109617 0.018050756 0.066720009
-0.044504404 -0.022821479 0.064803958
-0.046650052 0.017408725 0.062059999
-0.048401773 -0.0087383473 0.060707986
-0.046965182 -0.018752687 0.060250461
-0.047826886 0.01577976 0.058041096
-0.05136925 0.0077449433 0.056479692
-0.049181879 -0.0089035491 0.056954682
-0.048452675 -0.018325631 0.055890799
-0.050229788 0.012747749 0.05367893
-0.050802112 0.0030667924 0.051616311
-0.049884796 -0.013599941 0.052333772
-0.050920665 0.0064564939 0.048747182
-0.022412598 0.04509604 0.10021549
-0.021837831 0.043849632 0.096520483
-0.024721503 0.041168295 0.096710563
-0.026458919 0.039630868 0.092386663
-0.028203726 0.037231963 0.086490273
-0.030799568 -0.042657007 0.081548035
-0.031054139 0.035786197 0.082513094
-0.030613899 -0.040426172 0.078111947
-0.028764307 -0.043531504 0.077875435
-0.032413065 0.034374259 0.078392863
-0.035163164 -0.035703581 0.073067129
-0.031497777 -0.038884293 0.074516118
-0.029540777 -0.042600054 0.074432909
-0.033266187 0.034568004 0.074969709
-0.035431981 -0.034632675 0.069638014
-0.032697499 -0.037431028 0.071019709
-0.039126635 0.027739178 0.069043994
-0.039557457 0.026905864 0.064391494
-0.041713953 -0.024896778 0.061897814
-0.038040578 -0.031976536 0.060099602
-0.043625236 0.022690572 0.059768498
-0.040550828 -0.028077886 0.056636691
-0.046339393 0.017999932 0.055563867
-0.045224667 0.021632407 0.050221026
-0.049681365 0.012915476 0.050091803
-0.046625197 -0.0014297707 0.047646761
-0.048726857 -0.012777449 0.048574388
-0.045555055 -0.02271365 0.048552155
-0.049668849 0.013115912 0.045897424
-0.050486267 0.0032955215 0.046128452
-0.048234344 -0.0070855287 0.043896258
-0.048025608 -0.017579582 0.044602752
-0.049998403 0.012922288 0.041434467
-0.050687253 0.0035612632 0.04000026
-0.04973644 -0.0054743742 0.039804578
-0.020645857 0.045717295 0.093681455
-0.020909071 0.043794159 0.089369416
-0.02323705 0.041666932 0.08951205
-0.0243783 0.039067149 0.084640801
-0.025743246 0.039360058 0.079558194
-0.027950764 0.037565641 0.081195593
-0.027177155 -0.045496415 0.075172842
-0.027540326 0.039623991 0.074797869
-0.029830277 0.037001181 0.076480031
-0.029972672 -0.040330313 0.071458101
-0.028676033 -0.044442613 0.071346641
-0.031607926 0.036168121 0.071661055
-0.031338692 -0.039280791 0.067525208
-0.029864848 -0.043764766 0.067629158
-0.03270191 0.034976825 0.068339527
-0.033696532 -0.035549898 0.062615454
-0.032201886 -0.037849613 0.063717425
-0.038037539 0.027875353 0.061945856
-0.038728774 0.027525499 0.058329642
-0.037560403 -0.031865899 0.054502666
-0.040532589 -0.028339192 0.050867558
-0.042597473 0.026100233 0.048916042
-0.04252845 -0.003405564 0.045339406
-0.045015395 -0.023066934 0.045805752
-0.040571511 -0.029819004 0.044527709
-0.045143127 0.023027617 0.044606984
-0.047572613 -0.010798928 0.041556418
-0.044454634 -0.022977218 0.041821837
-0.045903206 0.021569859 0.040961683
-0.04990983 0.014230494 0.039836109
-0.049197972 -0.0067983163 0.038219333
-0.046553612 -0.017867617 0.038934529
-0.048031867 0.016867233 0.036213338
-0.050326049 0.0087222112 0.034636021
-0.05135113 -0.0011452703 0.035063624
-0.04966867 0.0088841422 0.030874968
-0.050783336 -0.0011412284 0.029511869
-0.019207001 0.045572471 0.088158369
-0.019453108 0.0454221 0.083206952
-0.021799505 0.041529253 0.083181202
-0.022738338 0.045142621 0.07896781
-0.024148405 0.042026967 0.079031885
-0.025131166 0.045444801 0.075247407
-0.026353538 0.042183615 0.07398361
-0.025712669 0.044913467 0.070496142
-0.027017891 0.041297048 0.069488525
-0.028205693 0.0383159 0.069046199
-0.028832316 -0.043260679 0.06351316
-0.029551625 0.036894724 0.06485486
-0.030469954 -0.038977165 0.060358644
-0.028440118 -0.04240359 0.06046468
-0.030286014 0.036059704 0.060183287
-0.033837497 -0.033734098 0.055529892
-0.031452358 -0.037175704 0.055851877
-0.028739095 -0.040649585 0.056263506
-0.031769276 0.035664588 0.057181358
-0.036715388 0.029123563 0.054647148
-0.031970561 -0.036230132 0.051780701
-0.0380283 0.028906152 0.050999999
-0.034373522 -0.035172489 0.047506154
-0.039707899 0.028727904 0.04660207
-0.03603512 -0.034945436 0.041512966
-0.043514371 0.024866659 0.04118818
-0.039150238 -0.031066913 0.038609505
-0.043765426 0.023412675 0.037439466
-0.044055879 -0.016159844 0.03403163
-0.041381121 -0.026224595 0.034796059
-0.04385829 0.022548959 0.032857358
-0.047937632 0.015432495 0.031802833
-0.045291722 -0.011069593 0.031436265
-0.046446502 0.01890292 0.028520226
-0.049433768 0.0090357484 0.027467549
-0.0505234 0.00081159861 0.026970744
-0.044920564 -0.010130257 0.027949691
-0.049411416 0.0088902423 0.023361802
-0.049935043 0.00012590863 0.023196459
-0.049470484 0.0060613859 0.01983279
-0.022248685 0.046636347 0.070955932
-0.024778545 0.043529529 0.06656009
-0.024448454 0.041442368 0.062845767
-0.027136326 0.038776595 0.06194967
-0.026530921 -0.043293908 0.057487786
-0.027457893 0.038376842 0.057571828
-0.026662827 -0.042644456 0.052728593
-0.030014277 0.037291586 0.0537135
-0.029909134 -0.038369507 0.049453199
-0.027595103 -0.0417483 0.048214257
-0.026334047 -0.0456433 0.048802197
-0.031531632 0.036828972 0.049026608
-0.034225821 0.034417048 0.049672782
-0.03190589 -0.037751753 0.045328736
-0.029970467 -0.041155543 0.043555319
-0.032511294 0.036379419 0.04515487
-0.032993138 -0.037035704 0.040620804
-0.030724883 -0.040206268 0.039983034
-0.03812331 -0.033070195 0.037002087
-0.0360443 -0.036273696 0.035877109
-0.041051328 -0.022861112 0.032540023
-0.038672447 -0.031469118 0.031948984
-0.040271223 0.028108791 0.030863464
-0.042494595 -0.016447335 0.028211474
-0.040322125 -0.026077192 0.027472436
-0.038739443 -0.036981441 0.027728736
-0.045002282 0.019902114 0.025147974
-0.042434633 -0.015678305 0.023625791
-0.041408896 -0.025103778 0.024166286
-0.046714902 0.014631771 0.020804167
-0.046339869 0.012791357 0.017352164
-0.047988951 0.003604542 0.018392801
-0.022277832 0.043154016 0.060342491
-0.023210108 0.041877985 0.056395531
-0.023167312 -0.044248797 0.05261761
-0.025186121 0.041942406 0.05208534
-0.027898073 0.039441966 0.051016092
-0.026770175 -0.043900803 0.046071231
-0.025647581 -0.045623764 0.045064688
-0.02729708 0.042190917 0.047467172
-0.029594243 0.039096143 0.047100246
-0.027694166 -0.043798275 0.043659806
-0.027974546 0.042176377 0.043055832
-0.031153262 0.038451821 0.042898834
-0.031688094 0.038719371 0.037901878
-0.033113718 0.034582481 0.037752688
-0.03137815 -0.03840391 0.035286963
-0.033101618 0.038690038 0.034543395
-0.033033907 -0.038180426 0.029203475
-0.038712621 0.029743195 0.028728902
-0.03851366 -0.035550188 0.025092423
-0.041250169 0.024678472 0.024230719
-0.041480005 -0.019983944 0.020154417
-0.039648712 -0.030950122 0.021267951
-0.03953141 0.027670551 0.020694554
-0.043621898 0.019384032 0.01885736
-0.042291045 -0.015739813 0.018906832
-0.039835572 -0.024991889 0.017382324
-0.037985623 -0.034272213 0.016398013
-0.043929696 0.014937245 0.013990641
-0.017962158 0.046271514 0.052772343
-0.019817889 0.044446994 0.054190218
-0.021797061 0.044708509 0.049439847
-0.024470925 0.044848148 0.046319783
-0.027374685 0.042960495 0.039736509
-0.029107094 0.042673424 0.036603272
-0.030035853 0.042231273 0.032633126
-0.031843841 0.037196916 0.031781316
-0.03195703 0.035511095 0.031796336
-0.03720504 0.0309714 0.022063136
-0.038395584 0.02785109 0.0175246
-0.039558411 -0.016532306 0.014275551
-0.038004518 -0.02639921 0.01461035
-0.040240526 0.022955358 0.014566481
-0.037138224 -0.022378121 0.0096617341
-0.039680064 0.019843686 0.0095388889
-0.033902824 -0.017365452 0.007016778
-0.034752905 -0.025449265 0.00695014
-0.032655776 0.026704896 0.0079877973
-0.02808553 0.028527617 0.0062230825
