# .PCD v0.7 - Point Cloud Data file format
VERSION 0.7
FIELDS x y z
SIZE 4 4 4
TYPE F F F
COUNT 1 1 1
WIDTH 1258
HEIGHT 1
VIEWPOINT 0 0 0 1 0 0 0
POINTS 1258
DATA ascii
0.016862983 -0.0010448489 0.34809378
0.0078457752 0.0082238065 0.34822559
0.00059295911 0.015572465 0.34654564
-0.001516575 0.016986154 0.34583509
0.013831848 0.0070810802 0.34473929
0.0070853783 0.01428358 0.34486127
6.7819841e-05 0.018335097 0.34283733
0.015182212 0.0081501137 0.34016728
0.0086122695 0.01574431 0.33991876
0.0011750096 0.01925559 0.34035164
0.012449086 0.012258492 0.33587289
0.032091763 0.024351887 0.29323024
0.027688956 0.028764302 0.29343435
0.018779907 0.037375458 0.29214489
0.027980771 0.03077716 0.29012993
0.020458922 0.038161188 0.28931215
0.031600326 0.028551741 0.28796017
0.026154147 0.035711613 0.2853733
0.019861501 0.041590795 0.28509262
0.027900903 0.037557956 0.281358
0.022032276 0.042643324 0.28099
0.029616788 0.038947195 0.27686328
0.023867114 0.043416284 0.27762851
0.0096875662 -0.0021114172 0.34864968
-0.00022583315 0.007431427 0.34933376
0.01584642 -0.0022526281 0.34595138
0.01304011 -0.00066731358 0.34678692
0.0049468465 0.0054095611 0.34894085
-0.00096063456 0.012664393 0.34804052
-0.0039817579 0.016610555 0.34573084
0.017186265 -0.0010811975 0.34358919
-0.0035766028 0.017761799 0.34153137
-0.0072811758 0.017233647 0.34176069
0.01795963 -0.0011118483 0.33859283
0.015685242 0.0061110849 0.33718589
-0.001614959 0.018164255 0.33695161
0.017300744 0.0020896723 0.33404982
0.012585056 0.011370453 0.33324829
0.0043071737 0.01686007 0.33306655
0.014032501 0.006979811 0.32988775
0.0093686078 0.014470408 0.32870674
0.0012557684 0.020608753 0.32757828
0.0039229468 0.021001266 0.32468382
0.014458839 0.024944335 0.30431208
0.0297719 0.014415612 0.30050904
0.023609128 0.019554216 0.3013348
0.016120361 0.026374029 0.30136913
0.0093971081 0.033247072 0.29995316
0.0291162 0.018070398 0.2980085
0.022286929 0.025097843 0.29771411
0.015385025 0.032433189 0.29732534
0.0079737147 0.037259124 0.29599592
0.033767637 0.015862383 0.29366741
0.028579596 0.024282496 0.29569593
0.022014551 0.031188175 0.29423648
0.013791475 0.037627425 0.29271543
0.037583996 0.015269586 0.28933585
0.033528298 0.022501804 0.29001746
0.025570603 0.029876018 0.29084027
0.020445682 0.036172371 0.28948796
0.010960624 0.041618161 0.28725928
0.04015556 0.01619469 0.28439096
0.034888733 0.023314714 0.28534749
0.029444449 0.031521052 0.28439391
0.022580773 0.036706775 0.28621468
0.013038736 0.043361586 0.28298685
0.04141948 0.017639719 0.28062844
0.036635131 0.023881925 0.28041807
0.031254791 0.031767391 0.2808238
0.014738702 0.044738255 0.27845263
0.040820561 0.021790771 0.27596635
0.035031635 0.029080551 0.2758067
0.025248762 0.042591985 0.27468747
0.016605726 0.0453128 0.27452973
0.039878562 0.026445404 0.27121669
0.034090519 0.034956388 0.27169555
0.0266946 0.041779701 0.2709555
0.019009616 0.046328615 0.26934031
0.041019108 0.027341565 0.26791146
0.035244867 0.035819776 0.26758394
0.027092351 0.041657586 0.2663998
0.039126921 0.032364082 0.26475334
0.032006469 0.039019402 0.26336652
0.0021066063 0.0026056643 0.34892893
-0.0066068056 0.017728515 0.33900928
-0.0041517066 0.017821193 0.33440548
-0.0059955157 0.019089108 0.33489591
0.015035959 0.0039135162 0.33021188
-0.0020323973 0.018680487 0.33143428
-0.0040319525 0.020278297 0.33156824
0.014461271 0.0049445708 0.32733694
0.011946434 0.0094511826 0.32200965
0.0051039699 0.016670946 0.32192573
0.010353789 0.01066046 0.31785229
0.005972032 0.015518984 0.31764826
0.011751777 0.014672273 0.31152979
0.020194152 0.010292687 0.3079111
0.014014881 0.017701801 0.30842745
0.0056562573 0.023680056 0.30712327
0.025148494 0.0082978103 0.30453661
0.019693963 0.015950639 0.30521268
0.012681806 0.023302162 0.30557385
0.0050733034 0.029962024 0.3039344
0.030499425 0.0070996955 0.30021906
0.024834707 0.013769443 0.30327424
0.018390814 0.020610867 0.30290422
0.006676048 0.032331873 0.3012284
0.00020568445 0.035950072 0.29591277
0.033796359 0.0089470362 0.29719257
0.0049666204 0.037364155 0.29490378
0.037515379 0.0066875583 0.29181314
0.0072152428 0.039427578 0.29111162
0.00027882494 0.042578116 0.28748557
0.038535908 0.01205127 0.28870398
0.0018571746 0.044902392 0.2847735
0.042456876 0.0094113946 0.28375134
0.0070060156 0.045564845 0.28132778
0.043961093 0.010551469 0.27903104
0.0090746414 0.047293819 0.27703041
0.044687316 0.011699433 0.27460396
0.042207509 0.020756595 0.27352789
0.010866953 0.047764704 0.27221411
0.044228286 0.017343795 0.26995358
0.016339257 0.046754234 0.2683934
0.010069925 0.049694896 0.26517975
0.043682784 0.023512781 0.26669273
0.025633112 0.04239089 0.26420778
0.01795385 0.047082193 0.26426145
0.044954091 0.019887229 0.26235905
0.041210286 0.027044848 0.26133302
0.035523079 0.035618015 0.26026949
0.027295962 0.041956455 0.26015827
0.018880863 0.047100533 0.26027432
0.040144421 0.027716218 0.25699705
0.035926729 0.03576152 0.25637281
0.02832634 0.042483144 0.25550485
0.039627049 0.03246421 0.2516849
0.031719252 0.038847387 0.25235957
0.025524093 0.0446252 0.25175598
0.014934325 0.00011412334 0.32043689
0.0024799625 0.016225735 0.31821212
-0.00027361233 0.017633393 0.31843141
0.014634702 0.0045121047 0.3160902
0.0083520459 0.01303512 0.31558895
-0.00016272347 0.01827744 0.31448877
-0.0037524891 0.019099506 0.3136639
0.016995896 0.0065661315 0.31192714
0.009608849 0.014665713 0.31235734
0.0024633622 0.020830695 0.31075338
-0.0014211573 0.022903828 0.3094804
-0.0042774519 0.024337918 0.30775148
0.021879997 0.0049416665 0.30763862
0.0005010711 0.026443914 0.30658782
-0.0032529049 0.027166689 0.30491713
0.02945764 -0.00041643903 0.30084413
0.024131063 0.00601919 0.30556417
-0.0022728257 0.030497137 0.3016524
-0.0051934747 0.032395218 0.29877076
0.030470449 0.0036973236 0.30000958
-0.00076299906 0.033228632 0.29956213
-0.0032305196 0.035011098 0.29617184
-0.0060380278 0.036727339 0.29436553
0.035719201 -0.00092158653 0.29334858
-0.0013496447 0.037404925 0.29416171
-0.0050232224 0.039591644 0.29168829
0.037075952 0.0033276174 0.29145366
-0.0030520428 0.042056337 0.28810778
-0.0068407319 0.042882945 0.2848663
0.039716378 0.0047585797 0.28689656
-0.0017559696 0.044494562 0.28325611
-0.0057721492 0.044729576 0.28178293
0.04534401 -0.00064938329 0.27925068
-0.00044055656 0.045669265 0.27879894
-0.0038834345 0.045971781 0.27774578
0.045757856 0.0049635991 0.27794498
-0.001645878 0.047167759 0.27274141
0.047436982 0.0062904693 0.27332494
0.003454823 0.048736207 0.26955384
-0.00059943274 0.047996767 0.26932594
0.048660345 0.007419493 0.26859877
0.0059845969 0.049897909 0.26521951
0.048881408 0.0090670511 0.26414904
0.045718782 0.015830452 0.2647239
0.003014544 0.050954662 0.26023519
0.047322467 0.013095798 0.26046535
0.043567408 0.02163225 0.25852856
0.013035651 0.048308242 0.25637504
0.044059977 0.018363131 0.25483245
0.041248444 0.026364628 0.25512829
0.022035329 0.046370268 0.25254181
0.01387207 0.048409589 0.25192437
0.043667525 0.023363663 0.25031823
0.040674761 0.031261139 0.24893469
0.031946592 0.038466461 0.24925241
0.023896871 0.04475183 0.24846703
0.015600042 0.048165277 0.24876398
0.039519578 0.031362146 0.24470901
0.032239001 0.038518477 0.24413133
0.024988364 0.044677678 0.24320346
0.035454255 0.035330448 0.24102029
0.030464586 0.043006811 0.24024218
0.015491651 -0.0071091489 0.31643179
0.015665386 -0.0033047264 0.31804121
-0.0052904091 0.015751762 0.31620747
-0.0070221182 0.016060678 0.31489745
0.016711894 -0.0061367438 0.31312194
0.015798438 -0.0029964182 0.31387603
-0.0036115395 0.017275125 0.31480891
-0.0058932784 0.019037025 0.31267661
-0.0077759172 0.021926889 0.31197155
0.019391842 -0.0041379705 0.30847222
0.018048566 -0.0012018811 0.31062561
-0.0047874423 0.020985823 0.31063312
-0.0073843729 0.023158168 0.30803677
0.023863515 -0.0066144112 0.30400991
0.022179227 -0.0030274475 0.30585125
-0.0081178891 0.025740329 0.30309489
-0.010975783 0.027303893 0.30098265
0.02917036 -0.0080010938 0.29983032
0.027271423 -0.0047531212 0.30120757
0.024925396 -0.0016827574 0.30365059
-0.0089291623 0.030298624 0.2994892
-0.01151605 0.032394756 0.29720512
0.031649176 -0.0067468779 0.29637161
0.03108386 -0.0032585962 0.29739103
-0.0098604215 0.035665333 0.29394743
-0.013298349 0.03597521 0.29253855
0.036735076 -0.0086325705 0.29060069
0.03475995 -0.0056326846 0.29261863
-0.0091314381 0.039075676 0.29176158
-0.011488047 0.040022392 0.28812742
0.038689353 -0.0068410859 0.28780976
0.037933603 -0.0039689746 0.28894064
-0.010002706 0.042550102 0.28460649
-0.013146753 0.043004759 0.28168416
0.041251816 -0.0050389078 0.28403986
0.040917091 -0.0025418829 0.28590873
-0.0092598684 0.044485614 0.28036463
-0.012483224 0.0435366 0.27964824
0.043752663 -0.0034243688 0.28055272
-0.006429337 0.046228606 0.27574226
-0.01041108 0.046098419 0.27504379
0.046176687 -0.0031639747 0.27516505
-0.0053199138 0.046749257 0.27115107
-0.0080126282 0.047229171 0.26941347
0.047820382 -0.00096354075 0.2711015
-0.0028077606 0.048272915 0.26655492
-0.007122457 0.047943112 0.26669672
0.049132667 0.0041906778 0.26591375
-0.00086614117 0.049745105 0.26258197
-0.0043331161 0.050246626 0.2602987
0.049039632 0.0048602 0.26278919
-0.0031750128 0.051207077 0.25777096
0.048595347 0.0063930582 0.25758377
0.045460798 0.01431911 0.25623435
0.0028951019 0.051953878 0.25416198
0.046962846 0.01131773 0.25248182
0.01277462 0.048566408 0.24936932
0.0045483857 0.052458514 0.24932969
0.045902338 0.016809221 0.24834418
0.025533935 0.040256541 0.24519712
0.014078233 0.048797112 0.24559686
0.0067304 0.05230958 0.24517778
0.044474594 0.0216984 0.24336368
0.026327642 0.04106719 0.24247873
0.014840305 0.04844445 0.24070507
0.044717014 0.02161698 0.2392208
0.038690444 0.030075936 0.23798236
0.032450076 0.036888655 0.23739931
0.024900634 0.044595469 0.23760623
0.016265439 0.049300142 0.23770198
0.035190582 0.03356079 0.23348606
0.017152438 -0.01223584 0.3108108
0.017136771 -0.0084841913 0.31142735
-0.011457291 0.021666102 0.3084833
0.019936729 -0.010219437 0.30710667
0.019194603 -0.0076917158 0.30835214
-0.012090679 0.022147592 0.30550146
-0.015379807 0.023881668 0.30449939
-0.017690772 0.026736414 0.3036679
0.025025805 -0.012110999 0.30279386
0.022981811 -0.0096119046 0.30446044
-0.013325496 0.026075253 0.30197093
-0.016507315 0.028088005 0.29950744
0.028927378 -0.011755825 0.29897869
0.026057582 -0.0080392165 0.30224341
-0.014906965 0.032002654 0.29646334
-0.017106215 0.032727942 0.29473752
0.031634405 -0.013712469 0.29370689
0.031837482 -0.010598504 0.29591852
-0.01692795 0.035615865 0.29109353
0.035051536 -0.012254812 0.29062769
-0.015901774 0.038249888 0.28777525
-0.017211422 0.040794101 0.28546333
0.038145058 -0.010780794 0.28640002
-0.01626087 0.042451933 0.28217041
-0.016643237 0.045776065 0.28119975
0.041201789 -0.01261038 0.2804341
0.040506355 -0.0090063065 0.28265733
-0.014996135 0.043933403 0.27736816
-0.016684657 0.046848312 0.2768015
0.042809896 -0.0108738 0.27698344
0.043312602 -0.0072073378 0.27801147
-0.013018895 0.046295434 0.27249968
-0.01576514 0.048042126 0.27259535
0.044859197 -0.0081894174 0.27335644
0.044744447 -0.0059181824 0.27569067
-0.011165945 0.046935469 0.26912963
-0.01423943 0.047543786 0.26787204
0.046457462 -0.0082890261 0.26779646
0.046071157 -0.0051743817 0.26901644
-0.0094644055 0.048129838 0.26382935
-0.01245201 0.049004622 0.26324657
0.048324935 -0.0073163863 0.26387316
0.047283664 -0.0038772989 0.26370296
-0.0077321474 0.049728028 0.25980708
-0.010730103 0.050429229 0.25941551
0.048228756 -0.0024552569 0.26031137
-0.0063095279 0.050635032 0.25545117
0.049312547 0.0040395427 0.25484395
-0.00089588948 0.051067241 0.25115487
-0.0033819694 0.050804503 0.25085863
0.049212515 0.0052299146 0.25092745
-0.0023781043 0.051569127 0.24650255
0.048582755 0.01077594 0.2466006
0.051517196 0.0089853648 0.24203387
0.048136342 0.015779186 0.24112371
0.0099615287 0.050539009 0.23877358
0.051574431 0.0094573218 0.23777449
0.047181681 0.016596446 0.23732895
0.028729398 0.038629781 0.23419368
0.014016321 0.048076436 0.23428217
0.042711914 0.020573681 0.23301712
0.039049216 0.029632695 0.23147205
0.031131363 0.035867289 0.23061579
0.022194855 0.042378753 0.23012125
0.015982408 0.047154833 0.22913057
0.039019041 0.029631602 0.22690076
0.031500932 0.035952229 0.2261124
0.023936966 0.042996615 0.22493488
0.038195435 0.030667286 0.2234897
0.032505631 0.037065245 0.22134089
0.017044084 -0.013591836 0.3087886
0.01526087 -0.012105588 0.31018662
0.021010162 -0.016211743 0.30541483
0.019033484 -0.014094717 0.30643898
0.026122808 -0.019001257 0.29913506
0.024790235 -0.016227514 0.30134463
-0.020053403 0.026893584 0.2988247
-0.02220737 0.027847545 0.29628807
0.0304903 -0.021208132 0.29599965
0.028832596 -0.018518757 0.29699084
0.027618503 -0.015344666 0.29828072
-0.021209426 0.031664122 0.29366741
-0.02290524 0.032603987 0.29291376
0.033182513 -0.020495217 0.29195264
0.031061001 -0.017118234 0.29354423
-0.020651905 0.034518976 0.28939641
-0.02237865 0.035524335 0.28928885
0.036885481 -0.021892669 0.28666416
0.035520744 -0.018849809 0.28789103
0.034096289 -0.015807927 0.28991067
-0.02094667 0.037157699 0.28679425
0.03998876 -0.020336106 0.28363353
0.038185138 -0.016326521 0.28472227
0.041855291 -0.018723078 0.27988464
0.040900305 -0.015056194 0.28153658
0.043330483 -0.01678345 0.27456781
0.04336042 -0.013355657 0.27566758
-0.018580366 0.047688495 0.26952019
-0.020131806 0.048282109 0.26909947
0.044653188 -0.016094401 0.27073011
0.044289593 -0.012212723 0.27183518
-0.01717381 0.047390148 0.26707596
0.048374109 -0.01415542 0.26680937
0.046508338 -0.01045407 0.2679649
-0.015576947 0.048819009 0.26137164
0.05027391 -0.012221964 0.26255402
0.049091898 -0.0081098173 0.26177201
-0.01367777 0.050294869 0.25709435
0.050097656 -0.011228904 0.25819552
0.048999902 -0.0074457228 0.25860336
0.048214719 -0.0040192828 0.25776428
-0.0089560337 0.049830806 0.25240591
-0.012452574 0.050704129 0.25293803
-0.015366338 0.052090488 0.2530475
0.048583455 -0.0074847993 0.25403851
0.048513487 -0.0037147589 0.2532804
-0.0071977805 0.050311394 0.249093
-0.010687551 0.051967941 0.24843436
0.048965376 -0.0015810244 0.24880815
-0.0055172276 0.051235683 0.24396804
-0.008519182 0.052947946 0.24353641
0.050082829 -0.0001597181 0.24384913
0.00034687854 0.051827967 0.24015003
-0.0037181303 0.051822603 0.23904958
0.051394086 0.0046151951 0.23975584
-0.001102889 0.052096277 0.23472464
0.046305887 0.011111101 0.23349515
0.011029854 0.047203012 0.23121774
0.0033647604 0.050253533 0.23115382
0.043257862 0.018723715 0.22983134
0.023321737 0.036145613 0.22743508
0.017737783 0.045212746 0.22833347
0.0090337954 0.047882572 0.22686645
0.043641008 0.019411435 0.2251063
0.03263969 0.034615219 0.22418845
0.023560099 0.040382147 0.2257024
0.015536919 0.0473933 0.223185
0.043451168 0.021556469 0.22109258
0.039545059 0.029362174 0.22153842
0.033266902 0.036360785 0.22026885
0.025022198 0.043505121 0.21981826
0.016703364 0.047285754 0.21856999
0.040151924 0.030021563 0.21636847
0.033692811 0.037160087 0.21530122
0.025916893 0.044072498 0.21439826
0.039625019 0.030237937 0.21186391
0.033818569 0.03699505 0.21057597
0.026218804 0.044142917 0.2102201
0.026120702 -0.021239506 0.29849482
0.030990541 -0.022976995 0.29485023
0.034628667 -0.024042726 0.28930062
0.036603604 -0.02440184 0.28662914
0.039583609 -0.023733104 0.28340629
0.041659907 -0.023060841 0.27701873
0.042735707 -0.021680746 0.27340883
0.045642339 -0.022986807 0.27058035
0.044927493 -0.020079732 0.26955667
-0.020812083 0.045572851 0.26379526
-0.022758421 0.045886669 0.26563469
0.048681468 -0.020282246 0.26511732
0.047460735 -0.019321814 0.26578152
-0.019400297 0.046758994 0.26139477
0.050047729 -0.019158643 0.26183379
0.050099574 -0.016992042 0.26089093
0.049980126 -0.014532434 0.25626966
0.048833035 -0.012544682 0.25342402
0.047844984 -0.009874722 0.2505354
0.047807243 -0.0083252564 0.24637544
0.047921941 -0.0054879896 0.246142
0.049012378 -0.0070425477 0.24093166
0.049121954 -0.0046428647 0.24183518
-0.0089004133 0.052440464 0.23723549
0.049981069 -0.0035220087 0.23661196
-0.0043929685 0.05283799 0.23291549
-0.0078291725 0.05399818 0.23205006
0.050650377 -0.00054932386 0.2336894
0.046230033 0.0076975338 0.23219803
-0.0014925078 0.051573668 0.22922102
0.046170741 0.0083505884 0.22810644
0.0234174 0.034033641 0.22495899
0.0029547848 0.049242318 0.22442669
-0.00076409057 0.050318923 0.22455201
0.04758355 0.0093682203 0.2230694
0.011937145 0.047600418 0.22059441
0.0044073816 0.049457133 0.21990818
0.046133474 0.013981415 0.21896526
0.013571622 0.047606044 0.21700999
0.04674039 0.015230814 0.2136271
0.043138873 0.024007212 0.21336645
0.016815761 0.047702469 0.21245784
0.047241457 0.016516184 0.20999029
0.042782865 0.024768166 0.20942384
0.037336893 0.03231322 0.20870334
0.030292401 0.040353216 0.20800993
0.021553705 0.046365187 0.20778593
0.042386997 0.024591763 0.20521668
0.03729089 0.032707687 0.20474911
0.030482508 0.04006929 0.20465627
0.022615777 0.046313539 0.20347726
0.040101781 0.029932117 0.20056212
0.034883276 0.03716179 0.19977343
0.02713554 0.043444585 0.19985098
0.049168166 -0.019380543 0.24837521
0.047675651 -0.016707662 0.24872237
0.047310539 -0.012576815 0.24767029
0.048557937 -0.015722424 0.24416396
0.04792038 -0.011360351 0.24459031
0.049705714 -0.013556702 0.24019748
0.04934074 -0.010002475 0.24087572
0.049579814 -0.0085269287 0.23585016
0.049288429 -0.0052510407 0.23395592
0.048175886 -0.00249427 0.22928822
0.047912583 -0.00052283704 0.22990116
-0.0049399901 0.050622955 0.2254048
-0.0085114259 0.052214086 0.22629857
-0.01159046 0.052691311 0.22322249
0.048592664 -0.002368195 0.22604623
0.00067716837 0.049498234 0.22142401
-0.0029919334 0.050507277 0.22211167
0.050417904 -0.0017253123 0.2218793
0.0025490932 0.049707856 0.21742216
-0.0018035099 0.05117593 0.21745908
-0.0082381126 0.053513356 0.21805713
0.047761016 0.0086087063 0.21728843
0.0038210973 0.050048139 0.21347779
0.04729487 0.0098172259 0.21307847
0.0098133329 0.048874386 0.20983693
0.04820437 0.010954292 0.20911381
0.046841115 0.018001221 0.20687973
0.010857577 0.049099602 0.20476365
0.046320222 0.015055954 0.20368484
0.042898197 0.02396803 0.20282832
0.016947111 0.047571704 0.2008425
0.043614835 0.020575484 0.19931278
0.041463956 0.028814482 0.19889408
0.031054907 0.039768822 0.19699273
0.022356916 0.046327781 0.19734085
0.042894132 0.025231017 0.19495285
0.038517963 0.033150729 0.19314429
0.03087428 0.039543498 0.19272059
0.022695955 0.045677613 0.19188118
0.034327202 0.036165424 0.18878341
0.048228927 -0.020355783 0.24878815
0.049143005 -0.016772036 0.24183232
0.049787574 -0.016725481 0.23924893
0.049383029 -0.013781333 0.23609343
0.048417915 -0.01219666 0.23277915
0.047432378 -0.0098588858 0.22972217
0.047592301 -0.0070275627 0.22865674
-0.014833484 0.051820207 0.22233322
0.048190899 -0.0062615294 0.22441256
-0.0096495003 0.050291874 0.21970803
-0.012498975 0.051782027 0.21899241
0.050149791 -0.0039724391 0.21985686
-0.0044830721 0.050670788 0.21342576
-0.0076322369 0.05120213 0.21526626
-0.011619419 0.053150333 0.21581355
0.049343526 -0.003715178 0.21536809
0.04669857 0.0054937266 0.21419108
-0.002734419 0.050648134 0.21114096
0.046962142 0.0063338969 0.21076673
-0.0009888839 0.050536804 0.20617348
0.047798682 0.0076028444 0.20547155
0.00075662136 0.050948374 0.2018387
0.047040738 0.013154654 0.20126477
0.011049243 0.048591159 0.19807369
0.04715341 0.013415489 0.19652823
0.015353085 0.047096491 0.19434047
0.0085762907 0.049565285 0.19342548
0.045226298 0.018723277 0.1923593
0.041714255 0.026555549 0.19016838
0.016953379 0.046850882 0.19010463
0.044755328 0.020163801 0.18838209
0.040983077 0.027718563 0.18670979
0.034344405 0.036015794 0.18604046
0.026948746 0.042546179 0.18604091
0.017814292 0.047221161 0.18464559
0.038395204 0.032299981 0.18197417
0.031507507 0.039327182 0.18154159
0.02367191 0.045692615 0.18018696
0.03487841 0.036572047 0.17798266
0.046200756 -0.012890164 0.2259697
0.047075398 -0.011898378 0.22216135
-0.016738867 0.049958169 0.21465433
0.049394421 -0.0086975954 0.22053257
-0.010449715 0.050365478 0.21147397
-0.01311226 0.051048718 0.21140826
0.048147038 -0.004527159 0.21244735
-0.0056355577 0.049477048 0.20803463
-0.0091339648 0.049387913 0.20727801
0.047315221 -0.0038166381 0.20775265
0.047583017 -0.00014926866 0.20842481
-0.0048918985 0.050025776 0.204162
-0.0069673136 0.050183427 0.20326033
0.047958102 -0.0029043034 0.20440084
-0.0028948151 0.050669868 0.200014
-0.0059690122 0.051444702 0.1984323
0.047301829 0.0061514154 0.19818285
-0.00029713847 0.050306648 0.19551688
0.047561809 0.011151703 0.19378263
0.0014523193 0.049160566 0.1907323
0.047673002 0.012414241 0.19016817
0.011547308 0.04823808 0.18753272
0.047342509 0.012689102 0.18553516
0.042988852 0.021646881 0.18393058
0.01222224 0.048159018 0.18257734
0.044953234 0.018082684 0.18043157
0.041000437 0.026566524 0.18021595
0.014004678 0.048773304 0.17774513
0.042876363 0.023060694 0.17540658
0.038044807 0.030909795 0.17576391
0.030953143 0.038729083 0.17505521
0.023178756 0.044657774 0.17421713
0.04116638 0.026866473 0.17193913
0.034757748 0.034695454 0.17044371
0.027783288 0.040609241 0.17004666
0.044238705 -0.02016392 0.22805995
0.044757176 -0.017409604 0.22753498
0.049758151 -0.022720529 0.22250301
0.044898346 -0.020070903 0.2222144
0.045248263 -0.017218925 0.22430536
0.045720577 -0.019401724 0.22017184
0.046288367 -0.016486246 0.22062615
0.047324557 -0.0090333857 0.20943573
-0.013277387 0.048729293 0.20601094
0.046741847 -0.0074139498 0.20563397
-0.01104475 0.049558878 0.20112345
0.048105709 -0.0043394919 0.20175433
-0.009252131 0.051258378 0.19762269
-0.011032447 0.052473672 0.1951158
0.04812232 -0.004083164 0.19803369
0.047552228 -0.00069142319 0.19702971
-0.0037315749 0.048633311 0.1916374
-0.0066989698 0.050720762 0.19338003
0.047858387 0.0047265477 0.19218102
-0.0010117721 0.048621781 0.18829754
0.048242882 0.0056228135 0.18786037
0.001166245 0.049185582 0.18383265
0.048225373 0.010930175 0.18319112
0.04783605 0.0079646874 0.17900741
0.046305943 0.016038012 0.17859501
0.0074469373 0.048701011 0.17571765
0.045522675 0.01807793 0.17374325
0.017512362 0.046541993 0.17125702
0.0086340159 0.048826382 0.17234343
0.043884873 0.022929341 0.16976482
0.038597766 0.030031888 0.16881502
0.026683236 0.041362852 0.16816807
0.018330365 0.045735791 0.16734931
0.04349231 0.022753432 0.16534811
0.038702987 0.030412957 0.16490304
0.031181552 0.038042538 0.16441703
0.02386616 0.043718077 0.16316617
0.038404983 0.030374039 0.16057843
0.03087718 0.038038984 0.16010633
0.024725942 0.043303028 0.15973404
0.044144411 -0.027365584 0.22540674
0.0431493 -0.024877548 0.22675872
0.046117526 -0.025540087 0.22250921
0.044524264 -0.023451176 0.22267431
0.046808176 -0.02166809 0.2198129
0.04645136 -0.014554627 0.20321414
0.046359893 -0.010814842 0.20367423
-0.015328713 0.048727393 0.1970115
0.047437228 -0.013024999 0.1983496
0.04728657 -0.0096727833 0.19960964
-0.013594011 0.050226621 0.19571581
0.054358073 -0.012819996 0.19446865
0.048579995 -0.012080994 0.19564477
0.047939733 -0.0077434424 0.19504791
-0.0093974993 0.049690727 0.18996719
-0.012460075 0.048966158 0.18761152
0.048605807 -0.0057495441 0.19096312
0.048190437 -0.0018262099 0.18964839
-0.0046186652 0.04766956 0.18630093
-0.0082092583 0.048290573 0.18625525
0.049107112 -0.0047180522 0.18617147
0.048546921 -0.00022893399 0.18567869
-0.0031066984 0.048177864 0.18118238
-0.0067096148 0.047749348 0.18259761
0.048185948 0.0039971583 0.18023804
-0.00062877499 0.04863555 0.17703322
0.048157535 0.0052526351 0.17683369
0.00075062178 0.048936971 0.17211527
0.046533279 0.010166455 0.17235988
0.010370668 0.048180658 0.16835177
0.0025499705 0.049435973 0.16955107
0.04661056 0.010719351 0.16763455
0.017054416 0.045811065 0.16427597
0.0078144316 0.049327254 0.16386586
0.043797709 0.021876521 0.16262108
0.017963186 0.045456022 0.16088986
0.0089574605 0.049703363 0.15998709
0.043803807 0.021992903 0.15822342
0.038704704 0.029516961 0.15784523
0.031195866 0.037232149 0.15740687
0.023709331 0.043567155 0.15693867
0.015524797 0.04683492 0.15591037
0.041681521 0.026075356 0.15337402
0.035198983 0.033792708 0.15348071
0.028337654 0.041087728 0.15319479
0.021248151 0.044913296 0.15119973
0.038973317 0.029685244 0.14985684
0.032255799 0.037926286 0.1484209
0.025049414 0.043576274 0.14839056
0.047016345 -0.020050203 0.2008107
0.046586793 -0.018171642 0.20134786
0.049493358 -0.019331807 0.19784907
0.048200026 -0.015688621 0.19764972
0.051015288 -0.016351612 0.19508514
0.049468733 -0.013928069 0.19328207
0.048156895 -0.010590987 0.1924144
0.049738184 -0.012689674 0.18867385
0.049077563 -0.0099043455 0.18949389
-0.0097929277 0.048115201 0.18308258
-0.01311082 0.049322128 0.18380278
0.049839173 -0.012627382 0.18447813
0.049461681 -0.0078028105 0.18376207
-0.0078526922 0.048896559 0.17952877
-0.011347873 0.050141938 0.17914569
0.048988465 -0.0057511926 0.17896539
0.048639216 -0.0024747625 0.17772382
-0.0032431055 0.048506968 0.17362583
-0.0065881182 0.049429633 0.17443058
-0.010372126 0.051541418 0.1759845
0.048900247 -0.0048004836 0.17409945
0.048687644 -0.00082678162 0.17476499
-0.0019457601 0.049590915 0.17105097
-0.0054793209 0.050541636 0.16969562
0.048274077 0.0039016102 0.16982114
-0.0046146568 0.051226623 0.16672474
0.048319604 0.0051048137 0.16604492
0.0050612427 0.049382959 0.16248474
0.048172705 0.0058627576 0.16109192
0.046366397 0.013758779 0.16050804
0.0073171221 0.049462099 0.15743953
0.047430113 0.010340827 0.15592575
0.017467018 0.045712877 0.15331125
0.0084920451 0.049810953 0.15303987
0.045989413 0.016424589 0.15160841
0.018177591 0.045157149 0.14968815
0.010966917 0.048667669 0.14873993
0.043653406 0.021776877 0.14744064
0.03906364 0.029587671 0.14704472
0.033508983 0.036017891 0.14612082
0.019818746 0.044585854 0.14541206
0.040645599 0.025759965 0.14265177
0.035752565 0.032538138 0.14192882
0.029217297 0.04135979 0.14254349
0.022239886 0.045350172 0.14065099
0.03605669 0.032610975 0.13834232
0.028592909 0.040488221 0.13725451
0.02260807 0.045531496 0.13714769
0.046784915 -0.022613361 0.20060697
0.049345378 -0.02050766 0.19445345
0.051644634 -0.016616557 0.18615574
0.049960975 -0.016000982 0.18743014
0.050309714 -0.013846789 0.18251777
0.048819181 -0.010964148 0.18160975
-0.013902171 0.049483381 0.1770781
0.056184858 -0.013882829 0.17663011
0.05097454 -0.012959352 0.17788011
0.04899352 -0.00983404 0.17737502
-0.013505496 0.049691685 0.17136449
0.05177854 -0.011604922 0.17418024
0.049030352 -0.0082023628 0.17271474
0.048232585 -0.0034797136 0.1715543
-0.0098534245 0.048744425 0.17045569
-0.011710018 0.051185936 0.16779527
0.048894711 -0.0059994198 0.16754922
0.048405141 -0.0031021684 0.16762462
-0.0059466027 0.049922623 0.16270551
-0.0093712788 0.052543394 0.16330776
0.048959997 -0.0011997782 0.16360894
-0.0011896491 0.049908202 0.15952468
-0.0055643823 0.050142936 0.15856355
-0.0085196309 0.052502818 0.15785855
0.048797831 0.0033333525 0.15944979
-0.0040468648 0.050677545 0.15434662
-0.0080502909 0.054070689 0.1541042
0.048035771 0.0089305844 0.1532822
0.0018512569 0.050277565 0.15095854
0.047991827 0.0097352769 0.14899299
0.008905204 0.049305491 0.14641982
0.047629796 0.010481855 0.1455994
0.0440109 0.018520022 0.14436102
0.014376214 0.04691609 0.14229119
0.0063089691 0.050479524 0.14144051
0.044125825 0.019893974 0.14051446
0.039530698 0.027374299 0.139651
0.015622227 0.047590964 0.13813052
0.044413522 0.020679759 0.13604522
0.039012264 0.028527047 0.13587439
0.032341555 0.036421955 0.13527614
0.026041549 0.04297189 0.13527033
0.016535042 0.047533393 0.13352209
0.04193962 0.025244731 0.13156626
0.036489535 0.032571618 0.13093817
0.0299685 0.041093782 0.13026899
0.022011057 0.046072289 0.13009167
0.034361336 0.036746379 0.12602931
0.026477486 0.043899655 0.12550765
0.050071992 -0.016972473 0.17694667
0.050080374 -0.012953298 0.17121458
0.050178263 -0.012563046 0.16645092
0.049221527 -0.0090104006 0.16625556
0.050924487 -0.011849387 0.16182408
0.048884735 -0.0080870036 0.16078448
0.048823021 -0.0039000418 0.16048017
-0.0059065297 0.04976631 0.15611738
0.048507325 -0.0068288166 0.15714455
0.048752423 -0.0035568401 0.15683481
-0.0061031673 0.05085545 0.15148371
-0.0074644201 0.052494533 0.15370685
0.048767276 -0.0010432191 0.15268064
-0.003430957 0.050502576 0.14868751
0.04862836 -0.00073740073 0.1476292
0.0014027059 0.049655505 0.14430732
-0.0018038061 0.0499001 0.14320517
0.047371835 0.0088625941 0.14281374
-0.00068739615 0.049744219 0.13991803
0.046540737 0.013289157 0.138717
0.0055324826 0.050255358 0.13489211
0.046561584 0.013997873 0.13332343
0.014799433 0.047951661 0.13086167
0.0048208386 0.050204821 0.13161066
0.044701464 0.019299114 0.12890142
0.039894082 0.027027108 0.1291877
0.01546842 0.046960674 0.12627292
0.044047814 0.020321045 0.12487203
0.039195381 0.028233424 0.12457281
0.035242978 0.035295505 0.12388968
0.020669879 0.044930592 0.12262946
0.041810181 0.02535234 0.12011319
0.037052479 0.032416824 0.11962545
0.030369608 0.040256113 0.11955357
0.02241572 0.044477902 0.1183055
0.030478815 0.038945641 0.11526394
0.050548241 -0.012822514 0.15995127
0.049409911 -0.01280242 0.15686113
0.048302285 -0.0095569398 0.15488547
0.047123745 -0.0063975025 0.15284002
0.047192231 -0.0089060348 0.14985338
0.047566421 -0.0050676465 0.14987072
-0.0056250803 0.049693149 0.1449056
-0.0093919393 0.048990592 0.14547712
0.04794921 -0.003190523 0.1452038
-0.0050775297 0.049537145 0.14084026
-0.0092627313 0.050120309 0.14014384
0.048891291 -0.0010724887 0.1409359
-0.0030391365 0.049913932 0.13659683
0.049163591 -0.0011270568 0.13721952
0.002207594 0.050011255 0.13298517
-0.0020192806 0.049023718 0.1324918
0.048486345 0.0085123777 0.1317668
0.0040243026 0.049684525 0.12845987
0.046934597 0.013096677 0.12667793
0.0059409086 0.049736172 0.1237399
0.046382289 0.013677306 0.12213105
0.018909499 0.045581669 0.11978966
0.011275858 0.049246006 0.11925656
0.046337184 0.014820844 0.11812395
0.042818107 0.023986161 0.11806411
0.016363993 0.047333464 0.11533535
0.041732039 0.02403466 0.11292231
0.036786843 0.031768043 0.1133191
0.030483803 0.038787998 0.11226434
0.020690585 0.044190273 0.11183321
0.039831266 0.027807258 0.10866719
0.034168575 0.035504293 0.10782868
0.026373062 0.041805867 0.10765553
0.047834247 -0.014933661 0.15226188
0.047741141 -0.012714751 0.15224722
0.046640173 -0.011957029 0.14819869
0.046434816 -0.0076522976 0.14716053
-0.013395686 0.047478408 0.14271957
0.046323366 -0.010477135 0.14295033
0.047000371 -0.006918801 0.14252481
-0.010800684 0.049982667 0.13850945
-0.01260159 0.051740415 0.13739997
0.048291914 -0.0088810679 0.13797948
0.048020266 -0.0056652129 0.1383535
-0.0088229738 0.050771732 0.1341534
-0.011446621 0.053211872 0.13436705
0.04872258 -0.0036984477 0.13424182
-0.0042658541 0.049042583 0.12936521
-0.0093038008 0.050912097 0.12881809
-0.010010887 0.053869318 0.13110527
0.048099477 -0.0028891414 0.13002533
-0.0019796137 0.049198836 0.12551612
0.048352458 0.0061610341 0.12573665
-0.00012688525 0.049651541 0.1209181
0.048156567 0.0075678062 0.1212008
0.004238585 0.049806736 0.11728162
0.048324615 0.0082656238 0.11629671
0.045282729 0.016869541 0.11463386
0.0062739216 0.049609847 0.11312854
0.04718145 0.012884127 0.11144036
0.042371366 0.022260744 0.11044031
0.015135493 0.045914467 0.10839295
0.046694167 0.014413875 0.10831851
0.042207293 0.023295904 0.10627693
0.0374697 0.030495718 0.10588342
0.021321792 0.043543134 0.10450691
0.042471439 0.023219906 0.1014511
0.037245613 0.03148983 0.10165602
0.030540392 0.038244277 0.10121739
0.023372281 0.043420944 0.099702537
0.037816182 0.03170336 0.096151948
0.03072425 0.037713043 0.096295655
0.023207765 0.044184458 0.096032143
0.035645179 0.034932584 0.092570186
0.046654444 -0.016706746 0.14703867
0.046256043 -0.014928291 0.14570886
-0.016254108 0.046488907 0.14078611
-0.019452196 0.047887664 0.13975155
0.045920126 -0.013932863 0.14165416
-0.017751286 0.049578562 0.13683307
0.047503881 -0.011721965 0.13722074
-0.016310476 0.051579632 0.13440761
0.048880145 -0.0087814685 0.13253337
0.048693605 -0.0055500679 0.13200536
-0.0086985826 0.049261551 0.12643325
0.04785876 -0.0050691757 0.12789553
-0.0054247342 0.049257793 0.12367111
-0.0083998553 0.050583877 0.12292445
0.047632456 -0.0039770864 0.12340921
0.047193609 -0.0010383409 0.12261885
-0.0035467073 0.049734596 0.11907846
-0.00748997 0.050920106 0.11803991
-0.0021973923 0.049984753 0.11382747
-0.0058409553 0.050730802 0.11339468
0.04912854 0.0059887487 0.11436713
-0.00024581142 0.050051503 0.10968894
0.04856059 0.0073083453 0.10977483
0.0090060737 0.047105879 0.10596186
0.048054315 0.0079374369 0.10518438
0.045466371 0.015949845 0.10509628
0.010156047 0.046844192 0.10173881
0.046586137 0.012965251 0.10092235
0.043222144 0.022026991 0.099491656
0.016671276 0.04475034 0.098477662
0.045341209 0.017390244 0.09581989
0.040666293 0.02695832 0.094701827
0.0267177 0.040490925 0.093618453
0.01782468 0.044896066 0.093913853
0.040482648 0.027543372 0.090139568
0.035008974 0.035592474 0.089969814
0.02690313 0.040718287 0.088420331
0.019114166 0.044455841 0.089776993
0.040888276 0.027395774 0.086719036
0.035046987 0.035341196 0.084987164
0.028572379 0.040404052 0.083723545
0.044797435 -0.020748191 0.14201757
0.044721942 -0.019462492 0.13997409
0.045381092 -0.016538572 0.13873783
0.051552042 -0.02443569 0.1354726
0.045450646 -0.019220557 0.13463581
0.046012357 -0.016404025 0.13330284
0.046012335 -0.014245834 0.13137609
0.046321947 -0.012025286 0.12671524
0.046110868 -0.0093319286 0.12460542
-0.014028022 0.050050765 0.11936909
0.053149771 -0.014937248 0.11922795
0.048364025 -0.010547765 0.11968851
0.04735852 -0.0074439403 0.12132347
0.046936385 -0.0027183555 0.11971033
-0.011016611 0.050495986 0.11632067
-0.012988064 0.050895024 0.11641276
0.050294802 -0.0088064577 0.11665905
0.048638858 -0.0058226343 0.11718541
0.047689766 -0.00223043 0.11642927
-0.0091856103 0.050282158 0.1115219
-0.011678442 0.051983051 0.11372244
0.050992399 -0.0083935652 0.11329454
0.049383081 -0.0046632532 0.11289716
0.048165374 -0.00075202622 0.11189049
-0.003106989 0.050316516 0.10732579
-0.007134933 0.050701708 0.10733366
0.047714595 -0.00069506466 0.10730374
0.0026911497 0.048753712 0.10306245
-0.0013615116 0.04986503 0.10288554
-0.0066162236 0.05086055 0.10413426
0.0051471293 0.048486337 0.099411786
-0.0035154782 0.050265267 0.099624097
0.047359649 0.011270914 0.09851402
0.0062478166 0.048064463 0.094131052
0.047844023 0.012158254 0.093917489
0.015818659 0.045091376 0.090840876
0.0080676712 0.04814063 0.090552866
0.046677858 0.017533876 0.090003848
0.013478478 0.046520002 0.085918963
0.047238532 0.018056292 0.085144818
0.040860303 0.026610987 0.083768368
0.02662215 0.041669901 0.083394766
0.018475302 0.04508847 0.081965089
0.04084504 0.0266206 0.079437077
0.035649262 0.035053842 0.080335736
0.027837534 0.041403163 0.079017162
0.040210247 0.02825992 0.075645328
0.036090389 0.035446212 0.074985862
0.028569223 0.040826492 0.073991239
0.036734357 0.035804495 0.070482254
0.044069115 -0.024762232 0.14113012
0.045233801 -0.026300676 0.13715091
0.044380046 -0.022805579 0.13717312
0.046522021 -0.025416985 0.13236558
0.045537069 -0.021987433 0.13232899
0.047869854 -0.024249325 0.12969571
0.046965741 -0.022820488 0.12987408
0.044768125 -0.016708357 0.12761176
0.045182653 -0.015948083 0.1228537
0.049170163 -0.017128613 0.11599052
0.047615699 -0.014192494 0.11852282
0.051495314 -0.015574483 0.11471218
0.050048757 -0.012789849 0.11459678
-0.01178927 0.049617667 0.10856789
-0.013803743 0.049989425 0.10861975
0.049849849 -0.011720184 0.10954303
0.049264528 -0.007440526 0.10948759
-0.010629099 0.050570063 0.10571134
-0.013301341 0.050322793 0.10409749
0.048400626 -0.0064898822 0.10631675
0.046610907 -0.0036962293 0.10386008
-0.0073892102 0.050741963 0.10125124
-0.010193415 0.052109383 0.10034394
0.046581335 -0.0010322239 0.10090482
-0.001695741 0.049636684 0.09635371
-0.006202504 0.049935929 0.096261561
-0.0093518458 0.052184928 0.096593201
0.047829576 0.0031131506 0.096295774
-0.00059602782 0.048602045 0.092200398
-0.0040212814 0.049622819 0.093006551
0.048499469 0.0047663078 0.091295421
0.0017254297 0.04866416 0.0882954
0.048546329 0.0099464133 0.086133242
0.0067073535 0.048114903 0.083695769
0.048479199 0.011440888 0.082623899
0.01584002 0.045357876 0.079230964
0.0075004641 0.048131607 0.079273939
0.045772348 0.016163372 0.077813983
0.04192796 0.024354029 0.076620281
0.017579593 0.044580854 0.074778497
0.044803854 0.016769148 0.074287534
0.041054137 0.025158642 0.07225579
0.030649755 0.038969759 0.07153815
0.022869833 0.042702064 0.07085222
0.041524082 0.025637932 0.06786859
0.035592835 0.03444216 0.065959275
0.027883181 0.040547449 0.066605747
0.037963666 0.032054134 0.063024521
0.032429472 0.037517607 0.062814653
0.025333218 0.043507844 0.062545538
0.044588663 -0.021807872 0.12579697
0.043615695 -0.019696433 0.12560153
0.045770939 -0.021827485 0.12209904
0.045647874 -0.018040089 0.12056583
0.047669008 -0.019511878 0.11760139
0.046607681 -0.017226607 0.11850506
0.050259195 -0.016266832 0.11303359
0.049481105 -0.012919895 0.10725313
0.048755664 -0.01247827 0.1033904
0.047593504 -0.0082729403 0.10247755
0.047580451 -0.0078541841 0.098660946
0.046869811 -0.0040887371 0.098633468
-0.007604206 0.049681172 0.092989624
-0.010102909 0.052164115 0.093478501
0.047425043 -0.0068658665 0.09402293
0.047446489 -0.003335515 0.09380275
-0.0066327155 0.049630508 0.08923775
-0.010124981 0.052349042 0.090067267
0.048217122 -0.00084777176 0.089046359
-0.0012061 0.048887588 0.085792124
-0.0049334206 0.049112588 0.084647059
0.047920149 -0.00013582408 0.084566712
0.00071407296 0.049168825 0.081386209
-0.0033820886 0.04982648 0.080333591
0.0059917886 0.048322268 0.076948583
0.047324054 0.0055466387 0.075957358
0.046106175 0.013554202 0.075396597
0.00684545 0.047562502 0.072203398
0.04512129 0.014554432 0.071237206
0.017405439 0.044730477 0.069132626
0.0093736146 0.047802463 0.068472564
0.043896049 0.019623883 0.066811562
0.040176839 0.027538398 0.064995468
0.014098879 0.046915174 0.06396383
0.042308234 0.024859346 0.061742604
0.035551988 0.034092814 0.060589731
0.028226355 0.040966041 0.059634209
0.019414637 0.045650911 0.060056925
0.042854186 0.025393445 0.057458639
0.03514757 0.033788405 0.056467533
0.02901889 0.04109804 0.056268156
0.021255381 0.045828573 0.055499017
0.036395926 0.033789616 0.052499712
0.029302038 0.040617391 0.052538693
0.047647126 -0.016820081 0.099274337
0.046676438 -0.015299458 0.096782148
0.046874508 -0.011973465 0.096193969
0.046877824 -0.0099764038 0.09213388
-0.013171984 0.052192293 0.087018669
0.046324071 -0.0085152276 0.08848983
0.046931695 -0.0056282058 0.087263167
-0.0086854473 0.048800565 0.082469881
-0.012573566 0.049340032 0.081842065
0.047114257 -0.0046594851 0.082767844
-0.0071748141 0.048939727 0.078325689
-0.011230499 0.049352322 0.078545928
0.047258645 -0.0023015309 0.078343809
-0.00027585216 0.049489968 0.073485553
-0.0035606734 0.049481604 0.073916674
0.046623796 0.0068549886 0.072124422
0.00042729639 0.04820966 0.069020629
-0.0037961677 0.049173739 0.070532262
0.04586637 0.0081327576 0.068571627
0.0063008275 0.047728144 0.065241456
0.046066999 0.0093801282 0.064057887
0.01200738 0.047754571 0.061809659
0.046318181 0.014888566 0.0597561
0.013614744 0.046822488 0.056760252
0.046751462 0.015265515 0.054579437
0.043706287 0.023459774 0.054571569
0.013746291 0.046437383 0.051914096
0.045180544 0.020261714 0.049781144
0.040192787 0.027949814 0.049869955
0.031853333 0.036276795 0.048740923
0.02456414 0.043232858 0.048198521
0.045246683 0.022036627 0.045316637
0.040166568 0.028510537 0.044716537
0.032887023 0.035589214 0.04432112
0.025202803 0.04298085 0.043725073
0.030253313 0.039204776 0.040282547
0.046831157 -0.017034177 0.093636811
0.046432178 -0.016651299 0.089523494
0.046190195 -0.013365135 0.089004099
0.045997053 -0.011613825 0.084381998
-0.016167764 0.04939853 0.079784572
0.047521479 -0.010424161 0.08001864
0.04717911 -0.0060171485 0.080051601
-0.0093294159 0.048764281 0.075258017
-0.013070352 0.050113469 0.075553
0.048602916 -0.0085207596 0.075469136
0.047845513 -0.0050675571 0.076316893
-0.0083294027 0.0484575 0.071573436
-0.011549423 0.049961552 0.070452571
0.048558481 -0.0077134669 0.071731985
0.047589447 -0.0031283163 0.072199464
-0.0063933786 0.048408896 0.067027569
-0.00034581497 0.048526488 0.063172936
-0.0044012442 0.048402302 0.06251812
0.046112474 0.0061528198 0.06263876
0.046318643 0.0081504248 0.058127999
0.0028569158 0.048911296 0.054100692
0.01213187 0.047434691 0.050264776
0.0042459127 0.049123712 0.049422443
0.047242366 0.014753537 0.049549043
0.010424221 0.048837364 0.046199143
0.046248026 0.015364006 0.043733537
0.036641747 0.031798162 0.042237639
0.019319065 0.044828184 0.042830884
0.045893151 0.0204443 0.039961278
0.041235179 0.029220866 0.039485395
0.033444516 0.03537783 0.039073408
0.025800996 0.042785242 0.037893951
0.017831694 0.045491587 0.038032115
0.041170683 0.028874088 0.035001099
0.033498317 0.034234956 0.033990979
0.025511298 0.041210447 0.034142911
0.038746826 0.03373041 0.029573619
0.046384122 -0.017593276 0.083381593
0.045904398 -0.01420019 0.083295763
-0.01894547 0.049063273 0.075942576
0.049236424 -0.015308293 0.079011142
0.05012738 -0.013046497 0.073999465
0.048807763 -0.010542559 0.074530005
-0.014631702 0.050521344 0.069952369
0.050390162 -0.013260642 0.06885165
0.048876137 -0.010485839 0.069207847
0.047027763 -0.0060064048 0.068608999
-0.0080753621 0.048128605 0.06465894
-0.01141149 0.049947873 0.065007865
-0.013416827 0.051449046 0.063911438
0.047469422 -0.0093644541 0.066044748
0.047039524 -0.005446652 0.065197349
0.046498504 -0.0010369755 0.063666046
-0.0062042475 0.04820215 0.060280204
-0.011028223 0.049069379 0.060261905
-0.013806047 0.051025592 0.060327351
0.047140919 -0.0042416658 0.060234487
-0.0044763479 0.048467882 0.056105673
-0.0087635666 0.048780736 0.056950033
0.047829583 -0.0026831441 0.056259811
0.046384841 0.0052668788 0.055534184
-0.0030418653 0.048662454 0.051402032
0.047412619 0.0065428447 0.051103592
-0.0012812819 0.049263276 0.047109842
0.04765927 0.0081828572 0.046376646
0.0058170855 0.050627489 0.043617427
0.048514701 0.0086939987 0.041912735
0.014483733 0.045820907 0.039256155
0.0059350673 0.049843669 0.038434029
0.047033116 0.014246037 0.037307739
0.019022513 0.043431107 0.034069955
0.010467412 0.047563992 0.03449744
0.047557965 0.014614539 0.033411086
0.043721005 0.023810886 0.032429934
0.032140087 0.034857724 0.031554043
0.024590265 0.040188681 0.030819356
0.016185483 0.044820897 0.031265438
0.046546791 0.019763265 0.027837276
0.04118152 0.028446166 0.028092802
0.031251613 0.034949113 0.027820289
0.024068462 0.039563749 0.02797538
0.04654796 0.020747241 0.02519697
0.041393839 0.028369226 0.023627162
0.033909693 0.032688476 0.023938596
0.048591577 -0.017382341 0.070814013
0.049309492 -0.016753329 0.069487751
0.049305335 -0.014841437 0.064230144
0.047865354 -0.011638368 0.062977016
-0.012158675 0.049096338 0.057153881
0.047383722 -0.0101646 0.058228493
0.047307774 -0.0078224186 0.058396518
-0.011556011 0.047981847 0.05314064
0.048093185 -0.0057412479 0.053393424
-0.0056922976 0.049094617 0.049552262
-0.0083134137 0.048966914 0.048920155
0.04859608 -0.0037423074 0.048764527
-0.0038042031 0.049771916 0.045398653
-0.0072068758 0.050699137 0.043794155
0.049471498 -0.0030346047 0.043761134
-0.0020712279 0.050974891 0.041225076
-0.0051538255 0.05209513 0.04044497
0.055703007 -0.0056286752 0.039410651
0.052086726 -0.0014912877 0.039157748
0.0037432201 0.050466392 0.036117673
-0.003129188 0.053231843 0.036516488
0.050730877 0.0032492038 0.034886777
0.0090912431 0.048461542 0.031996369
0.00097148493 0.052284345 0.031115055
0.049561664 0.008882191 0.030950963
0.018006127 0.042989887 0.028172016
0.011137703 0.047965162 0.028751969
0.0013987143 0.052555658 0.027258277
0.048855595 0.014279375 0.026891887
0.023104895 0.038924895 0.023961842
0.015755326 0.044941869 0.024161458
0.0070164464 0.05077152 0.023411095
0.046447419 0.01922892 0.02171272
0.042100824 0.026601739 0.02142781
0.043681338 0.023285702 0.018334568
0.048621193 -0.015851259 0.061180294
0.048070699 -0.014148049 0.059657156
-0.016758775 0.04828883 0.053933918
0.04791934 -0.017095162 0.055868685
0.047475323 -0.013172934 0.056026399
-0.015970644 0.04665431 0.049308419
-0.017769961 0.047303014 0.049620509
0.047937334 -0.011599923 0.052086413
-0.013118947 0.047838256 0.046857655
-0.016150603 0.048592634 0.043887258
0.049945489 -0.010372719 0.047349155
0.049165007 -0.0068818554 0.047378719
-0.011730652 0.049492627 0.042863548
0.052007549 -0.0081156548 0.043786883
0.050723471 -0.0051054917 0.042428315
0.053553537 -0.0063477997 0.0402053
0.052446675 -0.0042074993 0.039218664
0.052512873 -0.0012227707 0.031312406
0.002191307 0.051524431 0.025022209
0.049822219 0.0085734222 0.023760557
0.0092843659 0.048260327 0.021262705
0.0024240632 0.051799208 0.021015704
0.048412874 0.014010401 0.020273745
0.021909591 0.03713182 0.019384921
0.014810869 0.043552738 0.017242789
0.0063409302 0.048845306 0.017511666
0.042983852 0.021162724 0.014424384
0.047533236 -0.015610622 0.050071299
-0.017054282 0.047826119 0.045039117
0.048974328 -0.014351957 0.047391593
0.00748978 0.0452452 0.013964653
0.0087247901 0.042857639 0.011178792
0.010445633 0.039752528 0.0082768202
0.0027530026 0.0441368 0.0074406862
