# .PCD v0.7 - Point Cloud Data file format
VERSION 0.7
FIELDS x y z
SIZE 4 4 4
TYPE F F F
COUNT 1 1 1
WIDTH 1279
HEIGHT 1
VIEWPOINT 0 0 0 1 0 0 0
POINTS 1279
DATA ascii
0.011439146 -0.013414792 0.3474701
0.012108147 -0.0048447805 0.34650362
0.011468232 0.0054213502 0.34722292
0.014551044 -0.014769527 0.3449519
0.01574713 -0.0049300357 0.34489515
0.01422286 0.0048665539 0.34419274
0.0161286 -0.013935394 0.34074882
0.018150151 -0.0051195482 0.34128332
0.016955972 0.0049026227 0.34002113
0.018181324 -0.009489405 0.33723468
0.019724309 -0.00036705198 0.33630019
0.019470751 -0.0051190937 0.33208466
0.018759429 0.0022972776 0.33190307
0.037006855 0.0026682967 0.29775652
0.039215267 -0.0023836943 0.29489893
0.039476871 0.0066138972 0.29365224
0.041555166 -0.00273408 0.29070151
0.041380048 0.0065728426 0.2901234
0.043790996 0.0023635868 0.28617603
0.043829441 0.010971593 0.28491268
0.046519697 -0.0039852131 0.28043881
0.046279788 0.0068285558 0.28135467
0.045490265 0.014021276 0.28137839
0.048763752 0.0017338714 0.27731782
0.048193514 0.010426974 0.27678192
0.050816238 0.0011658095 0.27285871
0.049390197 0.01072978 0.27308184
0.0053045158 -0.0097861476 0.34870774
0.0049193506 -0.0061905161 0.34836292
0.0080817947 -0.01412252 0.34823641
0.0079967976 -0.0098406989 0.34745884
0.0073034763 3.7262536e-05 0.34792817
0.0087720156 0.0086234119 0.3481352
0.0097261081 -0.018820802 0.34170669
0.011086403 0.011522559 0.34291327
0.012453736 -0.019038783 0.33741227
0.012809933 -0.016498873 0.3384133
0.01409936 -0.013864984 0.33496866
0.016627789 0.0047650607 0.3329443
0.01564467 -0.013702442 0.32913119
0.018496335 -0.0060555981 0.32883158
0.016380608 0.0037250265 0.32828867
0.017314553 -0.0052173426 0.3254824
0.016842842 0.0019852414 0.32489362
0.02774024 0.0024033294 0.30531582
0.030855954 -0.015872452 0.30138811
0.030383527 -0.0078725303 0.30233186
0.030979395 0.0022171359 0.30207381
0.030422449 0.011657101 0.2998789
0.033592939 -0.012402004 0.29851902
0.0343799 -0.0030184896 0.29871312
0.034299493 0.0070264353 0.2978237
0.032126367 0.015663603 0.29633123
0.036165535 -0.012627497 0.29418352
0.036901355 -0.0038613772 0.296464
0.036041498 0.011825217 0.29282901
0.037599385 -0.017509831 0.2893779
0.039891839 -0.0079848412 0.29016134
0.039348543 0.01159096 0.28885996
0.040007651 -0.018028636 0.2849724
0.041834891 -0.008030938 0.28551802
0.042910933 -0.00018950178 0.28403822
0.042150676 0.012123099 0.28581554
0.038822353 0.020044768 0.28333727
0.043090999 -0.013327697 0.28079686
0.04460907 -0.0029980149 0.28148386
0.045751333 0.012493653 0.27917963
0.044508219 -0.018636974 0.27613884
0.046343863 -0.0085003134 0.27655363
0.047904015 -0.00060962304 0.27613708
0.045110166 0.015352538 0.2750681
0.047212064 -0.013812134 0.27160701
0.049808025 -0.0036688854 0.27263945
0.048319459 0.010659216 0.27070129
0.048600733 -0.017801503 0.26733345
0.049293518 -0.0096875578 0.26760322
0.051708043 0.00064040761 0.26780412
0.04888624 0.010298671 0.2665441
0.049873352 -0.013447469 0.26484233
0.051236868 -0.0048318277 0.26283303
0.050510645 0.0045394157 0.26330915
0.052311599 -1.8488192e-05 0.25890175
0.0026393537 -0.0097724758 0.34921241
0.0035732391 -0.0040526167 0.34772462
0.008305789 -0.018969595 0.33959821
0.0098705282 0.011203483 0.33472332
0.011148036 -0.019230643 0.33456165
0.011008085 -0.01604842 0.33199596
0.01392001 -0.015237763 0.32792854
0.014769615 -0.014992588 0.32361451
0.01611352 -0.0069515808 0.32249784
0.015569866 0.0034298885 0.3217051
0.015506446 -0.0067066154 0.31771615
0.015617967 0.002347226 0.31688458
0.018278062 -0.002359425 0.3123785
0.021796703 -0.011653584 0.30794981
0.023195684 -0.002489862 0.30929124
0.021132648 0.006754485 0.30742121
0.025624275 -0.012037001 0.30590647
0.026199341 -0.002766161 0.30583411
0.025005281 0.008042586 0.30514681
0.022611141 0.016141849 0.30221975
0.0270679 -0.017675906 0.30166543
0.028185546 -0.0049161208 0.30353162
0.026818931 0.016628126 0.29885289
0.030887663 -0.018989537 0.29758307
0.027925191 0.021721428 0.29347679
0.032317519 -0.022880914 0.29286757
0.032550037 0.018337959 0.29079542
0.030383823 0.025809167 0.28800985
0.035306334 -0.023085238 0.28870648
0.034977853 0.018384008 0.28742412
0.033055842 0.025370127 0.28503758
0.038128436 -0.023296544 0.28447273
0.037569582 0.021952266 0.28153604
0.034135759 0.028769152 0.27891845
0.040528059 -0.023528041 0.28003249
0.038033783 0.025623919 0.27617776
0.04081881 -0.027901744 0.27504864
0.043184102 0.017712222 0.27232692
0.040118575 0.025819054 0.27177075
0.043249667 -0.027925542 0.27081552
0.046036363 -0.020241579 0.27067602
0.042969286 0.020811656 0.26756769
0.044078827 -0.027153974 0.26738891
0.047472 -0.02004388 0.26741081
0.045309007 0.015821313 0.263823
0.042652011 0.023607636 0.26397634
0.048329651 -0.019102786 0.26207954
0.050489962 -0.0098139737 0.26123756
0.049432516 0.005698726 0.25996009
0.045936048 0.013903873 0.25965425
0.049736738 -0.014625361 0.25660428
0.05159682 -0.0053673475 0.25699297
0.050648808 0.0049469718 0.25608587
0.048571587 0.012880838 0.25370681
0.050097883 -0.010438425 0.25327522
0.051663041 -0.00033224147 0.25195739
0.050093949 0.0098443907 0.25138858
0.0087988982 -0.019512296 0.33048534
0.0085926661 -0.018067403 0.33032164
0.012488484 0.0079928013 0.31888735
0.010399698 0.011940654 0.3176595
0.012964905 -0.015659057 0.31655851
0.015569508 -0.0074332687 0.31636089
0.012614191 0.0074009658 0.31490391
0.014633656 -0.014717893 0.31141755
0.017216861 -0.0074907644 0.31317148
0.016563654 0.0035708889 0.31209067
0.014803528 0.012773567 0.30902579
0.014558434 0.016327962 0.30786148
0.019216418 -0.01226675 0.3089613
0.018669724 0.012754628 0.30618277
0.020233156 -0.025971577 0.30149823
0.020509543 -0.022321992 0.30282369
0.020944118 0.012616747 0.30403554
0.019192219 0.021235902 0.29916966
0.022962632 -0.027585493 0.29896069
0.023482978 -0.019543746 0.3021282
0.023055969 0.022474213 0.29648811
0.02156174 0.026551949 0.29460415
0.020848809 0.029761624 0.29345262
0.023965778 -0.031787213 0.29335493
0.025743904 -0.027937295 0.29561228
0.024477182 0.026652722 0.29211071
0.022830425 0.029610215 0.29116997
0.026702346 -0.032544773 0.29031739
0.027690111 0.026925066 0.28933489
0.026320098 0.030461574 0.28651097
0.029774548 -0.033381384 0.2863293
0.031346858 0.027586052 0.28408021
0.029267607 0.030552795 0.28290153
0.0324651 -0.033767447 0.28219575
0.031836689 0.031189552 0.27850842
0.036441207 -0.030630326 0.27833128
0.037054956 -0.033520304 0.27307403
0.037280858 0.031148026 0.26938468
0.041255534 -0.030526726 0.26881301
0.03981185 -0.033331547 0.26380193
0.044102728 -0.025905443 0.26404807
0.042342365 0.025189718 0.26187813
0.041189611 -0.033465836 0.26123214
0.044956386 -0.024838118 0.25982717
0.045792758 0.01128486 0.25765148
0.043573618 0.020208908 0.25703382
0.040379703 0.027874848 0.25759244
0.045751035 -0.02454566 0.25517467
0.047874749 0.010882987 0.2542569
0.04485172 0.019300705 0.25231183
0.04621762 -0.02369521 0.25181863
0.049937546 -0.015081534 0.25070709
0.05080694 -0.0055469605 0.24926022
0.050811231 0.0049327412 0.24859956
0.049443543 0.014440129 0.2484788
0.049408138 -0.018151047 0.24578732
0.050784767 -0.010854116 0.24534884
0.051986039 -0.00063470338 0.24549812
0.052032113 0.0095442217 0.24499702
0.049304187 0.01687065 0.24391323
0.051065326 -0.010764016 0.24147812
0.051765859 -0.00083119754 0.24119627
0.052419484 0.0093436111 0.24020302
0.0088088512 0.010451533 0.31625965
0.006586432 0.013387468 0.31513959
0.0090651521 -0.018203035 0.31312957
0.0087475181 0.0103187 0.31305644
0.0084190955 0.013230458 0.31222478
0.0091173043 0.016052645 0.30971706
0.0098003754 -0.020806957 0.30878961
0.011730493 -0.017627602 0.31006226
0.011827528 0.013084193 0.31054235
0.011781036 0.017879851 0.30813488
0.0092235794 0.020308159 0.30552751
0.012291254 -0.026237842 0.30376548
0.012911321 -0.022263963 0.30524531
0.014374972 -0.018887969 0.30699682
0.014059304 0.018659275 0.30458087
0.012498974 0.021076724 0.30240673
0.015639903 -0.031571213 0.29993731
0.016015651 -0.027970351 0.30160764
0.015677037 -0.023240596 0.30354005
0.015510975 0.022845063 0.29979932
0.014751195 0.027002383 0.29701138
0.018368782 -0.03241716 0.29721168
0.020016195 -0.030017808 0.29946768
0.018740116 0.02734613 0.29541534
0.017139612 0.031003818 0.29285526
0.021086277 -0.033641875 0.29321381
0.020941673 0.031835951 0.28934458
0.01897919 0.034378845 0.28778547
0.021962466 -0.037657078 0.28728387
0.023612263 -0.035064436 0.28849071
0.022864459 0.033323951 0.28450376
0.020779965 0.03499563 0.2838133
0.024833383 -0.038259547 0.28436175
0.025774123 -0.035149999 0.28628996
0.02630919 0.033563018 0.28128871
0.023655532 0.035854813 0.27986306
0.025214257 -0.041462071 0.28062236
0.027569117 -0.03847412 0.27999705
0.026815115 0.035592102 0.27571234
0.029342653 -0.038753763 0.27515405
0.032000959 -0.035699103 0.27552208
0.029397188 0.035350598 0.27127981
0.031429946 -0.039013244 0.27046135
0.032487154 -0.036003947 0.27084756
0.031594515 0.03571739 0.26639441
0.033116877 -0.042244885 0.26570815
0.034177482 -0.039226986 0.26610568
0.034598589 -0.036260247 0.26617041
0.034609854 0.035173479 0.2621949
0.034994006 -0.038459521 0.26261994
0.037900031 0.032402333 0.25851694
0.039428115 -0.034475274 0.25784183
0.041242778 0.026267888 0.25398913
0.036513567 0.032825787 0.25359184
0.041863978 -0.030518455 0.25296462
0.04412812 0.021638619 0.24997529
0.039511979 0.028031683 0.24919719
0.043973029 -0.025571568 0.24792907
0.044762909 0.020330435 0.24556127
0.040586948 0.027524965 0.24604005
0.046946883 -0.020949226 0.24353454
0.04578197 0.01963851 0.24115145
0.04608357 -0.024409762 0.24001649
0.048385382 -0.016529376 0.23821694
0.050322294 -0.0062462776 0.23715651
0.05057627 0.0040829931 0.23604622
0.049081445 0.013908578 0.23708999
0.04877156 -0.01585648 0.23433638
0.049789131 -0.006356522 0.23273754
0.050130725 0.0027898198 0.23270679
0.051107109 -0.0062138452 0.22936761
0.050913453 0.0023232647 0.22954455
0.0044425139 -0.021726031 0.31128785
0.0052626128 0.014801107 0.31289265
0.0066291681 0.016136475 0.31021714
0.0065721283 -0.025474779 0.30598369
0.0073124776 -0.023125269 0.30780441
0.0064052334 0.022308744 0.30389005
0.008897067 -0.031687725 0.30088958
0.0092702517 -0.027787395 0.30368787
0.010111631 -0.023932632 0.30587894
0.008935391 0.023422454 0.30152643
0.008296906 0.026771534 0.2993204
0.012346329 -0.033589385 0.29956359
0.012681902 -0.02852824 0.30245224
0.012016593 0.028781112 0.29747298
0.01124215 0.030584212 0.29499573
0.013223471 -0.037028521 0.29471928
0.015851142 -0.03477326 0.29615703
0.013220964 0.032262109 0.29217088
0.013301251 0.034910467 0.29016811
0.015516521 -0.04127346 0.28818285
0.017012181 -0.038041882 0.29118249
0.015684662 0.036966905 0.28615701
0.018549861 -0.042318568 0.28587452
0.020123245 -0.039138384 0.28810567
0.018766997 0.037634682 0.28229082
0.016708491 0.039911255 0.28035086
0.021312775 -0.043355525 0.28207797
0.020759044 0.038170878 0.2783165
0.019250451 0.039688334 0.27667207
0.0237363 -0.04374437 0.27716917
0.023842869 0.037907653 0.27410382
0.021886585 0.039442286 0.27222055
0.025781037 -0.044170894 0.27363113
0.025826572 0.037688605 0.26934391
0.023683725 0.03925088 0.26817328
0.028692069 -0.044371933 0.26933017
0.027543364 0.037540134 0.26691949
0.027790962 0.038943499 0.26448858
0.031098368 -0.044351816 0.26494563
0.031305313 0.037210375 0.26142353
0.030806718 0.038682114 0.26025555
0.031131985 -0.043770932 0.26099083
0.034110248 -0.040111117 0.26056933
0.032871902 0.036629945 0.2560358
0.033790112 -0.039422251 0.25645715
0.034969568 0.035038866 0.25157914
0.038439572 0.03002481 0.24775037
0.039312959 -0.034813996 0.24731222
0.041759193 0.025899606 0.24256787
0.038261831 0.031963591 0.24283418
0.044896245 -0.02725924 0.24202651
0.042655468 0.024455922 0.23871112
0.043444157 -0.029421998 0.23749521
0.044285178 0.019361397 0.23485669
0.045860708 -0.025781376 0.23372787
0.048714697 -0.016965918 0.23209059
0.04919368 0.0046242815 0.23097342
0.047115386 0.013652461 0.23076752
0.046877563 -0.020647621 0.22835675
0.049723864 -0.011772279 0.22786215
0.051009059 0.0031742011 0.22736385
0.04843533 0.012882853 0.22607726
0.051967561 -0.0068505569 0.22294277
0.051344693 0.002726967 0.22207797
0.048934281 0.012392065 0.22186208
0.051534653 -0.0078128856 0.21842879
0.05125469 0.0025389777 0.21772853
0.0010362875 -0.026178785 0.3084099
0.0016616593 -0.023327585 0.31014889
0.0030035984 -0.027414784 0.30590683
0.0030879367 0.025561966 0.30169073
0.0071588177 -0.037719071 0.30041638
0.0059056892 -0.033007052 0.30145392
0.0053007021 -0.029627133 0.30347425
0.0046297298 0.028258238 0.29964387
0.0031140433 0.030629095 0.29736629
0.0073378701 -0.042817377 0.29783452
0.0086682457 -0.037850276 0.29785946
0.007054864 0.032729048 0.29367977
0.0059300051 0.035301309 0.2916044
0.0089684743 -0.047097746 0.29358548
0.0089616794 -0.043378256 0.29262817
0.011221351 -0.039107587 0.29462558
0.0078408103 0.03661133 0.28832868
0.0078538638 0.039534017 0.28626546
0.012340667 -0.042653412 0.28878763
0.011537073 0.039771087 0.28361878
0.015180888 -0.044776596 0.28524733
0.01389694 0.041171476 0.28015479
0.017620625 -0.048393309 0.27936801
0.017941954 -0.046140201 0.28139153
0.016526995 0.041768275 0.27466834
0.019579412 -0.049070291 0.27549851
0.020861151 -0.046341665 0.27706137
0.018073974 0.04183016 0.27018452
0.016977726 0.044124968 0.27034619
0.022309365 -0.049629655 0.27215564
0.019780813 0.041643213 0.26606512
0.024426462 -0.052671812 0.27006656
0.024824144 -0.049863186 0.26762161
0.021984456 0.041415352 0.26136109
0.025683643 -0.049737856 0.26220369
0.027396025 -0.047183089 0.26212931
0.023812054 0.041203655 0.25645426
0.028785231 -0.053261429 0.25982639
0.027881505 -0.051854759 0.25927255
0.028694095 -0.045516804 0.25805143
0.026847718 0.040216457 0.25306395
0.030087175 -0.044361468 0.25397339
0.033002079 -0.040660538 0.25329372
0.029023526 0.03901824 0.24923584
0.032980919 -0.040282458 0.24896723
0.035029709 -0.037428435 0.24888533
0.033475101 0.035196647 0.24424893
0.031855881 0.036762111 0.24412444
0.03400892 -0.039847627 0.24454555
0.036727846 -0.036776558 0.24407139
0.037580371 -0.036080122 0.23943621
0.038680255 0.029284483 0.2358582
0.038676798 -0.035302695 0.23464322
0.040584087 0.025115872 0.23147097
0.036986589 0.032474648 0.231884
0.044326782 -0.027022356 0.23004934
0.041435719 0.023073388 0.22738349
0.045516908 -0.022489915 0.22571614
0.046350598 0.014755027 0.22364682
0.043167233 0.02182976 0.22250965
0.048140526 -0.017281413 0.22205138
0.049598336 0.0092980471 0.21897241
0.044920683 0.017109083 0.21893755
0.046946228 -0.021240242 0.21807775
0.050604463 -0.012570456 0.21616048
0.050911427 -0.0019954848 0.21580541
0.04971391 0.0078262407 0.2150574
0.04993999 -0.012227332 0.21204469
0.051338851 -0.0022188663 0.21108574
0.050086498 0.0072095455 0.21041381
0.051341534 -0.003869073 0.2076816
0.0028271065 0.032053813 0.29471105
0.0059198756 -0.044852626 0.29532436
0.003030835 0.037875943 0.28957587
0.0072445292 -0.044995539 0.29266632
0.0046006422 0.037773702 0.28866798
0.0063992124 0.039884958 0.28734267
0.007859828 -0.047679774 0.2865029
0.0086867828 -0.045716867 0.2872071
0.0098168273 -0.047898307 0.28248435
0.011651101 -0.046137482 0.28493431
0.011543931 -0.048758648 0.28004834
0.013195632 0.042940434 0.27434608
0.016983034 -0.051118538 0.27537575
0.016625343 0.04409029 0.26767516
0.017663477 0.04434355 0.26484784
0.022697808 -0.058367625 0.2652958
0.021025063 -0.054723814 0.2650784
0.018008767 0.044331439 0.25915557
0.021947624 -0.056400888 0.26228055
0.022876741 -0.050472274 0.26077157
0.022070287 0.043516081 0.25542063
0.024788858 -0.049947515 0.25668731
0.0267908 -0.047669172 0.2559447
0.024273572 0.044370443 0.25147963
0.026452186 -0.050255157 0.25166148
0.028072419 -0.047089234 0.25152305
0.026257692 0.040336765 0.24597937
0.025379417 0.04313051 0.24620706
0.028552236 -0.045576744 0.24677333
0.031238021 -0.042217791 0.24620092
0.027881799 0.039157197 0.24182218
0.025973616 0.042248588 0.24146941
0.030044498 -0.0444199 0.24223924
0.032791078 -0.041612081 0.24191338
0.030429183 0.038167767 0.23730659
0.029180108 0.041170903 0.23474097
0.033065975 -0.04077211 0.23745596
0.035179973 -0.038229924 0.23709008
0.034841657 0.034847651 0.23311156
0.03250736 0.037521463 0.23275441
0.030664323 0.041048553 0.2330043
0.033316553 -0.040032953 0.23354536
0.036200643 -0.037705772 0.23334932
0.035305738 0.033432852 0.22866479
0.032930613 0.036348205 0.22937068
0.039364517 -0.033046782 0.22823209
0.037795067 0.028513392 0.22481331
0.039669752 -0.031499304 0.22368938
0.041454256 0.024652308 0.22076094
0.040206611 -0.030236011 0.2197203
0.044683754 -0.024226347 0.21860701
0.04270488 0.022267921 0.21655309
0.044180512 -0.026471192 0.21464255
0.046961606 -0.018272335 0.21329373
0.043361902 0.021592701 0.21145031
0.047446728 -0.017981425 0.20949635
0.049522877 0.0081067663 0.20769277
0.046968281 0.016959021 0.20763415
0.049377978 -0.012960745 0.20517105
0.051287174 -0.0029853 0.20526713
0.04942143 0.0064717964 0.20420596
0.047875106 0.016227072 0.20362526
0.050908208 -0.0086968113 0.20062929
0.05079937 0.0016098156 0.19968218
0.049133062 0.011317281 0.20025793
0.015733896 0.045924131 0.25705305
0.01779115 0.045219928 0.25308713
0.02420765 0.044630777 0.24294239
0.025813045 -0.049880691 0.24703684
0.025521697 -0.048594102 0.24424186
0.025425253 0.043370396 0.23982862
0.027134003 -0.046649903 0.24049333
0.026552914 0.042601705 0.23606351
0.029135289 -0.050761849 0.23345014
0.028401555 -0.045192871 0.23551342
0.031211259 -0.042527489 0.23477709
0.030420421 0.039505005 0.23036507
0.028283952 0.041887939 0.23075873
0.030039193 -0.050190445 0.2304675
0.029101254 -0.044858217 0.23139152
0.03134191 -0.041778944 0.23106721
0.030668197 0.037646066 0.22628316
0.033676982 -0.038402364 0.22639608
0.031875849 0.036241874 0.22271335
0.035848081 -0.037284072 0.22223547
0.036410689 0.029876793 0.21786079
0.036277413 -0.036494229 0.21770379
0.038244247 0.028178034 0.21380252
0.042457819 -0.028509194 0.21294513
0.039949 0.025996296 0.21026832
0.046301305 -0.024122136 0.20734891
0.043203235 0.021505909 0.2050851
0.043293297 -0.02663544 0.20385009
0.047546327 -0.019261599 0.20384762
0.04512167 0.019979535 0.20083809
0.048095644 -0.018327927 0.19950721
0.051045775 -0.0088683888 0.19719008
0.048837185 0.0065098261 0.19748691
0.046804667 0.016591312 0.19697374
0.048402309 -0.017826336 0.19469184
0.04981333 -0.0090785064 0.19285819
0.051140547 0.001636377 0.19352201
0.048278391 0.010788815 0.19235265
0.050697803 0.0012711588 0.18844134
0.02117938 -0.050464228 0.24195313
0.023857059 -0.049114846 0.23818269
0.025107862 -0.049396735 0.23370326
0.026964547 -0.047271237 0.2340605
0.028429808 -0.049635649 0.22864616
0.028775575 -0.046724215 0.22934645
0.029675009 -0.042796984 0.22813764
0.025894878 0.039581023 0.22257745
0.027625086 -0.049897745 0.22557798
0.028264763 -0.046560694 0.22507572
0.029506387 -0.042094298 0.22473326
0.028607009 0.038103573 0.21956059
0.030596497 -0.041395176 0.21950716
0.033775032 -0.039100744 0.21942082
0.032114446 0.03367034 0.2151303
0.029823123 0.037345644 0.2151514
0.029353021 0.043759827 0.21474075
0.028705774 0.045339793 0.21603489
0.035121739 -0.038201578 0.21534747
0.035773158 -0.037344597 0.21084455
0.03742677 0.027511844 0.20690411
0.036702335 -0.035650775 0.20734125
0.041303277 -0.02959987 0.20542526
0.038865685 0.026453191 0.20258689
0.040751517 -0.02813928 0.20057097
0.04174 0.02229658 0.19861275
0.03793031 0.029752219 0.19764316
0.044602513 -0.024418866 0.19719797
0.045698166 0.018229196 0.19419378
0.04095751 0.025660513 0.19367632
0.047356844 -0.019531811 0.1918155
0.047995031 0.012710074 0.18969426
0.043750048 0.020963745 0.18975335
0.047595859 -0.019148404 0.18722105
0.049302816 -0.0093589723 0.18717885
0.050874889 0.0011563491 0.18587586
0.049132407 0.010583742 0.18623817
0.044468224 0.019518783 0.1861842
0.048589289 -0.013838997 0.18262094
0.050903201 -0.0042915693 0.18257403
0.050995886 0.0055349139 0.18213803
0.048762083 0.013165189 0.18209028
0.051365137 -0.0037402078 0.17820826
0.050754309 0.0050534387 0.17766997
0.01884258 -0.051400464 0.23594451
0.022553923 -0.051129013 0.23235089
0.02233672 0.04286417 0.22473949
0.023613514 -0.051497698 0.2268554
0.022473572 0.042786151 0.2213237
0.025939407 -0.047210947 0.22153726
0.028104248 -0.044041749 0.22204882
0.026206611 0.039469503 0.21838942
0.02438998 0.042587467 0.21717638
0.024833975 0.046331078 0.21548039
0.02596301 -0.045854125 0.21913242
0.028965594 -0.043146323 0.21810949
0.029227672 0.038651954 0.21199751
0.027100859 0.041832935 0.21292898
0.030677916 -0.041898042 0.21332216
0.032620132 -0.040008985 0.21217757
0.031401932 0.033890426 0.20824105
0.029508887 0.037349261 0.20833051
0.027148126 0.040715519 0.20830059
0.032170892 -0.039697766 0.20798847
0.030194817 0.035674162 0.20350596
0.034380496 -0.037443127 0.20423526
0.034252942 0.031941269 0.20096213
0.031840205 0.034535129 0.19944155
0.035021722 -0.036657743 0.20042247
0.038450837 -0.030092539 0.19834307
0.033193707 0.034005497 0.19627884
0.040249169 -0.029197389 0.19469401
0.038629055 0.029647721 0.19129002
0.041057527 -0.029031577 0.19006175
0.040663123 0.025353322 0.18730372
0.041896105 -0.028768884 0.18577188
0.046483338 -0.020919213 0.18413147
0.043464661 0.020975756 0.18305853
0.044422209 -0.024600243 0.18152407
0.048208117 -0.01466262 0.1799702
0.045641899 0.01540011 0.17812166
0.046610773 -0.017556673 0.17588013
0.048991919 -0.01010708 0.17594755
0.050942898 0.00068583933 0.17511463
0.04766041 0.0096805859 0.17451876
0.048415422 -0.014322558 0.17190123
0.050143123 -0.0052623558 0.17141703
0.048544645 0.0048139044 0.17074981
0.049883187 -0.0088060852 0.16757712
0.050202131 -0.0019299738 0.16744798
0.018174885 0.046010312 0.21693152
0.022982599 -0.049020857 0.21932188
0.020613668 0.045818839 0.21481702
0.023232879 -0.046258561 0.2148951
0.024892272 -0.044598453 0.21578717
0.023825048 0.043993894 0.20970875
0.023082433 0.045592442 0.21096176
0.026382925 -0.044032384 0.21220171
0.027461527 0.039099142 0.20501935
0.025001464 0.041683089 0.20483768
0.0292331 -0.043376371 0.20653307
0.028282939 0.038221762 0.2019977
0.026144324 0.040345266 0.20029464
0.030523123 -0.043062516 0.20215851
0.031522393 -0.040341131 0.20218402
0.030655561 0.036619373 0.19780469
0.028137146 0.0408554 0.19604331
0.030988039 -0.043339264 0.19796717
0.033070087 -0.039008111 0.19741946
0.031942785 0.035534389 0.1936323
0.029476045 0.039500277 0.19370076
0.034889877 -0.038949251 0.19296971
0.032273591 0.034251802 0.18894845
0.037587285 -0.037649572 0.1882838
0.038466275 0.027331529 0.18463987
0.038294733 -0.038606409 0.18515831
0.041368723 -0.030437196 0.18370309
0.037367702 0.028763147 0.17932403
0.043881059 -0.025605226 0.17843115
0.043259084 0.020966576 0.17575547
0.042018712 -0.028877256 0.17554265
0.04531914 -0.020422189 0.1740706
0.044572592 0.014879389 0.17171538
0.04138273 0.024540784 0.17211989
0.048410356 -0.01513917 0.16946697
0.047387958 0.0098339301 0.1683926
0.047079384 -0.01862796 0.16555437
0.049630046 -0.010634512 0.16542885
0.049936652 -0.00019892273 0.16497654
0.048199594 0.0094409306 0.16367632
0.048495054 -0.01448649 0.16138726
0.050331712 -0.0060889958 0.16037798
0.049294591 0.0046277572 0.15912771
0.048197746 0.012368148 0.15983701
0.049904227 0.0060162381 0.1557717
0.020463409 -0.04878556 0.21339434
0.018405618 -0.049922727 0.20955458
0.023650827 -0.043721758 0.20698527
0.024288537 -0.047006659 0.20394909
0.024194119 0.04273982 0.19928983
0.023142455 0.043814488 0.19859809
0.025856195 0.042844575 0.19670251
0.029004933 -0.044322375 0.19588822
0.029478608 0.037116751 0.19021749
0.027290521 0.040317025 0.19019887
0.025684474 0.043513034 0.19115275
0.029813351 -0.043033391 0.19179797
0.033157349 -0.041556671 0.18929222
0.029637633 0.035779256 0.18603942
0.026764153 0.038724162 0.18662825
0.033486009 -0.040856674 0.18582773
0.031296015 0.034502666 0.18151271
0.035808742 -0.038346406 0.18232691
0.034991264 0.031137446 0.1776675
0.032857895 0.0335171 0.17616805
0.040139079 -0.031395562 0.17687315
0.038142323 -0.033644084 0.17245531
0.042184532 -0.026562655 0.1712538
0.039136589 0.025827823 0.16903746
0.03929013 -0.033447508 0.16905573
0.042206287 -0.025788186 0.16692662
0.044036031 0.0157301 0.164226
0.04029566 0.023405669 0.16419408
0.043061972 -0.025517615 0.16255286
0.044907987 0.014966087 0.16078818
0.042304099 0.022421429 0.15938282
0.047920763 -0.015619395 0.15866476
0.046312809 0.014034266 0.15636992
0.043582499 0.021653382 0.15620393
0.048160732 -0.015655426 0.15377825
0.049229681 -0.0063759456 0.15406013
0.049955785 0.0043796585 0.15340787
0.04788655 0.013210149 0.15241247
0.049161851 -0.010911273 0.14975476
0.049517751 -0.0018119827 0.14884335
0.050164342 0.0087665636 0.14741883
0.017650248 -0.048073329 0.20691335
0.017212452 -0.045566965 0.20592302
0.018414201 -0.047776863 0.20344922
0.020110907 -0.045662001 0.20315796
0.026776971 -0.044618804 0.19270474
0.023651121 0.041990552 0.1863378
0.023704348 0.043554187 0.18720078
0.028432908 -0.043325022 0.18821558
0.026105402 0.037121657 0.18265131
0.024308978 0.040032629 0.18356374
0.027861955 -0.043620348 0.18420979
0.031106116 -0.041954905 0.18436423
0.028425632 0.036602806 0.17902932
0.025675414 0.039108802 0.17800337
0.031826556 -0.039299589 0.17735368
0.033869147 -0.036063083 0.17851549
0.030134497 0.035934865 0.17428458
0.027371226 0.039719138 0.17476556
0.032113016 -0.038328264 0.17426366
0.034523368 -0.035662852 0.1748749
0.031940877 0.034773454 0.17022139
0.029920457 0.041268002 0.16926563
0.03338176 -0.038186423 0.16999909
0.035783947 -0.035937037 0.17017832
0.033526063 0.03361626 0.16600546
0.040308535 -0.031354215 0.1650039
0.037456453 0.030037882 0.16254666
0.038391888 -0.033853129 0.16290602
0.042307138 -0.027211806 0.16026431
0.038544297 0.028791072 0.15737516
0.042402387 -0.026222879 0.1561572
0.044575274 0.019201944 0.15328091
0.040450931 0.026939208 0.15229124
0.04532218 -0.021658288 0.15191165
0.045028031 0.018301057 0.14989734
0.045390427 -0.020670116 0.14726371
0.048884213 -0.011741167 0.14706662
0.049387872 -0.00054133841 0.14639544
0.045046389 0.017517952 0.14506269
0.04802531 -0.011591716 0.14220437
0.049627125 -0.0022495778 0.14288321
0.049583018 0.0085854959 0.14231309
0.049031436 -0.0067220866 0.13842303
0.049164176 0.002641706 0.13771462
0.048915267 0.01151078 0.13695955
0.020017805 -0.048260394 0.1886791
0.019995751 -0.046700463 0.18858573
0.019904198 -0.048401132 0.18677875
0.021019282 -0.045795634 0.18611783
0.022395609 0.041428603 0.1807034
0.020940004 0.044213083 0.1805014
0.023543598 -0.04563655 0.1797218
0.02428448 0.040742356 0.17795438
0.022508441 0.044043217 0.17671973
0.024302425 -0.047270142 0.17844129
0.027928887 0.040146243 0.1720311
0.02604395 0.043430772 0.17237154
0.030188741 -0.040178098 0.17263603
0.030777989 0.036510933 0.16729093
0.029494939 0.039262976 0.16789806
0.029301343 0.043730699 0.16834044
0.030888679 -0.044792756 0.16588834
0.031463683 -0.039580148 0.16740671
0.031450033 0.035768103 0.16368723
0.029428838 0.039615378 0.16345724
0.03060144 0.043202147 0.16436064
0.033229947 -0.038623527 0.16340169
0.035127938 -0.036996111 0.16366112
0.032890677 0.034846388 0.15924355
0.038069546 -0.032551318 0.15888789
0.033886731 0.034485094 0.15455145
0.039112389 -0.031452186 0.15472549
0.038477123 0.029884255 0.15134928
0.039749026 -0.031304356 0.15011305
0.042409956 0.023991318 0.14653349
0.038119793 0.031304784 0.14537784
0.044501603 -0.022684159 0.14479509
0.043110132 0.0228082 0.1426788
0.044897914 -0.022032743 0.14066532
0.047153771 0.013951791 0.13841909
0.043694139 0.022624506 0.13741255
0.045116484 -0.022029148 0.13684207
0.048177898 -0.011869336 0.13663703
0.049675941 -0.0025854183 0.1353586
0.04952383 0.0075188824 0.13474733
0.046163082 0.017725 0.13371411
0.047717571 -0.015196491 0.13265395
0.049892128 -0.0072871982 0.13155288
0.050415516 0.0026068038 0.13068122
0.048620403 0.01247534 0.129816
0.050054014 -0.0073601655 0.12669307
0.051636517 0.0019415863 0.12529117
0.050899565 0.01101785 0.12506586
0.05171138 -0.0024470738 0.12152028
0.051557541 0.0045873658 0.12105882
0.018900217 -0.049465425 0.18343821
0.019726159 -0.04650357 0.18411478
0.020204665 -0.049929328 0.17997187
0.020980479 -0.046620943 0.18035808
0.022636117 -0.048971012 0.17745921
0.026217582 -0.04150328 0.17010432
0.026002707 -0.04419018 0.16542554
0.027130963 -0.04175099 0.16604811
0.027983246 0.039617538 0.15969938
0.027639149 0.042762585 0.15931198
0.028021695 -0.044052325 0.16269416
0.02888632 -0.041279726 0.16062599
0.027675269 0.039555646 0.1559785
0.027653931 0.043069601 0.15508375
0.031499207 -0.039049946 0.15756863
0.032713771 -0.037019022 0.15609294
0.030368267 0.03774526 0.15200192
0.0338099 -0.035921961 0.15238309
0.03445822 0.035369433 0.14925385
0.032277763 0.03713917 0.14719531
0.034989953 -0.035500214 0.14786962
0.035225809 0.033379532 0.14420915
0.032684445 0.035869058 0.14422092
0.038008153 -0.031921435 0.1437141
0.040516436 0.029055582 0.13863844
0.038356423 -0.03061772 0.1391257
0.040990829 0.027814711 0.13495201
0.042501211 -0.027543435 0.13355669
0.045085609 -0.019891778 0.13288981
0.041783452 0.026184646 0.13141158
0.044492543 -0.023268236 0.12878221
0.047592759 -0.013832651 0.12866145
0.045562625 0.017730935 0.12729353
0.044860065 -0.021891357 0.12512535
0.047920525 -0.012448832 0.12498331
0.047876775 0.013409829 0.12367398
0.047421873 -0.015851082 0.11994588
0.050154865 -0.0081682038 0.12039608
0.051223576 0.0013759028 0.11903417
0.048422873 0.011918614 0.11900109
0.049597561 -0.0078793336 0.1155495
0.050243318 0.00070479361 0.11509514
0.048962831 0.009917995 0.1149745
0.022880079 -0.043318875 0.16801235
0.022363486 -0.043485098 0.16580644
0.027286174 -0.043820474 0.15873852
0.026893375 0.039542004 0.15333605
0.0263173 -0.044087 0.15526316
0.028239431 -0.040914878 0.15450892
0.02762234 0.03983267 0.15050632
0.026765225 0.041847024 0.15029734
0.028882863 -0.040030457 0.14968187
0.03123367 -0.037987307 0.14976841
0.027621625 0.039306417 0.14436316
0.032960236 -0.0373898 0.14617771
0.033417523 0.034180056 0.14100984
0.030453561 0.037224408 0.14070255
0.034338415 -0.036086317 0.14134586
0.033985734 0.034067564 0.13759506
0.03119242 0.036303576 0.13680017
0.031878348 0.044002153 0.13514027
0.030940412 0.045260753 0.13585752
0.035297811 -0.035595816 0.13624081
0.034847021 0.032961428 0.13289157
0.041894734 -0.029472472 0.13105214
0.034908414 0.030640321 0.1288166
0.042850494 -0.028635131 0.12720549
0.040337563 0.026309812 0.1242618
0.042608142 -0.02786026 0.12246746
0.045489252 -0.019939799 0.12226671
0.043598235 0.022101888 0.12008351
0.04394877 -0.023466324 0.11821836
0.048242509 -0.014396243 0.11757457
0.04550457 0.017161215 0.11591548
0.046153307 -0.016709438 0.11351663
0.049836576 -0.008705318 0.11313993
0.049965978 0.0021929948 0.11286539
0.048129141 0.011725662 0.1119169
0.048125565 -0.012192307 0.10891193
0.049524307 -0.0037891024 0.10825783
0.049760163 0.0056847786 0.10797375
0.047367752 0.013655281 0.10772073
0.050166726 0.00075073761 0.10361546
0.021631183 -0.042980306 0.15013167
0.020831404 0.042895112 0.14527446
0.023166658 -0.044651017 0.1483914
0.025146605 -0.042613037 0.14820695
0.021513281 0.04121653 0.14295301
0.026786091 -0.041632183 0.14433977
0.029355707 -0.038484804 0.14276782
0.028744278 0.039114747 0.13846356
0.026378093 0.042276572 0.1383206
0.026714919 0.045545701 0.13673043
0.029882254 -0.038230158 0.13832125
0.030022619 0.037887961 0.13397861
0.029169975 0.041370574 0.1338464
0.031622171 -0.038035251 0.1341368
0.032665312 0.033927631 0.12898016
0.029862581 0.036959533 0.12992668
0.030344484 0.043193791 0.12928033
0.033255816 -0.036092527 0.1290102
0.033083558 0.032426421 0.12524062
0.037643135 0.028775005 0.12314582
0.039123893 -0.032654256 0.12104523
0.039579391 0.028156599 0.11827874
0.039273381 -0.031962305 0.1166243
0.043370128 -0.024354002 0.11519271
0.040459454 0.026990531 0.11337465
0.041809559 -0.027335545 0.11338627
0.044640481 -0.019095343 0.11093998
0.042085707 0.021008724 0.10826749
0.043156147 -0.022828134 0.1082778
0.047699928 -0.013886735 0.10670376
0.043745339 0.019208265 0.10370195
0.047846258 -0.01361539 0.10153717
0.049771845 -0.004415588 0.10139239
0.050041497 0.005793367 0.10080582
0.04661417 0.01453135 0.099493265
0.048810422 -0.0087287575 0.097288907
0.050234973 0.00046249511 0.09675914
0.049177945 0.010022825 0.096461058
0.05041182 -0.00049648772 0.092968166
0.02158344 -0.045768574 0.14448452
0.019257007 0.042865455 0.13892683
0.019489286 0.049229771 0.13828495
0.02311659 -0.045545384 0.14119455
0.023779335 -0.04279723 0.14006954
0.021318374 0.044314306 0.13786313
0.020287154 0.047013011 0.13637421
0.024015488 -0.045306452 0.13842702
0.024640741 -0.041927896 0.13731319
0.028552415 -0.038975067 0.13549104
0.026748242 -0.040951185 0.13043103
0.029512407 -0.039284315 0.13037175
0.028940259 0.037652601 0.12662143
0.028236924 0.041295793 0.12739402
0.028454008 -0.041211925 0.12581098
0.031005563 -0.038634785 0.12751824
0.029777823 0.037124015 0.12287235
0.028131543 0.041479714 0.12309688
0.029585602 -0.04132238 0.12369794
0.032215953 -0.03791251 0.12274408
0.034058392 -0.034873132 0.12271357
0.03287971 0.03368498 0.11943644
0.030830799 0.036501165 0.11808616
0.028318224 0.0403345 0.11970925
0.033498228 -0.037613921 0.11754125
0.034766138 -0.035131119 0.11835188
0.032818913 0.035941988 0.11340439
0.034743428 -0.036977626 0.11449236
0.039511502 -0.030531662 0.11378759
0.033615232 0.035021521 0.11010277
0.039579034 -0.029380163 0.10959405
0.040487587 0.023422791 0.10694361
0.036981285 0.030898662 0.10571146
0.041735888 -0.02481438 0.10507059
0.042142332 0.021917561 0.10333604
0.037942946 0.02978758 0.10173911
0.044359028 -0.020486822 0.10088295
0.04572916 0.016541364 0.097434878
0.041537762 0.023731975 0.097227573
0.046759546 -0.014722306 0.095283091
0.04861784 0.0099139605 0.09304446
0.044490695 0.019385768 0.093346298
0.048351347 -0.0091862213 0.090016305
0.050105095 0.00041508893 0.090113699
0.048495412 0.009768011 0.08895731
0.046101213 0.017873032 0.089680374
0.049594045 -0.0044725235 0.085704923
0.049265444 0.0044766725 0.085008979
0.015943108 0.043868236 0.13901928
0.017263828 0.04696884 0.13783681
0.020000519 -0.048697457 0.13774025
0.018616317 0.047630202 0.13486797
0.019689979 -0.047357269 0.1339556
0.023828747 -0.042379651 0.13427341
0.024076166 -0.042128131 0.12989157
0.02601886 -0.042598397 0.12608755
0.027022241 0.04363206 0.1205675
0.025598345 0.045321874 0.12043935
0.028023424 -0.043585576 0.12141842
0.029737411 0.038570862 0.11592764
0.026828168 0.042160653 0.11633426
0.025254844 0.045268264 0.11626977
0.029793086 -0.042562168 0.11703187
0.031728566 -0.040076546 0.11734492
0.031139312 0.038428113 0.11303014
0.028861521 0.041301724 0.11248285
0.030854048 -0.042518448 0.11320096
0.033426702 -0.038796976 0.11162859
0.032483518 0.036832802 0.10769218
0.03000891 0.040626872 0.10754722
0.034561157 -0.037424944 0.10745293
0.035589635 0.032338325 0.10281038
0.03328526 0.035943087 0.10288388
0.031214474 0.039016005 0.10316771
0.039084911 -0.030771634 0.10309535
0.035488427 0.033558521 0.097698748
0.040314972 -0.029820459 0.098508477
0.040707469 0.025885073 0.09558636
0.041334808 -0.029124578 0.09365803
0.044129908 -0.021482041 0.093726695
0.041382432 0.024512975 0.090673864
0.041906238 -0.028704042 0.089660585
0.045002699 -0.020625276 0.089687765
0.046323955 0.016173003 0.086930275
0.041608989 0.02330053 0.08622098
0.045662463 -0.020657176 0.08474189
0.048557341 -0.010052228 0.084444821
0.048778594 0.0063463845 0.083321989
0.046684027 0.014433509 0.083273292
0.047544003 -0.01503225 0.079525769
0.04947859 -0.0050278078 0.080395639
0.049571574 0.0045932443 0.080004334
0.047389686 0.014222967 0.07778126
0.049387336 -0.0096551329 0.075983465
0.051251054 -0.00045633837 0.075275362
0.050049424 0.0091792028 0.074084461
0.052214503 -0.0002150252 0.07048887
0.050884187 0.0073842318 0.069758892
0.021342399 -0.044828661 0.12284839
0.025289534 0.04521307 0.11334318
0.026103141 -0.045126364 0.11643481
0.026544748 0.043449841 0.10940617
0.029077711 -0.042328935 0.10856569
0.029431997 0.041569516 0.10469264
0.027137456 0.043973096 0.10485899
0.030957581 -0.04002846 0.10587072
0.029555855 0.040186211 0.10047114
0.027876494 0.044256933 0.099410474
0.032656372 -0.038271591 0.10106814
0.033555806 -0.035570674 0.10121864
0.032224655 0.035992611 0.096595168
0.030307112 0.038140867 0.097540259
0.033598959 -0.03531611 0.096124768
0.034086525 0.034319043 0.092584848
0.038611174 -0.031345379 0.091244638
0.035134554 0.033362892 0.088743687
0.041514933 -0.027343353 0.085246265
0.037882149 0.029008744 0.08409518
0.042529106 -0.026181797 0.082750022
0.043170214 0.020873988 0.079148829
0.04171133 -0.025249103 0.079206765
0.046515584 -0.018031223 0.077623606
0.041838527 0.022421235 0.074957013
0.046107411 -0.016118865 0.072780192
0.046585143 0.014032127 0.071370363
0.042942345 0.022280263 0.071767509
0.049492776 -0.0055700573 0.068214595
0.051267982 0.0040489645 0.067167342
0.049092233 -0.0089990888 0.063940167
0.051022112 -0.00058715383 0.06431216
0.049501956 0.0083825458 0.062928796
0.024817226 0.04505739 0.10308307
0.026735546 -0.042698093 0.10383749
0.028146746 -0.041166566 0.10181421
0.028122244 0.04151037 0.097729206
0.027474402 0.043178666 0.098161161
0.030283334 -0.039649487 0.099338889
0.028268335 0.040000811 0.093645215
0.028215883 0.043443665 0.093185425
0.030729176 -0.038834646 0.094938993
0.032460749 -0.036698844 0.093806803
0.031588256 0.03627307 0.089562953
0.028929649 0.039016102 0.089206159
0.02735251 0.043826293 0.088977873
0.033025324 -0.035975404 0.089555562
0.032831132 0.034806672 0.085136712
0.037208021 -0.03174695 0.084768772
0.034194112 0.034301195 0.080537856
0.039027393 0.025315022 0.077328265
0.035572171 0.032900453 0.076085806
0.03975594 0.024894798 0.073166251
0.040984511 -0.025392378 0.071808219
0.044569135 -0.018372273 0.070956051
0.044387579 0.020513682 0.068929195
0.039663434 0.027192833 0.067851484
0.045600116 -0.016954904 0.066934645
0.045776069 0.013853328 0.065250278
0.042995751 0.022699868 0.063984334
0.045958221 -0.017219236 0.061736882
0.049046874 -0.0067332047 0.060180545
0.049561083 0.0046030586 0.059548497
0.046307564 0.013675058 0.060539186
0.044060647 0.021895928 0.060354352
0.048066139 -0.012568312 0.057047665
0.049248159 -0.0012052653 0.056456864
0.049423397 0.0085417312 0.056136906
0.048926175 -0.00052611314 0.053034186
0.049034059 0.0084268805 0.052696466
0.021889271 -0.044625398 0.10131162
0.023444893 -0.043648593 0.096879125
0.025535109 -0.041549958 0.096839488
0.024959268 -0.043424286 0.09345752
0.027976455 -0.040541783 0.09257859
0.027336 0.040531434 0.087101161
0.02592176 0.043858223 0.085853159
0.027842106 -0.039838172 0.086950481
0.031802177 -0.037182018 0.086226642
0.031057714 0.036133934 0.082067549
0.026685653 0.039668813 0.082915843
0.029288294 -0.03957561 0.083704412
0.032310188 -0.036176916 0.082495987
0.029622374 0.037775535 0.078828871
0.032485485 -0.03537691 0.078088701
0.034013867 0.034978256 0.074238181
0.030435978 0.037654463 0.075378776
0.03316015 -0.034574691 0.074885547
0.037709475 -0.028126517 0.072039545
0.034411371 0.03403043 0.069466174
0.038624346 -0.027086971 0.068606496
0.035283983 0.033084244 0.066088796
0.042424858 -0.02361797 0.064303935
0.038189054 0.028389664 0.061016679
0.043067992 -0.022451909 0.059331954
0.04407227 0.019327627 0.056338847
0.038782179 0.026965199 0.057832778
0.045660377 -0.018027334 0.054996312
0.044083059 0.01838267 0.052224457
0.046570837 -0.017608792 0.050031126
0.048172891 -0.0079674758 0.050664008
0.047959566 0.0029399695 0.048766315
0.0461694 0.013057122 0.048222721
0.048153222 -0.016442435 0.044758499
0.048939407 -0.0082322396 0.045039654
0.048036039 0.0019064157 0.043992579
0.046933949 0.012536688 0.043736339
0.049323082 -0.008412784 0.041164875
0.019176723 -0.048798434 0.099087358
0.019290926 -0.04646406 0.099462807
0.020507278 -0.04595647 0.094267905
0.021778287 -0.044619583 0.089054108
0.024779083 -0.042063572 0.089185238
0.023616375 -0.044505201 0.083806574
0.025089027 -0.042304765 0.085350811
0.025522469 0.040487662 0.079592764
0.023977933 0.044697851 0.08023566
0.025475265 -0.044700444 0.080123782
0.027610602 -0.041466556 0.08043617
0.025375901 0.040583383 0.075780928
0.024257956 0.044048954 0.075699806
0.028674366 -0.039924379 0.076223791
0.030794384 -0.037756648 0.077278197
0.030223785 0.037596453 0.072133005
0.031493425 -0.036174789 0.071569145
0.030552087 0.037471961 0.067242205
0.03190285 -0.035618819 0.067034602
0.033662319 0.034466621 0.062986076
0.030830918 0.037371423 0.063327968
0.037937045 -0.028114667 0.062568009
0.034978807 0.032524228 0.059128702
0.040088475 0.025182443 0.054830968
0.036346853 0.030207595 0.051487386
0.043286502 -0.024194838 0.053601027
0.039894283 0.027534427 0.050374389
0.045768797 0.014822057 0.045438707
0.042826414 0.023190556 0.046748102
0.043183804 -0.021946786 0.044294178
0.048371136 -0.0017866937 0.04213959
0.045225501 0.017842775 0.042989314
0.041882575 0.024734801 0.041660249
0.049348414 -0.012848886 0.039989114
0.048785985 -0.0035519504 0.039412796
0.050269902 0.0057870955 0.037609577
0.046920598 0.016178207 0.037920475
0.049751222 -0.017728243 0.035624027
0.049333453 -0.0089623239 0.034235835
0.049267411 0.0011622554 0.034304678
0.049030483 0.01063084 0.034181237
0.051074803 -0.013778815 0.032341838
0.049513996 0.0026416949 0.030192673
0.018789949 -0.047050238 0.090982258
0.019592287 -0.046711605 0.087485492
0.020466628 -0.046835408 0.083646357
0.02296895 -0.046857107 0.079823434
0.0240674 0.039601948 0.072335005
0.023477552 0.042944167 0.072740972
0.025385024 -0.044666961 0.074374318
0.026401939 -0.042180289 0.074021876
0.024821578 0.040061813 0.070150256
0.024688004 0.042795602 0.068877518
0.02363777 0.046160087 0.068574667
0.024698677 -0.044923365 0.070731997
0.026732268 -0.041182153 0.070088029
0.028873028 -0.038334966 0.068541467
0.026783822 0.039293945 0.065182865
0.026147066 0.04284367 0.065281093
0.025601326 0.045969456 0.064954937
0.027506651 -0.040213574 0.065453768
0.030358793 -0.037317444 0.064483404
0.029183207 0.038217623 0.059877038
0.026446579 0.04212663 0.061132967
0.03096527 -0.036843337 0.060773432
0.032751501 0.033796173 0.055681765
0.03004962 0.037261419 0.056099057
0.032081008 -0.035707723 0.056388676
0.036689281 -0.029125018 0.054625511
0.031099377 0.035458699 0.052150786
0.037831724 -0.028663611 0.050929368
0.036294162 -0.031754848 0.047398388
0.041129112 -0.024641832 0.045495808
0.037328422 0.031595312 0.042763233
0.042348683 -0.023748295 0.041551471
0.040733695 0.026363054 0.0388394
0.041402817 -0.02780976 0.038101017
0.045467198 -0.020106429 0.03733319
0.043038726 0.02118264 0.034689009
0.04517138 -0.020338377 0.032825291
0.047521412 -0.00059418357 0.03073436
0.045728385 0.015984768 0.03051573
0.050008833 -0.012268104 0.029198349
0.048056543 -0.0040661837 0.027087986
0.049065113 0.0058126696 0.026438653
0.045572996 0.016279483 0.026621401
0.04798919 -0.0025942342 0.022662461
0.049074829 0.0056518079 0.022159934
0.020362316 0.044727314 0.069178164
0.023941936 -0.045117982 0.06805712
0.024688425 -0.042938434 0.067154825
0.025167348 -0.042075586 0.063142478
0.025275169 0.042873215 0.057331145
0.023711739 0.045958959 0.057179749
0.027320685 -0.040687669 0.057990611
0.029342355 -0.038950007 0.058504581
0.028590141 0.038936771 0.053079545
0.025532125 0.041196991 0.053104877
0.027398886 -0.040946916 0.053852141
0.030160965 -0.038052283 0.053568482
0.028955696 0.037452772 0.04924041
0.031668007 -0.036819782 0.049139023
0.033924103 -0.034498755 0.048367739
0.031326592 0.03611606 0.04492563
0.032224119 -0.036398247 0.04491508
0.0333547 0.03547141 0.039758921
0.036473036 0.03181497 0.036296368
0.033592463 0.034962792 0.036258221
0.041249096 -0.029594975 0.035921395
0.038050652 0.030806417 0.031409323
0.0421592 -0.023291944 0.031953335
0.042010248 0.025815373 0.029564261
0.045174122 0.015783595 0.023608983
0.040518343 0.024290843 0.023425519
0.04649204 -0.0046689194 0.020134389
0.046853244 0.011447294 0.019911051
0.044821739 0.019038511 0.020988822
0.047753155 0.0054825116 0.01666826
0.02104372 -0.045478672 0.063669682
0.019555928 -0.045731544 0.060386539
0.023093464 -0.043160789 0.059948444
0.023186149 -0.043551832 0.056457639
0.022083877 0.043720726 0.050355434
0.021169661 0.046574291 0.050882697
0.025547447 -0.043030817 0.052435458
0.027496336 0.038851235 0.045854926
0.023651717 0.041605964 0.04679805
0.02740288 -0.042794496 0.047849715
0.02973366 -0.039086521 0.047215819
0.028492032 0.038743962 0.043503284
0.025945244 0.040950269 0.04181391
0.028644087 -0.042301878 0.042624533
0.031075062 -0.038457144 0.042833447
0.029050646 0.037934992 0.038261652
0.027239619 0.040401071 0.039188564
0.032251716 -0.038454629 0.038634658
0.034929872 -0.035129275 0.037540615
0.031665206 0.037026521 0.034098685
0.029839752 0.040096454 0.031760156
0.033371449 -0.038447898 0.033866882
0.034050584 0.033133309 0.030315042
0.03267014 0.034851901 0.029051483
0.039269805 -0.02387411 0.028933823
0.043449342 0.018991811 0.017612696
0.04452455 0.00041175642 0.012929499
0.044196129 0.013845606 0.014178932
0.018310549 -0.045966454 0.057284474
0.01937473 -0.046161149 0.053914428
0.020274995 0.046026506 0.048066676
0.021265687 -0.046291459 0.051209688
0.023953678 -0.044681314 0.049081266
0.021339415 0.043795083 0.044263542
0.021063505 0.046750806 0.044426382
0.022889553 0.043369666 0.040124595
0.022269605 0.045759577 0.040137827
0.02825469 -0.04349941 0.039787471
0.025084911 0.041852295 0.035177052
0.029127182 -0.042672064 0.036619246
0.030969502 -0.040350001 0.035492241
0.028761385 0.038444933 0.029847622
0.027415155 0.040266007 0.032920539
0.030382572 0.036658488 0.029160798
0.041910648 0.010436291 0.010112107
0.039507091 0.010402868 0.0068604946
