# .PCD v0.7 - Point Cloud Data file format
VERSION 0.7
FIELDS x y z
SIZE 4 4 4
TYPE F F F
COUNT 1 1 1
WIDTH 1253
HEIGHT 1
VIEWPOINT 0 0 0 1 0 0 0
POINTS 1253
DATA ascii
0.0066970629 -0.020845396 0.34708956
0.013317422 -0.013628745 0.34504434
0.018538412 -0.0063845376 0.34414709
0.0090144472 -0.022918701 0.343885
0.015057881 -0.015175317 0.3423171
0.019930134 -0.007274223 0.34197962
0.0096422061 -0.023818176 0.33939973
0.01489578 -0.015956724 0.33846039
-0.0023361128 -0.01969699 0.34715232
0.0046503358 -0.011355689 0.3484799
0.012052144 -0.0053279521 0.34853458
-0.0018720999 -0.024400685 0.34417862
-4.3529086e-05 -0.021793496 0.34616712
0.0075006839 -0.013687296 0.34730649
0.014538737 -0.0072891996 0.34575117
-0.0021772878 -0.026121166 0.34101936
0.017454505 -0.0096572982 0.33959195
-0.0011674976 -0.027531195 0.33672035
0.0079417415 -0.02316221 0.33588082
0.015016852 -0.014923595 0.33559513
0.019857705 -0.0066679195 0.3350693
-0.00051881466 -0.027632639 0.33327311
0.0081054708 -0.023308765 0.33219892
0.015301619 -0.015963167 0.33160079
0.021318311 -0.0059140329 0.33164704
0.012599433 -0.020318603 0.32790667
0.016442787 -0.033654306 0.30254674
0.023253415 -0.02664778 0.3025949
0.01510792 -0.037089601 0.29986674
0.021559913 -0.031832304 0.30022556
0.028757468 -0.024868075 0.29977188
0.034758657 -0.017816417 0.29734313
0.019231958 -0.037092246 0.29617056
0.027178146 -0.030622799 0.29671159
0.033794187 -0.023107091 0.29587525
0.038419846 -0.016913738 0.29302755
0.020925313 -0.03871762 0.29184464
0.029117646 -0.032872189 0.29261208
0.035601538 -0.025238365 0.29168484
0.039875753 -0.018430198 0.28959423
0.02250356 -0.04099749 0.2877968
0.030712178 -0.034788068 0.28828272
0.037120074 -0.027081544 0.28729853
0.042470444 -0.01904406 0.28512412
0.020091433 -0.045862231 0.28285483
0.027932776 -0.039433308 0.28363127
0.035451777 -0.03279788 0.28342065
0.041825909 -0.025042001 0.28239954
0.018370647 -0.04946192 0.27971092
0.025121247 -0.044130407 0.27816746
0.033147741 -0.03789347 0.2790941
0.040112458 -0.030724002 0.27849418
0.045632724 -0.022802796 0.27631509
0.02668583 -0.046016891 0.27380037
0.034595206 -0.039668217 0.27465647
0.040881082 -0.031824 0.2735554
0.046210833 -0.025250666 0.27238536
0.028026223 -0.047633775 0.27005723
0.035547294 -0.040967524 0.26985314
0.04204477 -0.033315901 0.26889619
0.046759337 -0.026803097 0.26942772
0.028730275 -0.048534088 0.26742417
0.036226045 -0.041485745 0.26640612
0.042124223 -0.034965564 0.26581979
0.00011199061 -0.012909194 0.3486532
-0.0055943429 -0.025119461 0.34042323
-0.001751855 -0.026626082 0.33106911
0.016454916 -0.0098852618 0.32823223
0.0033705151 -0.023811083 0.32554382
0.010454402 -0.020435698 0.32479221
0.015742365 -0.010971993 0.32413185
0.0064612939 -0.021890385 0.32164732
0.013431746 -0.016122887 0.31981024
0.013746036 -0.022249563 0.31025758
0.019482426 -0.016609859 0.30922666
0.011488855 -0.02845953 0.30631757
0.018190866 -0.021858247 0.30664083
0.024955062 -0.014743729 0.30547589
0.007034611 -0.036617722 0.30166173
0.013614423 -0.030757017 0.30381462
0.02081996 -0.023933923 0.3040058
0.027958719 -0.017482156 0.30249444
0.032711215 -0.009968536 0.29963601
0.011798625 -0.037643086 0.29967996
0.035926826 -0.011759549 0.29701394
0.0088677891 -0.041031383 0.29429406
0.038464502 -0.013594358 0.29340181
0.008015234 -0.045352284 0.28900599
0.014911336 -0.042369097 0.2907474
0.042136483 -0.011497064 0.28762636
0.0089462437 -0.047870912 0.28571966
0.01658766 -0.043382078 0.28771603
0.044089146 -0.013792384 0.28351176
0.01056372 -0.050207313 0.28134888
0.044876404 -0.01900667 0.28018853
0.047435589 -0.012354856 0.27837616
0.016626695 -0.050359905 0.27756467
0.047121927 -0.017478742 0.27466241
0.013414832 -0.053072415 0.27245244
0.020718884 -0.050319035 0.27275282
0.047989644 -0.018652527 0.26974893
0.014952226 -0.053051963 0.26949781
0.021074034 -0.050516941 0.26848596
0.047047064 -0.024745032 0.26672727
0.019507935 -0.051751509 0.26560703
0.027956661 -0.048057374 0.26369938
0.035374686 -0.041556209 0.26307032
0.041783523 -0.034111906 0.26276514
0.046888679 -0.025552735 0.26197296
0.02445776 -0.050607465 0.25962627
0.030723449 -0.044834469 0.25859267
0.038373899 -0.038466882 0.25836688
0.044755489 -0.030284615 0.25760344
0.031994276 -0.044548951 0.25542098
0.038321041 -0.038626879 0.25512871
-0.0040305266 -0.02392957 0.32488215
-0.00064055901 -0.023314297 0.32321492
0.0018231645 -0.022408912 0.31900296
0.015591178 -0.01034498 0.31783071
0.0031857016 -0.023972463 0.31107238
0.010076571 -0.020286608 0.31484714
0.015668776 -0.011608243 0.31333762
0.0037283078 -0.026763251 0.30836275
0.011194832 -0.02239823 0.31064504
0.018331237 -0.01393681 0.31038606
0.024365319 -0.0064365249 0.30600646
0.0053849155 -0.030351229 0.30639589
0.011913521 -0.024716558 0.30745965
0.027103078 -0.0087807477 0.30468479
0.00045937486 -0.036789253 0.30090821
0.0060404828 -0.033423297 0.30417114
0.031782214 -0.006153658 0.30008107
0.0016606618 -0.040120773 0.29702342
0.037135042 -0.0050497409 0.29539922
-0.00064601377 -0.044197109 0.29179436
0.039657708 -0.0065022781 0.29216981
0.00059927814 -0.046702296 0.28829628
0.043466397 -0.004817538 0.28526607
0.0024264827 -0.049405288 0.28425902
0.046219926 -0.0066476464 0.28139535
0.0038448945 -0.051552586 0.27988121
0.047966667 -0.0087355096 0.27711254
0.0057524964 -0.052778602 0.27529502
0.048831575 -0.010254426 0.27204669
0.0067327395 -0.053929724 0.27069673
0.049283594 -0.012433549 0.26749673
0.011858312 -0.053606026 0.26689586
0.049432952 -0.018388662 0.26360315
0.05022826 -0.010738084 0.2631712
0.017411543 -0.052194819 0.26238713
0.047588177 -0.024061209 0.25877914
0.050405502 -0.016463503 0.25902957
0.017848011 -0.05260795 0.25737619
0.026910335 -0.047574356 0.25656512
0.041848559 -0.032891791 0.25557446
0.047827333 -0.025526978 0.25578052
0.050353613 -0.016973447 0.25455138
0.022917097 -0.050612293 0.25347358
0.030652046 -0.045640491 0.25270721
0.038357858 -0.038875144 0.25194559
0.044424471 -0.030597929 0.25137314
0.049226768 -0.021971731 0.25103685
0.029879222 -0.045460127 0.24776426
0.037765346 -0.038620591 0.24664173
0.043037653 -0.031497784 0.24711591
-0.0049754456 -0.023380637 0.32050908
-0.0036516301 -0.02262513 0.32060322
-0.0058630379 -0.023705989 0.31610715
-0.0020857593 -0.022676349 0.31689435
-0.0046175802 -0.025479343 0.31182143
0.017766047 -0.0055488306 0.31130943
0.021312004 0.0010649115 0.30724776
-0.0061457595 -0.030235548 0.30643111
-0.0026288852 -0.028750237 0.30796051
0.022348419 -0.0042660516 0.30704519
0.026252933 0.0027446868 0.30377489
-0.0073537705 -0.036941953 0.30156699
-0.0045894766 -0.034061756 0.30364937
-0.0012610359 -0.031620674 0.30565757
0.030175228 0.0021586157 0.30079111
0.032173011 0.0050246241 0.29769614
-0.0068263821 -0.038673554 0.29914406
-0.0029001255 -0.037258402 0.30030891
0.03508867 0.0026032291 0.29602447
0.035703853 0.0063902969 0.29339546
-0.0053735152 -0.041369874 0.29574642
-0.0019507613 -0.039781436 0.29724547
0.03749866 0.0014054459 0.29288366
0.037679695 0.004996581 0.29095069
-0.0062842201 -0.045179777 0.28882545
-0.0035259705 -0.044134207 0.29196808
0.040365387 0.0027603693 0.28694618
-0.0056494698 -0.047701318 0.28620017
-0.0020108689 -0.047296137 0.28771508
0.04345775 0.0020747706 0.28301477
-0.0038711764 -0.050050635 0.28252009
-0.00032705255 -0.04929208 0.28334355
0.045614488 0.00033309497 0.27847621
0.045322679 0.00383568 0.27674335
-0.0022935793 -0.051953945 0.27806476
0.04677552 0.0020671561 0.27244806
-0.0011138637 -0.053315513 0.27348563
0.048836231 -0.0035614874 0.26962954
0.0017467979 -0.054601513 0.26897833
0.050141059 -0.0056466181 0.26492846
0.0058242306 -0.054757647 0.26547638
0.0069049224 -0.056028076 0.26081964
0.050164007 -0.013063431 0.25752342
0.0082904547 -0.056765899 0.25591403
0.015820023 -0.053127836 0.25502181
0.051205534 -0.011751909 0.2519457
0.012893179 -0.055176258 0.25114846
0.021593889 -0.050690986 0.24993435
0.050678797 -0.0169148 0.24799547
0.017844861 -0.053241447 0.24602994
0.026649471 -0.048140701 0.2459268
0.04195049 -0.033681858 0.24433929
0.047360122 -0.026689446 0.24458605
0.050771177 -0.018619306 0.24431214
0.026859384 -0.048712861 0.24122864
0.034191974 -0.042622678 0.24124259
0.041386906 -0.035417799 0.24071267
0.047287401 -0.027748656 0.23991704
0.029847786 -0.045826882 0.23684993
0.038295537 -0.039888464 0.23566917
0.044881865 -0.031999379 0.23544815
0.038236216 -0.040046833 0.23233974
-0.011483546 -0.023961712 0.31179076
-0.009221185 -0.023838133 0.31476262
-0.010953307 -0.02596062 0.3087928
-0.0077058487 -0.025621884 0.31101638
0.018857051 0.0016075252 0.30877003
0.020708006 0.0038417643 0.30742836
0.022784049 0.0079461671 0.30521637
-0.013560584 -0.030834133 0.30400568
-0.010449754 -0.029031878 0.30605143
0.02355404 0.0028651636 0.30563667
0.025131397 0.0072507644 0.30326855
0.027500389 0.011319878 0.30131769
-0.011817452 -0.034502573 0.30139783
-0.0092062224 -0.032296628 0.3036285
0.029928107 0.008786153 0.2985757
0.030834146 0.011893269 0.29802945
-0.013589469 -0.037644953 0.29596597
-0.011579843 -0.037387453 0.29727322
0.033430301 0.0068079056 0.29579878
0.034208417 0.0097377021 0.29300973
0.035704844 0.012807386 0.29101747
-0.014751949 -0.043159768 0.29035997
-0.01233448 -0.040998213 0.29222879
0.037845142 0.0085130418 0.28908244
0.037573941 0.011372929 0.28831536
-0.014534715 -0.045598626 0.28808764
-0.010710802 -0.044319879 0.28891695
0.04008444 0.0072131008 0.28508812
0.040228114 0.010576541 0.28312048
-0.013521548 -0.047748245 0.28399098
-0.0093493368 -0.046953008 0.28584957
0.044006009 0.0076248497 0.28084576
-0.011810673 -0.050281391 0.2798281
-0.007971039 -0.050346494 0.28134012
0.044699125 0.0069959033 0.27616754
0.045585655 0.010083847 0.2762982
-0.01055198 -0.052532852 0.27563626
-0.0064494535 -0.052203313 0.27682596
0.045892969 0.0043066759 0.27127606
-0.0090694856 -0.054358549 0.27107403
-0.0050017387 -0.053657494 0.27163118
0.047736466 0.0035057906 0.26642749
-0.0072791278 -0.054959349 0.26652905
-0.0033242274 -0.054057904 0.26706567
0.049500883 0.00085330196 0.26229921
0.051173739 0.0032971147 0.26020253
-0.0062887408 -0.056284342 0.26241919
-0.0020007323 -0.054978728 0.26276559
0.050083432 -0.00056477264 0.25833833
-0.0037406441 -0.056489617 0.25878829
-0.00054234453 -0.055533953 0.25781903
0.049951348 -0.0057433508 0.25494188
0.00089083053 -0.055820115 0.25300336
0.050769553 -0.0084504802 0.24964079
0.0061082486 -0.05634141 0.24887297
0.049981609 -0.013421154 0.24512711
0.0079427008 -0.056746729 0.24372533
0.015745718 -0.053963732 0.24450469
0.05008731 -0.015617184 0.24086717
0.0085030049 -0.057611741 0.24008432
0.016822306 -0.05338414 0.23958874
0.046984773 -0.025690552 0.2359488
0.049855892 -0.016542677 0.23690009
0.020157555 -0.050948143 0.23381802
0.02932382 -0.045516167 0.23397756
0.043902222 -0.031164434 0.23216969
0.046521921 -0.023301665 0.23131967
0.024993611 -0.048521444 0.22960123
0.033110674 -0.042624515 0.22970653
0.039652053 -0.03498226 0.22905567
0.045450468 -0.027253013 0.22783187
0.027159153 -0.04812666 0.22582626
0.03299642 -0.042959113 0.22519532
0.040021747 -0.035807341 0.22449854
-0.012605911 -0.0228057 0.31268156
-0.012302921 -0.025475245 0.30888832
-0.016162194 -0.030414067 0.30392516
-0.013543464 -0.028593175 0.30643132
-0.022948438 -0.037661314 0.29974058
-0.016916309 -0.034559738 0.29986304
-0.015512141 -0.033323567 0.30111581
0.029955607 0.012719654 0.29504851
-0.019492075 -0.038426712 0.29370004
-0.01675747 -0.037073601 0.29563498
0.03261226 0.012982704 0.29247889
0.034141935 0.015966194 0.29047215
-0.017816477 -0.041695617 0.29098654
-0.01511173 -0.039466709 0.29375416
0.037345551 0.013903475 0.28686598
-0.017740125 -0.045302816 0.28658617
0.039632749 0.014168466 0.28230873
-0.018600354 -0.04855825 0.28141093
-0.016785204 -0.047488004 0.28361732
0.042831894 0.013165402 0.27670518
-0.016990695 -0.051221859 0.27767763
-0.014816642 -0.050174475 0.27993271
0.04387667 0.0096563827 0.27263805
0.043973863 0.011724023 0.27185693
-0.016034525 -0.05342881 0.27401978
0.044624098 0.0086995605 0.26912799
0.044357181 0.0111646 0.2680653
-0.014404655 -0.054931968 0.26983279
0.045623198 0.0074995197 0.26661801
0.046592996 0.0085332971 0.26403296
-0.013702272 -0.055374376 0.26525274
-0.0095899813 -0.055662472 0.26529685
0.049060751 0.0067125261 0.25892732
-0.012849037 -0.055890072 0.26129374
-0.0092490595 -0.05643709 0.26072845
0.049925037 0.0023398139 0.25601417
0.04907275 0.0054650083 0.25526851
-0.006911533 -0.056270972 0.25621271
0.050337978 0.00084181689 0.25159588
-0.0047616027 -0.056243304 0.25162312
-0.0016205832 -0.056338064 0.25158545
-0.00058862939 -0.056578945 0.24649057
0.050536886 -0.0075859763 0.24337107
0.00058692135 -0.057297647 0.24197474
0.050433286 -0.0092459787 0.23818126
0.0061310697 -0.057563946 0.23834279
0.050289407 -0.014947757 0.23466229
0.010892924 -0.054771531 0.2334199
0.047722667 -0.020098351 0.23095319
0.016298991 -0.052403066 0.2290377
0.023324974 -0.050395004 0.22795439
0.048780046 -0.022431605 0.22651392
0.020326946 -0.050686363 0.22384903
0.029322285 -0.046905596 0.22224632
0.036920235 -0.038977131 0.22179949
0.043960676 -0.032054029 0.22199067
0.048988044 -0.023659378 0.22155979
0.02606754 -0.048269808 0.21888113
0.033069637 -0.043111969 0.21808064
0.0400653 -0.036538955 0.21777028
0.04629745 -0.028116938 0.21716246
0.029742919 -0.046306685 0.21480444
0.036596157 -0.039588064 0.21393847
0.042316664 -0.03378031 0.21391678
-0.023017447 -0.035273414 0.29762882
-0.020821096 -0.033880211 0.29849008
-0.023601091 -0.037793282 0.29329515
-0.020173786 -0.035566576 0.29570872
0.030603906 0.016235793 0.29150864
-0.023188313 -0.040187821 0.28916079
-0.024384856 -0.044565104 0.2834495
-0.021028958 -0.043818347 0.28625053
-0.022948362 -0.047342032 0.28068823
0.040967904 0.01732816 0.27285889
-0.021579877 -0.04987137 0.27644014
0.042053916 0.016031273 0.27038798
-0.02215714 -0.052515849 0.27022725
-0.020003907 -0.052057765 0.2740674
0.043305695 0.015598525 0.26596946
-0.022208044 -0.052642033 0.26859048
-0.017609138 -0.05490775 0.2676633
0.044899173 0.012564197 0.26185465
-0.015894886 -0.055620145 0.26295075
0.046127699 0.010336343 0.25842375
-0.014993008 -0.056443337 0.25890943
0.047197178 0.0096940678 0.25288808
-0.014123183 -0.056277025 0.25598136
-0.010677189 -0.055643998 0.25352898
0.048172794 0.006258769 0.24925566
-0.0080221649 -0.0558016 0.24944991
0.048697717 0.0010672268 0.24436197
0.048241962 0.0037700422 0.24389866
-0.0066371541 -0.05609791 0.24424684
-0.0043795295 -0.058216397 0.24032101
-0.0010121055 -0.057812992 0.24008888
-3.2885e-05 -0.057369202 0.23655468
0.048818991 -0.0079655442 0.23114181
0.0044308212 -0.055689298 0.23175687
0.048388764 -0.012459902 0.22801548
0.0050408691 -0.055550873 0.22676361
0.013745874 -0.052232906 0.22627288
0.049241446 -0.011464598 0.22186917
0.013947111 -0.052128103 0.22170264
0.021448765 -0.049199801 0.2198087
0.015109796 -0.052063089 0.21735951
0.02326493 -0.048928574 0.21654844
0.048244953 -0.023137055 0.21416786
0.019888196 -0.051875327 0.21201208
0.028768601 -0.0468565 0.21244404
0.036575515 -0.039717864 0.21164957
0.04279666 -0.031872887 0.21112797
0.047527745 -0.024020324 0.21024328
0.0280295 -0.046150468 0.20795378
0.036322922 -0.039970376 0.20685273
0.042470537 -0.032331184 0.20649227
0.046924893 -0.025027532 0.20640579
0.036343936 -0.040062059 0.20287377
0.04148782 -0.034614131 0.20352656
-0.026933901 -0.035433739 0.29532626
-0.027248485 -0.040210746 0.28547511
-0.025423568 -0.041930716 0.28502348
-0.027474785 -0.047037669 0.27638921
-0.026143882 -0.048578229 0.27323809
0.041399788 0.018921692 0.26821688
0.04176937 0.020701762 0.26680121
-0.025088143 -0.049802799 0.27071455
0.043498337 0.01869458 0.26480395
-0.02664526 -0.05509413 0.26476935
-0.023888309 -0.052545886 0.2646482
0.043901477 0.015856963 0.26020434
0.043996491 0.017965503 0.25938863
-0.021627665 -0.053976551 0.26092523
0.044846199 0.014660035 0.2559576
0.044416718 0.0162096 0.25433782
-0.020414563 -0.055502743 0.25689512
0.046989664 0.012095448 0.25098231
0.046543565 0.01525956 0.25003076
-0.020505372 -0.055768881 0.2535859
-0.016415304 -0.055045165 0.25177708
-0.012729255 -0.055036344 0.25087094
0.047345869 0.010142256 0.24620184
0.048165627 0.012857947 0.24598494
-0.015257267 -0.055178761 0.24664634
-0.012561716 -0.05506184 0.24711734
0.047337212 0.0080444645 0.24176863
0.048586123 0.011128867 0.24175087
-0.013586985 -0.057174496 0.24211031
-0.010880006 -0.056220993 0.2425698
0.048077136 0.0014845543 0.23716497
0.048069701 0.0059441794 0.23694828
-0.0089182686 -0.057775229 0.23833841
0.048589103 0.00021421723 0.23319757
0.049618743 0.0040562302 0.23232362
0.051225144 0.006722793 0.23174402
-0.0017106403 -0.056783423 0.23339361
0.051537018 0.0025911257 0.22835189
0.053887986 0.0051544253 0.2293902
0.048466839 -0.0060660392 0.22518304
0.051159941 0.0020871013 0.22514093
0.006622972 -0.054272056 0.2233291
0.049240418 -0.0041762441 0.21972129
0.048325539 -0.01288618 0.21697345
0.0091069005 -0.053373609 0.21518144
0.049168289 -0.016643589 0.21243176
0.014162922 -0.053320676 0.21015924
0.047587216 -0.022039121 0.2075876
0.015031969 -0.05237601 0.20655087
0.022814941 -0.0492968 0.20581141
0.030094009 -0.04419158 0.20523012
0.04551043 -0.02657349 0.20364943
0.049038861 -0.018685814 0.20336604
0.023621988 -0.049694981 0.20083347
0.030930649 -0.043436874 0.20057416
0.038699172 -0.036591113 0.19931677
0.044650272 -0.02844248 0.19921052
0.02478477 -0.04972538 0.19620079
0.031513948 -0.044148158 0.19610286
0.039245956 -0.037119411 0.19500571
0.044385999 -0.030245781 0.19437966
0.039397191 -0.037482452 0.19170022
-0.027092747 -0.051370598 0.26270005
0.043319374 0.02093628 0.25797209
-0.02838074 -0.054185402 0.25875831
-0.025984269 -0.053256314 0.25917873
0.043534826 0.019394796 0.25232214
-0.027479392 -0.055459421 0.25448236
-0.024948902 -0.05463849 0.25500062
0.044306915 0.018453617 0.2499955
-0.025052914 -0.053983778 0.2507174
-0.021461504 -0.053361021 0.24884158
0.047826584 0.015455108 0.24478102
-0.018602779 -0.054314561 0.24510682
0.048568301 0.012214117 0.23986089
0.048565507 0.010790048 0.23540846
0.049543373 0.010869676 0.23191437
0.053379141 0.0063640792 0.22579372
0.049657397 0.0031910036 0.22165969
0.051217519 0.0064549521 0.22321871
-0.00091215968 -0.052481357 0.22137523
0.04891713 0.0020912196 0.21821797
0.004119765 -0.053439762 0.21763691
0.048723266 -0.004038522 0.21350408
0.048150614 -0.0090349857 0.20954278
0.0073902514 -0.05323074 0.20829648
0.01293481 -0.052315757 0.20391312
0.049274515 -0.012732856 0.19996461
0.018195167 -0.052552447 0.19939408
0.046392288 -0.022423062 0.19739914
0.014832497 -0.053126849 0.19532269
0.023030244 -0.050691083 0.19411466
0.031034306 -0.043875903 0.19310838
0.045685776 -0.022703802 0.19188839
0.018940998 -0.052261546 0.19036826
0.027405603 -0.046621792 0.18959036
0.035460263 -0.041297242 0.18912387
0.042036351 -0.033626933 0.18890619
0.045489248 -0.024466429 0.1878503
0.035821151 -0.040939804 0.18515563
0.041042838 -0.033565681 0.18438452
0.036694326 -0.040446967 0.18069494
-0.024858728 -0.053370647 0.24853095
-0.02231605 -0.052987237 0.24496064
-0.0086135678 -0.050586518 0.22343615
-0.0048276857 -0.05059503 0.22427928
0.04847404 0.0071061514 0.21841684
0.049858183 0.0092149675 0.21938869
-0.0074054021 -0.051105358 0.21968597
-0.0044278949 -0.051335987 0.22039494
0.048871204 0.004734857 0.21490642
0.049594663 0.0095377099 0.2154083
-0.0065229107 -0.051916584 0.21546498
-0.0030664355 -0.052072767 0.21510658
0.049299218 0.0029971991 0.21031153
-0.0048562437 -0.053999215 0.21000397
-0.00086729974 -0.053458896 0.21131495
0.049267557 0.0012755319 0.20642859
-0.0029054694 -0.056246519 0.20561817
0.0037890915 -0.053710759 0.2065585
-0.0024402626 -0.057717625 0.20205185
0.0060425382 -0.053283788 0.20174748
0.049328424 -0.010415155 0.19688541
0.0072499588 -0.053360581 0.19736457
0.047796622 -0.015556917 0.19428152
0.04908397 -0.0080309939 0.1938605
0.012022611 -0.053015705 0.19253817
0.047163382 -0.017304687 0.18980998
0.012615141 -0.053338099 0.18823367
0.021955229 -0.049164623 0.18652675
0.046474732 -0.023148572 0.18559924
0.017508028 -0.052053489 0.18354878
0.026486542 -0.046421435 0.18349716
0.033015583 -0.041597907 0.18268564
0.041025639 -0.032733619 0.18153462
0.046747588 -0.024393762 0.1809842
0.023023754 -0.047597758 0.17898494
0.029764289 -0.043655775 0.17810443
0.038426928 -0.037297636 0.17865244
0.042972721 -0.029284425 0.17680126
0.03077908 -0.042774759 0.17447364
0.037312709 -0.036988981 0.17393515
-0.024238296 -0.055269837 0.22614288
-0.019923927 -0.0510353 0.22498351
-0.016817478 -0.050098568 0.2255393
-0.015736196 -0.046523459 0.22541291
-0.022257596 -0.055292718 0.22336915
-0.01777079 -0.050747074 0.22169405
-0.013318805 -0.049173214 0.22133511
-0.017070385 -0.052220352 0.21864602
-0.011069244 -0.050595567 0.21753496
0.048974551 0.0091888532 0.21239772
-0.012230735 -0.053345997 0.21037528
-0.0092734545 -0.052137304 0.2129367
0.048603278 0.0065859035 0.20725852
0.048802532 0.0086740162 0.20814738
-0.010594023 -0.05507496 0.20825621
-0.0078256801 -0.054443549 0.20904756
0.048819348 0.0033869836 0.20394412
-0.0089516435 -0.056975111 0.20444524
-0.005828606 -0.056648098 0.20553288
0.048331663 0.0011570361 0.19954374
-0.0052343607 -0.057650708 0.20089352
-0.00046171807 -0.054995775 0.19887659
0.0482153 -0.00020788796 0.19603354
0.0051706079 -0.053696908 0.19488493
0.048363656 -0.0060255863 0.19045004
0.0056703892 -0.053419493 0.1905404
0.048588511 -0.0072236098 0.1865347
0.011200914 -0.053434148 0.18516028
0.0078461897 -0.053798214 0.1828312
0.016100977 -0.051893186 0.18042326
0.049207311 -0.018572662 0.17810169
0.015600784 -0.050629698 0.17684618
0.025408298 -0.046418615 0.17624933
0.045658849 -0.023865245 0.17439461
0.048943568 -0.015482273 0.17401242
0.02515088 -0.045954138 0.17180085
0.032697301 -0.041021835 0.17150852
0.039723381 -0.032524072 0.17134815
0.044664443 -0.024240173 0.16997367
0.028956898 -0.043639615 0.16680622
0.036236774 -0.037148055 0.16596311
0.042417079 -0.029345093 0.16594407
0.031528614 -0.042119376 0.163495
-0.024502628 -0.04973451 0.22712779
-0.025255293 -0.053610846 0.22327259
-0.023447081 -0.051261976 0.22505724
-0.018351506 -0.046204675 0.2251893
-0.021099733 -0.051744118 0.22104326
-0.017872863 -0.048031881 0.21964964
-0.015477093 -0.047073491 0.22223344
-0.020310754 -0.051650226 0.21538952
-0.016708812 -0.050467931 0.21599925
-0.019525241 -0.053582508 0.21033585
-0.015733302 -0.052276559 0.21144173
0.046696354 0.010889739 0.20365039
-0.014484521 -0.054227483 0.20678607
0.046641476 0.0085718315 0.20112789
0.047421835 0.005289318 0.19759941
0.047315523 0.0076608192 0.1964449
-0.011250855 -0.055354245 0.19918233
0.047738675 0.0028870963 0.19347754
0.047891695 0.0069153495 0.19342905
-0.0061674118 -0.054166686 0.19526806
-0.0030347109 -0.054169964 0.19294199
0.047743939 0.0008041542 0.18876928
-0.00022886507 -0.053715661 0.18845874
0.048687711 -0.0011445303 0.18497536
0.0039564539 -0.053658456 0.18428996
0.048340075 -0.0066385493 0.18026224
0.0054249 -0.053851098 0.18000743
0.048461162 -0.010915317 0.17606959
0.0064974949 -0.053139366 0.17554373
0.014691919 -0.050927266 0.17413878
0.048204143 -0.012538485 0.17129475
0.011524951 -0.052612178 0.16966796
0.018931001 -0.049618065 0.17002115
0.046970755 -0.018972285 0.16744202
0.015165268 -0.051223181 0.16568404
0.024573863 -0.046547845 0.16574246
0.045038246 -0.024919704 0.16377515
0.02117778 -0.047846194 0.16120356
0.029181801 -0.04429128 0.16080311
0.036492351 -0.037327264 0.15982732
0.042889655 -0.029885987 0.15946656
0.047070436 -0.02183005 0.15881026
0.029056717 -0.044552166 0.15532675
0.035670206 -0.037526481 0.1547741
0.042366184 -0.029613636 0.15445465
-0.024732186 -0.050863229 0.21751815
-0.024038378 -0.051520903 0.21391875
-0.025684772 -0.05367896 0.208904
-0.022893671 -0.053241257 0.20941895
-0.018570863 -0.054324709 0.20478275
-0.017220091 -0.053543847 0.20405126
0.045155756 0.013358235 0.19796592
0.046357311 0.015652994 0.1959278
-0.018124944 -0.055134088 0.20083964
-0.015745379 -0.053980157 0.20070025
0.047551945 0.010806467 0.19506213
0.048255306 0.01498374 0.19337937
-0.01502952 -0.053235553 0.19576097
-0.011746863 -0.05325409 0.19437653
0.047090072 0.0054009408 0.19021752
0.047194488 0.009333808 0.19065011
-0.006031109 -0.052751392 0.18921599
0.046892475 0.0043286271 0.18612549
0.046662576 0.0080709811 0.18695736
-0.0053368676 -0.052899331 0.1855731
0.047743931 0.0011394676 0.18129116
-0.0035279375 -0.053700387 0.18161282
0.047938704 -2.8032809e-05 0.17729294
-0.00098075345 -0.054018769 0.17735681
0.048185814 -0.0042430088 0.1731689
0.00043505989 -0.054029286 0.17245305
0.047605507 -0.010521488 0.16787177
0.0048639327 -0.053119425 0.16764486
0.047732655 -0.011694822 0.16395941
0.01000187 -0.052675381 0.16328824
0.017148919 -0.049521744 0.16273323
0.048457757 -0.013313591 0.15982482
0.010724859 -0.052165739 0.15936771
0.018576454 -0.048827063 0.15889317
0.048700057 -0.015663238 0.15558356
0.019404152 -0.048863545 0.15428483
0.028559091 -0.04427404 0.15215781
0.035795011 -0.036704309 0.15184227
0.042228505 -0.029627316 0.1516057
0.046577409 -0.021007335 0.15206724
0.021016717 -0.047777139 0.15054056
0.027809136 -0.043542862 0.14791098
0.035495769 -0.037307512 0.14791289
0.042159781 -0.029811444 0.14699692
0.046112023 -0.022653257 0.14875445
0.035547815 -0.03819669 0.14348745
0.042630468 -0.03053469 0.14291155
-0.026813909 -0.052561335 0.20975563
0.045326624 0.016841594 0.1967749
-0.02070787 -0.053226441 0.19620273
-0.018319597 -0.053219631 0.19715241
0.046951365 0.017242473 0.19361287
-0.020757377 -0.053536162 0.19269195
-0.018113237 -0.05245078 0.19263211
0.046500884 0.011758225 0.18785825
0.047239773 0.014414204 0.18780223
-0.017361941 -0.052317105 0.18774432
-0.013238681 -0.050561063 0.18861634
0.045054514 0.0074152723 0.18297374
0.046680339 0.010553153 0.18372488
0.048056774 0.01335365 0.18317041
-0.016570741 -0.053268425 0.18451315
-0.012358189 -0.051542617 0.18419316
0.046180874 0.0060404669 0.17953372
0.047152624 0.0095841903 0.17912951
0.048540905 0.01271305 0.18001884
-0.010912608 -0.052678447 0.18010256
-0.0077712145 -0.052234203 0.17726144
0.04735921 0.0036246888 0.17442274
0.048500158 0.0077081621 0.17442799
0.050510928 0.010329304 0.17465442
-0.0043556597 -0.053551398 0.17476052
0.048288025 0.0017199721 0.17034435
0.049760461 0.0063286386 0.16893864
0.051439922 0.0091174915 0.16919091
-0.0031964947 -0.05338867 0.171022
0.048642226 -0.0001379475 0.1664125
0.050670054 0.005218979 0.16618156
0.052763157 0.0075264387 0.16592437
-0.00077878498 -0.053452231 0.16607973
0.049089339 -0.0053122938 0.162485
0.0027080886 -0.052421506 0.16187981
0.049261335 -0.0067718029 0.15733385
0.0083185919 -0.051899306 0.15627775
0.048974339 -0.012436822 0.15355375
0.0093609076 -0.052143991 0.15250561
0.016987303 -0.050229415 0.15186068
0.047677722 -0.014919538 0.14858508
0.014115741 -0.050606474 0.14823228
0.023045432 -0.046209682 0.14735889
0.047302291 -0.016193621 0.14398032
0.022876497 -0.045546804 0.14291692
0.031441674 -0.041884065 0.14142886
0.038050383 -0.033773243 0.13967609
0.044711553 -0.026027635 0.14197624
0.024046216 -0.045063484 0.13918421
0.031131171 -0.041269273 0.13763475
0.03712048 -0.033370543 0.13648778
0.044242863 -0.025556114 0.13600534
-0.021738855 -0.052712657 0.1919046
-0.020697622 -0.054115772 0.18750787
-0.019485496 -0.053020477 0.18839297
-0.020702604 -0.054465938 0.18400228
-0.016927114 -0.054156266 0.18295932
-0.016677745 -0.053887762 0.17827955
-0.012074139 -0.053012554 0.17721161
0.049465343 0.0090641323 0.17115131
0.05041866 0.010322172 0.1709322
-0.016021786 -0.0533574 0.17432603
-0.012377802 -0.052388649 0.17237371
-0.0092900507 -0.051257014 0.17243081
0.051470131 0.010632787 0.16875982
-0.011027606 -0.053075157 0.16776121
-0.0069367811 -0.051812299 0.167216
0.0484275 0.0029797964 0.16355562
0.049547639 0.0063660033 0.1627295
0.051993381 0.0082904734 0.16242021
-0.010875428 -0.054844201 0.16423827
-0.0052697305 -0.052400105 0.1639505
0.049425498 0.0011555552 0.15979624
0.049754456 0.005987905 0.15821105
0.052086737 0.0080504455 0.15791503
-0.0033129733 -0.052312307 0.16002747
-0.00010691024 -0.051879764 0.15872908
0.050283946 0.0046915077 0.15462291
0.052567199 0.0074122455 0.15470526
0.0054412 -0.051841088 0.15400779
0.049779736 -0.0015939828 0.15083635
0.0069565866 -0.052238241 0.14957353
0.049472734 -0.004252186 0.14588332
0.011163263 -0.050188474 0.14475197
0.048879616 -0.0099641252 0.14138469
0.01255912 -0.050093267 0.14029261
0.02089582 -0.046245623 0.14023453
0.04745635 -0.015481371 0.1379911
0.013329493 -0.050782353 0.13658327
0.021086652 -0.045939226 0.136181
0.031493757 -0.039652649 0.13407162
0.037606739 -0.032469563 0.13496003
0.043531548 -0.027503338 0.13316688
0.047736183 -0.017148383 0.13331646
0.021452542 -0.046068396 0.13158607
0.030081412 -0.040863533 0.13191256
0.03747277 -0.033703394 0.13080609
0.044433326 -0.026349522 0.13010174
0.047645371 -0.018347744 0.13010821
0.02619876 -0.043603919 0.12796187
0.034043826 -0.038535491 0.12581748
0.042347398 -0.031227846 0.12509501
0.046352841 -0.022883555 0.12623864
0.034476094 -0.039607696 0.12159956
0.041576203 -0.032136608 0.12137836
-0.020241162 -0.053618006 0.17546052
-0.018572362 -0.053699233 0.1713199
-0.014852721 -0.052649509 0.17075226
-0.019714406 -0.05690065 0.16892937
-0.016940083 -0.055203687 0.16672239
-0.012149697 -0.052902915 0.16644269
-0.015480425 -0.056061771 0.16284677
-0.01099012 -0.053480551 0.16161954
-0.0072984956 -0.052079607 0.16064948
0.049304754 0.0064390507 0.15658003
-0.009947801 -0.052031428 0.1575743
-0.0066808034 -0.051624179 0.15629819
0.050623082 0.0052808318 0.1519309
0.052588485 0.0073335599 0.15287614
-0.0052194204 -0.051602446 0.15190047
-0.0013512969 -0.051936533 0.15287182
0.050072093 0.00059430674 0.14770615
0.04978203 0.0044312607 0.14746368
-0.0042411238 -0.051740874 0.14862227
-0.00099052116 -0.052178036 0.14795774
0.04950304 0.002263926 0.14373195
0.005717637 -0.051367991 0.14234889
0.0024701264 -0.053288132 0.13957685
0.0098991524 -0.05085241 0.13945398
0.049965024 -0.0056420062 0.13385719
0.0072167758 -0.052838519 0.13376534
0.047875136 -0.013912227 0.13161644
0.0090494957 -0.053035423 0.12970173
0.01637524 -0.049499858 0.12976599
0.047763385 -0.016028987 0.12672919
0.013315439 -0.050911218 0.12576586
0.020462105 -0.046189934 0.12450737
0.028479252 -0.041649226 0.12509912
0.046507567 -0.021721102 0.12319201
0.021956138 -0.046266884 0.12020695
0.030458059 -0.042373043 0.12055147
0.037437886 -0.03548687 0.11929053
0.044421565 -0.026163194 0.11877233
0.04737794 -0.018590476 0.11855346
0.02685979 -0.044381112 0.11583799
0.033937536 -0.038617082 0.11520237
0.040033914 -0.031210609 0.11446983
0.031428017 -0.041065909 0.11168963
0.037322294 -0.035306673 0.11086994
0.043527517 -0.028695906 0.11069506
-0.021180825 -0.055857398 0.16590369
-0.017277138 -0.053695977 0.15897438
-0.016802443 -0.054273181 0.15758726
-0.012808422 -0.051734664 0.15521154
0.050504118 0.0095673893 0.14890876
-0.010983761 -0.051820602 0.1494225
-0.0082584657 -0.052087393 0.15078646
0.049834169 0.008790642 0.14521706
-0.0098778866 -0.053280544 0.14496249
-0.0062744152 -0.052506052 0.14595842
0.049302928 0.0043593012 0.14095193
0.051038049 0.0084015392 0.14001042
-0.00627793 -0.052077141 0.14166814
-0.002885025 -0.051492564 0.14148346
0.04895163 0.003044188 0.13702771
0.053089984 0.0086234566 0.13533071
-0.0013307054 -0.052642807 0.1370731
0.00075469725 -0.052859463 0.13239768
0.049357615 -0.0087247845 0.12756866
0.002767466 -0.053627796 0.12894464
0.049211964 -0.0096520949 0.12376434
0.0072996039 -0.051947735 0.1224488
0.014839394 -0.048710383 0.12218428
0.049387649 -0.011424186 0.11940795
0.01134453 -0.050650787 0.11883628
0.019433627 -0.047337182 0.11823291
0.047915462 -0.016693298 0.11556536
0.016129579 -0.047965068 0.11382812
0.024721159 -0.044668481 0.11298352
0.0459411 -0.021983013 0.11197543
0.025801267 -0.043785874 0.10910678
0.03352008 -0.038848504 0.10927206
0.040127993 -0.032368466 0.10888773
0.046574272 -0.02317775 0.10735244
0.029967686 -0.041717693 0.10495418
0.037011124 -0.035981908 0.10374832
0.044166543 -0.028622584 0.1031357
0.038099151 -0.035062466 0.099828541
0.044028427 -0.029805688 0.099812806
-0.016536942 -0.051059254 0.15302047
-0.015489778 -0.051334657 0.14932513
0.047941521 0.012269611 0.14255446
-0.013932025 -0.052850001 0.14384824
0.05070376 0.011470441 0.14039677
-0.012065517 -0.053359397 0.13968593
-0.0081723947 -0.051608175 0.13794982
0.048960462 0.00529835 0.13391307
0.049979147 0.0085183643 0.13394898
-0.010624005 -0.053501002 0.13512328
-0.0070329551 -0.051672876 0.13465673
-0.002793109 -0.052229002 0.13423824
0.048494078 0.0038194302 0.13023424
0.051395699 0.0095765833 0.12954205
-0.006423058 -0.051342413 0.13011608
-0.0025033653 -0.052328609 0.13008022
0.048768207 0.0024448596 0.12505943
-0.0010965541 -0.052782666 0.12566179
0.049830899 -6.6164881e-05 0.12111062
0.0040969681 -0.052445807 0.12175244
0.050181743 -0.00057739019 0.1176638
0.010203283 -0.050867751 0.11611801
0.049572743 -0.0062344912 0.11308819
0.014458669 -0.049018025 0.11138642
0.046954438 -0.015677467 0.10840416
0.010927675 -0.049971573 0.10844135
0.019436695 -0.046201035 0.1066218
0.046697248 -0.020864148 0.10387176
0.020257905 -0.046508685 0.10172969
0.029119674 -0.04206669 0.10206133
0.046556063 -0.022733862 0.1005426
0.02204277 -0.046062235 0.097977996
0.029147869 -0.041675862 0.097341061
0.036486607 -0.036106955 0.09737885
0.04305293 -0.028982189 0.095853567
0.033421818 -0.037504923 0.092880547
0.039206572 -0.032091565 0.091704428
-0.014493095 -0.052985221 0.13692117
-0.013493434 -0.051922761 0.13488147
-0.0094271861 -0.05126847 0.1319001
0.048305307 0.0065837204 0.12647933
0.04958069 0.0094770379 0.12706906
-0.0086515881 -0.051201951 0.1278221
0.048399195 0.0063577984 0.12275767
0.049243446 0.0095958225 0.12237203
-0.0062855985 -0.052134544 0.12281722
-0.0034327675 -0.052667201 0.12252665
0.049142994 0.004188491 0.11844271
0.049760349 0.0076713264 0.117805
-0.0029268879 -0.052630834 0.11844295
0.049794503 0.0021176506 0.11402547
-0.0012076106 -0.052020356 0.1138283
0.049776338 -0.00334833 0.11068565
0.049524471 0.00046452694 0.10940617
0.007527642 -0.050283168 0.10954773
0.048814144 -0.0050180852 0.10639077
0.0082501061 -0.04986728 0.10505754
0.0466576 -0.013844537 0.10277134
0.048484199 -0.0063937791 0.10239398
0.012914155 -0.048365761 0.10034984
0.046983559 -0.016775604 0.097694874
0.01422392 -0.048174232 0.096509755
0.023066502 -0.044436563 0.094423592
0.045654081 -0.022622377 0.092467844
0.047198944 -0.014047086 0.093559206
0.022996191 -0.044168439 0.090371728
0.031547155 -0.038326163 0.090136826
0.039345071 -0.032392994 0.088959098
0.044873066 -0.02429126 0.089048684
0.023202291 -0.044566296 0.087705612
0.03199283 -0.03854017 0.084980726
0.038971022 -0.032244503 0.084658802
0.04394174 -0.02509151 0.084353328
0.033120867 -0.039114613 0.080636799
0.039460428 -0.031824559 0.080638349
0.050274551 0.013806738 0.12057418
-0.011584336 -0.04967691 0.11892706
0.049470328 0.010983342 0.11683089
0.049859043 0.014160831 0.11626047
-0.0089852996 -0.051201183 0.1170752
0.049473166 0.0047540963 0.11043447
0.05000332 0.0084601026 0.11307007
-0.0076992847 -0.052336086 0.11190838
-0.0039733127 -0.052548986 0.11187792
0.049617775 0.0035138428 0.10685283
0.049703557 0.006840717 0.1083948
-0.0069152918 -0.052781008 0.10907292
-0.0025477055 -0.05189357 0.10742408
0.048679903 -0.0026123058 0.10298073
0.049679644 0.0015298203 0.10301763
0.05038628 0.0059140194 0.10330188
-0.0023657624 -0.052002192 0.1039291
0.0058102347 -0.049988903 0.10190922
0.049663678 0.00054009072 0.09869343
0.0073065031 -0.050259344 0.098171413
0.048406042 -0.0066098403 0.094514966
0.0093204211 -0.050682276 0.094114006
0.047614329 -0.012249449 0.09072119
0.010148602 -0.051312715 0.089388907
0.017598504 -0.047662184 0.08981657
0.047282841 -0.013548378 0.086243093
0.014187647 -0.04992909 0.085646152
0.023139469 -0.044672951 0.085319936
0.030533424 -0.039774347 0.082680166
0.046632797 -0.019417889 0.083056986
0.023658991 -0.045232393 0.08046037
0.032175545 -0.040315937 0.079036176
0.038561936 -0.032707375 0.079173982
0.044524878 -0.024423406 0.078879237
0.024377005 -0.045390867 0.076699615
0.032608196 -0.040105149 0.07488209
0.038693696 -0.03279385 0.074987769
0.043233994 -0.025600661 0.074842751
0.035622008 -0.036496222 0.071257174
-0.018643698 -0.048408389 0.12079155
-0.015908809 -0.046761148 0.11822611
0.048455328 0.013236325 0.11314118
-0.014231876 -0.049165964 0.11341411
0.048333719 0.010837859 0.10946399
0.048181355 0.013398487 0.10796994
-0.01187868 -0.050997194 0.1096102
0.048944049 0.0094124135 0.1050989
0.049049877 0.012246156 0.10206836
-0.013438113 -0.055206567 0.10455662
-0.0096068569 -0.053049553 0.10565227
-0.0054788012 -0.052239209 0.10549957
0.050583061 0.0074409582 0.1010446
0.051855773 0.010244614 0.10059041
-0.0090204515 -0.052548703 0.10191113
-0.0044131856 -0.051831849 0.1014064
0.049947634 0.0013599861 0.096702814
0.050576895 0.0055038761 0.096981823
0.053032 0.0087816045 0.096005559
-0.0038870201 -0.050024331 0.09702462
0.048757114 0.00053648092 0.092565715
0.049878053 0.0037444513 0.093294859
0.0048604216 -0.049858913 0.092337549
0.048755601 -0.0018228926 0.088399708
0.0059760362 -0.050171319 0.088058889
0.04831541 -0.006602101 0.083256662
0.012430318 -0.049047772 0.081998408
0.045703813 -0.01624177 0.078641474
0.047773339 -0.0076906513 0.079707205
0.016665995 -0.047402859 0.077552557
0.046004131 -0.017331539 0.074882329
0.017782174 -0.046659179 0.073231399
0.026720788 -0.042344239 0.072035134
0.040632054 -0.027756266 0.070671201
0.045183275 -0.018779289 0.070286751
0.022580668 -0.044202611 0.067844033
0.031419199 -0.03935514 0.067442417
0.037838228 -0.032019585 0.067668498
0.043187592 -0.02365933 0.065450847
0.031217735 -0.039450388 0.062712133
0.037696593 -0.032511793 0.062317193
-0.022974156 -0.050309926 0.11679924
-0.021162082 -0.047861349 0.11674893
-0.017736156 -0.046433609 0.11519104
-0.02344976 -0.050184768 0.11351752
-0.020431399 -0.048666164 0.11213607
-0.015787082 -0.048717849 0.11041981
-0.018108688 -0.050646476 0.1075114
-0.014786107 -0.049838208 0.10853809
0.048397414 0.013823258 0.10286027
-0.015719866 -0.053777203 0.10489005
-0.010732982 -0.052318435 0.098912776
-0.007303305 -0.051172189 0.097970724
0.049790315 0.0074849948 0.093112946
-0.0060721971 -0.04997522 0.094277084
0.048265435 0.0029768739 0.088891685
0.049350999 0.0066538807 0.089672744
0.052086167 0.0096861888 0.089984357
-0.005393004 -0.049299486 0.088763118
-0.0019155908 -0.049768955 0.089301705
0.048428748 0.0017007068 0.085267603
0.04824809 0.0053193364 0.0855003
-0.00015986152 -0.049681649 0.084981263
0.048633385 -0.00042773783 0.081193089
0.047648445 -0.0056582112 0.076733828
0.0065008216 -0.048840266 0.075836539
0.046300747 -0.011121046 0.073846877
0.011318335 -0.04811538 0.071604609
0.045177139 -0.018560193 0.067515075
0.047780484 -0.0093906168 0.067442119
0.016016051 -0.046900682 0.066943228
0.045729361 -0.0192803 0.06483233
0.048263423 -0.010059299 0.063991129
0.020515425 -0.045147173 0.06187886
0.029433506 -0.04083414 0.060950398
0.038448915 -0.031937167 0.059723198
0.043933522 -0.02471206 0.060331285
0.047736041 -0.016290834 0.059787929
0.026363149 -0.044127204 0.057502091
0.034816153 -0.036553718 0.056443989
0.041640278 -0.0295594 0.056911588
0.046098724 -0.020898245 0.055703461
0.030565524 -0.041479792 0.052479506
0.038049992 -0.032634404 0.05246675
0.043962803 -0.025643978 0.051802337
-0.023930505 -0.051025786 0.11175293
-0.023667611 -0.050554268 0.10761404
-0.01998128 -0.050166599 0.10668397
-0.013624776 -0.05019391 0.092194855
-0.0085336044 -0.049463503 0.091313899
0.048057366 0.0079910569 0.085881531
-0.0095627923 -0.049081698 0.087108672
0.047950253 0.0088305566 0.082627475
0.049127925 0.012835108 0.082602084
-0.0066215806 -0.04973612 0.083289564
-0.0021602586 -0.049554389 0.082437873
0.048892032 0.0018984638 0.077663481
0.04776866 0.0062638782 0.079104364
-0.0056369659 -0.050021052 0.077822626
-0.0015037339 -0.049380615 0.078586042
0.048152186 0.00076539069 0.073856354
0.047514439 0.0057899021 0.074642718
-0.0012920387 -0.049514186 0.074052036
0.047145352 -0.0047118776 0.07003063
0.047459975 0.00036913157 0.069615662
0.0041901134 -0.04886004 0.068953335
0.047868848 -0.0059300046 0.065386832
0.0059805401 -0.048584875 0.065615714
0.048499495 -0.0080172401 0.06079942
0.010658579 -0.048286483 0.05968374
0.047595002 -0.013009215 0.05674082
0.012385763 -0.048762064 0.055724144
0.01967939 -0.04586798 0.05547744
0.047141608 -0.014473882 0.051829159
0.016746344 -0.047333725 0.050294161
0.025611036 -0.043901421 0.049643099
0.037045047 -0.032263339 0.048740447
0.04373401 -0.024506707 0.048132718
0.046926189 -0.016545866 0.047517121
0.025385743 -0.043964192 0.045357585
0.032862995 -0.03754222 0.04552716
0.040184636 -0.029172976 0.044154346
0.045421086 -0.022364616 0.043005586
0.029646575 -0.041601494 0.040571034
0.036077607 -0.034116026 0.040122211
0.044758737 -0.026652098 0.039056659
0.042702612 -0.031070556 0.034732759
0.047974557 -0.02550038 0.034890831
0.047201663 -0.02962698 0.03183341
-0.017847035 -0.050979767 0.089491546
-0.015971467 -0.050515868 0.089157283
-0.014219783 -0.050218418 0.085791528
0.049711514 0.013948563 0.079701126
-0.012723584 -0.050702531 0.081107438
-0.009756932 -0.050262921 0.081974745
0.047890902 0.0093624443 0.076425254
0.049863786 0.01304649 0.075694978
-0.011961978 -0.05087987 0.077079237
-0.0087480638 -0.050576538 0.076519132
0.047690541 0.0082494337 0.070961952
0.049899146 0.012863109 0.07046771
-0.0064323805 -0.050453667 0.072852194
-0.0030196439 -0.050031081 0.071656108
0.048248798 0.0022868998 0.067852795
0.048111536 0.0063620452 0.067198157
-0.0015728902 -0.050239772 0.067726016
0.048220433 0.0011696275 0.062923193
0.048423924 0.0044108983 0.06356287
-0.0010881238 -0.049599063 0.0627473
0.048767332 -0.0018599667 0.059248805
0.0081422627 -0.048958201 0.058712363
0.048396956 -0.0032856166 0.053662241
0.009537233 -0.049055398 0.054021776
0.01074747 -0.048264101 0.048727572
0.046306685 -0.018395215 0.045188725
0.048977979 -0.010348091 0.045809984
0.02020755 -0.046974439 0.044322193
0.046979681 -0.015859837 0.042273462
0.016670136 -0.047220945 0.040339708
0.025728192 -0.04523075 0.038775861
0.032812268 -0.037930623 0.038371146
0.046147026 -0.021375678 0.037865043
0.022719923 -0.04719099 0.03586036
0.030326087 -0.042679589 0.034709573
0.036043029 -0.034450945 0.033750594
0.04790144 -0.023668628 0.033658087
0.023979183 -0.04811966 0.032416046
0.03143049 -0.044056877 0.030945003
0.036901254 -0.034779828 0.029854834
0.045292728 -0.031295262 0.029676676
0.050090156 -0.020850832 0.027773798
0.048497342 0.011909243 0.068437874
-0.0088536963 -0.049921416 0.069870532
0.048110694 0.0080948751 0.06463778
0.049550191 0.011107968 0.064702749
-0.0088504646 -0.049183734 0.065266669
-0.0046394784 -0.049909577 0.063796103
0.047933102 0.0060914848 0.060203493
0.049359597 0.010709504 0.060608983
-0.0078650583 -0.049291112 0.061680496
-0.0037116297 -0.049422078 0.059823513
0.047781568 0.0045344345 0.055996776
0.048709385 0.0088415034 0.056864142
-0.0023090672 -0.049342081 0.056345224
0.047816698 -0.00025532395 0.051471472
0.047898602 0.0033637136 0.051384687
-0.0013386626 -0.049431086 0.052727222
0.048953369 -0.0028955173 0.047433555
0.048843041 0.00092384405 0.047098935
0.0078357104 -0.04870791 0.046419024
0.050171755 -0.00071508624 0.04252547
0.0094025694 -0.048932124 0.041784763
0.046229318 -0.013764193 0.037970304
0.049579509 -0.005640028 0.038520873
0.014394637 -0.047505006 0.037443578
0.047390416 -0.010243462 0.035319328
0.011409085 -0.049441438 0.034481168
0.01953163 -0.047340326 0.033140957
0.016733412 -0.048032213 0.030246973
0.0256158 -0.045290541 0.029390514
0.035313904 -0.035650685 0.027352989
0.032662388 -0.038604643 0.024872363
-0.013351921 -0.047570273 0.060833216
0.049376436 0.0118504 0.057491004
-0.0099954624 -0.048351198 0.057859361
0.04778444 0.0072773602 0.053122699
0.048568662 0.011391856 0.05313611
0.050373178 0.0143678 0.05335021
-0.0094900317 -0.048405651 0.053949058
-0.005682515 -0.04918278 0.053870857
0.048574105 0.0056632217 0.049811661
0.04926534 0.0092175771 0.0485273
-0.0040351544 -0.049443409 0.049130797
0.049500741 0.0038669165 0.045631588
0.050627191 0.0080719404 0.043638706
-0.0028300472 -0.049310602 0.043880463
0.050564833 0.0025163274 0.040714622
0.051647514 0.0062742438 0.040023565
-0.00079159625 -0.05169142 0.039075077
0.050012656 -0.0032212604 0.036591351
0.05061496 0.0010397322 0.035289943
0.0046004858 -0.051922902 0.036427557
0.049362417 -0.0048420541 0.031653106
0.051523536 0.00071382523 0.031027377
0.055734687 0.00018016621 0.032357872
0.0088028535 -0.049488764 0.030857325
0.045432057 -0.013287522 0.028672099
0.049839571 -0.0058728289 0.026429236
0.013896972 -0.047473136 0.026070416
0.046094626 -0.011753863 0.023764372
0.018674964 -0.048016436 0.024937868
-0.018034019 -0.046753049 0.05888468
-0.015173152 -0.046864968 0.055736601
0.048752751 0.013599668 0.049780607
-0.011985939 -0.048081342 0.051542461
0.049389414 0.012812357 0.047438979
0.049707651 0.014997022 0.04838711
-0.01040641 -0.049244054 0.047605276
-0.0062087663 -0.049923982 0.046101034
0.050196536 0.011808598 0.044263363
-0.0087624304 -0.050091881 0.042649686
-0.0052747615 -0.049981188 0.042399526
0.051102914 0.005545795 0.036981702
-0.0078563523 -0.052082218 0.038708806
-0.0041992068 -0.051719271 0.038763463
0.052481156 0.0038227029 0.031373799
0.0042062607 -0.050965399 0.029147089
0.051334675 -0.00079911947 0.02555126
0.0087277368 -0.048706025 0.024921834
0.046853006 -0.0097051989 0.021575689
-0.018421926 -0.046784818 0.054462135
-0.015643343 -0.046829481 0.048913538
-0.013797246 -0.048896551 0.045516908
-0.012364769 -0.049014911 0.042107284
