# .PCD v0.7 - Point Cloud Data file format
VERSION 0.7
FIELDS x y z
SIZE 4 4 4
TYPE F F F
COUNT 1 1 1
WIDTH 1168
HEIGHT 1
VIEWPOINT 0 0 0 1 0 0 0
POINTS 1168
DATA ascii
-0.017065676 -0.022864249 0.34516895
-0.021444501 -0.021446576 0.34160033
-0.015430486 -0.016650178 0.34734443
-0.0096816812 -0.021890609 0.34678
-0.023633707 -0.011534209 0.34343079
-0.019169241 -0.01825699 0.34591967
-0.010851445 -0.024636038 0.34384131
-0.028239593 -0.0092850924 0.34108168
-0.02442285 -0.016887635 0.34110123
-0.016680904 -0.025126243 0.34016818
-0.024228094 -0.016688317 0.33732581
-0.018070839 -0.024007058 0.33584717
-0.032110825 -0.047538374 0.28147814
-0.010973692 -0.01239876 0.34944585
-0.0048601222 -0.017338457 0.34869599
-0.020393705 -0.0066026142 0.34800729
-0.013400934 -0.013399236 0.34785652
-0.0063732606 -0.020938322 0.34719759
-0.026312947 -0.0060007852 0.34498915
-0.020229787 -0.010306699 0.34582049
-0.0049583325 -0.026386365 0.34268048
-0.025865287 -0.010285325 0.33917424
-0.0080665527 -0.026874874 0.33838078
-0.02556029 -0.011541832 0.33472517
-0.021480586 -0.018654255 0.33309671
-0.012471607 -0.025779106 0.3337574
-0.024573494 -0.01150446 0.33073661
-0.0207415 -0.019656844 0.32927024
-0.012853137 -0.025431545 0.33003736
-0.020861074 -0.019510463 0.32541952
-0.034121983 -0.024875257 0.3004958
-0.027619053 -0.031038569 0.30184528
-0.022450097 -0.037355777 0.29986244
-0.036093418 -0.025946826 0.29826543
-0.030132644 -0.033817358 0.29854152
-0.023070984 -0.039538249 0.29740837
-0.038520962 -0.027810084 0.29437706
-0.032073684 -0.03543824 0.29426026
-0.024787799 -0.042193659 0.29355171
-0.043392468 -0.025539625 0.28980911
-0.037446741 -0.03346853 0.29018813
-0.03084198 -0.040906876 0.2899577
-0.021964505 -0.046092711 0.28813201
-0.045874719 -0.023526724 0.28715906
-0.042610176 -0.031278554 0.28596213
-0.036170766 -0.038899936 0.28586197
-0.029131323 -0.0458856 0.28532028
-0.046788324 -0.028304204 0.28127936
-0.041027974 -0.036402527 0.28141555
-0.03448369 -0.043903884 0.28124204
-0.02575852 -0.049236994 0.27948433
-0.044892259 -0.033428386 0.27682635
-0.039273169 -0.041344985 0.27674237
-0.032666683 -0.048777044 0.27652699
-0.044501625 -0.035229925 0.27281761
-0.04103554 -0.042783502 0.27233303
-0.033979386 -0.049769353 0.27178666
-0.025979677 -0.052946538 0.27117473
-0.041940212 -0.043125529 0.26906839
-0.034048028 -0.050049938 0.26799989
-0.0060809692 -0.012598262 0.34947133
-0.025156457 -0.008157419 0.33237112
-0.025524031 -0.010046387 0.32814881
-0.014758273 -0.022543121 0.32568115
-0.0089150351 -0.026553396 0.32655352
-0.026224812 -0.01059644 0.3237645
-0.020343019 -0.018813932 0.32272923
-0.011104708 -0.023786731 0.32243031
-0.022179613 -0.015808351 0.31865788
-0.017678658 -0.021227267 0.31787473
-0.019281186 -0.023090135 0.31211945
-0.027527636 -0.018252101 0.30781499
-0.021102814 -0.025639726 0.30850762
-0.014251098 -0.031362079 0.30648458
-0.033112109 -0.016119368 0.3054117
-0.026983256 -0.024188582 0.30551645
-0.019750215 -0.031088494 0.30487427
-0.012617252 -0.036007822 0.30211091
-0.036019318 -0.018770317 0.30174655
-0.030458717 -0.025401283 0.30243579
-0.021499192 -0.03302113 0.30230954
-0.013660956 -0.038786754 0.29857838
-0.041162558 -0.016500564 0.29746011
-0.036249198 -0.022860829 0.29911157
-0.015571641 -0.04041101 0.29503098
-0.010343663 -0.045189198 0.29211873
-0.043257095 -0.018292217 0.29325292
-0.018309511 -0.042994939 0.29152793
-0.011288775 -0.047119766 0.28941092
-0.045293633 -0.020020576 0.28900906
-0.016534017 -0.048044145 0.28677437
-0.049415872 -0.016796563 0.28352317
-0.018569091 -0.049469583 0.28229323
-0.011870375 -0.053832695 0.27863666
-0.051226057 -0.018109553 0.27952802
-0.047657356 -0.026743293 0.27931535
-0.015799999 -0.053670742 0.27661595
-0.055100806 -0.017535569 0.27445117
-0.050737578 -0.024488218 0.27579823
-0.046110384 -0.031568527 0.27439445
-0.022019293 -0.05227869 0.27335873
-0.054421626 -0.021235162 0.2707898
-0.049186185 -0.02968953 0.27126154
-0.043503284 -0.037044317 0.26979342
-0.02375935 -0.05336576 0.26878673
-0.053298824 -0.026527304 0.26637918
-0.0470272 -0.034242291 0.26625249
-0.040704153 -0.042204682 0.2652159
-0.033806823 -0.048872396 0.26441106
-0.024933219 -0.053158995 0.26415762
-0.053439707 -0.02753349 0.26190159
-0.04801112 -0.034852192 0.26118362
-0.041645452 -0.042668387 0.26122403
-0.034035254 -0.049192805 0.26028189
-0.050763674 -0.032304388 0.25819001
-0.045259446 -0.039199211 0.25710845
-0.038899373 -0.046651989 0.25574329
-0.032841317 -0.050807029 0.25625873
-0.039449155 -0.04695956 0.25198928
-0.026051374 -0.0087755732 0.32017016
-0.0085344221 -0.02504212 0.31797981
-0.024645755 -0.0086635696 0.31618685
-0.015004966 -0.021125 0.31525531
-0.0068948492 -0.024293315 0.31484717
-0.024015546 -0.014608582 0.31192139
-0.016591176 -0.022532647 0.31307179
-0.009065127 -0.0269062 0.30982906
-0.03165077 -0.0093010431 0.30711177
-0.02647399 -0.016242683 0.30901653
-0.014806846 -0.027522752 0.3083401
-0.008176174 -0.03263285 0.30529991
-0.036633395 -0.0071224431 0.30248865
-0.0096416976 -0.03536937 0.30209452
-0.0031021126 -0.039271913 0.29916173
-0.0089373793 -0.040449038 0.29750732
-0.043380607 -0.007024318 0.29302406
-0.0061768498 -0.04469398 0.29220578
-0.045930292 -0.0079158396 0.29003936
-0.0078099165 -0.047553685 0.28788796
-0.049098983 -0.0094345491 0.28619191
-0.0062603671 -0.05080647 0.28269315
-0.051149808 -0.010982817 0.28201893
-0.0051069558 -0.05342634 0.27662352
-0.010841304 -0.054847516 0.27430606
-0.055110887 -0.013535025 0.27332333
-0.011777658 -0.05534146 0.26939744
-0.055088125 -0.015198648 0.26899192
-0.017192563 -0.054894146 0.26636168
-0.055279925 -0.016202305 0.26539883
-0.05328894 -0.022896538 0.2625106
-0.019101655 -0.055118274 0.2615965
-0.05431845 -0.021100122 0.25944844
-0.028696954 -0.051312096 0.25777841
-0.019991225 -0.05526476 0.25660062
-0.053765174 -0.026162695 0.25518122
-0.048330758 -0.034697186 0.25471333
-0.034290712 -0.04903622 0.25296754
-0.024860442 -0.053038064 0.25362921
-0.053612314 -0.027749896 0.25065315
-0.048808251 -0.033780515 0.24964157
-0.043198224 -0.042209834 0.250047
-0.034868158 -0.048366643 0.24885392
-0.046141826 -0.038449258 0.24615312
-0.039799418 -0.045888666 0.24514359
-0.032892991 -0.050281204 0.24537468
-0.02532408 -0.0068763616 0.31416109
-0.0017767679 -0.025798403 0.31077683
-0.025868099 -0.0072632832 0.31209472
-0.0029492192 -0.028754402 0.30790412
0.00031855609 -0.030488372 0.30650908
-0.030657031 -0.0050506182 0.30637512
-0.0016301833 -0.033669323 0.3037506
0.0015596189 -0.034581766 0.30205908
-0.035693489 -0.0033385344 0.30209514
0.0007032901 -0.038832963 0.29904303
0.0037407 -0.040232375 0.29651657
-0.038622923 -0.0046643279 0.29851586
0.0027018581 -0.042473406 0.29356307
-0.044595361 0.00035879202 0.29042068
0.00070606545 -0.044887517 0.28964493
0.0035369527 -0.045926828 0.28624943
-0.045972772 -0.0039451066 0.28937513
0.0021124575 -0.048438091 0.2838034
-0.048068739 -0.0050804541 0.28699508
0.0038475655 -0.05284927 0.27971303
-0.0019233562 -0.05303774 0.27627641
0.0016047377 -0.053934779 0.27493531
-0.0032055061 -0.054446921 0.27132452
-0.054568164 -0.0072038509 0.27078626
-0.0054416228 -0.054993678 0.26615316
-0.055722434 -0.011794448 0.26748818
-0.0069737546 -0.056030817 0.26276109
-0.056155585 -0.013848048 0.26259896
-0.012685474 -0.055970065 0.25887442
-0.056801453 -0.014954221 0.25808448
-0.017819745 -0.056377426 0.2542735
-0.010028427 -0.0571137 0.25452641
-0.055458166 -0.020185724 0.25342348
-0.024566168 -0.052596878 0.2500428
-0.015316688 -0.05638143 0.25031096
-0.054374669 -0.025132827 0.24856189
-0.028714914 -0.050387472 0.2469016
-0.02162333 -0.055033952 0.24573231
-0.05199369 -0.03039092 0.24398491
-0.046473946 -0.037775323 0.24288306
-0.039373185 -0.045251615 0.24139276
-0.030165095 -0.05050195 0.24175528
-0.023064762 -0.054751135 0.24102014
-0.049201407 -0.033372276 0.2388359
-0.043535527 -0.042058233 0.23871684
-0.035357952 -0.047931049 0.23773372
-0.045513015 -0.038663253 0.23497191
-0.041517798 -0.043866571 0.23429734
-0.023948109 0.0010032849 0.31116894
0.0031339992 -0.02540819 0.30765745
-0.027711511 0.0024194438 0.30658191
0.0038656378 -0.029610034 0.30538702
0.0080033569 -0.030621216 0.30259085
0.010106304 -0.0326837 0.30322182
-0.033738747 0.0046391385 0.30225444
-0.030763783 0.0012619207 0.30460176
0.0024897736 -0.031790521 0.30331212
0.0050955163 -0.033833519 0.30158725
0.0082147727 -0.03543397 0.30022845
-0.037974671 0.0065950844 0.29814827
-0.037019242 0.0029253978 0.30021316
0.0069056209 -0.038962942 0.29604164
0.010303737 -0.040064812 0.29403943
-0.040374711 0.0051781368 0.29543313
-0.039694257 0.0020481907 0.29718399
0.0054071415 -0.04249233 0.29255745
0.0087709017 -0.042332362 0.29098195
-0.043430816 0.003383901 0.29138476
0.0063572899 -0.045113601 0.28694636
0.010559807 -0.046879523 0.28426692
-0.046811089 0.0048484337 0.28583685
-0.046514146 0.0019873586 0.287745
0.0052619707 -0.047551874 0.28393394
0.0077640153 -0.048328593 0.28172714
-0.04958418 0.0039290376 0.2826454
-0.048366256 0.0011287518 0.28516409
0.0080050062 -0.052696779 0.27717677
0.011100139 -0.053178716 0.27666035
-0.051447995 0.0017671529 0.27803382
0.0059450082 -0.05344848 0.27333114
0.0094760954 -0.053854208 0.27233636
-0.053583674 0.00086235814 0.27295953
0.0025465004 -0.05471731 0.26855356
0.0058596358 -0.054946814 0.26619998
-0.058195345 0.0030844733 0.26800975
-0.054467149 -0.0037996788 0.26960948
0.0010447819 -0.056265593 0.26447833
0.0049915407 -0.05758854 0.26331022
-0.059392475 0.0019641165 0.26640254
-0.055681556 -0.005523162 0.2654267
-0.00034084916 -0.057120994 0.26054242
0.0042962134 -0.058129549 0.26047495
-0.0053133406 -0.056424551 0.2559413
-0.057444192 -0.0088069309 0.25605068
-0.0071980953 -0.056649335 0.25129843
-0.05702544 -0.0137059 0.25133705
-0.013358923 -0.056707524 0.24771497
-0.058841735 -0.010408731 0.24637419
-0.055989608 -0.018915532 0.24704519
-0.01487631 -0.056192048 0.24297056
-0.057721917 -0.016112188 0.24276143
-0.054780219 -0.023874648 0.24130431
-0.024707403 -0.052145269 0.23743054
-0.016231552 -0.056049451 0.23848173
-0.053523205 -0.024932053 0.23714027
-0.04924427 -0.033225559 0.23628101
-0.029788513 -0.049825028 0.23546833
-0.021097079 -0.054015525 0.23338643
-0.052612729 -0.026021484 0.23338854
-0.049487747 -0.033414174 0.23275289
-0.0434434 -0.041132759 0.23103824
-0.034543261 -0.047094934 0.23152059
-0.025540199 -0.051615424 0.23085526
-0.049250726 -0.032673217 0.22874928
-0.037795827 -0.043861415 0.22668076
-0.023153659 0.0073676454 0.30783415
-0.023320116 0.0039399043 0.30885065
-0.027662236 0.0094010243 0.30404675
-0.0259335 0.0061115054 0.30628842
0.0091540823 -0.029594805 0.30348998
-0.033611841 0.011008747 0.30009571
-0.031063162 0.0085968738 0.30228403
-0.029006124 0.0048017856 0.30423334
0.012620904 -0.034614656 0.29723936
0.0146298 -0.035230681 0.29628196
-0.036918566 0.0093098572 0.29816967
0.011474348 -0.03606645 0.29485422
0.012882595 -0.038695019 0.29349136
-0.040142376 0.012196749 0.29053742
-0.038682826 0.010237929 0.29263857
0.011612608 -0.042140674 0.28851295
0.014493704 -0.043426596 0.28659981
-0.044981331 0.01412732 0.28797707
-0.04304301 0.010770841 0.28826565
-0.040994186 0.0084938314 0.28980845
0.010091376 -0.043932945 0.28638521
0.012930339 -0.045666903 0.28518805
0.013168942 -0.048928112 0.28349334
-0.046303459 0.013048002 0.28472823
-0.045972098 0.009403225 0.28509372
0.011288509 -0.047793001 0.2809343
0.013905626 -0.049155742 0.28002402
-0.048835352 0.0090328064 0.27986822
0.012589179 -0.053144995 0.27606672
-0.050789155 0.010329878 0.2750169
-0.050685033 0.0070896093 0.27601871
0.01172553 -0.053758677 0.2700457
-0.053450488 0.0083077699 0.2711249
-0.05277963 0.0052044448 0.2725305
0.0064745862 -0.052507721 0.268444
0.0092426799 -0.054629449 0.26690719
-0.056395084 0.0065886453 0.26692811
0.0072410349 -0.057564043 0.26403496
-0.05897864 0.0045318361 0.26343393
-0.056400526 0.00081229955 0.26291198
0.0058301818 -0.058170762 0.25799406
-0.062720723 0.0078203361 0.25915378
-0.058319151 0.0037676543 0.26037484
-0.05577166 0.0004103519 0.25838065
0.00055030361 -0.056524616 0.25366044
0.004945768 -0.057900596 0.25241369
-0.055694163 -0.0034919698 0.25344267
0.0035325494 -0.058487579 0.24843472
-0.057242036 -0.005340714 0.2483345
-0.0017755218 -0.056233723 0.24486744
-0.058461681 -0.011934334 0.24424452
-0.058516979 -0.0094481744 0.23998421
-0.05633238 -0.017682364 0.23868597
-0.010372695 -0.057595678 0.2368004
-0.055016756 -0.018095376 0.23486754
-0.019980466 -0.055499576 0.23235628
-0.053942554 -0.018787641 0.23124751
-0.052087724 -0.026246741 0.22984326
-0.025266401 -0.051227182 0.22803733
-0.017212609 -0.055757247 0.22780991
-0.050871886 -0.02696912 0.2254715
-0.045314845 -0.03568878 0.22441673
-0.037730407 -0.042264313 0.2237578
-0.029779369 -0.047790647 0.22432813
-0.020645756 -0.053783223 0.22435337
-0.048406936 -0.031798173 0.22029355
-0.041359875 -0.038687523 0.21947592
-0.034806203 -0.045367725 0.21920687
-0.047358524 -0.034084443 0.2170226
-0.039682351 -0.042684726 0.21560401
-0.022848245 0.013159532 0.30610809
-0.021655248 0.010021122 0.30736539
-0.025888339 0.011622311 0.303857
-0.02389132 0.0099721607 0.30575824
-0.031868972 0.012722005 0.30138981
-0.037965115 0.019845603 0.29505682
-0.037009917 0.016457267 0.29570022
-0.035739444 0.013444951 0.29611665
0.016835755 -0.037009183 0.290723
-0.041594945 0.016789846 0.29111734
-0.039665945 0.014455563 0.29221594
0.016855029 -0.037911013 0.28854093
-0.044608019 0.017935991 0.28667295
-0.048142407 0.019279329 0.27938724
-0.046534445 0.016398279 0.28164315
-0.049951062 0.017727027 0.27562252
-0.048631072 0.014546502 0.27776846
-0.050650753 0.017095635 0.27444318
-0.050797254 0.013707787 0.27393183
-0.052792817 0.012205163 0.26929972
0.013273863 -0.054231085 0.26545697
-0.053423695 0.011761628 0.26566046
-0.056553081 0.0099825133 0.26086038
-0.060663342 0.0088719577 0.25681803
-0.057349227 0.0064206719 0.25636014
-0.05652149 0.0019100625 0.25525475
-0.057984341 0.0050442014 0.25184086
-0.056931842 0.00093403086 0.25207996
0.0028718486 -0.058028173 0.24603698
-0.057835497 0.0045030527 0.24817443
-0.00039323978 -0.056178123 0.24196756
0.0036217291 -0.0563053 0.24342352
-0.057105482 -0.0038912799 0.24240848
-0.057217062 -0.0052183419 0.23827809
-0.058429521 -0.0090086311 0.23639327
-0.054992266 -0.015716901 0.23226333
-0.055737406 -0.012480464 0.22923943
-0.052860573 -0.020259228 0.22847363
-0.010704083 -0.055361703 0.22499913
-0.05297631 -0.020952124 0.22359589
-0.028484344 -0.048205644 0.22123253
-0.020298162 -0.053301789 0.22057939
-0.053090908 -0.022121567 0.21842271
-0.049636818 -0.030261714 0.21915784
-0.033091009 -0.046947714 0.21715471
-0.025991011 -0.050371241 0.21691197
-0.053161647 -0.022999892 0.21534497
-0.049051177 -0.031456802 0.21504614
-0.043138206 -0.039692655 0.21451268
-0.036005337 -0.046503358 0.21404064
-0.02664908 -0.050515816 0.21230981
-0.045978457 -0.035610672 0.20956719
-0.040145498 -0.042808097 0.20880583
-0.032015927 -0.049125779 0.20835403
-0.039530303 -0.043209016 0.20484748
-0.032476589 -0.049750313 0.20412943
-0.044299841 0.020747602 0.28405121
-0.047295153 0.021699555 0.28078228
-0.045232929 0.019845027 0.28303823
-0.049250912 0.020589126 0.27656981
-0.050378975 0.019399282 0.27226889
-0.051622197 0.01725702 0.26745975
-0.053268589 0.015360631 0.26440272
-0.05600917 0.014046937 0.25926059
-0.057668574 0.012288397 0.25550634
-0.057476141 0.0098551866 0.25289682
-0.059301585 0.010180285 0.25186712
-0.057488747 0.0080375262 0.24931407
-0.057420969 0.0070561729 0.2443133
-0.057085529 0.0024390314 0.24435502
0.0033297837 -0.054426271 0.2377947
0.0061678961 -0.054715171 0.23905143
-0.057852745 0.0057394411 0.23980933
-0.057106744 0.0014228448 0.23991367
0.001385428 -0.054490887 0.23491803
-0.056627654 0.00089098327 0.23591274
-0.00061604194 -0.053763345 0.23074391
-0.0060249064 -0.054534309 0.22743893
-0.056116264 -0.0056855902 0.22726354
-0.0083266366 -0.055102855 0.22210389
-0.055021495 -0.010842051 0.22207874
-0.012958035 -0.053712133 0.21874073
-0.054851741 -0.012134682 0.21792278
-0.053292468 -0.019045174 0.21730664
-0.013940532 -0.053193502 0.21327567
-0.054633267 -0.016995214 0.21225673
-0.052175298 -0.02459948 0.21262717
-0.020313529 -0.051840108 0.20963618
-0.053090863 -0.021814365 0.20831025
-0.048867758 -0.030443668 0.20739138
-0.029151738 -0.048680007 0.20471299
-0.022664487 -0.051311579 0.20573926
-0.049280535 -0.030770658 0.2026948
-0.043237012 -0.03942189 0.2024599
-0.035317838 -0.045441423 0.20182166
-0.026271725 -0.049928091 0.2020888
-0.046020031 -0.035042431 0.19861257
-0.039613552 -0.042079516 0.19762886
-0.032414503 -0.048317954 0.19737241
-0.048972808 0.023464955 0.27341056
-0.049737554 0.021900924 0.27004063
-0.050187971 0.021664936 0.26778653
-0.056190573 0.014158128 0.24661043
-0.055925488 0.01216704 0.24719715
-0.058042381 0.012558274 0.24285021
-0.057656255 0.010807768 0.24245486
0.0080623999 -0.054180421 0.23736501
-0.059790798 0.011180235 0.23811138
-0.058884483 0.0084757674 0.23812655
0.0038565174 -0.053795144 0.23221499
0.0068262853 -0.055163249 0.23312625
0.0093580782 -0.056867365 0.23178333
-0.058691718 0.0065936726 0.2343241
-0.057212245 0.0026698485 0.23380142
0.0026578568 -0.05397452 0.22903267
0.0064322166 -0.055382669 0.22822779
0.0086196717 -0.057426576 0.22801352
-0.055629946 0.0036885999 0.22919038
0.00020745397 -0.054243259 0.22488534
0.0041144565 -0.054333702 0.2241236
-0.0018442459 -0.056525946 0.2197848
0.0019191839 -0.056464043 0.2185477
-0.055582773 -0.0079602525 0.22062951
-0.0039030649 -0.056249849 0.21591055
0.00042209588 -0.057394527 0.21611023
-0.0087306313 -0.055094369 0.21130911
-0.055643328 -0.010838343 0.2105127
-0.014343085 -0.054127425 0.20703536
-0.054147247 -0.015405074 0.20637006
-0.01923538 -0.05125843 0.20364591
-0.053044878 -0.020007571 0.20131859
-0.028963964 -0.048179608 0.19827616
-0.021262323 -0.051035795 0.19860744
-0.052953489 -0.021276629 0.19702557
-0.048644129 -0.029396743 0.19631052
-0.040492881 -0.040458739 0.19539922
-0.030331375 -0.0480562 0.19465643
-0.022851635 -0.051471978 0.19401568
-0.046102088 -0.033476468 0.19218782
-0.039235979 -0.041083016 0.19150129
-0.031944454 -0.047242813 0.19066173
-0.043957394 -0.038201984 0.18745011
-0.036868811 -0.044476461 0.18694133
-0.056826495 0.0089223962 0.22727478
-0.054531902 0.003727261 0.22645795
0.007428294 -0.054578152 0.22165054
-0.057173744 0.0077425856 0.2223011
-0.054984398 0.004995212 0.22206765
-0.053535406 0.0018977709 0.22234991
0.0064088497 -0.054608755 0.21711394
0.009032689 -0.05482306 0.21819353
-0.054515649 0.00025841966 0.21731269
0.0026224833 -0.056627441 0.21256316
-0.062053718 0.0068456586 0.21472171
-0.055616766 -0.0059041362 0.21234226
0.0012896787 -0.057418838 0.20872962
0.0044937283 -0.058543697 0.20680398
-0.055496484 -0.0067885369 0.20765567
-0.004106313 -0.056068014 0.20427141
-0.053686075 -0.0089389961 0.20412934
-0.012859462 -0.05325041 0.20097172
-0.0055368859 -0.055875212 0.20016444
-0.053710811 -0.017883532 0.19864541
-0.015367776 -0.05284033 0.19670597
-0.053723756 -0.015416622 0.19496372
-0.051196769 -0.022978645 0.19376969
-0.016183201 -0.052997909 0.19210631
-0.052624978 -0.018916171 0.18994069
-0.048443202 -0.028542059 0.18968111
-0.02912488 -0.047792867 0.18755633
-0.021981388 -0.051393747 0.18732691
-0.04645589 -0.033308957 0.18608224
-0.040328681 -0.041648038 0.18337828
-0.031330716 -0.047053069 0.18425596
-0.023685373 -0.051251136 0.18319046
-0.046506077 -0.032737415 0.18023834
-0.040069144 -0.040902369 0.17955667
-0.031982075 -0.045463517 0.18037271
0.01278826 -0.053595271 0.22128481
-0.057642922 0.0096778795 0.22088051
-0.053827748 0.0041282773 0.21901283
0.0081508402 -0.053498924 0.21459225
0.010015724 -0.054675803 0.21489415
-0.057700537 0.008989837 0.21518132
-0.054672316 0.0058301147 0.21523052
-0.053243876 0.0030500237 0.21389091
0.0064756293 -0.056887232 0.21051699
-0.058918104 0.0077464469 0.21115565
-0.055623379 0.0052891783 0.2105886
-0.054108575 0.0018895697 0.21077585
0.0064870138 -0.057782434 0.20645708
-0.05888484 0.0066105369 0.20715931
-0.057449166 0.00359031 0.2061522
-0.0011315756 -0.055296402 0.2002039
0.0018388256 -0.057178825 0.20152187
0.0049267672 -0.058039479 0.20198634
-0.059160087 0.0044421945 0.20371187
-0.053848766 -0.0057651605 0.20152095
0.0010092072 -0.056108382 0.1963146
-0.053438805 -0.0071960855 0.19703981
-0.0077955406 -0.054985993 0.19348821
-0.054155 -0.008573154 0.19277933
-0.015047584 -0.052565664 0.18857589
-0.0063285623 -0.055563081 0.18944186
-0.053599767 -0.013258701 0.18833429
-0.050389007 -0.021058328 0.1867536
-0.01167264 -0.053426631 0.1845867
-0.053001583 -0.018010875 0.18315437
-0.027909173 -0.046313956 0.18093988
-0.021037437 -0.051482793 0.18115675
-0.052339371 -0.019223528 0.17973059
-0.04878588 -0.027955689 0.17965645
-0.037770372 -0.04084808 0.17633712
-0.03137498 -0.045234505 0.17711145
-0.022341406 -0.051006675 0.17677921
-0.050221954 -0.025286902 0.17404395
-0.04658033 -0.032337446 0.17347205
-0.039211515 -0.039939757 0.17305121
-0.031654306 -0.045433715 0.17226276
-0.046359859 -0.032360416 0.16927528
-0.03948044 -0.039931975 0.16864005
-0.03342152 -0.044630148 0.1685147
-0.059322573 0.0063896831 0.20478863
-0.057662282 0.0085376129 0.20136172
-0.057077236 0.0036674123 0.20036051
-0.055379987 0.00075886212 0.19923803
0.0033753105 -0.056195606 0.19486827
0.0068980586 -0.056166302 0.19675386
-0.053967126 -0.0047420785 0.19513765
0.0023035556 -0.055717446 0.19032246
-0.059395287 0.0008498691 0.19276896
-0.054607019 -0.0059155971 0.19108739
-0.055107847 -0.0029398147 0.18684241
-0.053720549 -0.011099275 0.18562001
-0.0055170264 -0.054595515 0.18212
-0.054033563 -0.012045946 0.180886
-0.011842465 -0.05402666 0.17800689
-0.054150373 -0.013129054 0.17618591
-0.020383496 -0.051392846 0.17391771
-0.012922775 -0.053796619 0.17300108
-0.053343959 -0.017441157 0.17218667
-0.026161857 -0.047323368 0.17144087
-0.017515779 -0.052107617 0.16938606
-0.055766892 -0.015254587 0.16880226
-0.051263943 -0.022891067 0.16770905
-0.046331584 -0.031156741 0.1662536
-0.03913822 -0.039408837 0.16548765
-0.031877849 -0.045387525 0.16599751
-0.021452658 -0.049950007 0.16561651
-0.045936424 -0.030927874 0.16245601
-0.038437098 -0.038229197 0.1616047
-0.031973224 -0.044928756 0.16056377
-0.055666231 0.0065726638 0.19761857
0.0065512303 -0.054309689 0.19169107
0.0093499832 -0.053857319 0.19107243
-0.054707214 0.0026009902 0.19157523
0.0043684188 -0.055093594 0.1867556
0.0089898352 -0.054113947 0.18864229
-0.05479347 0.0017067399 0.18837047
0.0024782009 -0.055684984 0.18430498
0.005147526 -0.057382569 0.18371055
-0.053839393 -0.0042813551 0.18376094
0.0018072855 -0.055126432 0.17956412
0.0036091246 -0.058682337 0.1813823
-0.053742841 -0.0055473968 0.17955035
-0.0016094781 -0.054968037 0.1751177
-0.054720894 -0.010331748 0.17525885
-0.0054810308 -0.053699728 0.17148727
-0.05524981 -0.011566846 0.1705752
-0.011929298 -0.05335407 0.16681731
-0.053913075 -0.017041305 0.16570014
-0.021553807 -0.049924806 0.16290265
-0.013434906 -0.052813038 0.16182974
-0.050866347 -0.02205115 0.16132519
-0.045846049 -0.030631935 0.15950927
-0.038965844 -0.036176424 0.15887576
-0.02292949 -0.049783774 0.1591309
-0.050352704 -0.021919778 0.15698409
-0.045664236 -0.030170754 0.15549722
-0.038545854 -0.037125524 0.15492085
-0.032580514 -0.044953674 0.15512419
-0.023629725 -0.049615934 0.15368205
-0.039398193 -0.037444025 0.15012673
-0.031714574 -0.044701792 0.14946789
-0.053373076 0.0079507548 0.18598998
-0.053319048 0.005846452 0.1850194
-0.054084823 0.0076041091 0.18191811
-0.053974044 0.0043864325 0.18138552
0.0038734786 -0.054222535 0.17634103
0.0066199899 -0.055187501 0.1753909
-0.055013549 0.0021234788 0.17718151
0.0025926139 -0.054232709 0.17270896
0.005084509 -0.056123003 0.1722756
-0.055968218 0.00038943067 0.17307448
-0.0039983615 -0.053117283 0.16819325
0.0011881925 -0.054317757 0.16793513
0.0037339088 -0.058231734 0.16797918
-0.054670766 -0.005119754 0.16744214
-0.0043428615 -0.052924767 0.16336423
2.2649765e-06 -0.055270702 0.16433656
0.0022683833 -0.058920249 0.16431919
-0.054751083 -0.010409871 0.16335419
-0.0059866104 -0.053527273 0.15767926
-0.051863741 -0.014754742 0.15823621
-0.015534358 -0.052440252 0.15627801
-0.051718138 -0.015421364 0.15473536
-0.048146002 -0.024821401 0.15249297
-0.017008655 -0.051536873 0.15199059
-0.049725235 -0.021009229 0.14993501
-0.044625033 -0.028661251 0.1486533
-0.038309693 -0.037575454 0.14848441
-0.03261105 -0.042739004 0.14783424
-0.022694809 -0.048134744 0.14596424
-0.014054053 -0.053895772 0.14777121
-0.048399508 -0.025806839 0.14395192
-0.042793773 -0.03305234 0.14409506
-0.035483979 -0.041003615 0.14388299
-0.027082494 -0.045776259 0.14346576
-0.046694625 -0.030343909 0.13951766
-0.04082676 -0.038419176 0.13992429
-0.044778563 -0.035733797 0.13551852
-0.04045929 -0.040891036 0.13334793
-0.043358237 -0.039328568 0.13230294
-0.052769959 0.0087482613 0.18445674
-0.053557612 0.008508794 0.17852464
0.009230718 -0.055580292 0.17365631
-0.055002257 0.0043337513 0.17088282
-0.054679289 0.0016804822 0.16677517
-0.0028688274 -0.053580143 0.16043007
0.00011940114 -0.05508168 0.16141692
0.0036680195 -0.058113497 0.16093686
-0.051288474 -0.0052540433 0.15832174
-0.0007562656 -0.055341616 0.15770718
0.003818851 -0.057928078 0.15891996
-0.0089829229 -0.052636534 0.15387046
-0.0028060768 -0.055366445 0.15280917
-0.051873289 -0.013369439 0.15219414
-0.0085313655 -0.055195518 0.14918804
-0.05029656 -0.018489366 0.14771089
-0.012947043 -0.054126468 0.14487329
-0.050226275 -0.019288117 0.14300889
-0.02633277 -0.045337021 0.14021391
-0.018675232 -0.051317371 0.14169914
-0.050696302 -0.020317929 0.13837439
-0.047608521 -0.028621722 0.13706636
-0.031002227 -0.042741526 0.13660717
-0.023948718 -0.048553895 0.13606229
-0.047801331 -0.026414882 0.13421294
-0.045090862 -0.032977067 0.13350359
-0.03154137 -0.04213503 0.13167137
-0.041618712 -0.037341975 0.12750095
-0.05436698 0.0083667412 0.16384417
-0.053629078 0.005359903 0.1636959
-0.0528455 0.0031260531 0.16007113
-0.05173514 0.00027148984 0.15858054
0.0028780811 -0.054493479 0.15414649
0.0049324166 -0.054774445 0.15508384
-0.051788419 -0.0053816643 0.15395337
0.0012901127 -0.05370453 0.14992377
-0.052105144 -0.0068068709 0.14943412
-0.00084745139 -0.053472344 0.14811444
-0.052911717 -0.0080335438 0.14538801
-0.0067954492 -0.053696919 0.14066511
-0.051855877 -0.013353553 0.14161706
-0.0081888549 -0.053469967 0.13814503
-0.052945614 -0.014068713 0.13683996
-0.017785966 -0.049693584 0.13435623
-0.052189715 -0.015148127 0.1321665
-0.047942862 -0.022559537 0.13134113
-0.030329339 -0.042807076 0.12960809
-0.022366911 -0.047378708 0.13003969
-0.015075495 -0.050959516 0.12894189
-0.046154678 -0.024283066 0.12748766
-0.035531454 -0.040318798 0.12627006
-0.027403532 -0.045141399 0.12432343
-0.020310408 -0.049253728 0.12525755
-0.044270262 -0.032780331 0.12218493
-0.036989793 -0.039798476 0.12148339
-0.028324813 -0.045095928 0.12032533
-0.053799033 0.0088923331 0.1608271
-0.053441402 0.0090553854 0.15728059
-0.052355111 0.0060059763 0.15684935
-0.050550804 0.0062408186 0.15278998
-0.050484076 0.0017342549 0.1528872
0.0014778022 -0.051976901 0.14432162
-0.002426818 -0.052573137 0.14097318
-0.053944163 -0.0031084996 0.13908207
-0.0097025316 -0.050494723 0.13439196
-0.00062640943 -0.051852241 0.13586766
-0.053716615 -0.0073834918 0.13370025
-0.0069483984 -0.05078866 0.12958682
-0.052761227 -0.012667535 0.13005438
-0.0089994557 -0.051637813 0.12495887
-0.050694678 -0.017278573 0.12540025
-0.045189541 -0.025324663 0.12457198
-0.014064174 -0.051897503 0.12210315
-0.051094249 -0.017548634 0.12019616
-0.045584284 -0.026920261 0.12075239
-0.039851405 -0.033947557 0.11809266
-0.023272676 -0.047470644 0.11929411
-0.015716484 -0.051152784 0.11879593
-0.045771945 -0.027485091 0.11564612
-0.039511092 -0.03448933 0.11453021
-0.032562345 -0.042372983 0.11388433
-0.023968974 -0.045727506 0.1139735
-0.046347152 -0.027319212 0.11147529
-0.039784402 -0.034473289 0.10997963
-0.033527624 -0.042306781 0.10912716
-0.034345031 -0.042094097 0.10540122
-0.05311995 0.01128711 0.15565205
-0.052388739 0.010997511 0.15097949
-0.050526001 0.0080606211 0.14951777
-0.049707834 0.0039967205 0.14956772
0.010349901 -0.049157716 0.1441015
-0.049608007 0.00688654 0.14439169
-0.049807228 0.0042557642 0.14569667
0.0050878152 -0.050047472 0.14058915
0.0098530501 -0.051278859 0.13997874
0.011104712 -0.053091832 0.13880694
-0.051422328 0.0029655155 0.14141014
0.0038670599 -0.051029898 0.13691133
0.0072334651 -0.05328548 0.13616189
0.010339374 -0.055790037 0.13566613
0.00097021274 -0.051677853 0.13246512
0.0057246964 -0.054506481 0.13177875
0.0089391079 -0.056960311 0.13311863
-0.053379241 -0.0049614292 0.13082343
-0.00014751218 -0.05198326 0.12823242
0.0044783745 -0.055514425 0.12811214
-0.053535994 -0.0059675928 0.12753057
-0.0023888443 -0.052895017 0.12330407
-0.053180229 -0.010882385 0.12294084
-0.0046291649 -0.054393202 0.11903459
-0.053152949 -0.012084296 0.11838037
-0.013694419 -0.051584903 0.11568683
-0.0053459294 -0.054365203 0.11455441
-0.051989757 -0.018051974 0.11512023
-0.022611 -0.047169603 0.11266911
-0.014924882 -0.050087813 0.11003053
-0.049415804 -0.022600934 0.10989279
-0.042608496 -0.032654561 0.10733217
-0.027659481 -0.045628577 0.10725093
-0.019581936 -0.04924126 0.10704321
-0.045519717 -0.027094156 0.1056909
-0.040270422 -0.034574959 0.10401165
-0.034576744 -0.042164326 0.10262579
-0.024658259 -0.04775079 0.10291249
-0.042016167 -0.031637471 0.10056269
-0.037345219 -0.03805726 0.099167645
-0.030038994 -0.045325894 0.099632919
-0.051291067 0.014103398 0.14710647
0.013257723 -0.047929499 0.14318317
0.016300356 -0.04856487 0.14073586
-0.051677685 0.014316455 0.14377713
-0.04998605 0.0092360415 0.14384025
0.0089325942 -0.049210832 0.13865894
0.015097177 -0.051680483 0.13845932
-0.051750381 0.013002098 0.13926882
-0.050830029 0.0083761066 0.13956106
-0.050435901 0.0071794204 0.13218084
-0.050969336 0.0040512215 0.13489771
-0.051455084 0.001650501 0.13049218
0.0019587576 -0.052390505 0.12510484
0.0051758196 -0.053736668 0.12398952
-0.052077711 0.0015001521 0.12508088
0.0017093122 -0.052506387 0.12141746
0.0039827507 -0.053646751 0.1207146
-0.00055383705 -0.053547636 0.11694026
0.0027421303 -0.053571239 0.11648828
-0.053527169 -0.0057385415 0.11730337
-0.0023118835 -0.053960234 0.11191839
-0.050919779 -0.0098617822 0.11140162
-0.0075650327 -0.051448233 0.10770249
-0.051768318 -0.011966979 0.10801917
-0.01771958 -0.049556822 0.10416585
-0.0087452419 -0.050702222 0.10484993
-0.047969785 -0.020666519 0.10234612
-0.022832962 -0.048351467 0.099941254
-0.014886374 -0.049661443 0.099949241
-0.044492409 -0.025251601 0.097296476
-0.040163122 -0.033614092 0.09733218
-0.032812964 -0.041230787 0.096171021
-0.024851585 -0.046530679 0.095973074
-0.042174108 -0.030185111 0.09295404
-0.037045244 -0.037391737 0.092691302
-0.030392429 -0.043579422 0.09227562
-0.033585008 -0.040441461 0.088247776
0.017977264 -0.049191315 0.14014435
-0.05128479 0.019356713 0.14152402
-0.052479371 0.018470922 0.13772428
-0.052284084 0.015777845 0.13740656
-0.051944584 0.014745448 0.13382769
-0.049113303 0.010754203 0.13368168
-0.050096929 0.0085684676 0.12745637
-0.050394583 0.0052821264 0.12819755
-0.052075498 0.0076935254 0.12267089
-0.052143648 0.0038437098 0.12399405
0.0071176812 -0.054011203 0.11916655
-0.053065598 0.0057957266 0.1176843
-0.053892806 0.0024052169 0.11979032
0.0055393223 -0.053503036 0.11392504
-0.05393599 0.0010277126 0.11420423
0.0034369044 -0.054287933 0.10958689
-0.052328967 0.00029785 0.11010861
-0.050386176 -0.006875027 0.10960943
-0.0019901302 -0.053935207 0.10590643
0.0010712706 -0.054744702 0.10522932
-0.05061318 -0.0076137781 0.1047675
-0.0072580725 -0.051684134 0.10226893
-0.049858794 -0.0095636211 0.1002537
-0.047417998 -0.018971376 0.099175036
-0.012639808 -0.050111711 0.097686589
-0.050609581 -0.010613766 0.096739829
-0.047468185 -0.019094415 0.09585458
-0.018749703 -0.046883062 0.093221843
-0.049621806 -0.014986185 0.092419863
-0.045738667 -0.024609305 0.09114629
-0.03983004 -0.032140423 0.089592814
-0.024825744 -0.045399338 0.08964318
-0.048066277 -0.020261597 0.087570727
-0.042473651 -0.028934317 0.08646816
-0.035878938 -0.035854831 0.085518181
-0.029489361 -0.04328569 0.084724903
-0.021951649 -0.046865474 0.084694207
-0.033149462 -0.039607886 0.080507278
-0.037788738 -0.037747603 0.07553196
-0.052556552 0.018697307 0.13475245
-0.050411083 0.015194284 0.13003924
-0.048844058 0.012926104 0.13025674
-0.050979223 0.014749972 0.12648261
-0.050039686 0.01187817 0.12644738
-0.052743781 0.01273261 0.12202823
-0.052138463 0.010977779 0.12253451
0.01075799 -0.052839015 0.11562395
-0.053608842 0.012233043 0.11782259
-0.052879043 0.0094905626 0.11775869
0.007719785 -0.053263679 0.11062944
0.010678096 -0.05281543 0.11172217
-0.053013109 0.0070679951 0.1130904
0.0068078898 -0.053991128 0.10754806
0.010772767 -0.053162642 0.10739619
-0.051178947 0.0040543135 0.10759711
0.0054812152 -0.053637877 0.10350358
-0.050820343 0.0024026409 0.10423404
-0.00066726469 -0.052533954 0.098503828
0.0042467099 -0.052837737 0.099498034
-0.050449543 -0.0069018565 0.098340809
-0.0014946442 -0.052008346 0.094590008
-0.012319162 -0.048393715 0.090497553
-0.051157296 -0.010620786 0.090046763
-0.048205372 -0.016752863 0.089494467
-0.013379214 -0.047745436 0.086096823
-0.049498349 -0.014268732 0.084927022
-0.038504425 -0.030494601 0.083913684
-0.014808455 -0.04744295 0.082080662
-0.045649212 -0.023772968 0.080587089
-0.038895659 -0.031735964 0.079762638
-0.033174999 -0.039465517 0.077413499
-0.024570327 -0.044938598 0.078936756
-0.045356266 -0.024892239 0.076448441
-0.041251384 -0.033740334 0.075181544
-0.034023542 -0.04010113 0.074217021
-0.024409961 -0.044317897 0.074703753
-0.041987516 -0.033730641 0.070745051
-0.035162993 -0.04097436 0.07030648
-0.033743218 -0.040507898 0.066105247
-0.053233758 0.012983361 0.11428881
-0.051964637 0.011993168 0.11406469
-0.052428275 0.014241137 0.11024851
-0.051868852 0.011276135 0.11039132
-0.055502094 0.013850737 0.10518557
-0.051224291 0.0096116215 0.1061995
-0.050237179 0.0064618737 0.10487419
0.0099669322 -0.053182974 0.10100406
-0.049745068 0.0050528925 0.10029405
-0.049203515 0.0013064966 0.10053092
0.0056570675 -0.051846903 0.095864415
0.0085387807 -0.053252298 0.096256018
-0.049107492 0.00078571774 0.096559584
0.0040572938 -0.052091815 0.092227936
0.009065073 -0.054297589 0.091967463
-0.049477138 -0.0044302754 0.091892958
0.0019489732 -0.05132705 0.088026106
-0.049954824 -0.0063890964 0.08733505
-0.003035441 -0.050226465 0.083306015
-0.049336709 -0.012006756 0.082621932
-0.012961889 -0.047822639 0.079153061
-0.0043968596 -0.050258592 0.080071211
-0.047285862 -0.016392879 0.076947987
-0.013992751 -0.047852781 0.07436496
-0.047030792 -0.017059051 0.072930694
-0.044544879 -0.025536222 0.072737753
-0.023927387 -0.043696307 0.071015
-0.015495438 -0.047609441 0.070379019
-0.042652331 -0.026300164 0.068484485
-0.023933072 -0.043161254 0.066191614
-0.033020232 -0.038511902 0.062495291
-0.039625492 -0.033460431 0.059683979
-0.052103322 0.014936304 0.10673404
-0.05146905 0.013187841 0.10723752
-0.051967982 0.015410407 0.10341746
-0.050860524 0.012359308 0.10289896
-0.049657304 0.0084609613 0.10255128
-0.049192272 0.011679143 0.098672271
-0.049501456 0.0084672105 0.097937703
-0.049278919 0.0056281108 0.095042348
-0.04877951 0.0031380188 0.093663037
0.0062665418 -0.05183699 0.088807762
0.0087834857 -0.052854855 0.088877618
-0.049003363 0.0021276474 0.089252532
0.00072560646 -0.050166056 0.085113585
0.0052311085 -0.051099278 0.084696472
0.0089184102 -0.051559992 0.085104287
-0.049769826 5.9733167e-05 0.085085332
-0.00045876764 -0.050572813 0.081459105
0.0029658526 -0.050748501 0.080548882
-0.049396642 -0.0045659002 0.080766618
0.0022159256 -0.050753005 0.076406956
-0.048116837 -0.010251062 0.076206625
-0.0037121512 -0.050251585 0.071906269
-0.047850706 -0.014979025 0.071075976
-0.013472104 -0.048631117 0.069016755
-0.0055690594 -0.050881676 0.066792965
-0.046992693 -0.016118499 0.067056119
-0.041199252 -0.026262002 0.064925432
-0.01926115 -0.045725502 0.065161049
-0.010617241 -0.050959222 0.063738227
-0.049481474 -0.013692683 0.063131213
-0.043936968 -0.020876281 0.063655198
-0.039047841 -0.029619491 0.06152457
-0.033010937 -0.037229739 0.059715092
-0.023974273 -0.043253664 0.060529172
-0.01614912 -0.049269453 0.060028613
-0.041870918 -0.025457993 0.056619883
-0.035862982 -0.03471655 0.056472838
-0.029806033 -0.041560724 0.056244016
-0.02087114 -0.046525806 0.055491388
-0.044265948 -0.026827939 0.052651942
-0.036999281 -0.03476879 0.05212456
-0.029880207 -0.041675866 0.051592529
-0.044841427 -0.028009225 0.048815906
-0.038514458 -0.035929266 0.047439456
-0.031139223 -0.041588284 0.048517227
-0.049693644 0.013641411 0.097472072
-0.047783442 0.013720119 0.092795968
-0.048137844 0.008722879 0.091468275
0.012604173 -0.052657008 0.085555375
-0.04854048 0.0083038211 0.087167323
0.011426942 -0.051456764 0.08257699
-0.052229296 0.010183107 0.08085978
-0.050191179 0.007343268 0.083183587
-0.049703866 0.0019898508 0.082615077
0.0071095154 -0.050076887 0.077930629
0.010453615 -0.051110752 0.07786262
-0.051816411 0.0060623959 0.078665316
-0.050258487 0.0012498852 0.078803778
0.0049648564 -0.049982335 0.073963046
-0.051644087 0.0041629747 0.075452745
-0.049957708 0.0007003583 0.074219525
-0.00090778433 -0.050610676 0.069486558
0.0033333246 -0.049540609 0.068943202
-0.049021348 -0.0046846867 0.068874896
-0.0017122589 -0.050416235 0.064612806
-0.048946589 -0.0097910222 0.064803421
-0.050499946 -0.0074112453 0.059264362
-0.046864286 -0.015408432 0.059343874
-0.041184425 -0.022048995 0.059143126
-0.050489474 -0.012558997 0.055508435
-0.044294327 -0.019447969 0.054780543
-0.018552568 -0.046725065 0.051807046
-0.04553432 -0.020643562 0.050221026
-0.027357893 -0.041366171 0.048077166
-0.020791056 -0.045796923 0.048514843
-0.045421105 -0.026096273 0.045997441
-0.032680519 -0.039504897 0.045170426
-0.024749307 -0.042775169 0.044280112
-0.046723064 -0.023244996 0.041685998
-0.041958183 -0.030361675 0.04121387
-0.035275131 -0.038668562 0.040908933
-0.03597277 -0.037664432 0.036747992
-0.048582174 0.017398492 0.095467269
-0.047643438 0.016601875 0.089223564
-0.047256723 0.012231439 0.089175761
-0.04932788 0.014840223 0.085543692
-0.048250936 0.01138215 0.087123752
-0.050876811 0.011450388 0.082483172
0.013443599 -0.051711597 0.076419234
0.015349451 -0.052199461 0.075553894
-0.053184703 0.0094812158 0.077683687
0.0073499922 -0.049687691 0.071429849
0.010765508 -0.051779713 0.071871996
-0.052396212 0.010814987 0.072384953
-0.051257469 0.0067648198 0.072190881
-0.049914289 0.0031537209 0.071514189
0.0063720495 -0.049597867 0.066856086
0.010367932 -0.051685847 0.066455126
-0.049599227 0.0017672833 0.067649126
0.004412055 -0.049148582 0.063258231
-0.049031757 0.00083971024 0.063230693
0.00051967241 -0.049539585 0.058211744
-0.0063590109 -0.048962526 0.053788841
-0.050317235 -0.0090404376 0.052739143
-0.0080517624 -0.048158821 0.050210416
-0.049400557 -0.010650519 0.049284399
-0.017195778 -0.045320228 0.048071146
-0.010015126 -0.04752595 0.044783413
-0.047490411 -0.01485396 0.043705523
-0.024506064 -0.042867947 0.041510642
-0.015660832 -0.046997543 0.041734874
-0.046746332 -0.02081329 0.039771855
-0.042357422 -0.029074151 0.038010538
-0.021539349 -0.044421908 0.037679076
-0.046252459 -0.021567717 0.035466373
-0.041703455 -0.029364977 0.034572899
-0.03573801 -0.037859406 0.034058988
-0.026975565 -0.041403141 0.033076346
-0.012530668 -0.056022793 0.032209575
-0.038846359 -0.033241358 0.030721009
-0.031613801 -0.040585943 0.029540479
-0.031554371 -0.041955549 0.025733769
-0.048365228 0.01849518 0.086634338
-0.051142216 0.012486991 0.068673074
-0.050690524 0.010482443 0.069466412
0.011318285 -0.051076598 0.062894642
-0.050069571 0.0090890173 0.065673709
-0.049283031 0.0040082224 0.064797997
0.0053359699 -0.048599381 0.059978485
0.0099899098 -0.049436335 0.060215533
0.013314079 -0.05149357 0.061916351
-0.049625434 0.0075798314 0.060990095
-0.04909445 0.0037350934 0.060507119
0.0056214537 -0.048245836 0.056480825
-0.048905391 0.0023888517 0.056031585
0.00033750013 -0.046532728 0.0510993
0.0026425049 -0.047440059 0.051575959
-0.0014917832 -0.047526695 0.047271729
0.0010205023 -0.048753247 0.046989918
-0.049050666 -0.0079708062 0.045725822
-0.0040493701 -0.05000852 0.043024361
-0.049140513 -0.0096344426 0.042050242
-0.0067610014 -0.050756723 0.038471043
-0.047850415 -0.014747262 0.037513077
-0.019417247 -0.04455417 0.034265816
-0.012470214 -0.049394116 0.034707308
-0.004640419 -0.053365707 0.031957865
-0.048366979 -0.014894083 0.032601297
-0.043944236 -0.024473665 0.032109797
-0.020584166 -0.043198347 0.029968917
-0.013882767 -0.050527401 0.030597448
-0.0059739742 -0.055272654 0.031075954
-0.044777151 -0.020286959 0.026985943
-0.041353282 -0.028574994 0.027478516
-0.034688577 -0.035300732 0.026532888
-0.026812062 -0.042390876 0.026536584
-0.01807325 -0.046383619 0.026984811
-0.011219667 -0.052453518 0.027136981
-0.040918037 -0.027903806 0.023574233
-0.034143727 -0.03511627 0.022304952
-0.028135613 -0.042811699 0.022100866
-0.050356768 0.013823722 0.06330961
-0.048939414 0.011306336 0.063107073
0.012821643 -0.047372796 0.055826366
-0.050035924 0.014620192 0.058489859
-0.049745739 0.010827182 0.057956278
0.0079566557 -0.047159642 0.052367389
0.0096137021 -0.04800266 0.056013644
-0.049263038 0.0097704418 0.054322422
-0.048451543 0.0061335005 0.053277612
0.0062362906 -0.047498316 0.04939425
-0.048055865 0.0036797114 0.048992693
-0.047936935 1.3953075e-05 0.049013138
0.0041218922 -0.049235635 0.044267893
0.0077796318 -0.049285099 0.04307723
0.0036588237 -0.049510643 0.039405167
-6.675534e-05 -0.050282046 0.03580457
-0.049735632 -0.0069485009 0.034233689
-0.049645305 -0.0089753084 0.031062782
-0.048334841 -0.013370415 0.028476298
-0.044970378 -0.020181142 0.022743583
-0.040736645 -0.027570412 0.021100819
-0.03984578 -0.026913896 0.017085969
-0.03357289 -0.034282353 0.017108619
-0.027401164 -0.039798696 0.015220344
-0.0502166 0.014620649 0.056491196
0.01502203 -0.045299746 0.050565958
-0.049259439 0.011253526 0.051394284
0.012197588 -0.046729438 0.046212375
-0.050185554 0.01059138 0.048085868
-0.048388608 0.0065061972 0.047104061
0.0073994957 -0.046303488 0.043786764
0.010188982 -0.047870547 0.042216063
-0.050316148 0.0096770711 0.043347657
-0.048734523 0.0056591928 0.042925119
0.0072460845 -0.049630903 0.038284421
-0.049182914 0.003756294 0.038902879
-0.04890199 0.00076945499 0.03784889
0.0029219277 -0.050383419 0.033964694
0.0067082737 -0.050037604 0.035648465
-0.049135894 0.00011187233 0.033369362
-0.047830094 -0.0044442136 0.027253568
-0.03935232 -0.023390932 0.013338983
-0.029773977 -0.036168054 0.012447655
-0.03222847 -0.032570031 0.0093727708
0.017063402 -0.044533379 0.047493577
0.016215362 -0.045610607 0.045763791
0.013263214 -0.046590589 0.040308177
-0.049747124 0.010648347 0.039238095
-0.0496305 0.010632202 0.036308825
-0.048978098 0.007251462 0.036369026
-0.048204012 0.0064842906 0.031286776
-0.047892235 0.0023025051 0.032036483
-0.048238307 0.00058700889 0.026764691
-0.047251321 0.0012617018 0.023564994
-0.03607199 -0.023358688 0.0078409314
-0.032207873 -0.030039059 0.0059985518
-0.048138171 0.0084002763 0.02870667
-0.047979094 0.0067814887 0.025915325
-0.047314845 0.0037372056 0.022168577
