# .PCD v0.7 - Point Cloud Data file format
VERSION 0.7
FIELDS x y z
SIZE 4 4 4
TYPE F F F
COUNT 1 1 1
WIDTH 1214
HEIGHT 1
VIEWPOINT 0 0 0 1 0 0 0
POINTS 1214
DATA ascii
-0.018042963 0.0035522394 0.34845144
-0.025298569 -0.0033129994 0.34877667
-0.027385114 -0.0052061751 0.34791836
-0.013612362 0.01324066 0.34645802
-0.020590711 0.0062875994 0.3468962
-0.0267592 -0.0013892408 0.34525084
-0.027973274 -0.0044813752 0.34601036
-0.011550046 0.018905688 0.34289157
-0.01952395 0.012554438 0.34333485
-0.025933679 0.005243524 0.34222633
-0.03003706 -0.0019198842 0.33895728
-0.016504876 0.01694834 0.33791822
-0.024261355 0.010650398 0.3378076
-0.028288107 0.0018293587 0.33770597
-0.021147702 0.014842588 0.3338142
-0.026765566 0.0077918163 0.33306089
-0.041202851 0.02277969 0.29247311
-0.036578394 0.031604502 0.28809637
-0.042479869 0.025388442 0.28832781
-0.037576996 0.033400994 0.28496179
-0.044391427 0.02762565 0.28424513
-0.039058741 0.034292202 0.28064874
-0.045972377 0.029530495 0.27993056
-0.046358403 0.030506067 0.27600229
-0.0066176895 0.010326018 0.34786066
-0.011674438 0.0048007658 0.3493582
-0.019880652 -0.0017876001 0.34910864
-0.0098611508 0.011586284 0.34751207
-0.026593726 -0.0037456648 0.34362713
-0.027521759 -0.0047976067 0.34275338
-0.027625112 -0.0025231214 0.34121984
-0.028692421 -0.0051201051 0.33936855
-0.01024179 0.018388987 0.33639288
-0.027671583 -0.00029812939 0.33448452
-0.029086187 -0.0028296262 0.3368904
-0.015357548 0.017110361 0.33142698
-0.024336847 0.0091263177 0.33041826
-0.027399249 0.0017245617 0.32960674
-0.019575868 0.013689545 0.32684845
-0.025509523 0.0068838708 0.32610077
-0.02290233 0.010174432 0.32265109
-0.026339281 0.018876951 0.30632472
-0.03113474 0.014552867 0.30613491
-0.023576431 0.026604619 0.30204135
-0.030239873 0.018782562 0.3032665
-0.035719201 0.012252342 0.30320829
-0.025088547 0.028281417 0.29995242
-0.032607634 0.021642778 0.299716
-0.039097484 0.014134322 0.29942262
-0.022887168 0.03330284 0.29602635
-0.030708764 0.027085438 0.2964443
-0.038155373 0.020406157 0.29617685
-0.04292389 0.011812562 0.29405361
-0.021476936 0.037609823 0.28967467
-0.028875096 0.032638229 0.29244667
-0.036052324 0.026095733 0.29277137
-0.043269038 0.01811102 0.29123077
-0.047513846 0.010887694 0.28905979
-0.026036134 0.037477139 0.28761145
-0.034024257 0.032016397 0.28864452
-0.047560398 0.016320063 0.2863937
-0.024253298 0.040933885 0.28224087
-0.031943019 0.036353588 0.28370106
-0.046832047 0.021992238 0.28280076
-0.050988361 0.0139993 0.28017101
-0.028792202 0.040966395 0.2784431
-0.036936138 0.035406735 0.27897793
-0.048388392 0.023670327 0.27836925
-0.051339336 0.016233953 0.27588981
-0.03465743 0.039727878 0.27470165
-0.042068552 0.033001725 0.27443013
-0.048693288 0.025321722 0.273289
-0.031482082 0.043729302 0.26976401
-0.039713744 0.038040448 0.27005708
-0.046517793 0.030978462 0.26959351
-0.033057537 0.043759309 0.26691818
-0.040385857 0.038848277 0.26510793
-0.04650943 0.032422431 0.26469216
-0.040582933 0.039510578 0.2612209
-0.046616521 0.033387635 0.26073837
-0.026256002 -0.0035443287 0.33285996
-0.0081616398 0.017094437 0.32906041
-0.027035195 -0.0017478429 0.32771838
-0.012392513 0.015772285 0.32449228
-0.027431495 0.0019440148 0.32399577
-0.017316522 0.013070682 0.31958956
-0.024927542 0.0060690222 0.31922323
-0.01868752 0.013033968 0.31506646
-0.025383294 0.0070154946 0.31440422
-0.013842907 0.022454716 0.30877757
-0.01995163 0.016001318 0.31034765
-0.02703063 0.0089921989 0.31005251
-0.012393958 0.027391486 0.30539754
-0.01810877 0.021779427 0.30658859
-0.026235202 0.015726369 0.30725434
-0.032730538 0.0081938012 0.30571836
-0.010694477 0.032827199 0.30107287
-0.016989261 0.027865266 0.30330613
-0.023839943 0.021072075 0.30442864
-0.035809927 0.009253907 0.30239677
-0.040518284 0.0025924668 0.29914135
-0.015211145 0.032737046 0.29866678
-0.04110916 0.0083214249 0.29767209
-0.044729192 0.00054908544 0.29438818
-0.016908735 0.034750484 0.29435852
-0.045283817 0.0066758301 0.29277539
-0.014413975 0.039161664 0.28951734
-0.047986846 0.0082672294 0.28819782
-0.050185055 0.0011637192 0.28614539
-0.015803427 0.041464109 0.28538293
-0.049834445 0.0098140519 0.28425416
-0.051904235 0.0032258686 0.28185368
-0.017270505 0.043262228 0.28091663
-0.051680401 0.011609247 0.27944633
-0.053540926 0.0051992238 0.27750534
-0.023460992 0.04276308 0.27700001
-0.05375199 0.009857215 0.27377102
-0.020613333 0.045995459 0.27196842
-0.050217856 0.020147577 0.2707783
-0.05492653 0.011337506 0.26908031
-0.022195214 0.047117297 0.26786891
-0.029338077 0.045056 0.26781309
-0.050548382 0.021534782 0.26691416
-0.054778673 0.012938673 0.26520747
-0.026412081 0.046555996 0.26335427
-0.034991842 0.041573387 0.26286748
-0.046826869 0.030415574 0.26200661
-0.051033154 0.022312734 0.26169369
-0.03081397 0.044482302 0.25881758
-0.038982715 0.039375439 0.25849858
-0.046511963 0.032097053 0.25805086
-0.050736845 0.023282381 0.25708231
-0.039293677 0.039498422 0.2538695
-0.046319369 0.032666944 0.25316656
-0.0039426917 0.017402411 0.3263315
-0.0039083068 0.017719852 0.32172719
-0.0056821499 0.019517533 0.32124817
-0.012088542 0.015421042 0.31782994
-0.026116211 -0.00070157647 0.31595293
-0.026595537 -0.0043984745 0.31547374
-0.012980214 0.016064443 0.31416339
-0.027129173 0.00035993103 0.31222826
-0.010717012 0.021076292 0.30937868
-0.017392889 0.015528858 0.31204328
-0.03083897 -0.0008183578 0.30629718
-0.0093336627 0.026372556 0.30573416
-0.031781353 0.0037547657 0.30556491
-0.036240131 -0.002190616 0.30250645
-0.037514634 -0.0058389138 0.30134737
-0.0098447502 0.029075081 0.30368549
-0.039219189 -0.0004684478 0.30041698
-0.040705569 -0.0039868932 0.29763106
-0.0079620099 0.034852944 0.29729319
-0.044007912 -0.0023952313 0.29466867
-0.0447511 -0.0050775092 0.29255328
-0.0094468892 0.037650775 0.29318762
-0.046889462 -0.00050752237 0.29091123
-0.047828168 -0.0035076346 0.28903922
-0.049451157 -0.0061290022 0.2863414
-0.011171029 0.039622411 0.28965327
-0.05030828 -0.0018850863 0.28500965
-0.05083853 -0.0045075938 0.28416467
-0.0097058173 0.043088414 0.28441337
-0.052977033 -0.0039245021 0.27917835
-0.011520358 0.045068778 0.27998433
-0.054634169 -0.0021281242 0.27495331
-0.013106378 0.046750993 0.27528292
-0.056125097 0.00010301732 0.27111638
-0.013964031 0.047738358 0.27046177
-0.057365991 0.0055042971 0.26751608
-0.01498742 0.047828913 0.26613045
-0.055531621 0.010929154 0.26389748
-0.057478737 0.0036387499 0.26269662
-0.054485627 0.016290063 0.25845003
-0.057462782 0.008534804 0.25847346
-0.026042396 0.04664338 0.25751171
-0.05132509 0.022096323 0.25530383
-0.055971749 0.013112079 0.25377861
-0.022763988 0.04780408 0.25354335
-0.03042068 0.045226753 0.25267157
-0.038597647 0.04022092 0.25095978
-0.049733296 0.026401531 0.25091249
-0.053930245 0.01911943 0.25027293
-0.03031059 0.044423521 0.24813604
-0.039026983 0.039845787 0.24763507
-0.046722703 0.033225231 0.24754044
-0.051478278 0.024281189 0.24591938
-0.036068927 0.0412337 0.24383292
-0.043066055 0.036595032 0.2430228
-0.049332641 0.029718745 0.24233267
-0.004090494 0.016241398 0.31653351
-0.026606109 -0.0064031826 0.31319678
-0.0058652526 0.017922765 0.31221741
-0.027285933 -0.0055045234 0.30972999
-0.03032865 -0.010646742 0.30636501
-0.03188841 -0.012184166 0.30625492
-0.0047649126 0.021713337 0.30752853
-0.029899377 -0.0039642276 0.30649704
-0.031788122 -0.0068499977 0.30493638
-0.034195498 -0.01108857 0.30409765
-0.0052579548 0.02441258 0.30544835
-0.034291152 -0.0051277215 0.30307376
-0.037121512 -0.009475369 0.30071312
-0.03823857 -0.012453545 0.29754481
-0.0031406088 0.030945063 0.30002165
-0.040081188 -0.0073675606 0.29689553
-0.040850196 -0.010750515 0.29426709
0.0010183528 0.035768509 0.29172039
-0.043858599 -0.0088231843 0.29191923
-0.045330554 -0.012759548 0.29005128
-0.047209062 -0.015263855 0.28866461
-0.0028804876 0.036840554 0.29142088
-0.04645583 -0.0074130911 0.28977671
-0.048361324 -0.010537559 0.28656662
-0.0048766714 0.039755911 0.28775746
-0.050367292 -0.0093227457 0.28216442
-0.053212725 -0.0077557433 0.2784656
-0.053013779 -0.010534391 0.27601364
-0.0041616149 0.046015047 0.27778876
-0.055625536 -0.005339114 0.27399987
-0.055727199 -0.0084738322 0.27279001
-0.056344733 -0.0032924656 0.2693336
-0.056386352 -0.0069394913 0.26837456
-0.01177462 0.048105847 0.26803672
-0.057107978 -0.0014601387 0.26438415
-0.05744797 -0.0057023447 0.26338512
-0.012712711 0.048471525 0.26488599
-0.059093438 -0.0040417295 0.25892133
-0.014004067 0.048914935 0.26006359
-0.057903171 0.0065252874 0.25580412
-0.011118276 0.050581925 0.25561574
-0.019148551 0.04816721 0.25574094
-0.058031224 0.0039101504 0.25170523
-0.020318806 0.04892391 0.25049129
-0.054375488 0.018102005 0.24705589
-0.057034329 0.0088680889 0.2471492
-0.025502471 0.047012527 0.24585199
-0.032259926 0.043505017 0.24510744
-0.053637959 0.019326413 0.24377662
-0.057012685 0.010363609 0.24297863
-0.029550945 0.045185614 0.24150327
-0.038184311 0.03977631 0.24014193
-0.046178743 0.033153675 0.23896998
-0.050903857 0.023867346 0.23934528
-0.055381872 0.015769431 0.23929295
-0.03839206 0.039982699 0.23574695
-0.045049846 0.032462589 0.23508459
-0.049600132 0.025313534 0.23506764
0.002395391 0.016256139 0.31318408
-0.02568637 -0.012564283 0.30919915
0.0018261345 0.016528133 0.30810118
-0.027911212 -0.01088557 0.30740666
-0.032061949 -0.01309873 0.30677792
0.0025033774 0.021366872 0.30470783
0.00043437816 0.019713357 0.30694789
-0.034824587 -0.014258947 0.30314031
-0.035951611 -0.015869562 0.30181062
0.0076463316 0.028808597 0.29850608
0.0048461715 0.027021646 0.30008101
0.0020755529 0.024440017 0.30239952
-0.037719164 -0.015466972 0.29799631
-0.040121727 -0.018791793 0.29638264
-0.042317282 -0.020958263 0.2948136
0.0069332076 0.030720379 0.29617682
0.0035536801 0.029997874 0.29722637
-0.040070385 -0.013579233 0.29444483
-0.042016357 -0.016837403 0.29300764
-0.043299079 -0.019775487 0.29229978
0.0092166914 0.036634814 0.29120153
0.0057446426 0.034256645 0.29216474
0.0023921449 0.032141998 0.29480609
-0.044818215 -0.015800864 0.29017678
-0.046789516 -0.017290169 0.28800872
0.0070880577 0.038469836 0.28765035
0.0040718447 0.037462346 0.28839171
-0.048042253 -0.017466564 0.28321314
0.0053585861 0.040440604 0.28403819
0.003053084 0.040532336 0.28478885
-0.049911655 -0.016345819 0.27932
0.0033303238 0.043184549 0.27951694
0.0011769067 0.042562328 0.28208014
-0.052446634 -0.014102442 0.27553043
0.0019808542 0.045628801 0.27565902
-0.055704497 -0.011764633 0.27147803
-0.055532672 -0.016078074 0.26992002
0.0045015235 0.04853899 0.27105835
0.0004324019 0.047315203 0.27107325
-0.056055073 -0.010272294 0.2660802
-0.055303775 -0.014318069 0.26704156
-0.057740685 -0.0082998984 0.26168081
-0.057474233 -0.012225283 0.26032197
-0.0050485339 0.050255544 0.26252675
-0.05906269 -0.0070404112 0.25841865
-0.060257673 -0.0099944323 0.2569539
-0.0064417832 0.050211161 0.25749967
-0.058350231 -0.0040927362 0.25381115
-0.060022645 -0.0086088758 0.25435501
-0.012451321 0.050095104 0.25254157
-0.057749774 -0.0021372568 0.24792933
-0.013346434 0.049772512 0.24788308
-0.057873677 0.0025318637 0.24409509
-0.018506091 0.049209896 0.24371076
-0.058206245 0.0043819081 0.23946053
-0.019441767 0.049028229 0.23908523
-0.028355319 0.044302307 0.23730218
-0.052680172 0.018960623 0.23507226
-0.057028629 0.0095698815 0.235688
-0.027599968 0.04383447 0.23342222
-0.045450799 0.030646261 0.23252058
-0.050214794 0.023532584 0.23247066
-0.054357272 0.015316192 0.23136008
-0.028845288 0.044362102 0.22902623
-0.03702331 0.03925043 0.22960761
-0.044039473 0.031493835 0.22897378
-0.050206523 0.024178281 0.22800466
-0.033193164 0.042061634 0.22588637
-0.040287115 0.036188509 0.2239399
-0.047266565 0.028777562 0.2238566
-0.053708062 0.021301026 0.22405431
0.013546969 0.022496426 0.30587494
0.0073058358 0.016822677 0.30614284
0.0048549953 0.016334699 0.30772626
0.012164583 0.024231391 0.30121672
0.009317847 0.022762436 0.30230951
0.0064859539 0.0199764 0.30437496
0.013195119 0.031734504 0.29796448
0.011266514 0.028375518 0.29892108
0.0070393821 0.025046367 0.30135626
-0.036041509 -0.019289482 0.29845884
0.012696045 0.032998264 0.29491693
0.010432667 0.031527162 0.29544607
-0.042893298 -0.022410685 0.29120755
0.012665205 0.040106509 0.28983903
0.011496115 0.036714256 0.29176921
0.009175946 0.033923306 0.29345405
-0.047644544 -0.021288343 0.2849052
0.013002599 0.039132375 0.28609589
0.0099639995 0.038866028 0.28692278
-0.048852131 -0.01980789 0.28093559
-0.047698349 -0.02278576 0.28067419
0.015648765 0.04471837 0.27974612
0.01211329 0.041986294 0.28089198
0.0086474791 0.040653534 0.28263044
-0.050698146 -0.021424711 0.27713946
0.01449392 0.045530431 0.27690172
0.010804182 0.044075742 0.27717069
0.006927317 0.04250608 0.27860713
-0.052802157 -0.019354494 0.27309227
0.0093103368 0.045574829 0.27348712
0.0059065111 0.044903889 0.27410853
-0.056352518 -0.017592417 0.26772752
-0.056597233 -0.019568859 0.26867279
0.0066311788 0.047500972 0.2716018
0.0048836265 0.04625126 0.27001539
-0.056245781 -0.01559961 0.26412874
-0.058381833 -0.018361544 0.26358953
0.0027053058 0.046878569 0.26351199
-0.057849661 -0.014785772 0.25940216
-0.05904942 -0.017415492 0.25839707
0.0020455457 0.047832191 0.25995189
-0.059443958 -0.013774471 0.25618842
-0.060187493 -0.015151978 0.25587246
-0.057675049 -0.0067311376 0.25057307
-0.057834636 -0.010436788 0.25032929
-0.0054811165 0.051731288 0.25078136
-0.058205567 -0.004914416 0.24691039
-0.058404893 -0.0085433926 0.24544024
-0.058778845 -0.0030138399 0.24203193
-0.060232565 -0.0065168235 0.24048007
-0.01225345 0.050755665 0.2426762
-0.059451565 -0.0017967783 0.23736334
-0.060854249 -0.0049674343 0.23685399
-0.013541425 0.050942831 0.23790571
-0.058153294 0.0038150493 0.23401579
-0.017645355 0.04861176 0.23239535
-0.054900557 0.014030786 0.22945747
-0.057753846 0.0050897244 0.2299338
-0.02259987 0.046306852 0.22768506
-0.053702988 0.01836138 0.22498968
-0.055897046 0.010893825 0.22585919
-0.028250907 0.045042794 0.22335106
-0.037009601 0.039489795 0.22181413
-0.045005862 0.031902194 0.22099379
-0.050556961 0.024914727 0.22078484
-0.053763337 0.015674694 0.22149986
-0.032805037 0.042572409 0.21788174
-0.040260132 0.036730107 0.21793553
-0.047584806 0.029463086 0.21743244
-0.05176137 0.021473585 0.2156997
-0.036157206 0.039135776 0.21398503
-0.043383051 0.032805137 0.21301597
0.013514543 0.018518552 0.30447203
0.011222433 0.015635122 0.30603546
0.01530131 0.022436768 0.30146688
0.012842426 0.019805839 0.30308989
0.016780475 0.035212215 0.29003701
0.01694065 0.037800133 0.28273812
0.016310658 0.042739257 0.27987441
0.015140142 0.039602757 0.28150719
0.017471053 0.046479627 0.27633107
0.014057282 0.046174522 0.27309558
0.0092773251 0.042695895 0.26380631
0.0088741817 0.045403443 0.26084641
0.0076206401 0.044452175 0.2617169
0.008948518 0.04667129 0.25755495
0.0059143566 0.046403058 0.25805113
0.0066115595 0.048679419 0.25302666
0.0033697225 0.048815485 0.25352693
-0.057734951 -0.012936138 0.24868941
-0.057526976 -0.016879788 0.24668309
0.0027575064 0.049248002 0.24851453
-0.058355197 -0.01158981 0.24412885
0.00029785372 0.049353745 0.24476013
-0.059107337 -0.010418786 0.24066022
-0.059015505 -0.0036275461 0.23421985
-0.059477441 -0.0079560317 0.2342017
-0.057431083 0.00025691465 0.23108184
-0.057867065 -0.0031805132 0.23186249
-0.011909371 0.049873691 0.23042932
-0.05646944 0.0059961565 0.22643739
-0.012885094 0.049520057 0.22563216
-0.020003414 0.047341853 0.22529295
-0.057428043 0.0045569092 0.22202533
-0.021427203 0.046514526 0.22184333
-0.053793214 0.013627417 0.21885008
-0.056883991 0.0056264475 0.21867916
-0.02245588 0.046585459 0.21696982
-0.030471191 0.043821566 0.21566024
-0.052333087 0.018835997 0.21377218
-0.0541666 0.010534715 0.21468407
-0.027419932 0.04526829 0.21165296
-0.036116108 0.039263193 0.21142504
-0.043379821 0.0329509 0.21048072
-0.048708398 0.024547799 0.21038094
-0.052806474 0.015876876 0.2096768
-0.03602815 0.039480034 0.20678583
-0.043327555 0.033067487 0.20633194
-0.048287064 0.025057472 0.20580286
-0.036319673 0.040030859 0.20296562
-0.042069044 0.034194328 0.202685
0.016147297 0.044454381 0.26393163
0.013761402 0.042842891 0.26385713
0.015456541 0.046511851 0.25994155
0.012319133 0.044838876 0.26054704
0.014453713 0.047322519 0.25596011
0.010835797 0.046874382 0.25623995
0.010289127 0.048216902 0.25127605
0.008021906 0.047614735 0.24597299
-0.057272203 -0.015970146 0.24358916
0.0075499639 0.048414953 0.24220827
0.0035075489 0.048935607 0.24151826
0.0077346191 0.054892048 0.23722425
0.0019963831 0.04942701 0.23692203
-0.059101529 -0.0090725385 0.23186576
0.00026443973 0.04998263 0.23263884
-0.056250036 -0.0058914591 0.227754
-0.057946943 -0.0088138282 0.22926709
4.5575202e-05 0.050478995 0.22948804
-0.056445852 -0.003972685 0.22367913
-0.0099709872 0.049664356 0.22381026
-0.057923764 -0.0019532517 0.21943581
-0.014166851 0.04838657 0.21920288
-0.057050724 0.0039538927 0.21602735
-0.057376578 -1.6903505e-05 0.21454766
-0.015982855 0.04863888 0.21456742
-0.054159824 0.012905506 0.2105642
-0.056953251 0.0048747435 0.21053529
-0.016742185 0.049610101 0.20943949
-0.051782522 0.017804874 0.20726597
-0.05548574 0.010097796 0.20627597
-0.017785225 0.04881008 0.20596611
-0.026395271 0.044684123 0.2057192
-0.048517112 0.023249784 0.20328131
-0.052360564 0.015450004 0.20267853
-0.026843214 0.045039497 0.20059523
-0.035320263 0.040643867 0.19980234
-0.042301249 0.032829214 0.19948322
-0.048277922 0.024672963 0.1988802
-0.052601788 0.016111905 0.19917741
-0.03537669 0.040364653 0.19513908
-0.042265501 0.033797588 0.19464111
-0.047751844 0.025812278 0.1942077
-0.043305852 0.032923549 0.19109946
0.018510636 0.044549882 0.26150683
0.018169291 0.046722002 0.25317997
0.020136163 0.048249368 0.25058332
0.016586609 0.047042418 0.24916089
0.014799705 0.047859266 0.24198061
0.012562206 0.046650574 0.24397182
0.012967125 0.049837857 0.23917246
0.0098748431 0.049049154 0.24055126
0.0084437039 0.054446138 0.23505077
0.0086680148 0.050059248 0.23563957
0.0050960034 0.049268171 0.23572814
0.0093161687 0.053861 0.2327486
0.0073943697 0.050683051 0.23075458
0.0037136171 0.049946517 0.23135218
-0.055902917 -0.011779882 0.22490457
0.0088263415 0.054932371 0.22646528
0.0024041478 0.050533988 0.22718933
-0.05603328 -0.0077908114 0.22268248
-0.055581667 -0.011105865 0.22146919
0.0010932274 0.050710686 0.2218135
-0.057572536 -0.0054534022 0.21771538
-0.057089534 -0.0094479136 0.21653679
-0.0087832566 0.049641881 0.21682352
-0.05746524 -0.003627019 0.21292588
-0.057787657 -0.0054544155 0.2104584
-0.0097604636 0.050089575 0.21286333
-0.058448143 -0.0006062258 0.20945123
-0.058537394 -0.0045255329 0.20766598
-0.058024142 0.005386889 0.20436564
-0.015611947 0.048999928 0.20341483
-0.053481154 0.013315028 0.20054841
-0.057043962 0.0059885904 0.19992393
-0.016884206 0.04853908 0.19839457
-0.02559524 0.045892216 0.19774371
-0.052703425 0.015113467 0.19680798
-0.056769907 0.0062994007 0.19616625
-0.025795214 0.044735089 0.19333842
-0.033253092 0.041849051 0.19304344
-0.050347876 0.020421404 0.19182611
-0.026819028 0.044157274 0.1896919
-0.03515505 0.040790617 0.189762
-0.042268965 0.034384012 0.18938026
-0.048480738 0.025452761 0.18781176
-0.03120907 0.042454433 0.18533462
-0.039806645 0.038315065 0.18515307
-0.045728557 0.030431895 0.18374738
-0.036842167 0.040589094 0.1808303
-0.04164023 0.035059616 0.18071949
0.017795961 0.04670313 0.24646017
0.017227739 0.047826089 0.24304947
0.015670946 0.048266467 0.24012306
0.013222089 0.049944125 0.23567206
0.010528386 0.049840011 0.22844559
-0.05392218 -0.016991001 0.22128424
-0.056297921 -0.016588757 0.22234187
0.0087735914 0.049571063 0.22525585
0.005152043 0.04931502 0.22358346
-0.055644095 -0.014060495 0.21938887
-0.055942051 -0.016908586 0.21857697
0.0039760955 0.050291263 0.22021833
-0.05709786 -0.012291202 0.21513548
-0.05745437 -0.015103018 0.21557716
0.0023775343 0.049663763 0.21426746
-0.056828782 -0.010434959 0.20980629
0.00049574301 0.049610894 0.21144328
-0.057492748 -0.007981319 0.20741829
-0.0082118306 0.050079197 0.20537293
-0.058730021 -0.004162997 0.20262045
-0.0091095529 0.04862269 0.20085868
-0.056991421 0.0031203572 0.19739664
-0.01037628 0.048688307 0.19669256
-0.054899953 0.0088402461 0.19306701
-0.05692894 0.0009077508 0.19364181
-0.019738935 0.047369048 0.19207546
-0.052146617 0.01495884 0.18865493
-0.05585172 0.0058877692 0.18964624
-0.020212982 0.046961755 0.18721223
-0.027837014 0.043294892 0.18611166
-0.05178244 0.015860217 0.1844627
-0.025207877 0.045228943 0.18235245
-0.03280282 0.042129554 0.18226114
-0.050128177 0.020922644 0.18087769
-0.029395586 0.043292046 0.17798674
-0.038649272 0.037570186 0.17798442
-0.044833262 0.030105855 0.17796221
-0.049401242 0.021819262 0.17680031
-0.037690889 0.036856264 0.17357877
-0.0438486 0.030102259 0.17374513
0.012163764 0.048162393 0.22131363
0.0087751392 0.049567465 0.21794173
0.0063701011 0.049885452 0.21635967
0.0064077899 0.04916627 0.21248195
-0.057301305 -0.013928823 0.20725006
0.0028346721 0.049296509 0.20896679
-0.055200808 -0.011640096 0.20394585
0.0020161401 0.048893124 0.20340496
-0.055181906 -0.010357294 0.19830269
-0.0055077784 0.048108488 0.1980086
-0.055965714 -0.0047282912 0.19323239
-0.056661405 -0.0063505359 0.19721133
-0.0073684659 0.048707575 0.19431832
-0.055431843 -0.0014186334 0.1901193
-0.055425771 0.0032576509 0.18639287
-0.013761882 0.049025454 0.18538734
-0.054223169 0.0096454956 0.18197063
-0.014482146 0.048297014 0.18110627
-0.051880226 0.01477965 0.17734864
-0.054176562 0.0074569713 0.17860219
-0.02461502 0.045064673 0.17658031
-0.04976853 0.020102262 0.17427719
-0.052018341 0.012078758 0.17362726
-0.024902649 0.045446254 0.17166099
-0.032845125 0.040723208 0.17173359
-0.040864769 0.033196345 0.17082953
-0.046357989 0.02517971 0.17051327
-0.026340324 0.045238506 0.1683017
-0.032765925 0.040519688 0.16707456
-0.040177062 0.033339687 0.16556782
-0.045378055 0.026587434 0.16623145
-0.037466452 0.037359543 0.16184765
0.01211817 0.049152181 0.2114557
0.0076615792 0.047976468 0.20575052
0.005233584 0.048103243 0.20175642
-0.055117298 -0.011172794 0.19729751
0.0035693198 0.04857254 0.19845319
0.00045114756 0.04812884 0.19710177
-0.053809807 -0.010569075 0.19137332
-0.053352151 -0.0059563294 0.18707943
-0.005709175 0.048634209 0.18799698
-0.054311682 -0.0028500389 0.18355191
-0.054348692 0.0018822029 0.18044946
-0.055040065 -0.0013896506 0.1788682
-0.012439184 0.048510209 0.17903972
-0.055764832 0.00048908032 0.17512816
-0.012872281 0.048408054 0.17421633
-0.050149273 0.013547853 0.1708191
-0.054222934 0.0058195554 0.17028111
-0.018576741 0.047501422 0.16969931
-0.046442192 0.022093557 0.16714138
-0.050376132 0.015085177 0.16712022
-0.02029017 0.04736083 0.16547954
-0.028076123 0.043428026 0.16492581
-0.047715463 0.020288564 0.16309983
-0.052174971 0.012687346 0.16300607
-0.028139606 0.042626299 0.16064858
-0.036596961 0.037479412 0.15967086
-0.043395638 0.030209195 0.15961409
-0.048064966 0.021199584 0.15835762
-0.036312174 0.036950089 0.15525055
-0.043988641 0.031334266 0.15425158
-0.047150809 0.02344331 0.15524343
-0.043881476 0.031429213 0.15053287
0.013815913 0.046951167 0.2068142
0.013633987 0.046338081 0.20390901
0.011260137 0.04660254 0.20226446
0.010237163 0.046246413 0.19934875
0.0069007147 0.047563568 0.19507343
0.0057619438 0.047988784 0.19092181
0.0017011929 0.048378233 0.18888348
-0.052304968 -0.0086246487 0.18536383
-0.052563965 -0.011824224 0.18574387
0.0043662079 0.048244275 0.18589729
0.00046493486 0.048339281 0.18547887
-0.053833324 -0.0067823473 0.18143734
-0.054177515 -0.010662491 0.18081212
-0.057229109 -0.012191569 0.1802139
-0.0044172592 0.048559554 0.18060064
-0.055361159 -0.0049407147 0.17751276
-0.056251332 -0.0085366294 0.17611563
-0.058199719 -0.01097063 0.175735
-0.0053106602 0.04886464 0.17710683
-0.056568794 -0.0026915483 0.17365849
-0.057846118 -0.0061559565 0.17229337
-0.011212066 0.048761211 0.17140201
-0.055484526 -0.00019367412 0.16871026
-0.057478674 -0.0042976886 0.16796482
-0.012096012 0.048519246 0.16736555
-0.052592568 0.0085491948 0.16383111
-0.054939106 0.00135931 0.16442177
-0.057287864 -0.0035355389 0.1643472
-0.016556874 0.0475033 0.16265616
-0.052042469 0.010111488 0.15953732
-0.018605568 0.046934124 0.15879464
-0.025539501 0.042970367 0.15846297
-0.051147182 0.01574029 0.15646371
-0.02029207 0.046766937 0.15434837
-0.02692252 0.042479515 0.15418354
-0.034906313 0.037144735 0.15253675
-0.048507899 0.021645028 0.15258896
-0.053712379 0.013220524 0.15125269
-0.02740534 0.042566605 0.14946756
-0.034730081 0.037073813 0.14789948
-0.043441784 0.031142373 0.14737219
-0.047772974 0.022235896 0.14742565
-0.053481944 0.014739141 0.14794475
-0.033473548 0.038804419 0.1440177
-0.043333981 0.031237705 0.14362246
0.017575376 0.045095496 0.20052704
0.017023481 0.045494013 0.19730401
0.013591051 0.044988845 0.19606647
0.015593081 0.045552742 0.1928049
0.011716889 0.046339173 0.19291407
0.0096835271 0.047962554 0.18844143
0.0071177557 0.04852391 0.18437213
0.0059708953 0.048347019 0.17978507
0.0026018508 0.048448935 0.17849454
0.0013178065 0.048704851 0.17493224
-0.058767878 -0.0069495011 0.1657266
-0.0049594752 0.049780764 0.16626215
-0.055038679 -0.00095659681 0.16189706
-0.057685681 -0.0045064706 0.16164503
-0.058746796 -0.0076547787 0.16196346
-0.0066477694 0.04992754 0.16150546
-0.054016151 0.0046341438 0.15688682
-0.054798424 -0.00030945614 0.15747517
-0.056684643 -0.0040126238 0.15733781
-0.011213759 0.048600119 0.15585965
-0.052636534 0.0089829192 0.15387046
-0.053954337 0.0012142062 0.15321767
-0.016345896 0.047009327 0.15154803
-0.017630462 0.046278656 0.14770856
-0.02583289 0.043336745 0.14727345
-0.050886013 0.017367013 0.14501715
-0.022676548 0.044344187 0.14231712
-0.030738408 0.040588386 0.14180934
-0.038147792 0.033978447 0.140643
-0.045432352 0.02644716 0.1399433
-0.049924374 0.018005727 0.14145699
-0.027224928 0.043249827 0.13717327
-0.034287855 0.037909359 0.1363534
-0.041772068 0.030036723 0.13561532
-0.046033375 0.023165762 0.13673949
-0.034878466 0.039086219 0.13181442
-0.042470314 0.029840698 0.13203824
0.021949859 0.045397412 0.19931534
0.021157393 0.046413884 0.1964604
0.018783651 0.045410931 0.19438136
0.021344688 0.048809171 0.19204015
0.017250193 0.046001669 0.19052455
0.013840999 0.045345172 0.18975955
0.015784547 0.047078826 0.18613365
0.012857622 0.046524353 0.18706241
0.014537854 0.048097529 0.18207797
0.011991126 0.047767472 0.18251061
0.012795297 0.04757015 0.17654157
0.0098235589 0.047450997 0.17711353
0.0072043836 0.047613852 0.17262322
0.0039435346 0.047825985 0.171152
0.0052440837 0.049076211 0.16750121
0.0035534892 0.04848624 0.16793516
0.0051329713 0.049496487 0.16402942
0.001912646 0.049607534 0.1632522
-0.0040268172 0.050047077 0.15900072
-0.054331075 -0.0030556358 0.15398222
-0.055658147 -0.0062724873 0.15478611
-0.0054962616 0.049967214 0.15479782
-0.053268656 -0.0017958023 0.15040529
-0.010220092 0.048894316 0.14930007
-0.052046604 -0.00069681741 0.14665744
-0.015518138 0.046874534 0.14492393
-0.0519794 0.0055216327 0.14045128
-0.019640818 0.045575779 0.14090744
-0.051945161 0.012303583 0.13814574
-0.016668398 0.046734028 0.13659942
-0.02543211 0.044429909 0.13664767
-0.044593312 0.025165033 0.13429597
-0.048808858 0.017137475 0.13381958
-0.052806243 0.0099497456 0.13370985
-0.026720382 0.044175249 0.13181347
-0.036032535 0.037901718 0.12956899
-0.041866757 0.030782185 0.1298126
-0.046123717 0.021618156 0.12950104
-0.027244519 0.043514639 0.12842005
-0.034740802 0.039053019 0.1257478
-0.04250915 0.031389281 0.12526464
-0.045484778 0.023114447 0.12594551
-0.037881386 0.035808079 0.12162268
-0.044784736 0.029456094 0.12145227
0.02286323 0.045476191 0.18985468
0.01564426 0.047793031 0.1751892
0.014858576 0.048101984 0.17035156
0.010886269 0.04717841 0.17111629
0.013701638 0.047624283 0.16686678
0.0097074136 0.048035584 0.16638264
0.0075797625 0.048220951 0.16043603
0.0065712556 0.048813269 0.15647179
0.0027907733 0.050114684 0.157877
-0.053200692 -0.0089305658 0.15044063
0.00085454993 0.049520247 0.15278062
-0.052716464 -0.0046765506 0.14771181
-0.052458994 -0.0073090903 0.14716837
-0.0033349954 0.049620155 0.14779317
-0.052709498 -0.0025048442 0.14387918
-0.053106967 -0.0064301714 0.14223111
-0.0088512059 0.04848747 0.14245424
-0.053664774 -0.00052661262 0.13952422
-0.055222332 -0.0039404016 0.13880652
-0.0092410501 0.048342668 0.13817161
-0.05309438 0.0056154225 0.13340342
-0.055895157 -0.0030336492 0.13387516
-0.01445671 0.047261361 0.13368464
-0.051024854 0.011625173 0.12995282
-0.053675935 0.0026354622 0.12976071
-0.019585047 0.045522302 0.12923974
-0.048286363 0.016574351 0.12728131
-0.051463552 0.0088144522 0.12477297
-0.025278497 0.043215606 0.12482256
-0.044644222 0.024630949 0.12349403
-0.048109792 0.016914789 0.12184501
-0.022047432 0.044415955 0.1205976
-0.02985266 0.041396499 0.12056446
-0.037826724 0.035474062 0.11870158
-0.044510879 0.026252165 0.11886716
-0.048464879 0.01817283 0.11719072
-0.029968876 0.040067721 0.115587
-0.037010647 0.035642426 0.11473274
-0.04400038 0.02804359 0.11389989
-0.040672392 0.032562897 0.11049712
0.01493337 0.047770903 0.16453362
0.015179502 0.048414819 0.15909487
0.011885837 0.047307897 0.15949851
0.015877869 0.050927266 0.1562832
0.010852173 0.047741614 0.15443078
0.0060002673 0.047470905 0.15319669
0.0083016679 0.047800258 0.14948726
0.0060207546 0.047296591 0.14882261
-0.050450206 -0.01188457 0.144835
0.0027060863 0.048374303 0.14564824
-0.05226551 -0.0096944049 0.14013019
0.00098966621 0.048964158 0.14101261
-0.054944195 -0.0071523599 0.136491
-0.05435532 -0.0095763989 0.13540828
0.00094136223 0.049326785 0.13739344
-0.056269914 -0.0056268461 0.13265651
-0.056153975 -0.0098358486 0.13226268
-0.0085865632 0.049156975 0.1312061
-0.054323167 0.0015220009 0.12830698
-0.056443293 -0.0029765554 0.12878889
-0.0092359986 0.049011782 0.12725413
-0.052432422 0.0063995235 0.12390763
-0.05602096 -0.0014145747 0.12423116
-0.014154254 0.047291294 0.1224646
-0.052049901 0.012022331 0.11910397
-0.054216404 0.0042128712 0.11968762
-0.01933692 0.045265932 0.11779583
-0.050093167 0.017003691 0.11608768
-0.053039558 0.0092721134 0.11443603
-0.024280436 0.042728748 0.11295968
-0.044369444 0.024879679 0.1128391
-0.048961923 0.018308159 0.11139351
-0.025317311 0.042565331 0.10881644
-0.032761592 0.03810361 0.10870391
-0.040968955 0.033017561 0.10797679
-0.046549302 0.022883166 0.10692489
-0.050680012 0.01570625 0.10685331
-0.032632664 0.038222089 0.10478073
-0.040583774 0.032852978 0.10375875
-0.046594989 0.023115646 0.10315156
0.01757215 0.046714924 0.16097841
0.017725999 0.047273379 0.15740526
0.015469175 0.048332669 0.15323406
0.015367555 0.048691541 0.14811981
0.010898847 0.04816382 0.14851123
-0.04983297 -0.012484703 0.14138347
-0.049776927 -0.016818423 0.14435703
0.013903935 0.049487583 0.14497635
0.0099645238 0.04897977 0.14329833
0.0060709044 0.047740392 0.14330149
-0.051192231 -0.013234695 0.13777876
0.013041636 0.050742239 0.14025941
0.008939229 0.049778257 0.13832897
0.0051703155 0.04845167 0.1388109
-0.053307015 -0.012313556 0.13346732
0.0077399649 0.05045579 0.13418865
0.0039348509 0.048969679 0.13387662
-0.056158595 -0.0097564254 0.12941766
0.0028479882 0.048135616 0.13006428
-0.056032665 -0.0050007477 0.12517673
-0.055988971 -0.0031358916 0.12084705
-0.0076865405 0.048737548 0.12117583
-0.054085575 0.0011379253 0.1175251
-0.05544975 -0.0027186442 0.11643583
-0.013415869 0.04736907 0.11573273
-0.052907463 0.0061698612 0.11234581
-0.054667149 -0.0013969 0.11287999
-0.012665864 0.047308002 0.11116952
-0.051223576 0.012465792 0.10880649
-0.013799561 0.047210358 0.1083051
-0.023769137 0.043416902 0.10655659
-0.051359519 0.013927972 0.10396153
-0.020307541 0.045122236 0.1024918
-0.028120225 0.04089608 0.10180503
-0.035623562 0.035849821 0.10098928
-0.04901392 0.018877067 0.099952579
-0.025252804 0.042530112 0.097567856
-0.032359354 0.038447432 0.096862018
-0.039750315 0.032354344 0.097113609
-0.045038804 0.024170112 0.095048964
-0.033582423 0.038436342 0.092850983
-0.039803691 0.032735754 0.091401637
0.018437427 0.048577476 0.1443795
-0.048987187 -0.018699531 0.1404444
0.014372075 0.049344257 0.14180481
-0.049991999 -0.017673956 0.13709438
-0.050857723 -0.020836599 0.13748133
0.013286654 0.050791189 0.13727811
0.011657944 0.050093081 0.13765678
-0.051754281 -0.016315011 0.13294163
0.0095361657 0.049450491 0.13054737
0.0063513443 0.049132582 0.13089624
-0.054208227 -0.014374984 0.12892395
0.0043753255 0.048017964 0.12733477
0.0047136471 0.047967266 0.1242196
0.0019582827 0.047444336 0.12231332
-0.055469893 -0.0053463262 0.11498702
-0.055195518 -0.0080456659 0.11433542
-0.005625058 0.048804559 0.11400551
-0.054748558 -0.003615994 0.11004031
-0.050938033 0.0054009259 0.10602158
-0.053763822 -0.0022011958 0.10608011
-0.012252579 0.04738057 0.10508239
-0.051576607 0.0062603354 0.10188997
-0.012780236 0.047187898 0.10051274
-0.020755075 0.044661634 0.099477768
-0.051547885 0.0083636958 0.097796082
-0.017506404 0.046218954 0.095727324
-0.026806176 0.041296303 0.094329059
-0.049997967 0.013958447 0.093287468
-0.019013908 0.045789652 0.091255367
-0.028077753 0.041339707 0.090355575
-0.035107031 0.037159134 0.089564979
-0.047187984 0.020109827 0.088356018
-0.023585571 0.043828983 0.087468445
-0.031762321 0.038549662 0.085618556
-0.039704625 0.032968849 0.085482001
-0.045258 0.025268851 0.084390044
-0.036633074 0.034657225 0.080835283
-0.042735998 0.029441493 0.080952585
0.012305137 0.04695591 0.12496495
0.0083893742 0.047609117 0.12618947
0.010871548 0.047998954 0.12031877
0.0072076712 0.047697045 0.12124753
0.0087133646 0.050375178 0.11674929
0.0057523325 0.048700303 0.11725348
0.0020534825 0.047845438 0.11660165
-0.054343514 -0.0089085288 0.11049336
0.0082962699 0.051076412 0.11338878
0.0048232842 0.049242936 0.1127401
0.0007967893 0.048126012 0.11184645
-0.053158253 -0.0064783376 0.1053459
-0.054070789 -0.0099190958 0.10650212
-0.0044440087 0.048222519 0.10716802
-0.052551374 -0.0010351092 0.10217804
-0.052849505 -0.0050491579 0.10243028
-0.053736582 -0.009419756 0.1039747
-0.052464224 0.00069163926 0.098861575
-0.052918814 -0.003503738 0.097968876
-0.011192292 0.048057321 0.098213613
-0.052371528 0.0021185353 0.094221532
-0.012344155 0.048300859 0.094030917
-0.049442418 0.01267302 0.090580881
-0.051746201 0.0049167015 0.089230835
-0.017273769 0.047080673 0.089819193
-0.050533306 0.0096024945 0.085572183
-0.014429711 0.048484065 0.085418284
-0.022881495 0.044870149 0.085300982
-0.047142766 0.019298203 0.082966983
-0.049978595 0.011227818 0.081957757
-0.023114268 0.045036681 0.079865396
-0.031486578 0.038594946 0.080457032
-0.039008118 0.032966476 0.078486383
-0.04497258 0.024239372 0.078718483
-0.048372962 0.016819445 0.07736516
-0.031986427 0.039448097 0.07515955
-0.03952799 0.033727363 0.073978543
-0.04407084 0.024756229 0.074272037
-0.037068717 0.03804101 0.070618868
-0.042497255 0.030464081 0.069556415
0.015907547 0.045436803 0.12047136
0.01387433 0.046824563 0.11824363
0.013314409 0.049776569 0.11458927
0.009893924 0.049954329 0.10900146
0.0075874645 0.049136665 0.10934347
0.0067462977 0.048309069 0.10583878
0.003537178 0.046861269 0.10491121
-0.053038489 -0.0076885596 0.10062909
-0.053594068 -0.010953596 0.10064882
0.001159586 0.046717033 0.10051757
-0.053264149 -0.0063601006 0.09710747
-0.05444314 -0.0096252747 0.096233726
-0.055268798 -0.012324106 0.095107138
-0.0036849268 0.048337597 0.096880555
-0.053224467 -0.003197927 0.092630625
-0.054282315 -0.007658286 0.091932595
-0.0044091139 0.048880599 0.092038333
-0.052354991 -0.0026371349 0.088657916
-0.053851478 -0.0063990951 0.087741911
-0.0098175984 0.048430525 0.085997522
-0.051774316 0.003212655 0.083059907
-0.011330001 0.048379857 0.082506299
-0.048997298 0.012651486 0.079251587
-0.051937733 0.0048581827 0.078790367
-0.016287565 0.046703763 0.076964378
-0.048641287 0.014161902 0.074597895
-0.017431881 0.046338238 0.072847188
-0.02542804 0.041874152 0.072321773
-0.045987833 0.01930126 0.070454001
-0.022490971 0.044049546 0.068728328
-0.030472755 0.039032202 0.067660868
-0.043253474 0.028361607 0.067359865
-0.031133208 0.038731512 0.063507378
-0.038971551 0.033473991 0.063031495
-0.039817497 0.032261372 0.058621645
0.016082104 0.046785489 0.11617512
0.01267584 0.049777873 0.10653996
0.012297647 0.048911031 0.10356677
0.0079785716 0.047877468 0.10245061
-0.053321123 -0.014619099 0.097840965
0.0078383163 0.047593746 0.098676145
0.004637979 0.046884712 0.098868072
-0.054105863 -0.013670258 0.095763326
0.0031894725 0.047325984 0.094211638
-0.054180846 -0.010124568 0.088441133
-0.054305028 -0.013201732 0.086049676
0.0011107009 0.048317611 0.088869333
-0.052231021 -0.0037631541 0.085211575
-0.0535326 -0.008704111 0.084213436
-0.0032153316 0.048298396 0.085005999
-0.05274231 -0.0025798827 0.08130461
-0.054517381 -0.006645551 0.079832852
-0.052351072 0.0019661896 0.07769233
-0.052811012 -0.0015294217 0.076194286
-0.0098434426 0.047334738 0.076200187
-0.0518107 0.0039681271 0.072479486
-0.011439307 0.047527589 0.071430743
-0.04844119 0.013691694 0.068364441
-0.052476697 0.0055736769 0.067656577
-0.016142122 0.047308773 0.067005515
-0.02501934 0.042254869 0.064894378
-0.045702904 0.019563261 0.064562559
-0.050410666 0.010323621 0.063515723
-0.016775433 0.046789177 0.063162625
-0.025203262 0.04263116 0.062133312
-0.033837467 0.036493316 0.06000191
-0.043554947 0.024278214 0.060884774
-0.048617236 0.01575196 0.059681714
-0.021913372 0.044282548 0.057190537
-0.029848032 0.039951701 0.05717808
-0.038301181 0.033135451 0.056595147
-0.043652948 0.024626547 0.055979908
-0.026005983 0.042880002 0.053397715
-0.033604763 0.0364567 0.052790642
-0.041294415 0.029428588 0.052479446
0.016216367 0.04708901 0.099258125
0.015127581 0.046824619 0.0969522
0.012298243 0.046593465 0.09587121
0.0088645257 0.046763219 0.092630625
0.0052833855 0.046983048 0.090519547
0.0064546093 0.046208102 0.08641845
-0.053080361 -0.012029998 0.082040727
-0.053662732 -0.013868174 0.083304346
0.0043910313 0.04698775 0.08283329
-0.054385625 -0.010451151 0.078544497
0.001466522 0.04715547 0.078308761
-0.05269444 -0.0040273014 0.073622584
-0.054173443 -0.0066241231 0.073947191
0.0011198148 0.047790363 0.074759424
-0.0073474869 0.04706569 0.072654665
-0.052381203 -0.0026072878 0.069171727
-0.054448713 -0.0060152356 0.069253802
-0.0077435989 0.047004901 0.068711102
-0.051469736 -0.0010147262 0.06414485
-0.050739355 0.0080927573 0.05999881
-0.052068073 -0.00026832893 0.061815262
-0.01479483 0.046591125 0.059280097
-0.049199373 0.013810337 0.056466401
-0.05105304 0.0053210724 0.056383371
-0.019229179 0.044747625 0.054644525
-0.047782145 0.014857093 0.052164316
-0.017055275 0.046901301 0.049845755
-0.024993205 0.043542456 0.05055815
-0.032647867 0.036132503 0.049538434
-0.040302061 0.028601717 0.048263311
-0.045312587 0.019626942 0.047504842
-0.021895584 0.046051875 0.045118153
-0.028830193 0.040470097 0.045093954
-0.036325995 0.032933582 0.044562221
-0.043181907 0.024754848 0.043253839
-0.029720429 0.040514003 0.040365517
-0.035828434 0.03382564 0.040636122
-0.043126334 0.027279891 0.039573193
0.017580355 0.047052208 0.093827009
0.016472904 0.046194941 0.089818239
0.013087396 0.045846112 0.089455783
0.011290884 0.044947073 0.084227443
0.0097023193 0.045970775 0.079482079
0.0067261867 0.046474792 0.080294371
0.008276524 0.047811188 0.074094355
0.0051507857 0.047186866 0.076396525
0.0027525034 0.04833895 0.072160482
-0.053333949 -0.0089388154 0.069659531
0.0022365823 0.048088808 0.067451417
-0.051373821 -0.0045472346 0.063400805
-0.053188346 -0.0064949468 0.064854264
-0.0072936174 0.046704076 0.062064052
-0.052098107 -0.0026193876 0.059357226
-0.051458165 0.0027291123 0.054586589
-0.013422387 0.047646284 0.053513706
-0.050643448 0.0042757522 0.04993552
-0.014503477 0.047826394 0.050040126
-0.052245453 0.0061271787 0.044687629
-0.020151094 0.047293216 0.044493556
-0.048431572 0.015966538 0.042746484
-0.050923496 0.0090153944 0.040795147
-0.020521287 0.046464298 0.039595902
-0.028962076 0.041586772 0.039033473
-0.036228951 0.03439391 0.038063824
-0.043817293 0.025676455 0.038410246
-0.048010822 0.017179143 0.03778863
-0.025891211 0.045199141 0.03482312
-0.032430552 0.03748171 0.034410298
-0.040201858 0.030964781 0.034060538
-0.044563081 0.02305058 0.034495413
-0.029995266 0.042125829 0.030747354
-0.036640644 0.032909498 0.029898942
-0.042199735 0.027984885 0.029941499
0.0192378 0.046380535 0.088189125
0.018205568 0.045542259 0.083095253
0.014796946 0.044605635 0.082921445
0.016062805 0.047732867 0.078873456
0.012948584 0.046335205 0.079045773
0.015100578 0.04927475 0.074490368
0.011481047 0.047877714 0.074262798
0.013433877 0.050757013 0.071405709
0.010107571 0.048750747 0.069540977
0.0068291258 0.047317073 0.069383442
0.009115234 0.047772486 0.06531626
0.0056419373 0.047484562 0.064706981
-0.050957918 -0.0063846726 0.059569955
0.0038193986 0.047764562 0.060424864
-0.049262963 -0.003171334 0.054346979
-0.049545694 -0.007804798 0.05375737
0.0028272495 0.048295349 0.05594182
-0.0056613963 0.046817496 0.054971814
-0.04952779 -0.0040359981 0.051864207
-0.050146818 -0.007086562 0.052425563
-0.0065609738 0.047089092 0.051016331
-0.050358094 -0.00070859864 0.046810091
-0.0082328189 0.047704052 0.046432912
-0.008771345 0.048584104 0.042001188
-0.051713057 0.006811386 0.03848052
-0.055217609 -0.0009937454 0.040053427
-0.014448971 0.047554433 0.037506461
-0.047152534 0.01575063 0.034109831
-0.050958607 0.0074578542 0.033983111
-0.015249617 0.048019037 0.033041656
-0.033570804 0.034399837 0.031207502
-0.043939538 0.021356128 0.030546367
-0.049193062 0.012136506 0.02984488
-0.014907019 0.048607774 0.029553592
-0.024713419 0.04444804 0.028305173
-0.032116462 0.037536263 0.027519286
-0.038442302 0.030533796 0.026650131
-0.043871485 0.020851661 0.026791036
-0.050741524 0.011817552 0.026525199
-0.032469798 0.038012628 0.023506641
-0.038284361 0.030295642 0.021643281
0.020156749 0.045317657 0.077834845
0.016346626 0.047836304 0.06464237
0.011856139 0.048079662 0.063409626
0.010077173 0.047546893 0.057322204
0.0073118117 0.047752548 0.058945298
0.0094605852 0.048431158 0.053980887
0.0057671219 0.048770897 0.05367589
-0.049602099 -0.0051085092 0.049138427
-0.049576201 -0.0091112629 0.048340142
0.0042285714 0.048977643 0.048997581
-0.050120454 -0.0044161566 0.045632243
-0.04974214 -0.0072806217 0.043640316
0.0027156007 0.048730258 0.045176566
-0.050599013 -0.0029310081 0.041888058
-0.052202821 -0.0053785965 0.039411128
-0.053498548 -0.00035836548 0.037360013
-0.0083193667 0.049847998 0.035096228
-0.052798554 0.0040308256 0.031238496
-0.011681542 0.047691055 0.030293345
-0.013643488 0.047565952 0.026701748
-0.046564534 0.016352367 0.02417469
-0.051437769 0.010183455 0.02479142
-0.043045815 0.021206381 0.01980871
-0.031787999 0.03571827 0.018125951
-0.037247889 0.029440651 0.017217398
0.012966551 0.046893239 0.059578717
0.014164517 0.047227278 0.05597192
0.011820914 0.048285097 0.051899254
-0.048753493 -0.013513494 0.046659887
0.010236869 0.050154395 0.047908545
-0.050046653 -0.0094121117 0.042483687
0.0091210268 0.050885599 0.042946637
0.0054430123 0.049351338 0.043330908
-0.051233485 -0.007990811 0.039779007
0.0044328254 0.049658496 0.038661599
0.00033325888 0.049285807 0.038340032
0.0020562354 0.050332073 0.033737361
0.0020451117 0.050685603 0.029662311
-0.0062419344 0.048315637 0.028612196
-0.0071605667 0.048315555 0.025189817
-0.047529019 0.0110154 0.019805133
-0.043295708 0.018897448 0.015995383
-0.045926087 0.011837939 0.017232358
-0.039004255 0.023632621 0.012770593
-0.043386534 0.016648702 0.013468206
0.015096197 0.04815517 0.048608184
0.014252132 0.049059942 0.047499359
0.012583828 0.051396094 0.039189219
0.0096122883 0.050740104 0.036580205
0.0072431564 0.049901322 0.034809947
0.008392781 0.051987536 0.031713068
0.0054621212 0.050690319 0.032018185
0.0065102782 0.053458996 0.028874218
0.0035571884 0.05176146 0.027321398
0.0002775304 0.050352283 0.026145875
0.0038048718 0.050782837 0.022201836
-0.0054217298 0.048072144 0.021483839
-0.005627133 0.047296155 0.018920839
-0.039202001 0.01490663 0.0065200925
0.0037808437 0.049861759 0.019435644
0.00027561374 0.047759511 0.014648259
-0.0022973958 0.044646606 0.010824621
0.0020892806 0.046328716 0.010433257
0.0052743107 0.044741627 0.0063907504
