# .PCD v0.7 - Point Cloud Data file format
VERSION 0.7
FIELDS x y z
SIZE 4 4 4
TYPE F F F
COUNT 1 1 1
WIDTH 1157
HEIGHT 1
VIEWPOINT 0 0 0 1 0 0 0
POINTS 1157
DATA ascii
-0.040679932 -0.011514664 0.18236172
-0.039203227 -0.014107585 0.18235403
-0.03735745 -0.017348886 0.18234456
-0.041319668 -0.011875093 0.18106729
-0.039842904 -0.014468074 0.1810596
-0.038366258 -0.017061055 0.18105203
-0.038033903 -0.0024858713 0.18484998
-0.037367702 -0.0069062114 0.18533677
-0.035250425 -0.010074973 0.18524298
-0.030812442 -0.015078425 0.1847994
-0.029134214 -0.018903852 0.18492323
-0.027662635 -0.022278428 0.18503487
-0.041644394 -0.0038217902 0.18215138
-0.039984584 -0.0079780817 0.18260062
-0.036665738 -0.012299538 0.18367285
-0.034100413 -0.017109275 0.18337929
-0.032673478 -0.021404684 0.18238571
-0.030000389 -0.025833905 0.18244115
-0.026575089 -0.029913962 0.18111891
-0.042415798 -0.0050528646 0.17816746
-0.041787207 -0.0096380711 0.17820501
-0.03977406 -0.014219701 0.17780131
-0.03706485 -0.018587649 0.17842245
-0.034367144 -0.022261143 0.1776852
-0.032087088 -0.026905119 0.17777407
-0.028549254 -0.031181097 0.17745262
-0.042244673 -0.010289252 0.17362583
-0.040684581 -0.014282763 0.17375126
-0.036988795 -0.018443584 0.17337805
-0.034745216 -0.022610128 0.17367199
-0.032642782 -0.027549267 0.17372733
-0.030239224 -0.030635953 0.17361218
-0.035173833 0.0003169179 0.18672514
-0.032790959 -0.003559351 0.18666703
-0.028419435 -0.0075719953 0.18609887
-0.026704609 -0.01244241 0.18636692
-0.024050653 -0.015474498 0.18611076
-0.040133715 0.009213388 0.18288308
-0.037528515 0.0040531754 0.18315136
-0.037160039 -0.00059938431 0.18476844
-0.034238279 -0.0047745109 0.18600979
-0.031654775 -0.0099638104 0.18540555
-0.029163003 -0.013415992 0.1852544
-0.026146054 -0.018315852 0.18525565
-0.023714483 -0.022562325 0.18452466
-0.021460056 -0.026916265 0.18344653
-0.018898249 -0.02902317 0.18214723
-0.041115224 0.0085927248 0.18016243
-0.040254653 0.0026801229 0.17975396
-0.040883839 -0.00077587366 0.18076694
-0.022953331 -0.030373216 0.18192047
-0.019622922 -0.031760156 0.1793735
-0.041278064 0.0010793805 0.17574486
-0.041709363 -0.0029908419 0.17552444
-0.023377061 -0.032816589 0.17548668
-0.041658342 -0.0041758418 0.171487
-0.041380525 -0.0082357526 0.1708982
-0.039418697 -0.013905406 0.17008477
-0.03708756 -0.018036008 0.17069763
-0.034574449 -0.022848308 0.17064598
-0.031983256 -0.026544631 0.17036611
-0.028138161 -0.031113565 0.17115551
-0.025273979 -0.032463312 0.17055011
-0.04213208 -0.0057961941 0.16644809
-0.041723907 -0.0093903542 0.16667697
-0.03993988 -0.014389515 0.16721249
-0.037551939 -0.018264353 0.16714829
-0.03493464 -0.022838473 0.16713125
-0.031608999 -0.027391016 0.16659129
-0.028292894 -0.030248106 0.16692042
-0.042382836 -0.010734499 0.16310275
-0.040929019 -0.014910221 0.16207829
-0.038293064 -0.018863618 0.16248077
-0.035608172 -0.022778571 0.16264659
-0.032854736 -0.026147366 0.16332626
-0.042735696 -0.013136804 0.15847313
-0.023895681 -0.00014430285 0.18881124
-0.038513124 0.020329416 0.18507767
-0.036531448 0.016703486 0.18567771
-0.034045875 0.012053907 0.18529513
-0.032488942 0.0067026019 0.18505841
-0.029650211 0.0023473501 0.18687826
-0.02675277 -0.00089210272 0.18708503
-0.024020493 -0.0051457882 0.18688089
-0.02132982 -0.0090394616 0.18597215
-0.019409895 -0.013957977 0.18541992
-0.016718328 -0.020354271 0.18333763
-0.014551163 -0.023565888 0.18323749
-0.012349606 -0.026771843 0.18312722
-0.04062295 0.019115329 0.18105242
-0.039429784 0.014981806 0.18181956
-0.038246691 0.010118902 0.18281391
-0.035103977 0.0068063736 0.18381506
-0.014313698 -0.029347003 0.1818358
-0.013271809 -0.032087147 0.18031025
-0.040417433 0.013423204 0.17756987
-0.040367186 0.0084836483 0.17782617
-0.039408028 0.0058996677 0.17856175
-0.018771052 -0.032755911 0.1765095
-0.015376985 -0.033047676 0.17793626
-0.041655064 0.011000574 0.17374027
-0.040507734 0.0084204078 0.17261934
-0.039942384 0.0039656758 0.17280948
-0.015822649 -0.032098472 0.17403063
-0.040129006 0.0016165972 0.16978878
-0.040181696 -0.0010178685 0.16744241
-0.020707846 -0.032390714 0.16844797
-0.017529786 -0.033311605 0.16846436
-0.040697873 -0.0027592182 0.16410953
-0.026468635 -0.030507445 0.16395721
-0.023114681 -0.031794488 0.1635738
-0.040866256 -0.0053664446 0.16078967
-0.041336656 -0.0086616874 0.15976074
-0.040404081 -0.013786137 0.15944695
-0.036943555 -0.019668579 0.15939644
-0.03485316 -0.02288568 0.15930927
-0.031559885 -0.026613533 0.16006684
-0.027577639 -0.029818594 0.15954465
-0.024330854 -0.031735539 0.16078389
-0.040704668 -0.0098009109 0.15689915
-0.039691985 -0.014396369 0.1561901
-0.037210643 -0.018124938 0.15626705
-0.033497691 -0.022812903 0.15573889
-0.031211913 -0.026243508 0.15681151
-0.028664947 -0.028914332 0.15688753
-0.033521831 -0.024878025 0.15136167
-0.033162117 0.022820413 0.19161397
-0.03129679 0.021412015 0.19184962
-0.037394106 0.026419044 0.18846434
-0.034702957 0.023290813 0.1891827
-0.032141864 0.018930852 0.18799198
-0.029224992 0.01534754 0.1873005
-0.02584368 0.010844469 0.18578005
-0.022736251 0.0064014196 0.18613279
-0.022255421 0.0030801892 0.1885576
-0.019033968 -0.0027651191 0.18842113
-0.017070532 -0.0069032907 0.18711302
-0.013112903 -0.010981202 0.18563664
-0.011161149 -0.013967514 0.18607953
-0.0028271079 -0.028117001 0.18544757
-0.040240943 0.029551566 0.1840325
-0.039968312 0.025753379 0.18481055
-0.038297296 0.022659361 0.18546882
-0.031420112 0.013596654 0.18606967
-0.028985918 0.0088307858 0.18535686
-0.027605116 0.0061418414 0.18538883
-0.020277262 -0.0087071061 0.18564412
-0.014829397 -0.012459934 0.18475604
-0.013926148 -0.016157091 0.1842899
-0.011056721 -0.021243811 0.18311846
-0.0089277625 -0.025941074 0.18402529
-0.0081383586 -0.0299927 0.18403128
-0.0042888522 -0.032748938 0.18341479
-0.040612459 0.025606573 0.17930874
-0.040911257 0.021101415 0.18013191
-0.010121703 -0.032207847 0.18063408
-0.0064451694 -0.033908606 0.17950511
-0.041033864 0.023313463 0.17523164
-0.041828692 0.019547582 0.17556691
-0.040490329 0.015339196 0.17533088
-0.010503709 -0.032793343 0.17483559
-0.0080008507 -0.033946276 0.17682064
-0.041579068 0.018167198 0.17113864
-0.040844381 0.014159203 0.17123896
-0.040550828 0.0089284778 0.16985643
-0.013538778 -0.032431245 0.1703158
-0.040152013 0.013158619 0.16624001
-0.040422857 0.0088121891 0.16657317
-0.038974166 0.004232049 0.16635442
-0.017606378 -0.032161534 0.16516471
-0.015323639 -0.033382535 0.16627192
-0.040719688 0.0076100826 0.16200447
-0.039681613 0.0036045909 0.16199046
-0.01938051 -0.032670259 0.16130608
-0.039818466 0.0014854074 0.15760249
-0.04035157 -0.0026362538 0.158126
-0.040631056 -0.0062197447 0.15666413
-0.024947643 -0.030912697 0.15610111
-0.022512436 -0.032153666 0.15747264
-0.040432215 -0.003493011 0.15317237
-0.040257633 -0.0085568428 0.15364403
-0.038825035 -0.013925493 0.15268871
-0.036217511 -0.018126369 0.15300578
-0.033738911 -0.021776736 0.15360677
-0.030481517 -0.026931047 0.15374696
-0.026470184 -0.029207885 0.15342382
-0.022438943 -0.030367017 0.15366191
-0.040585399 -0.0047735572 0.14953166
-0.040884316 -0.0088005066 0.14911848
-0.039174259 -0.013804436 0.14945963
-0.037034273 -0.018362761 0.14973259
-0.035033762 -0.022718072 0.14986944
-0.031367064 -0.026728809 0.14942724
-0.028302252 -0.028620124 0.14800534
-0.041730464 -0.010300159 0.14533257
-0.040469348 -0.014517069 0.14490664
-0.037648559 -0.018912613 0.14426586
-0.034563661 -0.022774577 0.14495641
-0.032545865 -0.025676429 0.14589709
-0.038823187 -0.017569244 0.14058676
-0.02629149 0.020740926 0.18988931
-0.023669004 0.018712819 0.18924642
-0.020342529 0.015420318 0.18678486
-0.0046138167 -0.012728631 0.18678057
-0.0018281341 -0.01815033 0.1868431
0.00014621019 -0.020689487 0.18669832
0.0025327802 -0.023709595 0.18807569
0.0044246316 -0.028603077 0.18829238
-0.024692714 0.016300917 0.18778777
-0.021810055 0.013171077 0.18593591
-0.018926263 0.0093736649 0.18573606
-0.010192394 -0.009647131 0.18622953
-0.0074791908 -0.013772368 0.18612134
-0.0052254796 -0.017677248 0.18499076
-0.0027050972 -0.021792173 0.18526572
-0.00019687414 -0.025611877 0.18614155
0.0028247237 -0.030601442 0.1857549
0.0049439073 -0.035111129 0.18520948
0.0056237578 -0.038743079 0.18374571
-0.039236248 0.031944394 0.18037233
-0.0094906092 -0.016285181 0.1839076
-0.0080659389 -0.019030094 0.18341729
-0.005574286 -0.02289784 0.18384835
-0.00069636106 -0.034244537 0.18112022
0.0021052361 -0.03655529 0.18071479
0.0038494468 -0.040257335 0.18080184
-0.03995204 0.031399548 0.17713219
-0.040063441 0.028003693 0.17611766
-0.0031322837 -0.035145342 0.17684001
0.0009573102 -0.037443399 0.17646378
0.0026791692 -0.040504098 0.17698336
-0.040835977 0.030673087 0.17246634
-0.040356219 0.02647388 0.1730766
-0.0077576041 -0.032896459 0.1718961
-0.0037444234 -0.033132374 0.17238215
-0.041438758 0.029800117 0.16867518
-0.039741635 0.025682867 0.16898197
-0.039951086 0.021471798 0.16807669
-0.0079004765 -0.032442927 0.16950643
-0.0056011081 -0.032664895 0.16810209
-0.039758384 0.019001186 0.16447079
-0.039619744 0.015369594 0.16365951
-0.0090572834 -0.032314599 0.16270635
-0.039499223 0.018725157 0.1600821
-0.039867103 0.01423502 0.15948591
-0.039648831 0.0098510981 0.15968567
-0.039797723 0.012584746 0.15641662
-0.03969717 0.0086001754 0.15517372
-0.039245665 0.0043442845 0.15485126
-0.017936885 -0.032080948 0.15337902
-0.014197648 -0.032108128 0.15624106
-0.039723277 0.0062978864 0.14947766
-0.039693892 0.0029891133 0.1503582
-0.03972131 -0.00057148933 0.15092713
-0.023731709 -0.029641926 0.14995348
-0.020190418 -0.031399727 0.15049565
-0.040391684 0.0018616319 0.14629042
-0.040287673 -0.0028830171 0.14630204
-0.028834641 -0.027102411 0.14551184
-0.02438879 -0.029506445 0.14613804
-0.021420538 -0.03159982 0.14557585
-0.04036963 -0.0033524632 0.14238521
-0.039950609 -0.0076012611 0.14201003
-0.040197194 -0.012355149 0.141693
-0.033104956 -0.02267319 0.14127305
-0.029813349 -0.026405334 0.14229274
-0.026776493 -0.029183984 0.14202183
-0.040500939 -0.0094385743 0.13742866
-0.039301872 -0.014044464 0.13769028
-0.037266672 -0.018322766 0.137325
-0.034009874 -0.021813035 0.1373858
-0.030899286 -0.025881708 0.13778883
-0.028217554 -0.028842628 0.13759215
-0.040693343 -0.010159016 0.13339581
-0.039859653 -0.014246345 0.13318194
-0.037422836 -0.018229663 0.13340364
-0.035645247 -0.021255314 0.13297151
-0.021353126 0.023511112 0.19055825
-0.016769528 0.022277355 0.19060761
0.005482316 -0.013700306 0.19057527
0.0059140325 -0.016310334 0.18979275
0.0068618059 -0.019751489 0.18951926
-0.019280374 0.018408895 0.1884191
-0.016506433 0.015902758 0.18697155
-0.013924658 0.012055039 0.18599707
-0.014444232 0.0078455806 0.18635085
-0.0057364702 -0.0067819357 0.18620968
-0.00080054998 -0.0094705224 0.1871978
0.00036102533 -0.014405668 0.18710169
0.0029292703 -0.018671751 0.18763942
0.0044776201 -0.022765934 0.18847895
-0.0037403107 -0.014202893 0.18520659
0.0026275516 -0.036601126 0.1727286
0.0057951808 -0.038065672 0.17207843
-0.00077068806 -0.033696294 0.17037824
0.0022996068 -0.036109269 0.1698966
-0.038458824 0.027308583 0.16542017
-0.002381742 -0.033159077 0.16599861
0.0011909008 -0.035436749 0.16661531
-0.038438141 0.026575923 0.16142592
-0.038933456 0.022345424 0.16154715
-0.0077322721 -0.031276584 0.15896767
-0.0035527945 -0.032749295 0.16197509
-0.03948009 0.020926833 0.15697956
-0.039957285 0.016612411 0.15658715
-0.0094031692 -0.032120585 0.15640759
-0.0056172013 -0.032427251 0.15693569
-0.039583802 0.019446671 0.1524567
-0.03945148 0.0148682 0.15305245
-0.039153516 0.010420144 0.15219861
-0.01170069 -0.032357454 0.15265715
-0.038792193 0.014166772 0.1483714
-0.038791418 0.0096552372 0.14831901
-0.017141879 -0.032497466 0.14761028
-0.013077974 -0.032624543 0.14878798
-0.039274871 0.0082678795 0.1437121
-0.040115774 0.0043861866 0.1440444
-0.018306971 -0.032618225 0.14531606
-0.017547131 -0.033167005 0.1430262
-0.039950967 0.0069526434 0.13977009
-0.039877415 0.0028165579 0.1394873
-0.040074766 -0.0020744801 0.13940379
-0.024099529 -0.030050695 0.14051926
-0.02110368 -0.031692564 0.13963363
-0.04022646 0.0032048821 0.13566501
-0.039541543 -0.002902925 0.13529001
-0.0406515 -0.0066622496 0.13597788
-0.030270517 -0.026420832 0.13458599
-0.027184427 -0.02981931 0.13527896
-0.022631943 -0.032132745 0.1349896
-0.040355682 -0.0054427981 0.13078623
-0.041258514 -0.0087380409 0.13149346
-0.039800525 -0.013639331 0.13082628
-0.036782444 -0.018964112 0.13114019
-0.034113646 -0.022914469 0.13173135
-0.031263411 -0.026478112 0.13135402
-0.027473748 -0.029645324 0.13121642
-0.023508906 -0.031659663 0.13170575
-0.040500224 -0.0058018565 0.12763853
-0.040477693 -0.0093172789 0.12686165
-0.039439261 -0.013647735 0.12630756
-0.036434114 -0.017673671 0.12624379
-0.033468723 -0.021392107 0.12712188
-0.030171871 -0.025527537 0.1278836
0.0083177686 -0.0093383789 0.19238001
-0.013132751 0.021794438 0.19105798
-0.010690093 0.019224584 0.18871179
-0.0079445839 0.015227735 0.18753272
-0.0057396889 0.011944592 0.18743727
0.0034137368 -0.0035877228 0.18652517
0.0041051507 -0.0060315728 0.18787837
0.0063886642 -0.010834873 0.18959343
0.0078066587 -0.016548812 0.19038939
-0.013595521 0.018048882 0.18779132
-0.011323571 0.013049304 0.18635601
-0.0099170208 0.010314286 0.186387
0.00050282478 -0.0038705468 0.18574059
0.001545012 -0.0081390738 0.18765622
0.0033969879 -0.011523902 0.1876657
0.0068429708 -0.038272679 0.16785163
-0.036950171 0.0314762 0.16284084
-0.0010344386 -0.033416748 0.16294962
0.0024401546 -0.036425114 0.16368747
0.004470408 -0.039497852 0.1639407
-0.037445009 0.030852139 0.15748382
-0.037803173 0.028265953 0.15801442
-0.0026168823 -0.033049285 0.15889919
0.0010499954 -0.036987066 0.15907347
0.0014697909 -0.039632857 0.15763703
-0.038454711 0.030159295 0.15387839
-0.03888315 0.026794136 0.15537
-0.003618896 -0.033839285 0.15477288
-0.00021082163 -0.03711009 0.1540212
0.0016144514 -0.040665686 0.15535673
-0.039408088 0.029486895 0.15024436
-0.039338171 0.025861621 0.15065658
-0.039156735 0.021999896 0.15005517
-0.0079716444 -0.032559991 0.1488238
-0.0043336749 -0.03411144 0.15086395
-0.038643718 0.024468839 0.14601266
-0.038614631 0.02074033 0.14583588
-0.039175212 0.016002476 0.1460225
-0.010366023 -0.032661378 0.14554301
-0.039185822 0.018973768 0.14226791
-0.039618313 0.014854372 0.141651
-0.038761616 0.010819733 0.14129806
-0.013151228 -0.033141971 0.14123088
-0.03934294 0.015250981 0.13809532
-0.039528191 0.009743154 0.13710462
-0.014145732 -0.033712208 0.13671492
-0.040747643 0.0073438287 0.13296123
-0.03941375 0.003103137 0.13324721
-0.037769854 0.00012171268 0.13216867
-0.018855035 -0.033182621 0.13290392
-0.016897023 -0.033640146 0.13261808
-0.041367054 0.0062523484 0.12895061
-0.0406425 0.002972126 0.12895446
-0.039289951 -0.0021364689 0.12877853
-0.025150418 -0.02948612 0.12749149
-0.021266341 -0.031778038 0.12818278
-0.039699852 -0.0035781264 0.12399833
-0.039865673 -0.0075719357 0.12378047
-0.032251537 -0.021571577 0.12401737
-0.029727936 -0.02496022 0.12435342
-0.025712132 -0.028500021 0.12366562
-0.022630751 -0.030661643 0.12385686
-0.038998365 -0.0043314099 0.12027927
-0.040107191 -0.0083611608 0.11994822
-0.038369179 -0.013316512 0.11999179
-0.035813451 -0.01784426 0.12013625
-0.032650113 -0.021625936 0.11977856
-0.02972883 -0.025490105 0.11951916
-0.026748776 -0.028172851 0.120113
-0.039530396 -0.0089905262 0.11640321
-0.038622737 -0.013463914 0.11563613
-0.036624312 -0.018214047 0.11508672
-0.034174025 -0.022693932 0.11473285
-0.031366587 -0.02624613 0.11477934
0.0083068609 0.00085103512 0.1893847
0.010136902 -0.0029999018 0.19051719
0.0095949769 -0.0075346231 0.19023755
-0.0009573698 0.013950586 0.18724728
0.0013022423 0.0067952871 0.18399692
0.0035608411 0.0026966929 0.18400434
0.0060372949 0.00042510033 0.18705845
0.0069412589 -0.0040971041 0.18853402
0.00077354908 0.0042086244 0.1845063
0.0035061836 0.00027245283 0.1843679
-0.037713587 0.032607734 0.15297821
0.0027253628 -0.038422346 0.15142649
0.0032100081 -0.039854825 0.15152121
-0.038736284 0.032080948 0.1479792
-0.037947357 0.028515399 0.14737493
-0.0016232133 -0.033432961 0.14676517
0.00085437298 -0.036253214 0.14784306
0.0049871802 -0.038892567 0.14839274
-0.03824532 0.031189919 0.14473099
-0.037505329 0.027371764 0.14336923
-0.037414134 0.023396373 0.1421594
-0.0031883717 -0.033096135 0.14292684
-0.038856387 0.025310993 0.13696463
-0.038311124 0.021511257 0.13875151
-0.0064083338 -0.033256829 0.13871625
-0.03977406 0.020060241 0.13426419
-0.038978815 0.015152693 0.13532408
-0.0080724359 -0.034293234 0.13451941
-0.040669262 0.018799365 0.12989579
-0.039223969 0.014596224 0.1299877
-0.03920579 0.010664642 0.13037546
-0.01497376 -0.033745944 0.1309209
-0.040148854 0.014214277 0.12651904
-0.039994061 0.0091978908 0.12609567
-0.03888613 0.0035735369 0.12533845
-0.014886379 -0.031318545 0.12385379
-0.013955593 -0.032259285 0.127023
-0.039640725 0.0075899959 0.12125494
-0.039073229 0.0041128993 0.12139575
-0.037521839 0.00023883581 0.12158753
-0.020493448 -0.031189084 0.12241121
-0.04084152 0.0062170625 0.11722513
-0.040445983 0.0028213859 0.11641438
-0.038461149 -0.0019688606 0.1171547
-0.038525045 -0.0054499507 0.11536349
-0.024870932 -0.029310107 0.11711334
-0.021487474 -0.030976236 0.11774217
-0.040978611 0.001660049 0.11316426
-0.03871423 -0.0024425983 0.11317737
-0.039404929 -0.0081288218 0.11303808
-0.038498342 -0.013106287 0.11228873
-0.03665632 -0.017357647 0.11206533
-0.034504056 -0.019877195 0.11180462
-0.030247927 -0.02802521 0.11274712
-0.026141226 -0.029103935 0.11234622
-0.022645056 -0.03028065 0.11302026
-0.03946048 -0.0089673996 0.10805492
-0.037764668 -0.013243854 0.10830621
-0.035390377 -0.017301559 0.10827129
-0.032817185 -0.021599412 0.10838048
-0.030424178 -0.025882721 0.10821755
-0.027416766 -0.028875768 0.10808004
-0.040415645 -0.010484457 0.10451861
-0.038634717 -0.0141958 0.10399844
-0.036059439 -0.017596006 0.10455449
-0.033048332 -0.02091825 0.10481216
-0.030650854 -0.025776386 0.10493095
-0.028876305 -0.02843225 0.1048287
0.012034476 0.005589664 0.1909554
0.0053852797 0.0151003 0.18653095
0.0092464685 0.0075690746 0.1878891
0.01039356 0.0029663444 0.19037193
0.005196631 0.011523247 0.18443483
0.0067167282 0.0063782334 0.1850459
0.0065409541 0.0022051334 0.1848934
-0.036147058 0.03363502 0.14366326
0.0027520657 -0.036395133 0.14441323
0.0073528886 -0.039442539 0.1445047
-0.036615372 0.03223902 0.14110386
-0.036928773 0.029141486 0.14032283
-0.00036597252 -0.034250319 0.14108407
0.0019485354 -0.036769211 0.14080185
0.0049014091 -0.039987266 0.14110112
-0.037063539 0.031000555 0.13620536
-0.037649035 0.027962804 0.13716446
-0.0030345321 -0.034778714 0.13710018
0.00059491396 -0.037247658 0.13662298
-0.038794816 0.026797831 0.13223805
-0.037863195 0.023631513 0.13201596
-0.0042831302 -0.034913719 0.13258885
-0.0006608963 -0.036947191 0.13289104
-0.039753973 0.025300622 0.12745921
-0.039568067 0.022014439 0.12736143
-0.0091654658 -0.03289938 0.12886365
-0.0068494678 -0.033232272 0.12650944
-0.039531708 0.020339668 0.12379076
-0.038578689 0.015705526 0.12277244
-0.038947582 0.011534274 0.12220798
-0.011386633 -0.032110393 0.12338354
-0.038730085 0.01497817 0.11839135
-0.039528608 0.01041311 0.11908813
-0.016615272 -0.030882478 0.11854877
-0.012247682 -0.0309425 0.11957385
-0.039139628 0.013354182 0.11526324
-0.039772809 0.00889045 0.11467318
-0.03860116 0.00017923117 0.1142924
-0.01990062 -0.030890167 0.11385117
-0.040154219 0.0070514083 0.11126019
-0.039929688 0.0037434697 0.10987712
-0.038524628 -0.0015372038 0.11078538
-0.037954509 -0.0048523545 0.11088158
-0.020878434 -0.030484736 0.11077179
-0.039886355 0.0022565722 0.10616995
-0.03866601 -0.0026169419 0.10631259
-0.038704216 -0.0055733323 0.10626565
-0.025056183 -0.029915929 0.1054325
-0.022135854 -0.030687809 0.10790364
-0.039164841 -0.0077018738 0.10116149
-0.039235055 -0.012541294 0.10098056
-0.035936773 -0.018013716 0.10127647
-0.032689691 -0.021898091 0.10207959
-0.029496372 -0.025257826 0.10104115
-0.026490569 -0.02877003 0.10178943
-0.039727509 -0.0090069175 0.096619472
-0.038767278 -0.013110936 0.096874043
-0.036107183 -0.017087042 0.09692739
-0.032803059 -0.02038002 0.097449496
-0.03810221 -0.014040112 0.09343116
0.012752473 0.015026331 0.18883288
0.013388932 0.010080576 0.18999732
0.0078715682 0.01772356 0.1871264
0.010429859 0.013399422 0.186634
0.011689603 0.010990739 0.18870345
0.0079472065 0.011725307 0.18476579
-0.033464074 0.036005199 0.13831258
0.0073365569 -0.040047228 0.13969612
-0.036307931 0.033590913 0.13422252
0.0038339496 -0.038626909 0.13395526
-0.038673401 0.031551242 0.13001533
-0.0018800497 -0.033844352 0.1283115
0.0015974045 -0.036883056 0.12918489
0.0048388839 -0.03895545 0.1287206
-0.040521622 0.030699432 0.12600352
-0.040033638 0.027800739 0.12506272
-0.0019158721 -0.034242153 0.12507077
0.0014381409 -0.036104381 0.12542261
-0.041341901 0.031580448 0.12257366
-0.039153993 0.026224196 0.12132712
-0.038937807 0.020613372 0.12090798
-0.0076488256 -0.032538235 0.12082626
-0.0048671365 -0.033605695 0.12134646
-0.0011879206 -0.035226405 0.12167545
-0.038209915 0.025690198 0.11761202
-0.038703382 0.02073741 0.11721306
-0.038306653 0.017157137 0.11675681
-0.0089613795 -0.031391621 0.11639352
-0.0058060884 -0.033202589 0.11698468
-0.039512634 0.01949805 0.11273517
-0.039148271 0.015164375 0.11197968
-0.039591193 0.011265278 0.11247493
-0.0134992 -0.030366004 0.11404099
-0.012965381 -0.030590236 0.1105407
-0.039645851 0.01418519 0.1077152
-0.039247513 0.0096800923 0.10812785
-0.015936434 -0.030312359 0.10731681
-0.040134549 0.01185745 0.102432
-0.040397704 0.0084684491 0.10320814
-0.039963245 0.0039167404 0.10340585
-0.038452208 -0.00081253052 0.10311387
-0.018391371 -0.030781448 0.1032172
-0.040580809 0.0081102848 0.099957213
-0.039871573 0.0032716393 0.098987773
-0.038654387 -0.0020449162 0.099632069
-0.02424401 -0.028624594 0.098689273
-0.020690501 -0.030937433 0.098997369
-0.040089369 0.0017476678 0.095414534
-0.039703548 -0.0023578405 0.095157579
-0.03940028 -0.0061042309 0.094804391
-0.035175979 -0.016988039 0.094656095
-0.03112632 -0.020827353 0.094632134
-0.027890563 -0.024247706 0.095163867
-0.024982393 -0.028202415 0.09491004
-0.021709144 -0.031164408 0.095167652
-0.040831804 -0.0027992129 0.091409221
-0.039426148 -0.0082900524 0.090870842
-0.037722766 -0.013094425 0.090900853
-0.034820974 -0.017219782 0.09116815
-0.031748295 -0.021203458 0.089999661
-0.028718114 -0.025123358 0.08968927
-0.026003599 -0.028651059 0.090268776
-0.039690614 -0.0098958611 0.086753026
-0.03870976 -0.013170063 0.085860863
-0.035710216 -0.017406881 0.085701898
-0.032358468 -0.02182889 0.086086407
-0.030338347 -0.025251925 0.086049393
-0.038979709 -0.014680505 0.081933692
0.011708319 0.017376423 0.18620986
-0.032275677 0.037945211 0.13511758
0.0055807233 -0.038956821 0.12681459
0.0023007989 -0.037419617 0.12393524
0.0047325492 -0.038659155 0.12257977
-0.037842512 0.031643152 0.11803938
-0.038031876 0.028582096 0.11756264
-0.0018614531 -0.034208715 0.11835985
0.00052553415 -0.036646366 0.11885463
0.0027438998 -0.039131999 0.1194187
-0.038190246 0.030519307 0.11416079
-0.038706124 0.026913285 0.11418416
-0.038546026 0.023634195 0.1147591
-0.0067228675 -0.031543732 0.11277659
-0.002504766 -0.033014059 0.11363651
0.00071752071 -0.035490036 0.11436279
-0.038847506 0.02627182 0.10950188
-0.039336264 0.021786749 0.10977162
-0.0068869591 -0.030723512 0.1097187
-0.038810074 0.02453649 0.10622551
-0.038680434 0.020913661 0.1054088
-0.038882315 0.015969872 0.10540111
-0.010153592 -0.03106755 0.10542442
-0.03867203 0.019162476 0.10214184
-0.038204253 0.01566726 0.10118569
-0.039330065 0.012140095 0.1020868
-0.012423754 -0.03212297 0.1013471
-0.038474739 0.013811946 0.098034218
-0.0392133 0.0091751814 0.096516982
-0.017766654 -0.032060802 0.097311214
-0.013583601 -0.032735884 0.097203329
-0.039625347 0.0078995228 0.093398735
-0.039515972 0.0043133497 0.092334762
-0.019487441 -0.031856775 0.092612848
-0.039927125 0.0022999644 0.088537559
-0.038350224 -0.0014432073 0.087018415
-0.037964702 -0.0054594874 0.087296471
-0.024703801 -0.0297544 0.087443009
-0.020854712 -0.031175077 0.08886613
-0.038344383 -0.00089377165 0.08388488
-0.038178146 -0.007296145 0.083471492
-0.035349011 -0.018242061 0.083024964
-0.031649888 -0.021068931 0.083073154
-0.029505432 -0.025580585 0.083591834
-0.025841296 -0.028402746 0.083286569
-0.022138417 -0.03009516 0.083960697
-0.037962377 -0.0089733601 0.079722539
-0.038172424 -0.012782037 0.079264835
-0.03593576 -0.017146409 0.079564705
-0.031729162 -0.020636261 0.07955806
-0.028999984 -0.024676323 0.079379901
-0.026584446 -0.027104497 0.079838648
-0.035731733 -0.015796065 0.075727358
-0.036004364 0.034607172 0.11686279
0.0049471259 -0.037342012 0.11496983
0.0058931708 -0.038486481 0.11655669
-0.037826538 0.032736897 0.1125247
-5.7220459e-05 -0.033593714 0.11172734
0.0023894906 -0.035831869 0.11160086
0.0064267516 -0.037344694 0.11107554
-0.038298726 0.031856894 0.10767011
-0.039229572 0.027867794 0.1074159
-0.0046115518 -0.031334102 0.10862438
-0.0015253425 -0.032756329 0.10718973
0.0017992258 -0.035386384 0.10775448
-0.040452838 0.032202721 0.10358478
-0.039276838 0.027150929 0.1035151
-0.038379133 0.022749543 0.1030248
-0.0040373206 -0.031850576 0.1025662
-0.039488852 0.025148034 0.10020848
-0.038242221 0.021080911 0.098962054
-0.038136721 0.016755641 0.097882912
-0.0092564821 -0.032190561 0.10022502
-0.0059872866 -0.033077836 0.097516939
-0.037727356 0.015806675 0.094099328
-0.037880182 0.011995852 0.093909904
-0.010813832 -0.03286469 0.094079301
-0.037716031 0.013810933 0.089601114
-0.038716614 0.0098709464 0.089873567
-0.014186859 -0.032246292 0.090039536
-0.038864791 0.0086743236 0.086074665
-0.038744748 0.0054425597 0.085706189
-0.036157548 -0.0016570091 0.084942684
-0.017495394 -0.030898392 0.084960565
-0.013512015 -0.03189981 0.086263314
-0.039015532 0.003500104 0.081684247
-0.037904441 -0.00092411041 0.081778124
-0.03699255 -0.0043509603 0.081950411
-0.022659838 -0.029005229 0.080467626
-0.018747568 -0.030019164 0.081786111
-0.038860023 0.0020709634 0.076939747
-0.038593709 -0.0016072392 0.077204242
-0.037332296 -0.0063585639 0.077366218
-0.030745268 -0.020600736 0.076568022
-0.028195679 -0.024707317 0.076473519
-0.024043143 -0.028163493 0.077349201
-0.040290594 0.00066757202 0.072137088
-0.039255202 -0.0022234321 0.073242992
-0.037920535 -0.0072051287 0.072752863
-0.036799073 -0.011921942 0.072927177
-0.034485221 -0.016578138 0.072560579
-0.031576872 -0.020676553 0.072492212
-0.028322697 -0.024512231 0.07247296
-0.025519848 -0.027947068 0.073817819
-0.038726926 -0.0083987117 0.068290085
-0.037372649 -0.012740135 0.067556888
-0.035211742 -0.016210139 0.067388684
-0.032193303 -0.01993221 0.067831665
0.0064970851 -0.0377298 0.10771908
-0.00029480457 -0.032125592 0.1038651
0.0041806102 -0.036143303 0.10422821
0.0067336559 -0.037970245 0.10512044
-0.038608611 0.032724082 0.10043265
-0.00081473589 -0.03347069 0.10089083
0.0025399923 -0.036359787 0.10048957
0.0031414032 -0.039108932 0.10060759
-0.038240612 0.032333434 0.096123204
-0.038021982 0.027729452 0.09626855
-0.037227035 0.023465335 0.095618531
-0.0021416545 -0.034229398 0.096707359
0.0012107491 -0.036425471 0.09535329
-0.038302004 0.030417264 0.091135278
-0.037594855 0.027285099 0.091519699
-0.036577284 0.022585392 0.092112526
-0.037197888 0.018924296 0.092231587
-0.0080634356 -0.032823145 0.091340587
-0.0034346581 -0.03285414 0.092239901
-0.036888003 0.020825446 0.087832466
-0.037202477 0.017082453 0.088080242
-0.0095480084 -0.03210777 0.087420389
-0.0062033534 -0.032594204 0.088010415
-0.038801908 0.020222783 0.083026662
-0.03815937 0.016260624 0.083275303
-0.037659943 0.011775315 0.083807781
-0.0099200606 -0.031074584 0.083002135
-0.0390926 0.01444459 0.078268364
-0.038089037 0.010360062 0.078964785
-0.037620127 0.0069244504 0.078454629
-0.015836418 -0.029666364 0.077632472
-0.038581491 0.00893116 0.073495448
-0.038570344 0.0049219131 0.074370146
-0.018221796 -0.028823376 0.073479921
-0.040066957 0.0082542896 0.070366055
-0.039890289 0.0026775599 0.070129842
-0.03901726 -0.0024636984 0.069703549
-0.037544727 -0.0058689713 0.069587141
-0.026780844 -0.0250144 0.069001973
-0.023246229 -0.026757658 0.0693883
-0.018733442 -0.028805912 0.070167154
-0.041002035 0.001091063 0.065743595
-0.040164709 -0.0024115443 0.065758824
-0.038472474 -0.0070954561 0.065478653
-0.037403524 -0.01127249 0.065482497
-0.03442347 -0.017241299 0.065048575
-0.031385958 -0.020661473 0.06530112
-0.02730912 -0.023905098 0.065448076
-0.023254991 -0.026394963 0.06555748
-0.040880024 0.0011980534 0.061699808
-0.040343702 -0.0026194453 0.061175257
-0.037962914 -0.0072022676 0.06142354
-0.03611958 -0.011770427 0.060800552
-0.034210205 -0.016701281 0.061313272
-0.031053424 -0.020660341 0.060933292
-0.027466953 -0.024061978 0.061312944
-0.039274037 -0.0088226199 0.057149917
-0.037743688 -0.012555182 0.056497961
-0.034751594 -0.017107487 0.056826055
-0.032549262 -0.01982975 0.057815969
-0.03887552 -0.013254583 0.053579628
0.0031737089 -0.032544255 0.09063445
-0.038042367 0.032237351 0.090914324
-0.0012239814 -0.032632232 0.08791326
0.0033006668 -0.035510302 0.089889601
-0.038291931 0.031670213 0.084781721
-0.036979735 0.028079331 0.085218772
-0.036070168 0.023697913 0.085623071
-0.0033012629 -0.032619655 0.084327951
-0.037268341 0.02712363 0.080400959
-0.037871122 0.022841871 0.080372199
-0.0078594089 -0.03129369 0.07994087
-0.038522243 0.020297647 0.07612808
-0.038643599 0.017060697 0.076655582
-0.010754466 -0.031271636 0.076372847
-0.038098633 0.01535517 0.071936697
-0.038513839 0.011155307 0.072189987
-0.014677763 -0.029906452 0.071980625
-0.011197865 -0.031856 0.071048588
-0.038676918 0.013792813 0.068589091
-0.037892938 0.0096743107 0.06713292
-0.03850013 0.0060513616 0.067594856
-0.019516408 -0.027682841 0.067586452
-0.015873373 -0.02953279 0.067434698
-0.012442768 -0.031968653 0.067796499
-0.037570894 0.0077474713 0.063305378
-0.038105667 0.0049641728 0.063261777
-0.021533549 -0.027508557 0.063232422
-0.017313004 -0.029118419 0.062960863
-0.03815639 0.0025199056 0.058512658
-0.039827645 -0.00093895197 0.058806628
-0.037840307 -0.005284369 0.058993965
-0.025975049 -0.024602652 0.058435082
-0.022083342 -0.027009606 0.058728725
-0.019248784 -0.028456211 0.059685439
-0.03926909 -0.0026934743 0.055086762
-0.038120449 -0.006416142 0.054969251
-0.033756316 -0.017258763 0.054163396
-0.03067255 -0.020400286 0.055141926
-0.027912021 -0.023768306 0.054814935
-0.024547517 -0.026450634 0.05462566
-0.039187849 -0.0042898655 0.050707489
-0.038203001 -0.007581234 0.050687134
-0.0376333 -0.012013316 0.050471991
-0.033876598 -0.015970588 0.050562739
-0.0309605 -0.019828379 0.05025056
-0.028595507 -0.023561537 0.050632328
-0.02541101 -0.026457191 0.051054955
-0.037424028 -0.010809898 0.04702872
-0.034025729 0.035704374 0.091968849
0.0071558952 -0.036343813 0.089961037
0.0041770935 -0.033861876 0.086800233
0.0064896345 -0.03693229 0.086834058
-0.038895071 0.032960355 0.082115099
-0.00010418892 -0.032915592 0.082319394
0.0037632585 -0.034727037 0.082630739
0.0059481263 -0.037590206 0.082792506
-0.038279176 0.032704473 0.078204468
-0.036850393 0.028854132 0.078117475
-0.036908686 0.024756014 0.077844515
-0.00063377619 -0.032742977 0.078090891
0.0018640161 -0.034508705 0.077520832
-0.038814664 0.031792104 0.073829979
-0.037522852 0.027677178 0.073927313
-0.037850201 0.023675859 0.074478775
-0.0030260682 -0.032453001 0.074360043
-0.040555537 0.030106127 0.068673342
-0.038920701 0.026548803 0.069914639
-0.038471043 0.021790564 0.070276707
-0.037648976 0.018022716 0.069605798
-0.0083737969 -0.031804442 0.072051823
-0.0048249364 -0.032742977 0.068218499
-0.040028393 0.024360359 0.066778421
-0.038536251 0.020879388 0.065438688
-0.037789404 0.016699493 0.065598756
-0.037073493 0.012701273 0.065246582
-0.010103285 -0.031884074 0.064605743
-0.0064488053 -0.033494651 0.066359192
-0.038776398 0.019270599 0.062081069
-0.038073838 0.015774548 0.061027318
-0.037753522 0.01063484 0.061659902
-0.014378965 -0.030050159 0.060745806
-0.011187494 -0.031306386 0.06099236
-0.038686335 0.013683498 0.057061285
-0.038171411 0.010183334 0.056108654
-0.037741482 0.0056584477 0.057399809
-0.016081214 -0.029624522 0.056283206
-0.038363874 0.0081750751 0.051926583
-0.038386285 0.0043215156 0.0523839
-0.037519276 0.00070232153 0.051524699
-0.021754026 -0.028085291 0.052418709
-0.01803714 -0.029712975 0.05104968
-0.038755178 0.0030096173 0.047304809
-0.039058566 -0.0018188357 0.047526598
-0.03733629 -0.0070402622 0.046811551
-0.035546899 -0.012710273 0.046685994
-0.032939196 -0.016005635 0.046815366
-0.030415773 -0.020618677 0.046845764
-0.02762723 -0.024686456 0.047725052
-0.023546517 -0.02789712 0.047380179
-0.039895833 -0.0034549236 0.044070721
-0.037662983 -0.0068125725 0.042795695
-0.035629511 -0.011410058 0.04280553
-0.03271836 -0.016016841 0.042489417
-0.030597866 -0.020666182 0.042881496
-0.027908862 -0.024537206 0.043178536
-0.024628699 -0.027590394 0.043199696
-0.038431525 -0.0067876577 0.039275892
-0.035548151 -0.011504948 0.038572468
-0.033450425 -0.016078293 0.039382465
-0.031135261 -0.020821035 0.039081849
-0.028278232 -0.023649216 0.038988419
0.0057756305 -0.035490453 0.079777822
0.0074390173 -0.037496328 0.079576299
0.0045850873 -0.035300434 0.077541128
0.0078086853 -0.036783457 0.077520534
-0.038718998 0.032249928 0.071629018
0.0006647706 -0.032258689 0.071301997
0.0034672618 -0.034059525 0.072092652
-0.037152052 0.029040396 0.066984028
-0.00037097931 -0.032759368 0.067008644
-0.040092885 0.030347884 0.065475851
-0.03721112 0.028413177 0.063694626
-0.036791086 0.024617255 0.062229395
-0.0047741532 -0.033426046 0.062113404
-0.037406325 0.021402836 0.058119655
-0.038252831 0.017393112 0.05782786
-0.0093135238 -0.031998992 0.05824849
-0.0065828562 -0.032681704 0.059094697
-0.037939787 0.020576358 0.052477717
-0.037475824 0.016610801 0.053350538
-0.037887216 0.011891484 0.052663356
-0.0113644 -0.031156898 0.053059042
-0.036910534 0.015504837 0.049617469
-0.03708607 0.011240602 0.048714131
-0.038027048 0.0062878132 0.048629224
-0.014570653 -0.031367719 0.049481392
-0.036861479 0.0094762444 0.045128763
-0.037682652 0.0053040981 0.044328958
-0.017243385 -0.030032575 0.045228809
-0.037658632 0.0041613579 0.040329732
-0.038561881 -0.00094074011 0.04093606
-0.037151814 -0.0062029958 0.040394761
-0.026653469 -0.02463764 0.04034058
-0.023275435 -0.027325451 0.039992727
-0.019031644 -0.029335976 0.04062397
-0.03755784 0.0019530654 0.03677348
-0.037207723 -0.0019952655 0.036366619
-0.037985146 -0.0068544149 0.036763825
-0.036496103 -0.011140823 0.037079491
-0.034055471 -0.015696943 0.036830314
-0.03166759 -0.019979954 0.036658294
-0.028441191 -0.024173498 0.036851771
-0.023964882 -0.027307808 0.036420204
-0.019867122 -0.029473603 0.036770292
-0.03828758 -0.0041097999 0.030353524
-0.038008571 -0.0073149204 0.031939961
-0.037715256 -0.012264609 0.033036716
-0.034640491 -0.016320348 0.032686986
-0.031042576 -0.020223737 0.032070257
-0.027490616 -0.023923457 0.031652786
-0.024237275 -0.026333451 0.032422252
-0.037370265 -0.0082886219 0.028237596
-0.037217677 -0.012622952 0.027419493
-0.034079254 -0.016233623 0.028028265
-0.030815065 -0.019679189 0.02817376
0.0076696277 -0.034764528 0.07359755
0.0060734749 -0.033440948 0.067686707
0.010468006 -0.035343826 0.068188608
0.0048365593 -0.034124792 0.063840538
-0.0383026 0.031621039 0.060906589
-0.036498725 0.028766453 0.059929073
0.00063419342 -0.03347367 0.060869187
0.0034887195 -0.033891261 0.058927745
-0.037860036 0.031391084 0.055382162
-0.037224412 0.028159142 0.055859715
-0.036952853 0.024801731 0.056513071
-0.0018728375 -0.032115877 0.055268914
-0.037904859 0.027299225 0.051138312
-0.037640512 0.023269951 0.051733196
-0.0064118505 -0.031676352 0.05250001
-0.037619293 0.02559489 0.047560811
-0.037624478 0.02146101 0.0473153
-0.037239075 0.01715517 0.047331721
-0.0093690753 -0.031447947 0.04824096
-0.038448811 0.015892267 0.043142147
-0.037478626 0.011485696 0.04303173
-0.014537632 -0.030484736 0.042017169
-0.011313379 -0.03093189 0.043486632
-0.038392484 0.014954329 0.039468743
-0.037895918 0.010489821 0.038731076
-0.038036168 0.0065425634 0.038298763
-0.015358746 -0.02895993 0.037747063
-0.013222456 -0.030304551 0.039593317
-0.037720978 0.0095838904 0.034988798
-0.037676454 0.0051644444 0.034213044
-0.037110746 0.00048774481 0.034014143
-0.020730376 -0.028446376 0.033239521
-0.018063724 -0.02970171 0.034218885
-0.0379498 0.0033547878 0.029730715
-0.037688911 -0.00075703859 0.030357726
-0.025343239 -0.025370181 0.029004253
-0.022718012 -0.027743995 0.030270763
-0.019006968 -0.029444337 0.029058613
-0.037630141 -0.0021386147 0.025431976
-0.038467407 -0.0064820051 0.026231691
-0.036697984 -0.0092557073 0.024501935
-0.033293426 -0.016984165 0.025385991
-0.029899776 -0.020710886 0.0256605
-0.027182817 -0.024622262 0.025956646
-0.02463907 -0.028045297 0.025681332
-0.022200286 -0.02983737 0.025043175
-0.039254785 -0.0070344806 0.021397576
-0.036560416 -0.011602402 0.022034898
-0.034128368 -0.015510619 0.021545425
-0.030913711 -0.019488096 0.021906242
-0.02831912 -0.024219334 0.021884218
-0.025502622 -0.027940929 0.021427378
-0.023937225 -0.030824184 0.021453664
-0.039356112 -0.0091001987 0.018271849
0.010234773 -0.035372138 0.066193819
0.0070942044 -0.03449899 0.063037038
0.0091615319 -0.036422789 0.062650055
0.0060293078 -0.035043955 0.057721466
0.0078061819 -0.03658396 0.057810158
0.0023636818 -0.032143772 0.0526537
0.0058635473 -0.033838332 0.053893954
-0.037103117 0.031770289 0.048338383
-0.037942827 0.029086113 0.048700601
0.00026881695 -0.03184557 0.048897147
-0.036993265 0.031589031 0.045296818
-0.037279546 0.02787137 0.044660002
-0.037106752 0.023238659 0.044865519
-0.0061700344 -0.030841291 0.044041276
-0.0027187467 -0.031237364 0.045430928
-0.037186623 0.026697636 0.040427662
-0.036741555 0.022219658 0.040507354
-0.037488341 0.018009305 0.040180899
-0.0062302947 -0.030700743 0.040378161
-0.036749184 0.021597207 0.037176408
-0.036693931 0.016885817 0.035989173
-0.037246704 0.012478232 0.035915233
-0.010959148 -0.02995348 0.035795487
-0.036743879 0.014549315 0.031977274
-0.036804616 0.010811031 0.031929918
-0.015500963 -0.030172706 0.03230191
-0.012634337 -0.030924737 0.032159038
-0.036706805 0.010183215 0.027032807
-0.036738932 0.0060096383 0.027711377
-0.016517103 -0.030586183 0.027783945
-0.014149249 -0.031850457 0.028440543
-0.037517726 0.0087307096 0.024047986
-0.036709189 0.0043519735 0.023161814
-0.037214041 0.00023031235 0.023820773
-0.019925773 -0.030849993 0.024283573
-0.037488937 0.0027638674 0.019346043
-0.038404584 -0.001647532 0.019641146
-0.035292149 -0.011012852 0.018765882
-0.032433331 -0.016032696 0.01875113
-0.030083895 -0.019479036 0.019029096
-0.027786016 -0.023874462 0.018645629
-0.024066031 -0.028178692 0.01852037
-0.021931171 -0.031644285 0.019365057
-0.037910879 -0.0022203922 0.015097573
-0.03753984 -0.0064494014 0.014482901
-0.035162568 -0.011318266 0.015063956
-0.032988846 -0.015717983 0.01520367
-0.029803753 -0.019511402 0.015255675
-0.026738286 -0.023842335 0.015368566
-0.023855746 -0.027566314 0.015476152
-0.021731079 -0.031511784 0.015986845
-0.036918342 -0.0075268149 0.010408059
-0.034488499 -0.011450946 0.011055425
-0.032414079 -0.015515864 0.010686323
0.0065581799 -0.033799052 0.051027745
0.009973228 -0.035999179 0.050993919
-0.033446789 0.032782853 0.049643397
0.0054718256 -0.033971786 0.046990424
0.0092220306 -0.037456691 0.046518624
-0.036256075 0.033757567 0.042345889
0.002191186 -0.03126967 0.04202307
0.0050646663 -0.033896625 0.042427339
0.0051986575 -0.038543046 0.04354427
-0.03765142 0.032898545 0.038540758
-0.03751123 0.029591382 0.038898595
-0.0042444468 -0.030897796 0.037750788
-0.039288521 0.031947553 0.034854032
-0.037926972 0.028005123 0.034296669
-0.03691864 0.023341835 0.034462847
-0.036396742 0.019698322 0.033802666
-0.0063448548 -0.030215919 0.034800746
-0.0021501184 -0.030710876 0.033124603
-0.036966443 0.027208149 0.030378081
-0.03612107 0.022462666 0.029930837
-0.035976768 0.018018305 0.030104496
-0.0083797574 -0.031391203 0.030426539
-0.0040365458 -0.031847358 0.028652526
-0.034659028 0.016783237 0.02573745
-0.036824584 0.013600528 0.026237831
-0.010284364 -0.031971753 0.025846884
-0.037767291 0.011281073 0.021428749
-0.037019253 0.0072057843 0.021112278
-0.037978649 0.0096823573 0.016562298
-0.03744781 0.0057380795 0.017094806
-0.037257969 0.0020009875 0.01632981
-0.038715065 0.0091178417 0.013297215
-0.03821677 0.0046032071 0.012891158
-0.037938893 0.00024801493 0.012729272
-0.027426958 -0.019261897 0.011698976
-0.025666654 -0.022114635 0.011628136
-0.021602392 -0.026350975 0.011323109
-0.019121051 -0.029746354 0.011999592
-0.037627876 -0.00085031986 0.0081008524
-0.037623525 -0.0052918792 0.0084003061
-0.034864128 -0.010486543 0.0079771131
-0.032728732 -0.014581025 0.0080561191
-0.02926743 -0.018731892 0.008424893
-0.02534771 -0.02239418 0.0077955276
-0.02186203 -0.025809944 0.0076997429
-0.018892527 -0.028758168 0.0083491951
0.0039360523 -0.031560123 0.038140304
0.0064915419 -0.034470558 0.038492896
0.0029061437 -0.031031728 0.035674311
0.0058884025 -0.03339678 0.03404928
0.0083563328 -0.035600126 0.035385467
-0.037042797 0.033712626 0.030422963
0.0012969375 -0.031633079 0.030012853
0.003483057 -0.032506883 0.031146057
-0.037874758 0.032278121 0.026080057
-0.036443591 0.028207242 0.026559547
-0.035203457 0.024212301 0.02625446
-0.001429975 -0.032535315 0.026290581
-0.038026631 0.031553507 0.022320554
-0.036331296 0.026546001 0.022190765
-0.035571814 0.022478878 0.021991804
-0.034606278 0.018529832 0.022974119
-0.005276382 -0.031320751 0.021612689
-0.0041412711 -0.032384157 0.024177089
-0.036236286 0.020669162 0.017212942
-0.035688579 0.016781569 0.018159911
-0.036733687 0.019722104 0.013444439
-0.037000716 0.015771806 0.012924865
-0.036857605 0.012680054 0.015293375
-0.036994636 0.013921618 0.0093903393
-0.037373483 0.010195673 0.0092676729
-0.037186682 0.0060990453 0.0089881271
-0.016835392 -0.029755592 0.0085995346
0.0083412528 -0.034338057 0.031372882
0.0097815394 -0.035529315 0.031976052
0.0063605905 -0.033610463 0.02831421
-0.037346423 0.034670115 0.024060532
0.0048661828 -0.033799946 0.023390278
-0.038533032 0.033151686 0.019896135
-0.036497772 0.029295802 0.019795164
-0.035413742 0.026061893 0.018780395
-0.00015711784 -0.032210052 0.01894258
0.0032841563 -0.03465122 0.020538226
-0.03625232 0.032704592 0.015605077
-0.036003292 0.028892756 0.015103981
-0.036135852 0.023951769 0.015635058
-0.0025242567 -0.02945751 0.014281288
-0.036621392 0.026823223 0.01158531
-0.037275195 0.022701502 0.011277631
-0.036582887 0.018945575 0.010428473
-0.036317885 0.017040253 0.0066493303
0.0075119138 -0.032221854 0.021850213
0.0059157014 -0.033925772 0.016682163
-0.034970224 0.03024137 0.011866435
0.0013673902 -0.030581236 0.012547269
0.0045447946 -0.032485843 0.012825236
-0.034312308 0.029020667 0.0080786198
-0.035573125 0.025152087 0.007742241
-9.560585e-05 -0.029178083 0.0093247741
0.0093897581 -0.032393336 0.0096815079
0.011860251 -0.0324983 0.0066834837
