# .PCD v0.7 - Point Cloud Data file format
VERSION 0.7
FIELDS x y z
SIZE 4 4 4
TYPE F F F
COUNT 1 1 1
WIDTH 1194
HEIGHT 1
VIEWPOINT 0 0 0 1 0 0 0
POINTS 1194
DATA ascii
-0.033644974 -0.023013353 0.18145974
-0.03145498 -0.026482403 0.18090709
-0.037489355 -0.020979226 0.17764245
-0.03526926 -0.023996234 0.17802079
-0.032180488 -0.027496159 0.17826729
-0.038291574 -0.0092087388 0.17984273
-0.036364734 -0.012752414 0.18049233
-0.035114169 -0.017767131 0.18171521
-0.030588984 -0.019982159 0.18211783
-0.028241932 -0.025185108 0.18161221
-0.024624825 -0.028879225 0.18113466
-0.021306872 -0.03248477 0.18081643
-0.01777178 -0.036523819 0.1807005
-0.016312957 -0.040230453 0.17862488
-0.03935957 -0.010293365 0.1763456
-0.037571132 -0.014429808 0.17603774
-0.036943674 -0.018881083 0.17710127
-0.03527689 -0.023671806 0.17644991
-0.031437933 -0.028477907 0.17644896
-0.028055727 -0.03096211 0.17710619
-0.023955405 -0.034512639 0.17687659
-0.020261347 -0.038253605 0.17610301
-0.016804576 -0.040293038 0.1759799
-0.03853935 -0.015695393 0.17273118
-0.03787154 -0.019881129 0.17146362
-0.035771549 -0.024301648 0.17268278
-0.031329691 -0.027633131 0.17162697
-0.027368784 -0.031373262 0.17169137
-0.024440169 -0.034816146 0.1715893
-0.021905661 -0.037258327 0.17241295
-0.037755907 -0.021827638 0.16678105
-0.035802364 -0.024685502 0.16728096
-0.03581351 -0.00080215931 0.18086983
-0.034140646 -0.0046240687 0.18187924
-0.030997753 -0.0084708333 0.18275015
-0.027748346 -0.011558592 0.18225501
-0.022675753 -0.016796649 0.18144463
-0.023048997 -0.020954311 0.18154444
-0.01948458 -0.024501562 0.18168546
-0.015637755 -0.027936161 0.18173577
-0.012446642 -0.032073915 0.18170007
-0.0098997355 -0.035801828 0.18098997
-0.037936985 -0.0020502806 0.17780919
-0.037737131 -0.0057390332 0.17861907
-0.011970162 -0.039378524 0.17875244
-0.0093234777 -0.04015559 0.17631836
-0.038520277 -0.0036402941 0.17435519
-0.038945496 -0.0076892376 0.17389478
-0.038059533 -0.012119532 0.17382134
-0.014341116 -0.040639639 0.17337532
-0.038766086 -0.0090780854 0.16997637
-0.037417054 -0.012887657 0.16934128
-0.037336886 -0.017247856 0.16851737
-0.029879034 -0.027374208 0.16852124
-0.027084708 -0.030881226 0.16846617
-0.023966253 -0.035030484 0.16845103
-0.019913614 -0.03815949 0.1696869
-0.015893221 -0.039521456 0.17025085
-0.038701653 -0.010134637 0.16594304
-0.036680579 -0.013740778 0.16495968
-0.036838531 -0.017735004 0.16499282
-0.031159759 -0.027514338 0.16582741
-0.02783376 -0.031096697 0.16579641
-0.024437249 -0.034714997 0.16488759
-0.020541072 -0.037641943 0.16455917
-0.03713125 -0.020061255 0.1605676
-0.035907745 -0.024535179 0.16129453
-0.031442463 -0.027941525 0.16106741
-0.027304173 -0.031088054 0.16164942
-0.025290251 -0.033378065 0.16156109
-0.034739375 -0.023915708 0.15682815
-0.032898545 -0.026278555 0.15680151
-0.038131177 0.016129017 0.18537773
-0.036508143 0.011955798 0.18398757
-0.034400046 0.0098786354 0.18406324
-0.031227112 0.0044486523 0.18273778
-0.029578447 -0.0012202263 0.18335982
-0.026791215 -0.0055629611 0.18346094
-0.022380292 -0.0068141222 0.18260153
-0.018358529 -0.013014317 0.18273549
-0.016941309 -0.015573025 0.18285049
-0.012559593 -0.020826578 0.18272407
-0.0075789094 -0.02895993 0.18297245
-0.0044249892 -0.032371998 0.18281449
-0.0027292967 -0.035578609 0.18297841
-0.039225399 0.0096032619 0.18013407
-0.037063479 0.0053747892 0.18019672
-0.034625351 0.002348423 0.18141688
-0.032060146 -0.00091004372 0.18239208
-0.024561942 -0.011995256 0.18179639
-0.022120357 -0.014075637 0.18182437
-0.01863569 -0.018438995 0.18165545
-0.01658994 -0.021556079 0.18194617
-0.012500584 -0.025885761 0.18179898
-0.0093612075 -0.029872894 0.18205304
-0.0063406825 -0.03475517 0.1811799
-0.0038698912 -0.037540615 0.18005587
-0.0005697608 -0.03924644 0.17852362
-0.039089382 0.008055687 0.17637993
-0.038456023 0.0039677024 0.17564286
-0.038012207 0.00063210726 0.17622186
-0.0059114695 -0.039895415 0.17616232
-0.037748098 0.0033307076 0.17231597
-0.038348556 -0.0016432405 0.17157806
-0.0072779059 -0.040359974 0.17092048
-0.038512111 -0.0028190613 0.16727771
-0.038180947 -0.0061708689 0.16673352
-0.013033032 -0.039412975 0.16608955
-0.0098741055 -0.040100992 0.16723497
-0.038363338 -0.0089277029 0.16271599
-0.037351966 -0.012456536 0.16314812
-0.036796689 -0.016177297 0.16200759
-0.018903375 -0.038374782 0.16236921
-0.015439093 -0.040069163 0.16209875
-0.038604796 -0.010898173 0.15911092
-0.037420392 -0.014021039 0.15817733
-0.036964536 -0.017059207 0.15875049
-0.029585063 -0.027059376 0.15759008
-0.02703917 -0.030153155 0.15813746
-0.023186207 -0.033964932 0.15847026
-0.019743323 -0.037677467 0.15858699
-0.016317844 -0.03998518 0.15785201
-0.036315799 -0.019084454 0.15443148
-0.034853876 -0.023560464 0.15367888
-0.030798137 -0.027435243 0.15390839
-0.027283669 -0.030349314 0.1539491
-0.023608029 -0.0342381 0.15481021
-0.020452499 -0.037564337 0.15471788
-0.037142992 -0.020564914 0.14870484
-0.035776973 -0.024522007 0.14946656
-0.032206953 -0.028056502 0.14941455
-0.028079808 -0.029775858 0.14993761
-0.03790617 -0.021070778 0.14621247
-0.037063181 -0.025189996 0.14618142
-0.033201158 -0.027765095 0.14628376
-0.03051734 0.01467663 0.18990804
-0.027200222 0.0137043 0.18852617
-0.036070466 0.017270088 0.18620159
-0.033003747 0.014584839 0.1872756
-0.029569089 0.011639118 0.18620615
-0.026996791 0.0091491342 0.18391953
-0.013128281 -0.0096182823 0.18390651
-0.012572289 -0.013352394 0.18443985
-0.0080792308 -0.016220927 0.18386061
-0.0016847849 -0.024638176 0.18381234
-0.039211035 0.020865679 0.18018968
-0.038517475 0.016903758 0.18196751
-0.036816597 0.013258874 0.18328179
-0.032300413 0.0080732107 0.18311049
-0.028928816 0.0056259036 0.18310864
-0.025225937 0.0041214228 0.1828555
-0.019556463 -0.0079776645 0.18211715
-0.01620698 -0.0099747777 0.18280534
-0.014471471 -0.014786005 0.18324818
-0.011799514 -0.017721534 0.18289368
-0.0077228546 -0.021936715 0.18211804
-0.0049463511 -0.025807798 0.18290313
-0.0013316274 -0.030173898 0.1831872
0.00090104342 -0.03528589 0.18241335
0.0049546957 -0.037114978 0.18136515
0.0070583224 -0.040340602 0.18143131
-0.039533973 0.016152382 0.17792942
-0.038687289 0.01165098 0.17714329
-0.00069636106 -0.037537336 0.17977332
0.0028310418 -0.039895773 0.17717262
0.0049721599 -0.041999698 0.17609973
-0.039555013 0.014046192 0.1741422
-0.037991345 0.010756731 0.17328043
-0.037703991 0.0068778396 0.17286147
0.0013968945 -0.039533734 0.17346002
-0.037781477 0.0087331533 0.16897054
-0.037379801 0.0050160289 0.16894756
-0.037374854 0.0013800859 0.16796274
-0.004339695 -0.040643692 0.16897471
-0.038535893 0.0045167208 0.16424318
-0.037746608 0.00024199486 0.16499163
-0.006657064 -0.040573835 0.16531457
-0.038849175 0.002276659 0.16040988
-0.038263917 -0.0015824437 0.16024472
-0.037017763 -0.005638659 0.16020145
-0.010771871 -0.039857447 0.16045304
-0.008599937 -0.040465295 0.16076465
-0.039003968 -0.0021549463 0.15531947
-0.037062526 -0.0066436529 0.15571715
-0.036373794 -0.011076987 0.15541543
-0.013752282 -0.040717185 0.15599413
-0.010255218 -0.040619791 0.15343468
-0.039092422 -0.0037224889 0.15230657
-0.037935019 -0.0079370737 0.15114404
-0.036507368 -0.012951612 0.1520728
-0.035827458 -0.016464412 0.15142934
-0.024944186 -0.031434238 0.150959
-0.023313403 -0.033822298 0.15162294
-0.019564927 -0.037803471 0.15210925
-0.01576972 -0.040286899 0.15158291
-0.037971616 -0.010284483 0.14785932
-0.037148416 -0.013593554 0.14736275
-0.036536336 -0.017265975 0.14761876
-0.029025793 -0.028793216 0.14843358
-0.026095033 -0.029935181 0.14673091
-0.022894919 -0.033642411 0.14675595
-0.019165099 -0.037158608 0.14737518
-0.015890539 -0.040536165 0.14872672
-0.038154662 -0.015990376 0.14203562
-0.037604272 -0.019733489 0.14268731
-0.036289632 -0.024814308 0.14261891
-0.03155005 -0.027595043 0.14293166
-0.027347982 -0.029886246 0.14240725
-0.024384618 -0.033005416 0.14326848
-0.039179087 -0.016804099 0.13935052
-0.038425505 -0.020849049 0.13857742
-0.035707831 -0.025053382 0.1385503
-0.032400966 -0.027938783 0.13842623
-0.038904846 -0.021561503 0.13503414
-0.036387026 -0.024703264 0.13459706
-0.024792492 0.012296855 0.18743373
-0.018507481 0.010296404 0.18628545
0.0047951937 -0.020832539 0.18670292
0.0064749122 -0.023122132 0.18619107
0.0077030659 -0.028919101 0.18691559
-0.026706994 0.011075854 0.18504055
-0.02230984 0.0096622109 0.18442304
-0.019909859 0.0072354078 0.18369718
-0.017808914 0.0026007295 0.18131436
-0.013537943 -0.0011678934 0.18094809
-0.010970891 -0.0055826902 0.18327667
-0.0092689991 -0.010973394 0.18474813
-0.0046765208 -0.014612675 0.1842856
-0.0024465919 -0.01820159 0.1832314
0.00076168776 -0.022053838 0.18429644
0.0036990643 -0.025949121 0.18427922
0.0068637729 -0.028885782 0.18403704
0.0098843575 -0.03105855 0.1821482
0.010536432 -0.037819982 0.18320008
-0.02107805 0.0035655499 0.18194057
-0.01345247 -0.0043498874 0.1815006
-0.014761031 -0.0065180063 0.18221129
-0.0040544271 -0.020293176 0.18207313
-0.0024665594 -0.022013068 0.18199442
0.0077453256 -0.037252069 0.18101086
-0.037524343 0.021791279 0.17521937
-0.03782618 0.019341469 0.17472024
0.0076594949 -0.042761743 0.17401798
-0.040107369 0.022171319 0.17120071
-0.037770808 0.018037915 0.16995884
-0.03716445 0.013350964 0.17025317
0.004085958 -0.039949834 0.17091246
0.0072283149 -0.041706085 0.17160268
-0.045812607 0.02301985 0.16909368
-0.042438805 0.021580637 0.1665429
-0.038299918 0.016817153 0.16624804
-0.037129879 0.012189925 0.16704346
-0.036962211 0.0088661313 0.16639899
0.0021625161 -0.039833963 0.16633438
-0.038280964 0.0096620321 0.16277798
-0.038316727 0.0070823431 0.16138957
-0.0034697652 -0.039625466 0.16233064
-0.0022785068 -0.04050827 0.16374584
-0.037743986 0.0092231035 0.15793242
-0.03851974 0.0053175688 0.15771599
-0.038497031 0.0031584501 0.15480812
-0.038480997 0.00077736378 0.15277536
-0.0094135404 -0.040082395 0.15465848
-0.038303375 -0.0016189218 0.1491491
-0.038255572 -0.0057615638 0.14895467
-0.010836422 -0.041379571 0.14982615
-0.03806442 -0.0039646626 0.14575513
-0.037192523 -0.0074688196 0.14519261
-0.036839902 -0.011453032 0.14446719
-0.018112838 -0.037218392 0.14498253
-0.014669955 -0.038929403 0.14487772
-0.036191583 -0.012557328 0.14051192
-0.025578737 -0.03094399 0.1405337
-0.022998929 -0.033722401 0.14098249
-0.018940568 -0.036286294 0.14032091
-0.015073359 -0.037946105 0.1416143
-0.037079871 -0.016084313 0.13697733
-0.037694871 -0.017429173 0.13507053
-0.031667531 -0.027621627 0.13552833
-0.027029216 -0.030453742 0.13629229
-0.023833632 -0.034034967 0.13640685
-0.020255268 -0.036216736 0.13560203
-0.036845207 -0.019938111 0.13138303
-0.03455627 -0.023854733 0.13077059
-0.032062531 -0.027709603 0.13147891
-0.02792424 -0.030341268 0.13261154
-0.025131404 -0.033161938 0.13239726
-0.034481764 -0.024911284 0.12858525
-0.032662153 -0.027136683 0.12799656
0.0078985691 -0.016149759 0.18810941
-0.017841041 0.012835622 0.186197
-0.014348149 0.0099378228 0.18566726
-0.01132077 0.0058475733 0.18457903
-0.0073593855 0.0020904541 0.1835161
-0.0052188635 -0.0021942258 0.1841471
-0.0043618679 -0.005851686 0.18458752
-0.00033891201 -0.0094169974 0.18386368
0.004783392 -0.015188515 0.18442895
0.0054604411 -0.017394423 0.18594266
0.0076491833 -0.023340106 0.18671985
0.011120796 -0.028584421 0.18449874
-0.017430663 0.0062793493 0.18287976
-0.014345229 0.0037816763 0.18238522
-0.010744035 0.00033164024 0.18232106
-0.0097341537 -0.0031704307 0.18347271
-0.0041867495 -0.0094339848 0.18479069
0.0011150241 -0.017784178 0.18345006
0.011063695 -0.032169521 0.18206035
-0.036806107 0.024835587 0.17382576
-0.039255738 0.023101926 0.16932364
0.0069686174 -0.039246619 0.16730727
0.0096837878 -0.040855765 0.16815932
0.01267451 -0.041679025 0.16707267
-0.04097712 0.021337092 0.16409297
-0.038798034 0.017466426 0.16416754
-0.036715388 0.013731778 0.16382362
0.0099014044 -0.039927363 0.16510619
-0.041236281 0.020962477 0.15989365
-0.039061427 0.016715288 0.16016079
-0.038015425 0.01335305 0.16016583
0.0040512085 -0.038724065 0.15950413
0.012336254 -0.045934618 0.16091664
-0.045519888 0.020438731 0.15858169
-0.038854718 0.016103566 0.15511371
-0.038205802 0.011452734 0.15560968
-0.03792417 0.010119259 0.15148483
-0.037830889 0.0056610107 0.15123446
-0.038478792 0.0044307709 0.14669214
-0.038668454 0.0009008646 0.14727505
-0.038792551 0.0026257634 0.14182986
-0.037591755 -0.001005888 0.14266251
-0.036186695 -0.0051527023 0.14183421
-0.009293437 -0.037270844 0.13977821
-0.039778829 0.0013142824 0.13714789
-0.038792789 -0.0019186735 0.13756366
-0.037215292 -0.0070676208 0.1384684
-0.036031246 -0.010882318 0.13830896
-0.014604032 -0.036615968 0.13800059
-0.012729585 -0.037118733 0.13715531
-0.039255619 -0.0039996505 0.13302729
-0.038472652 -0.0080080032 0.13400549
-0.036482334 -0.012794912 0.13447234
-0.021547854 -0.034679234 0.13325173
-0.01769346 -0.036545873 0.13370749
-0.015050828 -0.037427068 0.13350797
-0.039083302 -0.0087002516 0.13059816
-0.036924601 -0.013381064 0.12918004
-0.035775006 -0.016965687 0.1290442
-0.026222944 -0.03005439 0.12881854
-0.022950947 -0.033846498 0.12926042
-0.019625783 -0.036979795 0.12895241
-0.015430748 -0.039408147 0.12816942
-0.036958873 -0.014117837 0.12526664
-0.035851657 -0.01847136 0.12474844
-0.034537315 -0.02322346 0.12561652
-0.030815899 -0.027766168 0.12488532
-0.025475085 -0.029919803 0.12468776
-0.022553504 -0.03351146 0.12460622
-0.019495845 -0.036941051 0.12468776
-0.018352807 -0.040885687 0.12483665
-0.035796046 -0.020166636 0.12090978
-0.034535766 -0.023512661 0.12021366
-0.031970143 -0.027020693 0.12042686
-0.028680027 -0.028984725 0.12045455
-0.035650492 -0.0227651 0.11714604
-0.011467874 0.01632452 0.18665965
-0.0094010234 0.014884651 0.18719937
-0.00560534 0.010760307 0.18624274
-0.0019286871 0.0056593418 0.18470366
-0.00075334311 0.0037246943 0.18476237
0.0032342076 -0.0018728971 0.18479316
0.011329114 -0.011902332 0.18695731
-0.013611257 0.0159899 0.18567164
-0.011849225 0.011865318 0.18597315
-0.0091202855 0.0089153647 0.18506546
-0.0056776404 0.0046395063 0.18421786
-0.0022434592 0.0010108352 0.18465789
0.00037413836 -0.0034893155 0.1847194
0.003970325 -0.0074785352 0.18352504
0.0069679618 -0.012032211 0.18350448
0.015457571 -0.040984631 0.16385527
0.011830628 -0.039454579 0.16135623
0.014035046 -0.042007267 0.16095664
0.0075340867 -0.037442029 0.15577938
0.010498047 -0.039772689 0.15702809
0.01315707 -0.042384803 0.15651341
-0.03971082 0.021381497 0.15306534
-0.038338959 0.017953157 0.15214737
0.0055764318 -0.037839174 0.1532184
0.0090679526 -0.039836347 0.15146901
0.01253444 -0.042194247 0.15298755
-0.039340079 0.02091378 0.14806031
-0.03803122 0.016964495 0.1482925
-0.036916196 0.012408376 0.14834441
-0.036406696 0.0087585449 0.1473683
0.0044083595 -0.038155138 0.14882691
-0.036651373 0.011169672 0.1439641
-0.03624779 0.008494854 0.14418443
-0.0003092289 -0.03699553 0.1427231
-0.037673891 0.0094368458 0.13998647
-0.037787378 0.0064476132 0.14026062
-0.0033306479 -0.036328316 0.13943939
-0.038443089 0.0043122172 0.13586769
-0.0078903437 -0.037157655 0.13613223
-0.0068417192 -0.03718394 0.13260439
-0.038821459 -0.00078457594 0.13147622
-0.010584533 -0.037769616 0.13143638
-0.0074702501 -0.037751734 0.130494
-0.037721634 -0.0020085573 0.12705484
-0.036533237 -0.0059502721 0.1261799
-0.034911871 -0.0096982718 0.12604871
-0.012183428 -0.040219307 0.1276277
-0.036970854 -0.0069983006 0.12330747
-0.03557235 -0.011300445 0.12223819
-0.035097897 -0.015213192 0.12250978
-0.025375307 -0.029727042 0.12202045
-0.022355735 -0.033218622 0.12242505
-0.0181036 -0.037117958 0.12177885
-0.01495254 -0.038307786 0.12074369
-0.035978258 -0.01347208 0.11790401
-0.035393596 -0.017693937 0.11803302
-0.02947551 -0.027615607 0.11686119
-0.025306761 -0.029366314 0.1181958
-0.022022486 -0.032714903 0.11887246
-0.019336581 -0.035281897 0.11924577
-0.035598338 -0.019095242 0.11298785
-0.034025669 -0.022860706 0.11426148
-0.031377077 -0.027113855 0.11368099
-0.027320623 -0.029691935 0.1132609
-0.036328614 -0.020126104 0.10964745
-0.035238683 -0.023543179 0.1092324
-0.031941712 -0.027152538 0.10943827
-0.02880913 -0.029655397 0.10922477
0.0090664029 0.0028310418 0.18729238
-0.0054946542 0.015103161 0.18702362
-0.0031231046 0.012876213 0.18685187
0.00019770861 0.0086593628 0.18586583
0.0035796762 0.0045348406 0.1859398
0.0060093403 0.00041496754 0.18608056
0.0076926351 -0.0036329031 0.18466796
0.012652397 -0.0094466805 0.18440144
0.015050352 -0.0086615086 0.18630518
0.011150301 -0.0076431632 0.18235876
-0.038752973 0.024948418 0.15106179
0.0073124766 -0.038410902 0.14966865
0.010835767 -0.04027158 0.15166737
0.014791131 -0.041927278 0.14831255
-0.039599478 0.022846043 0.1467035
-0.038124919 0.017912447 0.14594199
0.0074685812 -0.037889957 0.14524131
0.0099756122 -0.03928417 0.14697076
-0.040029347 0.021322489 0.14207132
-0.038129091 0.017529428 0.14222713
-0.037154913 0.014010549 0.14295818
0.001091361 -0.037359118 0.14159496
0.0045691133 -0.037846565 0.14134182
-0.037430286 0.016930282 0.13844128
-0.037296653 0.012218475 0.13766636
-0.0007776022 -0.03658396 0.13740747
0.0028996468 -0.037505984 0.13787957
-0.045327544 0.021244168 0.13118568
-0.03691256 0.011494398 0.13299254
-0.037190914 0.0073190928 0.13322109
-0.0019031167 -0.037445128 0.13280728
-0.0459342 0.020791888 0.12984195
-0.037422419 0.0097493529 0.12973964
-0.036339819 0.0064345002 0.12868726
-0.035336077 0.0038014054 0.1279971
-0.0050160289 -0.038501382 0.12911063
-0.037348688 -0.00042760372 0.12441191
-0.037900567 -0.0027714372 0.12104574
-0.037176371 -0.00625211 0.12006158
-0.035811782 -0.010108829 0.11910358
-0.012824118 -0.038833499 0.11897251
-0.038200557 -0.0040535927 0.11598244
-0.037269413 -0.0067104697 0.11532766
-0.036918819 -0.011299014 0.11592004
-0.023323715 -0.029911816 0.11543742
-0.020920813 -0.032667041 0.11543077
-0.016786575 -0.035425186 0.11574474
-0.013015807 -0.037295938 0.11580563
-0.036949456 -0.0079166293 0.11129031
-0.037011743 -0.013196409 0.11202887
-0.035581648 -0.016654015 0.11239633
-0.024832189 -0.030735373 0.11229503
-0.021828234 -0.032731116 0.11179981
-0.018231213 -0.034501314 0.11106023
-0.037493527 -0.01346004 0.10747263
-0.036451995 -0.018052399 0.10673541
-0.032741904 -0.022223771 0.10491034
-0.029813945 -0.026790619 0.1053929
-0.026725888 -0.030289114 0.1069285
-0.022689223 -0.03267467 0.1073311
-0.019237578 -0.034628272 0.10729253
-0.034689963 -0.019053996 0.10278955
-0.032703698 -0.021873713 0.10216075
-0.029577434 -0.026277065 0.10216022
-0.027648091 -0.029494703 0.10302305
0.0041336417 0.013006866 0.18670003
0.0085582137 0.0083577037 0.18646611
0.01023829 0.0053754449 0.18763001
0.012575507 0.00024664402 0.18691839
0.016688287 -0.0019577742 0.18529214
0.0047784448 0.0098059773 0.1855313
0.0061529875 0.007117033 0.18567227
0.012450039 -0.0016992092 0.1851934
0.01543659 -0.0052165389 0.18342711
0.017409801 -0.04118824 0.14582171
0.012632549 -0.038663089 0.14341058
0.016654909 -0.041076303 0.14318164
0.018700242 -0.042989373 0.14097972
-0.038702071 0.023803234 0.13922741
0.0081019998 -0.037865222 0.13968681
0.01198256 -0.038789988 0.1387677
0.015137613 -0.039883912 0.13890608
-0.039300203 0.022272646 0.13567653
-0.036669135 0.018783927 0.1353364
0.0060889125 -0.037762642 0.13498044
0.01034081 -0.039287329 0.13447246
-0.040487647 0.021141052 0.13057682
-0.037817836 0.017963171 0.13066962
-0.036769152 0.014158845 0.13046527
0.0054401755 -0.037426591 0.1306197
-0.041373074 0.020234644 0.12614053
-0.038843811 0.016947567 0.12575996
-0.037445664 0.01196152 0.12645522
-0.035737514 0.0066828728 0.12502351
-0.034161091 0.0040766597 0.12513143
-0.00054168701 -0.038377643 0.12772951
0.00081753731 -0.037637532 0.12878558
-0.037766039 0.010771155 0.12160215
-0.036421776 0.0060228109 0.12210864
-0.035005927 0.0029681921 0.12277958
-0.037602901 0.010155141 0.11823639
-0.037097812 0.0058152676 0.11758503
-0.036005557 0.00087934732 0.1180349
-0.03701216 0.0034971237 0.11341178
-0.036841273 -0.00013166666 0.11320046
-0.010021031 -0.037097514 0.11233178
-0.0066877007 -0.03804028 0.11396688
-0.036614418 -0.001316607 0.10904631
-0.036830187 -0.0059072971 0.10856417
-0.015035629 -0.03528738 0.1088348
-0.011357069 -0.036863685 0.10898533
-0.037085235 -0.0075272918 0.10439721
-0.03678751 -0.011484742 0.10410807
-0.023742795 -0.030523896 0.1036348
-0.020443559 -0.032771289 0.10350707
-0.016908407 -0.035860956 0.10413274
-0.012646973 -0.037176728 0.10325316
-0.036559522 -0.0083634853 0.10076421
-0.036590338 -0.012448192 0.10027161
-0.034846187 -0.017177582 0.10034326
-0.032531261 -0.021334171 0.099723965
-0.029830098 -0.025084674 0.099751264
-0.025867105 -0.029621661 0.10013315
-0.021402121 -0.032150149 0.099927843
-0.018218994 -0.035719573 0.099747986
-0.01503849 -0.037152946 0.099036992
-0.035936177 -0.013122678 0.096169561
-0.034958303 -0.01769495 0.096027404
-0.032961309 -0.022366583 0.096376091
-0.029987633 -0.026212573 0.095999926
-0.027052224 -0.029744089 0.095618129
-0.022049546 -0.032476366 0.095422179
-0.018619537 -0.035532415 0.095823169
-0.034676313 -0.019397497 0.092861325
-0.032587469 -0.022705138 0.092147619
-0.030374706 -0.025555789 0.092394263
-0.026731968 -0.029951155 0.092822522
0.017118514 -0.040396392 0.14088471
0.016857564 -0.041439533 0.13769586
0.018838286 -0.043799222 0.13785996
0.0084522963 -0.03725785 0.13132364
0.012682736 -0.038785875 0.1309526
0.014897645 -0.042138577 0.13396052
0.0073612332 -0.037736833 0.12738749
0.010635078 -0.038258016 0.12925848
-0.03857702 0.021349311 0.12257344
-0.037849247 0.018301487 0.1230405
0.0061705709 -0.037108719 0.12377039
-0.043130934 0.024549484 0.11746234
-0.041027546 0.022704065 0.11847612
-0.037366867 0.017555475 0.11912575
-0.037433028 0.013857007 0.11980456
-0.043721735 0.022157311 0.11405638
-0.038397014 0.016329885 0.11498383
-0.037473023 0.01204133 0.11499995
-0.035829723 0.0082825422 0.1137037
0.00011783838 -0.036696792 0.11398202
0.00073117018 -0.038293421 0.11249968
-0.03655833 0.0098763704 0.11051339
-0.035968006 0.0066947341 0.11024693
-0.036522627 0.0029072165 0.10966596
-0.0023527145 -0.037238121 0.10990706
0.00078696012 -0.038495958 0.11086631
-0.036722839 0.0053666234 0.10604665
-0.035778105 0.00094467402 0.10594317
-0.010044038 -0.037335932 0.10576642
-0.0052289963 -0.036861956 0.10574609
-0.03757447 0.0038993955 0.10254112
-0.036120296 0.00034040213 0.10202441
-0.03546977 -0.0037401915 0.10236189
-0.0094844699 -0.037447155 0.10310879
-0.035736322 -0.001334846 0.098746389
-0.035421193 -0.0056596994 0.097731441
-0.01249218 -0.037234008 0.098201722
-0.035945356 -0.0079116821 0.094576836
-0.035494924 -0.011206269 0.093038797
-0.034941137 -0.015886009 0.09261474
-0.021303535 -0.032572627 0.092042387
-0.017955065 -0.036229789 0.092604756
-0.015070975 -0.03770864 0.094996512
-0.03560245 -0.01276195 0.088106215
-0.034214437 -0.017123461 0.08874917
-0.032213807 -0.021031141 0.088580638
-0.029221356 -0.025161624 0.088606477
-0.025473714 -0.029040575 0.088786095
-0.020423055 -0.03235507 0.088448226
-0.018076777 -0.034797072 0.089390606
-0.037214994 -0.012185395 0.085132569
-0.034486175 -0.017474413 0.084027439
-0.03174156 -0.02160579 0.083971769
-0.029508531 -0.025597751 0.084228843
-0.026208282 -0.029146612 0.083994627
-0.023737192 -0.032221258 0.083928317
-0.031944156 -0.022913098 0.080989897
-0.030466735 -0.026155055 0.080641419
-0.027451158 -0.030216396 0.080106765
-0.025170565 -0.033017993 0.08068341
0.016773641 -0.040538251 0.12958065
0.014207482 -0.038223028 0.12536091
0.016728401 -0.040008426 0.12651196
-0.037362099 0.024499655 0.1214895
0.0089729428 -0.03641969 0.1200068
0.012148261 -0.038138092 0.12114987
0.015169561 -0.039305925 0.11987031
-0.039056122 0.022171199 0.11757201
-0.037647843 0.0204615 0.11752754
0.0045341253 -0.034557104 0.11541891
0.0072069168 -0.035978198 0.11676136
0.011041582 -0.038585126 0.11598542
-0.039427698 0.022018611 0.11328748
-0.037556231 0.018825293 0.11233267
-0.037170172 0.01492399 0.11201569
0.0057687163 -0.037072778 0.11261818
0.0087393522 -0.038025677 0.11324039
-0.039050996 0.020441055 0.10713151
-0.038017094 0.017306566 0.10790396
-0.037177265 0.012531281 0.10908139
-0.0001681447 -0.037585914 0.10845566
0.0039350986 -0.038060546 0.10808599
-0.037857413 0.012153387 0.10392809
-0.036991596 0.0083625913 0.10483763
-0.0010297298 -0.036161542 0.103367
0.0021236539 -0.03704536 0.10507563
-0.038493276 0.010450006 0.099397272
-0.037703693 0.0060095191 0.099654764
-0.036199868 0.0013111234 0.098805696
-0.0068822503 -0.036769152 0.099567741
-0.0043618083 -0.036604226 0.098689348
-0.037095964 0.0053868294 0.095282465
-0.036546767 0.00021135807 0.095111758
-0.035169244 -0.0037986636 0.094681948
-0.0088719726 -0.036693335 0.094322413
-0.035447717 -0.0002477169 0.091626436
-0.035035849 -0.0044823289 0.090525895
-0.035064518 -0.0088238716 0.090290815
-0.0081861019 -0.03605634 0.090541631
-0.036280334 -0.0055543184 0.086479545
-0.035773695 -0.0095117688 0.087326229
-0.019139469 -0.032291055 0.086573511
-0.017066896 -0.035226583 0.086893171
-0.013509512 -0.036462784 0.086540908
-0.036539614 -0.0077860951 0.082041025
-0.036960304 -0.012287259 0.083158553
-0.035436451 -0.015019834 0.082699388
-0.020293653 -0.033284664 0.082990527
-0.017009497 -0.035466194 0.081781477
-0.037268341 -0.012987018 0.078380376
-0.035917282 -0.017465532 0.078406781
-0.033355415 -0.021966815 0.078323036
-0.029814184 -0.026833236 0.077373236
-0.026806414 -0.030347884 0.076692551
-0.022790372 -0.033655763 0.077583402
-0.018552482 -0.035275877 0.077775627
-0.036886156 -0.015045583 0.073827893
-0.036043525 -0.018384457 0.073198125
-0.034535885 -0.023112953 0.073596954
-0.030711472 -0.027217269 0.072985634
-0.026951194 -0.030292809 0.073190466
-0.02325815 -0.032589734 0.072751865
-0.035198748 -0.019898176 0.069369838
-0.034473181 -0.022905052 0.069926932
-0.031181872 -0.026484132 0.06969364
-0.029349804 -0.029125452 0.068879649
0.020037889 -0.039642692 0.12234607
0.018160284 -0.040152669 0.11859271
0.01420182 -0.038975358 0.11342186
0.016973972 -0.040020347 0.11530891
-0.037292838 0.023334205 0.10923856
0.011802077 -0.038750708 0.11053339
-0.038098812 0.022539973 0.10548243
-0.036963999 0.019206226 0.10639417
0.0073862672 -0.037245214 0.10510054
0.010202527 -0.038328528 0.10655975
-0.038982451 0.022057354 0.10082451
-0.037933052 0.017833531 0.10150567
0.0022898316 -0.035920918 0.10054019
0.0056549907 -0.036961615 0.10053405
-0.039895535 0.020859838 0.098030776
-0.038327038 0.016942859 0.097624749
-0.037801504 0.013353765 0.0964728
-0.00019609928 -0.036352277 0.097241282
0.003230691 -0.036665738 0.096178502
-0.039125323 0.015405536 0.092330396
-0.037743747 0.011775672 0.09277308
-0.036442339 0.0067103505 0.092329741
-0.0019424558 -0.036132753 0.093023807
-0.040865242 0.015101671 0.089589238
-0.038730025 0.01060468 0.088506579
-0.036721289 0.0065683126 0.088204235
-0.035189629 0.0015654564 0.088893235
-0.0070513487 -0.035131991 0.087364763
-0.0042936802 -0.035990596 0.087487668
-0.037243247 0.004799366 0.084353596
-0.036128521 0.00055730343 0.083794355
-0.0082443953 -0.036148906 0.083769649
-0.005906105 -0.036763251 0.083970189
-0.036634684 -0.0010526776 0.07916382
-0.03662765 -0.0052181482 0.079877079
-0.01209271 -0.037070215 0.079716146
-0.037103891 -0.0028207302 0.075785518
-0.036352158 -0.0062736273 0.075747102
-0.035225868 -0.010375082 0.074373245
-0.016480446 -0.035699785 0.074854761
-0.012912035 -0.038167655 0.075952023
-0.035218596 -0.011351824 0.070711121
-0.035342038 -0.015967607 0.070502982
-0.025268435 -0.030437052 0.070320114
-0.022109091 -0.032806098 0.070237324
-0.017766595 -0.034497321 0.071264908
-0.035462916 -0.012497306 0.067436472
-0.034522355 -0.017008007 0.066788152
-0.032743752 -0.022019684 0.066329435
-0.029751658 -0.026199937 0.066495582
-0.026417434 -0.030179441 0.066972718
-0.022542834 -0.032431185 0.066980556
-0.034872115 -0.018886328 0.062040702
-0.033073545 -0.021771848 0.06234397
-0.02994442 -0.025966883 0.062165812
-0.026168704 -0.02963835 0.063077047
0.018209338 -0.039718449 0.1117824
0.021133244 -0.041024268 0.11341259
0.016950667 -0.039397299 0.10803327
0.013976991 -0.037817419 0.10254982
-0.036401272 0.024610162 0.099361956
0.011132717 -0.038959026 0.099226534
-0.038455963 0.023218155 0.094419569
-0.037420332 0.019220114 0.095064342
0.0061657429 -0.037657082 0.095106095
0.0097478628 -0.039193809 0.094633788
0.012275338 -0.042715549 0.092956036
-0.041254699 0.024911106 0.092377901
-0.038978875 0.020961523 0.089605689
-0.038617432 0.018308222 0.090943605
0.00049155951 -0.036442935 0.090235323
0.0048238039 -0.03712678 0.090646088
0.0078908801 -0.040320456 0.091553211
-0.03946954 0.016059518 0.085229576
-0.038726389 0.012479842 0.085761458
-0.00026863813 -0.035775542 0.085190058
-0.039282978 0.015184402 0.082166612
-0.038061082 0.011368334 0.081866026
-0.036525249 0.0073626637 0.080933839
-0.0038013458 -0.036870062 0.080400258
-0.035841882 0.0053956509 0.077040523
-0.036552012 0.0016943216 0.077262372
-0.0076243877 -0.036574244 0.078516364
-0.0037226677 -0.036591768 0.078002542
-0.035799146 0.00075381994 0.073672682
-0.034721315 -0.0045722723 0.072806105
-0.011698425 -0.035881937 0.072026178
-0.033008575 -0.0050322413 0.068839863
-0.032583773 -0.0071055889 0.067942962
-0.01528132 -0.034910679 0.069172129
-0.011025548 -0.035706758 0.067829147
-0.033739507 -0.011473656 0.063908234
-0.033342302 -0.013742149 0.06264399
-0.019922078 -0.032933116 0.064701065
-0.016727507 -0.03373909 0.064255789
-0.034031332 -0.011804938 0.059742674
-0.033366859 -0.015846491 0.059573695
-0.032510161 -0.021625042 0.058430567
-0.029012322 -0.025164127 0.058101162
-0.024267495 -0.028025866 0.058564886
-0.020618856 -0.031518936 0.060907856
-0.017396331 -0.033294797 0.059493646
-0.03329128 -0.018070459 0.055092797
-0.03158319 -0.02164036 0.054576173
-0.028415442 -0.024913728 0.054997727
-0.025158823 -0.027112603 0.055432335
0.016967952 -0.039900064 0.096177459
-0.037672758 0.025003374 0.092008203
0.012435377 -0.040096223 0.093108982
0.014986575 -0.040662348 0.093254954
-0.038738072 0.02335149 0.088150561
0.0079677105 -0.036509752 0.087283313
0.010748506 -0.038074613 0.086589664
-0.03843677 0.022159517 0.085253179
-0.038300872 0.019927859 0.084483862
0.0062867403 -0.036314309 0.083285362
-0.038270772 0.017665446 0.079443008
-0.036852419 0.012540817 0.078550696
0.0016501546 -0.035601676 0.080175191
0.005300045 -0.0363186 0.078655124
-0.036623299 0.012337983 0.075402826
-0.035688221 0.0080808401 0.075268477
0.00075358152 -0.036512733 0.076400012
-0.035975158 0.011393428 0.07159476
-0.035381258 0.0071415901 0.071353152
-0.034471393 0.0028479099 0.069605038
-0.032441378 -0.0019467473 0.070409402
-0.034851432 0.00090414286 0.066011891
-0.033398092 -0.0033901334 0.066445753
-0.032253146 -0.0068691969 0.064706698
-0.0076850057 -0.036232948 0.064275548
-0.035879076 -0.00033253431 0.060746565
-0.034440458 -0.0048145652 0.061452046
-0.033005357 -0.0084311366 0.061919555
-0.013489902 -0.034000754 0.061377689
-0.0099108219 -0.035845399 0.061341986
-0.0073360205 -0.037172198 0.060313031
-0.036628306 -0.0027540326 0.058187589
-0.035400152 -0.0054659843 0.056724802
-0.034520686 -0.010332167 0.057541534
-0.033037543 -0.013355076 0.057172164
-0.021856666 -0.028883338 0.056432322
-0.019502223 -0.031148434 0.057055607
-0.014865637 -0.033891618 0.056950256
-0.011146843 -0.035870016 0.057275012
-0.0081532001 -0.037939727 0.057313696
-0.036311984 -0.007766366 0.052787051
-0.035442948 -0.011502385 0.053165272
-0.033784628 -0.015402853 0.053391144
-0.032797933 -0.019000769 0.052531704
-0.027031422 -0.025278389 0.052988693
-0.023683429 -0.028386295 0.053470686
-0.020310462 -0.031181514 0.052973226
-0.017414808 -0.033347666 0.052481517
-0.037047088 -0.0091929436 0.049589679
-0.036016881 -0.01252234 0.048886016
-0.034159899 -0.016611755 0.04884015
-0.031647205 -0.020597756 0.049015865
-0.028576791 -0.024347007 0.048905954
-0.024925351 -0.027625561 0.048655555
-0.021089971 -0.030847967 0.048938021
-0.01845777 -0.033368766 0.049353287
-0.034122944 -0.01769048 0.044412449
-0.031752765 -0.021016002 0.044082865
-0.029899299 -0.02363342 0.045674577
0.012407005 -0.038700938 0.085033447
0.0086361766 -0.037529945 0.080840349
0.010782599 -0.03874445 0.082488507
-0.037110269 0.02214545 0.077874631
-0.036218286 0.021453559 0.075128943
0.0065572262 -0.0368132 0.076168865
0.0092804432 -0.038144469 0.078461438
-0.038209677 0.023668528 0.071757331
-0.035931885 0.018716753 0.073127076
-0.035340011 0.015210986 0.070786372
0.0050321817 -0.035100341 0.072772279
-0.034817457 0.0137043 0.067936048
-0.034308374 0.0091071129 0.066943541
0.0023167133 -0.033512414 0.068069205
-0.033777535 0.0078525543 0.062991247
-0.03454715 0.0041669607 0.063403562
-0.00039362907 -0.033579767 0.063798621
-0.03438127 0.0055179596 0.058567241
-0.034558415 0.0037077069 0.059134975
-0.0035402179 -0.037590504 0.05724819
-0.03556776 0.0045204759 0.054866716
-0.035906196 0.00082218647 0.055147484
-0.036244631 -0.0029540658 0.054574266
-0.0092098117 -0.035730362 0.054266855
-0.035378873 -0.00074166059 0.050515875
-0.035208702 -0.0041153431 0.050715044
-0.013264894 -0.033838809 0.05058594
-0.0097304583 -0.034835935 0.050401703
-0.036698341 -0.0022798777 0.046572581
-0.035391808 -0.0054196119 0.046589509
-0.034002006 -0.0094697475 0.045376882
-0.022716761 -0.028844655 0.046154097
-0.019717991 -0.031339407 0.046151206
-0.015708983 -0.033886313 0.046660021
-0.034219861 -0.0104298 0.041727282
-0.03409493 -0.014985859 0.042421296
-0.02927047 -0.022099793 0.041417405
-0.026824474 -0.024479628 0.042709664
-0.023737609 -0.028012812 0.042751417
-0.020285428 -0.031637907 0.042454377
-0.016459644 -0.034289896 0.041722521
-0.034764946 -0.012263775 0.03830675
-0.033525765 -0.016360223 0.038231298
-0.031399071 -0.020549834 0.037332907
-0.028151631 -0.024020314 0.036822692
-0.024619758 -0.027370274 0.037222311
-0.020715535 -0.031891406 0.038100943
-0.017901838 -0.034467459 0.038767889
-0.031586528 -0.020716786 0.032970771
-0.028952658 -0.024692297 0.033102617
-0.027235568 -0.027357101 0.03321062
0.010449409 -0.03611809 0.07287024
-0.036729038 0.023904085 0.069118962
-0.035237193 0.020882368 0.069505081
0.0090641379 -0.034418106 0.068817303
-0.036792815 0.024347186 0.066234991
-0.034961462 0.020061195 0.065620825
-0.033964634 0.015753746 0.065494642
0.0039168 -0.033235192 0.064777598
0.0075598359 -0.034737349 0.065036848
-0.035128891 0.018392861 0.061052486
-0.03390789 0.014979661 0.061092839
-0.032649398 0.011636198 0.061543986
0.0021613836 -0.034482718 0.061345682
0.0065133572 -0.03551352 0.060616955
0.0092357397 -0.039275944 0.060052916
-0.033480108 0.013079643 0.057912603
-0.033650279 0.0093314648 0.057237312
0.00045514107 -0.035711765 0.057887927
0.0042877197 -0.035792112 0.057374403
-0.034569025 0.0081725717 0.052798524
-0.034323335 0.0048185587 0.051647738
-0.0029526949 -0.036273539 0.052224413
-0.035340846 0.006460309 0.04835926
-0.034758925 0.0027129054 0.048624828
-0.0076960325 -0.035459876 0.048463657
-0.0038385987 -0.035878956 0.048440561
-0.035709858 0.0051941276 0.044927582
-0.035232484 0.0013165474 0.044068828
-0.034589231 -0.002953887 0.042818323
-0.0086668134 -0.034580231 0.043671682
-0.035096049 -0.00048208237 0.03915263
-0.034767389 -0.0051240325 0.03948725
-0.034345925 -0.0091606975 0.037817933
-0.01467663 -0.034865916 0.037601277
-0.010724485 -0.035127461 0.038356945
-0.034686744 -0.0060607195 0.035232402
-0.034163296 -0.010327697 0.034491934
-0.032137752 -0.015165746 0.033774242
-0.023098648 -0.028714776 0.034646079
-0.020477414 -0.031018734 0.034280166
-0.016311169 -0.034282148 0.034481123
-0.011561334 -0.035542607 0.034756944
-0.034650981 -0.011262298 0.02991084
-0.032550395 -0.015035987 0.030238971
-0.030229926 -0.019708276 0.029946849
-0.02764523 -0.024464428 0.029795185
-0.024597883 -0.028414428 0.030428782
-0.021210015 -0.03185904 0.030318603
-0.017211914 -0.034038663 0.030557826
-0.032523096 -0.016613007 0.026681229
-0.030234098 -0.01997894 0.026164941
-0.028149307 -0.02472198 0.026003502
-0.025040627 -0.02845633 0.025932752
-0.022260427 -0.031668186 0.026464693
0.013815582 -0.036022604 0.067779943
-0.035751581 0.024473786 0.063320324
-0.034760594 0.021950364 0.063051805
0.0096993446 -0.034869254 0.063413784
0.012693048 -0.03726989 0.063565657
-0.036751986 0.024192989 0.059622481
-0.035301268 0.021003723 0.059368059
0.0080559254 -0.035875618 0.059261486
0.010035038 -0.038619757 0.060170546
-0.037333965 0.023898721 0.055020675
-0.035456121 0.020584166 0.054344878
-0.033526123 0.015482605 0.055130109
0.0074712038 -0.035528123 0.055230036
0.010298193 -0.036845148 0.055434361
-0.03819418 0.022663236 0.051664516
-0.036752403 0.019242585 0.05073671
-0.034928083 0.014438748 0.050232872
-0.03444922 0.0099911094 0.050234124
-0.035729408 0.012443364 0.045366451
-0.035247386 0.0085301995 0.045882508
-0.0010006428 -0.035963595 0.044685587
-0.036264718 0.010887563 0.041701324
-0.035192966 0.006621182 0.04094217
-0.034448683 0.0026993155 0.040667333
-0.0064439178 -0.035043001 0.040695533
-0.003516376 -0.035469353 0.040572807
-0.034815609 0.0057511926 0.037211932
-0.034177184 0.0016825199 0.036120661
-0.032704055 -0.0015194416 0.034899272
-0.0089326501 -0.035853922 0.036508933
-0.0052547455 -0.035761237 0.037733242
-0.033259571 -0.0033053756 0.032028444
-0.033635437 -0.0077083707 0.031687059
-0.013639987 -0.035130203 0.031853452
-0.0098020434 -0.035921395 0.032354131
-0.034525573 -0.0052169561 0.027891792
-0.034516454 -0.0089654326 0.028343357
-0.033169389 -0.013261437 0.027738109
-0.015119016 -0.034535706 0.02819334
-0.011871457 -0.035448909 0.027603313
-0.035420775 -0.0072544217 0.023638412
-0.034954369 -0.010989368 0.02413778
-0.032866538 -0.015058219 0.024299107
-0.030433297 -0.019073606 0.023391031
-0.028236866 -0.022895873 0.023204915
-0.024375498 -0.028099 0.023210041
-0.020681918 -0.031203747 0.023092292
-0.015762806 -0.033416748 0.023628049
-0.03543216 -0.011980534 0.019684598
-0.033347607 -0.016058266 0.019559495
-0.030858219 -0.020144045 0.019791059
-0.028109729 -0.024115086 0.01987835
-0.024909258 -0.027899623 0.019718371
-0.021006465 -0.030889809 0.019278698
-0.034537613 -0.013526797 0.015599661
-0.033314347 -0.0164482 0.016002201
-0.031036973 -0.020632625 0.016356789
-0.028251708 -0.024221539 0.015849821
-0.025444627 -0.028176963 0.015908532
-0.023272276 -0.031060636 0.016357385
0.014148235 -0.038104892 0.054949686
0.011745989 -0.034854174 0.052555308
0.013937354 -0.036544859 0.05220671
-0.036458313 0.023088038 0.046394035
-0.036501646 0.019508779 0.04742603
-0.035976827 0.018850744 0.043163255
-0.036458194 0.014851391 0.043036893
0.005466342 -0.035638809 0.041644439
-0.034498155 0.017916262 0.038979538
-0.035277963 0.014021933 0.038371123
-0.035203218 0.0096184611 0.038644947
0.0011188388 -0.035079956 0.038645282
0.0038627982 -0.035876513 0.038714096
-0.035217702 0.012433827 0.033588208
-0.034964025 0.0083344579 0.03446991
-0.034642398 0.0046787262 0.034741767
-0.0009675622 -0.034893692 0.033970371
-0.035391629 0.011109114 0.030401923
-0.034554303 0.007581532 0.029813595
-0.03442502 0.0025648475 0.030739494
-0.033609927 -0.00065761805 0.030467667
-0.03510797 0.0052112341 0.024737403
-0.0347417 0.0018617511 0.025603428
-0.034978569 -0.0022300482 0.026486084
-0.0077709556 -0.034970462 0.025785469
-0.035484314 0.00048696995 0.021089062
-0.035198212 -0.0039650202 0.021848574
-0.014293194 -0.034209609 0.020913534
-0.010474205 -0.035019875 0.021412067
-0.034786284 -0.0047852993 0.017752096
-0.03542006 -0.0094394088 0.017629549
-0.018101215 -0.03204608 0.017242275
-0.014208138 -0.032717466 0.017107032
-0.01113075 -0.034151018 0.016820453
-0.03506887 -0.011138439 0.013060555
-0.033361912 -0.016773522 0.013365708
-0.029736698 -0.020394623 0.012969993
-0.027344286 -0.024900198 0.01319658
-0.024390578 -0.028804898 0.013177298
-0.021380663 -0.031581044 0.013512693
-0.016526341 -0.032344699 0.012524568
-0.034469306 -0.011494219 0.0093882531
-0.033492267 -0.015610039 0.0084305331
-0.029402912 -0.01874578 0.0082068965
-0.027201056 -0.02305305 0.0083406791
-0.023503125 -0.026323915 0.0089590475
-0.02009964 -0.030441761 0.0092787966
-0.033569396 -0.016477227 0.0042874143
-0.031141281 -0.0184744 0.0046238229
-0.028171003 -0.022401214 0.0046044216
0.013815284 -0.032731771 0.048488602
0.015529335 -0.03545773 0.048605874
0.019528747 -0.0379318 0.048336998
-0.033164084 0.024937212 0.047330305
0.013676882 -0.033372104 0.044196472
0.016117275 -0.035831273 0.04396297
0.017615974 -0.039547145 0.043991551
-0.035543144 0.024497807 0.041573055
-0.034585714 0.022596061 0.040387966
0.010885715 -0.035142422 0.040317759
0.014293551 -0.037114799 0.04048048
0.0149073 -0.040776372 0.041594043
-0.034491718 0.02508074 0.036903359
-0.034597099 0.020674467 0.03639809
-0.034293056 0.017666757 0.035332628
0.0066427588 -0.035834134 0.036253259
0.010741591 -0.035906613 0.035126075
-0.035034359 0.019734919 0.032277443
-0.034669518 0.016247749 0.032245107
0.00422436 -0.034134209 0.030770764
0.006403327 -0.035243213 0.031607077
-0.035633862 0.013100684 0.028074123
-0.034565628 0.0093637705 0.026931442
0.00083720684 -0.034325361 0.027599022
-0.036412418 0.011870265 0.025088385
-0.034792781 0.0086960793 0.023780957
-0.0042399764 -0.033823431 0.022159658
-0.0024293065 -0.034587026 0.023491882
-0.034747601 0.0067328215 0.019985721
-0.035030365 0.0037170053 0.018723235
-0.0037353039 -0.033856928 0.020119958
-0.0031174421 -0.033847034 0.018014602
-0.034699917 0.00051414967 0.016068324
-0.033062696 -0.0034908652 0.014134303
-0.01265806 -0.0333938 0.014455788
-0.0091432333 -0.03461808 0.015210949
-0.03352356 -0.0050433874 0.010911778
-0.0128479 -0.033070028 0.010730229
-0.010446727 -0.033827722 0.0099481866
-0.03427434 -0.0061699152 0.0076059848
-0.033891737 -0.0099645257 0.0063288659
-0.02881676 -0.019875586 0.0059296414
-0.024593532 -0.024145007 0.0054790601
-0.021659493 -0.026633918 0.0057574436
-0.018758833 -0.030234694 0.0058492944
-0.014730811 -0.032675028 0.0067598149
0.017000973 -0.035498321 0.043532327
0.019519687 -0.038658738 0.044376895
0.014617264 -0.03674984 0.038885191
0.015708566 -0.039478123 0.037879363
-0.032684505 0.024806201 0.033529826
0.01290834 -0.037299871 0.034421995
0.014993012 -0.039142311 0.036234185
-0.035626829 0.023855984 0.030382045
-0.035209358 0.021110892 0.030291684
0.0078290105 -0.036147177 0.029934123
0.011913598 -0.037873745 0.029741004
0.012521267 -0.040788054 0.032193705
-0.037013948 0.02308476 0.025180444
-0.035655677 0.019732237 0.026099011
-0.034876883 0.016516209 0.026748456
0.0068876147 -0.035399973 0.025488727
0.011620462 -0.038159013 0.025335483
-0.036766589 0.022456467 0.022035375
-0.035323024 0.019051671 0.022014692
-0.03480792 0.014433801 0.02158542
-0.034480155 0.010636032 0.020991072
0.0015662313 -0.034374774 0.021336339
0.0049521923 -0.035825849 0.020859025
-0.033798099 0.012872458 0.016784206
-0.034594834 0.008973062 0.017230794
0.00015980005 -0.03480196 0.016687863
0.0037281513 -0.037540913 0.017435901
-0.034668267 0.011611164 0.013349161
-0.034603 0.0076885819 0.012912288
-0.033714354 0.0034940839 0.012996063
-0.032391489 -0.00015872717 0.01234521
-0.0060165524 -0.034194052 0.011912189
-0.001347959 -0.03459394 0.012870185
-0.034114659 0.0064932704 0.0084967166
-0.033204675 0.0026336312 0.0080821663
-0.032944083 -0.0015344024 0.0089174956
-0.0071871877 -0.033974171 0.0086138472
-0.033551753 0.0016058683 0.004346922
-0.033588111 -0.003224194 0.00426884
-0.033290088 -0.0070046186 0.0037188679
-0.013419926 -0.032494187 0.0033384785
-0.0099979639 -0.033970237 0.0037377402
-0.035700381 0.025121808 0.024505064
0.012711942 -0.037444115 0.023759596
-0.035591662 0.024668396 0.019030467
-0.034998119 0.021246135 0.018898532
-0.033532798 0.018249512 0.018282637
0.0075259209 -0.035865128 0.019821934
0.010628641 -0.036759913 0.019292943
-0.036018193 0.024037182 0.014737055
-0.033992946 0.021092236 0.014105037
-0.033566356 0.016282856 0.014941528
0.0056065321 -0.036694765 0.013421498
-0.033587158 0.015332878 0.010103837
-0.033603251 0.011209667 0.0099165291
0.0010660291 -0.034011424 0.0088750646
0.004363656 -0.035696208 0.011761568
-0.033729553 0.014208019 0.0065286309
-0.03341943 0.0096743703 0.0059482008
-0.033440828 0.005898118 0.0052769035
-0.0028880835 -0.03343749 0.0066183731
-0.00069952011 -0.033933401 0.0053754076
-0.0059827566 -0.03350836 0.0032721683
-0.03341347 0.025046527 0.010537341
-0.033184528 0.022610605 0.0099416822
-0.032646239 0.020295978 0.0075500757
-0.033412993 0.017247558 0.007321313
0.0083197355 -0.034168541 0.0063433573
0.0045383573 -0.033882141 0.004549019
-0.032116711 0.025504708 0.0079717785
-0.031515777 0.023619592 0.0045266002
0.011234701 -0.034528315 0.0038112924
