# .PCD v0.7 - Point Cloud Data file format
VERSION 0.7
FIELDS x y z
SIZE 4 4 4
TYPE F F F
COUNT 1 1 1
WIDTH 1044
HEIGHT 1
VIEWPOINT 0 0 0 1 0 0 0
POINTS 1044
DATA ascii
-0.014220953 0.036729097 0.17998743
-0.017044604 0.035554886 0.18069732
-0.021465719 0.034186482 0.18115526
-0.025493026 0.032571614 0.18058562
-0.01493758 0.038053423 0.17749041
-0.018184602 0.037775546 0.17735565
-0.022978067 0.036633193 0.17851937
-0.026979685 0.033362389 0.17776579
-0.019371867 0.038277805 0.17427507
-0.023808599 0.03782469 0.17383134
-0.027126312 0.03535521 0.17353725
-0.025169611 0.03905347 0.16937912
-0.027541399 0.037138581 0.16952127
-0.0055626035 0.034036994 0.18273026
-0.0095008016 0.032451928 0.18327308
-0.014194965 0.030629575 0.18311629
-0.018956482 0.02909857 0.18305337
-0.022105098 0.02430433 0.18219689
-0.025943279 0.022170186 0.18219501
-0.0065075755 0.035357952 0.17957443
-0.011217535 0.035711169 0.1805926
-0.01574564 0.034058452 0.18208271
-0.020496905 0.031516492 0.18248159
-0.02529788 0.029070556 0.18147647
-0.028345704 0.024819553 0.17982101
-0.030469716 0.021238744 0.17963743
-0.011966646 0.037027657 0.17567486
-0.029432058 0.029269934 0.17620188
-0.01435554 0.037961602 0.17225921
-0.018014014 0.038574845 0.17129844
-0.021562338 0.037932336 0.17177802
-0.028670013 0.033439338 0.17236596
-0.029913723 0.029803991 0.17118979
-0.019046426 0.038710892 0.16723868
-0.02418828 0.03922978 0.16716272
-0.029216409 0.035963058 0.16763809
-0.03053987 0.030903161 0.16663021
-0.020400167 0.038633227 0.16297013
-0.024004281 0.03803879 0.16180179
-0.028054118 0.036656797 0.16219684
-0.030243397 0.033615351 0.16361243
-0.025576711 0.038065821 0.15809637
-0.001464963 0.029529452 0.18396837
-0.0060462356 0.02646488 0.18392372
-0.0085972548 0.024688244 0.18322057
-0.024046361 0.01609832 0.183213
0.0045579076 0.034572363 0.18017536
0.00093990564 0.033720911 0.1811173
-0.0030241013 0.032376468 0.1827473
-0.013037026 0.02678889 0.18298602
-0.01592046 0.023779929 0.18259209
-0.020830274 0.022194266 0.18260938
-0.026131451 0.020387411 0.18247557
-0.029268563 0.017265618 0.18152401
-0.031910777 0.01375401 0.18076032
0.0041666031 0.035050631 0.17810541
1.3887882e-05 0.035444736 0.17723617
-0.00455302 0.035552025 0.17751554
-0.029878139 0.023153305 0.17708185
-0.031857967 0.019281328 0.17760438
-0.034679651 0.01528877 0.17688212
-0.035763502 0.01292932 0.17810881
-0.0013368726 0.036241472 0.17326695
-0.0051467419 0.035644352 0.17327499
-0.0088752508 0.036043167 0.17291439
-0.030406058 0.024104655 0.17518055
-0.031972051 0.021512926 0.17309728
-0.034212232 0.019443154 0.17292422
-0.0073494315 0.036226988 0.16847157
-0.011535466 0.036668777 0.16911694
-0.030400634 0.026396394 0.16904485
-0.031708121 0.022494555 0.16870707
-0.035454452 0.021020472 0.16979891
-0.0085194111 0.036897451 0.16551381
-0.01252234 0.037158787 0.16430235
-0.017385244 0.038324982 0.16439193
-0.030151308 0.025923967 0.16429576
-0.014542341 0.037676603 0.16142112
-0.017677009 0.037569523 0.16014048
-0.022377253 0.037737787 0.15896624
-0.029217899 0.033373177 0.15955144
-0.029842317 0.030382872 0.15949386
-0.020181775 0.037961483 0.15507609
-0.023402929 0.038023174 0.15598106
-0.02788049 0.035269141 0.15577865
-0.029848933 0.031968415 0.15538907
-0.021468878 0.039094031 0.15155956
-0.024095058 0.039036691 0.15101671
-0.027127504 0.036093712 0.15191072
0.0127033 0.03132534 0.18178624
0.0093426108 0.029940128 0.18191874
0.0042741895 0.028425395 0.18292677
-0.00020188093 0.027230918 0.1841439
-0.0054281354 0.024610341 0.18421999
-0.0089457035 0.020377696 0.18359199
-0.01238656 0.017988503 0.18326977
-0.017034173 0.015748322 0.183249
-0.021713138 0.014684916 0.18359557
-0.026407957 0.011204422 0.18297571
-0.030408919 0.0083143711 0.18289706
-0.034011185 0.0071442127 0.1834712
0.011800408 0.032847226 0.17962086
0.0079540014 0.032514393 0.17923915
0.0039694309 0.032324612 0.18189976
-0.033419728 0.010885775 0.18018979
-0.035640657 0.0085682869 0.179694
0.0065203905 0.033706129 0.17469209
0.0031048656 0.03468132 0.17437822
-0.035129488 0.014686525 0.17548278
-0.036526501 0.011744082 0.17561826
0.0067375302 0.034246981 0.17138278
0.0015364885 0.0353719 0.17039138
-0.0036039352 0.035132229 0.17027155
-0.034835696 0.014710903 0.17118496
-0.03646034 0.012368977 0.17198527
-0.00026834011 0.036163986 0.16603416
-0.0045759678 0.035316288 0.16636625
-0.032258332 0.020164549 0.1659655
-0.034162641 0.017104805 0.16574833
-0.0015257597 0.036618352 0.16210964
-0.0059967041 0.03625226 0.1619845
-0.0094671845 0.036814153 0.16156912
-0.029964089 0.026525378 0.16138804
-0.030743718 0.022276878 0.16205955
-0.0069556236 0.036424637 0.15820131
-0.011242449 0.036260962 0.15734541
-0.015315533 0.036082149 0.15722609
-0.029962659 0.025295258 0.15870467
-0.012989044 0.036835432 0.15335378
-0.01661092 0.036947906 0.15357453
-0.029663205 0.029413044 0.15300584
-0.014253378 0.038737804 0.14783058
-0.017886162 0.038800746 0.1492793
-0.028039396 0.033059776 0.14872676
-0.029419184 0.029392898 0.14908251
-0.019125283 0.039915651 0.1446538
-0.024161696 0.03898555 0.14526612
-0.027305543 0.035499573 0.14447194
-0.021113634 0.039977282 0.14039975
-0.024518371 0.039300978 0.13976294
-0.027209044 0.036997885 0.13988274
0.026370108 0.028366208 0.18801308
-0.014578581 0.0058663487 0.18654764
0.028306603 0.034063458 0.18470901
0.026248395 0.031526685 0.18488121
0.022178113 0.028765857 0.18267107
0.016855776 0.026216447 0.1827808
0.011840224 0.024800956 0.18345928
0.0090641379 0.022343993 0.18442339
0.0022532344 0.019177675 0.18306983
-0.0015446544 0.016618788 0.1829454
-0.0046098828 0.016851902 0.1834749
-0.0094714761 0.01058358 0.18401825
-0.014345169 0.010546446 0.18504813
-0.017315507 0.0092430115 0.18483722
-0.022686005 0.0062547922 0.18331629
-0.02612704 0.0026023388 0.18359929
0.028994203 0.035759151 0.18203253
0.024633944 0.031757653 0.18037647
0.02050215 0.030683637 0.18040973
0.01538527 0.030113697 0.18141824
0.010248899 0.027445555 0.18260568
0.007065177 0.024578393 0.18344042
0.0034701824 0.022835016 0.1838873
-0.0077162981 0.017285824 0.1840657
-0.012987554 0.014727533 0.18416524
-0.015343845 0.012374163 0.18387806
-0.0193519 0.010667205 0.18401915
-0.025739491 0.0066685677 0.1838935
-0.028124869 0.004354775 0.1836217
-0.031115353 0.0045734048 0.18413594
0.023351371 0.032800734 0.17750582
0.018814623 0.032039821 0.17619222
0.014131129 0.032223642 0.17642272
0.016700685 0.032485485 0.17233664
0.013253868 0.032096267 0.17179638
0.009765029 0.032867968 0.17232934
0.012005985 0.033257782 0.1671685
0.0071963668 0.033921301 0.16858813
0.010951817 0.034644783 0.16415447
0.0063604116 0.0353688 0.16386616
0.0022274256 0.035900295 0.16341513
-0.034013331 0.015382707 0.1632866
0.0053259134 0.035338402 0.15963513
0.0012642741 0.035194457 0.15901333
-0.0033388734 0.035621583 0.15861928
-0.030957222 0.017449379 0.15907592
-0.033852041 0.015002012 0.15928358
-0.0007674098 0.034442842 0.15450579
-0.0052918792 0.035825431 0.15510023
-0.029776454 0.023298442 0.15573749
-0.030195236 0.018934906 0.15444818
-0.034319341 0.016802192 0.15293962
-0.0062712431 0.036346197 0.15077472
-0.0098639727 0.036268651 0.15091801
-0.029516101 0.02499038 0.15001863
-0.029835701 0.021888494 0.15220243
-0.0073677301 0.03665024 0.1455268
-0.010959804 0.037015796 0.14646786
-0.029858351 0.027681112 0.14575309
-0.0085008144 0.037922978 0.14262044
-0.012651622 0.037758827 0.14206892
-0.016428888 0.03853932 0.14192265
-0.028192818 0.032359779 0.14203632
-0.029219925 0.02869904 0.14210999
-0.014367521 0.03817147 0.13906825
-0.018130302 0.038489044 0.13782898
-0.022088051 0.038205743 0.13632631
-0.028460264 0.033427715 0.13740396
-0.020139456 0.037371069 0.13357446
-0.024100959 0.037701994 0.13371772
-0.027376652 0.035423636 0.1336019
0.026894629 0.021630287 0.18918595
0.024464786 0.024023771 0.18670022
0.020948946 0.02063638 0.1858353
0.016006589 0.018032908 0.18526083
-0.010694265 0.005307436 0.1858182
-0.015581727 0.0039633512 0.18618527
0.02245146 0.027137458 0.1841436
0.018616915 0.023377597 0.18377239
0.014082909 0.022142768 0.18452528
0.0096232891 0.020435989 0.18381929
0.0060698986 0.015246332 0.18294215
0.0012091994 0.013616025 0.18262231
-0.0027679801 0.0098212361 0.18310544
-0.0067563057 0.008369565 0.18402344
-0.012006104 0.0067235231 0.18487349
-0.016820729 0.0039053559 0.18432599
-0.018423676 0.00013804436 0.18303454
-0.024269462 -0.0026174784 0.18265635
-0.028943121 -0.0034765601 0.18363786
0.028831065 0.032681465 0.17876291
0.026900411 0.03186959 0.17847741
0.025023401 0.032377958 0.17433691
0.021061122 0.032172918 0.17431712
0.023055971 0.033233821 0.16955531
0.019208848 0.032767653 0.17047924
0.016544998 0.031949401 0.16912997
0.018611968 0.033549905 0.16586468
0.015052736 0.033008933 0.16582441
0.016517997 0.034409642 0.16212809
0.012638986 0.034049153 0.16111428
0.0085186958 0.034520388 0.16039777
0.010388196 0.035081446 0.15792429
0.0071635246 0.034657478 0.1569427
0.0036164522 0.033968925 0.15640348
-0.033875465 0.013669431 0.15707153
0.0056220293 0.035128951 0.15283248
0.0017542839 0.034608066 0.15271774
-0.031197786 0.017437696 0.15220481
-0.033603549 0.015240312 0.15371037
-0.036074698 0.013477266 0.15531743
0.0054427385 0.035217285 0.14866531
-3.8802624e-05 0.035132706 0.1489318
-0.0030345917 0.035044372 0.14853975
-0.031102002 0.019322872 0.14848983
-0.034867108 0.016237736 0.14873895
-0.00099509954 0.034625649 0.14490452
-0.0043663383 0.035592198 0.14372629
-0.031774759 0.020453632 0.14446586
-0.034887373 0.016156912 0.14461592
-0.0072169304 0.037079215 0.13974747
-0.011028826 0.037260652 0.13893321
-0.029404998 0.026318312 0.13842046
-0.030373693 0.023547947 0.14030686
-0.0090754032 0.037383109 0.13624451
-0.012347579 0.037060559 0.13561559
-0.01644057 0.037004232 0.13472685
-0.029290318 0.027980745 0.13527203
-0.017492771 0.036624789 0.13105613
-0.020851314 0.036973894 0.13093615
-0.027909756 0.033468127 0.1310761
-0.029530048 0.030541658 0.13143587
-0.019551694 0.037569433 0.12638745
-0.023086071 0.036762714 0.12678978
-0.027295589 0.034085155 0.12698859
-0.023678184 0.037309527 0.12215065
-0.026221037 0.035413861 0.12293916
0.020081878 0.013263881 0.18644267
-0.0034788251 -0.00058501959 0.18623224
-0.0062913895 -0.0014000535 0.18642974
-0.020622253 -0.010881722 0.18755463
-0.024385631 -0.010532022 0.18768716
-0.027027309 -0.013784766 0.18772566
0.024930835 0.020026922 0.18752518
0.020738065 0.017656088 0.18700409
0.017622352 0.015849233 0.18621954
0.013276219 0.011362791 0.18418115
0.0090584755 0.009604156 0.1840308
0.0045619011 0.006336391 0.18420509
3.4689903e-05 0.0046742558 0.18404937
-0.0040940046 0.0023243427 0.18491
-0.0083277225 -0.00013113022 0.18553603
-0.012074709 -0.0031120181 0.18529433
-0.017782092 -0.0050926805 0.18407834
-0.021957815 -0.0072482228 0.18412131
-0.025949478 -0.0095086694 0.18487379
-0.028048456 -0.011664271 0.18460715
0.011555314 0.014436066 0.18342668
0.0072722435 0.013127208 0.18294913
0.0035358667 0.010536849 0.1835742
0.00016009808 0.0087246299 0.18282488
-0.019511342 -0.002361536 0.18277359
-0.02282232 -0.0036584139 0.18368596
0.032387733 0.029176772 0.17662308
0.030521214 0.031031668 0.17126024
0.02813673 0.031015575 0.17214954
0.030133605 0.032878935 0.16720843
0.026327074 0.031512797 0.16761625
0.029377043 0.033825099 0.16293913
0.025236845 0.031609774 0.16278911
0.02127558 0.031811059 0.16305143
0.023376942 0.032199323 0.16032416
0.019161761 0.033004344 0.15877062
0.014909148 0.033600569 0.15904325
0.017767906 0.033932567 0.15501472
0.013485491 0.03355968 0.15487009
0.0099152327 0.032998741 0.15424287
0.012720644 0.033584237 0.15017533
0.0085081458 0.034151435 0.15061611
0.01060462 0.034800887 0.14559525
0.0067006946 0.034844875 0.14596319
0.0028190613 0.03407073 0.14561802
0.0091055036 0.036091387 0.14198604
0.005617857 0.035527229 0.14107352
0.00094020367 0.034515142 0.1416069
-0.0029122829 0.034158111 0.14036581
-0.031308353 0.019020259 0.14056569
-0.034129262 0.015968978 0.14139426
-0.036435962 0.014175951 0.14307049
0.0041332245 0.035603583 0.13796958
0.00015640259 0.035529792 0.13708621
-0.0045155287 0.035095811 0.13716906
-0.03140682 0.018924713 0.13715738
-0.033208311 0.015877545 0.13670379
-0.00050610304 0.036306798 0.13349092
-0.0052273273 0.035718441 0.13274074
-0.0099890232 0.035599709 0.13237512
-0.029704213 0.023997128 0.1347976
-0.031247914 0.020258844 0.13303047
-0.0067646503 0.035836816 0.12852186
-0.011746287 0.035625041 0.12906992
-0.015402436 0.035754085 0.12798724
-0.029078066 0.026866794 0.12849772
-0.012853265 0.036304235 0.12424611
-0.016694069 0.036572993 0.12452539
-0.028512836 0.031224072 0.1251086
-0.028735399 0.029098988 0.12440711
-0.013967454 0.037125438 0.12033337
-0.018115938 0.037301809 0.11976563
-0.022507906 0.037684202 0.12012979
-0.027032256 0.033644855 0.11958244
-0.028699458 0.029540241 0.11973625
-0.019467771 0.038074821 0.11572038
-0.023583412 0.03746742 0.11548745
-0.026516795 0.034173489 0.11558896
-0.024328768 0.037315041 0.11197879
0.015762806 0.0062955618 0.18584442
0.012697577 0.0047220588 0.18603209
0.0078606009 0.0018519163 0.18572438
0.0021518469 -0.001347065 0.18597183
-0.00097817183 -0.0035203695 0.18662661
-0.0048774481 -0.0049375296 0.18605307
-0.0096825361 -0.0086953044 0.1849913
-0.014184594 -0.011047721 0.18657094
-0.018354654 -0.011711717 0.18678588
0.015504122 0.010002792 0.1847145
0.0096850991 0.0059615374 0.18372762
0.0070039034 0.0049274564 0.18461704
0.0026819706 0.0012652874 0.18427843
-0.015563011 -0.0071588159 0.18472931
-0.018815815 -0.0091918707 0.18466774
0.033721507 0.028166771 0.17032188
0.03149426 0.029323697 0.16572791
0.029510856 0.029299796 0.16392341
0.027820885 0.031179786 0.16162986
0.025213361 0.031218946 0.15627086
0.024274647 0.032181144 0.15349668
0.020167291 0.032060385 0.15160084
0.018025935 0.031601012 0.14846948
0.015416741 0.031860948 0.14703035
0.012768567 0.033854723 0.14337939
0.011755347 0.0321244 0.13942263
0.0086470842 0.033918798 0.13818038
0.0055268407 0.034508646 0.13507253
0.0030257106 0.03499651 0.1331903
-0.03362298 0.013581514 0.13442132
0.0054892898 0.033876896 0.13075095
0.0011188388 0.033921897 0.12997994
-0.0029178262 0.035163939 0.12956232
-0.030122519 0.017650366 0.12913451
-0.033248246 0.01612097 0.13120848
-0.0005351305 0.03393656 0.12627953
-0.0043416023 0.034554482 0.12560898
-0.008736968 0.034929752 0.12578112
-0.028676748 0.021335959 0.12490209
-0.028158069 0.020048141 0.12596738
-0.0061964989 0.034434915 0.12162571
-0.0098147988 0.03481698 0.12170642
-0.028502166 0.023153365 0.12146916
-0.02899164 0.020948946 0.12160095
-0.011436939 0.034966767 0.11710262
-0.014912963 0.036070466 0.11610692
-0.028855562 0.026497364 0.1174716
-0.030026257 0.022671878 0.11755347
-0.016673803 0.036897033 0.11331483
-0.027172148 0.032054782 0.11346858
-0.028279781 0.028726995 0.11207267
-0.018045843 0.036415458 0.11036857
-0.022570491 0.035628736 0.10833567
-0.026248932 0.033156276 0.10872497
-0.024003088 0.03588903 0.10355987
-0.026673555 0.03447473 0.10358527
0.018655717 0.0014023185 0.18737227
0.015393615 -0.001683712 0.18719268
0.010918379 -0.0042310953 0.18624696
0.0015456676 -0.0086181164 0.18800396
-0.0025503635 -0.010891974 0.1883117
-0.0066476464 -0.013558567 0.18828562
0.01799202 0.0030583143 0.1863597
0.013631761 0.0018149614 0.18589604
0.010267675 -0.0025660992 0.18523192
0.0054831505 -0.0047394037 0.1853587
0.0021225214 -0.005800426 0.18711364
-0.0042052269 -0.0094428658 0.18669254
-0.0078161359 -0.011841297 0.18620229
-0.010531783 -0.013107657 0.18626511
0.035318017 0.027057946 0.16624063
0.030355692 0.02956742 0.15324217
0.028817236 0.028603435 0.15439683
0.029969573 0.030678391 0.14928681
0.026192784 0.030759573 0.14976382
0.022780061 0.03085506 0.14978826
0.028778613 0.032451749 0.145271
0.025526047 0.031323254 0.14462554
0.020811677 0.030687213 0.14547288
0.026096642 0.032499492 0.14096722
0.019453943 0.030855894 0.14144295
0.016068161 0.030322075 0.14065489
0.014253616 0.031404614 0.13618916
0.013234854 0.032574058 0.13240898
0.0089048147 0.032887101 0.13245738
0.01199156 0.032885432 0.12919903
0.0072139502 0.033044577 0.12805143
0.0035474896 0.03272438 0.12750587
-0.0323686 0.011514008 0.12787175
0.005461812 0.033253551 0.12279364
0.0010233521 0.034176767 0.12364309
-0.029676259 0.016561389 0.12424707
-0.031773031 0.013758838 0.12367927
0.0001667738 0.035124958 0.11963978
-0.0040470362 0.035171092 0.1196556
-0.030377865 0.018700898 0.11925908
-0.032374442 0.015322387 0.11866205
-0.0009970665 0.035869837 0.1152164
-0.0052015781 0.035397172 0.11508911
-0.009745717 0.035052001 0.11525135
-0.029367626 0.024476528 0.11482023
-0.031448424 0.020563781 0.11525308
-0.033583283 0.01820451 0.1158511
-0.0070380569 0.035436153 0.11145084
-0.010836005 0.035555482 0.11087167
-0.014668703 0.035523713 0.11016919
-0.029269218 0.025065422 0.11093982
-0.030533433 0.021782875 0.11163487
-0.015736997 0.034892321 0.1060647
-0.019649863 0.035262108 0.10700762
-0.027795494 0.031128407 0.10633265
-0.028968036 0.027871907 0.10651147
-0.017444491 0.035642445 0.1019753
-0.021752179 0.035985291 0.10256391
-0.028169155 0.031915665 0.10219584
-0.029024303 0.027910888 0.10127673
-0.019249737 0.035852134 0.098930158
-0.02259028 0.035731137 0.098304726
-0.026230693 0.033943534 0.098356582
0.012858987 -0.0064843893 0.1865387
0.0086874962 -0.0096931458 0.18591708
0.0061746836 -0.011450529 0.18659765
0.031051517 0.030722797 0.1424062
0.030302882 0.031222343 0.13819742
0.025858462 0.030784249 0.13885158
0.022080183 0.029408693 0.13787961
0.029812336 0.031787097 0.13524345
0.025774419 0.030806661 0.13430765
0.020776391 0.030480742 0.13438159
0.019333482 0.031886101 0.1295712
0.014909029 0.032035112 0.12890536
0.018396318 0.031894982 0.12604117
0.013857782 0.031811714 0.12524334
0.0099791288 0.031071723 0.12540027
-0.031977475 0.0089579225 0.12530965
-0.032337546 0.0068210959 0.12383326
0.012532055 0.031948507 0.12120076
0.0086749196 0.032118082 0.12122523
-0.032594502 0.011644185 0.12066936
-0.033653319 0.0074756742 0.12007289
0.0071066618 0.033011198 0.11699673
0.0037651062 0.033602893 0.11706074
-0.032865226 0.011918187 0.11690342
-0.033656895 0.0083534122 0.11727523
0.0053983331 0.03297627 0.11258578
0.0015761256 0.034262955 0.1121655
-0.030916393 0.017512619 0.11098521
-0.033390284 0.016050994 0.11259203
0.00061351061 0.033898294 0.10811859
-0.0037700534 0.034189641 0.10812425
-0.030184507 0.019040704 0.10810994
-0.0052942634 0.034070134 0.10397809
-0.010082841 0.033840895 0.10451066
-0.029078305 0.023605108 0.10297405
-0.02968365 0.021116316 0.10464986
-0.0077662468 0.034959435 0.10031826
-0.010775626 0.034501374 0.099254943
-0.015015781 0.034644604 0.099232472
-0.029365778 0.024224937 0.099131919
-0.012158573 0.034474373 0.095246173
-0.016108274 0.034102619 0.094277956
-0.021143198 0.033742845 0.094502188
-0.026189148 0.030219197 0.094602741
-0.028434694 0.02740854 0.096548833
-0.017908037 0.033612251 0.091140993
-0.021478415 0.034123421 0.090649135
-0.025156438 0.032017112 0.090623744
-0.023432016 0.03512466 0.085909911
-0.024727821 0.0335356 0.086738773
0.0339306 0.027419806 0.13631982
0.029895246 0.031567812 0.13168538
0.026059747 0.030909538 0.13213295
0.028719425 0.032781184 0.12766275
0.024971545 0.032097161 0.12813064
0.029234171 0.032695234 0.12427294
0.025137603 0.032578707 0.12336978
0.020317674 0.032174766 0.12305527
0.016551614 0.031702399 0.12306746
0.019337654 0.031684756 0.11876329
0.01434201 0.03215307 0.11874356
0.013142526 0.031718969 0.11460378
0.0092634559 0.032378912 0.11390891
-0.034078598 0.0087836385 0.11505174
0.012096703 0.031573296 0.1107541
0.0076344609 0.031890094 0.1101036
-0.03185457 0.011873841 0.10913434
0.0065418482 0.032038927 0.10541295
0.0031588674 0.033061206 0.10547893
-0.030061841 0.01556325 0.10515761
-0.031134188 0.011651993 0.10518598
0.00028336048 0.034188807 0.1016762
-0.0038080215 0.03452009 0.1012646
-0.029972494 0.017052174 0.10038231
-0.0014650822 0.034350574 0.097943641
-0.0046287775 0.034974217 0.097175457
-0.0089918375 0.034906149 0.096404888
-0.029257953 0.018643141 0.096165664
-0.0060454011 0.034982443 0.093140639
-0.010262489 0.034641027 0.09305314
-0.013258696 0.034273267 0.092068471
-0.027624249 0.024658978 0.092269398
-0.0073202848 0.034593344 0.08924181
-0.011221111 0.034342051 0.088305749
-0.015632212 0.033917427 0.088255681
-0.019944489 0.034013987 0.0883945
-0.026592076 0.029968023 0.088254161
-0.02749294 0.026045322 0.088311769
-0.012831688 0.034896731 0.083827175
-0.017407537 0.034614027 0.083495565
-0.021506786 0.035432756 0.084746815
-0.02609396 0.031341255 0.084398724
-0.01822257 0.035108149 0.079192586
-0.022351563 0.035759687 0.079533614
-0.025860369 0.031981528 0.078793861
-0.022616923 0.035238504 0.075998373
-0.026037276 0.033247232 0.075394936
0.033789277 0.02692163 0.13293359
0.033230364 0.027928591 0.13092104
0.031566083 0.030676126 0.12396859
0.029232204 0.032223463 0.12247496
0.025988042 0.03141582 0.119531
0.02569741 0.030628979 0.11700784
0.021432281 0.03057152 0.11558544
0.019872725 0.030460536 0.11179867
0.016397476 0.030221343 0.11134999
0.018829584 0.031393766 0.10636001
0.014310241 0.031143785 0.10731765
0.0099516511 0.030861318 0.10720062
0.017604053 0.032113791 0.10319912
0.013224959 0.032887936 0.10270285
0.0083047748 0.032253325 0.10323458
-0.031727314 0.0086303353 0.10295003
-0.033754468 0.0070059299 0.10193414
0.012151182 0.033378482 0.099206693
0.0074555278 0.032929778 0.098725922
0.0037029982 0.032461822 0.099078186
-0.030601621 0.0085594654 0.099354602
0.0057567954 0.032714009 0.095258571
0.0019711852 0.032676101 0.094919033
-0.0016383529 0.033682406 0.094387032
-0.029913068 0.016062796 0.095325448
-0.030776858 0.014062941 0.092230834
0.0003182292 0.032786667 0.089990027
-0.0035338998 0.033591032 0.090056844
-0.028572381 0.016680658 0.090800948
-0.0048289299 0.034039795 0.085358389
-0.008967042 0.034169078 0.085856743
-0.028064251 0.023084581 0.085032381
-0.0063849092 0.035076499 0.081211306
-0.010523617 0.035026371 0.081527151
-0.014636636 0.034755766 0.081636585
-0.027942717 0.024827898 0.081226625
-0.011592507 0.035418034 0.077140726
-0.016397357 0.035276771 0.077763297
-0.026383996 0.030382991 0.078266777
-0.028450608 0.027160525 0.07764075
-0.011858404 0.035705149 0.073755391
-0.01719451 0.035689771 0.072858907
-0.022177517 0.034761906 0.073153503
-0.02645278 0.032644928 0.073089607
-0.029039145 0.029474437 0.072911985
-0.017989337 0.035271943 0.068134345
-0.022577763 0.035108268 0.06809596
-0.026567638 0.03336519 0.068804659
0.031740069 0.027369976 0.11744889
0.030437768 0.027294636 0.11642873
0.032372832 0.029388368 0.11242365
0.027589262 0.027647257 0.11276644
0.031481922 0.030753434 0.10828533
0.026302636 0.0276739 0.10904693
0.023630917 0.028247893 0.10894319
0.030197442 0.032536149 0.10439935
0.025308311 0.029284418 0.10480317
0.022147059 0.03024894 0.10470962
0.019386172 0.031564891 0.10075203
0.018192768 0.032019675 0.096145995
0.01390034 0.032542467 0.095734335
-0.03073442 0.007309854 0.095556863
-0.032965422 0.0045933723 0.09668652
0.016091883 0.033225 0.092162289
0.012484848 0.032082796 0.091762461
0.0087380409 0.031276047 0.091892786
0.0046021938 0.03164351 0.091169842
-0.030458212 0.0085363388 0.091323055
0.010896802 0.032856703 0.088042445
0.0074545145 0.031534076 0.087137468
0.0032450557 0.031853795 0.087385394
-0.028787732 0.014460921 0.087500878
-0.031058371 0.011156678 0.0865281
0.001745224 0.031978369 0.083303101
-0.0018023849 0.032846034 0.083142318
-0.029346406 0.016095638 0.083415277
-0.033176303 0.011881053 0.082596011
0.00027906895 0.032579184 0.079176463
-0.0029126406 0.032971442 0.078970112
-0.029815137 0.017359138 0.079152651
-0.034549892 0.01484251 0.079237856
-0.006925106 0.034143031 0.074399479
-0.0090865493 0.034514785 0.073498525
-0.029653847 0.023595572 0.073697843
-0.029658794 0.019411981 0.076281555
-0.011225343 0.034214675 0.069790401
-0.015007436 0.03483057 0.069551744
-0.02930212 0.025487304 0.068396546
-0.012936234 0.033935428 0.066413857
-0.016201377 0.034325719 0.065393008
-0.020287037 0.034844637 0.065626271
-0.027695417 0.029860556 0.066406943
-0.028448701 0.027989805 0.065368094
-0.017880797 0.034825623 0.061032273
-0.021543622 0.033875346 0.06148947
-0.025507987 0.031940043 0.061816998
-0.027981937 0.028497994 0.060726531
-0.018494129 0.035651267 0.058064409
-0.022195876 0.034448683 0.057561345
-0.025374472 0.031997502 0.058134474
0.033724844 0.026878059 0.11482381
0.030012846 0.026906729 0.11055266
0.028307617 0.027567148 0.10753887
0.027285933 0.029598117 0.10305157
0.030002415 0.031626225 0.098820426
0.025546491 0.029806137 0.098638304
0.022760808 0.030197024 0.098929949
0.024343014 0.029006243 0.093937822
0.020896614 0.030714452 0.093031712
-0.033019602 0.0029518604 0.0927094
0.019078195 0.03186357 0.089888491
0.014869213 0.032150209 0.089302249
-0.032402277 0.0042771697 0.090257265
0.017075658 0.033331931 0.08605627
0.013596952 0.032881677 0.085775442
0.0093943477 0.031523585 0.084875889
-0.031373858 0.0082716346 0.086756624
-0.033078015 0.0065813661 0.085193224
0.013451874 0.032002926 0.081369556
0.007974565 0.031789184 0.081306614
0.0040821433 0.03166157 0.081393518
-0.031436205 0.011887789 0.0822194
0.0062044859 0.032573938 0.07744018
0.0025912523 0.032090187 0.076474167
-0.0029742718 0.031248689 0.075089164
-0.030008435 0.014419794 0.074353792
-0.032290757 0.012912989 0.076216199
0.001953423 0.031699061 0.071875907
-0.0024742484 0.031745553 0.071740784
-0.029661655 0.016100705 0.072662152
-0.0036498904 0.032454312 0.067279495
-0.0080466866 0.033129871 0.0679738
-0.0056476593 0.03294158 0.063453116
-0.0098495483 0.033471346 0.06377963
-0.013073564 0.033361733 0.063617028
-0.010611773 0.033511639 0.058985598
-0.014599621 0.034299135 0.060038514
-0.026899636 0.029574871 0.059196211
-0.028387129 0.02634716 0.059908815
-0.012731373 0.03470093 0.056291111
-0.016413927 0.034955561 0.054757304
-0.02152878 0.034470797 0.054224826
-0.026037574 0.030971467 0.055027552
-0.027586699 0.027093589 0.053945221
-0.017832756 0.034839869 0.049999721
-0.021509469 0.034332395 0.049499966
-0.025154114 0.032027483 0.049627282
0.033097088 0.029024839 0.098930754
0.032829285 0.028657258 0.094608285
0.027979314 0.028409004 0.095086969
0.031336546 0.030596077 0.091380097
0.027121305 0.02894628 0.091637827
0.023964226 0.029171467 0.090678819
0.026633859 0.028609455 0.087630071
0.022663832 0.029020548 0.086505897
0.019721389 0.03039676 0.082303055
0.019113421 0.030062497 0.078350343
0.014799416 0.030610085 0.077592291
0.010544837 0.030835748 0.077943601
0.012709677 0.030875862 0.073519476
0.0091120601 0.031330526 0.073721983
0.0049961805 0.031226575 0.073303677
-0.033405602 0.0090392828 0.072949328
0.012530267 0.032346129 0.070342936
0.0082467198 0.031923532 0.069557883
0.0034048557 0.031581759 0.069775857
-0.028679609 0.012714624 0.06818781
-0.031319976 0.010048687 0.069646575
0.0066543221 0.032859802 0.065153249
0.0021237731 0.032488942 0.065817811
-0.0014274716 0.033084631 0.06514252
-0.028611362 0.011539578 0.065955766
0.0047281981 0.033323646 0.062086947
0.0013260841 0.033227384 0.060739644
-0.0029346347 0.032977998 0.061723448
-0.00671345 0.032894671 0.061075874
-0.00093525648 0.033719003 0.056581624
-0.004208684 0.033649445 0.056446381
-0.0083512068 0.033465862 0.05647213
-0.028491497 0.022504508 0.054815598
-0.0059004426 0.033972919 0.05202014
-0.010109007 0.033510149 0.052044846
-0.013761163 0.033772051 0.051767804
-0.027990282 0.022359729 0.052005745
-0.011708617 0.03354001 0.047656782
-0.01532203 0.033985496 0.047456719
-0.026513517 0.028869629 0.047446348
-0.027270436 0.026009142 0.047256328
-0.016649127 0.034475029 0.043853112
-0.021377325 0.033610582 0.043715455
-0.025553048 0.03114289 0.044061936
-0.026975691 0.028199255 0.041969605
-0.021556497 0.033368468 0.039686128
-0.025461197 0.031735599 0.039452687
0.030817628 0.029419899 0.085053988
0.027300656 0.028006077 0.084591843
0.031256616 0.030403495 0.079553641
0.026797891 0.029249847 0.079662688
0.022925735 0.029335499 0.080686636
0.030281007 0.030911565 0.076254286
0.026847482 0.030363262 0.075795896
0.02129972 0.029037058 0.075742133
0.017095089 0.030247629 0.075413026
0.019103169 0.028181851 0.071549036
0.016263068 0.029197395 0.071712948
0.014967024 0.029470861 0.068057157
0.010660887 0.03202647 0.067162611
-0.032081842 0.0072548389 0.066731669
0.0097385049 0.032133579 0.063933618
-0.026501834 0.0084417462 0.062457807
-0.029761136 0.0084218979 0.062316902
-0.032045662 0.00616467 0.064534642
0.0073033571 0.03218025 0.059265234
0.0041386485 0.032568812 0.057973988
-0.028112471 0.012929499 0.057243146
-0.029874027 0.0099086165 0.0585813
0.0013265014 0.032302678 0.053440817
-0.028862715 0.018019974 0.053865172
0.00054842234 0.032205999 0.050309844
-0.0029796958 0.032631099 0.049568124
-0.0070543289 0.032180369 0.048587717
-0.02685827 0.019662857 0.047925033
-0.028705716 0.017616093 0.049839176
-0.0045615435 0.0311836 0.045784034
-0.008615911 0.032315016 0.045310237
-0.010114968 0.032647491 0.041743226
-0.013481617 0.03239584 0.040327586
-0.027106881 0.022773445 0.040479548
-0.01599896 0.032109499 0.037619397
-0.019861341 0.032405317 0.036221847
-0.025193512 0.030762196 0.036460266
-0.027356684 0.028034925 0.038440421
-0.02165091 0.032248199 0.032927647
-0.02495265 0.030522704 0.033316776
0.031282187 0.030289352 0.073707499
0.02667588 0.029363453 0.073538281
0.02360785 0.027656496 0.072956569
0.030103803 0.03178817 0.068804778
0.026309192 0.030418813 0.069623984
0.022349715 0.028273702 0.069359042
0.018968582 0.027791321 0.06880901
0.029593706 0.032128274 0.064679302
0.025885522 0.030828655 0.064985462
0.020974994 0.029254019 0.064283259
0.016167045 0.028638899 0.064681537
0.019176364 0.029661596 0.060760535
0.01548034 0.028820276 0.059889503
0.011802554 0.028867245 0.059483625
-0.02695322 0.0089686513 0.060149081
-0.031355321 0.0071110725 0.059514023
-0.033298254 0.0036097765 0.060045429
0.014272571 0.030048132 0.054996885
0.010066867 0.030323386 0.055651106
-0.030599833 0.0085704327 0.056137629
-0.034044981 0.0044773817 0.055338658
0.012795508 0.030774951 0.051222302
0.0084175467 0.0314821 0.051669158
0.0045226812 0.030914664 0.052347042
-0.028886795 0.012040377 0.052204169
-0.030378163 0.0083473921 0.05098433
-0.033644974 0.0057269931 0.051232584
-0.036144674 0.0035098791 0.052062251
0.0073720813 0.032360911 0.047989167
0.0025923848 0.031812072 0.047486939
-0.001106441 0.031037211 0.046661176
-0.028410316 0.01363194 0.046867587
-0.030859828 0.0099637508 0.047175772
0.0013570786 0.031815112 0.043069966
-0.0030822754 0.031614006 0.043615021
-0.026953697 0.015511453 0.043478496
-0.0036027431 0.03202635 0.038976356
-0.0082440972 0.032131732 0.039274111
-0.02729094 0.022655785 0.03869085
-0.0055642724 0.032363355 0.035255834
-0.0092380047 0.032791376 0.034015015
-0.013979852 0.031945109 0.034381494
-0.017548203 0.031146884 0.032926664
-0.027065873 0.02514869 0.033497617
-0.010691404 0.03338033 0.029129252
-0.01508075 0.032405496 0.029283509
-0.019805849 0.03192699 0.029817298
-0.025349259 0.028676271 0.029736385
-0.026642799 0.024926901 0.029699221
-0.016361475 0.033197105 0.025167003
-0.020602345 0.0328269 0.025484607
-0.02449137 0.030188739 0.025487766
-0.017931342 0.033297956 0.021396592
-0.021441758 0.0327335 0.021591768
-0.02436465 0.030292749 0.021661326
0.030064583 0.030869544 0.061714001
0.026833832 0.030042171 0.061286338
0.022768199 0.029226243 0.061523743
0.029828846 0.031483948 0.055535354
0.026830375 0.030013204 0.057564355
0.021929085 0.028098106 0.057365753
0.01740557 0.02897203 0.057355799
0.025060773 0.030056059 0.053378321
0.019943893 0.028859675 0.053432353
0.016736865 0.030027509 0.054414786
0.018592596 0.029822528 0.049749471
0.01517266 0.030618548 0.049260981
-0.033804178 0.0040020943 0.049690761
0.013640344 0.030763388 0.045294084
0.0092544556 0.030512094 0.044386931
-0.030397058 0.0080535412 0.04374329
-0.034007788 0.0045473576 0.045772977
0.0080766678 0.030278862 0.040319182
0.0045751929 0.030990362 0.041257955
-0.027542412 0.012728274 0.041154839
-0.028263688 0.009711206 0.038571939
0.0058676004 0.031518757 0.035340473
0.0026928186 0.031195045 0.035978898
-0.00067877769 0.031261861 0.035943195
-0.027064204 0.013299823 0.037164554
0.0012924671 0.032116175 0.031032994
-0.0031004548 0.032206833 0.031932458
-0.00070798397 0.033445001 0.027013257
-0.0039620399 0.033099413 0.026774928
-0.0084424019 0.033771873 0.027499989
-0.026040912 0.02442944 0.026610956
-0.0052221417 0.033319771 0.023570493
-0.0097753406 0.033313096 0.023101732
-0.014010429 0.032926142 0.022745535
-0.0257622 0.02715975 0.02237244
-0.025957882 0.022803783 0.02312012
-0.010711432 0.033602536 0.01856865
-0.014779985 0.032794237 0.018519387
-0.019939005 0.031845033 0.01838164
-0.024188578 0.028345168 0.017972782
-0.025777161 0.025512934 0.017966345
-0.01566571 0.032894313 0.01469253
-0.019882441 0.031464934 0.01375331
-0.023025095 0.029803753 0.014250413
0.033369422 0.027454674 0.05927635
0.032573402 0.026598096 0.056440301
0.03028208 0.029088616 0.050866283
0.027371645 0.029177308 0.051326312
0.023360491 0.027720094 0.051548161
0.025530875 0.029362917 0.046726651
0.021793842 0.0286268 0.047072239
0.024225473 0.029798269 0.043632902
0.020515382 0.028575003 0.04291258
0.016675472 0.028647363 0.041602649
-0.032856047 0.0023825169 0.041276433
0.01432389 0.029287577 0.037303612
0.01114738 0.029656827 0.038240358
-0.029745162 0.0073050261 0.038474575
-0.031622946 0.0041347742 0.037840143
0.013020337 0.03084141 0.032821462
0.0093166232 0.030657768 0.033202544
-0.026744485 0.010194123 0.032095
-0.029335916 0.0077856779 0.033291593
0.0081604719 0.031072736 0.028842255
0.0040020347 0.031751394 0.02898173
-0.027442873 0.011657059 0.028753981
-0.029320955 0.0090613365 0.02859883
0.0027090907 0.031990409 0.025091067
-0.00066697598 0.032305002 0.023755476
-0.025675774 0.016474664 0.022857502
-0.0032233 0.031738818 0.020502016
-0.0059570074 0.03164053 0.019336119
-0.026290476 0.01862365 0.019899204
-0.0042179823 0.032805562 0.015768155
-0.0080944896 0.032705367 0.016210184
-0.026577234 0.021029472 0.015760288
-0.0056298971 0.033544183 0.012814239
-0.0099045038 0.032794356 0.011913642
-0.015049219 0.032286704 0.011765137
-0.024502993 0.026684225 0.012329176
-0.027430892 0.023096621 0.011760518
-0.031254232 0.021401405 0.010124162
-0.010260522 0.033390939 0.0084425583
-0.014998972 0.033003569 0.0078452304
-0.020119548 0.031146884 0.0079696253
-0.024300039 0.02825892 0.0081101134
-0.026459277 0.025236547 0.0069985166
-0.015580893 0.032756329 0.004018642
-0.020069301 0.031719685 0.0032875016
-0.023350894 0.029881418 0.0034855679
0.03198278 0.025343537 0.054274835
0.032424152 0.02764976 0.04976628
0.030536532 0.029611051 0.045136549
0.027888179 0.029302537 0.044346996
0.030258656 0.030823886 0.039023355
0.026454329 0.029621542 0.039416179
0.021664381 0.027703106 0.039478853
0.026350081 0.028898418 0.035502866
0.021505356 0.02843672 0.035025284
0.01742661 0.028709531 0.035323992
0.021474957 0.029467046 0.031488225
0.016393542 0.02976197 0.03082566
-0.030533195 0.0059053302 0.031119153
-0.032397687 0.0031117797 0.029423103
0.014214516 0.03025794 0.026532337
0.0098558664 0.030312717 0.026252851
-0.028300881 0.010126531 0.026093498
-0.03095305 0.007578373 0.027427599
-0.033177912 0.0061593056 0.02612929
0.013513207 0.030235112 0.022856697
0.0088927746 0.030498743 0.022482172
0.0038936138 0.030720532 0.021861866
-0.026789665 0.011200488 0.022180691
-0.02989018 0.0081800222 0.021950886
0.0072199106 0.030015588 0.018851921
0.0031506419 0.029852033 0.018187329
-0.00029230118 0.029313445 0.017702535
-0.027516484 0.012322664 0.017746344
-0.030437887 0.0095792413 0.018330619
0.0010117292 0.030465305 0.013763055
-0.0010421276 0.030271292 0.013746247
-0.028336942 0.014533103 0.013733134
-0.030901849 0.013099313 0.01254122
-0.00020956993 0.03179729 0.010556743
-0.003387332 0.032582283 0.009715572
-0.007473588 0.032884002 0.0093024522
-0.030037582 0.017723918 0.010812238
-0.0049241185 0.033464611 0.0054310337
-0.0093844533 0.033095419 0.0056876317
-0.027603626 0.022569537 0.0055522099
-0.028803885 0.019895196 0.0059748068
0.031673968 0.026967406 0.038828328
0.027700365 0.027387559 0.032167777
0.022069335 0.028111875 0.032563522
0.026079655 0.027215958 0.027889505
0.021220446 0.029459 0.028811589
0.024327755 0.028905392 0.023203358
0.021007836 0.028762937 0.023970589
0.017059207 0.03041327 0.02479209
0.023538649 0.030327082 0.020361766
0.020050406 0.029554665 0.019574836
0.015265524 0.029989302 0.020232335
0.011407435 0.030507982 0.019845381
-0.031984985 0.004354775 0.022568837
0.014455199 0.029531956 0.016032681
0.009683013 0.030117154 0.016191795
0.0052767992 0.029722452 0.015534088
-0.030833781 0.0086980462 0.015689775
0.0086125135 0.029731274 0.011235699
0.0040441751 0.030461192 0.012276277
-0.029784441 0.0098245144 0.01348187
0.0069767237 0.029892445 0.0077589527
0.0028831959 0.031256318 0.007860668
-0.00068074465 0.032111049 0.0071265176
-0.001680851 0.032660246 0.0034748986
-0.029409707 0.01670444 0.0032012537
0.028853118 0.028326631 0.027069196
0.03092581 0.030628026 0.02186583
0.027545691 0.029413223 0.022626236
0.030702949 0.03227061 0.018200263
0.026123047 0.031230927 0.018270597
0.021592379 0.03006953 0.01704289
0.029426038 0.031532884 0.013857141
0.026434422 0.030262947 0.014037564
0.020743072 0.029865086 0.01415278
0.016344905 0.028282642 0.012617365
0.019304395 0.029481173 0.0089946538
0.014913321 0.028533936 0.0092273504
0.011932492 0.028959095 0.0093681067
0.0095421672 0.028848708 0.0052522495
0.0061228275 0.028684437 0.00367672
0.034180164 0.029418707 0.019111581
0.029491544 0.030819535 0.011646435
0.026187718 0.029040575 0.01120393
0.022430897 0.028436661 0.010494575
0.025122166 0.027439117 0.0074587539
0.02192837 0.02887094 0.006854184
0.017235398 0.02811873 0.0075859204
0.028377533 0.025800705 0.0077261105
0.027569652 0.026059985 0.0047646239
0.02464962 0.027848005 0.0040162578
0.031657219 0.02335155 0.0047899261
