# .PCD v0.7 - Point Cloud Data file format
VERSION 0.7
FIELDS x y z
SIZE 4 4 4
TYPE F F F
COUNT 1 1 1
WIDTH 1126
HEIGHT 1
VIEWPOINT 0 0 0 1 0 0 0
POINTS 1126
DATA ascii
0.026974559 -0.033364952 0.1768232
0.029740483 -0.030054867 0.17719907
0.032340199 -0.02834928 0.17589551
0.02865231 -0.033842206 0.17415622
0.031499982 -0.031732559 0.17333901
0.033217698 -0.029028177 0.17315805
0.016617984 -0.036158144 0.17779127
0.01889208 -0.03292197 0.17951015
0.022334337 -0.030409336 0.17943546
0.026185304 -0.027430117 0.17957711
0.028419554 -0.022461474 0.17869174
0.017524004 -0.036692619 0.17630631
0.020681858 -0.03592968 0.17552263
0.024060339 -0.033337414 0.17720282
0.031628728 -0.024530113 0.17577511
0.032640934 -0.021017551 0.17517573
0.022827595 -0.03607899 0.17157486
0.026007235 -0.033974111 0.17175555
0.030400097 -0.031653881 0.17027515
0.033686012 -0.026803553 0.1714094
0.023573577 -0.035691798 0.16714641
0.026911885 -0.033093572 0.16711369
0.03156969 -0.031916142 0.167193
0.033897281 -0.027551472 0.16634092
0.031765699 -0.031428993 0.16323155
0.033706099 -0.029306352 0.16244584
0.012624174 -0.02683115 0.18348297
0.015895277 -0.022394061 0.18330368
0.010648161 -0.032761157 0.18081257
0.014721602 -0.03030467 0.18173447
0.017613649 -0.026104391 0.18168914
0.020200163 -0.021646082 0.18178082
0.02437371 -0.018097639 0.18140316
0.027668178 -0.015028477 0.18150741
0.029645741 -0.011808991 0.18078363
0.0090663433 -0.037146151 0.17660835
0.013152152 -0.036170065 0.17812389
0.016321272 -0.032420695 0.18003771
0.023200214 -0.024271369 0.18067116
0.026560813 -0.021166086 0.18001121
0.030158937 -0.018201113 0.17840254
0.0314309 -0.013316035 0.17715168
0.010651529 -0.038062334 0.17332625
0.014558911 -0.037956655 0.1732538
0.032497048 -0.018302262 0.17285007
0.032459646 -0.015390933 0.173935
0.016324401 -0.037748516 0.16894427
0.019962907 -0.036262095 0.16888043
0.024116516 -0.033391774 0.1688509
0.032783031 -0.020872235 0.16921329
0.01812005 -0.037067354 0.16431233
0.021341115 -0.036045134 0.16427454
0.025941759 -0.034080982 0.16459885
0.029417157 -0.03207016 0.16358548
0.034445256 -0.026304841 0.16351813
0.033440173 -0.022448599 0.16397825
0.023524702 -0.036534011 0.16053231
0.027154326 -0.034334898 0.16026159
0.03153339 -0.032228053 0.1605586
0.034820855 -0.02845937 0.16073824
0.034343839 -0.022828639 0.15956725
0.024351478 -0.036314666 0.15543111
0.0270468 -0.034732163 0.15641804
0.032030046 -0.03234303 0.15565105
0.03531453 -0.028785408 0.15586863
0.032263815 -0.031147897 0.15147854
0.033887893 -0.029567778 0.15152206
-0.0022405088 -0.03542912 0.18038902
0.0014251769 -0.031762064 0.18201366
0.0055810809 -0.028526247 0.18227354
0.0085986853 -0.025088847 0.18276131
0.01248008 -0.020302057 0.18329418
0.01603207 -0.017974138 0.18306035
0.019426703 -0.014344156 0.18244851
0.024079859 -0.011924207 0.18298364
0.025547028 -0.006058991 0.18211657
-0.0026376545 -0.039243281 0.17639461
0.00061288476 -0.037324488 0.17900294
0.0043929815 -0.034070015 0.18002942
0.0068274736 -0.031637847 0.18110955
0.029433995 -0.0081390738 0.1802913
0.0026263297 -0.038971782 0.17500618
0.0058596134 -0.037319779 0.1760464
0.030801594 -0.0088131428 0.17528412
0.030289888 -0.0068406463 0.17239961
0.0041932464 -0.039668977 0.17021164
0.0084421337 -0.038531303 0.17115507
0.030476689 -0.010975003 0.17018375
0.008984983 -0.037963092 0.16585788
0.012549907 -0.036930025 0.16648105
0.031051815 -0.01625067 0.1667487
0.030342907 -0.013377011 0.16595215
0.014533699 -0.036695004 0.16200079
0.018561572 -0.035972774 0.16181566
0.032268852 -0.017995536 0.16270447
0.016977847 -0.036775947 0.15686579
0.020435661 -0.036544979 0.15795745
0.033914715 -0.019761503 0.15749927
0.017568648 -0.037051976 0.15389903
0.022123277 -0.037073553 0.15331657
0.026633561 -0.033534408 0.1532488
0.029120177 -0.032125592 0.15249349
0.034600914 -0.022488594 0.15282579
0.022766143 -0.03729713 0.14925759
0.026213557 -0.03421855 0.14852931
0.03037408 -0.031156719 0.14834286
0.033854961 -0.027699947 0.1486875
0.033989072 -0.023012877 0.1500078
0.026618481 -0.034887552 0.1445324
0.03053233 -0.030777991 0.14403318
0.032674521 -0.027816355 0.14441504
0.0041049421 -0.019174755 0.18318534
0.0068954825 -0.015259743 0.18300837
0.008923769 -0.012887418 0.1829747
0.021068871 -0.0013047457 0.18329799
-0.0071358085 -0.033996582 0.17979479
-0.0046091378 -0.032441497 0.18082115
-0.0010257363 -0.029139102 0.1817247
0.00096878409 -0.024922073 0.18209073
0.0051980019 -0.02306354 0.18264282
0.0090433657 -0.020685196 0.18300587
0.015323669 -0.013938427 0.18302137
0.017076552 -0.011187255 0.18285057
0.02038765 -0.0080644488 0.18294638
0.022975624 -0.0038534999 0.18266422
0.025171667 -5.0723553e-05 0.18081534
-0.0097020268 -0.039889276 0.17493048
-0.0069454908 -0.037846088 0.17684489
-0.0035477877 -0.035948634 0.17864054
0.028268427 -0.0010218024 0.17699993
-0.0076180995 -0.042325258 0.17355272
-0.0045125186 -0.040190876 0.17239472
4.6700239e-05 -0.039603293 0.17237785
0.029613644 -0.0024462342 0.17262262
-0.0024541318 -0.03997314 0.16804737
0.0011001825 -0.039826453 0.16826114
0.02969715 -0.0076351166 0.16770574
0.03042233 -0.0052706599 0.16815513
0.002809763 -0.038819015 0.16391405
0.0062300265 -0.038164198 0.16366509
0.030469775 -0.010248899 0.16389096
0.0045573115 -0.039130569 0.15858085
0.0077006817 -0.037283719 0.15931763
0.011231333 -0.03624469 0.15903284
0.031952411 -0.013117015 0.15995462
0.0088584423 -0.037610233 0.15504183
0.012836009 -0.03633517 0.15541811
0.032707691 -0.016658425 0.15298982
0.032052398 -0.013785183 0.1561539
0.015405029 -0.036780357 0.15063073
0.033347905 -0.018314719 0.15034302
0.03295967 -0.016367197 0.14978732
0.015965998 -0.037431896 0.14638604
0.020185292 -0.036205828 0.1458465
0.026763976 -0.032751679 0.14565994
0.027915418 -0.031780541 0.14572702
0.033455014 -0.025271595 0.14561059
0.03402409 -0.021387398 0.14675499
0.021919549 -0.035428643 0.14202513
0.02640748 -0.034240127 0.14251532
0.030306995 -0.031310558 0.14283271
0.033880144 -0.026832819 0.1425329
0.034278989 -0.021960914 0.14262153
0.024035007 -0.035388589 0.13834079
0.026687086 -0.033715546 0.13750605
0.030616015 -0.031176209 0.13766707
0.03350246 -0.027243555 0.13791175
0.034789294 -0.02428335 0.13767655
0.027823806 -0.034521461 0.13347898
0.030888945 -0.030993938 0.13343017
-0.0012552142 -0.014769375 0.18428624
-0.012484908 -0.029682934 0.18010238
-0.009757787 -0.028900325 0.18148729
-0.0063281953 -0.02414006 0.1819087
-0.0027496815 -0.020100355 0.18250841
0.00083509088 -0.018031776 0.18342248
0.0034208298 -0.013212502 0.1834138
0.0074111819 -0.0080271363 0.1816712
0.011055917 -0.0066540837 0.1821897
0.013953984 -0.0021086931 0.18269718
0.016874731 0.00025933981 0.18311995
0.021895081 0.0044156909 0.18372709
0.025016367 0.0079579949 0.1833474
0.027523518 0.011544526 0.18118423
-0.013415396 -0.03620851 0.17767492
-0.010910928 -0.03400737 0.17896199
-0.0069170296 -0.029535949 0.1812931
-0.0038129091 -0.026056349 0.18127146
0.025217682 0.0039901137 0.18000412
0.026316345 0.0064894557 0.17861396
0.028954148 0.010674298 0.17775118
0.03294605 0.011728287 0.17856556
-0.011461169 -0.039388359 0.17547929
0.027689159 0.0057325959 0.17389053
0.028548807 0.0097758174 0.17403635
0.029284954 0.00035834312 0.16984922
0.028829217 0.0042546988 0.17010576
-0.0052144229 -0.039331794 0.1660389
0.030385256 -0.0013772249 0.16651601
0.030212134 0.001370132 0.16508466
-0.0028321743 -0.03917861 0.16131832
-0.0007070303 -0.038962781 0.16162191
0.030903608 -0.0045615435 0.16150497
-0.0014744401 -0.040275872 0.1570989
0.0017811656 -0.0397861 0.15734039
0.03121081 -0.0099419951 0.15587206
0.0312953 -0.0062952638 0.1566657
0.0041207075 -0.039819181 0.15276827
0.0083816648 -0.037868202 0.15218277
0.031540632 -0.010786057 0.1526242
0.031624138 -0.0061027408 0.15349875
0.0041625798 -0.039664447 0.14823942
0.0084733367 -0.038340926 0.14824136
0.012171924 -0.03669554 0.14925705
0.032190442 -0.011355996 0.14752556
0.010381937 -0.038203061 0.14459111
0.013620198 -0.037047327 0.14326979
0.017779291 -0.035643458 0.14401649
0.033044696 -0.017875016 0.14373578
0.032479286 -0.01445055 0.14357628
0.015578479 -0.036047399 0.13929309
0.019494742 -0.035723031 0.13964231
0.033370525 -0.01929152 0.13985319
0.016803443 -0.036781788 0.13594176
0.020913124 -0.036281109 0.13529401
0.024699926 -0.034818351 0.13486986
0.028259933 -0.03145808 0.13445596
0.033063531 -0.026458323 0.13451128
0.034376413 -0.021966517 0.13537504
0.02221036 -0.03640765 0.13046694
0.026398242 -0.035102367 0.13140763
0.030213654 -0.031118989 0.13150455
0.033751488 -0.026833296 0.13154192
0.03490597 -0.023128569 0.13092607
0.028101653 -0.034885824 0.12631497
0.030860305 -0.031845033 0.12649366
0.034039229 -0.02798444 0.12647381
0.036015183 -0.024133801 0.12822062
0.029579103 -0.034780204 0.12178531
0.030436993 -0.032157481 0.12216824
-0.020813912 -0.029495895 0.18299553
-0.019227773 -0.027182341 0.18327406
-0.015746176 -0.023492277 0.18329236
-0.010234118 -0.017967165 0.18298879
-0.0078529418 -0.015614629 0.18366766
-0.0047451854 -0.012807846 0.18499041
-0.0013135672 -0.0089839101 0.18451193
0.00030404329 -0.0053376555 0.18433636
0.0061265826 -4.2021275e-05 0.18295917
0.0090445876 0.0030352473 0.18337333
0.012736529 0.0051166415 0.18335944
0.015433997 0.0099138618 0.1843071
0.022663921 0.012041152 0.18412346
-0.018770218 -0.031746328 0.18072516
-0.016556174 -0.029068708 0.18066981
-0.013550401 -0.02486676 0.18206272
-0.0096417665 -0.019829571 0.18190536
-0.0053150654 -0.019296408 0.18273529
0.00364694 -0.0055437088 0.18193564
0.0076651871 -0.0033369064 0.1823656
0.011347055 -0.00065368414 0.18262792
0.016877115 0.0046912432 0.18276006
0.028488457 0.015207946 0.18002737
-0.015844971 -0.03505522 0.17808267
0.028816879 0.01646781 0.17826432
0.029509842 0.010920525 0.17163378
0.030798644 0.015334487 0.17199576
0.028994709 0.0065310597 0.16767144
0.029126942 0.011069 0.16696149
-0.0089399219 -0.037138283 0.16309085
0.029214203 0.0058793426 0.1630722
0.029156685 0.0087675452 0.16243073
-0.0073317289 -0.038316846 0.15892567
0.029108047 0.0039297938 0.15839387
-0.00582847 -0.037681103 0.15464558
-0.0035337508 -0.036842287 0.1517932
0.030865461 -0.0013691783 0.15491359
0.03040725 0.002184093 0.15373065
-0.0038644671 -0.03848201 0.1488504
-0.0010874569 -0.038418829 0.14980073
0.031112701 -0.00461483 0.14980741
0.030898064 -0.00046950579 0.15041704
0.0027158856 -0.039700627 0.145402
0.03136757 -0.004732132 0.14544787
0.0038607717 -0.03942126 0.1415052
0.0077597797 -0.038059354 0.14144893
0.031839907 -0.010726154 0.14252417
0.03201431 -0.008402884 0.14282916
0.0052242577 -0.039241016 0.1378143
0.0088200569 -0.037807226 0.13651045
0.01210776 -0.03618288 0.13747503
0.03115648 -0.0133937 0.13770224
0.010809243 -0.038107216 0.13171919
0.014215678 -0.036852717 0.13259475
0.017886132 -0.036426365 0.13288681
0.032307744 -0.016965687 0.13112737
0.032588214 -0.014976203 0.13234468
0.015416861 -0.037361085 0.12753439
0.019336253 -0.036303937 0.12834463
0.024370372 -0.033924758 0.12749112
0.033206463 -0.017477334 0.12739661
0.033286989 -0.015180826 0.12848485
0.016675234 -0.037930906 0.12407744
0.020665884 -0.035702586 0.12383536
0.023938537 -0.034033179 0.1241155
0.03413859 -0.025771081 0.12320018
0.033634037 -0.021695495 0.1236527
0.022190928 -0.035719037 0.120213
0.02623266 -0.034219682 0.11986652
0.030711383 -0.030415654 0.11967236
0.032597899 -0.026017606 0.12000287
0.02761209 -0.03374368 0.1164149
0.030200809 -0.031259835 0.11507529
0.032505572 -0.027474463 0.1165787
-0.019056588 -0.018390298 0.18594149
-0.016602576 -0.014959633 0.18420666
-0.012562513 -0.01265353 0.18461341
-0.007891953 -0.0062369704 0.18593687
-0.0058621168 -0.003780961 0.18588826
-0.0029732287 0.0002707839 0.18491876
0.00073412061 0.0029373765 0.18552327
0.0045484006 0.0049850941 0.18574932
0.008969456 0.010094106 0.18473953
0.011644691 0.011578918 0.1850172
-0.020642728 -0.02353549 0.18344015
-0.017215371 -0.021164179 0.18449762
-0.013881654 -0.017617166 0.182731
-0.010014415 -0.01342535 0.18451458
-0.0078086257 -0.011373997 0.18537214
-0.0028598607 -0.0051041245 0.18519774
-0.00037071109 -0.0024882555 0.18363214
0.0027459562 0.00011724234 0.18315262
0.0064564347 0.0047288537 0.1843051
0.0098690987 0.0090792775 0.18354544
0.012329429 0.010883212 0.1837163
0.030832797 0.018371642 0.16877657
0.030537248 0.015821338 0.1652441
0.032254994 0.018684864 0.16422743
0.029712677 0.010682344 0.16073836
0.031987011 0.014982402 0.16057594
-0.011758745 -0.036825836 0.15462019
0.028910339 0.0065843463 0.15560503
0.029803276 0.0096601248 0.15715738
0.032524884 0.015904903 0.15683259
-0.012068808 -0.036168694 0.1527756
-0.0080167055 -0.036548793 0.15169491
0.029468119 0.0052241683 0.15200467
-0.0071410537 -0.038197875 0.14755563
0.029876262 0.0023500919 0.14707674
-0.0041555762 -0.03826803 0.14268322
-0.0015676022 -0.038253307 0.14450733
0.030789614 -0.0014850497 0.14331676
0.030139983 5.4955482e-05 0.14033462
-0.0030710101 -0.038509071 0.13805349
-0.0001938045 -0.038280129 0.13861181
0.030113399 -0.0075702667 0.13887815
0.030074716 -0.004381597 0.13864519
0.0017744005 -0.038416207 0.13397016
0.0057681799 -0.038545191 0.13424499
0.030661434 -0.010139525 0.13473444
0.029925108 -0.0062342286 0.13358451
0.0033045411 -0.038787603 0.13019124
0.0074336231 -0.038271844 0.13028455
0.031946838 -0.011059642 0.13038117
0.032473683 -0.0087300539 0.12829304
0.009124577 -0.037723184 0.12556389
0.011725038 -0.037310839 0.12568194
0.033198059 -0.013313055 0.12634239
0.032726556 -0.0087650418 0.12671816
0.010332823 -0.038107157 0.12080675
0.014386922 -0.03745538 0.1208342
0.018606246 -0.035424471 0.12133038
0.03328824 -0.018479049 0.12190256
0.03362003 -0.01552099 0.12123299
0.015437752 -0.036746979 0.11745897
0.019617438 -0.03512609 0.11669987
0.023954242 -0.034036696 0.11668584
0.032272995 -0.024553776 0.11657089
0.032990992 -0.020783842 0.11708865
0.02088964 -0.034363985 0.1123932
0.025328875 -0.03344202 0.11258256
0.030340791 -0.03066802 0.1123732
0.032225013 -0.026397884 0.11288792
0.033046544 -0.022464812 0.11374575
0.026219726 -0.033518672 0.10820496
0.03056559 -0.031163394 0.10867912
0.032211661 -0.027106225 0.10839885
0.028209716 -0.033892393 0.10403281
0.030875713 -0.031539142 0.10294166
0.032548964 -0.027821839 0.10416615
0.03189674 -0.032573581 0.099392772
-0.0077918768 0.003752768 0.18720552
-0.0039550662 0.0063409209 0.18751001
-0.017336071 -0.013954878 0.18385485
-0.0057415068 0.0030075908 0.18565935
-0.0035429001 0.0043430328 0.18586165
0.028006673 0.012767613 0.15286459
0.029275119 0.016581714 0.15427311
0.031231999 0.019775808 0.15403672
-0.016085118 -0.040439129 0.14786972
-0.014504135 -0.037257314 0.14896302
-0.011602759 -0.036308765 0.14967038
0.028091222 0.010690629 0.14944257
-0.015509009 -0.040968597 0.14650221
-0.012707174 -0.038585186 0.14525367
-0.0090110004 -0.03803122 0.14473577
0.0290021 0.0059965253 0.14519431
0.028382778 0.0096060038 0.14502068
-0.010922611 -0.040215194 0.14093982
-0.0076341629 -0.038879037 0.14146878
0.029945105 0.0042167902 0.14093794
0.031018138 0.0071610212 0.1388724
-0.00962767 -0.039487779 0.13698895
-0.0065507889 -0.038591802 0.13654758
0.029919535 -0.0015150309 0.13654913
0.030023038 0.0025686622 0.13641648
-0.0037782788 -0.039060116 0.13265122
-0.0019446611 -0.03843379 0.13216142
0.030446112 -0.002656579 0.13202174
0.030982316 0.00074034929 0.13133271
-0.0027608573 -0.039305806 0.12802047
0.00098639727 -0.038699269 0.12737694
0.031580091 -0.0043353438 0.12757128
0.0027192235 -0.037978649 0.12320182
0.0056916475 -0.037698388 0.12295353
0.032776833 -0.01075536 0.12309423
0.032808244 -0.0067773461 0.12292022
0.0077147782 -0.037997186 0.11872643
0.033282578 -0.011260211 0.11879218
0.03380388 -0.0079442263 0.1196107
0.01075083 -0.038120449 0.11481583
0.014058441 -0.036471128 0.11432588
0.032226384 -0.016195774 0.11435574
0.03273809 -0.013747394 0.11511219
0.033093631 -0.0096529722 0.11539686
0.01478976 -0.035986423 0.11059701
0.018400908 -0.035012186 0.11033595
0.022430599 -0.033466876 0.11026064
0.032172143 -0.019426167 0.11101204
0.032522231 -0.014732838 0.11154109
0.021082193 -0.03482163 0.10603389
0.023794949 -0.034682333 0.10679901
0.032282144 -0.023343503 0.10664541
0.03241694 -0.020690858 0.10554439
0.022464842 -0.035912514 0.10168904
0.025754631 -0.034751713 0.10207525
0.032743782 -0.026435673 0.10131437
0.033271134 -0.022875845 0.10048732
0.02705121 -0.033735633 0.097226083
0.030871958 -0.032409191 0.09686023
0.033612847 -0.027921975 0.096919924
0.031644642 -0.031985104 0.092856526
0.034084141 -0.028383791 0.093121231
0.033253908 -0.031264246 0.089257598
0.028248757 0.01934576 0.15095736
0.030035853 0.021367311 0.1506656
0.027698934 0.013659596 0.147469
0.027812332 0.017775595 0.14611773
-0.017000139 -0.038765192 0.14397819
-0.01693362 -0.037326097 0.14201297
0.028220892 0.012546062 0.14248766
0.028864264 0.015464544 0.14230137
-0.015068442 -0.038264394 0.13803641
0.029504061 0.010446489 0.13869061
0.029668063 0.014614463 0.13840933
-0.012569308 -0.038092732 0.13319589
-0.0081012845 -0.038318276 0.13297857
0.030086905 0.0042288303 0.13355483
0.029640526 0.0082842708 0.13438995
-0.0080170333 -0.037501514 0.12948322
0.030030131 0.004290998 0.12937853
-0.0045304596 -0.037962914 0.12554413
0.030832618 0.0020676255 0.12598044
-0.0032224059 -0.037655115 0.12081122
-0.00044596195 -0.037355602 0.12066537
0.0022099316 -0.03756696 0.11643597
0.005012989 -0.037321687 0.11632639
0.032894224 -0.0059463978 0.11605063
0.0036371946 -0.037537634 0.11263001
0.0063255131 -0.036645234 0.11204168
0.032238722 -0.010447145 0.11200279
0.0080165863 -0.036234021 0.10747361
0.01218909 -0.035305321 0.10755327
0.031240046 -0.016115904 0.10733068
0.031563848 -0.01327908 0.10863179
0.013219237 -0.034872651 0.10311797
0.017139852 -0.03442651 0.10391554
0.031571448 -0.016980827 0.10259327
0.015118569 -0.034869969 0.099193454
0.01878196 -0.034462512 0.098908484
0.032442331 -0.018839657 0.099119395
0.020034015 -0.034074187 0.094496548
0.023772866 -0.03296268 0.094840884
0.033763558 -0.021201372 0.09507525
0.021773845 -0.034611523 0.091766447
0.025550485 -0.032516539 0.090316951
0.029096365 -0.031566143 0.089322954
0.033945769 -0.026476443 0.090231031
0.03462553 -0.022315383 0.09053269
0.03089112 -0.031418383 0.085989028
0.033543795 -0.028042495 0.086704075
0.032054365 -0.031754732 0.081587791
0.033705086 -0.030453503 0.08144629
0.027361274 0.021324754 0.14783038
0.028652012 0.0236094 0.14763041
0.028240293 0.020705938 0.14489348
0.029546827 0.022600114 0.14511503
-0.020454645 -0.036449671 0.14008833
0.029487878 0.018815637 0.1403559
0.029846638 0.021826208 0.14173223
-0.01899901 -0.037787497 0.13663317
-0.016750097 -0.03792417 0.13558899
0.029077828 0.01343137 0.13522099
0.030393898 0.017142236 0.13613106
-0.017252326 -0.039392889 0.13248695
-0.015959322 -0.0383811 0.13174777
0.029609621 0.011931598 0.13144152
0.031262279 0.016056478 0.13132937
0.032349527 0.018081307 0.1299569
-0.013910085 -0.037235022 0.12728232
-0.010862499 -0.036483228 0.12679994
0.029226512 0.006857574 0.1268611
0.029399753 0.0099797845 0.12697077
0.030617833 0.01400435 0.1265862
-0.012528539 -0.036386967 0.12297431
-0.0086051226 -0.036466479 0.12257016
0.029343575 0.0024455786 0.12129754
-0.007047236 -0.037195504 0.11816466
-0.0025429726 -0.036743224 0.11741084
0.029287308 0.0036339164 0.11592746
-0.0050159991 -0.038159788 0.11371034
-0.0014296174 -0.037743986 0.11461559
0.031387538 -0.0013697147 0.11274767
-0.0040536225 -0.037628114 0.11045885
0.00034227967 -0.038057864 0.11013642
0.0035527945 -0.036883473 0.1090588
0.030105114 -0.0036476254 0.11072448
0.0013953149 -0.037911236 0.10588109
0.0057707727 -0.03704685 0.10587502
0.029961407 -0.0094361305 0.10487679
0.029663712 -0.0058009028 0.1066466
0.0025188029 -0.037050784 0.10200495
0.0069542825 -0.036348045 0.10141817
0.010463238 -0.035118878 0.10099086
0.030112118 -0.011255145 0.10172823
0.0083559752 -0.036138415 0.097511858
0.011937827 -0.035289764 0.096787214
0.031364471 -0.01355803 0.095963448
0.014651775 -0.03634733 0.092434734
0.018257618 -0.034823656 0.092795312
0.033120692 -0.015671015 0.091608196
0.014909863 -0.035388947 0.088143885
0.019743472 -0.035181999 0.087867886
0.023040444 -0.033097208 0.088299394
0.03396228 -0.019953489 0.08707583
0.021451712 -0.034906209 0.084450483
0.025217146 -0.03310281 0.08365038
0.028606683 -0.031709135 0.082770169
0.033286959 -0.026320696 0.083544403
0.034227937 -0.022303879 0.083532214
0.026569903 -0.032868624 0.079249322
0.030690342 -0.032182634 0.0795497
0.033708096 -0.026658535 0.079213798
0.034542978 -0.022090137 0.080112636
0.028011411 -0.032320678 0.07583499
0.031871319 -0.032137454 0.075300694
0.033949167 -0.028601825 0.075265259
0.03280285 -0.030893087 0.071171492
-0.020773917 -0.03427273 0.1269632
0.032746136 0.020160913 0.13039297
-0.020687997 -0.03654021 0.12417388
-0.017897755 -0.035936952 0.12410295
0.029920965 0.011888504 0.12412471
0.031398088 0.015616715 0.12494251
-0.014468789 -0.036484361 0.12057436
0.027262032 0.0083464384 0.120076
0.028563648 0.011888683 0.12038428
0.030617535 0.015179455 0.12011895
-0.013651192 -0.037805796 0.11585072
-0.0088664889 -0.0374282 0.11581957
0.027886093 0.0081208348 0.11692515
0.028751582 0.011097133 0.11640653
-0.01105094 -0.038903832 0.11321646
-0.0087003708 -0.037530839 0.11148429
0.028929949 0.0051127076 0.11120483
-0.0055061579 -0.037233353 0.10717493
0.02918601 -0.0008007288 0.10653722
0.029347599 0.0027025938 0.10684669
-0.0040556788 -0.037985265 0.10237488
-0.00088739395 -0.037452757 0.10224807
0.029429138 -0.0033001304 0.10249743
0.029629499 0.00050008297 0.10238829
0.00058892369 -0.03753978 0.098299414
0.0049163997 -0.037006795 0.098432302
0.030001998 -0.0079951286 0.098383307
0.030081898 -0.0046476126 0.097916991
0.0022978485 -0.037783086 0.093781531
0.0067802072 -0.036521018 0.094357312
0.031078458 -0.0098434091 0.094500363
0.030872405 -0.0066806674 0.093557507
0.0046983659 -0.038029671 0.090054572
0.0081931949 -0.037353933 0.090073079
0.012046516 -0.037059486 0.089455426
0.032327622 -0.011009276 0.090475827
0.032119721 -0.0084643364 0.089262247
0.0097337961 -0.037096381 0.085638463
0.013585478 -0.036246359 0.086034656
0.032303691 -0.013548613 0.086442024
0.011106491 -0.037310481 0.082315445
0.014119565 -0.035826266 0.081098199
0.018402398 -0.034028649 0.081436992
0.033766866 -0.017726719 0.083783239
0.015975237 -0.035137534 0.078007966
0.019465983 -0.033599377 0.077179998
0.023161173 -0.033003271 0.077596992
0.033697367 -0.019904792 0.076064736
0.021401078 -0.033607841 0.073196322
0.024921834 -0.032966793 0.072929323
0.028445482 -0.032477081 0.073413074
0.033693224 -0.025311172 0.072681129
0.034312993 -0.022734404 0.072024971
0.027150422 -0.033322632 0.067996755
0.030641407 -0.032166958 0.068565547
0.033608496 -0.02788496 0.068043843
0.034363389 -0.02363795 0.068313345
0.028552115 -0.033647418 0.064174458
0.03146112 -0.03166157 0.063834533
0.03383559 -0.029229522 0.063998625
-0.018540472 -0.035802245 0.1178053
0.030143291 0.016609311 0.11666268
0.027847379 0.011822879 0.11256713
0.030687273 0.015895963 0.11316583
0.031787068 0.019814193 0.1133205
-0.015179157 -0.035571218 0.10888201
-0.012196064 -0.034602284 0.10733807
0.028573066 0.011114895 0.10917443
0.030726075 0.014797986 0.10947719
-0.010152221 -0.03573519 0.10445452
0.028789699 0.0066350102 0.10478857
0.02900815 0.0091925263 0.104173
0.031449139 0.01372081 0.10539433
-0.0085262954 -0.036950529 0.10044187
0.029146165 0.0043135285 0.10036105
-0.0054407716 -0.037683904 0.096384585
-0.0026593506 -0.03718859 0.095356315
0.029299974 -0.00058090687 0.096569121
0.029240221 0.0022073984 0.096651316
-0.0049348474 -0.037320614 0.092403829
-0.0018320978 -0.037055135 0.09168011
0.029711753 -0.0017350912 0.092695296
0.00087749958 -0.037389994 0.087640077
0.0049317777 -0.037942827 0.087507248
0.029406756 -0.0064567327 0.084381759
0.031075597 -0.0046213865 0.087418914
0.0028520226 -0.037088871 0.082268566
0.0058565438 -0.036718905 0.083004624
0.03014183 -0.0097260475 0.082063884
0.0076446533 -0.037125766 0.078025609
0.011644542 -0.035745203 0.077847302
0.031680942 -0.01242727 0.078098595
0.0091929138 -0.0362131 0.074398309
0.012380242 -0.034626663 0.07370162
0.016514808 -0.033307731 0.073894501
0.032125533 -0.012841642 0.073546499
0.018126398 -0.032622576 0.069416434
0.022229731 -0.032650411 0.068796784
0.03391549 -0.01797998 0.069958746
0.032956243 -0.014019907 0.070212185
0.019609392 -0.032715797 0.066188261
0.023010463 -0.032519281 0.065242484
0.033614457 -0.024652183 0.064858094
0.034366667 -0.021524549 0.065557316
0.024954259 -0.03257072 0.06263034
0.028889418 -0.030348182 0.060321704
0.033422083 -0.026421189 0.061371729
0.03397283 -0.021893799 0.061771348
0.030577272 -0.02986002 0.057315454
0.03280586 -0.027393579 0.056591973
0.032569289 -0.029193759 0.053523555
-0.0174146 -0.034406602 0.10665584
0.028349668 0.012368321 0.10657984
0.030267566 0.017020166 0.1064766
0.031058878 0.019622982 0.10630828
-0.015523881 -0.035200477 0.10275844
0.028914392 0.012443125 0.10241765
0.02886945 0.01598084 0.10232928
-0.013784468 -0.036147773 0.098434001
-0.011656493 -0.036367178 0.096772969
0.028511167 0.0071197748 0.097688258
0.028705329 0.0098688006 0.097692639
-0.013479441 -0.036227226 0.093590468
-0.0099472702 -0.036577821 0.0934982
0.028431535 0.0049827695 0.093051761
-0.0062895119 -0.037267208 0.089334041
0.029234499 0.0024427176 0.088782191
-0.0040793717 -0.037442446 0.085743815
-0.0014753342 -0.037025094 0.083956867
0.029973447 -0.0030079484 0.083572477
0.030271232 0.00050401688 0.084410131
-0.00026801229 -0.037512362 0.080363333
0.029719889 -0.0087264776 0.079895318
0.030025184 -0.0037971139 0.080314219
0.0025465488 -0.038428605 0.076433271
0.031127661 -0.0043907762 0.075567991
0.0041787624 -0.038638771 0.072621226
0.0077584982 -0.037504733 0.072169065
0.011803597 -0.035201073 0.071426034
0.032732427 -0.011347413 0.071979702
0.03193146 -0.0067887902 0.071684957
0.0081329644 -0.03712213 0.067935988
0.012695789 -0.035025001 0.067961201
0.015595227 -0.032956183 0.067583427
0.031854659 -0.011024714 0.067182586
0.0089411139 -0.036889791 0.063922808
0.013184428 -0.035342515 0.063245282
0.017919034 -0.03306371 0.063742474
0.032784104 -0.014568388 0.063695177
0.014990062 -0.034897208 0.059996501
0.018859595 -0.03318733 0.058990464
0.023122966 -0.031292856 0.059335992
0.033811539 -0.020636022 0.059080049
0.033344209 -0.015157163 0.059174344
0.021305889 -0.032993793 0.054413125
0.023362875 -0.031400502 0.054616198
0.027883887 -0.03018862 0.055429205
0.033616781 -0.025431097 0.054471597
0.033867091 -0.020849943 0.055115059
0.025639832 -0.032680392 0.050116912
0.030038804 -0.030755162 0.051358208
0.033431083 -0.026909769 0.051084593
0.034472317 -0.022097707 0.050488845
0.030685961 -0.030999362 0.045457855
0.033564627 -0.026879787 0.046191797
0.031612039 -0.031087637 0.041243479
-0.022230685 -0.034085572 0.10087129
-0.020824909 -0.033153594 0.10016182
0.028185725 0.018381178 0.098893553
-0.016696692 -0.034983754 0.094906211
0.028047502 0.013685286 0.095772624
0.027803838 0.017011106 0.094797134
-0.01915729 -0.039134264 0.09094891
-0.014909595 -0.035410106 0.091195166
0.027867615 0.0079852343 0.091183543
0.028322816 0.011474907 0.091229558
0.029863179 0.015337408 0.088876247
-0.013617575 -0.035044074 0.086230308
-0.009729743 -0.036101758 0.0868361
0.029082358 0.0045031309 0.086411476
0.028324664 0.010539889 0.086822808
-0.0084902346 -0.035335422 0.082615703
0.029655218 0.0043679476 0.083120286
0.028218359 0.0091500878 0.083081156
-0.0074909329 -0.034787178 0.077837884
0.029859871 0.0033560991 0.07855171
-0.0026135743 -0.036778688 0.074304372
0.031297863 0.0011615157 0.073995054
0.00068712234 -0.036867082 0.070082814
0.032405823 -0.0038020611 0.070508033
0.032279968 0.00039309263 0.070994794
0.002409339 -0.03646028 0.064301655
0.0053291321 -0.036805272 0.065072343
0.031155229 -0.0057815313 0.065726325
0.0070333481 -0.035859823 0.060297534
0.0096812248 -0.034454584 0.058966681
0.032028258 -0.011167943 0.061957017
0.031796217 -0.0082818866 0.062779024
0.012582898 -0.033805966 0.056163624
0.015435934 -0.033544183 0.056154534
0.03286612 -0.012622476 0.05644159
0.017439693 -0.032570422 0.051807746
0.034127533 -0.01761806 0.052170679
0.033814669 -0.015457571 0.052575365
0.018755853 -0.032919407 0.046576515
0.02289933 -0.032861292 0.047389016
0.03397119 -0.019915283 0.04625769
0.034623444 -0.016207695 0.048298463
0.020530879 -0.032802343 0.043287829
0.024250031 -0.031934202 0.042736515
0.027512312 -0.031203806 0.042526945
0.033520699 -0.025841951 0.042610511
0.033845782 -0.021780789 0.042604491
0.025760144 -0.030977964 0.039111003
0.029410601 -0.030655026 0.038272455
0.032721877 -0.026700735 0.038381651
0.034244627 -0.023421943 0.038753971
0.030810922 -0.029732347 0.034457818
0.033217192 -0.026753843 0.034944579
-0.019583553 -0.033828676 0.093738556
0.028026015 0.020460904 0.09348917
0.027830005 0.022212684 0.089884013
-0.019707918 -0.038172543 0.088767111
-0.019078553 -0.034293711 0.089343131
0.028672159 0.018372357 0.089139879
0.029738009 0.021708488 0.088248432
-0.019919753 -0.040207028 0.086636603
-0.017092586 -0.034323394 0.084089875
-0.014280021 -0.034157693 0.085781485
0.028321981 0.013022602 0.083780438
0.029859692 0.016865909 0.085638702
-0.015360564 -0.036317706 0.080550402
-0.012014747 -0.034961522 0.080538452
0.028350085 0.011420846 0.080123425
-0.013187408 -0.038526475 0.076184928
-0.010080606 -0.035934865 0.075763226
0.029928923 0.0054587722 0.075846076
0.028745025 0.010250866 0.074082434
-0.01219517 -0.037385523 0.071429938
-0.0077730417 -0.03588748 0.071510047
-0.0049835443 -0.034374416 0.06929028
0.030020297 0.0060805082 0.072144657
-0.007435292 -0.034870386 0.066861436
-0.0031590462 -0.034510195 0.066354766
0.03066197 0.0032847524 0.067836508
-0.00097084045 -0.035782516 0.062089607
0.030055344 -0.0020939708 0.062107131
0.0011361837 -0.035868704 0.057881489
0.0040892959 -0.036110699 0.058138385
0.030658692 -0.0085329413 0.05800797
0.030853868 -0.0061041713 0.058220848
0.0066959858 -0.035666943 0.054030076
0.010306537 -0.033839345 0.054056212
0.0074579418 -0.035573304 0.050474539
0.011184573 -0.033982694 0.049610183
0.01377368 -0.032760322 0.048146948
0.032850713 -0.01278317 0.050197557
0.013024002 -0.033888876 0.044624522
0.015828937 -0.033904016 0.045249745
0.033759475 -0.015982389 0.046120241
0.018198311 -0.033354402 0.040827051
0.022592425 -0.032338142 0.040241554
0.033204168 -0.017924607 0.041118369
0.033219039 -0.016622007 0.038878962
0.02037245 -0.032886922 0.036897883
0.024112284 -0.03195554 0.036618009
0.033635676 -0.020071864 0.036062673
0.033683807 -0.016967595 0.03733547
0.026028812 -0.032142162 0.032566682
0.029546976 -0.03038013 0.032389536
0.033049285 -0.025983095 0.031887576
0.034535676 -0.02262646 0.03221558
0.025781929 -0.031896412 0.028466597
0.030440629 -0.030556023 0.029117867
0.033156544 -0.027427018 0.029058978
0.034419924 -0.023190379 0.028700456
0.028670132 0.023865998 0.089681208
-0.021975577 -0.034949183 0.085427701
-0.021286368 -0.032433629 0.086113691
0.030476004 0.022206247 0.085394561
-0.021710664 -0.034818351 0.08193329
-0.019919187 -0.034491062 0.082391351
0.028976619 0.018122077 0.081662238
0.029793918 0.022378683 0.080415606
0.028120846 0.013217688 0.07747373
0.028506279 0.017871082 0.077150524
0.030858159 0.021723807 0.078560889
0.029277563 0.012381136 0.073631376
0.029022872 0.016406178 0.072830528
-0.013313442 -0.036539912 0.069036841
-0.010653019 -0.034873605 0.067612931
0.029460669 0.010813713 0.06915012
0.031195521 0.016117632 0.069579363
-0.014276415 -0.036563873 0.065151855
-0.0095469356 -0.034792423 0.064136609
-0.0057212412 -0.034068942 0.064493403
0.027367175 0.0062057376 0.062308624
-0.0078415871 -0.035180032 0.060240462
-0.0046421587 -0.034871221 0.06060122
0.028418422 0.0033702254 0.059909269
-0.0061501861 -0.036135852 0.055075869
-0.0025319159 -0.035573661 0.056114331
0.029674649 -0.0013656616 0.056366012
0.028727949 0.0028530955 0.055655673
-0.0046070516 -0.037154377 0.051683649
-0.00099474192 -0.035487115 0.051179096
0.0024418235 -0.034559608 0.051152483
0.00038793683 -0.035732448 0.046885863
0.004624933 -0.034425616 0.047097906
0.0063447356 -0.034037828 0.042701676
0.0099308491 -0.033709347 0.043484822
0.0075718164 -0.033999324 0.039099529
0.011276007 -0.033321023 0.038359478
0.015109003 -0.032842815 0.037738815
0.013191819 -0.033507049 0.033973441
0.017223716 -0.033196926 0.034692928
0.014921099 -0.034170389 0.030774519
0.018161237 -0.032848477 0.029669896
0.021963358 -0.031467795 0.030226931
0.03331551 -0.017878771 0.030179128
0.019810021 -0.032598078 0.025888249
0.023079813 -0.030798435 0.025022283
0.027506709 -0.028760195 0.025091603
0.032165706 -0.025698304 0.025500551
0.034190029 -0.020976245 0.02571626
0.024559587 -0.030559719 0.02202259
0.028243989 -0.028468907 0.020828761
0.031841666 -0.025154889 0.021035023
0.033781201 -0.022438943 0.021752879
0.029875159 -0.028763771 0.017835118
0.032134354 -0.026345789 0.017848946
0.028709292 0.021243691 0.075358093
0.029241294 0.018606246 0.070919365
0.028897524 0.021957815 0.070733577
0.028026491 0.01293087 0.065914169
0.028931737 0.017296374 0.065813437
-0.014640749 -0.037062049 0.062482938
-0.012827307 -0.035399735 0.06257613
0.027197421 0.0090492964 0.063201591
0.027113348 0.011509001 0.061987057
-0.014642298 -0.0374856 0.058319405
-0.010902315 -0.035437882 0.058105007
0.027869284 0.0063815713 0.057909414
0.027530372 0.010338545 0.057952806
-0.013564646 -0.037654459 0.053665861
-0.0095835328 -0.036977887 0.05418478
0.028300405 0.0060260892 0.053175583
-0.0078549087 -0.037159145 0.049371257
-0.0037252903 -0.036992133 0.048905179
0.028267175 0.0019307733 0.049431875
-0.0063830614 -0.036699474 0.045469925
-0.0022509694 -0.036537647 0.045015171
0.028622985 -0.0011823177 0.043841824
0.028209478 0.0027778149 0.045495644
-0.00050520897 -0.036031246 0.041497007
0.0030277967 -0.03457588 0.041087016
0.0045930147 -0.034306884 0.036923006
0.0078005195 -0.033882439 0.036392227
0.0063082874 -0.034013391 0.032219216
0.0098280013 -0.033952415 0.032279238
0.01191926 -0.034486949 0.028206393
0.014877439 -0.033651769 0.027818605
0.013850808 -0.034256637 0.023012325
0.017113447 -0.033561528 0.023753479
0.020437658 -0.032029212 0.022843018
0.032946229 -0.015871227 0.021971121
0.018299371 -0.033169329 0.019339211
0.022793233 -0.031597197 0.01965607
0.025452554 -0.029776216 0.018374629
0.033717126 -0.019887209 0.019457914
0.033612698 -0.015788615 0.016603507
0.020437777 -0.033292174 0.01396779
0.023830444 -0.032488525 0.014977463
0.028063834 -0.0297153 0.015411682
0.032069623 -0.0257864 0.015147336
0.033598006 -0.0213992 0.014815785
0.025021344 -0.032226741 0.010477521
0.0291574 -0.030676484 0.010772504
0.032220125 -0.026938856 0.010862954
0.033454806 -0.022907794 0.011551537
0.029658347 -0.030026138 0.0062324181
0.032296091 -0.027773559 0.0065792575
0.02630794 0.020529687 0.061297581
0.02789101 0.022158623 0.063139006
0.026585758 0.016105175 0.060288116
0.026576936 0.018390357 0.058390334
-0.019259661 -0.036758065 0.053617492
-0.017310709 -0.036730349 0.055167243
0.027027667 0.013856351 0.054444954
0.027717739 0.01578337 0.054087207
-0.017121792 -0.038722992 0.048542932
-0.015737534 -0.036929965 0.049916849
0.02761966 0.0085017085 0.048990175
0.027712733 0.011328757 0.051068917
0.028251469 0.015742421 0.050622061
-0.012684166 -0.03694582 0.046745762
-0.010082662 -0.036512077 0.045666799
0.027136296 0.0068429708 0.046595976
0.028138965 0.0091235638 0.045766935
-0.0086762309 -0.035545886 0.041868582
-0.0049107671 -0.03429836 0.040324673
0.028186411 0.004226625 0.041817173
0.028926104 0.0080248117 0.042247191
-0.0026929975 -0.034326315 0.036898658
0.028159499 -0.00019049644 0.038553879
0.028597295 0.0025963187 0.036492899
-0.00091311336 -0.034000874 0.032775864
0.0020219386 -0.033383369 0.033249304
0.027685136 -0.0037961006 0.032700017
0.00095629692 -0.03484112 0.029643968
0.0042288899 -0.03355962 0.029007122
0.02816385 -0.0047079325 0.026677057
0.0061081052 -0.033607423 0.02403681
0.0085270405 -0.032989204 0.02434127
0.0079128742 -0.034358919 0.02085162
0.010560453 -0.033428371 0.020180888
0.031016409 -0.0097997785 0.018242188
0.012762427 -0.033643365 0.016491629
0.016091347 -0.032808721 0.015271224
0.032449722 -0.01456964 0.018546261
0.017976463 -0.033722401 0.011305161
0.032846212 -0.017949462 0.011447348
0.033233702 -0.015462697 0.012599535
0.020203084 -0.033501446 0.0075128153
0.023551732 -0.032569408 0.0077778473
0.032381833 -0.023332715 0.0065923706
0.032320857 -0.019839406 0.006737031
0.025048792 -0.031860054 0.004714556
0.028666377 -0.028915942 0.0018859878
0.032203257 -0.025595069 0.0026170388
0.02776286 0.024287522 0.060650393
0.026413918 0.021925688 0.057273164
0.027902871 0.023364365 0.057328567
0.027512372 0.020647526 0.052536264
0.029262722 0.022848904 0.050610676
-0.019226462 -0.036187708 0.048879161
0.027501434 0.014497936 0.048003748
0.028763145 0.018369496 0.04814823
0.030315816 0.021792591 0.048531309
-0.016814291 -0.035829961 0.043607816
0.028584898 0.012665093 0.043979779
0.029600263 0.016743839 0.043414637
-0.015257329 -0.03457737 0.039591774
-0.011037111 -0.034446597 0.039163575
0.027964801 0.0071023703 0.039442226
0.029704422 0.01063925 0.039609686
0.03204751 0.014093578 0.039552197
-0.0096768439 -0.032843411 0.034490272
-0.0071411133 -0.033499599 0.035594538
0.028554142 0.0060363412 0.034994617
0.029746801 0.010283649 0.035804875
0.031954318 0.013533413 0.035995729
-0.0048698783 -0.033457696 0.030817315
0.026813179 0.00088721514 0.030482814
0.02777198 0.0042673945 0.031330451
-0.0022007823 -0.03441757 0.02650322
0.0009534359 -0.033433318 0.026075497
0.027646244 -0.0003234148 0.026229188
-0.00044548512 -0.034588933 0.021590926
0.0026508868 -0.034006298 0.022263214
0.028877646 -0.003747046 0.022322282
0.0044661164 -0.034136713 0.017892458
0.0075299144 -0.03338027 0.017567582
0.030235052 -0.0058175325 0.01752428
0.0063291788 -0.033942282 0.013551272
0.0097236931 -0.033730626 0.013187625
0.03164655 -0.0098316669 0.013796784
0.030200303 -0.0050106645 0.013471015
0.011377662 -0.033465743 0.0093233958
0.014281273 -0.032727242 0.0095435455
0.031360716 -0.011255622 0.0085272267
0.012697756 -0.032719076 0.0051496401
0.016283453 -0.032640994 0.0039797798
0.031205833 -0.015670061 0.0033999756
0.017206848 -0.032484114 0.0011188462
0.028502733 0.022237122 0.045017555
0.029179186 0.021575272 0.043604359
-0.016914576 -0.033998549 0.037287071
-0.01447314 -0.032469928 0.036410049
-0.015616655 -0.033893168 0.032743856
-0.013237745 -0.032217026 0.03303735
0.029111862 0.011588454 0.032526173
0.030418634 0.014841616 0.033175834
-0.013701588 -0.03498435 0.028167441
-0.011296988 -0.032643795 0.02825813
-0.0070216954 -0.032577753 0.027894363
0.027538866 0.0061461329 0.02814503
0.027125508 0.011307001 0.028800733
-0.010172576 -0.033430576 0.023763195
-0.0058681667 -0.033603191 0.024906561
0.027742386 0.006236136 0.02381663
-0.0050085485 -0.033640802 0.01983396
0.028456569 -0.00085479021 0.018938847
0.028484613 0.0028530955 0.019953825
-0.00196594 -0.033710003 0.015356638
0.001478076 -0.033435106 0.015330769
0.028726608 -0.00050711632 0.015149005
0.028236687 0.0028777719 0.015704371
-0.00055450201 -0.034498155 0.01058466
0.0032065213 -0.033626676 0.010847785
0.030101269 -0.0033501983 0.010337897
-0.00032868981 -0.035317719 0.0067758635
0.0041061342 -0.033671558 0.0064088479
0.0082803965 -0.032575548 0.0057728365
0.030775815 -0.0099910498 0.0059644058
0.029894054 -0.0047144294 0.0066216961
0.0051481426 -0.034012496 0.0012641922
0.0094592571 -0.032492399 0.0017414764
0.030412316 -0.010184348 0.0020872429
-0.018659979 -0.031663954 0.029076502
0.028415084 0.016878724 0.029941
-0.017258108 -0.033018768 0.0262575
0.027617246 0.013520896 0.026626118
0.027989656 0.015703142 0.02453623
-0.0154486 -0.034788609 0.02277942
-0.012987167 -0.033634305 0.02139885
0.026868403 0.013474882 0.022039063
-0.011823356 -0.032638848 0.01818309
-0.0073894858 -0.033248127 0.016703404
0.028044164 0.0069385767 0.018038817
0.027156174 0.0098394752 0.016736068
-0.0065418482 -0.032674432 0.012651302
0.028187037 0.0052400231 0.012605049
-0.0047226846 -0.033872724 0.0087989345
0.028990865 0.00023716688 0.0093054846
0.02792877 0.0047137141 0.0083100274
-0.0020039678 -0.034379244 0.0035177842
0.0015880167 -0.034700513 0.0044325069
0.029144794 -0.0026184916 0.0033735409
0.029083043 0.0010609031 0.0042868033
0.026396811 0.020876884 0.024153478
0.027081341 0.024195552 0.022046782
-0.017368138 -0.03183955 0.018265046
0.026807308 0.014171481 0.018947124
0.027471542 0.018871903 0.019517511
0.028275341 0.02203244 0.019708991
-0.016344666 -0.032686532 0.015118815
-0.013399512 -0.03141886 0.014630683
0.026744157 0.014051795 0.015163988
0.028358936 0.01818943 0.014361531
-0.013036907 -0.030297756 0.010951348
-0.010856837 -0.030547559 0.0087882653
0.026993275 0.011285245 0.010474771
-0.0089385211 -0.031829238 0.0056420639
0.028512895 0.0063881874 0.0065155998
0.028320074 0.010215998 0.006554544
-0.0057756305 -0.033887923 0.0018044189
0.028422564 0.0046588778 0.0013340488
0.028589457 0.02442956 0.019978195
0.028221428 0.017787397 0.012538493
-0.019372284 -0.030683637 0.0075799897
-0.015398562 -0.030862093 0.0087350681
0.027136058 0.014134586 0.0095539391
0.027606696 0.018636465 0.0084632933
-0.013589501 -0.03033638 0.0042342916
0.027504444 0.013744533 0.0040648878
-0.021378756 -0.027750671 0.0038971975
-0.017903864 -0.029554784 0.005814828
