# .PCD v0.7 - Point Cloud Data file format
VERSION 0.7
FIELDS x y z
SIZE 4 4 4
TYPE F F F
COUNT 1 1 1
WIDTH 1047
HEIGHT 1
VIEWPOINT 0 0 0 1 0 0 0
POINTS 1047
DATA ascii
-0.020100176 0.031443238 0.18153644
-0.023801506 0.029926836 0.1823597
-0.026841283 0.026340187 0.18176737
-0.021176577 0.033703387 0.1784302
-0.025209546 0.032310843 0.17928737
-0.029312491 0.028894246 0.17889419
-0.022562504 0.033918917 0.17544901
-0.02636373 0.032584071 0.17475817
-0.029479682 0.03042978 0.17590055
-0.0070903301 0.03169024 0.18356982
-0.011642814 0.028742015 0.18356082
-0.015853405 0.027948678 0.1840907
-0.020974517 0.026189506 0.18432209
-0.023844361 0.02201426 0.18379891
-0.026499987 0.017256558 0.18308493
-0.0080021024 0.033127427 0.18026844
-0.013208926 0.03193599 0.18066135
-0.018052399 0.030647933 0.18242291
-0.022094667 0.027210236 0.18330911
-0.026904643 0.023549676 0.18239579
-0.029334366 0.019013345 0.18054345
-0.031001806 0.015826702 0.17983112
-0.015282214 0.033935189 0.17675015
-0.018990219 0.033585489 0.17764473
-0.031201601 0.022697806 0.17672244
-0.016705513 0.034203827 0.17321745
-0.020573854 0.03428334 0.17234299
-0.024669588 0.033084035 0.17239532
-0.030007422 0.028423071 0.1727846
-0.031910062 0.02362144 0.17251161
-0.021906078 0.034743965 0.16800734
-0.026828825 0.033534825 0.16890797
-0.030310988 0.029999375 0.16843298
-0.031713605 0.026453793 0.16748703
-0.023244739 0.034353435 0.16387987
-0.026534081 0.032934129 0.16239622
-0.029984832 0.030679584 0.16305804
-0.031741917 0.026597381 0.16399068
-0.028205156 0.032869458 0.15892375
-0.00014382601 0.028966427 0.18405294
-0.0037922263 0.02678436 0.18494388
-0.0070778728 0.024359286 0.18457457
-0.0095770359 0.021903455 0.18404797
0.0022472143 0.033197641 0.18090865
-0.0012176633 0.03237313 0.18211764
-0.0040753484 0.029479146 0.18442938
-0.009436667 0.028423965 0.18418097
-0.014691055 0.02442199 0.1841608
-0.017625928 0.022238076 0.18416271
-0.021419764 0.018400133 0.18390554
-0.025253475 0.014633715 0.18367431
-0.028948784 0.01147908 0.18225732
-0.030927479 0.008905232 0.18103245
-0.0025635362 0.033761203 0.17835057
-0.0064072013 0.033662736 0.1774323
-0.031831443 0.013689697 0.17837983
-0.03344202 0.0098414421 0.17723057
-0.03531605 0.0070928335 0.17763406
-0.0042277575 0.034072638 0.17509326
-0.0078743696 0.033428311 0.17387882
-0.011599481 0.032605827 0.17326882
-0.032783806 0.0157547 0.17438042
-0.034124553 0.013633847 0.17307106
-0.0091617107 0.033489585 0.16927531
-0.01381886 0.032518744 0.16938713
-0.0318138 0.021154702 0.16857436
-0.032681465 0.017602205 0.16980448
-0.034690022 0.014003038 0.1702475
-0.010938168 0.033525944 0.16616392
-0.015061438 0.033526659 0.16505527
-0.019512117 0.034608483 0.16519725
-0.03143394 0.022125006 0.16541445
-0.017148912 0.033804536 0.16218638
-0.020351887 0.033541918 0.16100448
-0.024516642 0.03368932 0.15989649
-0.030802906 0.027863979 0.16071945
-0.031310737 0.024465859 0.16024223
-0.022967815 0.03335464 0.15609473
-0.026246428 0.033615828 0.15699548
-0.029928565 0.029943526 0.15640756
-0.031084239 0.026453197 0.15692827
-0.024248719 0.03438133 0.15236354
-0.02726227 0.034554601 0.15224713
-0.02956146 0.03091985 0.15281981
-0.027657092 0.033731699 0.14829087
0.010165155 0.030635118 0.18252036
0.0075365901 0.029425144 0.18271175
0.0029891133 0.027416646 0.18382114
-0.00126791 0.026583433 0.1851683
-0.006654799 0.02096504 0.18476498
-0.0095313787 0.017644525 0.18386501
-0.01276809 0.014927864 0.1836378
-0.01693058 0.011868715 0.18365017
-0.021360993 0.0094819069 0.18388426
-0.025879979 0.0070778728 0.1833736
-0.029501975 0.0026400685 0.18293288
-0.031676769 0.00064325333 0.18359563
0.0095508099 0.032701969 0.18043572
0.0058232546 0.031766355 0.18002382
-0.031520307 0.0057245493 0.18129787
-0.034119904 0.0020738244 0.18045184
0.0038458109 0.032905459 0.17616335
0.00038206577 0.032931566 0.1749911
-0.033982098 0.00757128 0.17749864
-0.035476148 0.0053271651 0.17669645
0.0027913451 0.033339083 0.17248896
-0.001257658 0.033264399 0.17147496
-0.0055731535 0.033654928 0.17120233
-0.034579456 0.0093924403 0.17232797
-0.0032228231 0.034034371 0.16680151
-0.0071163177 0.033240736 0.16682616
-0.032489896 0.013778627 0.16668352
-0.034037173 0.011478126 0.16713431
-0.0047854781 0.034413397 0.16309214
-0.0087936521 0.033658803 0.16283184
-0.012502611 0.034051061 0.16204554
-0.031338334 0.01888293 0.16480005
-0.031460226 0.016590953 0.16418684
-0.0094745755 0.033618331 0.15897766
-0.013604641 0.032650232 0.15803695
-0.017516792 0.031680584 0.15782565
-0.030272126 0.018205762 0.15901178
-0.015541196 0.033287108 0.15415829
-0.019365132 0.032998979 0.15441853
-0.031305611 0.025118053 0.15479344
-0.016902506 0.034878433 0.14934245
-0.020570457 0.03472048 0.14986801
-0.024848938 0.034883022 0.1495558
-0.029789686 0.027618825 0.15004265
-0.030756295 0.023800015 0.1506798
-0.02242893 0.035085261 0.14566141
-0.026447237 0.033487439 0.14561635
-0.028827727 0.030157506 0.14515081
-0.024100184 0.034411371 0.14146963
-0.027555048 0.033149064 0.14109194
-0.029308796 0.031757176 0.14106679
-0.0093573332 0.0050671697 0.18735689
0.019173086 0.029199123 0.18349788
0.015404642 0.026919901 0.18363205
0.010901809 0.024511099 0.1838713
0.0070688725 0.021613777 0.18424311
0.0035305619 0.019642889 0.1840308
-0.0053497553 0.012817442 0.18398187
-0.0084509254 0.0075924397 0.18477455
-0.012239218 0.005890429 0.18535995
-0.015234351 0.0033727884 0.1854926
-0.020562768 0.00050449371 0.18374217
0.018420696 0.031828761 0.18125734
0.01307559 0.030940533 0.18238381
0.0087343454 0.027156413 0.18342623
0.0062123537 0.025701642 0.18353441
-0.010468483 0.011968136 0.18472818
-0.014601588 0.0087921619 0.18470547
-0.018166661 0.0061228275 0.18470359
-0.022531688 0.0031368136 0.18363523
-0.026632965 -0.00027304888 0.18316779
0.016342163 0.032145739 0.17696396
0.012012541 0.032305121 0.17742243
0.01443851 0.033040524 0.17316404
0.010950506 0.032247841 0.1730828
0.0072476864 0.032123864 0.17306352
0.0096825361 0.033172846 0.1679959
0.0052685738 0.032454908 0.16913006
0.0012714267 0.032200634 0.168663
0.0039859414 0.033693016 0.16454288
0.00012165308 0.033783615 0.16549027
-0.03263402 0.006701827 0.1624555
0.0024009347 0.034066856 0.16072601
-0.0015638471 0.033419788 0.16008312
-0.0058233142 0.033405781 0.15943182
-0.030791759 0.012126088 0.16095716
-0.032263994 0.0087859035 0.16032821
-0.0028817654 0.032536566 0.15572071
-0.0078977942 0.033601165 0.15600938
-0.029521525 0.015225947 0.15490538
-0.035548627 0.0077651143 0.15639147
-0.0083821416 0.033185184 0.15144926
-0.012051761 0.032836676 0.15182209
-0.030168474 0.019196272 0.15152678
-0.0099383593 0.033254445 0.14732271
-0.013949037 0.033660173 0.14733601
-0.028730989 0.025156021 0.1467438
-0.029651463 0.021406829 0.14629865
-0.015811086 0.033766985 0.1427173
-0.019938767 0.03413552 0.14294058
-0.029131293 0.025706708 0.14270198
-0.029229105 0.02173835 0.14348578
-0.020746171 0.03334856 0.13880596
-0.025778472 0.032710969 0.13819677
-0.0301494 0.028610885 0.13841102
-0.022723913 0.032914162 0.13440183
-0.025892854 0.03213346 0.13351566
-0.029210865 0.029914916 0.13385126
-0.031305552 0.026950359 0.13375154
0.025288641 0.02516973 0.19050762
0.027666807 0.032788754 0.18737656
0.025882542 0.029349029 0.18854693
0.023352385 0.02514112 0.18781123
0.020151258 0.021986842 0.18743202
0.016740799 0.018488407 0.18738964
-0.0062692165 0.0032994747 0.18635306
-0.010476887 0.0020869374 0.1868284
-0.012825549 0.00018554926 0.18679193
0.027563691 0.033110201 0.18405026
0.024947405 0.031019986 0.18439758
0.020870566 0.028341055 0.18448994
0.017319441 0.024339974 0.18502483
0.013678849 0.021396935 0.18470737
0.009827137 0.018407106 0.18406782
0.0058729649 0.014733255 0.18388858
0.0017764568 0.011145592 0.18299216
-0.0016774535 0.0081812739 0.1831502
-0.0055828691 0.006054461 0.18487448
-0.010801375 0.0042977929 0.18591306
-0.015376747 3.8981438e-05 0.18519628
-0.018244922 -0.0034185052 0.18410727
-0.021794736 -0.0062236786 0.18362346
-0.0258919 -0.0084742308 0.18340456
0.027335286 0.033931851 0.18040437
0.023991883 0.032357037 0.17950872
0.022067368 0.032715797 0.17496678
0.018791378 0.032679141 0.17547843
0.020338714 0.033890903 0.17068404
0.017239511 0.033591509 0.17121893
0.013866305 0.032511294 0.17057505
0.016140699 0.033837974 0.1673885
0.01261735 0.032948911 0.16631243
0.0093812346 0.033425152 0.16245705
0.0059537888 0.034375489 0.1621381
0.0079795122 0.034441411 0.15863094
0.0050417781 0.033738732 0.15760458
0.00095415115 0.033465087 0.15750176
-0.029302061 0.01009208 0.15728235
-0.032922149 0.007204771 0.15754101
-0.034055591 0.0052694678 0.15925357
0.0030993223 0.03417778 0.15366462
-0.0012682676 0.033135056 0.15346983
-0.03016454 0.010942101 0.1538139
-0.033027887 0.0083665252 0.15368906
-0.035350323 0.0066702962 0.15448046
0.0017133951 0.033329666 0.14949203
-0.0023151636 0.033691466 0.1492548
-0.006090343 0.033003747 0.14900929
-0.028737545 0.015560389 0.15015841
-0.030250371 0.012930691 0.14952457
-0.032188356 0.01024431 0.14857507
-0.0033454299 0.033760548 0.14549077
-0.0074576735 0.032828271 0.144472
-0.011429965 0.032165706 0.14419493
-0.030103087 0.017430663 0.14631313
-0.030674815 0.014662623 0.14483336
-0.010685444 0.033232391 0.1412009
-0.013122678 0.033351839 0.14001566
-0.029852152 0.020166695 0.14045325
-0.030583441 0.017041504 0.14158845
-0.014719725 0.033015132 0.1366871
-0.01860714 0.032592416 0.13597721
-0.03065002 0.022692382 0.13622573
-0.019928336 0.032734394 0.13152924
-0.023351073 0.032364666 0.1317389
-0.029673398 0.027913332 0.13129577
-0.031295538 0.024434984 0.13137376
-0.021562278 0.033072233 0.1272985
-0.025563121 0.03191781 0.12761861
-0.029505908 0.028571188 0.12770754
-0.026935756 0.031995773 0.12358797
-0.029326499 0.030304611 0.12401886
-0.0036967397 -0.0038226843 0.18719754
-0.017208993 -0.014922857 0.18771836
-0.020735681 -0.015739918 0.18854097
0.019905925 0.018999994 0.18846333
0.017011821 0.017177701 0.18651125
0.014273465 0.011814654 0.18518427
0.01048243 0.0097540021 0.18524644
0.005071044 0.006003201 0.1846278
0.0016824007 0.0035700798 0.1845744
-0.0015912056 -8.046627e-06 0.18570152
-0.0061305165 -0.0022470951 0.18649337
-0.010239542 -0.0064834356 0.18569675
-0.015114844 -0.0088229179 0.18461025
-0.018123806 -0.011686862 0.18560886
-0.022788644 -0.014157236 0.18570375
-0.025117338 -0.017457306 0.18623987
0.013776779 0.017157078 0.18455145
0.011769533 0.014472306 0.1842573
0.0079162121 0.012320757 0.18443719
0.0057797432 0.0099058747 0.18423387
-0.00061815977 0.0060693622 0.18370155
-0.020694733 -0.0099167228 0.18421981
0.029455721 0.032540083 0.17677942
0.026857495 0.032161236 0.1766673
0.028827965 0.033163309 0.17208463
0.025176346 0.032038152 0.17279598
0.028630972 0.033633828 0.16897383
0.023966908 0.032769263 0.168116
0.02066499 0.032501161 0.16715333
0.023095906 0.033125758 0.16325182
0.018529236 0.032417059 0.16410837
0.016963482 0.033238411 0.15954199
0.012894988 0.032521725 0.16002989
0.015324891 0.033920467 0.15537792
0.011374891 0.033343554 0.15526456
0.0071263909 0.033586979 0.15466976
0.010358751 0.033428431 0.15065196
0.0061123967 0.033550918 0.15142989
0.007545352 0.034092784 0.14607912
0.0040717721 0.034105062 0.14690384
0.00056034327 0.033105433 0.14574578
-0.032305539 0.0066719055 0.14656994
-0.033993721 0.0039947033 0.14477193
0.00305444 0.034543276 0.14189416
-0.0012186766 0.032932401 0.14199728
-0.0052467585 0.032112956 0.14121693
-0.031051159 0.011956275 0.14213735
-0.033056378 0.0093216896 0.14271894
-0.035265326 0.0064733624 0.1434164
-0.0025824308 0.033266723 0.13795179
-0.0072793365 0.032260001 0.1385535
-0.030880928 0.013001442 0.13805878
-0.032771349 0.00984478 0.13752687
-0.0043437481 0.033836365 0.13518864
-0.0078576803 0.033127904 0.13338917
-0.012453437 0.031936884 0.13364333
-0.030513346 0.018396258 0.13486412
-0.031579256 0.014287651 0.13384041
-0.0093718767 0.032628536 0.1295957
-0.013974607 0.032273948 0.12963182
-0.017172396 0.032152474 0.1286211
-0.030425012 0.019714594 0.12808263
-0.015585005 0.032312453 0.124557
-0.019041538 0.032481253 0.12508431
-0.030373812 0.022339463 0.12530366
-0.020759404 0.032553554 0.12091751
-0.025119662 0.032052636 0.12035743
-0.02915895 0.02856189 0.12052441
-0.030221164 0.024180532 0.12064005
-0.025541425 0.031975329 0.11560307
-0.028696418 0.028357506 0.11599258
0.0171417 0.0064969063 0.18630913
0.013853788 0.0055986643 0.18630186
0.010198712 0.0010771751 0.18586555
0.0052626729 -0.0016098619 0.18662193
0.0016670823 -0.0047603846 0.18753675
-0.0016832948 -0.0076336265 0.18744645
-0.0051626563 -0.009866178 0.18599328
-0.011348844 -0.016092241 0.18560201
-0.013735414 -0.016279936 0.18774971
0.015927315 0.009599328 0.18536165
0.011347771 0.0051687956 0.18434444
0.0087581873 0.0045077801 0.18481055
0.0046645403 0.00043147802 0.18517575
-0.007828474 -0.0096576214 0.18498918
-0.011187255 -0.013071001 0.18476728
-0.014416456 -0.012875497 0.18540552
0.031261623 0.029504955 0.17358738
0.029770195 0.031635106 0.16665769
0.027774274 0.031167328 0.16458794
0.02732414 0.0333215 0.16291541
0.023620844 0.033679247 0.16142094
0.022780478 0.033520281 0.15747371
0.022075415 0.033653378 0.15466979
0.017973721 0.03264606 0.15268683
0.015486181 0.032848239 0.14889175
0.012807429 0.033209145 0.14823136
0.014975905 0.03228426 0.14471549
0.010739267 0.033622503 0.14464679
0.0089012384 0.033330619 0.13999704
0.0062211752 0.033909857 0.13949737
0.0036218166 0.033370435 0.13625312
0.00023627281 0.032817781 0.13478088
-0.032552838 0.0075477362 0.13518193
-0.0017811656 0.032244146 0.13110685
-0.005155921 0.032576084 0.13019365
-0.030856907 0.014195502 0.13044971
-0.032925427 0.0091356635 0.13135684
-0.0036991835 0.032069266 0.12647766
-0.0067486167 0.031943858 0.12662023
-0.010178864 0.03197819 0.12717617
-0.030290484 0.013164759 0.12731677
-0.0086629987 0.031508863 0.12425358
-0.012397587 0.031141639 0.12260995
-0.029742837 0.018747449 0.12198377
-0.029992402 0.016443133 0.12049297
-0.014198363 0.031295598 0.11865086
-0.017631412 0.031431735 0.11799753
-0.029841065 0.020032525 0.11757726
-0.019929767 0.03208065 0.11391676
-0.028676748 0.027527034 0.11328164
-0.029518962 0.02334249 0.11339284
-0.021054685 0.031617463 0.11111758
-0.024967968 0.030746579 0.10936508
-0.027902246 0.027656674 0.10933316
-0.025957823 0.029966772 0.1052678
-0.029060423 0.029004693 0.10442335
0.020247042 0.0014048219 0.18799365
0.018052697 -0.0016681552 0.18780461
0.01433897 -0.0043016672 0.18783805
0.010055363 -0.0071156025 0.18793011
0.0040258765 -0.0094090104 0.18907547
0.00048732758 -0.012431383 0.18898454
-0.0029624701 -0.016649365 0.18797383
-0.0053861141 -0.01975137 0.18750951
0.019543648 0.0041754842 0.18646845
0.015971005 0.0012547374 0.18640772
0.012546718 -0.0018686056 0.18678567
0.0079106092 -0.0042073727 0.1870558
0.0055462718 -0.0058956742 0.18810299
-0.0011578798 -0.012798786 0.18764701
-0.0038589239 -0.014484107 0.18618086
-0.0078038573 -0.017218173 0.1857906
-0.010256946 -0.01803571 0.18724963
0.031093717 0.030164123 0.16443542
0.027914166 0.033451498 0.15465176
0.026210666 0.032465219 0.15610045
0.027021885 0.034714162 0.15076244
0.023763657 0.032877266 0.15093154
0.02090764 0.031943142 0.15127358
0.026269794 0.034995079 0.14655149
0.022906542 0.033467948 0.14572105
0.018765748 0.03232497 0.14688474
0.022467852 0.033522367 0.14184061
0.017295063 0.0328058 0.14196774
0.013378918 0.032383382 0.1408456
0.016244471 0.032673359 0.13762563
0.012352109 0.032548249 0.13739157
0.010499895 0.033207715 0.13334051
0.0056959391 0.033251703 0.13350445
0.009675622 0.033462524 0.12959456
0.0049845576 0.032862782 0.12872064
0.0013319254 0.031943858 0.12912399
-0.031528831 0.0051265955 0.12777075
-0.033058703 0.0042304993 0.12946251
0.0035485029 0.032628834 0.12355418
-0.0012468696 0.032615781 0.12486006
-0.0055940151 0.031852961 0.12363125
-0.029883265 0.011008143 0.12330998
-0.030676365 0.0080147982 0.12362353
0.0015141964 0.033286512 0.11914174
-0.0019025207 0.033656836 0.12008471
-0.0069569945 0.032265544 0.12085424
-0.010596573 0.030929029 0.11968172
-0.029912233 0.012485802 0.12000487
-0.003641367 0.034206688 0.11613054
-0.0076699853 0.032958925 0.11613072
-0.012451351 0.031709194 0.11660234
-0.01559937 0.030005157 0.11573214
-0.029728174 0.017873347 0.11521289
-0.030531287 0.015010715 0.11582453
-0.0093904734 0.033290982 0.11169586
-0.01358825 0.032202303 0.1116998
-0.016634047 0.031291962 0.11234502
-0.030001223 0.019210398 0.11164663
-0.014443696 0.030627429 0.10748214
-0.018313229 0.031169415 0.10685525
-0.021954477 0.030890465 0.107835
-0.029254794 0.025424361 0.1078311
-0.030308545 0.022100806 0.10696889
-0.020453095 0.031291783 0.10299487
-0.024684668 0.030917406 0.10329912
-0.029929161 0.027380228 0.10334895
-0.031440735 0.02535218 0.10344959
-0.024536073 0.030560911 0.099349357
-0.028413832 0.028349042 0.099588223
-0.030723274 0.024457157 0.099658974
0.019043505 -0.0062440634 0.18870828
0.01601696 -0.0086347461 0.1886771
0.01192987 -0.0090244412 0.18775877
0.031157434 0.030998051 0.14722782
0.027964413 0.034710884 0.14338717
0.025679469 0.034097135 0.14290622
0.027653337 0.034240603 0.13962498
0.02403903 0.032562673 0.13912177
0.021413505 0.031538427 0.13827616
0.026673615 0.034144938 0.13626957
0.022711337 0.031956553 0.13650039
0.019075096 0.032073438 0.13485792
0.016633093 0.032690704 0.13089877
0.013077676 0.032839715 0.13007104
0.014271736 0.033077478 0.12662643
0.011422217 0.033108771 0.12587923
0.0078520179 0.032125115 0.12539372
-0.030969799 0.001725018 0.12495435
-0.031847656 -0.00011056662 0.12458355
0.010189354 0.032461405 0.1219256
0.0068910122 0.031926036 0.1219802
-0.031189799 0.0043746233 0.12299762
-0.032349169 0.0015740991 0.12165061
0.0048089027 0.032389164 0.11756662
0.0018005371 0.032643259 0.11886496
-0.029787898 0.0086686611 0.12037355
-0.030965209 0.0059508085 0.11733205
-0.032371342 0.0030654073 0.11919434
0.0031473041 0.032060981 0.11343855
-0.00080400705 0.032923996 0.11354173
-0.030416131 0.011269927 0.11238519
-0.031841874 0.0080396533 0.11366428
-0.0024365187 0.032213032 0.10952307
-0.0056786537 0.032324851 0.10858751
-0.029844105 0.012610793 0.10899479
-0.0078190565 0.031817734 0.10497326
-0.011743426 0.030618012 0.10459778
-0.030339897 0.01641649 0.10587043
-0.013177991 0.030585468 0.10004801
-0.017293334 0.030200124 0.10031576
-0.020887852 0.029708982 0.098927923
-0.030670941 0.019926727 0.10302965
-0.01448679 0.031266034 0.096140809
-0.018334627 0.030329704 0.09515626
-0.023002326 0.029347301 0.095623918
-0.027068615 0.025929749 0.095075138
-0.029566288 0.02148217 0.096105762
-0.019981861 0.029432118 0.091941215
-0.023315072 0.028796375 0.091408916
-0.026937246 0.026844919 0.091410078
-0.025344849 0.028977752 0.087360151
-0.026998997 0.027377605 0.088066377
0.028705239 0.033573806 0.13645336
0.02595526 0.032154322 0.13583443
0.027824521 0.033234596 0.13282278
0.02439636 0.031893551 0.1327045
0.028414249 0.03266418 0.12893516
0.024310827 0.032246768 0.12796655
0.019201934 0.032668769 0.12833664
0.021731734 0.031364381 0.12435485
0.01819098 0.031800747 0.12390316
0.016285896 0.03201437 0.11928339
0.012083948 0.032927215 0.11975638
-0.033000052 0.00056517124 0.11854244
0.011629462 0.031959355 0.1148339
0.0078379512 0.031882405 0.11519403
-0.032645941 0.0017234683 0.11596052
0.010052264 0.031400025 0.11153061
0.0057151318 0.030827463 0.11075506
0.0012111068 0.031893671 0.11057005
-0.030777812 0.0057694912 0.10983343
0.0033951998 0.031703532 0.10665906
-9.6857548e-05 0.032305539 0.10649238
-0.029533863 0.0093576312 0.10658801
-0.030438304 0.0050920844 0.10654572
-0.0018067956 0.031939864 0.10224254
-0.0059392452 0.031695008 0.10214783
-0.0069143772 0.031602621 0.097615935
-0.010795295 0.031433105 0.098231085
-0.0084715486 0.031677127 0.093371518
-0.01292187 0.031609535 0.093850084
-0.028481543 0.021196842 0.09294311
-0.0095480084 0.03165853 0.089960374
-0.013346553 0.031934202 0.088779934
-0.017876029 0.030570388 0.089468129
-0.022598088 0.02891916 0.089111932
-0.028213322 0.024943829 0.089191236
-0.029090285 0.02223295 0.089849003
-0.015295625 0.031795502 0.084820397
-0.018624306 0.030619323 0.084222235
-0.0233199 0.029739916 0.084956683
-0.027539611 0.026367605 0.085120387
-0.020748734 0.031237125 0.079350628
-0.024436116 0.03037405 0.080050327
-0.027837098 0.026828229 0.079678543
-0.025239944 0.030486941 0.076365031
-0.027786553 0.028519452 0.076482333
0.028707027 0.032782137 0.12563488
0.025084913 0.030930996 0.12548837
0.027518988 0.032824039 0.12099481
0.024432123 0.032221973 0.12153093
0.021496534 0.031144559 0.1210608
0.023610353 0.032894552 0.11699606
0.019469917 0.031949461 0.11744726
0.022721291 0.03228277 0.11370481
0.017621219 0.032445371 0.11286024
0.013334334 0.031888425 0.11254141
0.016110539 0.033074677 0.10810328
0.012128949 0.031652987 0.10826159
0.0080223083 0.030405283 0.10797638
-0.031314075 0.00064897537 0.10743967
0.01513952 0.033131778 0.10336537
0.010989726 0.03239882 0.10347704
0.0063705444 0.03119123 0.10384233
-0.028332174 0.0074762702 0.10316271
-0.030385911 0.0039166808 0.103144
-0.031935751 0.00080263615 0.10348607
0.0098942518 0.032549143 0.099892087
0.0053631067 0.031953394 0.099588044
0.0014280081 0.031568408 0.10004423
-0.027748585 0.0075934529 0.099717565
-0.029014647 0.0040764213 0.099175729
-0.032216609 0.00035297871 0.1000622
0.0036241412 0.03165704 0.096024044
-0.00011259317 0.030998588 0.095307119
-0.0032160878 0.030637681 0.09632308
-0.0015538931 0.030247569 0.09071321
-0.005371511 0.03093642 0.090783067
-0.0078289509 0.03172487 0.086395748
-0.010789752 0.032062054 0.085947819
-0.028847933 0.018190622 0.086092748
-0.0090783834 0.032104731 0.081551351
-0.012922168 0.03198725 0.082402237
-0.028435767 0.01926589 0.081933148
-0.013538659 0.032191098 0.07771147
-0.017981708 0.031153142 0.078743435
-0.029578745 0.021087766 0.078037269
-0.014663756 0.032449603 0.074142762
-0.019386113 0.031761885 0.073386975
-0.023813605 0.030698955 0.07393945
-0.028562427 0.027268052 0.073538728
-0.030554056 0.023369193 0.073839851
-0.02072227 0.032123089 0.069459148
-0.024878681 0.030886889 0.068853416
-0.028378189 0.028101265 0.06934429
-0.026070833 0.029739618 0.064929433
-0.027929008 0.028310835 0.064913936
0.031038404 0.030059695 0.1242534
0.030487061 0.030187011 0.11947051
0.029111028 0.032577336 0.11447523
0.026502669 0.032159507 0.11330725
0.028837085 0.032626808 0.11011801
0.024280608 0.031856358 0.10986317
0.027466953 0.033377945 0.10624034
0.023667336 0.033150434 0.10542832
0.019904912 0.032513618 0.10614882
0.021566391 0.033641636 0.10108525
0.018146873 0.032517314 0.10156593
0.013319492 0.032866538 0.101225
0.016135335 0.032208979 0.097487815
0.011962235 0.031861603 0.096375741
0.0081142187 0.032092392 0.097256549
-0.029424667 0.0032528043 0.097544797
-0.031429231 -0.00032782555 0.096748121
0.010919392 0.031478822 0.092529483
0.0068186522 0.030250192 0.092743345
0.0025468469 0.030613184 0.092015155
-0.026801348 0.0062164068 0.092760332
-0.029155433 0.0032522082 0.093039878
0.0050401688 0.030615032 0.087751754
0.00097841024 0.03015101 0.087945439
-0.027385831 0.0082108378 0.088058867
-0.028620422 0.0066658258 0.086140878
0.00026684999 0.030569315 0.083780445
-0.0036063194 0.030348957 0.084527738
-0.028081596 0.01125735 0.083816983
-0.029875398 0.0081738234 0.081911214
-0.0013000369 0.031013906 0.080174901
-0.0050432682 0.030414045 0.079836018
-0.029500008 0.012296736 0.079893865
-0.032691061 0.0080267191 0.079207994
-0.0091627836 0.031156421 0.076972432
-0.010375142 0.031138361 0.073881514
-0.030338466 0.014247358 0.074005075
-0.01335454 0.031154156 0.070435412
-0.016970396 0.031452775 0.069853581
-0.030344427 0.020268619 0.06940303
-0.014932692 0.031172991 0.066876091
-0.018530011 0.031578779 0.066264607
-0.029290438 0.024685621 0.067349531
-0.029592991 0.022726357 0.066685297
-0.019910157 0.030961692 0.062471069
-0.023857236 0.030218661 0.062534608
-0.027815104 0.026760221 0.062062331
-0.029123783 0.022899032 0.062304206
-0.020270884 0.031986952 0.058936186
-0.02444154 0.029923081 0.05848176
-0.027178586 0.027362645 0.058568873
0.029227376 0.032544076 0.10776711
0.028374314 0.032926619 0.10419039
0.027431309 0.033373594 0.10008312
0.02462095 0.032785177 0.098646261
0.020213008 0.032369077 0.098472185
0.022029579 0.032731295 0.094244368
0.018325627 0.03226018 0.09448231
0.014781356 0.031812906 0.093760379
0.021158636 0.032328367 0.090593286
0.016927123 0.032740355 0.090377219
0.012853682 0.031972468 0.090443559
0.0089953542 0.030390501 0.089687087
-0.030188918 0.00049978495 0.091168739
-0.031104326 -0.0011777878 0.091245957
0.015576839 0.033315599 0.086719491
0.011923432 0.032412827 0.086227216
0.0080260038 0.030868471 0.086468853
-0.026409209 0.0057193041 0.086918719
-0.029439569 0.0030931234 0.086790152
-0.030707717 7.6413155e-05 0.086056061
0.010659277 0.031789899 0.082358487
0.0061857104 0.031271875 0.081742115
0.0017632842 0.030947983 0.081597783
-0.027544439 0.0072049499 0.083494253
-0.02998358 0.0043965578 0.082500644
-0.032093585 0.0019150972 0.081962712
0.0036686659 0.031928062 0.078357466
0.00025069714 0.03085655 0.077013083
-0.0050227642 0.029467821 0.076065637
-0.029331386 0.01072681 0.075853892
-0.031729877 0.0068356991 0.077558853
-0.033577621 0.0046096444 0.079915352
-0.00053822994 0.030561745 0.072365709
-0.00529778 0.029971957 0.07289324
-0.029394627 0.010315537 0.074002601
-0.001483202 0.031054735 0.068784662
-0.006598711 0.030421734 0.068470933
-0.010090292 0.030156255 0.06870801
-0.011285007 0.03005302 0.064255781
-0.029416561 0.020360947 0.064004309
-0.013094008 0.030440331 0.060297079
-0.017288327 0.030915916 0.060539611
-0.029279053 0.02027446 0.06046588
-0.014975429 0.031153202 0.057059772
-0.018448949 0.030899882 0.055654265
-0.023403883 0.029760778 0.055331118
-0.027683258 0.025781512 0.055486627
-0.028403819 0.02189821 0.055621363
-0.020244062 0.029908657 0.051132806
-0.023455083 0.029447138 0.051030852
-0.026274145 0.026273131 0.050603963
0.032140553 0.030798554 0.10423965
0.031673074 0.031423807 0.10287536
0.028507292 0.032880008 0.096544512
0.028423011 0.033000231 0.091930397
0.025359094 0.032386065 0.092689194
0.027584136 0.034028947 0.087522544
0.023968279 0.032541871 0.088231094
0.020001352 0.031756341 0.087853588
0.022737384 0.033226132 0.083656676
0.018083036 0.032639444 0.083362319
0.020774245 0.034208596 0.079371579
0.017711997 0.032428086 0.079123177
0.012703836 0.031639993 0.079038866
0.010804296 0.031605005 0.074804224
0.0070010424 0.031036317 0.074629404
0.0029854178 0.030271828 0.074158944
0.0060771704 0.031477869 0.070451863
0.0019593239 0.030674994 0.070707984
-0.0022274256 0.029371023 0.070091762
-0.028194904 0.0081854463 0.0694272
-0.030021071 0.0044582486 0.070061035
-0.032178521 0.0027931333 0.071989931
0.0044850707 0.031942129 0.066202559
-4.0531158e-05 0.031578779 0.066626854
-0.0033895969 0.030071914 0.066785969
-0.027484775 0.0076027513 0.066406377
-0.030374587 0.0046540499 0.066545136
0.0025883913 0.031973898 0.062770821
-0.00086581707 0.031634629 0.061532296
-0.0052444339 0.030213416 0.062589802
-0.0084730387 0.029719591 0.062455602
-0.027460098 0.011247933 0.059940346
-0.0031449199 0.031752825 0.057340987
-0.0063712001 0.031223297 0.057196058
-0.010719359 0.03035593 0.057444341
-0.028669834 0.016512454 0.056208409
-0.007548213 0.03171593 0.052913107
-0.012253761 0.030415773 0.052859046
-0.016249776 0.029886127 0.052127637
-0.028361142 0.019860327 0.053057648
-0.013817608 0.030169845 0.048439451
-0.017944276 0.030348241 0.048704989
-0.023584425 0.028984845 0.048253693
-0.027130067 0.024238884 0.048464783
-0.028345108 0.020914793 0.048198618
-0.018892288 0.030555427 0.044701852
-0.02324307 0.02852881 0.044282086
-0.026900649 0.025146902 0.044431783
-0.028238237 0.022847056 0.042766549
-0.023151457 0.028867424 0.040306635
-0.026508093 0.026547074 0.040384032
0.02892071 0.033185303 0.084590651
0.027909815 0.033927739 0.080597199
0.024255157 0.033322394 0.081225134
0.027375579 0.03465879 0.076895513
0.023352027 0.033168435 0.076189883
0.018649757 0.031563818 0.076227434
0.027913094 0.036270022 0.072995223
0.022838652 0.03327626 0.072541244
0.018477678 0.030516803 0.072773196
0.01444304 0.030026793 0.07230515
0.011515915 0.029531538 0.068930395
0.008656919 0.031460464 0.067834504
0.0072478652 0.03083688 0.064075865
-0.025466502 0.0036819577 0.06173826
-0.028488696 0.0041978359 0.062788047
-0.031131625 -0.00022047758 0.0636153
0.0051925778 0.03120631 0.059106804
0.0020396113 0.031295121 0.058732934
-0.02687037 0.0069454908 0.058119006
-0.029332936 0.0039897561 0.059444793
3.3855438e-05 0.030732572 0.05451519
-0.0034053922 0.031456411 0.053792186
-0.028301656 0.011683464 0.055093475
-0.0011165738 0.030785978 0.050505526
-0.0056672096 0.0306409 0.050108083
-0.009960711 0.029681861 0.049741186
-0.027779996 0.016451657 0.049776144
-0.028208613 0.012112916 0.050831683
-0.010780215 0.029825449 0.046332307
-0.027878046 0.015855372 0.046916701
-0.012653112 0.02992183 0.042680331
-0.016181588 0.029742539 0.041459866
-0.02837801 0.019605041 0.043262459
-0.018010199 0.028566837 0.038043417
-0.022537827 0.028487623 0.037561871
-0.026947021 0.02505672 0.037505694
-0.028128088 0.021461308 0.038612492
-0.023475051 0.027496815 0.033679582
-0.026379406 0.024600029 0.03419546
0.031687081 0.033450127 0.077907093
0.028948545 0.034592628 0.07442338
0.027607918 0.035131514 0.068923868
0.024212241 0.033419967 0.069915451
0.019719124 0.030112743 0.069933899
0.017344773 0.028638661 0.069608428
0.026797414 0.035388291 0.065993764
0.023258984 0.033262491 0.065835036
0.019107878 0.031298876 0.065733232
0.014571726 0.028821766 0.065823503
0.018493474 0.031666994 0.061655141
0.013692021 0.029312909 0.060751863
0.010095179 0.028745472 0.060285963
-0.025859535 0.0041104555 0.060257412
-0.031184435 -0.00099015236 0.060709156
0.012114167 0.02999711 0.056221224
0.0091248155 0.029857457 0.056584306
-0.027096987 0.0055431128 0.055882759
-0.029493749 0.0026015043 0.056143768
-0.032316864 -0.0017029047 0.056357332
0.0062006116 0.030817986 0.05266244
0.0022426844 0.030393004 0.052605964
-0.027922928 0.0064996481 0.052963652
-0.029457033 0.0032407641 0.052392937
-0.03243351 -0.00024455786 0.051943667
0.0049405694 0.031851768 0.049142011
0.00085180998 0.03061378 0.047915496
-0.0030106902 0.029204428 0.047488578
-0.028313518 0.0087889433 0.048222668
-0.029964924 0.0050090551 0.048014589
-0.00056958199 0.030068994 0.043770321
-0.0051347017 0.029283762 0.044600375
-0.027161777 0.013190985 0.042970248
-0.027654648 0.0098891258 0.044018514
-0.0060938001 0.029685855 0.039927222
-0.010345936 0.029597223 0.040246792
-0.027701259 0.017053723 0.039351471
-0.027126193 0.012246192 0.039899744
-0.0080331564 0.02951622 0.035750069
-0.011613905 0.029506743 0.035053946
-0.015821397 0.02826339 0.034945466
-0.019387066 0.027265847 0.033846296
-0.028127611 0.0179286 0.034772791
-0.012933493 0.029756248 0.029876985
-0.017018437 0.028619766 0.030079968
-0.021101594 0.027423382 0.030602135
-0.026087999 0.024060965 0.030412979
-0.027413666 0.019933999 0.029695816
-0.014662445 0.030038536 0.026327945
-0.018272698 0.029676199 0.025736995
-0.022508383 0.028198659 0.026228704
-0.02603364 0.025125623 0.026268281
-0.019518793 0.030077338 0.022460647
-0.023320258 0.027974665 0.022324659
-0.026137948 0.025782287 0.022740789
0.027809203 0.033427119 0.062635817
0.025461197 0.032008827 0.061587013
0.027740777 0.033840835 0.058099099
0.024261653 0.03197068 0.058375247
0.018752456 0.030541658 0.058511205
0.015792191 0.029261947 0.057982333
0.027347326 0.033951819 0.054704137
0.022794425 0.032393634 0.054965533
0.018568814 0.031296611 0.054262854
0.014473557 0.029752374 0.054652907
0.01767385 0.031489015 0.050015278
0.01329726 0.030274093 0.050059475
0.0088787675 0.030644417 0.049878754
-0.032544196 -0.0020231605 0.050542779
0.011766076 0.030642748 0.045973994
0.0071645379 0.030311882 0.045621432
-0.02968055 0.0022653341 0.044706292
-0.032250464 -0.00092768669 0.046880551
0.0065197349 0.029970586 0.04138393
0.0025629401 0.030064106 0.042159893
-0.027660608 0.0062847137 0.041234739
-0.027806938 0.0039092898 0.040622808
0.0047975183 0.03025353 0.037826307
0.00089681149 0.029500604 0.036604442
-0.0028889775 0.028880537 0.036905922
-0.027126551 0.0095592141 0.037012793
-0.00076085329 0.030555189 0.031837441
-0.0051291585 0.029668808 0.032579072
-0.0085867643 0.029862881 0.032469876
-0.027940035 0.010812819 0.03192354
-0.0029041171 0.03156054 0.02779419
-0.0061609149 0.030962169 0.027657308
-0.010659337 0.03071779 0.028364249
-0.027351558 0.015576363 0.027846314
-0.027487874 0.013098419 0.026851363
-0.007838726 0.031121314 0.024021186
-0.012093961 0.030680656 0.023973443
-0.01587981 0.029935539 0.023048706
-0.026963651 0.022151172 0.023262627
-0.027207315 0.019411683 0.024892516
-0.01291734 0.030886173 0.019127645
-0.017333746 0.029885709 0.019656189
-0.022183836 0.0275231 0.019190915
-0.026039779 0.023634076 0.01960618
-0.026473761 0.019808888 0.018461026
-0.014567673 0.030865908 0.01573918
-0.017757118 0.029248953 0.015615381
-0.021778464 0.026916802 0.01505933
-0.025011778 0.024329424 0.015834756
0.03050077 0.031769335 0.056530811
0.028999984 0.031909764 0.051217623
0.025319755 0.031597435 0.052006163
0.023622334 0.031109393 0.047539689
0.020259321 0.03164047 0.048278458
0.022361577 0.031171083 0.044342406
0.018518984 0.031030059 0.042966194
0.014830828 0.029452443 0.042547025
-0.030284941 -0.00265342 0.04293225
0.016011596 0.031583011 0.037381448
0.013055444 0.030130386 0.038047262
0.009586215 0.02973175 0.038929291
-0.028670251 0.0015379786 0.03903044
-0.029481471 -0.0016260743 0.03950391
0.010901928 0.031710267 0.033916391
0.0072581768 0.030477405 0.034162767
0.0041205883 0.029550254 0.033838667
-0.027169526 0.0069571733 0.03416393
-0.028046846 0.0022255182 0.033659406
0.0096891522 0.031939149 0.030392893
0.0059552193 0.031061709 0.029625185
0.0021210313 0.030225456 0.029602356
-0.028544486 0.008720994 0.029887177
-0.029503345 0.0036618114 0.02951435
0.0043041706 0.031064391 0.026242413
0.00064074993 0.030662417 0.025625356
-0.0026367903 0.030269921 0.024443038
-0.027487338 0.009023726 0.025750257
-0.032045901 0.0039212108 0.026253827
-0.00076216459 0.02946955 0.021687843
-0.0051303506 0.030096829 0.021283813
-0.026727855 0.014612556 0.021335132
-0.027375937 0.011370242 0.021533467
-0.0073242784 0.029972374 0.017129011
-0.0098276138 0.030462205 0.016773917
-0.02701062 0.01603955 0.016398855
-0.012126207 0.029970825 0.012718804
-0.016939342 0.028428614 0.012515433
-0.020662248 0.026161551 0.012007006
-0.02532649 0.02249217 0.012661584
-0.027379692 0.018082857 0.013242759
-0.013118088 0.029982686 0.0093660727
-0.016722679 0.028704524 0.0085550025
-0.021309376 0.026074111 0.0083303824
-0.025363326 0.022690237 0.0085725859
-0.027279317 0.019014597 0.0091977492
-0.021121264 0.026967883 0.0042125359
-0.024408281 0.024640024 0.0042703822
0.028461039 0.032427728 0.045444734
0.025749862 0.031154096 0.045500077
0.028198957 0.033187985 0.040710635
0.024153829 0.031553209 0.040718652
0.019906282 0.03152132 0.039802976
0.022234261 0.031807125 0.037412949
0.019319773 0.031494021 0.036122717
-0.029380262 -0.0031134486 0.035261668
0.017587721 0.032203138 0.031880714
0.013430774 0.031147063 0.03209848
-0.029362023 -0.00032752752 0.031853922
-0.029574454 -0.0032205582 0.033463009
0.016535401 0.032271326 0.028421201
0.012316287 0.031430602 0.027185328
0.0081959367 0.030771494 0.027642109
-0.030474663 0.0026150942 0.027042188
0.011531889 0.031771302 0.024281032
0.0066363811 0.030554593 0.023269065
0.0027096868 0.029885173 0.022596337
-0.027075112 0.0074872971 0.02345378
-0.029124022 0.0038005114 0.023233838
0.0057386756 0.030237377 0.0190363
0.0010846257 0.028755486 0.018964745
-0.0018859506 0.027180791 0.017403014
-0.027976811 0.0082086325 0.019097276
-0.029983222 0.0049189329 0.018966474
-0.00079888105 0.028194368 0.015647806
-0.0037395358 0.028529644 0.014894016
-0.027251124 0.011155546 0.01497943
-0.0063622594 0.029196262 0.010497607
-0.0092095733 0.029576957 0.010672428
-0.027465701 0.01609087 0.010742702
-0.028499961 0.012586355 0.010472186
-0.0073291659 0.029666364 0.0067017749
-0.010965765 0.029694915 0.0062663034
-0.014865279 0.029078245 0.0058467761
-0.027181387 0.017230034 0.0061584786
0.029342771 0.030279815 0.036493577
0.026890099 0.029830158 0.037045576
0.028801203 0.030326307 0.031197108
0.026155651 0.029191434 0.033136226
0.027624547 0.032231927 0.029580303
0.024960518 0.029738247 0.028982706
0.0202021 0.032351196 0.029153384
0.022965372 0.02987051 0.025451578
0.018925607 0.03096962 0.024791248
0.017696738 0.031572998 0.0206616
0.012699544 0.031249464 0.021337427
0.0094602108 0.030367374 0.020672776
0.015799165 0.031482399 0.017298646
0.012750864 0.03023535 0.016810752
0.008066535 0.030115128 0.016585119
0.0034360886 0.028886378 0.016432114
0.0068104267 0.029084384 0.012352712
0.002182126 0.028867245 0.013131388
-0.0010396242 0.0280599 0.012898512
-0.026514709 0.0074252486 0.014060237
-0.027323723 0.0048708916 0.012296237
0.0053001642 0.028831184 0.0083955005
0.0014972091 0.028637111 0.0079200342
-0.0027524233 0.02884537 0.0091661587
-0.028693974 0.010340333 0.0076996759
-0.027903259 0.0051634908 0.0088967159
-0.0041986108 0.029224873 0.0039989129
-0.02815932 0.0099492669 0.003627874
0.026280224 0.030767858 0.026640542
0.028856337 0.032968521 0.022608854
0.025050879 0.031213701 0.023353852
0.028166056 0.03452158 0.01931078
0.024095297 0.032788098 0.019117869
0.020859182 0.031299412 0.01809115
0.018434584 0.03098315 0.014928646
0.013637424 0.029614151 0.01348532
0.017059743 0.031394303 0.011292376
0.014026046 0.02999258 0.010333098
0.0097945333 0.028682113 0.0099794045
0.013597012 0.029991508 0.006202884
0.0080562234 0.027983487 0.0057948306
0.0045802593 0.027601779 0.0043599084
-0.027153015 0.0023310781 0.0046157613
0.029399276 0.03143239 0.014839627
0.028062165 0.031970978 0.013624497
0.025369823 0.030273139 0.012356378
0.021113932 0.029602945 0.011714615
0.023386657 0.029338419 0.0083806589
0.020205319 0.029319346 0.0073115602
0.014293432 0.02888763 0.0073695555
0.031376004 0.028668821 0.010238327
0.027656496 0.028323472 0.0084570125
0.026604891 0.028749287 0.0054813102
0.022863388 0.029679537 0.0049388185
0.032193601 0.026252866 0.0051783994
