# .PCD v0.7 - Point Cloud Data file format
VERSION 0.7
FIELDS x y z
SIZE 4 4 4
TYPE F F F
COUNT 1 1 1
WIDTH 1047
HEIGHT 1
VIEWPOINT 0 0 0 1 0 0 0
POINTS 1047
DATA ascii
-0.030525982 0.031044483 0.17532994
-0.032547653 0.031639457 0.17286594
-0.020311534 0.029247046 0.17758264
-0.02301693 0.028346658 0.1777816
-0.02733022 0.025552869 0.17836042
-0.031433046 0.02342242 0.17840578
-0.02123493 0.031497717 0.17448248
-0.024460018 0.030929923 0.1753561
-0.029033661 0.029133201 0.17632522
-0.033156514 0.026316583 0.17592718
-0.036038339 0.023050129 0.17499335
-0.026062608 0.032299638 0.17119314
-0.030042112 0.031632006 0.17157887
-0.034320891 0.028055251 0.17139165
-0.037199676 0.023787737 0.17159687
-0.026565433 0.032681406 0.16763945
-0.031080782 0.031823516 0.16654982
-0.034383059 0.029337704 0.16682757
-0.033345699 0.031376958 0.16393423
-0.034594297 0.030659676 0.16394338
-0.011768699 0.026124537 0.1798027
-0.015620112 0.025474429 0.18085177
-0.019684076 0.022849202 0.18069704
-0.023655951 0.020452499 0.1810451
-0.028830409 0.018840015 0.18133889
-0.031419396 0.014073133 0.18020971
-0.013035536 0.028484464 0.17691161
-0.01754576 0.028963685 0.17867525
-0.021968603 0.02615124 0.17923822
-0.025638759 0.023866296 0.1795844
-0.03026253 0.02080375 0.17957483
-0.033679605 0.016529202 0.17776258
-0.014248192 0.029468179 0.17250158
-0.017998397 0.030667424 0.17391737
-0.036159039 0.019622505 0.17554326
-0.037964463 0.018312216 0.17297898
-0.019597054 0.031128764 0.16873743
-0.023323536 0.031825304 0.16945799
-0.037422836 0.023597896 0.16876651
-0.038341701 0.017807484 0.16762553
-0.021032274 0.031461716 0.1632863
-0.024971187 0.032427967 0.16469958
-0.029971063 0.031946898 0.16400602
-0.035278738 0.026481152 0.16493946
-0.03617084 0.023344576 0.16507903
-0.021755874 0.032611489 0.16071847
-0.025916517 0.032395124 0.15975276
-0.030955315 0.032274604 0.16061279
-0.034564674 0.029146254 0.1599552
-0.02697289 0.032718956 0.15560189
-0.030682445 0.031193972 0.15581501
-0.033311307 0.02943635 0.15652263
-0.0037443638 0.024205744 0.1809846
-0.0076449513 0.022267461 0.1810887
-0.011166036 0.019375205 0.18087365
-0.015738964 0.017189622 0.18101911
-0.019574702 0.014120698 0.18171017
-0.024004817 0.010914266 0.18215786
-0.030339539 0.0089927912 0.18115391
-0.031129897 0.0069489479 0.18072857
-0.035413027 0.0039966106 0.18062003
0.00014847517 0.028748155 0.17814632
-0.0045530796 0.027496457 0.17900153
-0.0089794993 0.026114404 0.17955942
-0.012481451 0.02435416 0.18093444
-0.016904175 0.021852493 0.18097074
-0.021911979 0.015194476 0.18147354
-0.025177777 0.013678491 0.18158956
-0.030551136 0.011369526 0.18070723
-0.034509897 0.0084195733 0.17866762
-0.037747264 0.0055122375 0.17877688
-0.0010793805 0.030500352 0.17473401
-0.0058962703 0.029858172 0.17535575
-0.010095835 0.028705359 0.17573287
-0.035641968 0.010536671 0.17448671
-0.037939847 0.0073188543 0.17459212
-0.006888628 0.030243397 0.17074691
-0.011540711 0.029528081 0.17072006
-0.037218034 0.015311003 0.16898079
-0.0078312159 0.030794621 0.16686215
-0.012499034 0.030007124 0.16611111
-0.016115963 0.030517101 0.16695024
-0.036860526 0.017233193 0.1649273
-0.013755262 0.030317068 0.16196591
-0.017679155 0.031094253 0.16227901
-0.035003841 0.017541468 0.16164652
-0.019554317 0.032280922 0.15760779
-0.023960769 0.032029152 0.15687737
-0.034732461 0.025194287 0.15625489
-0.034989178 0.022405744 0.15799975
-0.020219445 0.032701075 0.15405032
-0.024579644 0.031914532 0.15261629
-0.029717028 0.030343056 0.15262428
-0.034441471 0.026663244 0.15307814
-0.035480797 0.022398531 0.15324005
-0.027060568 0.032425165 0.14939666
-0.030665696 0.031518161 0.1492407
-0.034054041 0.028465569 0.14839453
-0.035494804 0.025157034 0.14870891
-0.030574143 0.031287313 0.14468992
-0.033536971 0.029021144 0.14492267
0.0078967214 0.026501536 0.17973097
0.0029138327 0.02395153 0.18078946
-0.00078231096 0.021726251 0.18178143
-0.0050708055 0.019088268 0.18197329
-0.010002792 0.016759217 0.18148865
-0.013920665 0.013856828 0.18198361
-0.016932249 0.0089003444 0.18199767
-0.020342827 0.0076795816 0.18221368
-0.0277946 0.0066130161 0.18160833
-0.031374156 0.0025815368 0.18110009
-0.034837902 0.00016760826 0.18143578
-0.037951887 -0.0013371706 0.18109696
0.020117819 0.03772682 0.17474385
0.0096586347 0.029274464 0.1771697
0.0056160092 0.02986306 0.1777574
0.001624763 0.028002262 0.17964061
-0.039382219 -0.00035959482 0.17857175
0.0048232079 0.030411303 0.17321925
0.00049734116 0.030987203 0.17233516
-0.036900163 0.0071614981 0.17115583
0.0036100745 0.03156966 0.16791512
-0.00042378902 0.030826926 0.16803394
-0.0051745772 0.031092882 0.16851871
-0.035902619 0.0075081587 0.16727646
-0.036935151 0.0061750412 0.16732688
-0.0024443269 0.031018019 0.16351095
-0.0060781837 0.030157208 0.16387609
-0.0096476674 0.029531777 0.16401526
-0.036698997 0.010893583 0.16253713
-0.03929472 0.0085497499 0.1612843
-0.0037346482 0.031027317 0.16009733
-0.0071936846 0.030293226 0.15946868
-0.011548102 0.030124187 0.15934101
-0.034895599 0.016370893 0.15975127
-0.03709197 0.012227058 0.1589103
-0.039529979 0.010468483 0.15882245
-0.013573229 0.030306399 0.1553193
-0.015309453 0.030533433 0.15279412
-0.035330534 0.018109322 0.15574893
-0.037572682 0.014579058 0.15393141
-0.018255055 0.03190279 0.15053165
-0.02263391 0.032316089 0.15007335
-0.036893845 0.020697296 0.15113041
-0.038449287 0.017196536 0.14987594
-0.020213902 0.032130122 0.14698595
-0.024346709 0.031467378 0.14669797
-0.036308289 0.022800744 0.14683679
-0.038606405 0.0188905 0.14733458
-0.021732748 0.032337785 0.14294314
-0.024881482 0.032077491 0.14190897
-0.029816628 0.031631947 0.14222518
-0.034316838 0.027877152 0.14191622
-0.035470188 0.023572862 0.14278349
-0.025962293 0.032995462 0.1378974
-0.030768633 0.031870008 0.13777605
-0.033800066 0.028797209 0.13752088
-0.031457484 0.031869829 0.13415793
0.019124925 0.026262224 0.18151213
0.01658684 0.024209917 0.18126632
0.010192156 0.019742608 0.1805826
0.0068439841 0.018377423 0.18150936
0.0018280745 0.017248273 0.18276091
-0.0019529462 0.014904082 0.18273573
-0.0061632395 0.0096786022 0.1820135
-0.010121644 0.0079511404 0.18293853
-0.01423049 0.0051867366 0.18270244
-0.018101752 0.0020810366 0.18188174
-0.021726191 -3.8862228e-05 0.18128504
0.021579027 0.029196858 0.17724057
0.018347979 0.028171897 0.17849989
0.014032781 0.026298702 0.17868932
0.0099285841 0.023860335 0.1802084
0.0055966377 0.021127582 0.18117799
-0.0076173544 0.0130229 0.18161826
-0.020709634 0.0045121312 0.18142594
-0.024957061 0.001350522 0.18125667
-0.027543247 -2.2172928e-05 0.18130107
0.020631731 0.031878293 0.17388768
0.017156541 0.030458093 0.17444094
0.012404859 0.029258609 0.17504354
0.020457804 0.032871366 0.1702816
0.015817225 0.031109273 0.16988204
0.012211382 0.029632211 0.17047419
0.0088527799 0.028240502 0.16908829
0.014299631 0.031478822 0.16632076
0.012492359 0.030621171 0.16587159
0.0069603324 0.029036582 0.16533983
-0.036257982 0.0039308071 0.16555002
0.0040720105 0.03043288 0.16143468
0.00080013275 0.030707657 0.16150874
-0.037603438 0.0066015124 0.16272023
0.0024114251 0.031034112 0.15669245
-0.00091463327 0.030629218 0.15716383
-0.005395174 0.030103385 0.15669474
-0.037132025 0.011423409 0.15559891
-0.038843572 0.0097498894 0.15540433
-0.0015352964 0.030212522 0.1532805
-0.0061101913 0.029463768 0.15233204
-0.010736167 0.029921889 0.15357283
-0.037492871 0.01198566 0.15428963
-0.038468063 0.010397315 0.15398636
-0.011698723 0.0296489 0.14820156
-0.038788974 0.014046907 0.14973998
-0.013746321 0.029530287 0.14325839
-0.017369866 0.030611038 0.14407003
-0.035314262 0.017944694 0.14278349
-0.037404239 0.015609145 0.14400432
-0.018760383 0.030201018 0.13954055
-0.021994531 0.032089889 0.13901618
-0.035432637 0.022595048 0.1393441
-0.019734442 0.02990824 0.13630116
-0.024213314 0.031414926 0.13488007
-0.034656405 0.026008666 0.13576129
-0.035155237 0.022650123 0.13460517
-0.025946379 0.030881166 0.13102615
-0.029566169 0.031092346 0.13077116
-0.033485413 0.027804613 0.13098821
-0.030209005 0.02990365 0.12655631
-0.033142447 0.027529836 0.12714443
0.020082176 0.021785438 0.18412854
0.018203199 0.017624021 0.18434761
0.015246987 0.015337765 0.18357296
0.011266351 0.012487352 0.18382759
-0.0036382079 0.0039665699 0.18315293
-0.0070195794 0.0015990734 0.18344076
-0.010353506 -0.00070041418 0.18450032
-0.014769971 -0.0027769804 0.18433793
-0.018544614 -0.0055600405 0.18348615
0.022309244 0.02697736 0.18058906
0.019564927 0.022716582 0.18293406
0.016635358 0.020642459 0.18183197
0.013570487 0.018216729 0.18135603
0.0093809962 0.015339077 0.18193294
0.005610168 0.01025331 0.1818351
0.0010035038 0.0084428191 0.18157329
-0.003899157 0.0071964264 0.18213971
-0.014488339 0.0011598468 0.18258865
-0.01692313 -0.00067061186 0.18248771
-0.0203439 -0.0040562153 0.1821311
-0.023954809 -0.006201148 0.18098982
-0.027294874 -0.0088989735 0.18041883
0.02293849 0.028641999 0.17737688
0.02213496 0.032969356 0.17156209
0.021016836 0.032548487 0.16830508
0.018328488 0.031910181 0.1684498
0.011471748 0.027265012 0.16790994
0.021245837 0.032895327 0.16347918
0.016637146 0.031619966 0.16349271
0.0113855 0.029460609 0.16333026
0.0091564655 0.027971804 0.16311392
0.023058176 0.039557219 0.15865174
0.019612432 0.03308779 0.1596863
0.015986741 0.03175813 0.15926662
0.011183441 0.030648649 0.15874213
0.0070471168 0.029366672 0.15902707
0.010266244 0.03132844 0.15504402
0.005944252 0.030025363 0.15467164
0.0020720363 0.029491961 0.15396509
0.0041440129 0.029830337 0.15135464
-0.00011813641 0.030291438 0.15053293
-0.005521059 0.02931422 0.14906836
-0.038170099 0.0086058378 0.15028524
-0.0015669465 0.030771315 0.14610595
-0.0058259368 0.02953887 0.14663845
-0.0089449286 0.029132724 0.14574599
-0.038064897 0.011288166 0.14641848
-0.0070335269 0.02946794 0.14157206
-0.010879397 0.029631495 0.14215872
-0.035900593 0.014236808 0.1406765
-0.0083763599 0.029837608 0.13722107
-0.012148559 0.030604243 0.13758996
-0.015949786 0.029726863 0.13685283
-0.034826636 0.016608119 0.13729683
-0.035822093 0.01430881 0.13793108
-0.013434589 0.030780256 0.13324511
-0.018091738 0.030282617 0.13326332
-0.022381485 0.029556096 0.13198039
-0.035434067 0.018897831 0.13264248
-0.019367158 0.029514611 0.12978274
-0.022874832 0.029732704 0.12844518
-0.034547985 0.025430679 0.12830648
-0.035543263 0.022184908 0.12900335
-0.025560796 0.030475736 0.12437001
-0.028658688 0.030362546 0.12401357
-0.033182979 0.026875854 0.12407497
-0.034929156 0.023895383 0.1236302
-0.026078999 0.029994369 0.12016657
-0.029641688 0.030263543 0.11960241
-0.033093095 0.02798301 0.119535
0.017798364 0.0082839727 0.18593313
0.015001059 0.0062311888 0.18544923
0.011656225 0.0042898655 0.18392821
-0.007047236 -0.0070077777 0.18617557
-0.008297801 -0.0090639591 0.18660267
-0.016422689 -0.013447344 0.18365277
-0.017667353 -0.014339626 0.18361308
-0.021560371 -0.016580105 0.18363152
-0.02945137 -0.020739794 0.18376775
0.016139507 0.011915028 0.18460299
0.013170123 0.0083813071 0.18475474
0.0090245008 0.0071986914 0.18241061
0.0053269863 0.0034282207 0.18161501
0.00036889315 0.0018658638 0.18197788
-0.0045136809 -0.0017777085 0.18392648
-0.018137693 -0.00920856 0.18348826
-0.020238519 -0.01360786 0.18215509
-0.024207532 -0.015422583 0.18096815
-0.028722763 -0.018712342 0.18130858
0.0013412833 0.0050656796 0.1811363
0.00018364191 0.0039820075 0.18103196
-0.023470342 -0.010446072 0.18093593
-0.026728511 -0.01244396 0.18015416
-0.030065179 -0.016443908 0.17885359
0.024119198 0.031220973 0.16457275
0.024345875 0.03388375 0.16219851
0.022139549 0.033124447 0.16080919
0.023383558 0.035334349 0.15812773
0.021104932 0.033326268 0.15694699
0.016847134 0.032078922 0.15650567
0.022940576 0.035858989 0.15524548
0.02121973 0.033394575 0.15325513
0.01609081 0.031670392 0.1528745
0.01157409 0.031242371 0.15260458
0.0073102117 0.030078709 0.15163645
0.011203587 0.031307578 0.14836267
0.0067365766 0.029461384 0.14827874
0.0023473501 0.029557586 0.14769107
0.0095968246 0.031032562 0.1444445
0.0055387616 0.029619992 0.14371103
0.001068294 0.029528379 0.14320666
-0.0024183989 0.028397262 0.1427215
0.0030465126 0.030096829 0.13906416
-5.9604645e-06 0.029549479 0.13868093
-0.0045773387 0.028979778 0.13937399
-0.035194337 0.0058966875 0.13868263
-0.0017271638 0.02994889 0.13478044
-0.0054712892 0.029426098 0.13494185
-0.00843364 0.029313385 0.13389787
-0.035675347 0.011501729 0.1350255
-0.0060169697 0.029482901 0.13135937
-0.010901093 0.029271185 0.13013217
-0.015787423 0.028613448 0.12956229
-0.03465122 0.010623753 0.13136458
-0.012856662 0.028899729 0.12572187
-0.017083943 0.029003561 0.12597093
-0.020961642 0.029246271 0.12577626
-0.035067141 0.017805934 0.12425798
-0.035745621 0.016247034 0.1270647
-0.017104447 0.030002654 0.12151507
-0.022167802 0.029232919 0.1220943
-0.034746885 0.020363629 0.12185839
-0.019188643 0.030640483 0.117147
-0.023179471 0.02944994 0.11702785
-0.0280177 0.029209435 0.11602545
-0.033216178 0.025918484 0.11583981
-0.034599006 0.022000372 0.11725727
-0.024312913 0.030561566 0.11218479
-0.029029489 0.029569089 0.11261061
-0.032885551 0.025705874 0.11227164
-0.026134014 0.031546414 0.10946026
-0.029097378 0.030635297 0.10815626
-0.031767964 0.028211951 0.10894766
0.016425133 0.0034269094 0.18757917
-0.0034046769 -0.011089325 0.18687876
0.015117228 0.0042273998 0.18593867
0.011851013 -0.00068080425 0.18353648
0.0090765357 -0.0031682849 0.18239395
0.003600359 -0.0055608749 0.1826164
-0.00050228834 -0.0076064467 0.18333377
-0.0031542182 -0.010045528 0.18557163
-0.017667472 -0.018209696 0.18415095
-0.021624744 -0.020808339 0.18427868
-0.024695814 -0.020721197 0.1838098
0.0099983811 0.0021426082 0.18209018
0.0075919032 -0.001827836 0.18142821
0.0027757287 -0.0026956201 0.18164025
-0.019057214 -0.015486598 0.18122508
-0.023656547 -0.018620729 0.18137677
-0.025744557 -0.018689573 0.18142657
0.025395393 0.03346473 0.15016425
0.022945762 0.030884981 0.14947405
0.018885911 0.030425251 0.14924845
0.025087595 0.035890102 0.14622903
0.022082448 0.032109618 0.14578295
0.017022967 0.030509114 0.14606372
0.012630761 0.03049022 0.1450282
0.015644252 0.030079544 0.14223027
0.011712492 0.029915094 0.14113027
0.0078065395 0.028969049 0.14097452
0.01032275 0.029541314 0.13776711
0.0065430999 0.028438807 0.13689926
0.0030812025 0.029567182 0.13650951
-0.036377311 0.0027055144 0.13577685
0.004868269 0.028424203 0.13180819
0.001060009 0.029392958 0.13246456
-0.0051735044 0.028828323 0.13151062
-0.035148561 0.0078500509 0.13135365
-0.036344647 0.0038391352 0.13196903
0.00064533949 0.028073251 0.12851653
-0.0041313767 0.028105259 0.12772372
-0.008749485 0.028757811 0.12740767
-0.034252584 0.0097930431 0.12821957
-0.0066382289 0.027909517 0.12389359
-0.010480285 0.028881073 0.12413618
-0.034612596 0.012156129 0.12225887
-0.0079935193 0.029357672 0.1202282
-0.011637032 0.030108511 0.11962131
-0.015350878 0.030893862 0.11824521
-0.03456378 0.015347242 0.11957726
-0.0352 0.013526678 0.11801136
-0.012746453 0.03058207 0.11459425
-0.016812444 0.030950725 0.11511567
-0.034768224 0.018635452 0.11483589
-0.034942687 0.015192747 0.11529723
-0.014078856 0.030298412 0.11130092
-0.018440723 0.03094697 0.11115885
-0.021887541 0.030617476 0.11037502
-0.034141004 0.01991272 0.11029196
-0.019306958 0.03030169 0.10754156
-0.023775041 0.030376375 0.10636494
-0.029244781 0.030213356 0.10478979
-0.03257823 0.025943458 0.10578358
-0.033599913 0.021665275 0.10673127
-0.025560915 0.030645907 0.10119739
-0.029224813 0.030148625 0.10133651
-0.032653391 0.027061403 0.10136509
-0.030267656 0.029183924 0.098104388
-0.032082319 0.027666271 0.097950011
0.014528096 -0.0056364536 0.18556263
0.011047602 -0.007119298 0.18532445
0.0078553557 -0.010676861 0.18559714
0.0034118891 -0.013342261 0.18450741
-7.4505806e-05 -0.013494492 0.18576618
0.014179528 -0.0031400323 0.18470804
0.0095201135 -0.0052042007 0.18360193
0.0057482123 -0.0079116225 0.18366583
0.0018159151 -0.010725319 0.18361451
0.026690364 0.030592561 0.14906964
0.026298165 0.03214711 0.14167896
0.024119616 0.029942751 0.14174274
0.020054817 0.029619455 0.14285454
0.026103973 0.03222996 0.13934952
0.021655083 0.029228985 0.13924536
0.018315732 0.029512286 0.13894597
0.015008926 0.029131293 0.1388714
0.016729116 0.028423905 0.13512528
0.01243788 0.029252708 0.13474286
0.0080246329 0.027902484 0.13396141
-0.037954152 -0.00082474947 0.13308951
0.011978805 0.029071629 0.12959591
0.0075984597 0.028726161 0.1304107
-0.037019551 0.0020284653 0.12982571
-0.038256466 -0.00069320202 0.13078794
0.0061250329 0.028353631 0.12631539
0.0018025637 0.02771908 0.12509686
-0.033698559 0.0065543652 0.12503025
-0.035356045 0.0036847591 0.12521568
0.00067788363 0.027199924 0.12069356
-0.0037052035 0.027708292 0.12180296
-0.034847081 0.0083932877 0.12103921
-0.036830366 0.0057069063 0.12074009
-0.0047011375 0.027607918 0.11675709
-0.0083736181 0.029631495 0.11716929
-0.03553164 0.0089200139 0.11650077
-0.036979258 0.0065535903 0.11680284
-0.0064752698 0.028088629 0.11217722
-0.0093371868 0.029680669 0.11251834
-0.03545469 0.012183666 0.11232996
-0.037403166 0.0083297491 0.11180687
-0.0075472593 0.029743075 0.10808253
-0.012066841 0.030273736 0.10822994
-0.016657233 0.030464768 0.10757098
-0.034129202 0.016029775 0.10687771
-0.035122156 0.01362735 0.10746449
-0.017168581 0.028716683 0.10360339
-0.021449745 0.029328167 0.10330451
-0.033906221 0.019133627 0.10310972
-0.019585013 0.029328763 0.099885076
-0.022594333 0.030725062 0.1002408
-0.033952057 0.024781466 0.099765599
-0.034493446 0.020471692 0.099457681
-0.024617612 0.031245589 0.095406443
-0.029091835 0.030300438 0.096013725
-0.03278327 0.026460648 0.094917953
-0.034215271 0.0229491 0.095034659
-0.026085854 0.031250238 0.091337591
-0.029201448 0.030850768 0.091071188
-0.032016873 0.028021812 0.090152353
0.0046710372 -0.015155017 0.18540405
0.023970187 0.029329062 0.137041
0.023638785 0.029257298 0.13165084
0.019532382 0.02809751 0.13207063
0.022492588 0.030437827 0.12713468
0.01809454 0.028559566 0.12743434
0.013734877 0.028683662 0.12774417
0.012264669 0.028987169 0.12327924
0.0082377791 0.02792412 0.12350082
0.011039019 0.029915273 0.11896101
0.0071862936 0.028473079 0.11925834
0.0031345487 0.027624428 0.11925513
0.0096911192 0.031044245 0.1142574
0.0066590309 0.029247642 0.11455548
0.0019986629 0.027507365 0.11447626
-0.0016451478 0.026857078 0.11400494
-0.036253989 0.0037565827 0.11325034
0.00070160627 0.027811587 0.10925877
-0.0036623478 0.027775943 0.10998946
-0.035395622 0.0086473227 0.10904175
-0.036482275 0.0064062476 0.10821238
-0.00053608418 0.028530896 0.10615614
-0.0050557256 0.029278815 0.10574409
-0.0092046857 0.029155314 0.10495064
-0.035315514 0.010480642 0.10515931
-0.036057055 0.0070836544 0.1045233
-0.0069752932 0.029163361 0.1020005
-0.010333657 0.028247058 0.10112637
-0.014565229 0.028135478 0.10136464
-0.034597874 0.013420463 0.10125336
-0.012420893 0.028641522 0.096945792
-0.016021848 0.02807194 0.096984237
-0.019276559 0.027769446 0.095945358
-0.034356236 0.016675353 0.095224142
-0.016884446 0.027280092 0.092739791
-0.020619631 0.027869403 0.092471749
-0.033905327 0.020180166 0.092278689
-0.023614764 0.028641582 0.088456422
-0.026239336 0.028731346 0.087097347
-0.032695293 0.023813486 0.087965578
-0.033454716 0.020974994 0.089149207
-0.023764193 0.028157413 0.084634811
-0.027885318 0.028233588 0.084785968
-0.031773508 0.025763392 0.084744096
0.028077364 0.025055468 0.1302627
0.023455799 0.029358685 0.12551007
0.020040751 0.028756618 0.12490436
0.023391366 0.027897179 0.12101933
0.019644678 0.027125418 0.12036744
0.016351879 0.027043343 0.1210005
0.018515527 0.028036475 0.11639652
0.014768839 0.027884722 0.11615053
0.013508737 0.028656721 0.11147383
0.0061243176 0.028324902 0.11180145
0.011196792 0.028831542 0.10789472
0.0070772767 0.028639436 0.10787138
0.0026671886 0.028274357 0.10826507
-0.037311256 0.0030555725 0.10830986
0.0075036883 0.02945745 0.10366181
0.0016356707 0.028688252 0.10379535
-0.0026041269 0.028941393 0.10344881
-0.037147522 0.0056031942 0.10402444
-0.00052446127 0.028231382 0.099430501
-0.0040435195 0.028382659 0.099092066
-0.0080401897 0.028937876 0.098018736
-0.034890056 0.0083726048 0.098776698
-0.036569655 0.007578969 0.10150924
-0.0055401325 0.027807176 0.094057888
-0.0097141266 0.028827429 0.09482196
-0.034108698 0.011759937 0.094188511
-0.01110822 0.028255999 0.090965599
-0.015539229 0.027724862 0.090379506
-0.019400537 0.026751995 0.089781344
-0.033467352 0.015277743 0.090349734
-0.033647895 0.013321817 0.088822901
-0.011945248 0.028101802 0.086915016
-0.015818715 0.027493834 0.086081028
-0.019736111 0.027068913 0.085518241
-0.032859385 0.017549336 0.085208386
-0.021623552 0.028013468 0.080980867
-0.027287662 0.027949691 0.081189215
-0.03136766 0.024881721 0.081560522
-0.032936335 0.021719456 0.08094582
-0.023991823 0.027921975 0.076609582
-0.027321577 0.027005911 0.076620787
-0.031184196 0.02498889 0.076961517
0.027304292 0.027037978 0.12257588
0.025499225 0.028425634 0.11844134
0.024241567 0.029162586 0.11478579
0.02001828 0.027943075 0.11388475
0.023978174 0.029628694 0.10990649
0.019245088 0.028733611 0.10983312
0.014970481 0.028211117 0.10936555
0.021667957 0.031266391 0.10404417
0.017938852 0.029729009 0.10477003
0.012928009 0.029115379 0.10564235
0.017147183 0.029563367 0.10107538
0.012558699 0.029671431 0.10098898
0.007316649 0.028104663 0.10045177
0.0039268136 0.027525008 0.10042483
0.0067944527 0.027995527 0.09663415
0.0022696853 0.027630389 0.096566945
-0.03532654 0.004088819 0.096241027
0.0016626716 0.027571738 0.092271358
-0.0025015473 0.027845144 0.092821747
-0.0342924 0.0077797174 0.09276709
-0.035786092 0.0051999092 0.092151552
-0.000251472 0.028501928 0.088605314
-0.004288137 0.028018832 0.08801645
-0.0087389946 0.027401745 0.087357402
-0.034394264 0.0093379617 0.087219656
-0.036178648 0.0061224103 0.087964743
-0.005120337 0.028371453 0.083205223
-0.0096649528 0.027842522 0.082926601
-0.014400601 0.027207673 0.082938343
-0.032790542 0.013791382 0.082921743
-0.034136474 0.01135236 0.082642585
-0.011197031 0.028567016 0.078489274
-0.015894711 0.028016388 0.079378873
-0.032906592 0.015509129 0.078877807
-0.016008675 0.028751135 0.074763983
-0.020964444 0.027815461 0.075212121
-0.032230258 0.022413552 0.074298263
-0.03245151 0.019039094 0.074718922
-0.017519236 0.029169559 0.071309358
-0.022130311 0.028671145 0.070327491
-0.026785433 0.026752353 0.07062906
-0.030885458 0.023584366 0.070474267
-0.032324612 0.021336079 0.068790942
-0.023966372 0.029323101 0.065258861
-0.027246475 0.028217733 0.065192223
-0.03093344 0.025572836 0.065370977
-0.032872379 0.021945298 0.065751612
-0.024728179 0.029348075 0.06159988
-0.027921498 0.029364347 0.060900033
-0.030963004 0.026457965 0.061971039
0.02843523 0.028798997 0.11090961
0.027430654 0.027508855 0.11233494
0.027819157 0.029576838 0.10715148
0.025152981 0.02919364 0.10729855
0.024506807 0.030579448 0.10319898
0.022863686 0.030448198 0.099043936
0.018845677 0.029711485 0.098880023
0.014263213 0.027936637 0.097773939
0.018066466 0.028822064 0.094577044
0.013688326 0.028011799 0.09392184
0.0097591281 0.027219355 0.09374544
-0.035189033 -0.0026533604 0.091661274
0.012559116 0.02901572 0.089007735
0.0076907277 0.027606428 0.089688331
0.0032430887 0.027471423 0.089539915
-0.0369066 0.0012786388 0.09011808
-0.03677696 -0.0016618967 0.08816269
0.011026621 0.029314816 0.085514158
0.0072184801 0.028835893 0.084880263
0.0024538636 0.027453542 0.084730893
-0.0021293759 0.028235853 0.084719628
-0.036681592 0.0045300722 0.0849545
-0.038016975 0.00039887428 0.084131241
0.0052114725 0.029982924 0.080302894
0.0016849637 0.028270185 0.080620617
-0.0033912659 0.027854681 0.08091566
-0.035040915 0.0088207722 0.081550479
-0.03620404 0.0052599907 0.080462068
-0.038152456 0.0021035671 0.081411839
-0.0011846423 0.028519332 0.076973528
-0.0043900013 0.028064728 0.076697201
-0.0079724193 0.028736413 0.07779786
-0.034066677 0.010700822 0.076954305
-0.0060397983 0.027360022 0.07340005
-0.010018528 0.027744532 0.072272956
-0.013218403 0.027892828 0.071048975
-0.032373965 0.014127433 0.071921825
-0.032926142 0.011386037 0.071833253
-0.011754692 0.027819216 0.068098903
-0.015634716 0.028099597 0.067435622
-0.019558311 0.028096199 0.066678286
-0.03298533 0.01743418 0.06824854
-0.016218543 0.028026044 0.062967062
-0.020304084 0.027608931 0.063015968
-0.032889426 0.020053625 0.06327492
-0.022882044 0.027673066 0.058729738
-0.029281676 0.027633607 0.058594614
-0.031164527 0.02428782 0.059123993
-0.032538831 0.019672394 0.05958733
-0.02775979 0.027990937 0.055076241
-0.03056246 0.024838865 0.054735005
0.028126001 0.027715743 0.098060846
0.024872839 0.029022455 0.09561789
0.0242185 0.029482007 0.09088856
0.019667625 0.028890848 0.091701061
0.024004579 0.031157017 0.086671203
0.018808782 0.029449999 0.087203711
0.013876081 0.029588759 0.087232471
-0.037033021 -0.0035022497 0.086690485
0.025399268 0.035170078 0.084445536
0.023283839 0.032278121 0.08384487
0.018411577 0.029386401 0.083527505
0.013126791 0.029347956 0.083161503
0.0090668201 0.029392123 0.082593888
0.011848509 0.029291213 0.078315258
0.0077949166 0.029824138 0.079645306
0.0026575923 0.027778208 0.078350574
-0.037169039 0.0029106736 0.07808885
-0.03888303 -0.00021219254 0.077045619
0.010020018 0.029661894 0.07393226
0.0064627528 0.029639542 0.074413657
0.0021223426 0.028324366 0.07464397
-0.0023573637 0.027595222 0.073046625
-0.033900559 0.0071667433 0.072698325
-0.03580451 0.0032812953 0.074707776
-0.036941111 0.00074797869 0.07206583
0.003480494 0.028269768 0.069776565
-0.0039058924 0.027052283 0.069497377
-0.0078878403 0.026962101 0.069401592
-0.033484042 0.010205448 0.069791049
-0.005066514 0.027534902 0.06550464
-0.0091805458 0.027777553 0.065581858
-0.033357024 0.014776587 0.064701855
-0.033753157 0.011815906 0.065333366
-0.010392606 0.02868098 0.061377704
-0.014755309 0.028130174 0.060923308
-0.032773018 0.015238047 0.06129387
-0.033371985 0.011844456 0.060934573
-0.011281013 0.028460681 0.057016671
-0.015609384 0.027505755 0.057012171
-0.019862592 0.027283251 0.057466298
-0.031813681 0.02124995 0.056595236
-0.03271234 0.01744473 0.056986839
-0.033638418 0.013689458 0.05741334
-0.017552674 0.027988791 0.052657843
-0.021648645 0.028060734 0.052508801
-0.025801063 0.027373433 0.051716685
-0.0306319 0.023636699 0.051384389
-0.032163024 0.019603133 0.052874058
-0.023186743 0.028172851 0.047193527
-0.026844382 0.027318954 0.047428221
-0.030179143 0.024371743 0.04729104
-0.027987957 0.026457667 0.043271333
-0.02982986 0.025663674 0.043998241
0.027647257 0.027702868 0.090546638
0.023276508 0.031799912 0.080248803
0.019461215 0.029956222 0.08042714
0.016042173 0.028883517 0.080806106
0.02472955 0.031894207 0.07651931
0.017862678 0.029554367 0.075986654
0.014492393 0.029399276 0.076220691
0.01254499 0.029220283 0.071938127
0.0083927512 0.028930664 0.070590675
0.0026751161 0.026476622 0.070988953
-0.034679651 0.00076085329 0.06981352
-0.037943125 -0.0024630427 0.070806712
-0.040192962 -0.0034219027 0.072935551
0.0118801 0.02841723 0.067832589
0.0072867274 0.028951228 0.067407757
0.0022205114 0.02639097 0.06739673
-0.0011589527 0.026660621 0.066803724
-0.03278172 0.0057140589 0.066988617
-0.034637153 0.001966536 0.066819817
-0.03904742 9.1195107e-05 0.065407664
0.0069619417 0.029585719 0.063115925
0.0026115179 0.027656496 0.062980741
-0.0022142529 0.026449025 0.063079685
-0.033448339 0.0063866973 0.063090444
-0.034922242 0.0041841269 0.062915534
0.0051298141 0.030544579 0.059889317
0.0029565692 0.02951926 0.059138089
-0.0035595894 0.027302504 0.059363097
-0.0074765086 0.027817607 0.058414787
-0.033903897 0.0085693002 0.057876199
-0.034909666 0.0046750903 0.058413088
-0.0055763721 0.02789551 0.054194897
-0.0092529655 0.027965844 0.054215044
-0.013220549 0.027466953 0.054047942
-0.032865226 0.014914274 0.053370535
-0.034312725 0.012150407 0.053963631
-0.0069233179 0.028865635 0.049974382
-0.010463119 0.028501987 0.049187809
-0.014750659 0.027643383 0.049484521
-0.018025458 0.026645064 0.048371434
-0.032619238 0.016606987 0.049294353
-0.03416115 0.013019919 0.04941231
-0.011480153 0.028712392 0.045803368
-0.015662014 0.027855814 0.045263052
-0.019840121 0.027439475 0.045414299
-0.031258821 0.021287978 0.045134246
-0.032031238 0.01741004 0.044917047
-0.02102989 0.026988149 0.040751867
-0.025720656 0.026872993 0.041291058
-0.030498445 0.023322403 0.04140988
-0.031261027 0.020166159 0.040251277
-0.022418261 0.027966857 0.037162982
-0.026948988 0.027266443 0.036882512
-0.030925572 0.024646401 0.0367985
-0.027667522 0.027454972 0.033021621
-0.030410886 0.025798619 0.032437734
0.024096906 0.028099239 0.074644625
0.022108614 0.026854038 0.073043048
0.01910001 0.027633607 0.069498807
0.01517725 0.027738214 0.069094002
0.01725626 0.02770406 0.065401047
0.013899863 0.027867615 0.065180272
-0.03685832 -0.002794385 0.065823615
0.012451887 0.028496981 0.060183465
0.0085335374 0.029585063 0.060993165
-0.035307646 0.00050318241 0.060025007
-0.036907971 -0.0020580292 0.061719149
0.01065582 0.029256165 0.056260258
0.0071307421 0.029700339 0.056194365
0.0020645857 0.028138638 0.056178659
-0.00094211102 0.026550591 0.055928022
-0.035321414 0.0048552155 0.055092752
0.0060319304 0.029200852 0.052116603
0.0022265315 0.027904212 0.051279902
-0.0021715164 0.026622474 0.051134259
-0.035205126 0.0079420805 0.051952451
-0.035960555 0.0051826835 0.050124556
0.0013501048 0.029285908 0.048047334
-0.0032074451 0.02688992 0.047765344
-0.0074168444 0.028119326 0.046857208
-0.03365618 0.010101855 0.046741784
-0.0363065 0.0075041056 0.047654659
-0.009396553 0.027395785 0.043236703
-0.013416409 0.026515603 0.041842192
-0.032297432 0.014862418 0.04178521
-0.032020867 0.010451615 0.043379873
-0.014745533 0.026038349 0.039859973
-0.018250465 0.026450694 0.038355611
-0.0315063 0.01782167 0.039306425
-0.019940078 0.02655679 0.034451775
-0.031876028 0.020489097 0.035238408
-0.02246213 0.02688843 0.02966737
-0.026527882 0.027683318 0.030044995
-0.031191051 0.024183095 0.028962366
-0.031982601 0.019637465 0.030437998
-0.027335823 0.026898146 0.025423937
-0.03023231 0.024583995 0.02589839
0.02396822 0.025636137 0.072579294
0.025327742 0.026875496 0.066645294
0.022703946 0.026678324 0.067625642
0.02456373 0.028727889 0.064056158
0.020510375 0.027137518 0.063000977
0.016956031 0.02784723 0.062038571
0.018275499 0.028361082 0.059296697
0.015514791 0.028497517 0.058268964
-0.035072923 -0.0050505996 0.057158589
0.013202727 0.029031575 0.053781271
-0.034476757 -0.0019876361 0.052970588
-0.034883797 -0.0050421357 0.053595662
0.01197207 0.02924931 0.05020687
0.0077454448 0.029011667 0.049256831
0.0023332238 0.027235389 0.048710346
-0.034668863 0.0022553205 0.05123201
0.0075315237 0.028688967 0.045635879
0.0021495223 0.027915835 0.045305103
-0.0023347735 0.02616173 0.044851094
-0.033847511 0.0067982674 0.044080108
-0.035828531 0.0033872128 0.044335961
0.0015854239 0.027590811 0.041070424
-0.0026627779 0.02586019 0.040940873
-0.0068754554 0.025713503 0.040390007
-0.032762945 0.0081964731 0.040841185
-0.035259664 0.0042081475 0.040685646
-0.00531286 0.026625156 0.036212824
-0.0084747672 0.026059628 0.036800854
-0.01324302 0.025130212 0.036763273
-0.031300664 0.0126912 0.037043534
-0.032167971 0.0099918246 0.035662167
-0.0099547505 0.026865005 0.032178722
-0.014006853 0.025942504 0.031960122
-0.017766237 0.025589526 0.031470977
-0.031890035 0.015742004 0.032274894
-0.03207165 0.012118816 0.03253334
-0.011778474 0.027921021 0.027747713
-0.015197277 0.02765131 0.026755355
-0.019524217 0.0269835 0.027377836
-0.032105386 0.016994298 0.026612662
-0.016738594 0.027819872 0.023048691
-0.020558178 0.027283072 0.022654615
-0.024850845 0.026687443 0.022968613
-0.029426396 0.023040056 0.022104912
-0.031120956 0.019992709 0.023181282
-0.021878302 0.028320551 0.018329494
-0.025995135 0.027121067 0.018671624
-0.029224753 0.023683548 0.018263631
-0.022834778 0.029007435 0.015027247
-0.02640146 0.027683616 0.014125399
-0.028764784 0.024718642 0.014723442
0.029046893 0.027945101 0.059159636
0.026316226 0.026833594 0.060038775
0.02289021 0.026134491 0.059927225
0.028571844 0.028634429 0.056902617
0.025769591 0.027630389 0.055415243
0.020778477 0.026792407 0.056078315
0.024283469 0.028851509 0.05155164
0.019836962 0.027672529 0.051582307
0.015984178 0.02829051 0.051021695
-0.034950912 -0.0053636432 0.051715046
0.022592068 0.028788805 0.047800243
0.019107044 0.028530955 0.046787322
0.014475644 0.028462708 0.047333628
-0.034670532 -0.0029575229 0.047316283
0.017739773 0.028372347 0.042906225
0.013370931 0.028464496 0.043090433
0.0090382695 0.027741551 0.042334527
0.0054727197 0.026952624 0.042472064
0.012025177 0.02870363 0.039143167
0.0083667636 0.027633131 0.038440756
0.0039461255 0.027000904 0.039062552
8.5234642e-06 0.025510013 0.038514338
-0.034812093 0.0034850836 0.038032733
-0.037875235 0.0026509166 0.038027458
0.0064394474 0.027500272 0.035299979
0.0028195977 0.027123511 0.033636831
-0.0015151501 0.025500834 0.033832781
-0.032856166 0.0067713857 0.033467256
-0.034892499 0.0035791993 0.033862852
-0.037685335 0.0015881062 0.035734706
0.0015509129 0.027632713 0.02944725
-0.0032458901 0.026098847 0.02861356
-0.0071821809 0.026615143 0.029732071
-0.033018351 0.0087550879 0.028396361
-0.0045611858 0.026891768 0.025341503
-0.0080989599 0.026358306 0.024479412
-0.011335075 0.026243806 0.024177574
-0.031917691 0.013706625 0.023293637
-0.033125937 0.0097780228 0.025039785
-0.0098608136 0.027056754 0.020061336
-0.013837755 0.026791811 0.020179711
-0.03133893 0.015010118 0.020095609
-0.01513809 0.02700156 0.015950523
-0.018185735 0.026841938 0.016000889
-0.030240774 0.020321906 0.015845679
-0.030800581 0.01627928 0.016281091
-0.016496062 0.027889669 0.012726389
-0.020757556 0.02837795 0.011966251
-0.027456939 0.027076244 0.011805408
-0.029953063 0.022331178 0.011908673
-0.022290826 0.028455555 0.0086918995
-0.026087224 0.02704215 0.0077442154
-0.029078841 0.023903489 0.0075913295
0.024800539 0.028134525 0.049650818
0.025419116 0.027735353 0.045227885
0.022535264 0.028528214 0.045030951
0.020660698 0.027597368 0.040193878
0.016649604 0.027661502 0.039303862
0.014360309 0.027593076 0.035611711
0.0091529489 0.027209759 0.034465812
0.013587475 0.026698709 0.031278752
0.0084589124 0.027049005 0.031152032
0.0046358705 0.026748061 0.030047022
-0.035213947 0.0024881363 0.030078076
0.0069904923 0.027005911 0.027723871
0.0034544468 0.027001619 0.026249997
-0.00076782703 0.02554512 0.026893221
-0.034869075 0.0028654337 0.026533358
0.0024569631 0.028308272 0.022253536
-0.0026142001 0.026458979 0.022582017
-0.0059784055 0.025459111 0.021462344
-0.032484651 0.0076861382 0.021366768
-0.034154296 0.0048619509 0.021777205
0.00054734945 0.029213727 0.018807821
-0.0034154058 0.027722299 0.01794859
-0.0073178411 0.026301324 0.018202297
-0.032132804 0.0086909533 0.01746919
-0.0054851174 0.02707386 0.014756821
-0.0090498924 0.026561141 0.013913892
-0.012565732 0.026126981 0.014012329
-0.031066239 0.014848113 0.01326891
-0.032035887 0.011652827 0.013297968
-0.01068759 0.02612263 0.010275982
-0.014285803 0.026699185 0.0094924495
-0.031381607 0.015949547 0.0099562034
-0.03250134 0.011986077 0.0099134967
-0.016327858 0.02628237 0.0064325556
-0.019581378 0.026832879 0.005166702
-0.029356956 0.021208048 0.0047234818
-0.030584872 0.017701447 0.0051194057
-0.021337152 0.026162684 0.0016694292
-0.025021434 0.025163054 0.0010321364
-0.0282498 0.021680534 0.0017064437
0.025241494 0.026000142 0.040606759
0.024881482 0.027218997 0.03715118
0.022158086 0.026971757 0.036996983
0.028632224 0.029243946 0.033876143
0.025323868 0.0280267 0.032629929
0.020581365 0.027273118 0.033315592
0.016408682 0.026518047 0.032271795
0.019711852 0.027335882 0.028384976
0.015313208 0.026931226 0.028883986
0.011803865 0.02635324 0.028881125
0.01798135 0.02782917 0.025153749
0.01456964 0.027321935 0.024017595
0.0099622011 0.026311576 0.02458065
0.012997627 0.027581334 0.02028995
0.008764565 0.027747273 0.02029141
-0.034496248 0.0010784268 0.020187758
0.0074290037 0.028711438 0.016203068
0.0032236576 0.028851271 0.016201489
-0.03266865 0.0052414536 0.015145056
-0.0345034 0.0024189949 0.016397826
0.0059298277 0.028781593 0.012360178
0.0023434758 0.028234303 0.011497431
-0.002010107 0.026660681 0.011764072
-0.0059523582 0.026220143 0.011440299
-0.032391489 0.0079549551 0.011709861
-0.032579422 0.0042466521 0.011914693
0.00080227852 0.027582228 0.0077103898
-0.0019006133 0.027571023 0.0070801899
-0.0072928667 0.025862813 0.0073546693
-0.010798454 0.025841892 0.0074168369
-0.031683564 0.013429642 0.0066682026
-0.032291889 0.0093514919 0.0067955777
-0.0087425709 0.025759101 0.0034037456
-0.013382971 0.025485873 0.0032018647
-0.031342328 0.013864934 0.0030791685
-0.031844437 0.012438893 0.00069987029
0.028531134 0.029102027 0.031118743
0.026937842 0.028581262 0.030402385
0.026528239 0.026205182 0.026096605
0.023497641 0.025727391 0.025515281
0.020514309 0.026843131 0.02244582
0.020191729 0.025986254 0.018250041
0.015888929 0.026963353 0.017599247
-0.034598887 -0.0023409128 0.016861938
0.014534295 0.026659787 0.013819002
0.010917068 0.026530981 0.012540214
-0.033253074 0.0018883944 0.012874149
-0.035389364 -0.0011153221 0.013949595
0.0093723536 0.026333034 0.0089673325
0.0056117177 0.026830971 0.0078640208
-0.032852709 0.0021342039 0.00918331
0.0033601522 0.026696026 0.004725568
-0.002972126 0.02621752 0.0059262738
-0.031945109 0.0049811006 0.0037459657
-0.032532454 0.0026154518 0.0056074783
-0.0071508288 0.025733113 0.0010784492
-0.032630265 0.0090975761 0.00074841827
0.02971977 0.02573663 0.023870967
0.026722431 0.0272789 0.020514391
0.023283422 0.026039481 0.019895934
0.026056767 0.027426779 0.015716217
0.021981835 0.026151896 0.015762053
0.025414646 0.027458787 0.011933945
0.020768344 0.026367366 0.011481278
0.016503036 0.026717126 0.011452489
0.019265592 0.026443839 0.0075913891
0.015244901 0.026767612 0.0072275624
0.011342525 0.026533008 0.0067398772
0.013953567 0.025543749 0.0030658171
0.0098429918 0.026586533 0.0028386042
0.0061667562 0.026798546 0.003046833
0.029320061 0.025130928 0.012616538
0.026685119 0.026326358 0.0089043304
0.022478878 0.026257455 0.0091006681
0.021289289 0.025623918 0.0047858283
0.017319143 0.026265264 0.0043207332
0.02490449 0.024475515 0.0027827844
