# .PCD v0.7 - Point Cloud Data file format
VERSION 0.7
FIELDS x y z
SIZE 4 4 4
TYPE F F F
COUNT 1 1 1
WIDTH 1035
HEIGHT 1
VIEWPOINT 0 0 0 1 0 0 0
POINTS 1035
DATA ascii
-0.017133296 0.033619463 0.17565009
-0.019283175 0.031964123 0.17536238
-0.01039958 0.032479346 0.17655638
-0.01374352 0.03027904 0.17721695
-0.017659247 0.027336955 0.17664242
-0.011671662 0.03406018 0.17324126
-0.01522249 0.033402324 0.17398891
-0.019893587 0.029881597 0.17392191
-0.021299899 0.026186705 0.1711894
-0.012841702 0.034924746 0.16971025
-0.01642251 0.033870697 0.16951326
-0.020114779 0.030966997 0.16957518
-0.017420888 0.033450484 0.16531113
-0.019753635 0.031786501 0.16567984
0.0019090176 0.031995296 0.17812523
-0.0014895797 0.029228628 0.17877457
-0.0060776472 0.027686059 0.17906407
-0.0095852017 0.024973512 0.17899817
-0.014183819 0.021654963 0.17874825
-0.01745981 0.01739502 0.17860714
0.0016382337 0.033465803 0.17481437
-0.0038848519 0.032618761 0.17614055
-0.0081040263 0.030904651 0.1771999
-0.012211263 0.027495623 0.17805466
-0.016869009 0.024074376 0.1776405
-0.020026684 0.020500958 0.17585823
-0.021253824 0.016107738 0.17521736
0.00066614151 0.03461951 0.17104408
-0.0051778555 0.03461045 0.1715934
-0.0089176893 0.03377527 0.17239028
-0.021453977 0.022594035 0.1718221
-0.0070046782 0.034475446 0.16745159
-0.010616004 0.034956455 0.16711494
-0.014350891 0.033919215 0.16672128
-0.021193027 0.028353751 0.16725957
-0.022096932 0.024464667 0.16667464
-0.012257636 0.035727322 0.16310272
-0.017129719 0.034482598 0.16303244
-0.021328151 0.030737758 0.16322795
-0.022428155 0.026238441 0.1631349
-0.013552904 0.035249054 0.15938094
-0.01681757 0.033701956 0.15746427
-0.020536184 0.031422734 0.15749285
-0.02218765 0.028044224 0.15905061
-0.018149972 0.03333497 0.15366933
0.007638514 0.028161108 0.17907628
0.002230227 0.024331927 0.17906654
0.00016635656 0.021754622 0.1787729
-0.014617324 0.012472987 0.17905429
0.012045801 0.033368349 0.17586347
0.0086528659 0.032420158 0.17699447
0.0045287013 0.029786348 0.17881605
-0.0056006908 0.02434808 0.17899945
-0.0096870661 0.021117628 0.17890388
-0.012129962 0.019558847 0.17894414
-0.020307839 0.012193561 0.17731574
-0.02183634 0.0087588429 0.17639288
0.01147908 0.033901334 0.17308816
0.007291913 0.034471631 0.17326996
-0.022642434 0.014515102 0.17354697
-0.024381459 0.01034677 0.17254147
-0.025856435 0.0075935125 0.17305368
0.0052339435 0.035326302 0.16916785
0.0017401576 0.034360468 0.16768125
-0.002147913 0.032747984 0.16704139
-0.023489296 0.016031206 0.16903716
-0.025480449 0.012183607 0.16866741
0.00055700541 0.033640027 0.16394147
-0.0037286878 0.033059001 0.16424903
-0.022935688 0.018341064 0.16491953
-0.025408268 0.015276909 0.16520265
-0.0010400414 0.033905149 0.16106445
-0.0049151182 0.033398926 0.1597282
-0.0090236068 0.034053743 0.16040909
-0.022228539 0.022328138 0.16046849
-0.022787213 0.018850088 0.1611197
-0.0079894066 0.034586906 0.15806916
-0.010588467 0.033114552 0.15603015
-0.01409173 0.033118606 0.15430027
-0.021300077 0.028347552 0.15514702
-0.022123992 0.025982738 0.15615523
-0.013325334 0.03382796 0.15051684
-0.016081095 0.033783138 0.15165213
-0.020135522 0.03028065 0.1513401
-0.021686792 0.026211917 0.1515359
-0.014230728 0.034942925 0.14719087
-0.016948283 0.034887075 0.14710471
-0.019420683 0.031566739 0.14829668
0.020996392 0.031445503 0.17673841
0.017379105 0.029049337 0.17753297
0.012889743 0.026899695 0.17854962
0.0088399053 0.023686647 0.17920718
0.004113853 0.021967649 0.17961881
-5.5074692e-05 0.017858922 0.17870942
-0.0039321184 0.015531838 0.17855152
-0.0074902177 0.012093127 0.17879331
-0.010996699 0.0092515349 0.17882052
-0.015687108 0.0070586205 0.17784259
-0.019676924 0.0026772618 0.17743108
-0.023056448 0.00041806698 0.17821708
0.019598603 0.032297492 0.17494297
0.015724361 0.031470358 0.17485598
-0.022789955 0.0056928396 0.1757625
-0.025238574 0.0023838878 0.17479214
0.014388025 0.03256005 0.17007369
0.010462344 0.033422828 0.16936031
-0.026628256 0.008595407 0.17043868
0.012036979 0.033751488 0.16640666
0.0086877346 0.034368157 0.16634199
-0.0248034 0.0098525286 0.16510728
0.0071819425 0.034457088 0.16188923
0.0031861067 0.033835709 0.16217279
-0.023054361 0.014105141 0.1621297
-0.023825109 0.012013257 0.1616936
0.0056179762 0.034540355 0.15736595
0.00069743395 0.034352899 0.15802076
-0.0033100843 0.034358263 0.1570603
-0.021619618 0.016819119 0.15801522
0.00093251467 0.033897758 0.15350601
-0.0040892363 0.033185661 0.15303701
-0.0081889033 0.031871855 0.15349403
-0.020767927 0.019343734 0.15472588
-0.0050696731 0.03313911 0.14820832
-0.0091714263 0.032491863 0.14910087
-0.020961165 0.024048686 0.14843276
-0.0065735579 0.034684539 0.14472175
-0.010041833 0.033846498 0.14418787
-0.014206827 0.033838034 0.14376023
-0.019016743 0.028483272 0.14448726
-0.020441651 0.024701059 0.14464426
-0.011923909 0.03467685 0.13985327
-0.016161561 0.03366971 0.14024532
-0.018413365 0.030318975 0.14021996
-0.017084599 0.033678472 0.13561741
-0.019429803 0.032373011 0.1350984
0.034718871 0.030723333 0.18091217
0.029920042 0.028121889 0.17928097
0.025193393 0.026248395 0.17843202
0.020420134 0.024458051 0.17883125
0.01558727 0.020940542 0.17879811
0.013572216 0.0201208 0.17895022
0.00067847967 0.0088148713 0.17897797
-0.0035811663 0.0058029294 0.1801874
-0.0066691637 0.0049083829 0.18020698
-0.010605216 0.0025639534 0.17879459
-0.013620675 -0.0017850399 0.17822108
-0.019990325 -0.0053084493 0.17846283
0.028161883 0.030363321 0.17575869
0.023127317 0.030011833 0.17730609
0.018500328 0.026766837 0.1782538
0.016790867 0.023737431 0.17929915
0.012205184 0.019637346 0.17907211
-0.0026527643 0.010066509 0.17928901
-0.006126523 0.0090969205 0.17966512
-0.0096734762 0.0062845945 0.17958155
-0.014271736 0.0036982298 0.17822993
-0.017404735 -0.00045400858 0.17734566
-0.019217789 -0.003782928 0.17719376
0.031060457 0.033244371 0.17307878
0.026721299 0.031794786 0.17169079
0.02188915 0.031965792 0.17252979
0.024479747 0.03223145 0.16790959
0.020810783 0.032215178 0.16804972
0.017513216 0.031983852 0.16711935
0.019717157 0.032536149 0.16275224
0.015226841 0.032702982 0.16404977
0.018880725 0.033715665 0.16015813
0.013841093 0.033388376 0.15938368
0.009827137 0.033861518 0.15889952
-0.02159214 0.011221588 0.15872803
-0.022883832 0.0089837909 0.15865767
0.011291921 0.033460379 0.15618035
0.0085742474 0.033167183 0.1546649
0.004493773 0.0337075 0.15375677
-0.020922482 0.013465762 0.15511963
-0.023229778 0.0088293552 0.15412492
0.0068587065 0.032450497 0.15011954
0.0021329522 0.033846378 0.15084124
-0.020462811 0.017917752 0.15270838
-0.020126462 0.01611191 0.14978883
0.0012628436 0.033428252 0.14580652
-0.0020126104 0.032671452 0.14626572
-0.02010572 0.01828438 0.1449818
-0.00011599064 0.033536911 0.1414459
-0.0040418506 0.03377974 0.1417037
-0.019161999 0.026064634 0.14089474
-0.020458281 0.022486091 0.14164147
-0.0052244067 0.034285665 0.13760138
-0.0097433329 0.034555495 0.13796028
-0.019391477 0.027140379 0.13783762
-0.020292044 0.022812068 0.1380541
-0.006932497 0.034406364 0.13455692
-0.010801971 0.033963025 0.13383779
-0.015768051 0.033043623 0.13277474
-0.020033896 0.028678656 0.13312736
-0.015996277 0.032144368 0.12849753
-0.018995762 0.030559599 0.12866358
0.035558105 0.022967756 0.18490717
0.037694693 0.031584442 0.18212211
0.035486817 0.02852118 0.18212071
0.033398867 0.023918808 0.18228582
0.030329823 0.021166682 0.18156257
0.0037548542 0.0029038191 0.18089128
-0.00021576881 0.0010835528 0.18113384
-0.0031412244 -0.0014390349 0.1810151
0.037373722 0.031605363 0.17914084
0.034606993 0.030514717 0.1789223
0.030724764 0.0279333 0.17939344
0.027225971 0.023150444 0.17967197
0.023464799 0.02039361 0.17937985
0.019321203 0.018015683 0.17890307
0.015365303 0.014204025 0.17863962
0.010742307 0.011799157 0.17808864
0.0068465471 0.0083504915 0.17809668
0.0035778284 0.0060700178 0.17968902
-0.001516521 0.0040144324 0.18058118
-0.0055420399 -0.00054860115 0.17963222
-0.0087857246 -0.0025649667 0.17868224
-0.013026059 -0.0060014725 0.17834464
-0.0170331 -0.0081754327 0.17811325
0.037217736 0.03395772 0.17451492
0.033645034 0.031922281 0.17476052
0.030928075 0.030813038 0.17628667
0.036461592 0.035604537 0.16994089
0.033372521 0.032719016 0.1694428
0.028980672 0.032075644 0.16978499
0.036270738 0.038151026 0.16727695
0.030376375 0.03296566 0.16545054
0.026948452 0.032766879 0.16604891
0.024407208 0.031621218 0.16468143
0.025925159 0.032880366 0.16164508
0.022803724 0.03253746 0.16138202
0.019932568 0.033085823 0.15683344
0.015788138 0.033088684 0.15646783
-0.022777796 0.005648613 0.15661398
-0.023973107 0.0035617948 0.15703514
0.018602073 0.033723831 0.1533958
0.014854252 0.03309828 0.15261063
0.010341585 0.032781124 0.15230343
-0.019893885 0.010506809 0.15199408
-0.023025393 0.0082554817 0.15301406
-0.024905741 0.0061619878 0.15408546
0.013321757 0.033716023 0.14814243
0.0090548396 0.032776833 0.14817807
-0.020633399 0.011109471 0.14842579
-0.023229063 0.008625865 0.14854348
-0.025453329 0.0058763027 0.14944395
0.011755168 0.034075081 0.1440666
0.0078507066 0.033605576 0.14385477
0.0043628812 0.032679081 0.14441264
-0.020671546 0.013132334 0.14414537
-0.022769213 0.010207534 0.14364651
0.0064279437 0.033706844 0.13971183
0.0026155114 0.033456981 0.13962665
-0.020988762 0.018719673 0.13982487
-0.021067858 0.014946759 0.13947755
-0.026241004 0.011652768 0.13800579
0.00051414967 0.034306169 0.13512906
-0.0035036802 0.03382194 0.13441032
-0.020590246 0.021436989 0.13475773
-0.021261454 0.018022895 0.13573667
-0.0016447306 0.034331024 0.13179335
-0.0048852563 0.033717573 0.1311855
-0.0093823075 0.032514155 0.13008663
-0.020873129 0.022243857 0.13104901
-0.0061123967 0.032299578 0.1273853
-0.010124028 0.032572031 0.12649505
-0.013773263 0.032023609 0.12648021
-0.019938409 0.028385222 0.12659554
-0.021490037 0.025819898 0.12749399
-0.011374831 0.032996893 0.12190257
-0.015550673 0.031979084 0.12242065
-0.019850016 0.029361784 0.12239142
-0.021741807 0.026672125 0.12353934
-0.016601145 0.032352209 0.11799853
-0.019883275 0.030161321 0.11867575
0.027743518 0.010905623 0.18174702
0.0054675937 -0.0046409369 0.18176419
-0.012245297 -0.01600796 0.18325037
0.033739984 0.019397378 0.18281326
0.029132903 0.018362403 0.18106911
0.026957572 0.016049623 0.1812003
0.023375869 0.011615634 0.17962232
0.020144463 0.008297205 0.17974028
0.015151501 0.005685091 0.17906865
0.01058358 0.0036571622 0.17926279
0.0076293945 -0.00026601553 0.18063775
0.0034260154 -0.0039095283 0.18076923
-0.0051059127 -0.0087089539 0.17953125
-0.0096613765 -0.011706352 0.18019506
-0.013844788 -0.013744235 0.18039647
-0.016087353 -0.01591754 0.18016574
0.023356497 0.01634407 0.17928693
0.021256983 0.01375109 0.17900285
0.017416716 0.011529684 0.17912212
0.012972295 0.0088633299 0.17923597
0.0086175799 0.0059809089 0.17927915
-0.0085958242 -0.0063450933 0.17844871
-0.010988712 -0.0079637766 0.17922851
0.036772013 0.032881558 0.16343462
0.033970296 0.031915009 0.16370687
0.030661106 0.03156656 0.16192046
0.033107698 0.031275213 0.158878
0.028897643 0.031474173 0.15881592
0.026735127 0.032580614 0.15425014
0.02280283 0.032629728 0.15442258
0.024913371 0.033587992 0.14977801
0.020692706 0.033064902 0.15009066
0.020626545 0.033000767 0.1457167
0.01649642 0.032868862 0.1463863
-0.02399677 0.0048335195 0.1457088
0.018448949 0.033627331 0.14148203
0.014137089 0.033818066 0.14139289
0.011250675 0.032861233 0.1396127
-0.023464322 0.0079365373 0.14154056
-0.024756968 0.0051517487 0.14123908
0.013244748 0.033833683 0.1365453
0.0088857412 0.033233821 0.13721421
0.0043415427 0.032978237 0.13638991
-0.021553338 0.012381196 0.13753855
-0.023825228 0.010917783 0.13813913
0.0074464679 0.033671618 0.13290805
0.0038019419 0.033175826 0.13261226
-0.021654248 0.013498068 0.13283804
-0.023715496 0.010295868 0.1333513
0.0061405897 0.034308136 0.1292735
0.0017608404 0.033540308 0.12834556
-0.0024285316 0.032622159 0.12798886
-0.021127462 0.019016087 0.12809806
-0.022327721 0.015117705 0.12917791
-0.00030893087 0.032528996 0.12295978
-0.003917098 0.032201707 0.12455754
-0.0071638823 0.031746507 0.12346114
-0.021585166 0.022544205 0.12375771
-0.0055829287 0.032481015 0.11933623
-0.0089383125 0.032505393 0.11976044
-0.013518929 0.032316446 0.11951084
-0.021481335 0.022945702 0.11986552
-0.0064368844 0.033440709 0.11583032
-0.010657966 0.033379436 0.11534743
-0.014930844 0.032594383 0.11565845
-0.019198477 0.029276311 0.1150137
-0.020630062 0.025277197 0.11562152
-0.012206852 0.034522057 0.1104966
-0.016345799 0.032990634 0.11116369
-0.018874347 0.029363573 0.1104541
-0.016184986 0.033078372 0.10751958
0.026666224 0.0058109164 0.18066803
0.024067819 0.0023974776 0.18027213
0.018694937 -0.00010031462 0.18058759
0.014486969 -0.0026721954 0.18119574
0.010366082 -0.0051807761 0.1821256
0.0072107911 -0.008105278 0.18214083
0.0039510131 -0.010986984 0.18045059
-0.0015618801 -0.015639067 0.18118086
-0.0062847733 -0.015813053 0.18226621
0.024572432 0.0085075498 0.18016693
0.020784438 0.0039054751 0.17890936
0.017982781 0.0023821592 0.17927632
0.013392806 -0.00032246113 0.17953363
0.00085139275 -0.0095293522 0.17981464
-0.0026527643 -0.012712538 0.17963278
-0.0064797401 -0.012885928 0.18026069
0.039409697 0.030075014 0.15982854
0.037338436 0.030717492 0.15884086
0.034175098 0.031646371 0.15658554
0.032894313 0.032320857 0.15216786
0.032282412 0.032681108 0.14798367
0.027998626 0.032746196 0.14739969
0.026039898 0.032187283 0.14353788
0.023469865 0.031846523 0.14227486
0.021007001 0.031828582 0.13904741
0.019966722 0.030685544 0.13551182
0.016709566 0.032083988 0.13424274
0.013448 0.031988621 0.13093039
0.010622859 0.032771647 0.12913068
-0.023392141 0.0088074803 0.1298438
0.0090025067 0.032618999 0.12552743
0.0046883821 0.032831907 0.12513529
-0.021835446 0.013387978 0.12540083
-0.022996128 0.0093522668 0.12624691
0.0065232515 0.032001138 0.120919
0.0031070113 0.032083213 0.12145524
-0.0010272861 0.031103134 0.12185924
-0.019793034 0.013812602 0.12213381
0.0017582178 0.031711698 0.11685504
-0.0020880699 0.031342864 0.11735173
-0.020634949 0.018895805 0.11565469
-0.0042855144 0.032281935 0.11272024
-0.0084369779 0.033293962 0.11221685
-0.020484269 0.02092278 0.11211456
-0.021389961 0.018474996 0.11272274
-0.0048474669 0.031645477 0.10918818
-0.0081672072 0.033620417 0.10902338
-0.01960963 0.026586294 0.1093619
-0.020222843 0.023844242 0.10816817
-0.011180043 0.032678306 0.10477723
-0.015072405 0.031098783 0.10331349
-0.01860863 0.027790904 0.10361908
-0.020018399 0.024421275 0.10546799
-0.016425669 0.031127751 0.099158809
-0.019411743 0.029077113 0.09897007
0.02989471 0.00032550097 0.18235907
0.027157843 -0.002818346 0.1824719
0.023127675 -0.0047538877 0.18268964
0.018286109 -0.0079702735 0.18231997
0.012970507 -0.010317385 0.18368766
0.0092532039 -0.013004422 0.18366781
0.0054778457 -0.016586244 0.18282136
0.003057301 -0.018022478 0.18195736
0.029562235 0.0031385422 0.18104634
0.025478303 0.0005710125 0.18111983
0.021438479 -0.0021451116 0.18136945
0.017238796 -0.0058067441 0.1814858
0.013806164 -0.0068587065 0.18284822
0.0074001551 -0.012805223 0.18249083
0.0044713616 -0.013926804 0.18117592
0.00051182508 -0.016560137 0.18146858
0.040212691 0.028275788 0.15918055
0.039666712 0.029907465 0.15457359
0.037587762 0.029259264 0.15446422
0.039003372 0.030344069 0.14896441
0.036589921 0.030790925 0.15194264
0.03750515 0.032638431 0.14516887
0.033734798 0.033262074 0.14548519
0.030480623 0.031557441 0.14470327
0.036354184 0.033856392 0.1413072
0.032830834 0.033550143 0.14130893
0.028792918 0.032065094 0.14149776
0.032412171 0.032905221 0.13753799
0.027360499 0.031566203 0.13703153
0.023620665 0.030588567 0.13576788
0.026149809 0.031619251 0.1316697
0.021767676 0.031339347 0.13212687
0.01745069 0.031600296 0.13154006
0.020686448 0.032186151 0.12795295
0.015826881 0.03193897 0.12826021
0.019524872 0.032473326 0.12412284
0.014976263 0.032515705 0.12376516
0.011249423 0.032149494 0.12264065
-0.019826055 0.0098404288 0.12167101
-0.021408498 0.0061162114 0.12244917
-0.022944748 0.0022301078 0.12317111
0.012954354 0.032769263 0.11841302
0.0089634657 0.032806933 0.11965726
-0.020199001 0.011316359 0.11867623
-0.021290362 0.0083600879 0.11828743
0.0075249672 0.033698261 0.11545862
0.0033948421 0.033044994 0.11502825
-0.021024942 0.012388945 0.11467497
0.0060354471 0.033495128 0.11131324
0.0021176934 0.033079505 0.11127888
-0.0021753907 0.032221079 0.11091809
-0.021451116 0.0153687 0.10990648
0.00050199032 0.033211291 0.1066324
-0.0037127137 0.032949686 0.10650782
-0.0073658228 0.032560229 0.10521428
-0.020593882 0.019581974 0.10612421
-0.021129847 0.015656412 0.10600601
-0.0042589903 0.031926215 0.10167034
-0.0087388158 0.032099962 0.10188417
-0.012393773 0.031786263 0.10126476
-0.020502567 0.022985697 0.10214727
-0.0098617673 0.031921446 0.097611114
-0.014497638 0.032065272 0.098398164
-0.021086872 0.028209805 0.09723334
-0.021356165 0.025509357 0.098809227
-0.011670232 0.031917632 0.094556734
-0.014982402 0.031690478 0.09332256
-0.018765271 0.029281199 0.093741134
-0.020651281 0.026429832 0.094846502
0.028953016 -0.005784452 0.18361297
0.025193751 -0.0084276795 0.18361098
0.020856261 -0.010095119 0.18239346
0.016712129 -0.011752188 0.18269792
0.041858196 0.029295623 0.14729631
0.038563967 0.032819152 0.13830325
0.038423419 0.032870173 0.13465595
0.033625245 0.031949341 0.13405409
0.029509723 0.031123459 0.13360947
0.033337533 0.031434476 0.12998328
0.029266179 0.031629145 0.13006154
0.026908934 0.031825662 0.12558131
0.022619486 0.031891227 0.12459968
0.025075555 0.031834245 0.1213332
0.021214962 0.03212446 0.1210023
0.018074214 0.031232595 0.12081395
-0.021287084 0.0032392144 0.12069206
-0.022185087 0.00048589706 0.11974059
0.020668328 0.031226397 0.11713527
0.016940773 0.030732155 0.11602665
-0.022014439 0.0048703551 0.11732014
-0.023256183 0.0018742085 0.11608578
0.014466405 0.030839264 0.11172982
0.011309445 0.031814337 0.1122406
-0.021775126 0.0058035254 0.11220895
-0.022878468 0.0027308464 0.11355706
0.0091223121 0.031673908 0.10801338
0.0057983994 0.030930758 0.10641812
-0.021522522 0.011036932 0.10890381
-0.022718847 0.0084035993 0.1080303
0.0078709126 0.031089246 0.10351001
0.0045104623 0.03164798 0.10347702
-0.02096349 0.012379944 0.10320531
0.0023368001 0.031891763 0.099196121
-0.0024272203 0.031615496 0.099423572
-0.020436168 0.019489944 0.098942056
-0.02006048 0.015253067 0.10067789
0.00035488605 0.032212555 0.095532581
-0.0028054118 0.031422675 0.09441711
-0.0072909594 0.031051874 0.094809338
-0.020555794 0.022412598 0.095046625
-0.0031186342 0.031926513 0.090759352
-0.0088983178 0.030641496 0.090457395
-0.012928843 0.029582977 0.089480326
-0.018361807 0.027038217 0.089522853
-0.019936681 0.023875594 0.092101678
-0.010145009 0.029949009 0.086822793
-0.013745606 0.029744983 0.086165234
-0.017794311 0.028050184 0.086208209
-0.018864632 0.023518682 0.086709395
-0.014548004 0.029460371 0.082758233
-0.017053962 0.027661145 0.082743153
0.038232863 0.031836212 0.13196549
0.036923945 0.032199621 0.12912302
0.035039008 0.031079948 0.12738363
0.033272326 0.032230854 0.12327231
0.029722571 0.031908631 0.12330444
0.032947898 0.032005847 0.11962999
0.028128624 0.031390488 0.11860321
0.024413884 0.031437039 0.11864044
0.026590109 0.030839741 0.11435328
0.022509813 0.03088963 0.11415266
0.019182801 0.030569434 0.11300986
0.021112084 0.030107915 0.10953526
0.017642796 0.030559957 0.10984509
-0.022552192 0.0043932199 0.10911216
-0.023505211 0.0021840334 0.11133747
0.015598476 0.030672371 0.10580499
0.011248171 0.031421483 0.10528995
-0.021755934 0.0069633126 0.1048487
0.013925791 0.031050622 0.10163276
0.010394096 0.031651556 0.10136877
-0.021395147 0.0061556697 0.10151251
0.0080778599 0.0323174 0.097038642
0.0044612288 0.032341182 0.096915796
-0.019102931 0.011370063 0.095780984
0.007317543 0.03235364 0.092890635
0.0030450225 0.03280133 0.092488959
0.0016992092 0.033053041 0.088490084
-0.0034861565 0.032118678 0.088420317
-0.0070554018 0.030740321 0.087992892
-6.9141388e-05 0.032672048 0.084403768
-0.0032085776 0.031651437 0.083383426
-0.0077409148 0.030330002 0.084028617
-0.019135892 0.023099482 0.083277568
-0.0099304318 0.030746341 0.079284891
-0.014193535 0.030075431 0.079873309
-0.017632782 0.026692271 0.079806879
-0.01079756 0.031617463 0.074161246
-0.014432371 0.03065902 0.074762866
-0.017897666 0.027108312 0.074340001
-0.015081465 0.031014979 0.07083793
-0.016862333 0.029646337 0.071640953
0.037918806 0.030972838 0.11627237
0.034842372 0.030637205 0.11582719
0.031324625 0.030477464 0.11595409
0.033718228 0.030613363 0.11157013
0.029258132 0.030361474 0.11186074
0.028171957 0.030739009 0.10727565
0.024020255 0.029810011 0.10787593
0.026466608 0.031941056 0.10218488
0.022199273 0.030840635 0.10332258
0.017592728 0.030230999 0.10227482
0.025133371 0.032418191 0.098162755
0.020978928 0.032271087 0.098277852
0.016099453 0.031251669 0.098867044
-0.019100308 0.0081383586 0.097986624
-0.021045506 0.0040336251 0.097706184
-0.023016095 0.0015872121 0.097507134
0.019794047 0.032182157 0.094775364
0.015546799 0.031612456 0.094207838
0.011853933 0.03122437 0.095129177
-0.018574297 0.007666707 0.094357416
-0.018734217 0.0055719614 0.092828557
0.013525069 0.03142482 0.090884998
0.0097741485 0.031407416 0.090212986
-0.018134415 0.0086137056 0.089553729
0.0080484748 0.031405091 0.085604593
0.0048398376 0.031990588 0.085705951
-0.017684042 0.016177893 0.084582046
-0.01763612 0.012821615 0.086724266
0.0068458915 0.03138262 0.081321225
0.0028161407 0.031814873 0.081129476
-0.0011476278 0.032126725 0.080273673
-0.018569767 0.017145753 0.080947027
0.0014339089 0.031914175 0.076562241
-0.0029562712 0.031620622 0.077176049
-0.0065411329 0.030459464 0.077680752
-0.018942654 0.020175695 0.076879904
-0.0045045018 0.031998515 0.072636589
-0.008284688 0.031342089 0.073390916
-0.019915581 0.021712422 0.072835848
-0.02165997 0.018005967 0.07274963
-0.0050956011 0.032239497 0.068625763
-0.0094537139 0.032190084 0.068242505
-0.013729155 0.031030536 0.068495914
-0.018329918 0.027577877 0.068693057
-0.020549715 0.024039268 0.068297431
-0.011421204 0.032160699 0.064323992
-0.01507771 0.031195879 0.063804865
-0.018428743 0.0285514 0.063762248
-0.016099334 0.030113637 0.059660554
0.039930284 0.029764295 0.11336659
0.039783537 0.031912863 0.10953973
0.036358595 0.030091405 0.10866205
0.039124429 0.033062696 0.10424651
0.034343541 0.029621422 0.10488354
0.031047583 0.030127108 0.10349126
0.040268242 0.037289143 0.10205565
0.03769511 0.034703434 0.10011999
0.03328383 0.031067431 0.099936858
0.029559076 0.031431675 0.10066687
0.028023899 0.031939805 0.096465126
0.026076198 0.031777143 0.091651544
0.021818876 0.03148222 0.091282412
-0.020052671 0.0023577213 0.09238635
-0.022001028 -0.00033372641 0.092067406
0.021013677 0.031390905 0.086925313
0.016748011 0.03004843 0.087400571
0.012528837 0.030141175 0.086751714
-0.01792711 0.0084124207 0.087186202
-0.020197332 0.0042321682 0.087669387
-0.022438765 0.00030142069 0.085986093
0.015333652 0.030543149 0.082483366
0.011450112 0.03012836 0.082834259
-0.018322527 0.0087431669 0.082685664
-0.02089721 0.0053805709 0.082334772
0.013448298 0.031075776 0.078666195
0.0098631978 0.03075552 0.078619942
0.0067317486 0.030724406 0.077717349
-0.018914521 0.0097616315 0.078326419
-0.021719694 0.0062987804 0.079055354
0.0085544586 0.031004786 0.075077161
0.0048449039 0.030848503 0.074635878
-0.019454837 0.011688888 0.074406639
-0.020918667 0.0090962648 0.075190887
0.0010735393 0.030442536 0.071423933
-0.00043988228 0.030427575 0.069937006
-0.021219432 0.015852809 0.069257602
-0.0032606721 0.031054854 0.065535903
-0.0072751641 0.032398045 0.06499958
-0.0208956 0.01948458 0.066560894
-0.0051452518 0.030556738 0.061986864
-0.0083118081 0.031177819 0.061181664
-0.012449384 0.031663239 0.060981423
-0.019564748 0.025422096 0.062210381
-0.019904137 0.022895336 0.060883254
-0.0098481774 0.031104624 0.056839287
-0.013820529 0.030387878 0.057196736
-0.017980456 0.027491212 0.057204574
-0.01947248 0.023689568 0.057194978
-0.011017323 0.032113194 0.053857505
-0.014746249 0.030262589 0.052925766
-0.017352641 0.027974546 0.053402722
0.037163615 0.029730618 0.10275804
0.036108136 0.031184256 0.099305853
0.037622154 0.032541573 0.095200107
0.033730447 0.030742705 0.094488308
0.030382693 0.031040251 0.093061134
0.032420397 0.029632926 0.089537188
0.028697133 0.031238973 0.088754877
-0.02143842 -0.0012807846 0.088561431
0.026805997 0.032211781 0.085287228
0.022742569 0.031589627 0.084821567
-0.021985948 -0.00078588724 0.086050734
0.0246526 0.033372104 0.081750795
0.021496534 0.031998754 0.081372872
0.018007696 0.030943274 0.080856666
-0.021393836 0.00059574842 0.082433924
0.020560026 0.031344414 0.077222869
0.016401172 0.031240225 0.076647535
-0.021909297 0.0060434937 0.076880738
-0.02372402 0.0043780208 0.076736614
0.014276862 0.031646132 0.073171243
0.010419786 0.030559361 0.071569756
0.0050903559 0.028816283 0.070606217
-0.019928336 0.0092639923 0.070712045
-0.022371888 0.0074010491 0.073015377
-0.024901986 0.0051573515 0.073483452
0.010014236 0.029609621 0.067308798
0.0052919984 0.028889656 0.067299172
0.0011612177 0.028977454 0.066559315
0.0032479167 0.028577149 0.063546598
0.00056397915 0.029299736 0.062705964
-0.0018084049 0.029399216 0.05911082
-0.0054779649 0.030376375 0.058554798
-0.0034227967 0.030044377 0.054732859
-0.0068880916 0.031194329 0.055457741
-0.019691288 0.021032214 0.05533731
-0.0051013231 0.031283855 0.050991476
-0.0088443756 0.031602263 0.05028519
-0.013848305 0.030531764 0.049551934
-0.018078685 0.0262205 0.050501883
-0.01895088 0.022388339 0.050451279
-0.009986043 0.030614138 0.045403957
-0.013439238 0.030100644 0.045516253
-0.01664114 0.027292788 0.04566288
0.041537046 0.029650271 0.094115183
0.040182948 0.030359387 0.090952888
0.036301136 0.02978605 0.091018543
0.038545907 0.03261596 0.087376371
0.034681618 0.030354977 0.087379977
0.037564516 0.031990588 0.08313261
0.03456831 0.03095293 0.082900032
0.030982316 0.029884875 0.082316205
0.028047562 0.029998302 0.07817401
0.025551319 0.03024739 0.076113388
0.027183294 0.029960871 0.073868498
0.022895217 0.030432999 0.073568985
0.020571768 0.030470073 0.069217429
0.017052293 0.030499041 0.069068
-0.021431983 0.0040979981 0.068309352
0.01626569 0.030459642 0.064971983
0.011446774 0.029703856 0.065236092
0.0077348948 0.029003918 0.064809114
-0.018991947 0.0089833736 0.064326286
-0.020259261 0.0054676533 0.065303892
0.014432728 0.030838847 0.060821235
0.010175705 0.030228972 0.061156392
0.0059512854 0.028825879 0.061541438
-0.018650055 0.00935781 0.061778575
-0.020510852 0.0058035254 0.061783105
0.0091818571 0.030820251 0.056652933
0.0048511624 0.029667199 0.057172298
0.001490891 0.028647602 0.057260871
-0.018670797 0.012813389 0.053546429
0.0071489215 0.031005442 0.052699566
0.0037394166 0.030749798 0.051795959
-0.00056868792 0.029845655 0.052289486
-0.019166648 0.017175138 0.051041543
0.0019695759 0.031640708 0.047389239
-0.0018860698 0.030690968 0.047218859
-0.0050983429 0.030228257 0.047066987
-0.018666506 0.020258367 0.047763944
-0.0040786862 0.030537307 0.042504311
-0.0076262951 0.030623972 0.043168664
-0.014270544 0.028802931 0.042969018
-0.017285287 0.024542034 0.043141842
-0.018224597 0.020825386 0.044354677
-0.0092763901 0.030908048 0.039527863
-0.013698757 0.029143214 0.03924486
-0.017502487 0.026570141 0.039209157
-0.018010437 0.022617579 0.038853973
-0.013327777 0.030014396 0.034368932
-0.017327189 0.027227223 0.034771413
-0.015316367 0.029825866 0.031326532
0.0400545 0.030412495 0.082809731
0.038750887 0.030993164 0.079562888
0.034982622 0.02942425 0.079605475
0.039433777 0.031924009 0.075114295
0.035240114 0.029560506 0.07510896
0.030969679 0.028754354 0.075474188
0.038160682 0.033384979 0.071258351
0.034829736 0.031494737 0.070729271
0.029023409 0.029212713 0.071390286
0.039151669 0.036412358 0.067956433
0.034265816 0.03200835 0.067593113
0.027174354 0.028547704 0.067288563
0.024281204 0.028858244 0.067640617
0.022178948 0.028498113 0.063656449
0.018904984 0.030223608 0.062283337
-0.021311343 0.0021412969 0.063205719
0.017150462 0.0302459 0.05892992
-0.01688832 0.0054560304 0.056304991
-0.019764483 0.0039202571 0.057715207
-0.02158761 -0.00069099665 0.058707684
0.015267134 0.030277669 0.054050803
0.011784494 0.030269265 0.053754032
-0.018546224 0.0085418224 0.053580403
-0.019591272 0.0058012009 0.05396381
0.0093419552 0.029762268 0.049254835
0.0067344904 0.030838072 0.048361689
-0.018687367 0.01162374 0.049570173
0.0085157752 0.030083477 0.045794457
0.0046707988 0.030169964 0.045149744
-0.017225862 0.014169872 0.04312706
-0.018400431 0.012408495 0.045694411
0.003449738 0.028757989 0.041386843
-0.00063079596 0.030176163 0.04136467
-0.017715037 0.018517792 0.040615171
-0.0027015209 0.029947937 0.037438631
-0.0062307119 0.029864371 0.03621307
-0.018613517 0.01979053 0.037858814
-0.0084050894 0.028763831 0.032981813
-0.018396497 0.025468767 0.032175541
-0.019081295 0.023166239 0.03229481
-0.013248026 0.028387129 0.029204488
-0.016848505 0.026076078 0.029743135
0.03509146 0.027982473 0.073708043
0.039530694 0.033166885 0.06978251
0.034135878 0.029190123 0.070058778
0.032117605 0.028340518 0.069109663
0.038170099 0.033884108 0.065308988
0.034131229 0.031366587 0.065064043
0.030486703 0.028761566 0.064992726
0.026392996 0.027771771 0.064591318
0.039858341 0.037574351 0.062978923
0.037587762 0.035256147 0.061454564
0.03366673 0.031825006 0.060694933
0.029070139 0.029467404 0.059856325
0.024410427 0.028355002 0.060499519
0.02706784 0.030081332 0.056533009
0.023643494 0.028960347 0.055443466
0.019962311 0.028182209 0.055088907
-0.022355318 -0.0012485385 0.055484653
0.022072792 0.029824376 0.051099002
0.018703997 0.029162586 0.051161915
-0.020388603 0.0028043985 0.051248074
-0.023158371 -0.0014882684 0.05091247
0.020765603 0.03036195 0.047780812
0.016484082 0.030035853 0.047073841
0.012166679 0.029144883 0.047484756
-0.018558443 0.0066943169 0.047572762
-0.01980263 0.003285706 0.046563327
-0.021386921 0.00081336498 0.046020925
0.015070677 0.030390859 0.043623984
0.010914445 0.029810071 0.042879045
0.0062596202 0.028488159 0.042248726
-0.018880844 0.0092553496 0.043024361
-0.021035373 0.0051735044 0.043229669
0.0094442368 0.029574752 0.038445264
0.005046308 0.028914154 0.038993746
-0.017321587 0.013824701 0.041241944
-0.017605901 0.010477245 0.038532883
0.0044529438 0.029349685 0.034395337
-0.0003027916 0.029290736 0.034865171
0.0024934411 0.029408693 0.030635804
-0.0015705824 0.02923131 0.02966696
-0.0058739185 0.028208077 0.029814631
-0.017856717 0.018882513 0.02743417
-0.0034459233 0.029754996 0.024517804
-0.0071409941 0.028873384 0.024890691
-0.011285782 0.02773726 0.025851101
-0.015713155 0.024503171 0.025083512
-0.017105162 0.020431221 0.025170833
-0.0047197938 0.030157208 0.021104723
-0.0083904862 0.030037761 0.02058816
-0.012730837 0.028856933 0.021172464
-0.016209364 0.024890602 0.020510137
-0.0099971294 0.03054589 0.016853638
-0.013512969 0.028771996 0.016467549
-0.016379297 0.026417673 0.017612435
0.038464189 0.032084346 0.056872815
0.034862995 0.030755341 0.056803286
0.03093034 0.029458106 0.057011604
0.038109124 0.032128215 0.053450704
0.034927547 0.030578673 0.053005606
0.029891133 0.028369606 0.05314526
0.033210516 0.030522883 0.049728543
0.028148651 0.028821409 0.048930705
0.024358034 0.029661596 0.049609035
0.026342392 0.029283702 0.045801729
0.023385644 0.029697418 0.044653416
-0.022395015 -0.0015759468 0.045351624
0.021711409 0.029977083 0.040464491
0.017385721 0.029763341 0.04078573
-0.020220935 0.0042132735 0.039939404
-0.023138463 1.8954277e-05 0.041363478
0.016363561 0.029155374 0.035861611
0.012665689 0.02925688 0.036718637
-0.01816684 0.0075218678 0.035933793
-0.018465519 0.0039466619 0.03515023
0.014426887 0.029320061 0.033097088
0.010778189 0.029246449 0.031429499
0.0069397688 0.028977036 0.03109318
-0.016785383 0.010027468 0.032829314
0.0087937713 0.030057609 0.026405513
0.0048615932 0.02966404 0.027044386
0.00138098 0.029715121 0.027200162
-0.017387033 0.013023615 0.024804503
0.0071857572 0.031059325 0.022423685
0.0037906766 0.030393124 0.022479087
-0.00056296587 0.030265749 0.023250431
-0.017440915 0.016511142 0.022690952
0.0022740364 0.030678034 0.018600203
-0.0019786358 0.030326962 0.018531062
-0.0059398413 0.030090511 0.01782573
-0.017855763 0.018099725 0.018061467
-0.0033343434 0.03061384 0.013979025
-0.0074692369 0.030219138 0.014314242
-0.012458503 0.028065622 0.013494767
-0.016391158 0.02439326 0.014547326
-0.017210901 0.021026611 0.012769558
-0.0078684688 0.029682636 0.010227419
-0.012170136 0.027516186 0.0099157169
-0.015467167 0.024844587 0.0097168759
-0.017769098 0.021650195 0.010477878
0.039681494 0.031239629 0.051349312
0.032781899 0.027953565 0.050620943
0.039110124 0.03070122 0.047286749
0.035384893 0.029563248 0.046749651
0.031787395 0.027769685 0.046903819
0.033565879 0.029217243 0.042421758
0.029920757 0.02810359 0.0427728
0.027843714 0.02884382 0.037685007
0.025313914 0.028950512 0.037726849
-0.021394193 -0.0021401048 0.036796033
0.02293694 0.029643595 0.033223569
0.019281924 0.029104412 0.033701181
-0.019449651 0.0017430186 0.033628762
-0.020490527 -0.0013411641 0.033262074
0.021146059 0.030435443 0.028352886
0.017127097 0.029347301 0.028894007
0.014270723 0.02854377 0.028311163
-0.015867054 0.0055390596 0.02843985
-0.01854223 0.0032221675 0.030068368
0.015673816 0.029879749 0.024289042
0.012086391 0.029670537 0.024643421
-0.016233325 0.0084471703 0.025240541
0.014360368 0.030390859 0.020895392
0.010725439 0.030002654 0.020518273
0.0065054297 0.029916227 0.019413479
-0.017300308 0.011227012 0.019472428
0.0047153234 0.029162407 0.015984245
-0.018245757 0.012292624 0.015656002
0.0032474399 0.02921015 0.010961302
0.00010758638 0.029745638 0.011906005
-0.018038094 0.016756892 0.012056388
-0.019681096 0.01409322 0.010474212
-0.0023109317 0.029809356 0.0076276436
-0.0073100328 0.029452801 0.0074762478
-0.011900961 0.027085841 0.0074011162
-0.016212702 0.022441626 0.0072875395
-0.018670261 0.018296301 0.0072014704
-0.020956278 0.016078174 0.0071581677
-0.0031341314 0.029942513 0.004079558
-0.0072798133 0.029347241 0.0036474541
-0.011969984 0.026960254 0.0035041645
-0.016069889 0.023675919 0.0035042241
-0.018885672 0.019426763 0.0030926839
-0.021673143 0.016815484 0.0040283874
-0.0077797174 0.029442966 -0.00021349639
-0.012315691 0.027672529 -0.0010491237
-0.015820265 0.024626851 -0.0004523918
0.039165914 0.030011177 0.044317007
0.039242804 0.030851066 0.040136516
0.036052942 0.029756904 0.040144503
0.031613827 0.028022051 0.039347798
0.038297951 0.031834126 0.035385549
0.034274995 0.030372262 0.035197496
0.030021548 0.028677583 0.035557032
0.032173991 0.030905068 0.032233238
0.028808057 0.029669821 0.030718118
0.028570473 0.030772507 0.026361108
0.024262726 0.030035317 0.026304841
-0.01482147 0.0031505227 0.025321364
-0.01793468 0.00064677 0.026399732
-0.020158887 -0.0019004345 0.025381774
0.022309601 0.030258298 0.022281319
0.018025815 0.029583991 0.022646904
-0.016572118 0.0061402917 0.021636605
-0.018253386 0.0021634102 0.022274435
-0.02105844 0.00070214272 0.02248925
0.020657718 0.030254781 0.018339224
0.016918778 0.029879868 0.017715074
0.011883438 0.029241621 0.017497011
-0.017028511 0.0061480403 0.018123753
-0.019471288 0.0036564469 0.017789729
-0.021759927 0.0013787746 0.019333132
0.015595973 0.029940665 0.013922371
0.011152565 0.028119266 0.014090426
0.0080811977 0.026753902 0.012531526
-0.018725634 0.0089907646 0.014367349
-0.020380914 0.0066290498 0.013846613
0.0070034862 0.027180612 0.009170033
-0.018621624 0.0097497106 0.010993339
0.0037174821 0.028646708 0.0050354972
0.00093704462 0.02897197 0.0051300302
0.0027461052 0.029192746 0.0012648776
-0.00130862 0.029548705 0.0012426153
-0.0047134161 0.028586209 0.0002688542
-0.019028068 0.017452717 -0.00022419542
-0.020015419 0.015874505 0.00030014664
0.039023995 0.029634714 0.031564683
0.03728956 0.029589415 0.032042503
0.038651168 0.029322624 0.026069283
0.035907567 0.028418899 0.028089374
0.037568092 0.031181395 0.024409205
0.034527838 0.02946198 0.024188906
0.028885305 0.030431569 0.023898304
0.032279611 0.029843211 0.018980093
0.028442919 0.030628562 0.020449936
0.024822056 0.030539215 0.019658722
0.031273246 0.03113687 0.015224345
0.027759731 0.030505061 0.015614219
0.023121774 0.030703127 0.016305186
0.021989644 0.030402839 0.012360968
0.017935097 0.029709458 0.011449762
0.013358116 0.028407991 0.011177726
0.016744256 0.028598607 0.0067837015
0.012005568 0.028667867 0.008014299
0.0088597536 0.027715623 0.0076441243
0.015219748 0.028297126 0.0031411126
0.011363029 0.028338611 0.0027352646
0.0072662234 0.028314948 0.0037755743
0.0059151649 0.028529227 -0.0015133843
0.0018358827 0.029200375 -0.0015407726
-0.020286441 0.011959255 -0.001386933
0.037476718 0.030808508 0.02152878
0.035511315 0.029281437 0.021466911
0.038907528 0.03168726 0.017331399
0.035387039 0.030771673 0.018451072
0.038239419 0.033315122 0.014064379
0.034292817 0.032068074 0.013789542
0.029766262 0.029956162 0.012398429
0.028887928 0.029896498 0.0093409792
0.024624586 0.027880549 0.0081143156
0.02701515 0.030590415 0.0060852244
0.022950351 0.027585328 0.0050853565
0.020317852 0.027724385 0.0046559945
0.017877996 0.027310967 0.0012497082
0.014602065 0.027611852 -8.0578029e-05
0.037838995 0.03165096 0.010687836
0.038065374 0.030755222 0.0083701089
0.034787297 0.029290259 0.007398285
0.031590343 0.02856636 0.0056599453
0.033101261 0.028544843 0.0023767427
0.029624045 0.028657258 0.0023274794
0.025359452 0.02693665 0.0028549805
0.037310481 0.027792335 0.0041944459
0.035979509 0.027537823 0.00048161298
0.032800496 0.028620243 -0.00031556934
0.0426597 0.023687303 0.00013814121
0.041591704 0.024069667 0.00063214451
