# .PCD v0.7 - Point Cloud Data file format
VERSION 0.7
FIELDS x y z
SIZE 4 4 4
TYPE F F F
COUNT 1 1 1
WIDTH 1101
HEIGHT 1
VIEWPOINT 0 0 0 1 0 0 0
POINTS 1101
DATA ascii
0.0086162342 0.059152484 0.8236267
0.013126128 0.058617026 0.82288569
0.017543228 0.059053674 0.82438898
0.022938684 0.059860162 0.82493347
0.0083009191 0.062771566 0.82286656
0.012881162 0.06265077 0.82128119
0.017530091 0.062839001 0.82374817
0.0088223452 0.066922568 0.82371116
0.012695977 0.066975251 0.82345718
0.016765047 0.065918297 0.82393336
0.01841774 0.053999893 0.82920027
0.021973815 0.053380765 0.82917356
0.027673585 0.053955384 0.82851678
0.033478253 0.053586107 0.82876688
0.03774038 0.052444886 0.82901502
0.042584237 0.052652925 0.82925034
0.046821386 0.052914273 0.82945746
0.0079102637 0.056987427 0.82780021
0.012664547 0.056018092 0.82713348
0.017604949 0.056185838 0.82733339
0.022046309 0.057175916 0.82607996
0.027588883 0.057629693 0.82597089
0.033023067 0.056935806 0.82703692
0.037681274 0.056981895 0.82770371
0.042378742 0.057072103 0.8290152
0.046525966 0.05658761 0.82944471
0.0052701891 0.062450424 0.82876694
0.022179017 0.062955514 0.82527423
0.027612181 0.063060954 0.82665539
0.033051047 0.062373947 0.82772774
0.037601229 0.062261809 0.82904279
0.041608259 0.060160104 0.82906699
0.0037287225 0.068694979 0.82970011
0.0062861065 0.068226002 0.82714462
0.013709903 0.069078535 0.8250668
0.017796895 0.068059154 0.8259905
0.022224359 0.067699827 0.82697022
0.026893543 0.06780529 0.82825202
0.031874567 0.067732468 0.82925355
0.0083479695 0.072366662 0.82756293
0.012968894 0.072305731 0.82686645
0.017602509 0.072334968 0.82719976
0.022269074 0.072460189 0.82862991
0.026733031 0.07232327 0.82927525
0.0088743223 0.076568067 0.82860011
0.012991617 0.077056915 0.82832611
0.01712306 0.076594971 0.82888895
0.022278724 0.075576283 0.82900029
0.025383154 0.075612754 0.82940012
0.009921113 0.080292851 0.82993335
0.011464345 0.080260612 0.82960016
0.034898266 0.049717795 0.83499974
0.03796469 0.049655605 0.83395559
0.042593468 0.049611937 0.83322233
0.047308814 0.049667519 0.8341555
0.051976871 0.049668837 0.83417755
0.058539759 0.049071871 0.83458292
0.0037525424 0.054377582 0.83499974
0.0078896442 0.054286417 0.83359987
0.013280948 0.053116918 0.83265716
0.017482104 0.052190937 0.83199996
0.022768179 0.05152031 0.83276653
0.027033962 0.051896658 0.83259994
0.032143351 0.051800471 0.83281898
0.04088442 0.050968129 0.83006692
0.047908489 0.051029555 0.83106679
0.051783666 0.052574996 0.83106679
0.057055425 0.052410781 0.83336002
0.0027089342 0.05790608 0.83363318
0.0058030933 0.056201965 0.83135557
0.048134532 0.058205228 0.83051109
0.051828876 0.057263758 0.83178514
0.055864729 0.056650173 0.83414996
0.0025311166 0.062125284 0.83245921
0.039364755 0.06491179 0.83066654
0.042710077 0.062299807 0.83115232
0.047216106 0.061960645 0.83251852
0.051535059 0.061865173 0.83421886
0.0019645432 0.067656651 0.83185643
0.034726895 0.068794213 0.83089989
0.037869725 0.068099633 0.83184439
0.042612869 0.067466922 0.83358353
0.046907309 0.066575833 0.83492357
0.0027099205 0.072401106 0.83386666
0.0052839667 0.07266181 0.83093333
0.028520333 0.07418301 0.83066654
0.032427955 0.072712608 0.83151102
0.037450347 0.072414652 0.83402222
0.041906036 0.071463473 0.83499974
0.0065344237 0.077755973 0.83253324
0.018727485 0.078381389 0.83148891
0.022340709 0.07810507 0.83128887
0.0272386 0.077677391 0.83290827
0.031428088 0.076634735 0.83379984
0.0091792345 0.082124963 0.83284998
0.013243748 0.082240418 0.83205003
0.017741004 0.082207836 0.8336814
0.021904767 0.081758261 0.83437771
0.025552498 0.080776587 0.8349331
0.0099772997 0.086181857 0.83463311
0.012779513 0.086025678 0.83462638
0.016210824 0.085442789 0.83499974
0.056230418 0.04374522 0.83961499
0.013148561 0.049921568 0.8384223
0.018220162 0.049497046 0.83784997
0.022521464 0.049117878 0.83803338
0.027202161 0.048323851 0.83780009
0.032056078 0.048486002 0.83760005
0.037823357 0.047697641 0.83773327
0.042985938 0.046919566 0.83707488
0.047482356 0.046733126 0.83722228
0.052353583 0.046920322 0.83708334
0.056830704 0.046873286 0.83693188
0.061482351 0.049028948 0.83649999
-0.0014454061 0.054103773 0.83878398
0.0022027625 0.052998576 0.83778089
0.0072720791 0.052555509 0.83692509
0.011557746 0.051361125 0.83646673
0.059059996 0.054399297 0.83533311
0.062259659 0.05291706 0.83645731
-0.0017048357 0.057686523 0.837946
0.0011578874 0.056517914 0.83602214
0.057836726 0.057840724 0.83641106
0.061792761 0.057890911 0.83806676
-0.0019667139 0.062135119 0.83837795
0.00063812814 0.063712917 0.83520693
0.053632732 0.062976085 0.83573329
0.056699745 0.062162787 0.83785844
0.061673325 0.061668832 0.83910018
-0.0013127406 0.067389138 0.83745688
0.00063818088 0.066048793 0.83527589
0.047990214 0.068993755 0.83518636
0.052139208 0.066945389 0.83676291
0.05543061 0.067152403 0.83935571
-0.0014435743 0.070632763 0.83743137
0.00063998939 0.073247842 0.83764297
0.039111175 0.074167095 0.83628875
0.042964719 0.073560245 0.83612365
0.047457766 0.073173247 0.83678508
0.05187263 0.072145052 0.83749998
0.0053280564 0.07950177 0.83786666
0.033153985 0.078364342 0.83681107
0.03720659 0.077324763 0.83790672
0.043084908 0.07755401 0.83845717
0.047535349 0.077191494 0.83815557
0.05145704 0.076430187 0.83836675
0.0068816855 0.082531378 0.83698654
0.023499019 0.083445437 0.83573318
0.02719532 0.082588695 0.83755243
0.031125868 0.08109583 0.83823341
0.0079978546 0.087431356 0.83703804
0.013495011 0.088219315 0.83554983
0.017993154 0.087337136 0.83639985
0.022516051 0.087288119 0.83779263
0.026457354 0.085845321 0.83893353
0.0084593734 0.090476669 0.83846688
0.012573236 0.091826089 0.83783209
0.017619429 0.091596849 0.83851439
0.02098522 0.091325603 0.83910018
0.053344127 0.039240416 0.84350002
0.029007869 0.044018831 0.84486651
0.032162722 0.044023465 0.84495544
0.036878463 0.04400957 0.84468883
0.042326361 0.043942422 0.84340012
0.047824267 0.043149691 0.84325558
0.052056432 0.042559765 0.84267813
0.055583227 0.042286452 0.8416667
0.0030079901 0.048720203 0.84463316
0.007163927 0.047548927 0.84378105
0.012428128 0.047816433 0.84256673
0.017606046 0.047634296 0.84212005
0.022958953 0.046407312 0.84259987
0.027355 0.045463327 0.84251136
0.032444976 0.045830205 0.84206676
0.037533015 0.0459418 0.84172225
0.041403223 0.045360208 0.84059978
0.050813634 0.045363806 0.84066647
-0.0025023133 0.052961223 0.84335738
0.0018233126 0.050591551 0.84310013
0.0069194236 0.050102845 0.84146661
0.010051017 0.050063148 0.84079975
-0.0040712818 0.058015153 0.84274077
-0.0024953855 0.064180292 0.84133339
0.058611028 0.064083658 0.84006661
0.06305407 0.063827738 0.84081316
-0.0032867335 0.066634104 0.84267724
0.057892978 0.067284971 0.84101099
0.061914518 0.067394696 0.84237796
0.065914422 0.06746842 0.84329724
-0.0017110897 0.072783113 0.8412807
0.053910811 0.073459782 0.84006649
0.057201829 0.072095141 0.84237051
0.061846409 0.072049074 0.84412503
0.065243527 0.070730716 0.84479988
0.0029945895 0.075891651 0.84104955
0.038590051 0.079153419 0.84078646
0.042208798 0.079802245 0.8410331
0.047698084 0.079801194 0.84102201
0.052687436 0.078102671 0.84197146
0.057336401 0.076191127 0.84435552
0.060531147 0.075463049 0.84499991
0.0053606993 0.08391083 0.84300017
0.028843069 0.084398605 0.84006661
0.032263614 0.083444312 0.84169519
0.037579026 0.083097614 0.84271687
0.043101188 0.083140746 0.84314829
0.047845144 0.083187073 0.84361482
0.051802743 0.082438998 0.84400004
0.0053584557 0.087008037 0.84264725
0.02753887 0.08809156 0.84121895
0.032085229 0.087820739 0.84291136
0.036840037 0.087912999 0.84379268
0.041087124 0.087498076 0.84484434
0.0077112545 0.092451327 0.8422426
0.010043845 0.093789592 0.84019983
0.018669007 0.093823083 0.84049982
0.023056224 0.092565052 0.84123802
0.027370229 0.092527479 0.84293348
0.032146521 0.092504509 0.84451658
0.036260638 0.092121907 0.84497321
0.0085151978 0.097354881 0.8440001
0.01242001 0.097119361 0.8419556
0.017942199 0.097256511 0.84314841
0.022455841 0.096899308 0.843943
0.027423054 0.095849305 0.84457779
0.030585976 0.095889658 0.84493327
0.035316184 0.09589722 0.84499991
0.0085252859 0.10139879 0.84499991
0.012666135 0.10193154 0.84407884
0.017528417 0.10194657 0.84488565
0.066829644 0.15718748 0.84493339
0.05107557 0.16741699 0.84499991
0.044150036 0.039459072 0.84820014
0.048633803 0.038407456 0.84822232
0.051738512 0.037447579 0.84553897
0.0030249101 0.044253282 0.84936696
0.0073694969 0.043789078 0.84803349
0.012517105 0.043418571 0.84850854
0.018055117 0.043574251 0.84846687
0.023106709 0.043552291 0.84804022
0.027185086 0.043182693 0.84698677
0.032263551 0.042585652 0.84762239
0.03701942 0.041810993 0.84792238
0.042493157 0.041753098 0.84674174
0.047945399 0.040900338 0.84537768
-0.0015681939 0.047701664 0.84889352
0.0019999284 0.046815492 0.84674293
0.0061716186 0.045674987 0.8464334
0.012479189 0.04564891 0.84595007
0.017992584 0.045626432 0.84553337
0.02113777 0.04560845 0.84519994
-0.0031459387 0.051385116 0.84712648
-0.0056715244 0.058310233 0.847
-0.0056826845 0.062107533 0.84866667
-0.004085578 0.062939674 0.84570003
-0.005671524 0.067765594 0.84700006
-0.0041015204 0.069503047 0.84900004
0.06857276 0.069339313 0.84700006
-0.0025070524 0.073914491 0.84526676
0.063708149 0.073920317 0.84533322
0.066977225 0.072473183 0.84679526
-0.00093305385 0.075684369 0.84747821
0.0022247916 0.077176534 0.8465631
0.057463493 0.078720465 0.84622222
0.062436525 0.077396035 0.84679174
0.065408297 0.077211283 0.84693342
0.0031765148 0.081715889 0.84790671
0.053322703 0.083070487 0.84564
0.057562742 0.082011193 0.84768915
0.062416434 0.080577575 0.84920496
0.065619379 0.083782516 0.84966666
0.0038108882 0.086771093 0.84798354
0.0053802859 0.08972434 0.84608018
0.04377291 0.088666148 0.84598881
0.047810595 0.087998122 0.84649163
0.052809879 0.087513499 0.84752512
0.057232216 0.085655659 0.84865028
0.0069499612 0.094333664 0.84507406
0.032166868 0.094332829 0.84506661
0.037696481 0.09358032 0.8453666
0.042536203 0.093029797 0.84751129
0.048144151 0.091075003 0.84888935
0.052926023 0.090603061 0.84940022
0.0065670549 0.097266927 0.84667259
0.023500454 0.099056616 0.84513319
0.027467741 0.098365255 0.84594434
0.03240883 0.097810246 0.84624171
0.037189115 0.09792985 0.8472752
0.041264765 0.097346045 0.84848911
0.045029663 0.096449524 0.84986687
0.0073591042 0.10279778 0.84680009
0.010108397 0.10383026 0.84560001
0.019581528 0.10310143 0.84606665
0.022762494 0.10242309 0.84696305
0.027546464 0.10259225 0.84836322
0.032111801 0.10245071 0.84882528
0.037071016 0.10188952 0.84908921
0.008568 0.10664622 0.84923351
0.012489418 0.10712341 0.84675574
0.018025855 0.10716201 0.84705937
0.022584481 0.10692709 0.84877169
0.026781123 0.10585199 0.84920037
0.013625836 0.11114466 0.84860039
0.018061941 0.1113272 0.84878922
0.038668368 0.1595985 0.84940034
0.043144859 0.15851505 0.84843832
0.047681868 0.15834287 0.84872407
0.052084655 0.15865846 0.84860027
0.067033127 0.15819211 0.84751487
0.038667355 0.16275485 0.84937811
0.042518515 0.16234557 0.84724468
0.048017677 0.16223292 0.84665936
0.052779045 0.16230339 0.84702981
0.057439473 0.16284025 0.84880036
0.062623873 0.16312401 0.84895265
0.06700711 0.16233414 0.84718037
0.042554624 0.16722113 0.84676415
0.047943771 0.16748752 0.84535551
0.052898522 0.16698396 0.8457917
0.057549935 0.16712515 0.8475039
0.062174398 0.16696711 0.84899086
0.066333592 0.16577548 0.84866703
0.04299001 0.17193085 0.84788167
0.047809843 0.17287211 0.84697151
0.052845027 0.17197493 0.84809548
0.057677101 0.17065437 0.84937805
0.04419196 0.17610632 0.84900033
0.047968455 0.17722568 0.84889662
0.052129731 0.17538518 0.84933364
0.048395399 0.034936689 0.85335559
-0.0073111169 0.036551673 0.85400003
0.012606133 0.039753698 0.85453355
0.01712239 0.039757825 0.85462242
0.022953359 0.039734051 0.85411119
0.027419979 0.039107185 0.8543067
0.032514665 0.03894401 0.85421127
0.037234992 0.038881954 0.85286665
0.041670553 0.038705535 0.85248005
0.046407115 0.037094709 0.85189497
-0.0073141446 0.043378063 0.85435849
-0.0023329884 0.04307704 0.85347921
0.0020140253 0.042381167 0.85260475
0.0066867471 0.041841574 0.85175335
0.012565852 0.041213464 0.85184997
0.018121038 0.041596103 0.8515833
0.022470672 0.041562889 0.85089993
0.027623989 0.041161593 0.85077763
0.032382555 0.041159444 0.85073328
-0.0073117795 0.047672678 0.8540141
-0.0037148171 0.047112249 0.85106659
-0.0068492135 0.052378234 0.85301459
-0.0080951629 0.057109494 0.85262495
-0.0076900348 0.061806075 0.85175002
-0.0041111824 0.07204131 0.85100001
-0.0017330811 0.077723503 0.8525337
0.001179425 0.078732766 0.85203338
-0.00094055192 0.082649507 0.854289
0.001048865 0.082923099 0.85302502
0.062519871 0.083084442 0.85060984
0.0022448562 0.086579069 0.85386676
0.058090679 0.088008747 0.85079336
0.06269148 0.087279633 0.85293704
0.066541955 0.087640576 0.85336322
0.0038340995 0.090473905 0.85314822
0.0054149614 0.093470044 0.85153311
0.04846967 0.093823828 0.85062844
0.053044539 0.093180396 0.85129446
0.057966258 0.092114031 0.8536334
0.061583713 0.091770083 0.85413343
0.066011578 0.091438271 0.85474491
0.0054145399 0.099006549 0.85146666
0.042959314 0.099182703 0.85071111
0.046785239 0.098121338 0.85294992
0.052476637 0.097045928 0.85355568
0.003839426 0.1049026 0.8543334
0.0054267342 0.10319731 0.85338449
0.033947885 0.10439508 0.85020012
0.037140716 0.10445511 0.85068893
0.041947756 0.10298873 0.85163701
0.046046387 0.10248204 0.85402232
0.0065554292 0.10808498 0.85257262
0.023649119 0.10917392 0.85046673
0.027852435 0.1080898 0.85082382
0.032423183 0.10776029 0.85178524
0.037236705 0.10790085 0.85289991
0.041537736 0.10752281 0.85410565
0.0086108213 0.1127368 0.85347778
0.011760517 0.11310343 0.85112381
0.018093776 0.11389621 0.85028887
0.022876764 0.11243819 0.8512184
0.027507214 0.11251266 0.85328329
0.032201853 0.11189809 0.85435331
0.037319142 0.11131737 0.85477781
0.0086187804 0.1176076 0.85426682
0.012570751 0.117336 0.85228878
0.018124543 0.11725872 0.85172582
0.022943923 0.11753388 0.85372967
0.026151326 0.1168447 0.85450017
0.0086234892 0.12244139 0.85473341
0.012866536 0.12184291 0.85425198
0.018176185 0.12190731 0.85417145
0.022642503 0.12143826 0.85438669
0.067046039 0.14358296 0.85438675
0.032972015 0.14802501 0.85425717
0.036897421 0.14898874 0.85425007
0.042064279 0.14934643 0.85402226
0.046860084 0.14940086 0.85433346
0.069139473 0.14616539 0.85400003
0.03249041 0.15244529 0.85358518
0.037239227 0.15232992 0.85294437
0.042005997 0.15231173 0.85284448
0.047104012 0.15249665 0.85299003
0.051813722 0.15230611 0.85391676
0.032812711 0.15724009 0.85280007
0.037004385 0.15728618 0.85087872
0.041453484 0.15647531 0.85082853
0.047798786 0.15579 0.85079038
0.053453963 0.15682368 0.85149574
0.057942722 0.15816377 0.85329705
0.062651455 0.15778355 0.85241389
0.066359721 0.15592848 0.85237855
0.033133302 0.16231999 0.85374004
0.036513999 0.16272573 0.85087997
0.059322689 0.16134302 0.85026664
0.061681986 0.1612924 0.85000002
0.034117371 0.16690458 0.8544445
0.037037384 0.16769737 0.85201663
0.063334435 0.16937742 0.85089993
0.066985726 0.16800073 0.85193837
0.034107614 0.17003421 0.85420007
0.037696552 0.17275096 0.85303813
0.04032518 0.17334133 0.85093319
0.054567568 0.17400306 0.85029989
0.057885829 0.17365128 0.85244995
0.062715136 0.17302427 0.85326672
0.065982372 0.17324612 0.85436678
0.038894467 0.17721957 0.85436678
0.041498382 0.17769946 0.85176659
0.053306904 0.17794192 0.85184765
0.057603382 0.17678069 0.85416675
0.062809378 0.17646362 0.85455567
0.043109704 0.18158062 0.85369998
0.047286712 0.1820479 0.85160291
0.051845282 0.18256402 0.85334444
0.047308926 0.18729234 0.85422868
0.050036576 0.18671131 0.85416675
0.04315573 0.033605024 0.85990012
0.047079314 0.033144422 0.85833335
-0.0073479796 0.039131895 0.85832149
-0.0027455704 0.038524576 0.85817754
0.0022543801 0.039891187 0.85748881
0.0070394631 0.03981933 0.85594481
0.011844289 0.038805943 0.85702229
0.017841257 0.037884708 0.85724187
0.023034295 0.03748095 0.85711122
0.028259311 0.037122451 0.85803336
0.032641452 0.036703855 0.85755557
0.037432201 0.035897594 0.85737801
0.042200502 0.035873298 0.85678893
0.045347564 0.035039492 0.85586697
-0.010536505 0.043867394 0.85724998
-0.0073198872 0.041367382 0.85503125
-0.0041330839 0.041391674 0.85553354
-0.010527968 0.047814354 0.85655558
-0.0089182612 0.052523285 0.85538352
-0.010545722 0.056673441 0.85800004
-0.0057323463 0.056546301 0.85608339
-0.0041337269 0.074823923 0.85566664
-0.0057509197 0.075102918 0.85885721
-0.0036121474 0.078209065 0.85789031
-0.0025447879 0.083008364 0.85798973
-0.00094397721 0.086139984 0.85740018
0.0011884429 0.087752678 0.8575651
0.0033182728 0.093033291 0.85723966
0.063857689 0.092664175 0.85578698
0.067298107 0.092755757 0.85590017
0.0034533623 0.097333141 0.85763717
0.054920495 0.098714903 0.85580021
0.058148008 0.097183317 0.85631871
0.06281095 0.09688165 0.85767639
0.066721901 0.096203186 0.85705215
0.0054398701 0.10344841 0.85545003
0.048524845 0.10187549 0.85560018
0.051745974 0.10193391 0.85608917
0.057234399 0.1016966 0.85857046
0.061600912 0.10079128 0.8599335
0.0038442197 0.10742021 0.85540003
0.043196946 0.10927991 0.8554225
0.047213767 0.10704079 0.85713345
0.051689021 0.10660961 0.85893333
0.0038536575 0.11007678 0.85750008
0.0064093866 0.11291274 0.85723478
0.029355792 0.11452725 0.8550002
0.033004515 0.11433893 0.85656691
0.037030511 0.11364418 0.85733348
0.042267323 0.1125521 0.85812229
0.046758257 0.11081904 0.85830659
0.0066484297 0.11719915 0.85710019
0.028260844 0.11811836 0.85632414
0.03266976 0.11815744 0.8582592
0.037325364 0.1171315 0.85951668
0.040751681 0.11518803 0.8599335
0.0081006717 0.12204436 0.85566688
0.011824355 0.12416678 0.85566694
0.018204246 0.12413776 0.8554669
0.023415418 0.1238775 0.85641682
0.027657915 0.1227052 0.85795832
0.032318495 0.12193473 0.85956681
0.0086551001 0.12688109 0.85786676
0.012077771 0.12716091 0.85744774
0.017436048 0.12754007 0.85693353
0.023051133 0.12765628 0.85771853
0.026952589 0.12763377 0.85972011
0.017490475 0.13113615 0.85961682
0.02310043 0.1311302 0.85957789
0.024291318 0.13786252 0.85918337
0.027667476 0.1379157 0.85916185
0.031122934 0.13835591 0.85976678
0.023622319 0.14172001 0.85915565
0.028017756 0.14237808 0.85798663
0.032654591 0.14283623 0.85787231
0.037281346 0.14270855 0.85915238
0.041979041 0.14315237 0.85879993
0.047103491 0.14378814 0.85877776
0.05193628 0.14386259 0.85922223
0.064647704 0.14362144 0.85780001
0.066784583 0.14310281 0.85786372
0.024671672 0.14693014 0.85846657
0.027667247 0.14762536 0.8566063
0.030968489 0.14721784 0.85550022
0.037601758 0.14642298 0.85667515
0.042187102 0.14659518 0.85651875
0.04698649 0.14661664 0.85664457
0.052034218 0.14762096 0.85678476
0.057656389 0.14757666 0.85852003
0.062847979 0.14770283 0.85706687
0.067253359 0.1481106 0.85605824
0.024709981 0.15115672 0.8598001
0.027813129 0.15299357 0.85665202
0.054876279 0.15271817 0.85511154
0.058014441 0.15238513 0.85649717
0.062903076 0.15284626 0.85582995
0.067542516 0.15315902 0.85646731
0.028296934 0.1576972 0.85746676
0.030957628 0.15909745 0.85520017
0.058058321 0.15587932 0.85500032
0.029074641 0.16250345 0.85848337
0.030982567 0.16241071 0.85588914
0.031855762 0.16758661 0.85793334
0.069466025 0.16920124 0.8580333
0.032647677 0.17233332 0.85773331
0.035767555 0.17353672 0.85580039
0.06729693 0.17235923 0.8558836
0.033878352 0.17687845 0.85849988
0.036858711 0.17765029 0.85644478
0.058439117 0.17929015 0.85590708
0.062515266 0.17874883 0.85598373
0.067175455 0.17756517 0.8560335
0.034312572 0.18064728 0.8593334
0.037803799 0.18176 0.85854656
0.041848145 0.18347572 0.85612023
0.054357301 0.18298404 0.85531139
0.057738461 0.18289229 0.85700959
0.063225195 0.18205725 0.85750002
0.067203671 0.18215358 0.85639471
0.042268172 0.18759105 0.85819167
0.045354616 0.18870437 0.85600036
0.052028429 0.18798667 0.85635573
0.056346551 0.18663067 0.85928333
0.064808473 0.18557237 0.8599335
0.068746299 0.18617874 0.859038
0.043106809 0.19174767 0.85893345
0.047231957 0.19281931 0.8574751
0.051889576 0.19164039 0.85845327
0.043959267 0.1951701 0.8599335
0.046084598 0.19618098 0.85968906
0.050354883 0.19509444 0.85960013
0.036945026 0.028966544 0.86468351
0.042826727 0.028267434 0.86298001
0.046492904 0.028084815 0.86231667
-0.00094830786 0.033661049 0.86133337
0.013563636 0.033796526 0.86480021
0.01837665 0.033348531 0.86362511
0.023203803 0.033740949 0.86337787
0.028032154 0.033739209 0.86333352
0.032857593 0.032930981 0.8632223
0.037647996 0.032093849 0.86231858
0.04220631 0.031608913 0.86157143
0.04721079 0.031075144 0.8607232
-0.0057608043 0.036823362 0.86033338
-0.00148287 0.035778772 0.86088896
0.0020678183 0.037130523 0.86287981
0.0074926424 0.038104102 0.86218339
0.011679887 0.036428835 0.86186677
0.017043909 0.035586432 0.86140668
0.023147801 0.035261933 0.86130005
0.027977278 0.035276037 0.86164445
0.032747556 0.035222352 0.86033338
-0.0063048615 0.078004338 0.86148494
-0.0063226237 0.080906875 0.86396456
-0.0041623055 0.081753768 0.86158252
-0.00094813085 0.08812093 0.86117244
0.00065759773 0.089672625 0.8606897
0.0014630787 0.092727043 0.86303747
0.0022627511 0.097675636 0.86067307
0.064011529 0.099199317 0.86000019
0.067219369 0.098399445 0.86000001
0.0022662398 0.10103352 0.86200011
0.057600435 0.10400671 0.86006677
0.063120641 0.10289893 0.86120737
0.066929072 0.10296969 0.86142117
0.0022636107 0.10732281 0.86100006
0.052784167 0.10879795 0.86000019
0.056942888 0.10747912 0.86224449
0.061815187 0.10756396 0.86292607
0.066457786 0.10738914 0.8631354
0.0033408094 0.11233983 0.86262512
0.047577098 0.11321048 0.86010015
0.052036509 0.11211406 0.8608889
0.056529939 0.11200043 0.86413354
0.062319767 0.11135721 0.86434186
0.066764206 0.11177841 0.86449051
0.038348973 0.11919641 0.86000019
0.042591419 0.11708466 0.86064178
0.04725419 0.1170041 0.86151856
0.05196834 0.11701772 0.86309576
0.0070943697 0.12357307 0.86263335
0.029527472 0.12479562 0.86000019
0.033073932 0.12422341 0.86046666
0.03783292 0.12223629 0.86128569
0.042464629 0.12189828 0.86213326
0.047168743 0.12172496 0.86415726
0.0087021841 0.1299766 0.86253333
0.011091047 0.12970033 0.86070001
0.029136764 0.1284401 0.86030006
0.032783799 0.12818414 0.86126667
0.037643839 0.12752342 0.86221665
0.042356439 0.12740554 0.86290306
0.011913147 0.13312919 0.86216307
0.017498311 0.13359559 0.86000848
0.02311182 0.13359429 0.86000019
0.027930638 0.13282637 0.8602075
0.032784142 0.1329906 0.861274
0.037625019 0.13306966 0.86178517
0.042612422 0.13276298 0.86188
0.047130454 0.13281265 0.8622033
0.052144881 0.13320747 0.86267781
0.012731306 0.13808854 0.86308903
0.017515728 0.13774003 0.86091107
0.022149479 0.13727377 0.86000025
0.028725518 0.13599396 0.86000019
0.033193927 0.13736671 0.86000967
0.037549317 0.13760194 0.86005193
0.042365532 0.13761489 0.86013347
0.047199294 0.13767603 0.86051875
0.052066173 0.13781431 0.86138517
0.056629807 0.13816944 0.86360437
0.061093703 0.13985705 0.86410022
0.013014355 0.14199127 0.86404461
0.017528953 0.14265606 0.86158615
0.022047594 0.143493 0.86020017
0.038348973 0.14079328 0.86000019
0.042759735 0.14119321 0.86000019
0.047170479 0.14159317 0.86000019
0.051984251 0.14159861 0.86003351
0.056889407 0.14263019 0.86143696
0.062048692 0.14283326 0.86170006
0.065155163 0.14153539 0.86453348
0.018179737 0.14731757 0.86281478
0.02233097 0.14733391 0.86082238
0.057878155 0.1461634 0.86022234
0.019996967 0.15189794 0.86401689
0.022717105 0.152656 0.86246198
0.024761714 0.15628204 0.8616001
0.026319636 0.15839069 0.86000019
0.026758488 0.16222236 0.86123335
0.028448824 0.16724668 0.86206198
0.028822942 0.17257608 0.86293894
0.031141035 0.17444244 0.8602668
0.069648176 0.17204556 0.86028337
0.029665953 0.17681344 0.86403352
0.031813145 0.17813674 0.86110669
0.032817632 0.18285249 0.86219054
0.03650282 0.18358199 0.86060005
0.037840899 0.18745786 0.8621667
0.057678934 0.18825632 0.86123347
0.06229756 0.18766004 0.86150306
0.067468986 0.18807521 0.86113578
0.038900562 0.1923327 0.86335015
0.041196886 0.19257985 0.86086667
0.052792348 0.19361545 0.86013341
0.056965545 0.19256322 0.86258149
0.062184907 0.1926294 0.86360013
0.067694642 0.1928647 0.86327833
0.042253271 0.19743699 0.86197084
0.047597971 0.19809636 0.86048341
0.05227888 0.19734643 0.86157501
0.055973288 0.19659108 0.86383361
0.068337694 0.1960931 0.86399996
0.043479543 0.20200327 0.86315346
0.047309928 0.20218085 0.86254072
0.051979825 0.20215175 0.86327511
0.0087573379 0.029077647 0.86800003
0.011999357 0.029086953 0.86827785
0.017415592 0.028580204 0.8692444
0.022283742 0.02912529 0.8694222
0.028537506 0.028462384 0.86894286
0.033007637 0.028242769 0.86716676
0.038418595 0.027179653 0.86760563
0.041017056 0.02738495 0.86553353
0.0022800176 0.033866853 0.8665995
0.0073394566 0.03250489 0.86789173
0.011775041 0.032056876 0.86671263
0.016303083 0.031749893 0.8675223
0.022504099 0.031478986 0.86745429
0.028165689 0.031480547 0.86748892
0.032977249 0.030634537 0.8663668
0.0038936541 0.035470728 0.86640012
0.0067994595 0.036103021 0.86611348
-0.0058117881 0.083970554 0.86794752
-0.0033848104 0.0872261 0.86820495
-0.00095329387 0.090211496 0.86586213
0.00066410634 0.095410816 0.8692084
0.05830973 0.11393622 0.86663359
0.06177026 0.11385269 0.86681354
0.065744586 0.1133121 0.86699182
0.05399115 0.11929139 0.8665002
0.057085756 0.11740904 0.86790001
0.062244117 0.11639067 0.86891097
0.066560067 0.1169207 0.86884433
0.048265517 0.12394789 0.86525005
0.052400082 0.12257317 0.86690754
0.055750504 0.12283078 0.86873323
0.0071166698 0.12637588 0.86534482
0.047494039 0.12726092 0.86588901
0.052410059 0.12743504 0.86707425
0.055731971 0.12763646 0.86844438
0.0087391771 0.13294706 0.86620009
0.048254084 0.13035583 0.86505014
0.052367669 0.1305543 0.8663668
0.057080027 0.13284683 0.86780959
0.0087534711 0.13639271 0.86761665
0.010354453 0.1377784 0.8661834
0.058062974 0.13629034 0.86697513
0.061168063 0.13749193 0.86743993
0.011329303 0.14285207 0.86666679
0.066981204 0.14198837 0.86730003
0.012811502 0.14703324 0.86850846
0.01601398 0.14911035 0.86650014
0.017076615 0.15244158 0.8677668
0.020059073 0.15478791 0.86670011
0.01795838 0.15687585 0.86933327
0.022289731 0.157878 0.8670668
0.023334965 0.16262089 0.86835188
0.024569539 0.16773011 0.86901665
0.026539987 0.16859016 0.86720002
0.026592353 0.17296295 0.86891103
0.028175363 0.17718294 0.86781675
0.029714594 0.1811285 0.86545014
0.033341639 0.18751726 0.86744672
0.036163229 0.18994237 0.86526692
0.034682583 0.19067411 0.86859995
0.036812279 0.19321376 0.86791116
0.038516469 0.19718921 0.86740667
0.05752784 0.19852921 0.8662135
0.062126432 0.19764175 0.86726683
0.066637337 0.19775274 0.86704671
0.039141349 0.20160277 0.86869162
0.041602165 0.20311309 0.86652231
0.053953767 0.20457807 0.86590016
0.057563931 0.20233878 0.86813819
0.06185839 0.20090762 0.8691833
0.067793161 0.20152792 0.86941832
0.043078881 0.20702784 0.86806667
0.047536116 0.20717837 0.86666679
0.052411322 0.20727915 0.86708897
0.056172661 0.2065208 0.86899161
0.044444896 0.21107385 0.86943334
0.047672451 0.21100612 0.86915547
0.052529581 0.21081953 0.86905324
0.055771902 0.21017605 0.8690666
0.0071842866 0.02926413 0.87356681
0.016900668 0.028352581 0.87053347
0.022168957 0.027937252 0.87020016
0.025831249 0.0275442 0.87056684
0.034745146 0.025912868 0.87016684
0.036368012 0.02591287 0.87016672
0.0039273598 0.032526538 0.87390006
0.0055599501 0.030916236 0.87433344
-0.0064909896 0.087311171 0.87226331
-0.0042133005 0.089243017 0.87213808
-0.0023180996 0.092536688 0.87259835
-0.0020494272 0.09651316 0.87431079
0.00066842226 0.097658284 0.87485725
0.0006662393 0.10058352 0.8720001
0.0022964738 0.10725605 0.87349999
0.0022993055 0.11714958 0.87457699
0.058303863 0.11985128 0.8705669
0.062372323 0.11906008 0.8707003
0.06684912 0.11948527 0.87085021
0.058326732 0.12313882 0.87091136
0.06223027 0.12302694 0.87155002
0.067348428 0.1224904 0.87205553
0.070677727 0.12343412 0.87299985
0.058322269 0.1279892 0.87084466
0.062660947 0.12789997 0.87244642
0.067290172 0.12706521 0.87339985
0.070719108 0.12675644 0.8735109
0.0071553811 0.13191879 0.8700518
0.058319397 0.13122237 0.87080014
0.062477283 0.13304728 0.87214804
0.066696405 0.13281369 0.87416649
0.07082884 0.13020773 0.87486666
0.0079933256 0.13886628 0.87303334
0.063676067 0.13746537 0.87186658
0.066941261 0.1373639 0.87380534
0.070804551 0.13667011 0.87456667
0.0088020638 0.14201702 0.8724333
0.063971542 0.14087136 0.87036675
0.065861084 0.14144325 0.87389982
0.010829538 0.14802407 0.87196672
0.012259514 0.15259081 0.87257075
0.015270099 0.15378252 0.8701334
0.01329463 0.15724844 0.8736499
0.015940668 0.15755847 0.87132013
0.016950872 0.16244631 0.87319624
0.020152414 0.16198771 0.8707335
0.01805824 0.16642487 0.87418872
0.021331472 0.16723715 0.871562
0.022628905 0.17202161 0.87233335
0.025018454 0.17247617 0.87053353
0.023071639 0.17675683 0.87368321
0.026020488 0.17768922 0.87148017
0.027516112 0.18207605 0.87257218
0.02997724 0.18678951 0.87309998
0.031553693 0.18891522 0.87166679
0.033500992 0.19262955 0.87160003
0.034069858 0.19666196 0.87366652
0.036412124 0.19773322 0.87122232
0.034924831 0.20014101 0.87466663
0.037283823 0.20292202 0.87263334
0.062687099 0.20341201 0.87056017
0.066427812 0.20327102 0.87065011
0.039324686 0.20741905 0.87276661
0.041261896 0.20814225 0.87070012
0.058493234 0.20772114 0.87097359
0.062451527 0.20759447 0.87180007
0.067330681 0.2076019 0.87183172
0.03981255 0.2114981 0.8745333
0.04246613 0.21264918 0.8716287
0.047772568 0.21387874 0.87097806
0.052637156 0.21343862 0.87083352
0.057613961 0.21260639 0.87240392
0.062528968 0.21191244 0.87288874
0.067619406 0.21217982 0.87255484
0.043203637 0.21743304 0.87304991
0.047796525 0.21722859 0.87141496
0.052730229 0.21746562 0.87236297
0.056640964 0.21682179 0.87413329
0.043856006 0.22109026 0.87386656
0.047911089 0.22181065 0.87349981
0.051749814 0.22170019 0.87413329
-0.0073193084 0.093394011 0.87874776
-0.0042324569 0.093723819 0.87610352
-0.0058883824 0.098164223 0.87938613
-0.0028739134 0.098400682 0.87664121
0.00066971214 0.099477284 0.87654555
-0.0026051577 0.10126963 0.87794822
0.0039466843 0.10456592 0.87820005
-0.00096873712 0.1145876 0.87988901
0.00067196961 0.11453694 0.87950003
-0.00096830173 0.11780777 0.87949365
0.0016523752 0.11823229 0.87778378
0.0027217725 0.12148906 0.87949127
0.0055791005 0.12241799 0.87734491
0.0071963607 0.13023274 0.87503439
0.068893164 0.13244149 0.87618351
0.070982158 0.13293584 0.87676066
0.0071967603 0.13593745 0.87508339
0.069240712 0.13761777 0.87541676
0.070907637 0.1384972 0.87584007
0.0076122796 0.14259738 0.87599921
0.068619341 0.14127576 0.87790817
0.070920587 0.14178313 0.87600011
0.0088442713 0.14759153 0.87661684
0.0088548204 0.15184794 0.87766218
0.010459844 0.15301493 0.875
0.008864115 0.15691116 0.87858337
0.011292825 0.1581445 0.87636673
0.0088585522 0.16089526 0.87803221
0.012130236 0.162498 0.87786674
0.012146428 0.16597539 0.87898791
0.016708786 0.16847743 0.87754011
0.018151214 0.17218876 0.87871116
0.020278933 0.17278522 0.87620014
0.01871787 0.17591543 0.87963319
0.021120362 0.17788589 0.87725008
0.022503836 0.18213069 0.87804443
0.025728218 0.18366879 0.87628889
0.027075449 0.18764773 0.87806255
0.030107705 0.18923371 0.87690014
0.028541554 0.19214723 0.87903333
0.030556535 0.19315921 0.87805843
0.032187436 0.19802085 0.87789166
0.034187399 0.20142069 0.87670004
0.03504993 0.20412375 0.87780017
0.03638453 0.20722945 0.87712234
0.038335249 0.21235807 0.87809336
0.059450369 0.2149891 0.87550002
0.039948627 0.21711914 0.87752241
0.041495696 0.21990846 0.87563342
0.058357008 0.2187293 0.8774417
0.062685259 0.21685435 0.87833816
0.067490727 0.2166173 0.87813503
0.039981004 0.22056143 0.87823349
0.042240527 0.22301193 0.8775934
0.048043016 0.22486335 0.87590009
0.054067492 0.2228355 0.87646675
0.057759907 0.22232543 0.87874991
0.043768495 0.22709347 0.87912369
0.048162814 0.22787565 0.87808901
0.053110939 0.22720936 0.87866664
0.056409355 0.22647741 0.87899995
0.044163305 0.232458 0.87997746
0.048249405 0.23237628 0.87966651
0.052534629 0.23180906 0.87999976
-0.0075674434 0.090450801 0.88394123
-0.0075427294 0.097531006 0.88105428
-0.0070073716 0.10125125 0.88253134
-0.0026132816 0.10328402 0.88120085
0.0014942153 0.10406005 0.88083339
-0.0022886365 0.10703941 0.88245714
0.0010860587 0.1075529 0.88262504
-0.0019605947 0.11299716 0.88281363
0.00067387969 0.11240055 0.88200009
-0.0034418807 0.11738265 0.88246346
-0.0016309787 0.12285219 0.88281423
0.0019872382 0.12391891 0.88106191
0.0027339656 0.12695502 0.8833707
0.0056137461 0.12728313 0.88279313
0.0039758496 0.1324918 0.88468963
0.0056232852 0.13243251 0.8842932
0.0039643156 0.13785098 0.88212305
0.0056005977 0.137632 0.88072538
0.0039714566 0.14303182 0.88371229
0.0056127589 0.14285828 0.8826378
0.0072496971 0.1467765 0.88151997
0.0072552077 0.15345122 0.88218993
0.0072450228 0.15733273 0.88095164
0.0088976687 0.16406631 0.88190919
0.012172394 0.16824339 0.88087577
0.013031437 0.17093083 0.88347214
0.015874822 0.17254256 0.88120818
0.017115068 0.17672159 0.88161659
0.018787382 0.18149599 0.88290006
0.020378456 0.18264046 0.88049984
0.021840857 0.18717435 0.88160408
0.025298173 0.18996021 0.88026637
0.02319474 0.19121146 0.88352227
0.02664808 0.1931835 0.88152659
0.027673265 0.19739237 0.8827467
0.030227497 0.19817567 0.88038874
0.02868983 0.20054147 0.88360012
0.031914461 0.20311676 0.88169998
0.032225665 0.20690389 0.88269448
0.035151087 0.20962562 0.88033307
0.033645019 0.21047492 0.88390011
0.036055822 0.21340397 0.88241667
0.038093518 0.2178065 0.88196659
0.063873619 0.21941788 0.88019973
0.067197599 0.21955088 0.88073313
0.038109906 0.22282362 0.88234162
0.040064462 0.22429594 0.88006645
0.059860054 0.22385003 0.88153327
0.063144259 0.22301507 0.88147026
0.067757577 0.2216744 0.88266659
0.038592659 0.22775275 0.88395011
0.040794138 0.22830889 0.88165331
0.058461804 0.22783561 0.8810944
0.062375143 0.22730789 0.88222504
0.065553427 0.2270488 0.88441116
-0.0059473999 0.10906105 0.88819999
-0.0026275329 0.10796463 0.88597924
0.00067968637 0.10757812 0.8896001
-0.0059442013 0.11230412 0.88772225
-0.0042797886 0.11207322 0.88590091
-0.0059460606 0.11647075 0.88800007
-0.0042754365 0.12019201 0.88500005
-0.0026323881 0.1270939 0.88721097
0.0015018753 0.1284695 0.88531774
-0.0015302846 0.13110274 0.88827902
0.0021231761 0.13217437 0.88669139
-0.00097876822 0.13892607 0.88900006
0.001621344 0.13736944 0.88658535
-0.00097876822 0.14057979 0.88900006
0.0017839152 0.14218508 0.88869601
0.0031616394 0.14622208 0.88812393
0.0061826655 0.14829277 0.88568145
0.0072858562 0.15162803 0.88591671
0.0072783157 0.16134879 0.88500011
0.01279878 0.17259908 0.88642365
0.013917321 0.17745909 0.8873499
0.016098181 0.17910461 0.88596672
0.013956266 0.18043779 0.88983333
0.016943378 0.18316726 0.8870222
0.017784454 0.1874395 0.88772219
0.018079653 0.1917619 0.88861656
0.021621158 0.19352174 0.88657761
0.018908672 0.19506446 0.88859981
0.022551605 0.19736114 0.88851988
0.025468701 0.19783556 0.88619995
0.023889381 0.20009834 0.88893324
0.027166639 0.20312878 0.88772362
0.027748482 0.20747937 0.88867766
0.030425891 0.20854273 0.88616657
0.028878151 0.21178468 0.88940006
0.0321001 0.21281409 0.8867951
0.032399207 0.21724041 0.88851422
0.035813443 0.2181215 0.8865748
0.033307225 0.22175024 0.88955563
0.036105853 0.22293463 0.88767987
0.068553202 0.2245788 0.8876552
0.036309648 0.22812723 0.88861108
-0.0059661488 0.10443258 0.89100003
-0.0020920967 0.1338708 0.89204282
-0.0023172351 0.13726553 0.89325488
-0.00098449341 0.14306547 0.89420003
0.00068096048 0.14342543 0.89126766
0.0023461881 0.1478603 0.89302999
0.0040189745 0.15139692 0.89428568
0.0056807618 0.15289779 0.89333183
0.012335101 0.17435944 0.89261121
0.012334537 0.17767416 0.8925702
0.013997762 0.18346617 0.892479
0.015633509 0.18809991 0.89084154
0.014023662 0.19128874 0.89413053
0.016457651 0.19216508 0.89048344
0.018147962 0.19746505 0.8919751
0.020625329 0.19894332 0.89116687
0.019042026 0.201434 0.89486682
0.022601752 0.20260803 0.89270574
0.023598745 0.20739251 0.89364195
0.025626762 0.20818606 0.89170027
0.027314207 0.21253338 0.89254695
0.02898711 0.21756811 0.89275569
0.03061701 0.21897539 0.89173341
0.03148593 0.22256148 0.8928085
0.00068400317 0.14822948 0.89525002
0.002913622 0.15173751 0.89629656
0.01075257 0.1782122 0.89948726
0.011567511 0.18287778 0.89774621
0.013082409 0.18749562 0.89826787
0.013531297 0.19220126 0.89838886
0.015712338 0.19321159 0.89533347
0.015763201 0.19634442 0.89823163
0.017978936 0.20199911 0.89737779
0.020730248 0.20412087 0.89569998
0.019090263 0.20695154 0.89713341
0.021296782 0.20782626 0.89611107
0.019111542 0.21135832 0.89813364
0.022216216 0.21206765 0.89671671
0.025738848 0.21326093 0.89560002
0.022664161 0.21693563 0.89787513
0.026426028 0.21708822 0.89626676
0.028144384 0.22246137 0.89776689
0.0091204308 0.17910399 0.9039886
0.010789045 0.17629859 0.90253854
0.0082730958 0.18238603 0.90359217
0.010775436 0.18110651 0.90140009
0.0090902783 0.18605427 0.90100002
0.010788985 0.18805003 0.90253335
0.0091054114 0.19307929 0.90250003
0.011330153 0.19163895 0.9009921
0.014165017 0.19657688 0.90314293
0.017483104 0.20438474 0.90053356
0.017086754 0.20719744 0.90185034
0.018057803 0.21294117 0.90130025
0.019181764 0.21632685 0.90143341
0.020846745 0.21950994 0.90073341
0.0091717187 0.17334786 0.90907216
0.0077390042 0.17686634 0.90688735
0.0074486723 0.18534295 0.90571433
0.012518744 0.19549185 0.9059
0.015897453 0.20222795 0.90588194
0.015924975 0.20848602 0.9074502
0.015944375 0.21296668 0.90855569
0.018457357 0.21770181 0.90716684
0.0066548632 0.17489062 0.9127143
0.0057876655 0.17609096 0.91014284
0.014277794 0.20406879 0.9103334
0.014322495 0.20810598 0.91318345
0.014335303 0.21169156 0.91400003
0.0075250389 0.17362653 0.91500008
0.012655174 0.20358416 0.91577256
0.012671676 0.2072631 0.91696674
0.013531729 0.212478 0.91741663
0.0093298946 0.20300004 0.92475003
0.011029042 0.203389 0.92261493
0.011038069 0.20785119 0.92337012
0.0093496032 0.20687568 0.92670327
0.0076579223 0.20440671 0.93115795
