# .PCD v0.7 - Point Cloud Data file format
VERSION 0.7
FIELDS x y z
SIZE 4 4 4
TYPE F F F
COUNT 1 1 1
WIDTH 1378
HEIGHT 1
VIEWPOINT 0 0 0 1 0 0 0
POINTS 1378
DATA ascii
0.023566168 0.064078264 0.81999987
0.027369473 0.06281177 0.81940013
0.026606366 0.066320531 0.81943339
0.019076983 0.05981179 0.82426673
0.022306858 0.058373444 0.82292497
0.027675407 0.057679366 0.82200462
0.032827474 0.05736129 0.82213873
0.03747594 0.057435628 0.8231945
0.01906207 0.062829554 0.82362229
0.021880072 0.062463306 0.82132477
0.027401596 0.061054818 0.82036662
0.032784123 0.062633231 0.82105154
0.037456822 0.062764198 0.82276279
0.022096256 0.067315668 0.82227397
0.028173933 0.067939617 0.82057762
0.032833382 0.067314856 0.82225907
0.036756001 0.066711858 0.82426667
0.023039663 0.071667545 0.82306659
0.027254768 0.072051056 0.82126117
0.031961843 0.071708225 0.82353336
0.023690691 0.075150795 0.82433349
0.02858774 0.075703636 0.82366675
0.014549414 0.05399121 0.82906699
0.017946234 0.053360321 0.82885361
0.022258388 0.053165618 0.82823342
0.027140616 0.053406581 0.82798886
0.033422928 0.053496018 0.82738334
0.037698727 0.052385859 0.82810372
0.042054273 0.053350769 0.82870692
0.013434405 0.057254117 0.82846683
0.017586567 0.057205975 0.82651329
0.021819586 0.055727307 0.82623339
0.026048977 0.055328012 0.82600009
0.04213424 0.057255197 0.82721341
0.013568949 0.061835133 0.82825845
0.016701605 0.062594019 0.8262952
0.041565385 0.062408909 0.8282001
0.014561114 0.066382311 0.82973355
0.017607497 0.067747839 0.82754827
0.038245641 0.068280399 0.82654679
0.01878879 0.072065309 0.82851678
0.021052124 0.072648607 0.82638341
0.034155004 0.072652951 0.82643342
0.037184503 0.071900956 0.82810014
0.022572037 0.076757431 0.82842672
0.027081838 0.077878945 0.82615548
0.03259242 0.076737039 0.82725716
0.027465165 0.081985623 0.82858807
0.030791067 0.080996245 0.82923359
0.037996545 0.049696624 0.83464426
0.042602763 0.049622521 0.83340007
0.047355313 0.049716473 0.83497757
0.050471101 0.049717795 0.83499974
0.0099816816 0.054377582 0.83499974
0.01305476 0.05265848 0.83239043
0.017310631 0.051455688 0.83171672
0.022365285 0.051097792 0.83217782
0.027423102 0.051512998 0.83265007
0.032113988 0.051752876 0.83205706
0.04284754 0.051387921 0.83061665
0.047227647 0.052678652 0.83270383
0.051249087 0.052823652 0.83498865
0.0099668046 0.057396788 0.83375543
0.011478629 0.056410462 0.83063328
0.047200751 0.057293866 0.83222228
0.050471101 0.056707487 0.83499974
0.0099609606 0.061241183 0.83326656
0.01199993 0.063391782 0.83100003
0.043648787 0.062628634 0.83111674
0.046373606 0.06176867 0.83411998
0.013311992 0.067879297 0.83231097
0.042592697 0.067691721 0.8331778
0.01463599 0.072154269 0.83399993
0.01677059 0.073055483 0.83189332
0.03894655 0.073853694 0.83275551
0.04188706 0.072207257 0.83461654
0.018109085 0.076316215 0.83286667
0.021331957 0.078458719 0.83231109
0.034733862 0.078083955 0.83106661
0.036756061 0.077102192 0.83298337
0.022374565 0.082105316 0.83265185
0.025413753 0.083427429 0.83040011
0.033076219 0.082447812 0.83263707
0.036442909 0.082308345 0.8347109
0.023284703 0.087274373 0.83340949
0.026833782 0.087840006 0.83121985
0.032322243 0.087066218 0.83337945
0.036455523 0.085442789 0.83499974
0.023983842 0.091604657 0.83453315
0.027059674 0.092257343 0.83341104
0.031461533 0.091313064 0.83470649
0.013544591 0.049546536 0.83868337
0.018218359 0.049492143 0.83776665
0.022516748 0.049107503 0.83785558
0.027193001 0.049086597 0.83750004
0.032323368 0.049196512 0.83747619
0.037843123 0.048034687 0.83816004
0.043013271 0.047169708 0.83706665
0.047501937 0.046752736 0.83757031
0.052190948 0.048313558 0.83760005
0.056220755 0.049983755 0.83946687
0.0074060154 0.053151041 0.83743697
0.010781308 0.051373407 0.83666652
0.053756814 0.052993942 0.83766657
0.055951059 0.052057575 0.83933353
0.0068854094 0.057653744 0.83746672
0.052417118 0.057623651 0.83703321
0.0074109253 0.061845809 0.83797771
0.010005592 0.06384971 0.83699995
0.048579082 0.062602654 0.83593321
0.051267356 0.062043257 0.83782673
0.008468789 0.065594241 0.83940017
0.010642504 0.067359678 0.83804005
0.044245481 0.069915779 0.83506638
0.047494207 0.066996694 0.83740002
0.05072495 0.065578617 0.83920014
0.013508379 0.073532522 0.83644986
0.043375198 0.073752195 0.83629322
0.047036584 0.072286256 0.83853334
0.014323205 0.077611431 0.83848339
0.017489403 0.078761868 0.83662653
0.038986795 0.07806617 0.83583987
0.042816553 0.077915922 0.83756292
0.04654929 0.077022411 0.83915567
0.018017773 0.082402766 0.83764172
0.03890495 0.082576752 0.83743334
0.041852642 0.081703447 0.8391335
0.01941283 0.087390922 0.83877784
0.020914355 0.087129273 0.83626652
0.038346697 0.08750461 0.83800834
0.022502448 0.091525674 0.8373667
0.027137468 0.09485314 0.83579987
0.033392113 0.093350023 0.83625984
0.037219081 0.091689445 0.83814669
0.024133282 0.09529952 0.83973324
0.027442884 0.097815044 0.83833331
0.031899944 0.098226875 0.83804446
0.035837255 0.096748658 0.83875006
0.031963844 0.10154782 0.83973324
0.06289506 0.039310206 0.84499991
0.065944746 0.039249718 0.84370011
0.043144971 0.043974843 0.84402221
0.04751616 0.043312438 0.84337342
0.052268218 0.043339778 0.84389341
0.057688106 0.043392174 0.84490663
0.062107094 0.042453922 0.84499985
0.066328779 0.042419013 0.8442952
0.0030090641 0.048735585 0.84489989
0.007162848 0.047541562 0.84364778
0.012081458 0.047663469 0.841838
0.017594222 0.047601886 0.84154671
0.023036022 0.046638038 0.84251666
0.027351215 0.046238896 0.84238887
0.032084137 0.046265069 0.84286672
0.037262239 0.046170946 0.84319049
0.042206474 0.045381792 0.84099996
0.0528403 0.045811605 0.84171659
0.057204477 0.047023185 0.84241486
0.062033236 0.047112048 0.8439852
0.066987626 0.047503266 0.8447237
-0.00093025219 0.053452764 0.84493321
0.0022140467 0.052526463 0.84271115
0.0065292041 0.050503567 0.84163332
0.010046233 0.050039332 0.8404001
0.057831276 0.053251114 0.8417334
0.061773293 0.051345397 0.84350485
0.067693934 0.051523458 0.84479803
0.0022138443 0.058031455 0.8429482
0.05394505 0.059433322 0.84059989
0.056792539 0.057808138 0.84295237
0.003003397 0.062771626 0.84342235
0.0058722538 0.063653737 0.84126663
0.053654768 0.063070856 0.84218335
0.056274373 0.061780319 0.84417778
0.003797181 0.066026635 0.84493321
0.0067333817 0.067624345 0.84280008
0.052486386 0.067388318 0.8423143
0.0081257541 0.071880206 0.84445
0.010845274 0.072033674 0.84165549
0.049241863 0.072724715 0.84059983
0.051704619 0.07209751 0.84240007
0.0085252859 0.075463049 0.84499991
0.01145348 0.077449031 0.8430835
0.048237603 0.078003697 0.84131116
0.05162406 0.076599158 0.84365338
0.013421722 0.082567647 0.84330851
0.016327314 0.084492356 0.84099972
0.043555066 0.083525978 0.84176666
0.047234811 0.082276985 0.84394675
0.014816748 0.087180391 0.84430003
0.017133223 0.087735504 0.84208894
0.042682745 0.087682195 0.84373337
0.018393131 0.092344999 0.84331435
0.021557927 0.093370281 0.841111
0.039480645 0.092748418 0.84138322
0.041959736 0.092240565 0.84390008
0.022455417 0.097429626 0.84295839
0.038791217 0.097372554 0.84221905
0.041600235 0.096637771 0.84459996
0.023619315 0.10172262 0.84377337
0.027134743 0.10199057 0.84176683
0.032032195 0.10352748 0.8415333
0.036580533 0.10166705 0.84233332
0.040026624 0.10135506 0.8446334
0.024276033 0.10607688 0.84469986
0.027401246 0.10676633 0.84393334
0.032106422 0.1074926 0.84347779
0.035291109 0.10682549 0.84439999
0.028224479 0.11004401 0.84499991
0.032159418 0.11002665 0.84486657
0.054330099 0.034660108 0.84660017
0.056691315 0.034656018 0.84650004
0.044987276 0.039499391 0.84906697
0.048544072 0.039098792 0.84895021
0.052804701 0.037847545 0.84746671
0.057513986 0.037827007 0.84698427
0.061693627 0.037543561 0.84653062
0.065258972 0.037738327 0.84500021
0.0038169555 0.044251539 0.8493337
0.0073678396 0.043777794 0.84781694
0.01251239 0.043399401 0.8481335
0.018058227 0.044214487 0.8486225
0.022794513 0.044193652 0.84822249
0.02751095 0.043356847 0.84731132
0.032264043 0.043372352 0.84761137
0.036983967 0.043346982 0.84711128
0.042524956 0.042176858 0.84735006
0.048386186 0.041333079 0.84619993
0.053092584 0.041311346 0.84574997
0.057065308 0.041332424 0.84618324
0.068497203 0.044081349 0.84606671
-0.0014619781 0.04842772 0.84868914
0.0020006185 0.04683999 0.84718102
0.0061657224 0.045631833 0.84563327
0.012470585 0.045616549 0.84534979
0.018009687 0.045669597 0.84633332
0.021935098 0.045628235 0.84556651
0.0692285 0.046403363 0.84536672
0.070113443 0.045680173 0.84652948
-0.0027130055 0.051843598 0.84753346
0.062905043 0.053465419 0.84513319
0.067424022 0.052985039 0.84582227
-0.0016096865 0.057160605 0.84662867
0.058994755 0.058998477 0.84556651
0.062086932 0.057041384 0.84685993
0.067257136 0.056595661 0.84785008
-0.0017259982 0.062353518 0.84842253
0.0006461537 0.062941648 0.84571105
0.058011483 0.063528553 0.8465445
0.061567828 0.061563592 0.84841692
-0.00093509624 0.066370502 0.84933358
0.0020288157 0.067981325 0.8472417
0.054261647 0.069219247 0.84553337
0.057111878 0.067594111 0.84769541
0.0032887429 0.071637273 0.84933352
0.0060164426 0.072796091 0.84688008
0.054325819 0.072450854 0.8465333
0.05603081 0.072614677 0.84844476
0.007232633 0.077268079 0.8475557
0.053879257 0.077287488 0.8477779
0.05609832 0.075861923 0.84946692
0.0085586971 0.082071699 0.84831136
0.010741778 0.082774855 0.84582651
0.049037766 0.082905471 0.84608883
0.051894248 0.081732459 0.84806693
0.01229751 0.08767122 0.84715831
0.044867173 0.089013278 0.84680003
0.04789827 0.087170422 0.84802514
0.051353596 0.086146757 0.84960026
0.013629757 0.091916136 0.84888017
0.016450264 0.093798429 0.84733355
0.04426083 0.093317881 0.84726667
0.046978757 0.092433915 0.84928364
0.018961212 0.097336531 0.84657335
0.043585364 0.098275565 0.84743339
0.045004942 0.096396565 0.84940034
0.019615473 0.10170309 0.84753352
0.021546822 0.10267548 0.84579992
0.038471106 0.10376478 0.84506661
0.042016014 0.10250908 0.84767795
0.045008473 0.10114465 0.84946698
0.022314902 0.10740429 0.8472001
0.037743706 0.10708111 0.84642226
0.04021671 0.10736199 0.84864473
0.023739021 0.11170276 0.84804022
0.027246576 0.11221246 0.84610474
0.032215338 0.11257842 0.84632224
0.036495361 0.11148301 0.84796685
0.027557526 0.11684936 0.84875578
0.032096799 0.11660399 0.84840858
0.028376736 0.12012085 0.84956694
0.03153611 0.12008314 0.84930032
0.049198918 0.034941234 0.85346675
0.051419128 0.034827318 0.85068411
-0.0073111169 0.039728884 0.85400003
0.0086241616 0.039766096 0.85480028
0.012603041 0.039745159 0.85435021
0.029344352 0.039759889 0.85466689
0.032516927 0.039741289 0.85426682
0.037279796 0.039723713 0.85388899
0.042406902 0.039280608 0.85290843
0.04755576 0.037282366 0.85255551
-0.011297952 0.043719009 0.85436362
-0.0073135518 0.042920191 0.85428834
-0.0025320738 0.043677758 0.85356665
0.0022416809 0.042833984 0.85260481
0.0066883438 0.041850727 0.85193998
0.012561854 0.041196533 0.85149986
0.018129192 0.042010501 0.85197216
0.022897044 0.042012513 0.85201114
0.027636752 0.041180946 0.85117763
0.032393549 0.041173417 0.85102218
0.037143212 0.04116052 0.85075545
0.040318858 0.04116267 0.85079986
-0.01527472 0.049260512 0.85400003
-0.011638406 0.047915541 0.85430032
-0.0073065441 0.047635458 0.85336667
-0.0030529927 0.046971932 0.85092217
-0.010501475 0.050872929 0.85440022
-0.0070744795 0.051904541 0.85269058
-0.0057197348 0.055627961 0.85420007
-0.0041083926 0.056964252 0.8504222
0.065678582 0.058546606 0.85043347
0.070483729 0.058585603 0.85100001
-0.0037194632 0.062614948 0.85198331
0.063203238 0.062720589 0.85126007
0.067549251 0.061972603 0.85403341
0.070737623 0.061974972 0.8540656
-0.0018922954 0.068487056 0.85206664
0.059348267 0.068845928 0.85063326
0.06224969 0.067118689 0.85310948
-0.00094012375 0.07149262 0.85390002
0.0017091437 0.073448159 0.85201102
0.058647882 0.072915517 0.85196108
0.06118302 0.072303846 0.85410005
0.0033023767 0.076703973 0.85296661
0.0054200506 0.078497574 0.85233331
0.054591082 0.079133876 0.85066676
0.057902832 0.077736422 0.8526904
0.0066184048 0.082146108 0.85317504
0.054315448 0.082876734 0.85255003
0.056394771 0.08261732 0.85395569
0.0086070104 0.087297164 0.85310006
0.010172153 0.088656135 0.85093331
0.049800314 0.088572785 0.8501333
0.052683093 0.087566443 0.85187489
0.011513215 0.092780329 0.85247225
0.049212821 0.092138559 0.85093337
0.052231222 0.091789633 0.85357332
0.013382077 0.096837185 0.85327625
0.016919054 0.09856426 0.85105836
0.048089281 0.096758515 0.85258108
0.050851136 0.096176669 0.85446674
0.01498697 0.10009582 0.85400003
0.017876128 0.10310585 0.85261673
0.043492362 0.10446876 0.85079998
0.046259481 0.10289188 0.85303897
0.019754851 0.10798425 0.85355568
0.042753089 0.10776853 0.85185558
0.045805465 0.10703965 0.85447788
0.021812702 0.11241287 0.85103321
0.038201127 0.11343142 0.85075545
0.041566636 0.11246223 0.85311908
0.023669025 0.11718708 0.85121107
0.033955876 0.11865681 0.85040003
0.037176751 0.11722609 0.85149252
0.040475231 0.1175845 0.85410005
0.023886759 0.12192331 0.85332662
0.027407443 0.12237412 0.85109997
0.032614071 0.12233849 0.85085714
0.037042864 0.1219914 0.85297501
0.024551913 0.12635243 0.85430008
0.027686194 0.12691222 0.85271478
0.032434478 0.12681952 0.85208887
0.036208842 0.12599063 0.85364455
0.028540619 0.1303505 0.85446674
0.031724494 0.13033527 0.85436678
0.043955859 0.03360372 0.85986686
0.046721399 0.032878939 0.85767162
-0.0057346583 0.039841861 0.85642856
-0.0025452331 0.038322307 0.85809302
0.0022561753 0.039133221 0.85838348
0.0067375675 0.03895694 0.8580268
0.011842906 0.038799532 0.85688895
0.017438818 0.039072901 0.85705853
0.023031676 0.039071474 0.85702235
0.027837051 0.038286041 0.85731453
0.032633889 0.03749096 0.85734463
0.03766289 0.037151419 0.85740954
0.042047221 0.036509968 0.85773337
0.045905408 0.035590272 0.85635567
-0.012660422 0.043040067 0.85666674
-0.0025375423 0.041397054 0.8556447
0.00065386196 0.041404579 0.85580033
-0.013699166 0.046936348 0.85507143
-0.015325397 0.051815376 0.85683346
-0.012130186 0.052617472 0.85689825
-0.0081295576 0.054169714 0.85626686
-0.01056293 0.055966605 0.85940009
-0.0075440919 0.057648372 0.85765845
-0.005746372 0.062273249 0.85817766
-0.0057545532 0.066357799 0.85940015
-0.0041393097 0.066957615 0.85682231
0.064499468 0.067674652 0.85583365
0.067729175 0.066916317 0.85630393
0.0709536 0.066945516 0.85667324
-0.001745489 0.073390707 0.85753351
0.063352309 0.072507463 0.85650015
0.067705967 0.071682245 0.85854161
0.071229145 0.07200332 0.85999995
-0.00094562903 0.07750421 0.85890007
0.0017191876 0.078664146 0.85703343
0.059685469 0.079580441 0.85546696
0.063050129 0.077404708 0.85780841
0.066389099 0.0759703 0.85963345
0.0034563302 0.082633793 0.85824996
0.005447818 0.083679892 0.85670006
0.058935005 0.082829334 0.85614461
0.06195645 0.082734816 0.85930014
0.0062595638 0.087859094 0.85861111
0.054910522 0.087555677 0.85564464
0.057752255 0.087487213 0.85720015
0.0078550717 0.092585512 0.8580001
0.054135732 0.092367411 0.85600013
0.055879347 0.092613168 0.85826671
0.008669897 0.097524561 0.85933334
0.010638986 0.097614676 0.85661685
0.052312106 0.097749054 0.85663348
0.055168651 0.095962606 0.85966671
0.01281241 0.10181127 0.85773343
0.015032602 0.10279144 0.85660017
0.048531741 0.10188979 0.85572201
0.051861376 0.10215873 0.85797787
0.016917059 0.1069141 0.85772228
0.047504399 0.10807139 0.85636139
0.050863307 0.10602754 0.85915548
0.019041587 0.11244375 0.85729998
0.021391207 0.11457191 0.85533363
0.043775208 0.11390913 0.85633361
0.04685133 0.11270887 0.85780841
0.019072259 0.11741736 0.85868883
0.021404544 0.11782815 0.85586697
0.042992193 0.11793209 0.8566224
0.046312992 0.11745597 0.85896671
0.019896282 0.12154896 0.85966682
0.021855695 0.1233013 0.85795003
0.038926326 0.1240797 0.8550669
0.042015895 0.12257372 0.85705012
0.022778727 0.12763715 0.85760021
0.037949082 0.12808122 0.85700011
0.04132105 0.12744282 0.85842669
0.024276977 0.13219216 0.85868347
0.027592873 0.13276376 0.8568477
0.032855283 0.13280807 0.85713345
0.03685848 0.13198517 0.85889328
0.024708066 0.13595179 0.85973352
0.028120756 0.13698269 0.8590287
0.0321493 0.13683987 0.85861111
0.031119313 0.14073868 0.85966676
0.037686795 0.028917974 0.86323339
0.041661337 0.028882239 0.86216676
-0.00094683992 0.033608943 0.86000001
0.00065903552 0.03370944 0.86257136
0.028857909 0.03376396 0.86396682
0.033271927 0.033344574 0.86351681
0.037648629 0.032095879 0.8623482
0.042208668 0.031847078 0.86104172
0.045566574 0.030409412 0.86000001
-0.0057585724 0.038408242 0.86000001
-0.00094904186 0.035290591 0.86200005
0.0022690641 0.036121022 0.86270571
0.0071052494 0.036976691 0.86393028
0.01191316 0.036896069 0.86207342
0.017537583 0.036090918 0.86200011
0.023171596 0.03609962 0.86220568
0.027572235 0.035671555 0.8615334
0.032796409 0.035275128 0.86162215
0.036747843 0.035211436 0.86006677
-0.015382037 0.043207537 0.86000001
-0.016183993 0.053606015 0.86000001
-0.013781896 0.054420788 0.86023527
-0.015437682 0.057815272 0.8631112
-0.012394506 0.057893608 0.8613047
-0.011686519 0.062115163 0.86338472
-0.0081749801 0.0624833 0.86106676
-0.010625202 0.066749178 0.86446679
-0.0078458553 0.067638271 0.86261904
-0.0061834445 0.071875677 0.86326683
-0.0041605653 0.072106846 0.86122227
0.069630638 0.073608778 0.86006677
0.071331091 0.07370843 0.86123079
-0.0057913838 0.075631335 0.86490017
-0.0033626107 0.077011906 0.86233336
0.068594836 0.077160075 0.8614381
0.072574042 0.077630974 0.86327177
-0.0020244212 0.08136303 0.86312228
0.0012999272 0.083623469 0.86104
0.064111151 0.08226306 0.86133331
0.068076305 0.081708431 0.86322922
0.072116882 0.080932118 0.86423355
-0.00095168402 0.08523532 0.86440021
0.0027246212 0.088002406 0.86225241
0.06215249 0.087806255 0.86201257
0.065932855 0.086819381 0.86415851
0.0038789741 0.09233591 0.86313343
0.0054796846 0.092985712 0.86171108
0.058051024 0.093287326 0.86080015
0.061892252 0.092695266 0.86398911
0.0062851696 0.097838692 0.86210006
0.057102051 0.097982794 0.86160839
0.060823832 0.096990727 0.86407787
0.0079027684 0.10277385 0.86314446
0.010687493 0.10285915 0.86050016
0.056796778 0.10256416 0.86307102
0.01211708 0.10729324 0.86236668
0.015099283 0.10804868 0.86040008
0.052578028 0.10785554 0.86098891
0.055444594 0.10608549 0.86396676
0.012896976 0.11211745 0.86338675
0.015910408 0.11211767 0.86092228
0.048781954 0.11361482 0.86013347
0.051668189 0.11208077 0.86239529
0.013562068 0.11582661 0.86470014
0.016093796 0.11676618 0.86213338
0.048027739 0.11773016 0.86097509
0.051422756 0.11654565 0.8640669
0.018072562 0.12187336 0.86196119
0.043986525 0.12486335 0.86046684
0.047329068 0.12200166 0.86286676
0.019322973 0.12647793 0.86274672
0.021527922 0.1297154 0.86079997
0.043537829 0.12831736 0.8621667
0.045762613 0.12533249 0.86370003
0.018365214 0.13311619 0.86312342
0.022178093 0.1332898 0.86113328
0.03839045 0.133737 0.86091679
0.041493621 0.13278428 0.86200678
0.012469593 0.13869686 0.86355019
0.017357875 0.13770647 0.86225122
0.022947637 0.13801804 0.86140001
0.0271216 0.13919352 0.86000019
0.033807218 0.13867104 0.86006683
0.037639502 0.13792838 0.86208522
0.041481763 0.13662647 0.86400008
0.0076365024 0.14348818 0.86338347
0.011913485 0.14274573 0.86213332
0.017536663 0.14270379 0.86187768
0.023176353 0.14279103 0.8624
0.02796492 0.14260742 0.86128891
0.032977555 0.14277357 0.86108345
0.036714129 0.14257337 0.86302674
0.0032351252 0.14808343 0.86333334
0.0070902058 0.14756338 0.86217034
0.011906006 0.14745702 0.86154801
0.017330773 0.14747578 0.86250597
0.022820435 0.14669867 0.86415851
0.028372103 0.14689493 0.86389351
0.032547612 0.14683375 0.86353338
0.036149289 0.14642778 0.86493355
-0.0023598571 0.15278849 0.86337924
0.0022636489 0.15224388 0.86142969
0.0070747542 0.15203211 0.86022973
0.011903198 0.15221992 0.86128891
0.01629894 0.15232359 0.86317635
-0.01190289 0.15839632 0.86352015
-0.0073856986 0.15727757 0.86267781
-0.0025533698 0.15695597 0.86091113
0.0022647569 0.15705591 0.8614518
0.0070905336 0.15716764 0.86205935
0.011388514 0.15678953 0.86292225
0.015156616 0.15585276 0.86366677
-0.012219702 0.16217865 0.86312979
-0.0073777204 0.16192025 0.86175555
-0.0025539962 0.16180514 0.86114067
0.002067856 0.16190138 0.86272085
0.0062967665 0.16144691 0.8635084
-0.011261165 0.16679332 0.86374682
-0.0073843705 0.16687919 0.862526
-0.0025578248 0.16688345 0.86254817
0.00065974507 0.16626385 0.86350012
-0.0057849106 0.17036463 0.8639335
-0.0028856327 0.17107634 0.86428022
0.021756331 0.029142411 0.86993337
0.029023772 0.029108912 0.86893332
0.033328474 0.028401539 0.86708605
0.0030834568 0.033827923 0.86560357
0.0073409583 0.032507278 0.86796194
0.012003828 0.032329582 0.86861479
0.01705993 0.032520544 0.86834592
0.022442935 0.032450072 0.86794853
0.027959673 0.031854022 0.86825246
0.032660447 0.031285148 0.86653346
0.0071215876 0.035449058 0.86587077
0.011157503 0.03544889 0.86586678
-0.015939891 0.062621035 0.86853629
-0.013347472 0.063968219 0.86673111
-0.015553094 0.067951895 0.86956376
-0.012744986 0.068029091 0.86760479
-0.011755708 0.072177738 0.86851341
-0.0083882492 0.07287129 0.86651343
-0.01068584 0.077642716 0.86940008
-0.007626384 0.07763496 0.86705834
-0.0063567306 0.081345178 0.86864442
-0.0036502669 0.08335337 0.86712235
0.072152033 0.083405904 0.86626935
-0.0023066311 0.087257266 0.86851662
0.00066241925 0.088717245 0.86700016
0.068176627 0.087516069 0.8670752
0.070167355 0.08707457 0.86669618
-0.00095682242 0.090545379 0.8690666
0.0017391705 0.092789717 0.8673889
0.063582011 0.094956189 0.86506683
0.066816531 0.091603048 0.8681429
0.070746742 0.091735668 0.86884964
0.0030880871 0.097637348 0.86745006
0.06252455 0.098411143 0.86715841
0.067121334 0.096207917 0.86910558
0.070372269 0.096221574 0.86922729
0.0039038409 0.10262287 0.86866671
0.0055099241 0.10316935 0.86646676
0.058798481 0.10471211 0.86590016
0.060935106 0.1024919 0.8675667
0.0039047401 0.1050709 0.86886668
0.007599297 0.10795677 0.86792856
0.010343892 0.10946844 0.86530012
0.056999728 0.10809419 0.86718339
0.060690161 0.10680993 0.86986679
0.0087667536 0.11235282 0.86893332
0.010764569 0.1132776 0.86673343
0.053971346 0.11360848 0.86618233
0.055716276 0.1114503 0.86820006
0.012267981 0.11792452 0.86830562
0.015180016 0.11908492 0.86500013
0.053064018 0.11841647 0.8671754
0.055789016 0.11725561 0.86933327
0.013635267 0.12211221 0.86936665
0.015628688 0.12306957 0.8675667
0.049109027 0.12404103 0.86590016
0.052039951 0.12258235 0.86860466
0.016387729 0.12780564 0.86802864
0.04779442 0.1277248 0.86766678
0.050913315 0.1261209 0.86913323
0.0087721348 0.13425617 0.86946666
0.01200325 0.13332681 0.86868328
0.016508002 0.13129939 0.86703348
0.044275064 0.13212815 0.86611128
0.046685353 0.13222618 0.86887997
0.003905789 0.13824117 0.86909992
0.0073451363 0.1375539 0.86859167
0.011438917 0.13653336 0.86681128
0.043669499 0.13740778 0.86690015
0.046062272 0.13747351 0.8693555
-0.00095740956 0.14398254 0.8696
0.0028236418 0.1427851 0.86887783
0.006587781 0.14134564 0.86666125
0.038863886 0.1433056 0.86551124
0.042760994 0.14212567 0.86813343
-0.0019678187 0.14815345 0.86798334
0.0015875302 0.14690258 0.86774766
0.022473626 0.14907634 0.86630023
0.028130002 0.14935121 0.86633348
0.033369008 0.14943334 0.86603343
0.038439553 0.1474971 0.86806673
0.041719634 0.14603108 0.86895555
-0.011496464 0.15364696 0.86936659
-0.0072685704 0.15305717 0.86786681
-0.0041894447 0.15084322 0.86720002
0.018418189 0.15377784 0.86555016
0.022589983 0.15236378 0.86791819
0.027956963 0.15228127 0.86816198
0.033047605 0.15263163 0.86818892
0.036721043 0.15154728 0.86891669
-0.020425456 0.15858974 0.86986667
-0.017159687 0.15865582 0.86875558
-0.012522949 0.15622102 0.86827141
0.01304865 0.15901871 0.86632234
0.016836779 0.15783747 0.86721116
0.022138743 0.15661663 0.86901665
0.028620947 0.15560287 0.8689999
0.0330857 0.15604301 0.86919993
-0.020423885 0.1601956 0.86980003
-0.017151909 0.16234824 0.86833334
0.0038923055 0.16434751 0.86610013
0.0077726417 0.16344076 0.86641341
0.0119951 0.16308567 0.86795193
0.016063545 0.1616962 0.86916667
-0.015540231 0.16810103 0.86884433
-0.013484742 0.16813187 0.86691678
0.002742074 0.1679834 0.86704302
0.0069429306 0.16788597 0.86877501
0.011206177 0.16662291 0.86956656
-0.011830752 0.17262542 0.86837149
-0.0076199947 0.17267717 0.86645854
-0.0021663546 0.1737186 0.86663347
0.0022844097 0.1729057 0.86862212
0.0055290032 0.17145585 0.8694666
-0.010684201 0.17707597 0.86926663
-0.0074386555 0.17780295 0.86886656
-0.0025760459 0.1777501 0.8686074
0.0014746967 0.17706244 0.86919999
-0.005822855 0.18118785 0.86960006
-0.002577995 0.18112767 0.86931103
0.023414601 0.029187076 0.87126672
0.026331414 0.028206253 0.87101346
0.015280631 0.030788945 0.8707335
0.023382362 0.030765368 0.87006682
-0.017203212 0.059962474 0.87100005
-0.021024846 0.06221829 0.87233335
-0.018200053 0.062631115 0.87206668
-0.018312348 0.065992989 0.87220001
-0.015585077 0.072955273 0.8713519
-0.01340863 0.073979892 0.87071127
-0.015641386 0.07728418 0.87450004
-0.012996204 0.077554137 0.87204903
-0.011392162 0.082587726 0.87380666
-0.0079986388 0.083187215 0.87101126
-0.0074707544 0.087660752 0.87252587
-0.0042055491 0.088269509 0.87053353
-0.0058545489 0.091094106 0.87433338
-0.0027893472 0.0926309 0.87157512
0.068045318 0.093940482 0.87056673
0.072098807 0.093124121 0.87050009
-0.0023865371 0.097213842 0.87269151
0.00066540739 0.097217925 0.87091136
0.067262121 0.098840363 0.87093347
0.071442693 0.097388491 0.87241673
-0.0017772095 0.10076617 0.87358326
0.0014788132 0.10223693 0.87225556
0.063391194 0.10244887 0.87130672
0.067427561 0.1023322 0.87307382
0.0033821792 0.10724953 0.87344426
0.0055357856 0.10851114 0.87053341
0.059085961 0.10846129 0.87013346
0.062498678 0.10712747 0.87245333
0.067538187 0.10575345 0.87451106
0.0063519273 0.11183544 0.8712002
0.057777647 0.11278253 0.87136203
0.061336081 0.11169789 0.87328327
0.007988059 0.11687221 0.87249994
0.010409245 0.11906911 0.87076676
0.057634611 0.11722143 0.87270659
0.0088155158 0.12110512 0.87376654
0.01177866 0.12329883 0.8720445
0.054246612 0.12390477 0.8706001
0.056797605 0.12253102 0.87235588
0.0088180946 0.12845534 0.87402207
0.011884736 0.12781689 0.87188673
0.052861057 0.1282396 0.87116683
0.056592241 0.12673548 0.87337536
0.0039228648 0.1339739 0.87289989
0.0069929603 0.13253114 0.87232232
0.012036284 0.13125922 0.87104464
0.048983775 0.13325505 0.87085015
0.052544843 0.13292336 0.87265831
0.056107745 0.13093686 0.87429994
-0.0015063211 0.13931267 0.87413329
0.0020601873 0.13747475 0.87230474
0.0055332417 0.13597773 0.8701334
0.048618834 0.13782503 0.8715778
0.051615581 0.13782653 0.87415832
-0.00707669 0.14432642 0.87413329
-0.0027915831 0.1425882 0.87220836
0.0012068658 0.14149569 0.87088913
0.047623992 0.14254698 0.87195003
-0.020535031 0.14967974 0.87453324
-0.018902574 0.14966835 0.8744666
-0.012046176 0.14892626 0.8739332
-0.0074643046 0.14758904 0.87180007
-0.0036641413 0.14628129 0.8704446
0.043469545 0.14808615 0.87153345
0.046815228 0.146763 0.87331098
-0.022112582 0.15256214 0.87241745
-0.017232122 0.15257683 0.8725037
-0.012568652 0.15192166 0.87140006
-0.0082644997 0.15061453 0.87053353
0.039032865 0.15275915 0.87168008
0.042051416 0.15244624 0.87359989
-0.025355801 0.15898737 0.87204772
-0.022290036 0.15704371 0.87138689
-0.01687292 0.15615368 0.87072009
0.023400275 0.15874772 0.8707335
0.027109455 0.1580399 0.87065732
0.033146631 0.15875988 0.87080026
0.038092446 0.15743677 0.87244076
-0.025403846 0.16172703 0.87370002
-0.022122839 0.16236557 0.87276596
0.01812437 0.16240799 0.87081683
0.021813937 0.16226104 0.87220007
0.027542263 0.16248016 0.87337774
0.033203654 0.16227901 0.87229621
0.03691021 0.1620743 0.87338322
-0.020517284 0.16743062 0.87377769
-0.018002795 0.16678075 0.87038898
0.012438567 0.16806152 0.8707335
0.016936122 0.16714567 0.87228894
0.021321515 0.1664352 0.87424439
0.02840627 0.16601101 0.87486672
0.032480281 0.1659857 0.87473333
-0.017222263 0.17194276 0.8719334
-0.013946882 0.17328554 0.87053353
0.0073974244 0.17272565 0.87120974
0.011857093 0.17188978 0.87269163
0.015885444 0.17130983 0.8742221
-0.016287312 0.17692947 0.87413323
-0.012801005 0.17786567 0.87143821
0.0029390799 0.17883503 0.87074679
0.0071793324 0.17697664 0.87276661
0.010452673 0.17568173 0.87439996
-0.012030216 0.18216187 0.87271994
-0.007661541 0.18334123 0.87118351
-0.0025832697 0.18390524 0.87097806
0.0020879793 0.18296941 0.87134176
0.006206451 0.1816635 0.87343997
-0.011283375 0.18585318 0.87378877
-0.0071480223 0.18740396 0.87293321
-0.0025875524 0.18746872 0.87247777
0.0022965837 0.18712454 0.87339991
0.0055620684 0.18549763 0.87466675
-0.002592602 0.190282 0.8742221
-0.010767918 0.088017665 0.87607789
-0.01080765 0.092430875 0.87931025
-0.0077129039 0.093193285 0.87686265
-0.0073178392 0.097872786 0.87860429
-0.0042305076 0.09938132 0.87570006
-0.002196314 0.10294091 0.87827498
0.071917683 0.10293209 0.87819225
-0.00096885918 0.10641719 0.87999976
0.0013243472 0.10807388 0.87749338
0.064476252 0.10853104 0.87723351
0.067805417 0.10862245 0.8779723
0.071955949 0.10625598 0.87866676
0.0027747401 0.11248559 0.8780762
0.005566732 0.11400303 0.87540013
0.063430876 0.11268964 0.87785572
0.067098454 0.11125645 0.87943327
0.0034053065 0.11671414 0.87946653
0.0055869408 0.11768649 0.87857789
0.059419811 0.1180269 0.87505007
0.061919224 0.11729307 0.87808001
0.0072186319 0.12249844 0.8779332
0.059509221 0.12228145 0.87636679
0.061387867 0.12276854 0.87986642
0.0039541754 0.12931515 0.87986648
0.0067510121 0.12717383 0.87799996
0.058948152 0.1276952 0.87772942
0.061397173 0.1260609 0.87999976
-0.015737006 0.13422221 0.87984622
-0.001624484 0.13284478 0.8793999
0.0021026831 0.13210867 0.87804592
0.0055756359 0.1304955 0.87680018
0.057431426 0.13229114 0.87790006
-0.01653059 0.13728224 0.87848282
-0.012452431 0.1382819 0.87964416
-0.0073247151 0.13764663 0.87950814
-0.0028096798 0.13699256 0.87793761
0.00066944817 0.13611011 0.87620008
0.054269131 0.13753968 0.87751681
0.056430742 0.13659813 0.8793332
-0.021165388 0.14267308 0.87813336
-0.017340111 0.14210731 0.87799811
-0.012435547 0.14217371 0.87841481
-0.007716503 0.14180847 0.87742102
-0.0042363065 0.14029761 0.87690014
0.049634568 0.14490424 0.87516671
0.052783657 0.14206523 0.87774438
-0.021518813 0.14724393 0.87664795
-0.017168269 0.14739555 0.876791
-0.012648923 0.14636472 0.87695259
0.048483577 0.14837788 0.87645841
0.051471792 0.14630145 0.87866664
0.04427724 0.15333182 0.87681127
0.048193391 0.15201412 0.87862366
0.043240596 0.15759708 0.8778584
0.046595633 0.1570611 0.87942201
-0.025461871 0.16453935 0.87569577
-0.023847044 0.16466612 0.87637049
0.039095223 0.16310202 0.87672514
0.042193815 0.16186209 0.87884444
-0.026343448 0.16739498 0.87785536
-0.023057975 0.16812886 0.87742227
0.022198752 0.16853195 0.87668902
0.026650416 0.16834703 0.877496
0.031943388 0.16821316 0.87679601
0.036697619 0.16824533 0.87803334
0.040596351 0.16584364 0.87973315
-0.026108855 0.17064108 0.87915486
-0.021790233 0.17292906 0.87811911
-0.018919146 0.17422111 0.87523323
0.013726751 0.17421445 0.87520003
0.01755907 0.17335361 0.87633348
0.021731257 0.17272265 0.87825722
0.026908949 0.17257087 0.8792665
0.031813774 0.17249246 0.87886667
0.036425788 0.17210355 0.87938654
-0.02172667 0.17791499 0.8787334
-0.018551219 0.17827109 0.87713343
0.0088330032 0.17915992 0.87550002
0.012121983 0.17786528 0.87714297
0.017059017 0.17735206 0.87864447
0.022002811 0.17648959 0.87977749
0.027340941 0.17557254 0.87996638
0.031851228 0.17596631 0.87988859
0.03568485 0.17571558 0.87999982
-0.022297842 0.18002631 0.87973326
-0.016876716 0.1831962 0.87811452
-0.014020048 0.18314788 0.87510002
0.0084442301 0.18322729 0.87743354
0.01188371 0.18220155 0.87969977
0.015989153 0.18061291 0.87993306
-0.016280264 0.18709899 0.87964433
-0.012753377 0.18811646 0.87777346
-0.0091290418 0.18895316 0.87560004
0.0039394936 0.18916897 0.87660015
0.0072216978 0.18785088 0.87805718
0.010519621 0.18744726 0.87999976
-0.01135473 0.19193517 0.87931103
-0.0075113052 0.19256823 0.8772223
-0.0025993232 0.19321936 0.8764779
0.0023075917 0.19257002 0.87722981
0.0055944999 0.19230729 0.87976646
-0.0067088986 0.19714254 0.87943316
-0.0026071912 0.19705056 0.87902218
0.001492476 0.19634637 0.87953317
-0.014109027 0.081104964 0.88065398
-0.012481405 0.08776135 0.88170016
-0.012512915 0.091272175 0.88392586
-0.011252758 0.097229689 0.88202822
-0.0091756098 0.099876881 0.88006651
-0.0071541965 0.10234359 0.88369167
-0.0034360886 0.10409462 0.8811332
0.074611537 0.10326047 0.88100004
-0.0026191603 0.10753298 0.88245004
0.073283225 0.10768911 0.88148099
-0.0013840663 0.11248064 0.88263345
0.0006725298 0.11381385 0.88023311
0.064686947 0.11379655 0.88009977
0.068261147 0.11353904 0.88082361
0.073173918 0.11176789 0.88347352
-0.0017991536 0.1160302 0.88465011
0.0019873579 0.1183929 0.88141316
0.06432806 0.11839315 0.88079983
0.067550041 0.11756492 0.88175553
0.072123118 0.11568004 0.88406485
0.0025248586 0.12276688 0.88280416
0.0055966191 0.12361951 0.88009965
0.063971154 0.12300225 0.88153881
0.067159563 0.12167752 0.88383341
-0.0016324089 0.12854205 0.88356006
0.0019511303 0.12739527 0.88169253
0.062483676 0.12823255 0.88142663
0.065025009 0.12673415 0.88470012
-0.012259923 0.13347657 0.88266033
-0.0075555998 0.13298717 0.88252956
-0.003932179 0.13192287 0.88199997
0.059438635 0.13322653 0.88137484
0.062039774 0.13269791 0.88330841
-0.012458283 0.13589293 0.88006639
-0.0091756089 0.13589293 0.88006634
0.057922862 0.13844651 0.88330841
0.054926813 0.14349669 0.8815167
0.056681026 0.14295508 0.88323349
0.05286127 0.14797568 0.88133323
0.055087771 0.14802893 0.88410014
0.049923804 0.15393598 0.88026649
0.051652092 0.15255472 0.88174438
0.048315007 0.15731899 0.88086653
0.050491709 0.15729198 0.88301671
0.043916121 0.16216905 0.88051099
0.046469204 0.16234735 0.88326007
0.042145807 0.16775973 0.88235998
-0.026426628 0.17284282 0.88065112
-0.023955788 0.17360526 0.88036656
0.038437672 0.17279315 0.88039982
0.040858798 0.17215745 0.88302004
-0.025621168 0.17704403 0.88117427
-0.02395216 0.17603518 0.88023317
0.022847269 0.17858583 0.88069981
0.026617896 0.17788635 0.88047981
0.031874623 0.17855203 0.88053316
0.037407126 0.17773356 0.88188887
0.040234409 0.17592631 0.88380015
-0.022580424 0.18251325 0.88158071
-0.019027941 0.18259186 0.88026643
0.012985494 0.18341038 0.88026643
0.01764741 0.18242271 0.88076657
0.022080792 0.18230708 0.88284814
0.027035773 0.18242605 0.88342232
0.031954981 0.18208206 0.88274997
0.036237486 0.18196775 0.88279343
-0.021893887 0.18689513 0.88235241
-0.018511569 0.18808277 0.88169998
0.013003961 0.18695231 0.88152218
0.017137462 0.18719539 0.88266665
0.021280972 0.18580112 0.8838501
-0.013140257 0.19289193 0.88169324
0.007795291 0.19261329 0.88116646
0.01200134 0.19203918 0.88323748
0.015514619 0.19078027 0.88406676
-0.011407502 0.19721997 0.88344455
-0.0080900053 0.19831042 0.88098878
-0.0026113226 0.19982034 0.88042194
0.0027269318 0.19784871 0.88075805
0.0072655352 0.19719867 0.88334763
0.010561059 0.19558099 0.88346672
-0.0077647287 0.20221007 0.88280845
-0.002614934 0.20257477 0.88171655
0.002323183 0.20207335 0.88310742
-0.0067501306 0.20576712 0.88486683
-0.0026223918 0.20559658 0.88413352
-0.012560156 0.094091676 0.88726324
-0.012571295 0.095827073 0.8880502
-0.011734802 0.10236342 0.88741511
-0.0084181968 0.10392854 0.8866998
-0.011590082 0.10783801 0.88901317
-0.0075962255 0.10728685 0.88718504
-0.0042796223 0.10877452 0.88586658
-0.011760541 0.11251339 0.88936669
-0.0076055354 0.11237679 0.88828874
-0.0036198541 0.11241214 0.88596648
-0.0073751071 0.11696447 0.8890667
-0.0031824261 0.1176823 0.88676101
0.07218349 0.11833256 0.88648462
-0.010935759 0.12414499 0.88973343
-0.007404767 0.12261142 0.88911664
-0.0026315164 0.12209672 0.88688129
0.0006761718 0.12183832 0.88500017
0.068368755 0.12269866 0.88526678
0.071883529 0.12223464 0.88787687
0.075289056 0.12238897 0.88900012
-0.011343516 0.12779152 0.88920009
-0.0076065608 0.12727286 0.88846654
-0.0031807581 0.12641403 0.88629985
0.067310616 0.12727824 0.88684756
0.071977668 0.12735794 0.88905197
-0.012549831 0.13112406 0.88656652
-0.0075926967 0.13034396 0.88686639
0.063437149 0.13344762 0.88556671
0.066438921 0.13189964 0.88781899
0.070388913 0.13079466 0.88993335
0.062161114 0.13751975 0.88754278
0.065908737 0.13620083 0.88919997
0.058550611 0.14267419 0.88659984
0.061508834 0.14189717 0.88837135
0.057916868 0.14719459 0.88700658
0.06037163 0.14637883 0.8890667
0.05350342 0.15314651 0.88516682
0.056670632 0.1518743 0.88735533
0.052742973 0.1582794 0.8862499
0.056057405 0.15678911 0.88901329
0.047765553 0.1639882 0.88591659
0.05202198 0.16217707 0.88803333
0.043604888 0.16963762 0.88529992
0.047259562 0.16722526 0.88747603
0.050975353 0.16594712 0.88905567
0.043117881 0.17318226 0.88658875
0.045858078 0.17158085 0.88896668
0.042273577 0.17751141 0.8870284
0.045475788 0.17542605 0.88959998
0.03203636 0.18439658 0.88500017
0.037820868 0.18319817 0.88517511
0.041841224 0.18186809 0.88873321
0.022398068 0.18839872 0.88612378
0.027132841 0.18802318 0.88657022
0.032092448 0.18801837 0.88654792
0.036836553 0.18764661 0.8870188
0.040473148 0.18689315 0.88904446
-0.021675048 0.19241178 0.8877998
-0.017498152 0.19282568 0.88590741
0.013896146 0.19449367 0.88600004
0.017418241 0.19316205 0.88650411
0.022205241 0.19242407 0.88785529
0.027208099 0.19267674 0.88902217
0.031855326 0.1925412 0.88915998
0.037975907 0.19014834 0.88879991
-0.017555499 0.19718282 0.88883334
-0.013384571 0.19801892 0.88702476
0.0089396127 0.1994531 0.88606673
0.01246069 0.19814561 0.88666654
0.017258568 0.19761588 0.88892215
0.021823078 0.1956062 0.88918334
0.027227651 0.19529498 0.88964999
-0.012009201 0.20218146 0.88719434
0.0072937682 0.20290376 0.88673693
0.011947118 0.20230421 0.88845319
0.016436597 0.20018837 0.88933325
-0.010914864 0.20732993 0.88803315
-0.0078277048 0.20831779 0.8867141
-0.0026275571 0.20847718 0.88588887
0.0023307682 0.20775445 0.88631839
0.0073072673 0.20740755 0.88836664
0.011045678 0.20638876 0.88931674
-0.010925924 0.21001992 0.8889333
-0.0073998454 0.21301723 0.88849986
-0.0028406021 0.21287176 0.88789147
0.0023365943 0.21241052 0.88855553
0.006208092 0.21065545 0.8892889
-0.0076183965 0.21604216 0.88990009
-0.0026379284 0.21588857 0.88926667
0.0015090037 0.21508548 0.88936669
-0.011376523 0.11738525 0.89180291
-0.0084594339 0.1193584 0.89106691
-0.010953172 0.12185587 0.89115024
-0.0092819547 0.12090731 0.89026684
-0.012604205 0.12754707 0.89037502
0.06877806 0.13337314 0.89056677
0.072398089 0.13291775 0.89167392
0.067809388 0.13834675 0.89237255
0.070639357 0.13624412 0.8931002
0.063821554 0.1433717 0.89093357
0.0662838 0.14250283 0.8927536
0.062712222 0.14793119 0.8920145
0.065772295 0.14650136 0.89486694
0.058846697 0.15334189 0.89108336
0.061317444 0.15253882 0.89317358
0.058117956 0.15775639 0.89263362
0.053928535 0.16432114 0.89220017
0.056325216 0.16252366 0.8932603
0.052609064 0.16800624 0.89238024
0.055758648 0.16647682 0.89486682
0.048229009 0.17279974 0.89141351
0.051133528 0.17259869 0.89424205
0.047279287 0.17761631 0.89229071
0.043950483 0.18343157 0.89231694
0.046261001 0.18185304 0.89407808
0.042948015 0.18722589 0.89220685
0.033882298 0.19374527 0.89013332
0.037265915 0.19323939 0.89161682
0.041334558 0.19244631 0.89332026
-0.021392725 0.19817372 0.89329183
-0.017586131 0.19877218 0.89040017
0.022612045 0.19821399 0.89086688
0.027299955 0.19794784 0.89200974
0.032068782 0.19710089 0.89246684
0.036239978 0.19673622 0.89368916
-0.020997602 0.20129147 0.89423358
-0.017393133 0.20212545 0.89266217
-0.014288664 0.2032479 0.89186692
0.013958883 0.20364958 0.8900001
0.017552458 0.2028794 0.89180976
0.021925818 0.20151037 0.89335865
0.026537986 0.20132524 0.89438367
-0.012644435 0.20687927 0.89321697
0.013324042 0.20774002 0.89192027
0.016878186 0.20762537 0.89387649
-0.010955631 0.21307896 0.89135015
0.007891153 0.21295512 0.89198917
0.011786524 0.21209145 0.89301139
0.015705314 0.21143746 0.89493346
-0.010966489 0.21577872 0.89223349
-0.0076362495 0.21821199 0.8920002
-0.0023108809 0.21817057 0.89115351
0.0025824218 0.21782346 0.89186209
0.0067955568 0.21726005 0.89377242
0.010696541 0.21639949 0.89480019
-0.0059880237 0.22126105 0.89426702
-0.0026514826 0.22119783 0.89401156
0.0023519266 0.22129679 0.89441139
-0.012680504 0.10665732 0.89576477
0.072930045 0.13779151 0.89668006
0.076028667 0.13778654 0.89773345
0.069187358 0.14249906 0.89586663
0.072490476 0.14178817 0.89795846
0.076135933 0.14132525 0.89900029
0.068113886 0.14715968 0.89742881
0.071090192 0.14631006 0.89880025
0.064210802 0.15258351 0.89636672
0.066438571 0.15164632 0.89822519
0.059111934 0.15819497 0.89510006
0.062588699 0.156873 0.897062
0.066134885 0.15567803 0.89980018
0.059253532 0.16191278 0.89724463
0.061411999 0.16167024 0.89821684
0.054146126 0.16998318 0.89579999
0.05753088 0.16677061 0.89645326
0.053598795 0.17279048 0.89595556
0.056740742 0.17191784 0.89719456
0.049119458 0.17992781 0.8955335
0.052739572 0.1770381 0.89671677
0.05659017 0.17621084 0.89923358
0.047872879 0.18327954 0.89563346
0.052123893 0.18184505 0.89794779
0.047711849 0.18700661 0.89652503
0.05095223 0.18635334 0.89840025
0.044134099 0.19169831 0.89604443
0.047371481 0.19190831 0.89800018
-0.022765057 0.19883531 0.89816678
0.033247508 0.19988468 0.89538348
0.037762694 0.19858879 0.89554673
0.042695824 0.1970149 0.89653337
0.046621751 0.19699149 0.89890021
-0.02270457 0.20246969 0.89576674
-0.018514715 0.20482427 0.89513361
0.022393741 0.20377462 0.89540023
0.027837411 0.20292804 0.89594996
0.032434251 0.20252013 0.89598888
0.037690964 0.20218901 0.89610475
0.042346142 0.20192707 0.89798355
-0.021046916 0.20509878 0.8963334
-0.017319798 0.20759207 0.89810014
-0.013796736 0.2083355 0.89591122
0.019063311 0.20832495 0.89586663
0.022625521 0.20696932 0.8963083
0.027474446 0.20708747 0.89772248
0.03250511 0.20713781 0.89794093
0.037514262 0.20705731 0.89759278
0.041463453 0.20615391 0.89851135
-0.013712475 0.21240802 0.89762676
0.013210913 0.21408613 0.89556658
0.017961523 0.21235073 0.8964445
0.022451704 0.21209285 0.89770389
0.027100591 0.21119133 0.89920026
0.031708632 0.21074948 0.89910018
0.037595373 0.21085106 0.89953345
-0.012146222 0.21702777 0.8974002
-0.0093333907 0.21982671 0.89520019
0.0090391599 0.21834022 0.89593327
0.012939867 0.21725886 0.89605546
0.017223783 0.2169472 0.89792526
0.021630688 0.21559885 0.89840031
-0.011055596 0.22171551 0.89948356
-0.0080120452 0.22285417 0.89666015
-0.0026566943 0.22329021 0.89573336
0.0023552263 0.22330682 0.89579993
0.0075840778 0.22206385 0.89666671
0.011851183 0.22161299 0.89793903
-0.0074790972 0.22718219 0.89794189
-0.0026586237 0.22676174 0.89628148
0.0023567614 0.22678243 0.89636296
0.074616656 0.14413741 0.90090024
0.077103168 0.14323542 0.90050012
0.073451281 0.14779849 0.90132415
0.076364942 0.14762194 0.90170383
0.068942524 0.15293723 0.90140027
0.072839953 0.15233643 0.90266669
0.064471066 0.15906098 0.90000033
0.06798359 0.15774478 0.90204769
0.071537063 0.1573239 0.90445
0.063891307 0.16297749 0.9012869
0.06692037 0.16180299 0.90284449
0.059468534 0.16836241 0.9005003
0.062509142 0.16771543 0.90281439
0.059524301 0.17271332 0.9013446
0.061877172 0.1719033 0.90296674
0.057883844 0.1782793 0.90195024
0.054496698 0.18366283 0.90160018
0.05681793 0.1819592 0.90285563
0.053124491 0.18795235 0.90206677
0.04944123 0.19452079 0.90140027
0.051863093 0.19275993 0.90257341
0.049026147 0.1983113 0.90148342
0.051269837 0.19676344 0.90400004
0.044373251 0.20446797 0.90090024
0.047313921 0.20280585 0.90202481
-0.021133007 0.20761202 0.90000027
-0.018651452 0.20968542 0.90171683
0.043050334 0.20825294 0.90132695
0.046734441 0.20723568 0.90322495
-0.021226157 0.21104987 0.90396667
-0.017576965 0.21263497 0.90202868
0.027926793 0.21399704 0.90150678
0.032922227 0.21332197 0.90172225
0.037281998 0.21355052 0.90210009
0.0423651 0.21162839 0.90285003
-0.017007597 0.21688528 0.90375841
-0.013870768 0.21783157 0.90072244
0.019169707 0.21954244 0.90086704
0.022538127 0.21822293 0.90118366
0.027308974 0.2174491 0.90330678
0.032728788 0.21655095 0.90411669
0.038591053 0.21507068 0.90319997
-0.012778578 0.2224793 0.90259176
0.013574913 0.22409399 0.90120029
0.017191492 0.22237048 0.90282011
0.022594839 0.22101215 0.90345001
0.073284604 0.15492845 0.90520006
0.069915913 0.1599977 0.90530008
0.0733831 0.15766603 0.90641689
0.075895026 0.15746072 0.90814286
0.069100216 0.16258901 0.90566677
0.072278932 0.16235287 0.90770513
0.075320661 0.16156852 0.90940011
0.064910427 0.1685729 0.90613341
0.067505486 0.16703564 0.90693349
0.071336813 0.16686232 0.90905571
0.064366385 0.17199428 0.90640002
0.066768065 0.17237718 0.90841371
0.059800927 0.17856808 0.90553337
0.062455419 0.17722644 0.90728354
0.065131709 0.17760487 0.90922236
0.059330162 0.1822176 0.90693355
0.06174631 0.18269557 0.9093067
0.05734266 0.18723448 0.90671128
0.060933493 0.18618587 0.90983331
0.054794222 0.19225495 0.90652245
0.057290941 0.19235091 0.90857363
0.053445507 0.19752856 0.9075169
0.049733281 0.2041031 0.90672433
0.051927388 0.20230719 0.90812123
-0.022957684 0.20725733 0.90576673
0.049311552 0.20790038 0.90673351
0.051591206 0.20645764 0.90966666
-0.022462433 0.21294363 0.90846682
0.044048581 0.21342747 0.90573341
0.047615647 0.2125411 0.90777159
-0.019174177 0.21798056 0.90656692
0.029407403 0.21903555 0.90570009
0.032791842 0.21907586 0.9058668
0.037852116 0.21818686 0.90567231
0.042996243 0.21773012 0.90727806
0.046472635 0.2181675 0.90910023
-0.017720811 0.2227312 0.90788352
-0.014520706 0.22340809 0.90635026
0.076769277 0.16321112 0.91148949
0.07325574 0.16906774 0.91183329
0.076436408 0.16807753 0.91259456
0.06862694 0.17363891 0.91059995
0.07184419 0.17215693 0.91262007
0.075681686 0.17169121 0.91375875
0.067693457 0.1777574 0.91174001
0.07059297 0.17514977 0.91406691
0.063587941 0.18396424 0.91139996
0.065986671 0.18234937 0.91322237
0.062356554 0.18790293 0.9120084
0.065521687 0.18632433 0.91466701
0.058450092 0.19485503 0.91079998
0.061468694 0.19148307 0.91357237
0.057720289 0.19780356 0.91267508
0.060423914 0.19574645 0.91496682
0.053377572 0.20341559 0.91119999
0.055885226 0.2018452 0.91329348
0.053009786 0.20745119 0.912175
0.05529055 0.20675686 0.91473377
-0.023108924 0.21031862 0.91173327
0.049975112 0.21357004 0.91113335
0.052669141 0.21246032 0.91364473
-0.021997886 0.21731621 0.91263342
0.074142769 0.17377828 0.91580033
0.075796753 0.17365462 0.9151485
0.072814204 0.17780162 0.91787493
0.076037407 0.17676876 0.91805351
0.068644896 0.18286237 0.91650003
0.070999719 0.18300039 0.91933328
0.067943916 0.18804736 0.91773802
0.063393213 0.19385763 0.91676682
0.067281604 0.19264178 0.91871423
0.061974186 0.19769862 0.91770667
0.06673044 0.19587499 0.91956663
0.058352374 0.20319341 0.9159252
0.061295509 0.20185041 0.91951102
0.057472058 0.20774885 0.91685992
0.057437148 0.21206068 0.91835821
-0.023230577 0.21824567 0.91653335
0.0761986 0.17970945 0.92000002
0.073713124 0.18249483 0.92110008
0.076310433 0.18254438 0.92135012
0.073173508 0.18725762 0.92240429
0.076469183 0.18721889 0.92326671
0.072847925 0.1920571 0.92412376
0.064187974 0.19853453 0.92000002
0.06810955 0.19759244 0.9219867
0.071403868 0.1960803 0.92456657
0.063618712 0.20267177 0.92168677
0.06618432 0.20195878 0.92391664
0.061790422 0.20768 0.92261118
0.074051768 0.19452158 0.92533314
0.077448756 0.19274889 0.92673987
0.080487147 0.19375187 0.92989999
0.069825225 0.19993733 0.9264999
0.072764657 0.19780095 0.92725545
0.07651221 0.19702236 0.92900836
0.068999991 0.20263422 0.92700827
0.071768567 0.20226873 0.92928904
0.064620525 0.2076263 0.92619985
0.079057746 0.19102894 0.93349993
0.077341579 0.19977559 0.93380004
0.073631771 0.20262711 0.93093354
0.07617759 0.2020822 0.93375558
0.079184771 0.19829305 0.93500012
