# .PCD v0.7 - Point Cloud Data file format
VERSION 0.7
FIELDS x y z
SIZE 4 4 4
TYPE F F F
COUNT 1 1 1
WIDTH 925
HEIGHT 1
VIEWPOINT 0 0 0 1 0 0 0
POINTS 925
DATA ascii
-0.034448922 -0.01065849 0.18978024
-0.031064851 -0.020056628 0.18963593
-0.026655588 -0.027344551 0.18845487
-0.035674825 -0.015969139 0.18616214
-0.030560931 -0.024250753 0.18610793
-0.033073876 -0.020522945 0.18188095
-0.031872317 0.00077595096 0.19185996
-0.029127162 -0.0073991655 0.19211996
-0.024633644 -0.017959166 0.19127092
-0.021026785 -0.026075339 0.19118983
-0.018888712 -0.030195259 0.19073692
-0.035010092 0.00337891 0.1891225
-0.034249589 0.00032909587 0.18927681
-0.033113454 -0.0084663872 0.19035295
-0.026563136 -0.022454649 0.19104111
-0.024686391 -0.028257091 0.18926942
-0.022396158 -0.03128992 0.18814555
-0.036471009 0.0029064137 0.18645307
-0.035593569 -0.0048634633 0.18451381
-0.030007653 -0.024664272 0.18340755
-0.027136784 -0.028167475 0.18346873
-0.023438144 -0.031811401 0.18263158
-0.036126766 -0.010012145 0.17975751
-0.033305272 -0.020532336 0.17997414
-0.027838923 -0.028249977 0.17844471
-0.02481975 -0.031539753 0.17753586
-0.036366876 -0.015752347 0.17561322
-0.031356543 -0.024295282 0.17452547
-0.026537005 -0.030911494 0.17453372
-0.036606535 -0.015652398 0.17145649
-0.01553415 -0.019756928 0.19126377
-0.014370858 -0.023479486 0.19130608
-0.012288683 -0.027659152 0.19089952
-0.033451155 0.016460447 0.18985578
-0.032142207 0.012775786 0.19050327
-0.030907316 0.007560675 0.19132066
-0.029919621 0.0023113741 0.19285688
-0.024165399 -0.0060567046 0.19138241
-0.020171337 -0.014511128 0.19036144
-0.01977239 -0.020633791 0.19210154
-0.017646356 -0.024771996 0.19166064
-0.015834533 -0.02904379 0.19143039
-0.013658408 -0.033709601 0.18908268
-0.01115567 -0.037631925 0.1873267
-0.034877479 0.015469412 0.18663272
-0.034206569 0.012342618 0.18685585
-0.033982862 0.0072890883 0.1877301
-0.016436512 -0.034656595 0.18578786
-0.013260585 -0.03824646 0.18418142
-0.035255436 0.011771712 0.18320212
-0.034913477 0.0063244496 0.18299633
-0.035594791 0.00019044243 0.18160528
-0.017794365 -0.034412231 0.18090928
-0.014014537 -0.038278803 0.18051058
-0.034568794 0.0047412617 0.17882547
-0.035302691 0.00031947345 0.17780554
-0.023380144 -0.033054631 0.17578721
-0.019740824 -0.033665024 0.17607063
-0.035964116 -0.0045510903 0.17301074
-0.030074157 -0.025552563 0.17192715
-0.02777929 -0.028378686 0.17155409
-0.025046488 -0.032104913 0.17179048
-0.020753833 -0.033566624 0.17151344
-0.035996228 -0.0093855942 0.16850877
-0.032893345 -0.020944918 0.16779372
-0.026882 -0.027460523 0.16756612
-0.025030432 -0.031404156 0.16742992
-0.035376873 -0.014156982 0.16380841
-0.031091122 -0.022233581 0.16260302
-0.033949897 -0.019073267 0.16001222
-0.035467513 0.02581471 0.19407615
-0.031684212 0.022898741 0.19288611
-0.029085785 0.019434145 0.19158182
-0.026399132 0.013798411 0.19110441
-0.024939777 0.010575052 0.19133419
-0.023193616 0.0054015531 0.19164419
-0.021297809 0.00063434104 0.19140854
-0.017381696 -0.0079205027 0.19187513
-0.01316158 -0.017419703 0.19125026
-0.010358676 -0.022172291 0.19183898
-0.0092383046 -0.026510347 0.19163111
-0.007515721 -0.030794721 0.18963096
-0.034807362 0.027003208 0.19032505
-0.033514235 0.022710983 0.18988273
-0.032333761 0.018619711 0.19059971
-0.02989764 0.014821922 0.19112736
-0.0073988643 -0.036094937 0.18739629
-0.034738563 0.025915518 0.18538758
-0.034982026 0.022366606 0.18531936
-0.034781195 0.018116549 0.18604672
-0.035281833 0.020795362 0.18121168
-0.035635468 0.017202325 0.18122911
-0.035668202 0.012509505 0.18082094
-0.035059758 0.0089474069 0.18071756
-0.012691693 -0.036239706 0.17697012
-0.036311608 0.0159068 0.17682746
-0.035629384 0.012365014 0.17667636
-0.034924638 0.0073507139 0.17686787
-0.034693461 0.0025732163 0.17627764
-0.016705446 -0.034602463 0.17385435
-0.011759881 -0.035235278 0.17373836
-0.035560124 0.010902088 0.1732344
-0.034620099 0.0073899068 0.17214832
-0.034979582 0.0025948528 0.17136398
-0.018629421 -0.034344405 0.16904101
-0.035683725 0.00098206755 0.16703483
-0.035261832 -0.0072511719 0.16573659
-0.025879137 -0.026934784 0.16404021
-0.023324093 -0.031371363 0.16384557
-0.020354833 -0.033758283 0.16512576
-0.036045767 -0.0042569404 0.16239297
-0.035881728 -0.012366079 0.16164857
-0.026018139 -0.026646858 0.16056895
-0.023499336 -0.030907169 0.16059259
-0.036578696 -0.0090738758 0.15763649
-0.033901196 -0.018926211 0.1571455
-0.027304713 -0.025550034 0.15717506
-0.036691189 -0.013974434 0.15316254
-0.032152582 -0.021888308 0.1523551
-0.0029933769 -0.019029802 0.19115922
-0.0016622636 -0.023581944 0.19125801
-0.025720706 0.02433696 0.192339
-0.025179578 0.021182379 0.19153202
-0.021910243 0.017468402 0.19144893
-0.020645939 0.013055429 0.19179308
-0.018383652 0.0082530975 0.19163194
-0.016572073 0.0029819524 0.19113418
-0.01137066 -0.0054428903 0.19156781
-0.0100425 -0.010309847 0.19099876
-0.0082003828 -0.014784677 0.1907365
-0.0070547988 -0.019799611 0.1918163
-0.0052645151 -0.02498664 0.19177255
-0.0017061355 -0.028586641 0.18948829
-0.00023497082 -0.032164663 0.1874854
-0.034596115 0.031044513 0.18704754
-0.033668969 0.028884219 0.18692482
-0.026093252 0.016549475 0.19039127
-0.0036713993 -0.033437479 0.18698055
-0.0011875676 -0.036589745 0.18338162
-0.034495138 0.031377647 0.18323305
-0.033570483 0.028854223 0.18292058
-0.034956351 0.028036382 0.1786254
-0.034998529 0.023269024 0.17935199
-0.038145781 0.030414222 0.17357144
-0.036650311 0.02758432 0.17417076
-0.035870381 0.022707336 0.17469645
-0.03565082 0.018642273 0.17502764
-0.011681078 -0.036145575 0.17165285
-0.039022632 0.028409548 0.17172825
-0.035848029 0.022484533 0.16975945
-0.035682451 0.017933946 0.16998357
-0.035033807 0.013248064 0.17032841
-0.034457192 0.0093156397 0.16978657
-0.015556838 -0.034775287 0.16669348
-0.011747945 -0.035031088 0.16718426
-0.036113668 0.01767382 0.16581893
-0.035327084 0.013235115 0.16514218
-0.034765199 0.0081644729 0.16518587
-0.03465208 0.0033006817 0.16402745
-0.0171481 -0.033897337 0.16227549
-0.035263568 0.011759726 0.16166508
-0.035125162 0.0079315444 0.15957916
-0.035527781 0.0025433237 0.15988833
-0.02404793 -0.027648905 0.15742779
-0.022881493 -0.030553084 0.15731576
-0.018624488 -0.032956235 0.15738133
-0.035670064 0.0018579066 0.15507147
-0.025334859 -0.026550591 0.15401682
-0.022888811 -0.030422341 0.15353072
-0.019888651 -0.032620482 0.15303123
-0.035766684 0.00012289733 0.15131652
-0.036298744 -0.008051239 0.15095854
-0.026465008 -0.026602391 0.14933333
-0.023696641 -0.030553259 0.14841458
-0.035761505 -0.0132851 0.1467371
-0.031665314 -0.022616886 0.14615732
-0.025138833 -0.029310629 0.14528477
-0.034432553 -0.017804142 0.14142725
-0.029917521 -0.02557886 0.14035529
0.011657977 -0.037145719 0.19262347
-0.019524843 0.023636587 0.19256788
-0.016857844 0.019613944 0.19271928
-0.015102757 0.015205305 0.19254652
-0.012858762 0.010157743 0.19221368
-0.010249786 0.0052752411 0.19163996
-0.0085548079 0.00089038443 0.19057527
-0.0049421359 -0.0083243363 0.1907078
-0.0028814198 -0.012182737 0.19071579
-0.00052854465 -0.017333824 0.19099793
0.0022374811 -0.021741476 0.19124323
0.0032270346 -0.02673001 0.18996331
0.0056313286 -0.030635841 0.18971696
0.0083104894 -0.035134077 0.18932614
0.0093235802 -0.039117191 0.18946508
-0.023476457 0.025324419 0.19268632
-0.021739218 0.022705965 0.19172314
-0.015718644 0.008116357 0.1914902
-0.013173899 0.0032245968 0.19095394
0.0028141979 -0.032536063 0.18744063
0.0055337446 -0.035851035 0.18576184
0.0081698215 -0.039635319 0.18526709
0.0010241782 -0.034120783 0.18436635
0.003595395 -0.036039237 0.18184865
0.007417202 -0.040104967 0.18178847
-0.032854944 0.034020919 0.18135503
-0.034611493 0.032450102 0.17752534
-0.036428221 0.032364205 0.17367083
-0.036549699 0.033228934 0.16920412
-0.03626461 0.027583629 0.16863972
-0.036326546 0.024137257 0.16783845
-0.011114648 -0.034693748 0.16391984
-0.035544891 0.023378458 0.16366637
-0.036072373 0.018656153 0.16305056
-0.013155513 -0.033637784 0.15934029
-0.01057463 -0.034364071 0.15975723
-0.036041815 0.021916926 0.15997973
-0.035472915 0.018171798 0.15916371
-0.03509368 0.013949116 0.15896708
-0.035112679 0.01026389 0.15906748
-0.013921784 -0.033371709 0.15505621
-0.034904055 0.012920639 0.15489474
-0.034885939 0.0089582801 0.15385222
-0.035936259 0.0045347176 0.1529744
-0.017777871 -0.033421732 0.15052867
-0.034915447 0.0075015686 0.14912882
-0.035072345 0.0028784592 0.14835417
-0.019885935 -0.03324772 0.14653963
-0.034540899 0.0010185158 0.14461353
-0.034775458 -0.0064535295 0.14327508
-0.026688471 -0.028145492 0.14318681
-0.024038969 -0.030695599 0.14273423
-0.020510301 -0.033310678 0.14124507
-0.035022523 -0.0077189519 0.13950601
-0.034764271 -0.015919257 0.13906971
-0.024404258 -0.030472243 0.13838932
-0.034650743 -0.012280783 0.13527709
-0.032482564 -0.021604253 0.13448066
-0.031985503 -0.021249678 0.13076586
0.013435806 -0.024687173 0.19391549
0.0143826 -0.027744228 0.19440696
0.015774416 -0.031449836 0.19384518
-0.010005245 0.021743705 0.19301414
-0.0083556939 0.018127209 0.19275212
-0.0062160189 0.012985097 0.1924966
-0.003850678 0.0079472084 0.19209316
0.0030542919 -0.0063932356 0.1908471
0.0040598274 -0.010287707 0.19100335
0.0052477485 -0.014097602 0.19104001
0.0070752441 -0.018533239 0.19175506
0.00998272 -0.02322413 0.19084585
0.012380476 -0.028406473 0.19150645
0.012774358 -0.033357002 0.19220561
-0.015605839 0.024222527 0.19266501
-0.013292516 0.021158397 0.19314957
-0.011472354 0.01676056 0.19293693
-0.0094012525 0.011608464 0.19272271
-0.0068272147 0.0066886656 0.19217765
-0.0047117984 0.0024732966 0.19083986
-0.00083229318 -0.0058794706 0.19037914
0.0006997264 -0.010775219 0.19116229
0.0024949412 -0.015175756 0.19096437
0.0056534838 -0.022437928 0.19052583
0.0071509648 -0.025248539 0.19019908
0.0090127094 -0.030470403 0.19011754
0.0097216023 -0.032739889 0.19013935
0.0094984761 -0.039362486 0.18228373
0.0061499095 -0.037159465 0.18010229
0.0090706293 -0.039191831 0.17878279
0.0058037112 -0.035500821 0.1762585
-0.035194427 0.033187058 0.16649705
-0.034347381 0.029317915 0.1648984
-0.0018298682 -0.03448648 0.16000804
-0.036255427 0.03225185 0.16074502
-0.034808859 0.029363079 0.16139889
-0.034579594 0.025174899 0.16025415
-0.0069041904 -0.034610983 0.15751442
-0.035606526 0.029134732 0.15649632
-0.035011265 0.024579909 0.15662542
-0.035160854 0.020219665 0.1566335
-0.0087909931 -0.034336437 0.15295988
-0.036863618 0.02787048 0.15288907
-0.035333421 0.024145894 0.15259665
-0.035387278 0.019231498 0.15255854
-0.034792472 0.014857044 0.15250224
-0.013304191 -0.033428214 0.15088665
-0.011232016 -0.034719419 0.14937115
-0.03535749 0.01868267 0.14789167
-0.034804564 0.014594823 0.14748201
-0.034258232 0.010091467 0.14785498
-0.03446978 0.00613344 0.14628378
-0.015374666 -0.034046616 0.14569533
-0.012524659 -0.034615666 0.14397627
-0.03526967 0.013476077 0.14356649
-0.034709152 0.0097100707 0.14276627
-0.034739733 0.0035495209 0.14247236
-0.017238766 -0.034581982 0.14034104
-0.013819098 -0.034954585 0.13914347
-0.034652025 0.0082085207 0.13922498
-0.034017585 0.0038458584 0.13787368
-0.034394 -0.0053660008 0.13638875
-0.023795322 -0.030118775 0.1350261
-0.020165097 -0.033630714 0.13557878
-0.035567269 -0.0068282508 0.13302034
-0.027617212 -0.026386615 0.13190997
-0.025049878 -0.029356234 0.13183796
-0.021410337 -0.032447077 0.1304338
-0.035959013 -0.0075509362 0.12854177
-0.033351682 -0.016581414 0.12866068
-0.02837972 -0.025006015 0.12702805
-0.02547681 -0.028543591 0.12637579
-0.034921698 -0.01206914 0.12339544
-0.031363964 -0.020653279 0.12245023
-0.034256894 -0.016537348 0.11955649
0.013362858 -0.01273432 0.19361341
0.012314599 -0.014896321 0.19459543
0.014054956 -0.021929527 0.19490796
0.01600722 -0.027147662 0.19476986
-0.0052778022 0.019474529 0.19260627
-0.0028502953 0.014857243 0.19255486
-0.00077593466 0.010076854 0.19273233
0.00063008093 0.0046330173 0.19202134
0.0048890673 -0.0037417114 0.19139817
0.0068829004 -0.0080767702 0.19137236
0.0095844921 -0.012639442 0.19178322
0.010987091 -0.017063091 0.19296497
0.012433333 -0.022259671 0.19264722
0.0085622743 -0.034372233 0.1720573
0.010306913 -0.03772689 0.17340553
0.0051250518 -0.033800401 0.16694739
0.0037639597 -0.034224972 0.16408417
-0.00090139918 -0.034068182 0.1574508
0.0024419799 -0.034581672 0.1592854
-0.0026534004 -0.034645841 0.15486521
-0.0037911553 -0.034955271 0.15088478
-0.0017194096 -0.035832219 0.1488086
-0.035711754 0.030133747 0.15000361
-0.035222251 0.025186935 0.14971924
-0.0073888106 -0.035034999 0.14650339
-0.003929399 -0.036587451 0.14654583
-0.0353764 0.028479792 0.14573538
-0.034652211 0.025095869 0.1452947
-0.034466568 0.020842914 0.1451101
-0.0081821457 -0.034606084 0.14116436
-0.034912635 0.019152995 0.14115956
-0.03491158 0.01554769 0.14094347
-0.010396062 -0.035310097 0.1369842
-0.034717578 0.01443326 0.13688603
-0.034126423 0.010583165 0.13616335
-0.033794738 0.0064587742 0.1358417
-0.014586803 -0.0359409 0.13409412
-0.032687694 0.0057882024 0.13128984
-0.033222385 0.0011708224 0.13119435
-0.018879302 -0.033826806 0.12911922
-0.016085126 -0.03550227 0.12918484
-0.034908582 -0.0049917102 0.12503737
-0.024024079 -0.029799823 0.12349856
-0.02078113 -0.031432766 0.12427342
-0.016459364 -0.033810504 0.12515455
-0.035578012 -0.0062283627 0.12123972
-0.027944844 -0.025047235 0.12037194
-0.025095914 -0.028378315 0.11999083
-0.021591404 -0.031032737 0.12017739
-0.035506655 -0.011770258 0.11731076
-0.031975344 -0.020668779 0.11701906
-0.025590144 -0.027261153 0.11549354
-0.03458561 -0.016324565 0.11188936
-0.029744023 -0.023022661 0.11211085
0.010180203 0.0033427335 0.19245389
0.01305922 -0.00097526424 0.19296414
0.013791815 -0.0054507586 0.19366947
0.014273399 -0.010317243 0.19377625
0.00070302095 0.021310793 0.19074535
0.00018442795 0.017518058 0.19173932
0.0047143791 0.011553786 0.19215053
0.0063266708 0.0069964579 0.19208279
0.010054399 -0.0018803366 0.19162086
0.010770473 -0.0068054814 0.19212434
0.011927677 -0.0097926669 0.19202355
0.010896565 -0.035145994 0.16940981
0.013228529 -0.037126992 0.16904247
0.0099330768 -0.034561105 0.16609231
0.013305617 -0.037065759 0.16429704
0.0079034138 -0.035193309 0.16176271
0.011173811 -0.037375357 0.16021934
0.012907527 -0.039295625 0.15955752
0.0071132127 -0.034486618 0.15638995
0.008792121 -0.036725163 0.15645853
0.011615452 -0.039694462 0.15661305
0.0038718125 -0.034728173 0.15271676
0.0065460727 -0.036300886 0.1523408
0.0012725126 -0.035580542 0.14878044
-0.0025975015 -0.034850881 0.14275423
-0.035334181 0.030715734 0.14360783
-0.0340335 0.027580125 0.14217418
-0.0045989184 -0.034913775 0.13891307
-0.035360929 0.029675853 0.13908714
-0.034377888 0.025887551 0.13890761
-0.034191489 0.021980891 0.13918182
-0.036249839 0.028811138 0.13559586
-0.034631342 0.024880692 0.13477275
-0.034250513 0.020974236 0.13411367
-0.034321792 0.016342072 0.13444448
-0.034113839 0.015530387 0.12971088
-0.033237532 0.011134714 0.12986368
-0.033086494 0.0068841605 0.12880248
-0.034679633 0.015202815 0.12500107
-0.03435323 0.010958625 0.12479651
-0.033539791 0.0060125813 0.12540829
-0.033492215 0.0025480678 0.12521559
-0.017715503 -0.032465674 0.12178451
-0.0143602 -0.033481289 0.12170243
-0.034395844 0.010286468 0.12106127
-0.034154344 0.0058287373 0.12023574
-0.034364313 0.00068846438 0.12062556
-0.018807206 -0.032075576 0.11812627
-0.033773124 0.004694852 0.11606181
-0.035127535 -0.0051657157 0.11544299
-0.024994273 -0.028674323 0.11345661
-0.020778023 -0.031656459 0.11387837
-0.03565124 -0.0063228933 0.11116427
-0.031583227 -0.020621566 0.10936052
-0.025491968 -0.028147038 0.10940254
-0.022763349 -0.031397156 0.10927528
-0.035649177 -0.011491911 0.10576063
-0.031960636 -0.019933933 0.10556817
-0.025649954 -0.028068267 0.10553277
-0.034476485 -0.015438555 0.1008954
-0.02938306 -0.023606893 0.10143608
0.011540028 0.019595476 0.19434911
0.016726676 0.0059551778 0.19393566
0.0061748647 0.023938173 0.19280037
0.0086093107 0.020234456 0.19211775
0.0097561888 0.015475732 0.19140917
0.014479422 0.0051019108 0.19253397
0.0036138687 0.022573259 0.19074228
0.0045887963 0.018577926 0.19092929
0.0060345614 0.015696853 0.1906468
0.013579645 -0.03904267 0.15909654
0.010173041 -0.03787205 0.15393391
0.013055058 -0.039654288 0.1525262
0.0093292259 -0.037421416 0.1496098
0.012860804 -0.039093271 0.14996573
0.0049141403 -0.035080679 0.14830399
0.0084928516 -0.035428241 0.14613137
0.0020484701 -0.034936253 0.13558918
0.0012058653 -0.034315504 0.13307306
-0.03321106 0.031418707 0.13104168
-0.033288755 0.027242666 0.13165531
-0.034316923 0.03144192 0.12784868
-0.03329803 0.027220977 0.12683284
-0.032843862 0.022074286 0.12706459
-0.032489177 0.01871518 0.12662631
-0.034864672 0.030238423 0.12455952
-0.034318086 0.026982522 0.12363786
-0.033657264 0.021825673 0.1220172
-0.033269033 0.017626127 0.12170714
-0.033352718 0.016426533 0.11770588
-0.033591419 0.011982065 0.1175732
-0.033319399 0.0083622728 0.11684269
-0.013826729 -0.032940019 0.11531395
-0.033314474 0.011758132 0.11325133
-0.032552861 0.0071744202 0.11264038
-0.032463472 0.0036997693 0.11242896
-0.015615139 -0.033035561 0.11063612
-0.032935113 0.0054340139 0.10935688
-0.033005647 0.0021786392 0.10796416
-0.018749204 -0.032369342 0.10670274
-0.016268095 -0.033109561 0.10514808
-0.033586167 0.00073652808 0.10432655
-0.024445286 -0.027457628 0.10154259
-0.021220332 -0.030946398 0.1024043
-0.03420233 -0.0096705724 0.099241018
-0.030206051 -0.019606266 0.098187506
-0.025012145 -0.027547749 0.09797132
-0.022448942 -0.030699588 0.097333252
-0.034217391 -0.010412827 0.094800711
-0.030482072 -0.019094877 0.093742847
-0.026277123 -0.026734658 0.093994737
-0.031690855 -0.018564794 0.090457857
0.014284126 0.017264163 0.19372085
0.018444464 0.0088581406 0.19386977
0.012804801 0.016716644 0.19229537
0.012970944 -0.039007474 0.1479513
0.010071864 -0.036554486 0.14538014
0.0037894975 -0.035153087 0.1354852
0.006633488 -0.035766952 0.13280961
0.0026875567 -0.034554023 0.13020673
0.0056698993 -0.036036756 0.12957472
0.0016859453 -0.033910275 0.12482691
-0.00024844054 -0.034529205 0.12131977
-0.034998741 0.030386411 0.12165451
-0.034343347 0.027576026 0.12137777
-0.03406335 0.023808796 0.11960453
-0.034050822 0.027342368 0.1170243
-0.033656221 0.022405677 0.11668861
-0.033224389 0.01822843 0.11540568
-0.01149395 -0.033248469 0.11180925
-0.033177912 0.022332188 0.11206985
-0.033675071 0.017362535 0.11194968
-0.033293825 0.012743426 0.11031508
-0.032291371 0.0092093376 0.10997927
-0.011055125 -0.033403888 0.10806584
-0.033777162 0.021134045 0.10811424
-0.033376656 0.017185524 0.10746223
-0.032973599 0.01243417 0.10624677
-0.032903586 0.0075970255 0.10656285
-0.012954452 -0.033526495 0.10293067
-0.033204474 0.011895662 0.10296369
-0.033374287 0.0071962634 0.10181063
-0.033447798 0.0027004797 0.10174018
-0.018693579 -0.032118913 0.099621713
-0.015721127 -0.033413135 0.099240661
-0.033025995 0.0060839374 0.097245157
-0.033559427 0.0021119239 0.096861482
-0.01934623 -0.031766262 0.094477057
-0.016698323 -0.032933775 0.094387412
-0.034331314 0.0010512955 0.092726529
-0.034305364 -0.0078759622 0.092130184
-0.025078908 -0.027915202 0.091416538
-0.022052683 -0.030493224 0.090556502
-0.033427604 -0.009305384 0.08775878
-0.031212218 -0.01938156 0.087722301
-0.026055366 -0.027540885 0.086640298
-0.023331564 -0.029965401 0.086292148
-0.031382196 -0.01896855 0.082231104
-0.027217349 -0.026075879 0.082037628
-0.03224371 -0.018281583 0.078613639
0.0083035873 -0.036842704 0.13098821
0.0045276005 -0.034656964 0.12706435
0.007942196 -0.037158169 0.12670428
0.0061023869 -0.033940084 0.12191874
0.007831201 -0.0350766 0.12301868
0.0002268767 -0.033385891 0.11777091
-0.00094933808 -0.031102926 0.1140554
-1.0887161e-06 -0.033198282 0.11430228
-0.031455513 0.032426253 0.11579615
-0.033024848 0.030079011 0.11343467
-0.004205402 -0.032216351 0.1105504
-0.00083195604 -0.032668948 0.10935545
-0.032912839 0.028592939 0.10971397
-0.033257663 0.024248142 0.10966629
-0.0070476187 -0.033166029 0.10673702
-0.003807052 -0.033639863 0.10461444
-0.033816785 0.02764304 0.10454929
-0.033374913 0.023538435 0.10499227
-0.033302803 0.019166922 0.10492295
-0.0094387513 -0.033936877 0.10257685
-0.0063156653 -0.034455888 0.10052341
-0.034018707 0.022725374 0.10052514
-0.033160806 0.018331306 0.10033429
-0.032878574 0.013666359 0.10061991
-0.010025174 -0.033990517 0.096968055
-0.032520436 0.017083114 0.096151054
-0.032314263 0.013425897 0.095146954
-0.03231582 0.0087620076 0.095777214
-0.012975132 -0.033225965 0.092811704
-0.032760024 0.008131545 0.090718985
-0.033525702 0.0039693341 0.091569126
-0.017071575 -0.031131474 0.088131189
-0.015201505 -0.032169938 0.088060498
-0.033550419 0.007063102 0.086561382
-0.033579849 0.0029043294 0.086294115
-0.032683346 -0.0064153736 0.084998906
-0.01954538 -0.03076385 0.083735526
-0.03369572 0.0021713553 0.082488596
-0.032345194 -0.0067196251 0.081187189
-0.027939547 -0.02393299 0.079630911
-0.025768673 -0.027565615 0.080747783
-0.021814542 -0.030210875 0.079747021
-0.033658609 -0.013495086 0.07696712
-0.028325535 -0.022768429 0.075859785
-0.025118198 -0.026988141 0.075356185
-0.023228576 -0.029994573 0.075515509
-0.033565145 -0.012641806 0.071944714
-0.029117616 -0.021446336 0.071648955
0.0087114889 -0.036149215 0.12070054
0.0055931695 -0.034031369 0.11830986
0.0089598522 -0.035181616 0.11593676
0.0038733799 -0.033607256 0.1113919
0.0070627029 -0.035064168 0.11158133
0.00022944715 -0.033529781 0.10733396
-0.031846438 0.032664616 0.11000729
-0.0019238871 -0.033955775 0.10339105
-0.032048441 0.033002935 0.10402852
-0.033467788 0.030576594 0.10358924
-0.0021692682 -0.034643054 0.099697948
-0.033371061 0.028765757 0.09911561
-0.03379754 0.024806395 0.097832441
-0.0054345103 -0.034960225 0.094552577
-0.032031268 0.02373567 0.094141245
-0.032012165 0.018899323 0.09371078
-0.032317452 0.015615243 0.092316329
-0.0096797654 -0.033672757 0.09057498
-0.007537229 -0.035284594 0.089044869
-0.031426549 0.013826542 0.088733733
-0.033413813 0.0099941837 0.088427901
-0.011798542 -0.033287529 0.086300254
-0.009506532 -0.034602009 0.084574699
-0.033371985 0.0090860752 0.083866596
-0.014903349 -0.032741006 0.081878483
-0.033017315 0.0076742535 0.079872847
-0.033607021 0.0035242625 0.079434633
-0.018477909 -0.03133655 0.077991307
-0.016030751 -0.032575455 0.07702446
-0.033395506 0.0023870217 0.075367272
-0.034039248 -0.0055685905 0.07452637
-0.021174314 -0.031052511 0.073753893
-0.017995618 -0.031860597 0.072632551
-0.033474404 -0.0069065434 0.070335746
-0.028590027 -0.022028957 0.069346666
-0.02248604 -0.028623065 0.069448054
-0.032999292 -0.012218438 0.066445827
-0.02831126 -0.020216595 0.065057635
0.011297101 -0.035301805 0.11280769
0.0085584642 -0.03414607 0.11076427
0.0068794843 -0.034095857 0.10544944
0.0047908816 -0.0345691 0.10093087
-0.00042781141 -0.033904433 0.096282065
0.0039042747 -0.034955446 0.096567869
-0.031566929 0.031991694 0.095829546
0.0006612232 -0.035084613 0.089702249
-0.031154327 0.030392814 0.092107832
-0.030629229 0.025926229 0.091065586
-0.030928265 0.02081221 0.091032445
-0.0039036032 -0.034984715 0.088826954
-0.031267874 0.029947046 0.087950945
-0.031172555 0.025505168 0.086951911
-0.03093249 0.020392369 0.087490737
-0.031226594 0.015552872 0.086448073
-0.0069098482 -0.035965785 0.084072888
-0.034460895 0.029826833 0.082055748
-0.0330805 0.02496336 0.082302392
-0.031923059 0.020001266 0.08273536
-0.031186171 0.015146266 0.082860827
-0.0089307474 -0.03481878 0.079091191
-0.034919824 0.024152469 0.078254819
-0.03344091 0.019650022 0.077750564
-0.032603525 0.014539003 0.078466177
-0.032479197 0.0096179331 0.077185869
-0.014048857 -0.033060569 0.074147761
-0.01120255 -0.034650374 0.074528158
-0.034326117 0.01829306 0.073930383
-0.033928879 0.014276429 0.073311985
-0.033557184 0.0092503354 0.073772311
-0.03321559 0.0041470882 0.072978735
-0.016043566 -0.032269608 0.069841862
-0.01186162 -0.034760386 0.069875121
-0.03472681 0.013222911 0.070037007
-0.034065694 0.0087788673 0.069242537
-0.033344425 0.0042237137 0.068732917
-0.032835703 -0.0047047907 0.067192078
-0.023670495 -0.024975423 0.065736771
-0.021027964 -0.02837641 0.065696239
-0.016309036 -0.031891622 0.065859556
-0.013117797 -0.034247816 0.066523314
-0.034546342 0.0072535779 0.065257847
-0.033965629 0.0037416099 0.063942552
-0.032929309 -0.0061114305 0.063225389
-0.029721303 -0.017458521 0.06205523
-0.02397437 -0.024092592 0.062609017
-0.021337006 -0.028630883 0.062284768
-0.018140821 -0.030692644 0.06205821
-0.034342844 0.002207878 0.060207188
-0.033233903 -0.006230697 0.058532596
-0.030578913 -0.015853766 0.058098376
-0.024553843 -0.024140272 0.057844281
-0.022087311 -0.028274231 0.057352006
-0.034251411 -0.0066746743 0.054461122
-0.031481374 -0.016021473 0.053603709
-0.025539201 -0.02439817 0.054483294
-0.023726802 -0.027229227 0.053868771
-0.034353826 -0.011676653 0.050418496
-0.030577024 -0.019102231 0.050609291
0.012344183 -0.034775339 0.10695434
0.012699001 -0.034513313 0.10159242
0.0095262136 -0.035135306 0.09781301
0.0066910381 -0.035430059 0.092914641
0.0042759012 -0.034812815 0.089543343
-0.030649209 0.032906782 0.088816822
0.002282544 -0.035290312 0.086560667
-0.031192154 0.031370379 0.084892631
-0.033722207 0.02991939 0.081791103
-0.034814127 0.028940618 0.076755047
-0.035626564 0.02516854 0.07585001
-0.035408098 0.028213032 0.072815239
-0.034771048 0.024939325 0.071381629
-0.033788338 0.020544384 0.070859551
-0.033497151 0.0198671 0.066826046
-0.033503287 0.014869586 0.066597164
-0.03331212 0.010479312 0.065544486
-0.014224992 -0.032780819 0.06279546
-0.01194306 -0.034610655 0.063656867
-0.032583546 0.0096634766 0.061553001
-0.034652054 0.0056085857 0.06160754
-0.015834965 -0.03201516 0.059326768
-0.012745653 -0.033850685 0.057780147
-0.033177696 0.0043158643 0.057059526
-0.021001916 -0.029761335 0.054569483
-0.017572086 -0.031513695 0.054819226
-0.032915447 0.00322311 0.052524209
-0.0352019 -0.0049424162 0.052349925
-0.025675036 -0.024336888 0.051417589
-0.022399498 -0.028615965 0.050858974
-0.018686488 -0.030503575 0.049829423
-0.034955114 -0.0061993906 0.04802537
-0.032358281 -0.016085315 0.046934187
-0.024914058 -0.023581833 0.04593581
-0.022373751 -0.027342224 0.046522915
-0.034007162 -0.011225488 0.043674111
-0.029790856 -0.019912727 0.043032944
0.015889203 -0.035075828 0.099556684
0.013366047 -0.03649316 0.095838904
0.010323238 -0.036903735 0.091563344
0.0076214373 -0.036030073 0.088110983
0.0094644409 -0.037108485 0.087082863
0.0072417636 -0.036073528 0.084275424
-0.03477636 0.028755516 0.069076896
-0.033848103 0.025565028 0.068186224
-0.036090899 0.028376963 0.065975368
-0.034683514 0.025356475 0.065726995
-0.033448495 0.021387082 0.064814508
-0.031667609 0.015896119 0.062851191
-0.035491966 0.029052701 0.060090184
-0.03429798 0.025838248 0.061107874
-0.032515425 0.020888241 0.060644686
-0.031722263 0.016302818 0.060079753
-0.031720545 0.011494428 0.059878588
-0.031853825 0.014400624 0.056028724
-0.031816255 0.011018834 0.055603325
-0.031953298 0.0071290489 0.054928899
-0.014319233 -0.032496296 0.052296519
-0.011918119 -0.033363469 0.051750243
-0.032044772 0.0099822963 0.052099764
-0.032349315 0.0058787027 0.051048577
-0.033648282 0.0012693349 0.049406111
-0.015545341 -0.031961616 0.048865736
-0.033311844 0.0038173459 0.046839714
-0.034042638 0.00066135358 0.046350598
-0.021280181 -0.028186174 0.044315517
-0.017628871 -0.03063475 0.044168949
-0.034185592 0.0032646069 0.04182297
-0.034763295 -0.0042048367 0.041206837
-0.031648848 -0.013674587 0.03931725
-0.025269046 -0.024043586 0.04088378
-0.022063844 -0.027677344 0.040264308
-0.034631692 -0.005765311 0.037278235
-0.031148124 -0.015136079 0.036133885
-0.026168365 -0.023730278 0.035979211
-0.023398373 -0.027067196 0.035895288
-0.033347383 -0.010457563 0.032788038
-0.029725924 -0.019760784 0.030974448
-0.034028292 0.029802635 0.058780551
-0.033101182 0.026660085 0.056815267
-0.031841736 0.022602595 0.056959987
-0.033780891 0.030376468 0.052075744
-0.0320566 0.027334003 0.053717911
-0.031105792 0.021736873 0.053987622
-0.03061752 0.017485674 0.05287981
-0.0069307508 -0.033150837 0.046813548
-0.030858854 0.015874034 0.048852265
-0.031383161 0.011655088 0.048396587
-0.013404784 -0.031932943 0.045079648
-0.01028785 -0.033290789 0.045600474
-0.030602887 0.015591884 0.045176446
-0.031210613 0.011149121 0.04332459
-0.031734042 0.0071172956 0.043724298
-0.014254445 -0.031676281 0.040870905
-0.011470429 -0.032868207 0.040637493
-0.032448389 0.005999051 0.03860873
-0.019908903 -0.028740808 0.036462605
-0.016499672 -0.029968388 0.036690831
-0.033549283 0.0039161434 0.034705043
-0.034273058 0.00058216788 0.034448087
-0.024217099 -0.024860725 0.032336712
-0.021413848 -0.027750079 0.03265202
-0.033539437 -0.0049647526 0.030086815
-0.031536978 -0.014063354 0.028616965
-0.021778293 -0.026949666 0.028836012
-0.032373395 -0.010071905 0.025095105
-0.029385038 -0.019394726 0.025200546
-0.022909958 -0.02590052 0.025115728
-0.029683283 -0.018139532 0.021096706
0.01371864 -0.035212893 0.072182417
0.010457098 -0.032717507 0.06865108
0.012586344 -0.034639135 0.068653226
0.0093634333 -0.033059705 0.066378713
0.011401682 -0.034084432 0.065161586
0.0037161037 -0.032997977 0.053606808
-0.031565942 0.027727399 0.051108599
-0.030175414 0.023713246 0.051144242
-0.033639282 0.030824276 0.04650712
-0.031984597 0.027805783 0.047136366
-0.030669689 0.022804473 0.047504008
-0.030042395 0.018816357 0.046698987
-0.0054374496 -0.034310795 0.043853164
-0.0041122967 -0.033788398 0.042690933
-0.033771429 0.031058103 0.042252421
-0.033862323 0.027290385 0.042299569
-0.031918738 0.022598937 0.042099655
-0.031062134 0.017626248 0.04255563
-0.031085674 0.013743118 0.041786015
-0.0087313429 -0.03361975 0.039787591
-0.004781737 -0.033933032 0.038956642
-0.035232104 0.026888032 0.039179802
-0.032766666 0.022018284 0.03808403
-0.032145355 0.017242482 0.037329018
-0.031390704 0.012228717 0.037887216
-0.031033399 0.008534492 0.036772132
-0.012062614 -0.031096198 0.03416276
-0.010004075 -0.032862235 0.034552515
-0.0327591 0.016265921 0.033774674
-0.032515749 0.011817267 0.032692492
-0.032466784 0.0073732911 0.033497691
-0.015038491 -0.030010052 0.030816019
-0.012642347 -0.031130787 0.028151274
-0.032818843 0.010109417 0.028010726
-0.033133991 0.0062761279 0.028290927
-0.033087458 0.0017512627 0.027404726
-0.020142404 -0.027891431 0.026354194
-0.01598252 -0.029577591 0.024947703
-0.033417873 0.0051746629 0.023773551
-0.03337086 0.00091918278 0.023533821
-0.032292847 -0.0077596516 0.023045778
-0.024111833 -0.024460377 0.022411942
-0.021087717 -0.027111501 0.021553099
-0.017091382 -0.028975047 0.021315813
-0.033515707 -0.0043966882 0.01868999
-0.031376019 -0.013125232 0.018994689
-0.02591968 -0.023192095 0.018068969
-0.022320496 -0.0260067 0.01741749
-0.034460869 -0.0048011616 0.013650775
-0.031948864 -0.014498181 0.013870776
-0.026531493 -0.022618886 0.012569726
-0.031593055 -0.014149773 0.0090813041
0.015418448 -0.036275018 0.067026973
0.015855664 -0.037966806 0.069248199
0.01111757 -0.032297961 0.061739564
0.013063905 -0.035210483 0.062129736
0.015824545 -0.037839185 0.062913656
0.0087796841 -0.033067461 0.058360338
0.011450281 -0.03476543 0.056835651
0.0075422493 -0.03338249 0.052981317
0.010201379 -0.03422977 0.053360879
0.0049161483 -0.032414339 0.048285246
0.00068747345 -0.03268411 0.04514128
0.0017609522 -0.033360712 0.04020983
-0.0044454243 -0.033740502 0.036490142
-0.03331396 0.026038012 0.036837637
-0.032506362 0.022773115 0.035327315
-0.0082661705 -0.033186946 0.030687809
-0.0050784359 -0.033840068 0.031612277
-0.033212814 0.026307195 0.033436179
-0.031755347 0.022974996 0.031498134
-0.031925809 0.018191177 0.030938625
-0.0096380245 -0.03252656 0.027683973
-0.031751558 0.021765454 0.027054369
-0.031483468 0.017562814 0.026597738
-0.031126063 0.013750757 0.02559948
-0.010883422 -0.032142341 0.023420572
-0.031319648 0.012466805 0.022307932
-0.03237756 0.007469547 0.020803273
-0.015277851 -0.029408509 0.018520534
-0.011657219 -0.031416066 0.019829392
-0.032215156 0.0070065996 0.016424775
-0.032715429 0.0024478706 0.017090857
-0.020925129 -0.02659722 0.014993489
-0.017036125 -0.028386999 0.014977813
-0.033202574 0.00587958 0.012437999
-0.033427145 0.0020216824 0.011997938
-0.021898806 -0.025931355 0.011204183
-0.018619891 -0.027368126 0.010034859
0.015255206 -0.036142431 0.058651149
0.011568921 -0.03458989 0.051373363
0.0082092509 -0.032985259 0.047031462
0.011019073 -0.034497883 0.046829104
0.006666977 -0.032974444 0.042283416
0.010246454 -0.033945311 0.042530119
0.0047288984 -0.033588354 0.038537502
0.004426714 -0.034036476 0.034023941
0.00038579572 -0.033491999 0.026138783
-0.031622317 0.027331755 0.028623343
-0.03107705 0.025087383 0.028471231
-0.0044138711 -0.033396296 0.02444303
-0.031170847 0.027780667 0.024858713
-0.031061482 0.02383865 0.023718655
-0.031528521 0.01957335 0.023869276
-0.0087070093 -0.033049092 0.020120502
-0.031816408 0.022837382 0.019495368
-0.031602535 0.018277662 0.019818425
-0.031103782 0.013596351 0.018844545
-0.010329898 -0.030816205 0.016392767
-0.031540815 0.018822696 0.015680254
-0.03146043 0.013048109 0.014645457
-0.032121144 0.0093128281 0.014563203
-0.014609651 -0.028924922 0.011248291
-0.010185817 -0.029736089 0.012658
-0.032279093 0.012268613 0.010500729
-0.032947078 0.0077431481 0.0097556114
0.013771625 -0.034477774 0.042172909
0.012236975 -0.034596261 0.039039135
0.011519362 -0.035134688 0.035393655
0.0052751224 -0.032703597 0.029736698
0.0094035408 -0.035526022 0.030594766
0.0047629448 -0.032802064 0.026341498
0.0078436639 -0.034439903 0.02713275
0.0031150822 -0.03331526 0.022849083
-0.028875357 0.027169894 0.021007776
-0.029479921 0.026517563 0.017276525
-0.0041194493 -0.031095741 0.011457086
-0.03038644 0.023736287 0.012738824
-0.030585553 0.019944645 0.011808455
-0.0085447803 -0.030409615 0.00986588
-0.030885987 0.018942486 0.0080989599
-0.031593498 0.015011948 0.0085603595
0.013186253 -0.036285561 0.032256603
0.010955474 -0.036114335 0.029560924
0.0070296386 -0.032854557 0.025132835
0.009400351 -0.035273008 0.024401009
0.0052336692 -0.033383071 0.020100594
0.0073954519 -0.034449037 0.020902872
-0.028532788 0.027781095 0.013927221
0.0016359426 -0.031690456 0.010319114
-0.027077701 0.030450564 0.011969447
-0.028191902 0.027554356 0.010014594
-0.025971847 0.032135691 0.0083516836
