# .PCD v0.7 - Point Cloud Data file format
VERSION 0.7
FIELDS x y z
SIZE 4 4 4
TYPE F F F
COUNT 1 1 1
WIDTH 882
HEIGHT 1
VIEWPOINT 0 0 0 1 0 0 0
POINTS 882
DATA ascii
-0.034876086 0.0255662 0.1885342
-0.027051397 0.029849704 0.1889039
-0.031326827 0.022336308 0.19101438
-0.033832364 0.012637309 0.18969548
-0.035700299 0.0031484021 0.18928289
-0.02935037 0.03088011 0.18688357
-0.034521692 0.023603717 0.18777257
-0.03586486 0.013679318 0.18571612
-0.031138794 0.031648636 0.18305016
-0.035805304 0.024570148 0.18335703
-0.03648353 0.015968055 0.18164137
-0.035878576 0.024885131 0.1780329
-0.036059659 0.026781771 0.17503801
-0.021034818 0.026458882 0.19181564
-0.022189002 0.023225736 0.19228315
-0.026134675 0.015140614 0.19240963
-0.029942589 0.004721249 0.19144562
-0.032878798 -0.0039808443 0.191517
-0.034428131 -0.0081122043 0.19054821
-0.035704032 -0.013071529 0.18974704
-0.02327932 0.028599877 0.18944061
-0.024642324 0.02502333 0.19116724
-0.028776348 0.016279293 0.19148809
-0.032172795 0.0060488214 0.19052687
-0.035971668 -0.002117536 0.18819651
-0.036863878 -0.0069282195 0.18770948
-0.037483178 -0.012302406 0.18671337
-0.023001267 0.030911559 0.18599364
-0.03695846 0.0033778828 0.18340886
-0.037413903 -0.0016018078 0.1829136
-0.037574057 -0.0062154699 0.18337646
-0.038157471 -0.010439989 0.18381423
-0.026829442 0.031932652 0.18027294
-0.036655333 0.008461941 0.17921862
-0.037951067 -0.00019426923 0.1783976
-0.030201931 0.031380348 0.17704517
-0.036300082 0.01967103 0.17650548
-0.037198473 0.0091153719 0.17445937
-0.030943403 0.031960394 0.17214137
-0.035335571 0.024781648 0.17195737
-0.036845904 0.01587042 0.17099965
-0.031685028 0.032052398 0.16846275
-0.035217803 0.025493355 0.16790691
-0.023319513 0.00054367911 0.19133836
-0.025405388 -0.0019654166 0.19179419
-0.027641967 -0.0060789268 0.19188967
-0.028002314 -0.010971863 0.190736
-0.028962936 -0.013938949 0.19044527
-0.016476987 0.02686711 0.19068843
-0.018947566 0.022648927 0.19277176
-0.022035122 0.013447966 0.19238243
-0.025694489 0.0046547488 0.19136444
-0.029947232 -0.0033873226 0.19209245
-0.031751335 -0.0093330611 0.19144213
-0.033701964 -0.014875267 0.19062221
-0.034540363 -0.018585227 0.18814877
-0.018625977 0.029606733 0.18831703
-0.03829959 -0.014636778 0.18453178
-0.037158206 -0.018562626 0.18460646
-0.021571588 0.03133462 0.183474
-0.037457958 -0.0067151953 0.17972434
-0.037606746 -0.012077075 0.18098158
-0.037650824 -0.016853008 0.18061373
-0.023900442 0.031714734 0.17850852
-0.037666865 -0.0017510029 0.17613518
-0.037297748 -0.0062905727 0.1753495
-0.036930196 -0.010426462 0.17548275
-0.025983673 0.032140668 0.17396253
-0.03677332 0.0037930813 0.17151225
-0.037537999 -0.00095223635 0.17150447
-0.037715066 -0.0059264945 0.17039686
-0.038048431 -0.0092134094 0.17125738
-0.027150018 0.032876842 0.16932324
-0.03611866 0.0095660072 0.16819191
-0.037245497 -0.00092936866 0.16764188
-0.039447471 -0.0067455322 0.16724604
-0.030454401 0.031772643 0.16485986
-0.034966026 0.024791304 0.16505033
-0.035189208 0.015810305 0.16453254
-0.032890759 0.028792001 0.16080028
-0.035211273 0.020549595 0.15975097
-0.033021457 0.028217446 0.15697536
-0.03553744 0.021690238 0.15655768
-0.012901813 0.020337988 0.19185299
-0.014705827 0.015533982 0.1916506
-0.018360313 0.0066575445 0.19160235
-0.02189221 -0.0026213443 0.1915032
-0.023447175 -0.007913745 0.19181207
-0.024751887 -0.012434863 0.1912826
-0.02752601 -0.01629216 0.19052631
-0.0279756 -0.020029129 0.18882817
-0.011383803 0.030137017 0.18806714
-0.012187585 0.026822448 0.19018552
-0.031703554 -0.02167432 0.18616742
-0.030209757 -0.024638636 0.18573493
-0.012885679 0.030315155 0.18559384
-0.017799102 0.030884335 0.18027031
-0.036077611 -0.018512111 0.17777753
-0.017461572 0.030876201 0.17823157
-0.0367864 -0.012600962 0.17397764
-0.035820566 -0.016645195 0.17363197
-0.0204781 0.031899262 0.17164671
-0.038183797 -0.0056558559 0.16867009
-0.037964456 -0.011261326 0.16896984
-0.036259264 -0.015501158 0.16885549
-0.035332024 0.0031124763 0.16471815
-0.036518268 -0.0011210805 0.16436732
-0.037998885 -0.0053817006 0.16469473
-0.038617749 -0.0098718619 0.16460019
-0.026064161 0.031753838 0.1640718
-0.035164043 0.0092172176 0.1617769
-0.036199145 -0.00042602792 0.16046268
-0.037258901 -0.0057768775 0.16064119
-0.029377427 0.030002695 0.15902144
-0.035115015 0.010704977 0.15698415
-0.031424511 0.02939913 0.15447342
-0.035766579 0.02108705 0.15370432
-0.034788776 0.012225875 0.15325001
-0.034076273 0.025673691 0.14965561
-0.018105829 -0.025886789 0.1959056
-0.017874129 -0.015489186 0.19127372
-0.019981313 -0.019712254 0.19126302
-0.021101544 -0.024111649 0.19189256
-0.022646904 -0.027993865 0.19136497
-0.003682524 0.027000247 0.19028619
-0.005877756 0.023610504 0.19125655
-0.0076493705 0.019221151 0.19200283
-0.01044393 0.013802143 0.19158098
-0.0128348 0.004928844 0.19155243
-0.016830906 -0.0044112992 0.19085711
-0.017535025 -0.0096085025 0.19086239
-0.020986663 -0.014115069 0.19150645
-0.022704605 -0.018803012 0.19042718
-0.024304302 -0.023075126 0.18925831
-0.025656527 -0.027391806 0.18858272
-0.027233591 -0.030071357 0.18687257
-0.0064731836 0.028656762 0.18835804
-0.0084944153 0.024963614 0.18991914
-0.027423795 -0.023089692 0.18706846
-0.028764077 -0.026612163 0.18552148
-0.008312772 0.029606106 0.18190455
-0.010621052 0.030029973 0.17591706
-0.033847533 -0.021500334 0.17454576
-0.01174864 0.030592281 0.17393485
-0.014898048 0.030143522 0.17376465
-0.034850262 -0.019220462 0.17114168
-0.033058245 -0.02179517 0.17215523
-0.014943891 0.030382358 0.17013791
-0.03552502 -0.017651994 0.16734049
-0.03717126 -0.011851542 0.16160548
-0.036018558 -0.01568651 0.16297585
-0.023082942 0.030861568 0.15920591
-0.035765003 -0.0020612618 0.158032
-0.036555666 -0.0059709065 0.15734956
-0.036758829 -0.010554148 0.15758952
-0.023301747 0.031212088 0.15473881
-0.025588222 0.030306276 0.15680414
-0.03582532 0.0045879139 0.15428057
-0.035730299 -0.0010496462 0.15361089
-0.036579918 -0.0057933331 0.15271035
-0.036975961 -0.0090677124 0.15291816
-0.024768172 0.032595389 0.15070137
-0.027128063 0.030789316 0.15177056
-0.034923218 0.010483636 0.15068552
-0.036408663 -0.00035104062 0.14880541
-0.036928717 -0.0043543829 0.14894524
-0.027544217 0.033729732 0.14771795
-0.030063534 0.030910622 0.14795876
-0.034025248 0.020390656 0.14656413
-0.035292588 0.011081534 0.14565432
-0.037138231 0.00074057095 0.14555773
-0.028144542 0.033855718 0.14243153
-0.029964898 0.029981527 0.14276984
-0.034048174 0.020962058 0.14219511
-0.035986334 0.011565286 0.14148316
-0.030865733 0.029200414 0.13890353
-0.034589119 0.021664079 0.13757756
-0.034639228 0.026404057 0.13394281
-0.013653271 -0.02450023 0.19757655
-0.016092444 -0.026017042 0.19845751
-0.014134628 -0.023009207 0.19395533
-0.017222609 -0.026019489 0.19513863
0.0018809247 0.024717221 0.19215673
-9.8083634e-05 0.021492813 0.19265532
-0.0022801748 0.016408416 0.19245008
-0.0033921904 0.010931564 0.19155976
-0.0052478826 0.0065678768 0.19137457
-0.0096404441 -0.001885111 0.19144693
-0.011138644 -0.0063814707 0.19103208
-0.01305396 -0.011752917 0.19115737
-0.014412846 -0.017043879 0.19173792
-0.017207157 -0.020977326 0.1917803
-0.019543683 -0.025702517 0.19245306
-0.019950522 -0.028403932 0.19255042
0.0019126078 0.029488927 0.18821448
-0.0003884444 0.027406087 0.1904383
-0.0028291764 0.023460414 0.19191295
-0.0059952829 0.015405567 0.19143087
-0.0069842068 0.012416416 0.19115081
-0.024814889 -0.031203195 0.18707535
-0.00044846628 0.030979818 0.18576303
-0.0033335742 0.029917331 0.18660077
-0.004240308 0.029800594 0.18059176
-0.027546965 -0.02708762 0.17772669
-0.0068872767 0.029595101 0.17589557
-0.028196245 -0.026945714 0.17286837
-0.0065896083 0.033928953 0.17004541
-0.0090641705 0.031877663 0.17155668
-0.030719126 -0.022745015 0.16774017
-0.0088660866 0.034882374 0.1688292
-0.01052011 0.031961422 0.16760987
-0.031868108 -0.020360319 0.16347903
-0.030388147 -0.022811176 0.1647203
-0.033367015 -0.01871123 0.16015279
-0.016799342 0.030146591 0.15803117
-0.035536636 -0.013283249 0.15645224
-0.035150368 -0.016049415 0.15634471
-0.018458985 0.030719504 0.15371943
-0.03640962 -0.011636203 0.15109763
-0.035801075 -0.015179376 0.15180099
-0.02106957 0.03148124 0.14966419
-0.037121795 -0.0018884428 0.14664888
-0.037729654 -0.0056570554 0.14714971
-0.03699578 -0.010343835 0.1461525
-0.036015823 -0.014495091 0.14691597
-0.023886777 0.033582196 0.14729062
-0.036836281 -0.0050554657 0.14224523
-0.037746411 -0.0092149116 0.14195669
-0.025603389 0.034631874 0.1410628
-0.028970024 0.031755988 0.14039856
-0.036285326 0.011810062 0.13888544
-0.037108287 0.0013492899 0.13847798
-0.028328884 0.034253307 0.13693687
-0.02970274 0.030919399 0.13639572
-0.035221796 0.016440615 0.13557222
-0.036076229 0.006724997 0.13526443
-0.030964345 0.03097951 0.13222986
-0.035559803 0.021635942 0.13161549
-0.032442153 0.029562268 0.12850285
-0.035449665 0.022564415 0.12687647
-0.0087847449 -0.024316166 0.19567186
0.012473403 0.032850206 0.19667092
0.0072340141 0.018611111 0.19254765
0.0047054086 0.013606459 0.19254777
0.0031296059 0.0082554948 0.19194525
0.0015979547 0.0037087454 0.19199911
8.5356733e-05 -0.00049560424 0.19195005
-0.0022154523 -0.0050266283 0.19121584
-0.0039669857 -0.0094640693 0.19095379
-0.0067176633 -0.013489828 0.19133687
-0.0089364862 -0.018617271 0.19206285
-0.00997335 -0.022560894 0.19385621
0.0081395153 0.027390422 0.19027367
0.0055839443 0.02498734 0.19207838
0.0037665684 0.019954674 0.19291985
0.0018297781 0.01475754 0.19255161
6.3131331e-05 0.0094972085 0.19207492
-0.0017276754 0.0050901803 0.19184238
-0.0055480525 -0.0036261971 0.19153181
-0.007142229 -0.0081070866 0.1911737
-0.009204993 -0.012396732 0.19111893
0.0056383773 0.030110214 0.18727332
0.0035343496 0.031933367 0.18298891
0.0012191981 0.031826653 0.17926186
-0.0013007205 0.029680815 0.17797652
-0.0012624236 0.03233045 0.17443037
-0.0031727655 0.030616757 0.17463005
-0.026345294 -0.026581103 0.17067519
-0.0030069165 0.033917766 0.17003819
-0.02424491 -0.02743382 0.16641814
-0.0065885894 0.034783233 0.16559088
-0.0082955156 0.032418638 0.16402322
-0.028163143 -0.023709441 0.16033649
-0.0082337698 0.028428223 0.15904182
-0.030270293 -0.020893257 0.15673068
-0.028589077 -0.023442172 0.15783116
-0.030152423 -0.02080635 0.15194497
-0.033391271 -0.018350028 0.14844447
-0.018800158 0.031575963 0.14734009
-0.03685268 -0.012265372 0.14333978
-0.03449855 -0.016847618 0.14432517
-0.03649772 -0.0062107416 0.13922358
-0.037486546 -0.010814989 0.13958561
-0.035625476 -0.015321144 0.13973626
-0.036346503 -6.6090375e-05 0.13525808
-0.03695498 -0.0044543948 0.13621259
-0.037673891 -0.009532324 0.13491064
-0.036669776 -0.01382742 0.13507721
-0.03572192 0.0067053456 0.1321454
-0.03667761 -0.0030100392 0.13094288
-0.037311465 -0.0081838574 0.13143468
-0.027630297 0.031935718 0.12805021
-0.034493435 0.011540532 0.12803215
-0.03642536 0.002424527 0.12788022
-0.036747389 -0.0021838555 0.1271317
-0.029068979 0.030548759 0.12491292
-0.035504181 0.021624284 0.12412423
-0.034354392 0.012557325 0.123411
-0.03338128 0.026728239 0.12070036
-0.03459733 0.018032784 0.11946219
-0.035168421 0.02278267 0.11549926
-0.0033374247 -0.024661763 0.19394535
0.014712936 0.030551277 0.19301111
0.013979685 0.026244285 0.19323531
0.011652887 0.022281943 0.19250602
0.010535042 0.017352981 0.1918394
0.0087387329 0.012139879 0.19296992
0.0073685898 0.0071053696 0.19291896
0.0049809404 0.0022952284 0.19232026
0.00094135897 -0.0063999197 0.19194347
-0.00057593989 -0.010948154 0.19152707
-0.0025014936 -0.015331445 0.19137201
-0.0030575213 -0.020352267 0.19217294
-0.0054440405 -0.022840185 0.19369105
0.014272752 0.030295545 0.18868452
0.011345132 0.028512705 0.18968433
0.012271281 0.030947369 0.18388036
0.010084011 0.029878274 0.18664658
0.0089098047 0.032445524 0.18052974
0.0070021125 0.033456143 0.17624223
0.0039949529 0.032908142 0.17590225
0.0058409888 0.034092624 0.17331475
0.0040363474 0.033139065 0.17218286
0.0036368007 0.03364215 0.16689017
-0.022254633 -0.029452626 0.16375774
-0.021234985 -0.032237098 0.1623742
-0.00010759104 0.034430027 0.16360295
-0.024271116 -0.027241647 0.15987998
-0.0026745889 0.03313496 0.1590299
-0.0039316174 0.030250687 0.15797961
-0.026713125 -0.02525772 0.1542964
-0.0079178289 0.028773859 0.15133315
-0.026890084 -0.023973353 0.14905334
-0.0081312032 0.030770576 0.14822242
-0.010820574 0.030015238 0.14963019
-0.031207224 -0.020179212 0.14704874
-0.028925125 -0.022917712 0.14484796
-0.033343703 -0.019052122 0.14199239
-0.031920187 -0.021440979 0.14135802
-0.033917569 -0.018661795 0.13765818
-0.033056255 -0.021397091 0.13757843
-0.035148829 -0.016925868 0.13355604
-0.036153223 -0.0050848331 0.12778378
-0.036812101 -0.008605767 0.12872636
-0.036102444 -0.013442288 0.12854862
-0.035745535 0.0014802497 0.12452328
-0.036563341 -0.0032760361 0.1241715
-0.036263943 -0.008418005 0.12454551
-0.03562177 -0.012236821 0.12521321
-0.025455002 0.031740762 0.12137592
-0.035200167 0.0069454019 0.12121403
-0.036685299 -0.0025786255 0.11941582
-0.036309879 -0.0070987623 0.12076044
-0.02467436 0.034098897 0.11507308
-0.026402779 0.031207049 0.11726081
-0.034400575 0.016507754 0.11708426
-0.03519956 0.0071915626 0.11541831
-0.02566037 0.034557857 0.11390924
-0.027131792 0.031729639 0.11319518
-0.035198305 0.022941049 0.1126278
-0.034897048 0.012439547 0.11198461
-0.03241653 0.026817746 0.10924751
-0.034663565 0.018573925 0.10888076
0.0093720127 -0.014524039 0.19556791
0.017494423 0.012807646 0.19298854
0.014908973 0.010324325 0.19368449
0.011718208 0.0060061538 0.19458112
0.0093934517 -0.0047908998 0.19302034
0.0085304379 -0.0099558439 0.19287494
0.0067125135 -0.014161844 0.19332954
0.0047681727 -0.018260447 0.19263759
0.0024263528 -0.02278379 0.19235122
0.00095758215 -0.026863638 0.19358328
0.016753726 0.023389611 0.19434038
0.01682343 0.019678988 0.19256744
0.015652023 0.015008386 0.19156384
0.012786841 0.012105951 0.19248751
0.010723052 0.0085441638 0.19355309
0.0081843212 0.00094449543 0.19286078
0.0051020971 -0.0081708543 0.19205001
0.0028925184 -0.012464183 0.19206786
0.0011290666 -0.016932579 0.19180357
0.020036852 0.032861486 0.18861756
0.016829068 0.031581488 0.18719125
0.016357802 0.031144021 0.18358111
0.013348364 0.032586519 0.17905152
0.0087011363 0.034698293 0.17375606
0.006444688 0.034077577 0.17013791
0.0058440794 0.035044264 0.16554639
0.0045894207 0.033322033 0.16625059
-0.020823918 -0.030619966 0.16070321
0.0050223758 0.035115208 0.1627143
0.0026345812 0.034411337 0.16104332
-0.022486053 -0.029780028 0.15810859
-0.022493497 -0.031577021 0.15949574
0.0018261671 0.033258051 0.15704668
-0.0018931059 0.028963249 0.15671739
-0.0020728726 0.028968014 0.15117088
-0.0034462092 0.02698341 0.15195528
-0.026551923 -0.024968382 0.14760023
-0.0060529541 0.029934507 0.14863485
-0.028202338 -0.025420949 0.14366233
-0.029896582 -0.024077252 0.1393216
-0.02997417 -0.025743613 0.13693351
-0.03085715 -0.022875283 0.13318163
-0.029973647 -0.02566712 0.13404885
-0.030997235 -0.021536782 0.12979087
-0.032489881 -0.017221641 0.12653786
-0.036037266 -0.010195086 0.12221688
-0.034800451 -0.013559252 0.1219269
-0.018892046 0.031560652 0.11930388
-0.036485031 -0.0086956946 0.11841214
-0.035473131 -0.012761885 0.11751455
-0.021456175 0.032744341 0.11644411
-0.036781065 -0.0028300788 0.11467046
-0.036764476 -0.0078219837 0.11363035
-0.035969559 -0.011712679 0.11384064
-0.024529535 0.034277052 0.1110878
-0.026752379 0.031745672 0.11028081
-0.035472732 0.0073430743 0.10949254
-0.03661745 -0.0024545407 0.10932636
-0.036950398 -0.0067377463 0.11015272
-0.026433088 0.031373117 0.10697287
-0.033259556 0.024223972 0.10581142
-0.034122188 0.012403627 0.10551757
-0.035924815 0.0035275063 0.10584015
-0.034149505 0.02304548 0.10206234
-0.033870824 0.01362009 0.102099
-0.034448639 0.024027735 0.096610188
0.018170893 -0.0050165188 0.19445166
0.012850542 -0.011159336 0.19511986
0.0091639068 -0.017045341 0.1950109
0.0082853362 -0.020167898 0.19464275
0.007800105 -0.025203615 0.19356632
0.019665971 0.014598397 0.19232541
0.013413893 -0.0064722151 0.1929886
0.007105622 -0.02016505 0.19277295
0.0060456819 -0.0244016 0.1928243
0.004058619 -0.027059976 0.19315499
0.018464733 0.015990008 0.19146043
0.021067062 0.032715138 0.18521425
0.022517256 0.033217628 0.18268588
0.018700112 0.031457104 0.18126294
0.019068006 0.032256186 0.1776951
0.0083710924 0.034505825 0.15291563
0.0056534759 0.032923296 0.15309399
0.0030914443 0.02959392 0.15267611
0.005151242 0.030719113 0.14985511
0.0045123976 0.029228205 0.14979789
-0.0012526242 0.029977761 0.14574534
-0.0037830789 0.029382881 0.14323589
-0.004393395 0.028063957 0.14030808
-0.0052562244 0.0285387 0.1380654
-0.02984992 -0.025645042 0.13106167
-0.029751554 -0.022916116 0.12695485
-0.0305265 -0.025293512 0.12964365
-0.031893395 -0.017391313 0.1231724
-0.029534131 -0.021310277 0.12319767
-0.031462107 -0.017518722 0.12089419
-0.034770187 -0.014038494 0.11428833
-0.035187274 -0.013023898 0.11053544
-0.035967052 -0.0081870472 0.1064806
-0.035600923 -0.012332753 0.10586822
-0.023151429 0.030720679 0.10304224
-0.034633838 0.0015133414 0.10252124
-0.03545218 -0.0027174754 0.10249805
-0.035886776 -0.0075565036 0.10179269
-0.036628958 -0.011019691 0.1015988
-0.024735881 0.030457113 0.10043728
-0.033189319 0.01171715 0.099012256
-0.034741554 0.0024564927 0.097706139
-0.035657253 -0.0021074945 0.098039925
-0.026340311 0.030696524 0.095200837
-0.029276988 0.029533379 0.095513225
-0.033674236 0.016637551 0.095126033
-0.034137271 0.0080604432 0.094618678
-0.027395515 0.031294502 0.092106819
-0.033551224 0.024233334 0.091035485
-0.034285285 0.014324391 0.090592027
-0.033197615 0.02486538 0.086153805
-0.034132808 0.025770836 0.082868874
0.0090077724 0.0344215 0.15058357
0.0070772176 0.03213178 0.14694357
0.0040310957 0.029573942 0.14728528
0.006049383 0.031304013 0.1422103
0.0039497758 0.029904848 0.14257741
0.0012807781 0.029182022 0.13813993
0.00042788498 0.029409276 0.13325089
-0.0025377413 0.027944159 0.13033298
-0.028155681 -0.023481004 0.12086117
-0.02870699 -0.025945246 0.12241918
-0.028743688 -0.018634422 0.11682469
-0.027670987 -0.021838447 0.11810011
-0.03048504 -0.017733093 0.11328822
-0.032880992 -0.016489321 0.10830241
-0.030776124 -0.019199032 0.10704654
-0.034300372 -0.015240576 0.10316581
-0.032517534 -0.018297071 0.10349286
-0.018138804 0.032159902 0.10411662
-0.018911786 0.030942319 0.10023516
-0.035953805 -0.0085712345 0.098936915
-0.034960382 -0.013759234 0.09858197
-0.020417258 0.031300243 0.096854806
-0.035806257 -0.002735124 0.095226645
-0.03628967 -0.0074163163 0.095528364
-0.035976164 -0.011792954 0.094281912
-0.023220818 0.032170825 0.093529344
-0.03548266 0.0027835341 0.092043221
-0.036108568 -0.0020081904 0.091141939
-0.035913423 -0.0070580952 0.090550303
-0.025667626 0.032227863 0.089188933
-0.03462781 0.0081363926 0.087418079
-0.035921562 -0.00073932577 0.086714089
-0.043141939 -0.015266338 0.08489114
-0.026113909 0.031231422 0.084095836
-0.034091283 0.019177858 0.084261656
-0.033960946 0.0089188181 0.083153427
-0.033619262 0.025698569 0.080188453
-0.03436527 0.016421026 0.077821732
-0.033608418 0.022420578 0.075232744
0.012266392 0.033531059 0.14547342
0.013221264 0.033407178 0.14193738
0.0094994931 0.032034371 0.13985491
0.0076847537 0.030724524 0.13467908
0.0063569243 0.029511426 0.13414714
0.0035439432 0.029946828 0.13060156
0.0012834286 0.029774524 0.12771565
-0.0014609089 0.027687794 0.12761247
-0.0011251178 0.029714439 0.12109846
-0.0028816927 0.028594386 0.12186956
-0.0032079797 0.028139509 0.11696893
-0.024713952 -0.024334811 0.11403382
-0.0053612534 0.027721152 0.1135748
-0.025654569 -0.022353254 0.11008286
-0.026100116 -0.026786184 0.10857797
-0.027574539 -0.021539714 0.10619426
-0.02876352 -0.021711249 0.099898875
-0.031678751 -0.018485337 0.096842885
-0.034115754 -0.015474268 0.093421042
-0.031539019 -0.018428197 0.092727542
-0.035806622 -0.0073687593 0.087809801
-0.034807391 -0.013430696 0.088239729
-0.035620704 -0.018175347 0.086473346
-0.021150423 0.032650918 0.086166799
-0.035114914 -0.0033944445 0.084586859
-0.034990899 -0.0078530284 0.083789408
-0.035737474 -0.012629241 0.083301425
-0.037815928 -0.016154319 0.082559943
-0.022830782 0.031280935 0.080771327
-0.033471271 0.0079357065 0.080437541
-0.034750178 -0.0021960018 0.079973876
-0.035128314 -0.0067861089 0.079381227
-0.038269993 -0.014977762 0.080209494
-0.025204586 0.031247878 0.077325642
-0.0285611 0.029957388 0.07724452
-0.033903852 0.0087275421 0.076667488
-0.035228711 -0.0006442694 0.076058626
-0.025069857 0.031370502 0.074189782
-0.028602185 0.028747208 0.072753966
-0.033524044 0.020543087 0.072217822
-0.034368668 0.010967975 0.072153747
-0.029291367 0.028689044 0.068079352
-0.033486351 0.020982511 0.067447901
-0.032630023 0.02615873 0.063441336
0.017292354 0.033656135 0.14153537
0.015711652 0.033287607 0.13844305
0.012941855 0.032032043 0.13777429
0.012167118 0.03139399 0.13411495
0.0097238487 0.030863492 0.12952483
0.009129839 0.030736517 0.12588495
0.0017086882 0.031338386 0.11979729
0.00017273705 0.030792244 0.11590838
-0.023680884 -0.026173227 0.11120141
9.2526898e-05 0.030460758 0.11089748
-0.002943879 0.028691597 0.11097312
-0.024379479 -0.0252956 0.10742623
-0.025012646 -0.027214829 0.10573006
-0.0057695433 0.028872715 0.10685825
-0.025705878 -0.024127649 0.10364538
-0.025664378 -0.026846768 0.10325772
-0.028043985 -0.022893295 0.098029733
-0.026207056 -0.025711415 0.097319365
-0.030208249 -0.021803999 0.094780028
-0.030546399 -0.0247894 0.094041824
-0.032290749 -0.020045698 0.090430975
-0.033790983 -0.018599018 0.087614655
-0.033892129 -0.022594862 0.08687824
-0.035780434 -0.016809825 0.083301723
-0.035741128 -0.0082369046 0.077277422
-0.035437636 -0.011992896 0.077849329
-0.035841689 -0.015967576 0.076116741
-0.021850161 0.031742245 0.076123178
-0.03566879 -0.0019328631 0.074156106
-0.035651561 -0.0056468211 0.072999299
-0.035201773 -0.0089669144 0.073908746
-0.023135634 0.031671531 0.070835412
-0.025891159 0.03009359 0.071253836
-0.034892585 0.0051915348 0.070001543
-0.035536777 -0.0041632326 0.069591939
-0.024148975 0.032317922 0.066614985
-0.027617201 0.030316181 0.067003667
-0.033403747 0.010858065 0.065216184
-0.028799625 0.030007523 0.061952949
-0.033491097 0.021011867 0.061687768
-0.030631736 0.030764021 0.057585597
-0.033389907 0.022531005 0.056905031
0.018608952 0.033617575 0.13481915
0.017161377 0.033023279 0.13205209
0.014849436 0.0317166 0.13158467
0.014885655 0.031156722 0.12642503
0.0061264723 0.031017721 0.11186838
0.0071683647 0.032601349 0.108666
0.0041629369 0.031530458 0.10876226
0.0025325967 0.030121276 0.10584414
0.0011809496 0.02802627 0.10505265
-0.024384607 -0.028023556 0.09779799
-0.0035953075 0.028833453 0.093239605
-0.0094580734 0.029837508 0.085281014
-0.012330993 0.031075194 0.083575428
-0.015605083 0.030944392 0.077597141
-0.034025475 -0.013106287 0.073736429
-0.034672149 -0.016415205 0.073079109
-0.035190433 -0.01984266 0.074354589
-0.013824938 0.032371327 0.071644545
-0.016703567 0.031622913 0.073442101
-0.033937804 -0.011234442 0.070520163
-0.033720877 -0.016058715 0.070870101
-0.016923282 0.033745438 0.069139898
-0.018855814 0.032292482 0.068997383
-0.034299854 -0.00096287578 0.065651834
-0.034695204 -0.005319329 0.0661726
-0.034241147 -0.010962474 0.066338658
-0.034011446 -0.014686965 0.065942287
-0.017800957 0.034290254 0.065797448
-0.020720236 0.032862112 0.064305425
-0.03313566 0.0049642236 0.062340856
-0.033939503 -0.0001035044 0.0625664
-0.034920815 -0.0053285183 0.061925054
-0.034986906 -0.0093809925 0.061590433
-0.023370447 0.032041505 0.060743809
-0.032996707 0.010476029 0.058241069
-0.033704583 0.00030648336 0.058570504
-0.03482832 -0.0040912498 0.05870676
-0.025089074 0.032410968 0.055863023
-0.029018076 0.032280445 0.054559469
-0.032695703 0.016172213 0.054330111
-0.034209553 0.0060094185 0.05365032
-0.029802157 0.030803211 0.050687432
-0.033195753 0.021935776 0.050101459
-0.034077324 0.011648441 0.050226569
-0.030933339 0.035281546 0.046558321
-0.030253168 0.031705379 0.046267271
-0.033730593 0.021907579 0.045411766
-0.030577391 0.035390455 0.042089999
-0.031307459 0.031613387 0.042882025
-0.034405861 0.0225867 0.042542577
0.019911494 0.033520937 0.12903321
0.019284312 0.032986641 0.12466317
0.01586516 0.031831212 0.12402833
0.018375304 0.032877497 0.12078339
0.016724272 0.031080373 0.11965621
0.0097339544 0.03148365 0.11070621
0.0098319575 0.032940276 0.10603774
0.0079667969 0.03271829 0.10209727
0.00593078 0.030248722 0.10104907
0.0028517377 0.027631029 0.10079008
0.0054577822 0.029494636 0.097625792
0.0024303654 0.027958998 0.098116517
-0.00059422944 0.031678166 0.085976183
-0.001867922 0.029356897 0.088143349
-0.0012367805 0.03202213 0.084465861
-0.0040716911 0.029543692 0.084564745
-0.0070573147 0.030120054 0.079592943
-0.0088156546 0.030272305 0.073619246
-0.010133682 0.032321319 0.07055974
-0.03253641 -0.018151682 0.067868233
-0.032215603 -0.021090053 0.069762111
-0.013413672 0.034225218 0.067820132
-0.033653159 -0.01294384 0.06315583
-0.03211255 -0.016677799 0.062857628
-0.033864982 -0.012257321 0.058842182
-0.032688707 -0.015066598 0.058590233
-0.020836124 0.03231911 0.058974087
-0.033722512 -0.00038505532 0.055514932
-0.034038167 -0.0054789539 0.054947138
-0.034299627 -0.009467138 0.054773569
-0.034234159 0.00044643041 0.051452577
-0.034011535 -0.0039690994 0.050159931
-0.033736117 0.010836609 0.046832681
-0.033297174 0.001122931 0.046766877
-0.033217818 0.011238095 0.042873442
-0.029043399 0.034852028 0.04071635
-0.030840997 0.032392189 0.039937317
-0.033242363 0.018048074 0.039306819
-0.030498059 0.03213482 0.035526276
-0.033088025 0.023621792 0.034801483
0.021956787 0.034126714 0.12195468
0.019800061 0.033417329 0.1180473
0.021000741 0.033222433 0.11420292
0.018974479 0.030291395 0.11316198
0.015767496 0.031065552 0.10908318
0.013457477 0.034028687 0.10471076
0.0092560332 0.033293694 0.099396348
0.009262979 0.03368926 0.096037626
0.0062664789 0.030633183 0.09591949
0.0036096051 0.027735548 0.094196677
0.0065013221 0.030397853 0.091067135
0.0033982429 0.027992209 0.09134233
0.0034391275 0.030783594 0.086658061
0.0031470177 0.028263062 0.088511646
0.0022947732 0.032879174 0.082329631
-0.002231054 0.029908799 0.081355393
-7.6019205e-05 0.032685012 0.078087926
-0.0025966372 0.030690284 0.078238964
-0.0038101813 0.030098245 0.073583543
-0.0057568848 0.032455564 0.069586873
-0.026439544 -0.023564115 0.062738657
-0.0080040228 0.033944588 0.066982806
-0.027346402 -0.02128472 0.062058926
-0.029475182 -0.018769033 0.056563497
-0.033097934 -0.012251656 0.05250144
-0.031583555 -0.016123857 0.052578092
-0.033480123 -0.0064580627 0.048469126
-0.033629846 -0.010926142 0.048526347
-0.032698505 -0.015362973 0.048302531
-0.033275437 -0.00017482508 0.044701219
-0.034076609 -0.0050985795 0.044547439
-0.034318194 -0.0096826786 0.044020414
-0.023934688 0.032705203 0.042417645
-0.033431012 0.0055271192 0.040465474
-0.034519967 -0.0042396076 0.03967315
-0.034826979 -0.0080237724 0.040427506
-0.032705341 0.01103756 0.036472261
-0.034566969 0.0011776062 0.036036849
-0.03498432 -0.0023042858 0.036177397
-0.032724794 0.021927508 0.032475352
-0.033137623 0.011923107 0.031575382
-0.028809525 0.0312985 0.028844774
-0.032668743 0.022558127 0.028362513
-0.033227094 0.013727085 0.027726471
-0.02987178 0.030653501 0.024819791
-0.032206859 0.024380021 0.024352789
0.021049876 0.032528013 0.11091608
0.018893167 0.02795269 0.11087185
0.019772235 0.024113288 0.10913455
0.0208611 0.032858357 0.10706526
0.019707514 0.031064738 0.10673225
0.018100226 0.034034949 0.10511494
0.012073383 0.035328358 0.093056619
0.011073682 0.033616852 0.088357568
0.0097772526 0.033217683 0.083572268
0.0069962372 0.031905752 0.085545123
0.0077964901 0.034206871 0.080040038
0.0054952069 0.03340159 0.078228414
0.0038510188 0.033623364 0.075264871
0.00020010956 0.032225229 0.072112262
-0.0019073533 0.031298965 0.071188986
-0.026437506 -0.021591242 0.058149159
-0.023946837 -0.024569936 0.057460546
-0.027421188 -0.020984458 0.052728832
-0.029471803 -0.019471737 0.048916399
-0.026946839 -0.022996264 0.050630689
-0.031802218 -0.017277271 0.045128703
-0.030765211 -0.021093758 0.045582473
-0.033275306 -0.012418208 0.040901303
-0.032669753 -0.015278138 0.040931463
-0.015098115 0.029242938 0.040904284
-0.03353269 -0.0066069253 0.035672426
-0.033554152 -0.010310093 0.036510468
-0.032669816 -0.01535259 0.03726685
-0.03393659 -0.0044881236 0.032802999
-0.033546697 -0.0083149513 0.031845987
-0.033611316 0.0062648142 0.029004216
-0.033241857 -0.0037398068 0.028947949
-0.032467291 0.016745463 0.024454176
-0.03356212 0.0066944729 0.024336874
-0.028058499 0.031269372 0.022167563
-0.031836785 0.022560993 0.021220803
-0.033173643 0.012210735 0.020087719
-0.027491726 0.03003066 0.018359542
-0.031958926 0.022832911 0.016705155
-0.030811787 0.027091522 0.013368845
0.0246532 0.025818266 0.10964108
0.013452568 0.032484058 0.087092042
0.012430213 0.034042593 0.083087385
0.01078464 0.034921113 0.079278767
0.009600292 0.03475951 0.074806392
0.0052370122 0.032295883 0.068615794
0.0028450815 0.031644948 0.064809918
0.0013510687 0.032407619 0.061898291
-0.022531785 -0.027004309 0.054561019
-0.024077743 -0.024843924 0.052697003
-0.027872007 -0.022504427 0.048286676
-0.0091803782 0.028474707 0.044782639
-0.030157164 -0.02314087 0.042281806
-0.010634919 0.029284693 0.040786624
-0.030130934 -0.019386169 0.040367961
-0.029940959 -0.02158672 0.038379133
-0.011600402 0.029924054 0.036357999
-0.032389425 -0.015704427 0.034422517
-0.031318936 -0.02050171 0.033342361
-0.014082523 0.031153858 0.032200575
-0.032960117 -0.011507437 0.03089869
-0.032301761 -0.015287967 0.029471099
-0.031513687 -0.019374616 0.029571116
-0.032946896 -0.0053185476 0.026345789
-0.033187449 -0.0096068764 0.026010633
-0.033248916 -0.013176411 0.025181413
-0.022252334 0.031279381 0.023388922
-0.03318096 -0.004193685 0.021416664
-0.033763401 -0.0088213012 0.02208966
-0.032651003 0.012078337 0.017992437
-0.033873402 0.0015830901 0.01726687
-0.033286426 -0.0023865933 0.017528892
-0.025687398 0.030600768 0.014508367
-0.03162466 0.017081086 0.014388084
-0.033441454 0.0073447931 0.012765527
-0.027008766 0.030318797 0.0093165636
-0.032097727 0.022971313 0.010394931
0.011968208 0.031624328 0.066865861
0.0069339909 0.032048605 0.062055945
0.0059836982 0.032629311 0.058677673
-0.022022467 -0.027088489 0.048844695
-0.022969069 -0.026587032 0.046498418
-0.0040812502 0.030288484 0.041635215
-0.0046088751 0.02861253 0.042518497
-0.0044560377 0.03122562 0.038647115
-0.0069842739 0.029744554 0.039295971
-0.029534278 -0.023245096 0.035339355
-0.026604103 -0.026447397 0.034175158
-0.0059720818 0.032159854 0.03506577
-0.0092735607 0.03026941 0.035442233
-0.029526455 -0.025016766 0.031470239
-0.0098520778 0.030907054 0.031053305
-0.031917825 -0.020539381 0.027837574
-0.032516312 -0.02355659 0.028839707
-0.011838704 0.030493531 0.028075933
-0.032878887 -0.014370501 0.023196101
-0.031007782 -0.019145403 0.024200499
-0.033076081 -0.0080974232 0.018911123
-0.032372657 -0.014001894 0.018756747
-0.033027668 -0.0036625601 0.015396893
-0.032535687 -0.0084255664 0.014443517
-0.032517172 -0.012893857 0.015259266
-0.020721691 0.031334698 0.011254311
-0.03277662 -0.0028756512 0.010049343
-0.0323755 -0.0062453244 0.0098992586
0.015051815 0.030724114 0.06229496
0.013644793 0.031460673 0.059259295
0.010343068 0.033096384 0.053593099
0.00088047143 0.029777348 0.040483117
-0.0015455643 0.027363485 0.043050349
-0.00030444376 0.031975612 0.037691832
-0.0033346098 0.033173058 0.034525812
-0.006065798 0.031849653 0.02850467
-0.0081623262 0.031018786 0.025444806
-0.028874326 -0.021271484 0.020339131
-0.03124385 -0.016281564 0.015218496
-0.031807616 -0.013672906 0.011778891
-0.015752193 0.029345378 0.010979295
0.017379785 0.032089431 0.055770993
0.013404725 0.031874187 0.054216743
0.0081925448 0.026988883 0.046603084
0.0052335737 0.028175509 0.04008007
-0.0010648957 0.031817973 0.026880264
-0.026179716 -0.021079935 0.013931632
-0.029206358 -0.017029595 0.0089375377
-0.026241738 -0.020304799 0.0098407269
-0.013891729 0.028690342 0.009257853
0.017228024 0.032411486 0.051683486
0.014347917 0.030169394 0.046137929
0.01495902 0.029229909 0.042482853
0.010918787 0.030277653 0.035983205
0.0097519746 0.027809765 0.038163781
0.010134891 0.030806828 0.032368183
-0.024550797 -0.023007326 0.010861456
-0.020582542 -0.026775425 0.011969805
0.015800074 0.029080456 0.039644659
0.014605082 0.026038801 0.039029598
0.016190212 0.028822089 0.03635782
0.014270583 0.027118994 0.035710871
-0.020290889 -0.02681566 0.0083968639
