# .PCD v0.7 - Point Cloud Data file format
VERSION 0.7
FIELDS x y z
SIZE 4 4 4
TYPE F F F
COUNT 1 1 1
WIDTH 829
HEIGHT 1
VIEWPOINT 0 0 0 1 0 0 0
POINTS 829
DATA ascii
0.039053053 0.058266342 0.82408887
0.040581215 0.058253314 0.82391125
0.047808733 0.058322471 0.824889
0.051384535 0.058306757 0.82466686
0.014033657 0.053475637 0.82904482
0.01784806 0.052846272 0.82840019
0.022058001 0.052571751 0.82798332
0.027200606 0.052548993 0.82824004
0.03251138 0.052260317 0.82832128
0.037660614 0.052333385 0.82726669
0.042104878 0.052817903 0.82796204
0.047421686 0.053285394 0.82838112
0.0527418 0.053088069 0.82873356
0.056297328 0.053991213 0.82906699
0.0099111535 0.057849064 0.82910031
0.012986377 0.057006281 0.82806677
0.017594485 0.056923363 0.826859
0.022193519 0.05762073 0.82583898
0.02758057 0.05761449 0.82574183
0.032972634 0.057617914 0.82578897
0.03704698 0.057310708 0.82505208
0.042709805 0.057337601 0.82545203
0.047529638 0.057421818 0.82552814
0.053138137 0.057550512 0.82584244
0.056160398 0.057704523 0.82704997
0.0099115521 0.06016494 0.82913363
0.013333872 0.061817151 0.82829642
0.017609155 0.062359232 0.82753325
0.022236787 0.063122183 0.82745171
0.027624272 0.063089475 0.82703304
0.033014275 0.063074335 0.82682937
0.03761252 0.063028142 0.82621467
0.042265929 0.063072897 0.82679999
0.047481976 0.06297332 0.82732719
0.052788705 0.063272975 0.82740003
0.056205291 0.063142367 0.82771116
0.018027345 0.066710532 0.82901704
0.0222828 0.067879289 0.82916331
0.027223915 0.067706198 0.82893372
0.032522369 0.067973189 0.82859421
0.037672922 0.067747191 0.82754064
0.042370513 0.067853026 0.82883722
0.047027662 0.066956855 0.82920039
0.051860198 0.067304015 0.82920033
0.056315456 0.066350304 0.82933348
0.023838224 0.070989877 0.82946688
0.026413823 0.071496882 0.82937795
0.032850698 0.071479395 0.82917804
0.03775062 0.071742363 0.82924479
0.040866353 0.071781762 0.82970023
0.014653536 0.049717795 0.83499974
0.017768111 0.049717795 0.83499974
0.022405429 0.049642373 0.8337335
0.027451869 0.049239181 0.83348334
0.032512531 0.048866272 0.83374155
0.037916776 0.04881515 0.83286667
0.042257912 0.049284957 0.83424991
0.052779481 0.049691994 0.83456647
0.055138569 0.049713828 0.8349331
0.0089287637 0.053260297 0.83373326
0.012524766 0.05208924 0.83154446
0.016898148 0.05099681 0.83053333
0.023863131 0.050984528 0.83033341
0.043255124 0.051025473 0.83099991
0.047156185 0.051054124 0.83146662
0.052557245 0.051028542 0.83104986
0.056400038 0.051771738 0.83057904
0.0081465552 0.057111025 0.83332223
0.0090204878 0.062280156 0.8326667
0.01225329 0.064136714 0.83063328
0.0099796895 0.066014022 0.83483309
0.013052681 0.067617729 0.83226669
0.01736333 0.068919569 0.83054656
0.047108091 0.069157183 0.83061665
0.053672589 0.069131911 0.83031654
0.056417324 0.068788879 0.8308332
0.013871384 0.072999604 0.83479977
0.017717356 0.072811909 0.83265191
0.022140911 0.072868437 0.83109158
0.027223369 0.07313522 0.83046669
0.031894088 0.073706545 0.83109999
0.037875414 0.074302077 0.83200002
0.042945683 0.072926775 0.83143806
0.047141958 0.07268665 0.83122212
0.052570302 0.072688572 0.83124441
0.057230502 0.072702274 0.83139998
0.014653536 0.076123245 0.83499974
0.018149009 0.076478146 0.83463317
0.022409471 0.076797545 0.83387762
0.027055534 0.076740198 0.83325553
0.032521732 0.076803237 0.83394158
0.038197156 0.077157192 0.8341713
0.042908791 0.076588973 0.83329326
0.047457967 0.077038065 0.83287615
0.051645923 0.07699655 0.83242857
0.056272585 0.07658755 0.83328664
0.0084640812 0.049951997 0.83893353
0.012020925 0.048986036 0.83767623
0.01782419 0.048705749 0.83765006
0.022494785 0.048282478 0.83704442
0.026877027 0.047367416 0.83739996
0.032655373 0.046744332 0.83738333
0.038509976 0.046351455 0.83733338
0.043020044 0.046732452 0.83719051
0.047490466 0.047519311 0.8373611
0.052017108 0.047273114 0.83759934
0.05529863 0.047520168 0.8373571
0.0031421226 0.053354956 0.83846676
0.0063632224 0.052434575 0.8370555
0.0037697174 0.057747632 0.83882231
0.005708294 0.057582892 0.83643329
0.0037747109 0.060948618 0.8399334
0.0061037405 0.062310327 0.83722216
0.0080002872 0.067215674 0.83736187
0.011548185 0.069966026 0.83566654
0.0084657632 0.071034208 0.83910012
0.010681999 0.072801188 0.83761913
0.012880891 0.077430144 0.83793336
0.017499503 0.078801796 0.8370533
0.022475548 0.079356298 0.83633327
0.027143242 0.079322562 0.83597773
0.032594997 0.079307273 0.83581662
0.037266254 0.079299368 0.83573318
0.042358901 0.078958265 0.8362332
0.046623968 0.079308853 0.83583319
0.052868262 0.079321504 0.83596659
0.056036573 0.079392403 0.83671397
0.01472374 0.081170008 0.83900017
0.018069357 0.082253806 0.83867633
0.022518385 0.082625285 0.83791858
0.027221803 0.082670681 0.83837783
0.032207374 0.082471013 0.83793336
0.037558924 0.082727142 0.8375212
0.042620335 0.082197718 0.83810478
0.047703624 0.082407497 0.83768338
0.052192308 0.082596891 0.83762962
0.056689143 0.082799271 0.83770835
0.027256856 0.085899882 0.83946681
0.031960256 0.085918069 0.83964449
0.037412535 0.085852139 0.83900017
0.041347403 0.085899882 0.83946681
0.049152028 0.085858956 0.83906686
0.05228452 0.085863508 0.83911127
0.056586191 0.086250998 0.83908349
0.0069493516 0.044025782 0.84499997
0.011992347 0.043711409 0.84499991
0.016404964 0.044025782 0.84499991
0.027412906 0.043989893 0.84431118
0.032088201 0.043921586 0.84300023
0.037280206 0.043280184 0.84361905
0.042169947 0.043314524 0.84341335
0.047501445 0.043299116 0.84311992
0.051845398 0.044010155 0.84469986
-0.000928875 0.047880419 0.84368283
0.0024147541 0.0472949 0.84375006
0.0069244746 0.047004621 0.84207416
0.012418903 0.046211444 0.8418833
0.017935378 0.046263248 0.84283322
0.022636352 0.046235111 0.84232211
0.027342195 0.04544295 0.84213334
0.032009568 0.04537819 0.84093308
0.036699615 0.045360208 0.84059983
0.042953908 0.045342218 0.84026647
0.052377332 0.045360215 0.84059995
-0.0016032523 0.052230727 0.84333855
0.0015401875 0.051702533 0.84203815
0.0061298767 0.050057195 0.84069991
-0.0013230103 0.057314835 0.84395069
0.0014272447 0.057957273 0.84186369
-0.00092929753 0.063603923 0.84406686
0.0020165211 0.062887229 0.84235841
-0.00093025208 0.066026635 0.84493327
0.0026672326 0.06727805 0.84372395
0.0053486875 0.067293756 0.841111
0.0037974806 0.070747465 0.84499991
0.0064801499 0.072350569 0.84274286
0.0077169351 0.07684166 0.84286666
0.011312389 0.079209842 0.84138662
0.0081292847 0.081338555 0.84479988
0.012213531 0.083228402 0.84259397
0.017110839 0.084489003 0.8409664
0.043762006 0.084465571 0.84073317
0.046073489 0.084391899 0.84000009
0.013432653 0.087734431 0.84396672
0.017924925 0.087767668 0.84240019
0.022601472 0.087623678 0.84101462
0.02731473 0.08784204 0.84123325
0.032037873 0.088476352 0.84168881
0.037488654 0.088373035 0.84070808
0.043256745 0.087956488 0.84233344
0.047540177 0.087891467 0.8417083
0.052409213 0.088415273 0.84111094
0.05744461 0.088595375 0.84133464
0.014303721 0.09170562 0.84499997
0.018152054 0.092427611 0.84380847
0.022655219 0.092535824 0.84301513
0.027370658 0.092530787 0.84297067
0.032091275 0.092543148 0.84308177
0.037594404 0.09254282 0.84307808
0.042929817 0.09221337 0.84416944
0.048083797 0.092487656 0.84435833
0.052549973 0.092576519 0.84337789
0.05721955 0.092495345 0.84264374
0.060244627 0.093096673 0.84099996
0.019556841 0.09589722 0.84499991
0.022708712 0.09589722 0.84499997
0.027428387 0.096654154 0.84474444
0.032359421 0.097266942 0.8449499
0.037192702 0.09727484 0.84467328
0.040977083 0.097754724 0.84474659
0.053043351 0.096286401 0.84496653
0.057518024 0.097175762 0.84415001
0.060387895 0.095670275 0.84300005
0.040831968 0.10061287 0.84499991
0.058152132 0.10137265 0.84478331
0.043420803 0.039514896 0.84940028
0.052829586 0.03786581 0.84786689
-0.00093449338 0.044223011 0.84878594
0.002228312 0.043386891 0.84788895
0.0069650263 0.04176797 0.84704447
0.012826161 0.041631024 0.84655243
0.018267283 0.042594142 0.84781933
0.022555979 0.043040432 0.8477335
0.027528338 0.04180767 0.84785575
0.03224365 0.041769385 0.84708899
0.03698232 0.040982027 0.8470667
0.043041509 0.041510064 0.8471446
0.048452817 0.041390289 0.84736681
0.051941238 0.041730069 0.84626663
-0.0029632512 0.047049273 0.84690958
0.00064606877 0.045630034 0.84559995
-0.0056637116 0.052722823 0.84583336
-0.0040856046 0.051928848 0.84570569
-0.0056731985 0.057540927 0.84724998
-0.0034126018 0.057809293 0.84625596
-0.0029657094 0.06281814 0.84708172
-0.0027118975 0.067984141 0.8472932
0.00064591592 0.068422034 0.84539986
-0.002518398 0.072441168 0.84905851
0.0020276981 0.072656721 0.84663332
0.0025463502 0.076407924 0.84850681
0.0053810482 0.077145793 0.84619999
0.0069660908 0.082750835 0.84721673
0.0080272276 0.086767562 0.8479557
0.010507192 0.088536069 0.84599996
0.0085676638 0.09005522 0.84920019
0.012108119 0.093247801 0.84770852
0.016425673 0.094444484 0.84606671
0.044013485 0.094388649 0.84556657
0.046362363 0.094355151 0.84526652
0.014366008 0.096842311 0.84868926
0.018037336 0.097777002 0.84765732
0.022751711 0.098445617 0.84663337
0.027472422 0.099171199 0.84611106
0.030593215 0.099056609 0.84513319
0.044043526 0.097600013 0.84613329
0.048006102 0.097638324 0.84645927
0.052370481 0.098477736 0.8455599
0.055807743 0.099048801 0.84506649
0.018867001 0.10114069 0.8494336
0.023210615 0.10147798 0.84895039
0.027545527 0.101802 0.84835583
0.032447889 0.10226345 0.84726673
0.036951944 0.10235228 0.8463704
0.042624865 0.10267112 0.84756309
0.048083086 0.10173687 0.84781128
0.052773476 0.10242517 0.84697789
0.056775548 0.10286251 0.84539986
0.038680509 0.10591014 0.84966683
0.04106871 0.10593922 0.84990013
0.054484125 0.10582707 0.84900033
0.0575657 0.10567191 0.84775573
0.051556185 0.034921531 0.85298556
0.0070255715 0.039744388 0.85433346
0.012586136 0.03969438 0.85325837
0.01857011 0.039330572 0.85397506
0.022939259 0.038913649 0.85354996
0.027692646 0.038883414 0.85290003
0.032449801 0.038864806 0.85249996
0.037210736 0.038855501 0.85229999
0.041691124 0.038723722 0.85288668
0.047524173 0.038841419 0.85198754
0.050732516 0.036487471 0.85249996
-0.0025247189 0.042777419 0.85147077
0.0022366941 0.041172087 0.85099459
0.018094392 0.041140087 0.85033339
0.023652144 0.041152991 0.8506
-0.0056994245 0.063347392 0.85116673
-0.0057016565 0.067332707 0.85150003
-0.0025238823 0.073619299 0.85094112
-0.0014705495 0.07674849 0.8534627
0.0022395563 0.078757323 0.85230011
0.0038365799 0.081004135 0.85370004
0.0054230178 0.083299413 0.85280001
0.0069965054 0.087844178 0.85073328
0.0078085791 0.092032805 0.85289168
0.010168966 0.094957963 0.85066664
0.0086140726 0.096102193 0.85380006
0.012216271 0.098192558 0.85127133
0.016511098 0.099681735 0.85046667
0.013708572 0.10197544 0.8537733
0.017905215 0.10350399 0.85215712
0.022547869 0.10383914 0.85082656
0.027629161 0.10448512 0.85093325
0.030795932 0.10446057 0.85073322
0.047446921 0.10444215 0.85058331
0.018968329 0.10724258 0.8539834
0.022912629 0.10786393 0.85260367
0.027689444 0.10788599 0.85277778
0.032428768 0.10778221 0.85195923
0.036947723 0.10783434 0.85081655
0.042150438 0.10813163 0.85115701
0.047094218 0.10773257 0.85281992
0.05234208 0.10820794 0.8528167
0.057127092 0.10870658 0.85299999
0.023749689 0.11122911 0.85410011
0.027736036 0.11124501 0.8542223
0.032507788 0.11121897 0.85402226
0.037586316 0.11180162 0.8536135
0.042029846 0.1119201 0.85330558
0.046856008 0.11125081 0.85426682
0.054296702 0.11179236 0.85435563
0.057238713 0.11130292 0.85466683
0.042353284 0.033604592 0.85988903
0.047453165 0.033129066 0.85790855
0.050100055 0.033423316 0.85525006
-0.00094491325 0.039127178 0.85825002
0.0022498912 0.039837431 0.85633349
0.0086746048 0.038399313 0.85980016
0.01224995 0.037899341 0.85755014
0.017533105 0.036870603 0.85734826
0.023040576 0.035895709 0.85733348
0.027450083 0.036312357 0.85775006
0.032644432 0.036705762 0.85759991
0.037453838 0.036717176 0.85786659
0.042287856 0.035947595 0.85855556
0.047022652 0.03589673 0.85733348
-0.0017443781 0.078988478 0.85768187
0.00065412017 0.07964287 0.85613805
0.0022551878 0.083030753 0.85822868
0.003217306 0.08818014 0.85862666
0.0054391264 0.087523125 0.85533363
0.0038630941 0.091957681 0.85960019
0.00585132 0.092918843 0.85740006
0.007048293 0.097281359 0.85720015
0.008666534 0.10148172 0.85900003
0.010881255 0.10234071 0.85682678
0.013058511 0.10656408 0.85810006
0.016621012 0.10786069 0.85619068
0.017381523 0.11230523 0.85790306
0.022783678 0.11356267 0.85628587
0.027799651 0.11389069 0.85618907
0.032592725 0.11389807 0.85624456
0.036969136 0.11425009 0.85590029
0.042122234 0.11455405 0.85520029
0.046936899 0.11323425 0.85574198
0.051907908 0.11340141 0.85583735
0.057321403 0.11385182 0.85590017
0.018292289 0.11594768 0.85963345
0.023277704 0.11802411 0.85874164
0.027878322 0.11820769 0.85862219
0.032676332 0.11818208 0.85843694
0.037432209 0.11803737 0.85738522
0.042205811 0.11796926 0.85688901
0.04706512 0.11813291 0.85807413
0.052175958 0.11795342 0.85792673
0.056871589 0.11834152 0.85814393
0.023909047 0.12157252 0.85983348
0.029513739 0.12153953 0.85960013
0.031121729 0.12155838 0.85973352
0.038067218 0.12261685 0.85967785
0.041779254 0.12253173 0.85907787
0.045559499 0.12157723 0.8598668
0.056782931 0.12237235 0.85983348
0.0077529452 0.032491215 0.86431348
0.011703079 0.032599069 0.86353081
0.017199561 0.033010777 0.86230522
0.023170734 0.033692311 0.86213344
0.028339988 0.033079214 0.86290008
0.032823738 0.032095864 0.86233568
0.037583217 0.032040346 0.86085194
0.042366702 0.03201497 0.86015576
0.046390347 0.032024287 0.86040592
0.0022654093 0.03768016 0.86167282
0.007097011 0.036929421 0.86288112
0.01158027 0.035902191 0.86129344
0.015898904 0.035219625 0.8602668
0.028725518 0.035208706 0.86000019
0.032735288 0.035208706 0.86000019
0.037547018 0.035208706 0.86000019
-0.0041643237 0.078584723 0.86200005
-0.0057719643 0.080188207 0.86200005
-0.0025580938 0.081799611 0.86208004
0.00065737654 0.084840879 0.86040002
-0.0057719643 0.08980912 0.86200005
-0.0015960764 0.086778805 0.86375588
0.0010588281 0.087684311 0.8608166
-0.0025644763 0.090076022 0.8645618
0.0019974627 0.093017727 0.86201668
0.0032335254 0.097596556 0.86279595
0.0054738903 0.098491743 0.86080009
0.0038864643 0.10297041 0.86480016
0.0066263215 0.10283357 0.8617239
0.0079020867 0.10758082 0.86306685
0.010928956 0.10759033 0.86057347
0.0080693793 0.11216006 0.86371356
0.011894976 0.11210872 0.860852
0.011920333 0.11716025 0.86267048
0.016706191 0.1175582 0.86055243
0.021507917 0.1199963 0.86000019
0.060001768 0.1199963 0.86000007
0.013551089 0.12055444 0.8640002
0.017764075 0.12178463 0.8623606
0.023120582 0.12324381 0.86033344
0.027928052 0.12294852 0.86013347
0.032949764 0.12344902 0.86036676
0.036482383 0.12427849 0.86011124
0.043442797 0.12430408 0.86028904
0.04755459 0.12271986 0.86114675
0.052039031 0.12253094 0.86094451
0.057134617 0.12291845 0.86029351
0.060004167 0.12240085 0.86003458
0.019585058 0.1265271 0.86362517
0.023168946 0.12724264 0.86212593
0.027622156 0.12718365 0.86172587
0.032788277 0.12740105 0.86138892
0.037833486 0.12773266 0.86130482
0.042430744 0.12740946 0.86144447
0.047339112 0.1268484 0.86307418
0.052163605 0.12683855 0.86300749
0.056757364 0.12696303 0.86249167
0.060590021 0.12718901 0.86266255
0.023221206 0.13101166 0.86406684
0.028354704 0.13106625 0.86336678
0.032879572 0.13096879 0.86378354
0.037391447 0.13113511 0.8638202
0.04254793 0.13097568 0.86382794
0.049018268 0.13024282 0.86430019
0.053032719 0.13020512 0.86405021
0.0570581 0.13019758 0.86400014
0.06109421 0.13021374 0.86410731
0.024149671 0.029094396 0.86849993
0.028150186 0.029043777 0.86698896
0.0027398549 0.032487754 0.86665547
0.0063138111 0.031829003 0.86598343
0.011994999 0.030692291 0.86800003
0.022830809 0.031566806 0.8666954
0.027712081 0.031022456 0.86595017
0.0022756674 0.035440426 0.86566001
0.0055042016 0.035436615 0.86556685
-0.0058037704 0.083048791 0.86675
-0.0041800244 0.083709598 0.86525005
-0.0037800861 0.08699964 0.86595422
-0.0017634553 0.092744857 0.86695611
-0.0020354127 0.096956886 0.86857516
0.0010651725 0.097500548 0.86622763
0.0020763997 0.10270146 0.86763155
0.0034967207 0.10783146 0.86832273
0.0055067446 0.10794278 0.86596674
0.0039030924 0.11229707 0.86849993
0.0059194509 0.11335756 0.86734176
0.0073338542 0.11759554 0.8673625
0.0087728072 0.12132652 0.86953348
0.011790188 0.12291527 0.8678959
0.015213353 0.12418428 0.86690015
0.013227814 0.1273483 0.86923331
0.016636407 0.12768635 0.86740839
0.017411321 0.13203269 0.86902213
0.021705082 0.13308719 0.86786193
0.028166836 0.13395081 0.86748892
0.033047453 0.13406061 0.8682
0.037885334 0.133992 0.86775559
0.042731989 0.13396455 0.86757779
0.047367681 0.13250907 0.86727923
0.052200053 0.13279052 0.86742866
0.057266589 0.13309442 0.86715561
0.061402932 0.13329656 0.86847508
0.023894912 0.13688521 0.86904436
0.028196931 0.13732654 0.86842227
0.033074591 0.13740322 0.86891103
0.03794153 0.13742302 0.86903697
0.042809989 0.13744171 0.86915553
0.059058785 0.13591522 0.86973321
0.024991633 0.14074731 0.8696
0.028495165 0.14177507 0.86928892
0.03263355 0.14211681 0.86949521
0.043644153 0.14075269 0.86963338
-0.0025813992 0.098772287 0.87033337
-0.0016083785 0.10172826 0.87068903
-0.00096121378 0.10720325 0.87305564
0.0010716242 0.10738155 0.87121856
0.0018260708 0.11233811 0.87151331
-0.0009611526 0.1153144 0.87300003
0.0026176362 0.11649309 0.87209719
0.0055332412 0.11979161 0.87013352
0.0039287833 0.12197924 0.87421668
0.0071639796 0.12317843 0.87119019
0.008151398 0.12790552 0.8724798
0.011065735 0.12838574 0.87133348
0.0080077425 0.13097152 0.87453336
0.012289 0.13264781 0.87256193
0.015831463 0.13399406 0.87126684
0.063947536 0.13434473 0.87004006
0.01372257 0.13672787 0.87493336
0.017147986 0.1378261 0.87286663
0.02123601 0.13823996 0.87078905
0.047769219 0.13772067 0.87091875
0.052640893 0.13771722 0.87089652
0.057288133 0.13786648 0.87055844
0.062397614 0.13774294 0.87105924
0.065642513 0.13854352 0.87100017
0.018047703 0.14195083 0.87368876
0.021804946 0.14274444 0.87191123
0.02664406 0.14350267 0.87061346
0.034747805 0.14327814 0.87023342
0.038013451 0.14254239 0.87068164
0.042662311 0.14303556 0.87086684
0.047824726 0.142748 0.87193328
0.052727129 0.14281073 0.87231839
0.057598658 0.14278913 0.87218517
0.062446553 0.14271793 0.87175566
0.065642513 0.14097387 0.87100005
0.023471929 0.14623639 0.87339979
0.027505431 0.14685185 0.87222505
0.033001795 0.14748411 0.87235838
0.038099721 0.14773862 0.87266302
0.042956356 0.14764825 0.87213349
0.047913447 0.14788717 0.87354791
0.052568536 0.14742327 0.87355226
0.05768773 0.14707161 0.87353307
0.062041186 0.1474929 0.87258899
-0.00096390507 0.11075883 0.87550008
0.0014867748 0.11813892 0.87587506
0.0039403932 0.12234042 0.87679994
0.0039435383 0.12570271 0.87750006
0.0055763884 0.12725225 0.87691849
0.0066769063 0.13293041 0.87852407
0.0088649569 0.13567679 0.87866682
0.011659131 0.13738675 0.87765247
0.013128665 0.14192864 0.87891996
0.015786037 0.14223602 0.87627512
0.013802042 0.14570448 0.87999976
0.017051836 0.14707321 0.87839258
0.021576423 0.14762066 0.87582684
0.027633935 0.14997354 0.87625015
0.032528773 0.14993648 0.87603337
0.053704813 0.14975961 0.87500006
0.057801973 0.14980526 0.87526673
0.018060414 0.15185425 0.87958652
0.021976165 0.15203451 0.8787334
0.026645975 0.1524267 0.8783049
0.031781174 0.15271445 0.87795013
0.037492417 0.15263647 0.87750018
0.043179184 0.1524903 0.87665564
0.048102159 0.152548 0.87698907
0.053053692 0.15267435 0.87771684
0.058041852 0.15288034 0.87890005
0.061221275 0.15263307 0.87747943
0.022555171 0.15607195 0.87999982
0.026928874 0.15632901 0.87991089
0.031826098 0.15701982 0.87919253
0.037066337 0.15682812 0.87903327
0.042708132 0.15717115 0.87920594
0.047852688 0.15592082 0.87991643
0.053187162 0.15551454 0.87993306
0.058933079 0.15552044 0.87996638
0.061376236 0.15629172 0.87969983
0.032674752 0.16043109 0.87996644
0.035958387 0.16043715 0.87999976
0.042523228 0.16043715 0.87999976
0.0039547738 0.12851629 0.88000005
0.0039630486 0.13288593 0.88184124
0.0034221553 0.13701268 0.88376933
0.0070441491 0.13798431 0.88165408
0.0083711846 0.1420228 0.88425565
0.010939641 0.14297017 0.88079983
0.012466113 0.14773072 0.88232225
0.013860855 0.15208025 0.88375008
0.015879538 0.15291274 0.88144159
0.017693054 0.15717033 0.88310003
0.021770505 0.15796991 0.88144988
0.026943343 0.15887237 0.88039976
0.048333611 0.15820074 0.88121659
0.052802105 0.15833881 0.88133329
0.057997767 0.15795061 0.88178092
0.06258557 0.15849516 0.88133335
0.023743369 0.16107534 0.8835001
0.027547671 0.16193417 0.88219994
0.031678732 0.16284128 0.88161421
0.037063543 0.16276106 0.88118082
0.041535299 0.16280761 0.88143319
0.046520572 0.16205147 0.88241905
0.052202258 0.16171023 0.88311434
0.058296517 0.16094165 0.88276678
0.061942171 0.16198882 0.88310003
0.065017387 0.16209775 0.88459629
0.032031834 0.16626464 0.88487792
0.036150351 0.16623124 0.88470012
0.042711921 0.16608402 0.88391674
0.045225311 0.16623122 0.88470006
0.0039851549 0.14187665 0.88676023
0.0068747448 0.143447 0.88628328
0.0039944705 0.14634056 0.88883328
0.0070944843 0.14722401 0.88792479
0.010593337 0.14837395 0.88616645
0.0083111236 0.15225396 0.88957345
0.011702736 0.15261276 0.88685542
0.0085615991 0.15682988 0.8897168
0.012060853 0.1571174 0.88783324
0.016356854 0.15888533 0.88503349
0.012516508 0.16154875 0.88868564
0.016990289 0.16225004 0.88735211
0.021827027 0.16251583 0.88597327
0.02599214 0.16414219 0.88526678
0.047716454 0.16464137 0.88500017
0.051842798 0.16464137 0.88500017
0.056816895 0.1637179 0.88534671
0.061834309 0.16487697 0.88626653
0.065149978 0.16490176 0.88639987
0.01394581 0.16541645 0.88916665
0.017465718 0.16682796 0.88897496
0.022190548 0.16672367 0.88731819
0.027128123 0.16738188 0.88643318
0.032440104 0.16897598 0.88701308
0.037062325 0.16854884 0.88678867
0.042005945 0.16820006 0.88639987
0.047326766 0.16764879 0.8869732
0.051957209 0.16748054 0.88695544
0.056971736 0.16727929 0.88776171
0.061953023 0.16767158 0.88796645
0.065820254 0.16795313 0.88799983
0.018927114 0.17043604 0.88946664
0.022236265 0.17119925 0.88913327
0.027194701 0.17109682 0.88859987
0.031899869 0.17224886 0.88885552
0.037380788 0.17242359 0.8887428
0.041895431 0.17209819 0.88843328
0.046825211 0.17144339 0.88896662
0.05241422 0.17102614 0.88909328
0.05706526 0.17121647 0.88922215
0.062033478 0.17119712 0.88912219
0.066162735 0.17115419 0.88889998
0.038276631 0.17593367 0.88937777
0.042146172 0.1762052 0.88935548
0.0031727788 0.1483458 0.89095008
0.0040113493 0.15276995 0.89258909
0.0060829436 0.15255229 0.89131683
0.0040115486 0.15609856 0.89263356
0.0063313334 0.15783387 0.89118022
0.007812513 0.16242616 0.89220017
0.011486875 0.16417992 0.8914336
0.012667796 0.16740529 0.8927201
0.015618742 0.16888262 0.89000016
0.017602226 0.17266019 0.89240581
0.022282267 0.17404032 0.89097804
0.02725748 0.17397738 0.8906557
0.03221735 0.17384936 0.89000005
0.047751103 0.17344904 0.89077801
0.051759619 0.17356561 0.89066684
0.057170767 0.17401862 0.89086682
0.062155068 0.17401862 0.89086682
0.066292003 0.17397308 0.89063329
0.019028554 0.17717203 0.89423364
0.022542492 0.17755857 0.89303356
0.027321151 0.17770733 0.89273727
0.032276381 0.17748934 0.89164472
0.036680926 0.1778941 0.89090568
0.042214472 0.17897682 0.89080018
0.047251806 0.17752087 0.89180398
0.052247927 0.17754242 0.89191127
0.057216134 0.17747539 0.89157802
0.062063348 0.17745712 0.89252532
0.066420287 0.17596923 0.89235467
0.032371599 0.18133688 0.89426702
0.037366524 0.18212946 0.89407259
0.042329516 0.18196006 0.8932392
0.045714341 0.18133688 0.8942669
0.05822292 0.18133688 0.89426708
0.060742829 0.18139096 0.89453369
0.0084907347 0.16740131 0.89684457
0.010716864 0.1684484 0.89650017
0.0090717813 0.17062205 0.89916676
0.012681677 0.17198364 0.89753908
0.015725205 0.17336753 0.89606661
0.016572215 0.17683212 0.8967334
0.020729478 0.1799546 0.89566678
0.064127222 0.17986085 0.89520037
0.065787345 0.17817 0.89507169
0.018677955 0.18156379 0.89744174
0.022411825 0.18255357 0.89615554
0.027414791 0.18247885 0.89578885
0.032414149 0.18324132 0.89544445
0.03911294 0.18499428 0.89586663
0.042438541 0.18492545 0.89553338
0.04778564 0.18260153 0.89557344
0.0524683 0.18245643 0.89567786
0.057057895 0.18286033 0.89561677
0.062849127 0.18269214 0.89601755
0.065892324 0.18012203 0.89649999
0.019110832 0.18545546 0.89810026
0.022457577 0.1871044 0.89799285
0.027436804 0.18679565 0.8965112
0.03245607 0.18681294 0.89659268
0.037267935 0.18704389 0.89670002
0.042477842 0.1875989 0.89636666
0.047543313 0.1869583 0.89729267
0.052603774 0.18710266 0.89798534
0.057597756 0.1870077 0.89752609
0.062623367 0.1870171 0.89757222
0.066002578 0.18794043 0.89800006
0.024166632 0.19154784 0.89925009
0.027482606 0.19128133 0.8980003
0.032518182 0.19134541 0.89830035
0.037565995 0.19062281 0.89883369
0.042574096 0.19136691 0.89840031
0.04721833 0.19109206 0.89907527
0.051025946 0.19080669 0.89970016
0.058790967 0.19115226 0.8987003
0.063106827 0.19180566 0.89850026
0.065911122 0.19184943 0.89675564
0.066017799 0.1955025 0.89820719
0.0090894355 0.17346866 0.90091681
0.010773044 0.17352289 0.90120023
0.0091168452 0.17651245 0.9036333
0.012468245 0.17793596 0.90232235
0.015797742 0.17919084 0.90020025
0.014187871 0.18174942 0.90460002
0.016674008 0.18294883 0.90221679
0.018651538 0.18812628 0.90289998
0.01925553 0.19190954 0.90490001
0.022269025 0.19289143 0.90161687
0.027571915 0.1944177 0.90092254
0.032643251 0.19459271 0.90173358
0.037689433 0.19376595 0.90178347
0.042720303 0.19453998 0.90148908
0.04806437 0.19371954 0.90079367
0.053011619 0.1930463 0.90136272
0.057280626 0.19338441 0.9013114
0.062491197 0.19298697 0.9005003
0.022597756 0.19583562 0.90359998
0.027633825 0.19737627 0.90295553
0.032694168 0.19742121 0.90316111
0.037776046 0.19715312 0.9038583
0.042806443 0.19745298 0.90330559
0.04748952 0.19713932 0.90263999
0.052936208 0.19668846 0.90365553
0.05800515 0.19673681 0.90387774
0.063644662 0.19746034 0.90257341
0.066235818 0.19866347 0.90117371
0.044511177 0.20006031 0.90369999
0.04677726 0.20070249 0.90406674
0.063978255 0.20116758 0.90490001
0.0080115693 0.17747998 0.90571123
0.008311159 0.18237285 0.9077003
0.012185249 0.18309215 0.90624678
0.008320963 0.18681489 0.90877527
0.01254212 0.18742798 0.9076485
0.016316228 0.18744597 0.90570009
0.013411638 0.19281848 0.90918344
0.017117668 0.19252382 0.90666211
0.018476421 0.19766057 0.90811688
0.022327963 0.1982832 0.90633357
0.037832025 0.19870844 0.90520006
0.049638711 0.19866453 0.90500003
0.053053927 0.19881088 0.90566677
0.05812709 0.19883282 0.90576673
0.062321246 0.19874135 0.90535003
0.023390673 0.20207615 0.90822685
0.027753286 0.20244609 0.90685201
0.032814112 0.20236726 0.90650016
0.037871547 0.20228729 0.90614444
0.042708647 0.20239672 0.90569174
0.04857387 0.20284303 0.90611678
0.053158715 0.2025826 0.90746331
0.058244448 0.20261292 0.9076004
0.062711261 0.20302349 0.9069224
0.028244324 0.20674083 0.90905005
0.0331349 0.20743883 0.90866697
0.037940145 0.20772161 0.90779293
0.043010678 0.20767941 0.90760773
0.047905359 0.20758475 0.90811688
0.053275835 0.20641226 0.90946674
0.058360789 0.20682411 0.90941674
0.062079329 0.20737338 0.90922678
0.037993811 0.21139455 0.90906686
0.043104004 0.21151344 0.90957779
0.046499893 0.21152635 0.9096334
0.0091874721 0.18973745 0.91063333
0.0081919599 0.19232853 0.91328019
0.010891523 0.19322719 0.91111112
0.0083646486 0.19544336 0.91355026
0.012629334 0.19722779 0.91394454
0.015989617 0.19746937 0.91113329
0.018059632 0.20240864 0.91277349
0.021945719 0.20348258 0.91149998
0.019464772 0.20590596 0.91473365
0.023268245 0.20687816 0.91339183
0.027026214 0.20842436 0.91086662
0.052530989 0.2085121 0.91125
0.055926666 0.20850067 0.91119993
0.065213688 0.20661649 0.91036689
0.028161943 0.21215966 0.91326684
0.032814048 0.21237712 0.91237503
0.038089957 0.21294594 0.91135997
0.043245386 0.21390595 0.91256666
0.048320241 0.21249825 0.91198331
0.052062858 0.21247211 0.91369539
0.056908257 0.21238647 0.91332603
0.061780356 0.21208382 0.91293758
0.038195338 0.21591067 0.91386694
0.0092348885 0.19752748 0.91533369
0.012658183 0.19938986 0.91606694
0.0092732711 0.20005831 0.91913778
0.01312401 0.20211414 0.91876656
0.016089644 0.20382142 0.9168334
0.014426265 0.20533544 0.91979998
0.01747448 0.20762238 0.91780663
0.022034273 0.20855913 0.91517532
0.018859947 0.21154301 0.91851997
0.023159133 0.21259226 0.91630965
0.026296381 0.21447644 0.91500038
0.051906932 0.21453112 0.91523367
0.0093048373 0.20245489 0.92226672
0.011890396 0.20427749 0.92275012
0.0130421 0.20779534 0.92312783
0.016592121 0.21288896 0.92101675
0.0093340995 0.20481253 0.92516655
0.0093591539 0.20795122 0.92764992
0.011071897 0.20848714 0.92619985
