# .PCD v0.7 - Point Cloud Data file format
VERSION 0.7
FIELDS x y z
SIZE 4 4 4
TYPE F F F
COUNT 1 1 1
WIDTH 1096
HEIGHT 1
VIEWPOINT 0 0 0 1 0 0 0
POINTS 1096
DATA ascii
0.038837153 0.059468336 0.81953347
0.033634603 0.062202167 0.81940013
0.037286386 0.062480051 0.81904465
0.040360674 0.063271806 0.81943339
0.038320135 0.066061877 0.81937784
0.03904568 0.05365691 0.82393336
0.023182968 0.058806825 0.82451123
0.02766286 0.057946507 0.82291788
0.03280481 0.057322338 0.82157773
0.037254721 0.057102378 0.82141203
0.041919537 0.05761217 0.82273328
0.023707937 0.06139471 0.82493347
0.027473262 0.062749982 0.8225832
0.031629581 0.063003175 0.82089972
0.042424168 0.062435858 0.82132369
0.028503954 0.067005046 0.8238287
0.032801412 0.067253388 0.82151097
0.036850087 0.067692749 0.82066637
0.041847423 0.067129925 0.82234156
0.03310059 0.071574733 0.82350492
0.037459664 0.071956545 0.8228519
0.04134788 0.071277454 0.82386684
0.01404599 0.0535229 0.82977802
0.017636759 0.053206023 0.82885569
0.02225942 0.05316864 0.82827783
0.027332002 0.053274032 0.82820952
0.033063851 0.052824527 0.82807636
0.037473843 0.052149538 0.82740015
0.042314995 0.052364185 0.82775569
0.045466494 0.053210966 0.8289336
0.0099179279 0.057888385 0.82966697
0.013186321 0.057227328 0.82847512
0.017752895 0.05724464 0.82705992
0.021853618 0.057199791 0.82592601
0.026807396 0.055304188 0.82564455
0.043768648 0.055332478 0.82606673
0.046041101 0.057395201 0.82733345
0.013512854 0.061163977 0.82873368
0.017477585 0.062602013 0.82796979
0.022012778 0.063226186 0.82630819
0.046162561 0.062355548 0.82752234
0.01826435 0.067270532 0.82926691
0.022245698 0.067768745 0.82780743
0.026208824 0.068249837 0.82617331
0.043719195 0.069084123 0.82513338
0.045457959 0.067848928 0.82877797
0.022796439 0.071986668 0.82910031
0.027624665 0.072323941 0.82707208
0.032190248 0.073718607 0.82546663
0.042882066 0.072914205 0.82678664
0.045515858 0.071793117 0.82983363
0.027682424 0.076072417 0.82880014
0.032752626 0.077028409 0.8280201
0.037673529 0.076983787 0.8275407
0.042356808 0.077079378 0.8285706
0.034655835 0.080221914 0.82920033
0.037943561 0.081575133 0.82923365
0.041241661 0.081405252 0.829467
0.027108857 0.049712498 0.83491087
0.032526325 0.049664207 0.83410001
0.038224738 0.048967741 0.83282661
0.042567674 0.048805948 0.83271104
0.047319639 0.049678102 0.83433324
0.0089267595 0.0532469 0.83352214
0.012526234 0.052093934 0.83162218
0.017684303 0.051030919 0.83108902
0.022351384 0.05106641 0.83166665
0.027027445 0.051111441 0.83240002
0.031654008 0.051448423 0.83160007
0.047664378 0.052449282 0.83257145
0.0073696715 0.057374015 0.83339256
0.011469871 0.055595957 0.83000022
0.048838317 0.05739513 0.83371097
0.0082326867 0.061678495 0.83337027
0.012719072 0.063680783 0.8307333
0.04715614 0.064974301 0.83146667
0.0094625875 0.06576816 0.83499974
0.013062719 0.067670606 0.83291113
0.016908616 0.068807118 0.83104998
0.047254454 0.066659667 0.8332001
0.014650026 0.072222926 0.83479977
0.017724274 0.072843567 0.83300734
0.021297047 0.073691748 0.83093327
0.046847574 0.073213719 0.83284998
0.018527905 0.076047271 0.83416647
0.022571675 0.077271879 0.83271664
0.026617397 0.078533404 0.83173341
0.030045392 0.078755356 0.82999998
0.047006067 0.077222973 0.83220434
0.023995332 0.080776587 0.8349331
0.027612261 0.081764713 0.83444428
0.032237403 0.082196102 0.83213943
0.03625178 0.083420746 0.83033329
0.043400507 0.082232997 0.83081341
0.046228915 0.081142999 0.83337766
0.028669115 0.085442789 0.83499974
0.03311754 0.086341754 0.83429974
0.038027685 0.087271735 0.83222425
0.042125847 0.086539984 0.83273321
0.03759421 0.091196612 0.83434987
0.041091271 0.0907996 0.83426654
0.012878194 0.049362484 0.83776659
0.017825259 0.049096752 0.83767778
0.022498056 0.049067479 0.83717769
0.027208189 0.047556583 0.83798885
0.032311261 0.047620442 0.83715236
0.037184015 0.047055401 0.83738649
0.04311363 0.046114288 0.8372798
0.047485799 0.046736117 0.83727396
0.051178932 0.049381617 0.83808899
-0.00092390279 0.053868145 0.83916682
0.0024251218 0.053445999 0.83780009
0.0063601476 0.052406374 0.83661097
0.051762421 0.053007174 0.8378858
-0.0013154937 0.058159672 0.8391459
0.0021996475 0.057625465 0.83705926
0.00531025 0.05593532 0.83506638
0.05146407 0.057725307 0.838489
-0.00092379778 0.062447447 0.83907127
0.002201143 0.062335894 0.83757037
0.0058386461 0.063288666 0.83644438
0.049070034 0.060784135 0.83766657
0.0032495849 0.066099174 0.8392002
0.0070596347 0.067348212 0.83747411
0.047530457 0.068608001 0.83806652
0.0080757476 0.0714375 0.83925009
0.011694585 0.07280121 0.83698326
0.048536103 0.072710432 0.83742809
0.013143281 0.077297553 0.83810472
0.017574469 0.078251265 0.83639038
0.020902686 0.079305671 0.83580005
0.049089558 0.079514414 0.838
0.050686017 0.07644739 0.83855557
0.0147214 0.081157111 0.83886689
0.018064545 0.082233191 0.83846682
0.022288214 0.082691804 0.83662498
0.026087279 0.08341641 0.83544421
0.046954278 0.083578765 0.83706659
0.022975525 0.087120555 0.83832389
0.026974099 0.087376043 0.83677495
0.031430095 0.088263184 0.83596659
0.044312604 0.08791329 0.83633327
0.046000361 0.086599112 0.83866668
0.024117954 0.090555795 0.83920014
0.027442837 0.091577888 0.83834296
0.03263877 0.091875009 0.83698893
0.038024262 0.094014548 0.83525544
0.042956546 0.09240184 0.83648324
0.033474926 0.09514568 0.83837789
0.037353821 0.09818881 0.83772784
0.042970419 0.097629935 0.83779395
0.038165975 0.10227509 0.83837157
0.042488527 0.10182534 0.83880013
0.028180782 0.043958053 0.84370023
0.032109551 0.043950528 0.84355575
0.036837075 0.043959793 0.84373355
0.042500388 0.043644749 0.84372008
0.047494721 0.043292619 0.84298438
0.051019151 0.043977156 0.84406686
-0.0056447401 0.048626006 0.84300005
0.003007066 0.04870674 0.84440011
0.0069326446 0.047845181 0.84306687
0.012169456 0.046864197 0.84268898
0.017947884 0.04629685 0.84344441
0.022636225 0.046235412 0.84232229
0.027322447 0.04540937 0.84151101
0.032002702 0.045367409 0.84073335
0.037514605 0.045397989 0.84130001
0.041373666 0.045327835 0.84000009
0.052227687 0.047022734 0.84238893
-0.0062643052 0.053249605 0.84171999
-0.0028112393 0.052169941 0.8420366
0.0019001339 0.050779372 0.84231997
0.0069173905 0.050089613 0.84124452
0.053929377 0.052121047 0.84035563
-0.0060377917 0.057644222 0.84300005
-0.0034381531 0.057622164 0.84154701
0.05403775 0.057970852 0.84204453
0.055794124 0.057377055 0.84485996
-0.005646972 0.062763475 0.84333342
-0.0031253148 0.062334102 0.84176463
0.049277008 0.063388534 0.84119999
0.052040767 0.062470026 0.84238094
-0.0020513632 0.067633748 0.84256494
0.0016879396 0.067816906 0.84114093
0.049399376 0.067466415 0.84328896
0.051369622 0.067079179 0.84335005
-0.0014533597 0.071165524 0.84373814
0.0022159845 0.072166309 0.84320009
0.0059786434 0.072334185 0.8415066
0.049308248 0.07125628 0.84173346
0.050929483 0.072112046 0.84258342
0.0030074641 0.075412437 0.84443331
0.0071255751 0.076627783 0.84267503
0.011315511 0.079229929 0.84159994
0.051289938 0.07715553 0.84203327
0.0078911707 0.08140067 0.84462661
0.012216985 0.083251171 0.84282434
0.017107293 0.084472269 0.84079981
0.04929975 0.082988016 0.8415882
0.051025186 0.083240189 0.84416682
0.013440092 0.087780677 0.84440833
0.017916113 0.087727062 0.84200752
0.021022741 0.088361681 0.84059978
0.047780886 0.08777152 0.84245348
0.01827449 0.091706321 0.84404004
0.022448299 0.092692949 0.84264988
0.026576884 0.094072372 0.8427335
0.046964463 0.092414431 0.84191108
0.024280822 0.096667975 0.84486651
0.027386526 0.097297348 0.84350377
0.031786192 0.097450867 0.84096175
0.046588659 0.09675505 0.84221667
0.028482556 0.10112094 0.84486657
0.032253802 0.10165306 0.84221667
0.036396824 0.10418632 0.84085333
0.043018553 0.1041114 0.84151667
0.046218548 0.10190263 0.84264451
0.03292967 0.10525778 0.84443331
0.037895553 0.1078793 0.84282005
0.043107476 0.10772512 0.84325194
0.040043999 0.11161589 0.84499991
0.044178709 0.03948465 0.84875
0.047331721 0.039473027 0.84850019
0.051365685 0.039533507 0.84980029
0.0030230989 0.044227231 0.84886694
0.0069768876 0.043410789 0.84835571
0.012509396 0.043392658 0.84800017
0.018050075 0.043405492 0.84825569
0.022765422 0.043346778 0.84711105
0.02729645 0.042133898 0.84763807
0.031956684 0.041965671 0.84786671
0.036997613 0.041786183 0.84742212
0.042390559 0.041650061 0.84693319
0.048398588 0.041343093 0.8463999
0.053025447 0.042396914 0.84781253
-0.0022881303 0.047752298 0.84739971
0.0019997733 0.046808217 0.84660953
0.0069536474 0.045628827 0.84557772
0.011682686 0.045619231 0.84540004
0.054345086 0.046483755 0.84683311
0.056111526 0.049010552 0.84966666
-0.005658132 0.050313234 0.84500003
0.055904627 0.052765798 0.8465333
0.056904513 0.057437081 0.84574741
-0.0040832702 0.064476959 0.84522223
0.054331172 0.063796721 0.84661669
0.056616236 0.062775806 0.84772003
-0.0040842094 0.066850826 0.84541667
0.053755455 0.068116784 0.84747332
0.056057595 0.067122713 0.84885013
-0.0025065816 0.072725393 0.84515011
0.052725982 0.072421335 0.84619552
-0.0014614413 0.076265566 0.84809399
0.0022252277 0.077430934 0.84645557
0.0053759608 0.078643985 0.84539998
0.052876756 0.077364489 0.84861535
0.0032873566 0.081085868 0.84901142
0.0063347057 0.082917497 0.84729338
0.051111616 0.083381541 0.84559655
0.0076078223 0.087110981 0.84821349
0.010512304 0.088576801 0.84638333
0.049501579 0.088827364 0.84503329
0.051136006 0.08814197 0.84600013
0.0085683363 0.090062283 0.84926695
0.01297866 0.092899747 0.84776008
0.017606288 0.094041549 0.84598333
0.049534779 0.09281943 0.84559995
0.051662572 0.092310578 0.84815854
0.014913267 0.096441962 0.84980017
0.018586647 0.097370319 0.84870023
0.022311972 0.097933434 0.84706688
0.048634637 0.097843759 0.8482399
0.023332855 0.10209671 0.8486225
0.026974231 0.10295251 0.84700006
0.030590801 0.10376478 0.84506649
0.048086252 0.10253116 0.84786671
0.024413008 0.10588522 0.84946698
0.027877832 0.10644062 0.84885359
0.032016657 0.10761393 0.8470763
0.047289833 0.10724702 0.8477388
0.033116005 0.11059098 0.84920031
0.036990978 0.1119189 0.84728575
0.043055538 0.11235435 0.8461166
0.047156535 0.11172364 0.84819996
0.038129069 0.11585051 0.8491559
0.042361524 0.11665364 0.84837604
0.046609197 0.11540696 0.84976679
0.041843221 0.12011614 0.84953362
0.04685336 0.033912878 0.85422212
0.051870964 0.034601402 0.85292661
0.057230122 0.034984902 0.85453343
0.0030420227 0.039740026 0.85423964
0.0070239245 0.039728742 0.85399699
0.012595441 0.03972346 0.85388339
0.01817959 0.039744388 0.8543334
0.023278471 0.039108716 0.85433996
0.027728641 0.038933903 0.85400003
0.032502025 0.038928196 0.85387224
0.037235398 0.038882468 0.85287786
0.041676015 0.038710821 0.85259342
0.047806367 0.037533808 0.8522926
0.053229585 0.037812222 0.85109168
0.056440245 0.038169596 0.85464448
-0.0019964173 0.043327224 0.85189271
0.0020111524 0.04232977 0.85155791
0.0070028226 0.041196 0.85148883
0.012551345 0.041165899 0.85086679
0.018118402 0.041194927 0.8514666
0.022850363 0.041136861 0.85026693
0.033942562 0.04112719 0.85006696
0.056331661 0.042854417 0.8530001
-0.0033168467 0.045903109 0.85066068
0.057602316 0.047931321 0.8529402
0.057909768 0.052046649 0.85278672
0.061245102 0.052497074 0.85496682
0.059501432 0.056333188 0.85282874
0.057580285 0.06751059 0.85380012
0.054725856 0.072985418 0.85276669
0.056353673 0.072239876 0.85333329
-0.002526972 0.078448474 0.85181344
0.00064958865 0.079091139 0.85020697
0.053977095 0.077810064 0.85350192
-0.0015762411 0.082242683 0.85336226
0.0017094765 0.08296705 0.85210747
0.053179931 0.082571112 0.85348099
0.0027738737 0.086821437 0.85364455
0.0054122773 0.087092362 0.85111111
0.053135745 0.088053085 0.852772
0.0070118541 0.092025302 0.85281903
0.010169165 0.094168924 0.85068321
0.053061694 0.092685014 0.85158336
0.0086100372 0.096057355 0.85340011
0.012652252 0.098075986 0.85178143
0.017045027 0.099185526 0.85073328
0.049903795 0.098265015 0.85189998
0.052515764 0.097127371 0.85303134
0.013790637 0.10167353 0.85390842
0.018130111 0.10304028 0.85206294
0.021802604 0.10392227 0.85064441
0.050042436 0.10251126 0.85426664
0.018971428 0.10726165 0.85413343
0.022680789 0.10790493 0.85137075
0.027222423 0.10879974 0.85063332
0.023383234 0.11247456 0.8532095
0.027658209 0.11252144 0.85184443
0.032161061 0.11284351 0.85086668
0.035536312 0.11389323 0.85026675
0.048261859 0.11398648 0.85096312
0.024568206 0.11609961 0.85486686
0.028053548 0.11664464 0.85420007
0.032481715 0.1174811 0.8533445
0.03662451 0.11768525 0.85100001
0.04707003 0.11765902 0.85234404
0.0330544 0.12186876 0.85443354
0.037239101 0.12219114 0.85298145
0.04190661 0.122079 0.85082078
0.045979995 0.12216131 0.85277224
0.038353324 0.12606464 0.85414457
0.042036768 0.12656893 0.85345715
0.045266323 0.12635727 0.8543334
0.038314126 0.033578977 0.85923338
0.042212065 0.033094428 0.85703337
0.045331594 0.033435639 0.85556537
0.00065401476 0.039821923 0.85600007
0.0070648561 0.038365792 0.85904962
0.011846486 0.038292121 0.85740012
0.01744495 0.03749406 0.85741675
0.022641864 0.037093587 0.85736513
0.02786728 0.036734294 0.85826665
0.032632127 0.036692437 0.85728902
0.037445497 0.035910927 0.85768896
0.042174015 0.035851654 0.85625583
0.059048999 0.037781812 0.85614812
0.062438548 0.037904825 0.8576625
0.058926422 0.043007258 0.85602236
0.062184561 0.043052509 0.85691935
0.059169233 0.046704996 0.85568911
0.062460978 0.048011243 0.85601723
0.059676412 0.052519552 0.85533696
0.062940314 0.052808482 0.85632414
0.059772108 0.058978576 0.85670847
0.062168673 0.055791333 0.85670882
0.059932001 0.06073425 0.85900003
-0.0073282393 0.074056908 0.85600007
-0.0041353377 0.074056908 0.85600007
0.057639837 0.072253756 0.85666674
-0.010545722 0.076624013 0.85800004
-0.0078730471 0.077096485 0.85733336
-0.0041341297 0.078014463 0.85575002
0.054925315 0.078823112 0.85587513
0.056646835 0.078200288 0.85777265
-0.0036059134 0.083924927 0.85649997
0.054974061 0.08207947 0.85663462
0.0550697 0.084616557 0.85812503
-0.0019052261 0.087163858 0.85804862
0.001185396 0.088616692 0.8556447
0.054140851 0.087601274 0.85607779
0.055124998 0.087097906 0.85898662
0.00245236 0.092300668 0.85720927
0.0054454859 0.093997575 0.85633349
0.055163894 0.092756316 0.85959274
0.0030608198 0.096739776 0.85946679
0.0065878187 0.097457051 0.85673344
0.055151325 0.098330349 0.8593967
0.0075182966 0.10201124 0.85865718
0.01129758 0.10246693 0.85611129
0.052558344 0.10195889 0.85630482
0.01239637 0.10647713 0.85847783
0.016621144 0.1078621 0.85620022
0.051818427 0.10738715 0.85725683
0.017897762 0.11225258 0.85787416
0.021402044 0.11383457 0.85576689
0.05114641 0.11189151 0.85673916
0.018819096 0.11616772 0.85928893
0.02283966 0.11823317 0.85735846
0.027390286 0.11902396 0.8558836
0.048506465 0.11933716 0.85527599
0.050311383 0.11744118 0.85885763
0.02414575 0.12195285 0.85875553
0.027851995 0.12288649 0.85782975
0.031520296 0.12369093 0.85604477
0.048526108 0.1225693 0.85562229
0.050324876 0.12306518 0.85908794
0.028972277 0.12684028 0.85940009
0.032629576 0.12758863 0.85725933
0.036856212 0.12798655 0.85636687
0.042145059 0.12894186 0.855667
0.047447938 0.12773541 0.85672408
0.050354745 0.12793529 0.85959786
0.034272645 0.13094042 0.85833329
0.037884291 0.13137338 0.85854995
0.042470448 0.13232009 0.85820842
0.046848226 0.13207492 0.85828584
0.050308008 0.13101162 0.85879999
0.045555968 0.13596232 0.85980016
0.031996682 0.028868273 0.86175001
0.019187022 0.033758104 0.8638165
0.023201173 0.033738747 0.86332136
0.028420117 0.03332014 0.86289245
0.032813594 0.032086007 0.86206931
0.036376618 0.032037713 0.86077434
0.0087058851 0.036932599 0.8628999
0.012240767 0.036273491 0.86252677
0.017534107 0.035285816 0.86188346
0.023140183 0.035251465 0.8610447
0.027945844 0.03523691 0.86068916
0.032738548 0.035212345 0.86008906
0.063310482 0.05796494 0.86136913
0.065077275 0.059446152 0.86350006
0.061985474 0.062785216 0.86247337
0.060936458 0.067207418 0.8641535
0.05842955 0.073643021 0.86046666
0.060297113 0.072358131 0.86423349
-0.010570304 0.078402385 0.86000001
-0.0065605277 0.078402385 0.86000001
0.058669467 0.077161379 0.86400008
-0.0069066691 0.081629559 0.86028582
-0.0041546617 0.081601918 0.86000001
0.056810465 0.083225869 0.86025006
-0.0030920357 0.089256853 0.86182231
0.05702392 0.085949145 0.86348236
-0.0023559621 0.092806697 0.86191285
0.00065722899 0.094422743 0.86020678
0.055229969 0.092867739 0.86062217
-0.001595149 0.097695842 0.86366999
0.0016210381 0.098370239 0.86114502
0.056424681 0.097886235 0.86251044
0.0022642782 0.10257701 0.86149406
0.0054719821 0.10325909 0.8605001
0.056001585 0.10238689 0.86259538
0.0034792363 0.10727099 0.86380017
0.0070886039 0.10745534 0.8620556
0.010817565 0.10828996 0.86020011
0.055419788 0.10764488 0.86358005
0.0075009707 0.11121751 0.86325836
0.011900873 0.11216324 0.86126679
0.015092262 0.11279732 0.86000019
0.053730335 0.11230031 0.8623144
0.012157448 0.1167721 0.86319524
0.016713062 0.11732323 0.86092514
0.052022502 0.11688829 0.86066675
0.018030945 0.12179644 0.86254674
0.022721993 0.12325793 0.86043352
0.052118152 0.12191387 0.86224908
0.019189749 0.12537119 0.8639667
0.02259142 0.1273434 0.86247885
0.027399369 0.12857853 0.86033344
0.052082226 0.12743977 0.861655
0.023221718 0.13074839 0.86410016
0.028543508 0.1326589 0.86257786
0.032583401 0.13319518 0.86129177
0.037236437 0.13379176 0.8602401
0.04075484 0.13439418 0.86000019
0.047974329 0.13439938 0.86003351
0.051424682 0.13333192 0.86140311
0.033389878 0.13755687 0.8631112
0.03762158 0.1378693 0.86171848
0.042371672 0.13763687 0.8602668
0.047416244 0.13792378 0.86080837
0.051195525 0.13774407 0.86294669
0.03450691 0.14148082 0.86420023
0.037878443 0.14268908 0.86299592
0.04244756 0.14269267 0.86180741
0.047289737 0.14275156 0.86216295
0.050574224 0.14294742 0.86334449
0.039364889 0.14638825 0.86470014
0.04283895 0.14678064 0.86322004
0.047373038 0.14702116 0.86368895
0.050606754 0.14625283 0.86390007
0.024974383 0.029111147 0.86900014
0.028166039 0.029061103 0.86750627
0.0039064623 0.033970438 0.86925
0.0073485826 0.032139722 0.86893344
0.012007685 0.0325418 0.86890012
0.01684479 0.032293241 0.86767161
0.02250132 0.031476844 0.86740434
0.027806312 0.031278264 0.86636007
0.0039053389 0.036385428 0.86900002
0.0068092821 0.036161017 0.86750346
0.01034708 0.035436623 0.86556685
0.065438487 0.063007385 0.86829305
0.063324153 0.068157941 0.86704844
0.065527223 0.067135625 0.86947012
0.062935889 0.072611988 0.8672657
0.065554596 0.071208544 0.86983347
0.061925571 0.077257179 0.86767012
0.058784384 0.080531679 0.86569244
0.058187865 0.088094883 0.8688246
0.057381481 0.092144005 0.8688969
0.058075719 0.097605869 0.8671816
-0.00095393509 0.10316682 0.86644453
0.057981744 0.10308558 0.86576426
0.060699455 0.10358957 0.86999989
0.0013088 0.10839496 0.86700314
0.057283614 0.10731545 0.86741489
0.0033624433 0.11202657 0.86849123
0.0068045431 0.11386919 0.86694002
0.055729687 0.11147717 0.86840922
0.0081110913 0.11758636 0.86818677
0.011154192 0.11916751 0.86560011
0.05393219 0.11755153 0.86555386
0.012197708 0.12254167 0.86810827
0.015212476 0.12337156 0.8668502
0.053998929 0.12172708 0.86662507
0.013636837 0.12697834 0.86946666
0.016653132 0.12781377 0.86827499
0.017951677 0.13149333 0.86902219
0.022156656 0.13279708 0.86747628
0.026527742 0.13384447 0.86680013
0.024166031 0.13662228 0.86908329
0.02763601 0.13759089 0.86782235
0.031326849 0.13845769 0.86540008
0.029433787 0.1418763 0.86908334
0.032529615 0.14213037 0.86675727
0.036189701 0.14498062 0.8659001
0.052402657 0.1419334 0.8669557
0.033611938 0.14655282 0.86885005
0.037573338 0.14792189 0.86803329
0.042675119 0.14936776 0.86643344
0.04752795 0.14992051 0.86652237
0.051875591 0.14680125 0.86714458
0.038759045 0.15038377 0.86919999
0.042789731 0.1521925 0.86875552
0.047609806 0.15260075 0.86801106
0.050870359 0.15186168 0.8684001
0.043890376 0.15576555 0.86915547
0.047265507 0.15562373 0.8691166
0.023382356 0.029146878 0.87006664
0.0055349381 0.034015376 0.87040007
0.012024479 0.030767715 0.87013328
0.015268927 0.030765358 0.87006664
0.067923449 0.064392097 0.87248158
0.067275003 0.068070881 0.87109965
0.066142119 0.07287737 0.87044454
0.06567321 0.077822328 0.87140751
0.062326804 0.084175617 0.87006688
0.059178773 0.089177735 0.87150002
0.062443819 0.087576427 0.87168884
0.059219077 0.092483729 0.8720935
0.061927725 0.091991454 0.87358654
0.059179232 0.096473634 0.87150693
0.060921669 0.097470462 0.87318492
0.059100311 0.10363062 0.87034488
0.060808077 0.10134201 0.87155682
-0.0009616114 0.10805811 0.87341666
-0.00096060213 0.11119221 0.87250006
0.0012072297 0.11293051 0.87131119
0.056766964 0.11192469 0.87189925
0.0025282595 0.11653138 0.87341881
0.0060787252 0.1182662 0.87082243
0.055878002 0.11744268 0.87072027
0.007710129 0.12245343 0.87180561
0.010411236 0.12476204 0.87093359
0.055955712 0.1232833 0.87193108
0.0082683191 0.12673371 0.87335539
0.011771259 0.12807751 0.87144452
0.054328177 0.12976758 0.87190914
0.056092769 0.12764999 0.87406677
0.0088272858 0.13021766 0.87493336
0.012390574 0.13189897 0.8731333
0.0163802 0.13351403 0.8716557
0.02014007 0.1343694 0.87019998
0.013719434 0.13506943 0.87473327
0.017607896 0.13747267 0.87345994
0.021329595 0.13803822 0.87145722
0.018615019 0.14158893 0.87480003
0.0223832 0.14243181 0.87331104
0.026465589 0.14286707 0.87142509
0.028164737 0.14744182 0.87305182
0.032066133 0.14851229 0.87086684
0.052586671 0.14890386 0.87000006
0.032898452 0.15248106 0.87286997
0.037791822 0.15276711 0.87093347
0.041260313 0.15387681 0.87066686
0.052745841 0.15097782 0.8726334
0.034493819 0.15732655 0.87408322
0.038070489 0.15736002 0.87201482
0.042355582 0.15770434 0.87093353
0.048081264 0.15809046 0.87068015
0.051031772 0.15720518 0.87115568
0.038955487 0.16089542 0.87359983
0.043203868 0.16221483 0.87304157
0.047696397 0.16226128 0.87329155
0.065989204 0.089597262 0.87559998
0.063627191 0.093796641 0.8767885
0.066034414 0.091288567 0.87619996
0.062933579 0.097252712 0.87853706
0.059528265 0.10601173 0.87664711
-0.0020588958 0.11376825 0.87777781
0.057991385 0.11354246 0.87813222
-0.0020595705 0.11711318 0.87836713
0.001488819 0.11918622 0.87759435
0.058000904 0.11764341 0.87827611
-0.00096840353 0.12109299 0.8795861
0.0023091515 0.12260818 0.87871116
0.0055810413 0.12327568 0.87765014
0.057888925 0.12230933 0.87658048
0.0066731111 0.12739386 0.87791103
0.054638464 0.127248 0.87688893
0.058030725 0.12669674 0.8787275
0.0083183758 0.13241367 0.87871116
0.010475187 0.13286474 0.87628341
0.05479493 0.13251832 0.87940007
0.056306668 0.13140175 0.87739992
0.011931132 0.13745922 0.87830412
0.016181096 0.13845292 0.87555009
0.054757114 0.13896573 0.87879324
0.013134053 0.1419851 0.87926662
0.016566737 0.14225189 0.87745249
0.02025193 0.14325444 0.87503332
0.054773591 0.14146045 0.87905777
0.013802042 0.14570448 0.87999976
0.017272472 0.14699815 0.8791666
0.021737464 0.14710812 0.87738347
0.025986731 0.14908451 0.8758167
0.018725671 0.15061539 0.87999976
0.022392079 0.15085034 0.8789832
0.026628098 0.15233231 0.87776196
0.030074516 0.15317817 0.87593347
0.05300374 0.15334718 0.8768999
0.028131651 0.15658259 0.87903327
0.031515103 0.15757512 0.8770858
0.053037986 0.15834308 0.87746668
0.031827036 0.16084079 0.8792221
0.037471935 0.16316216 0.87704593
0.041536763 0.16469049 0.87650007
0.04966671 0.16454646 0.87573332
0.051772211 0.16311504 0.8767916
0.037591241 0.16612899 0.87979972
0.042787425 0.1673515 0.87823814
0.048110247 0.16725785 0.87713343
0.051476676 0.16756573 0.87874997
0.044985052 0.17025901 0.87999976
0.049076863 0.17022035 0.87979984
0.066448145 0.093500629 0.88168967
0.064820938 0.097627193 0.88192308
0.066445149 0.096775912 0.88165003
0.063267343 0.10187408 0.88319635
-0.0026100704 0.10969114 0.88000005
0.059819326 0.10816877 0.8809334
0.062199082 0.10685583 0.88362116
-0.0026126653 0.11963178 0.88087505
-0.0019571297 0.12330564 0.88136089
0.059922691 0.12312984 0.88245541
0.060857639 0.1217121 0.8840782
-0.0009735637 0.12667291 0.88427281
0.0027905803 0.12785782 0.88270962
0.0055997991 0.12860394 0.8805998
0.059097461 0.12804507 0.88240629
0.060084153 0.12839921 0.8848334
0.0034246391 0.13218351 0.88445568
0.0062703332 0.13332489 0.88256663
0.054904461 0.1344223 0.88115793
0.057778209 0.13309258 0.88321114
0.008248535 0.13765007 0.88293344
0.055073835 0.13730335 0.8838762
0.010944359 0.14303489 0.8811999
0.054860242 0.14414088 0.8804484
0.056738794 0.14309953 0.88413322
0.012462917 0.14768912 0.88207221
0.015446765 0.14901228 0.88019979
0.054864541 0.14660951 0.8805173
0.013853797 0.15118018 0.88330007
0.017123004 0.15260358 0.88202375
0.021692697 0.15332544 0.88051999
0.055137634 0.15145403 0.88489991
0.01826454 0.15681328 0.88417792
0.022078406 0.15767242 0.88284081
0.025968168 0.15762135 0.88072664
0.053412747 0.15617435 0.88366657
0.027569085 0.16206418 0.88291115
0.031571839 0.16329372 0.88127995
0.053350274 0.16255917 0.88263327
0.032523446 0.16706277 0.88328904
0.036307897 0.16788594 0.88186103
0.040067498 0.16864757 0.88013309
0.053318035 0.16738497 0.88209993
0.038173191 0.17222378 0.88377512
0.041772053 0.17218535 0.88147765
0.047384094 0.17254636 0.88053304
0.052057303 0.17180265 0.88162482
0.042106032 0.17705356 0.88356197
0.047088057 0.17715 0.88251668
0.050910506 0.17743871 0.8831417
0.043586828 0.1810904 0.88493347
0.04771018 0.18108016 0.88488346
0.065883979 0.10268603 0.88735998
0.063452139 0.10793986 0.8857758
0.066073351 0.10734633 0.88768387
0.061882183 0.11220602 0.88693607
0.065733388 0.11242837 0.88869369
0.061744932 0.11708038 0.88793069
0.061871596 0.1212612 0.88679993
-0.0026272729 0.12692469 0.88602567
0.00067620358 0.12842944 0.88504177
0.061896402 0.12708735 0.88715547
-0.00097685587 0.13205339 0.887263
0.0010903419 0.13232192 0.8862986
0.060927134 0.13175569 0.88747996
0.0023317849 0.13702244 0.88737768
0.0056319134 0.13757917 0.88564992
0.057728037 0.13773374 0.88664979
0.060386337 0.13648966 0.88928318
0.0029987027 0.14151965 0.88866919
0.0070855459 0.14208911 0.88680398
0.057895172 0.1425195 0.88667315
0.060435005 0.14073792 0.88999981
0.0039973166 0.14561732 0.88946658
0.007510656 0.14685354 0.88818324
0.010590146 0.14832932 0.88589984
0.0574379 0.14759187 0.88642216
0.060430475 0.14569372 0.88993335
0.0081444457 0.15058669 0.88950014
0.01170294 0.15234254 0.8868776
0.015531002 0.1547637 0.88500017
0.057217229 0.15186115 0.8872776
0.012479316 0.15676162 0.8881582
0.01679014 0.15825611 0.8861165
0.056513529 0.15605573 0.88923329
0.013389379 0.16096751 0.88895559
0.017035535 0.16213235 0.88815826
0.022174759 0.16248198 0.88668865
0.026011936 0.16426773 0.88594431
0.018375328 0.16603637 0.88953346
0.02221654 0.16692308 0.88837773
0.027128445 0.16738503 0.88644975
0.030967822 0.16920751 0.88592201
0.023352899 0.17100477 0.88955569
0.027429627 0.17144029 0.88854277
0.032112759 0.17246486 0.88713312
0.036055122 0.17347944 0.88641322
0.053517509 0.173774 0.88539994
0.05536402 0.17191006 0.88853329
0.028895469 0.17549178 0.88993341
0.032169476 0.17690152 0.88869613
0.037301499 0.1777174 0.88687599
0.041152433 0.1796267 0.88583338
0.053036809 0.17812325 0.88655543
0.055426337 0.17541289 0.88953328
0.033854384 0.18117747 0.88940001
0.037140571 0.18185456 0.88866663
0.042030942 0.18314968 0.88693303
0.046715021 0.18345575 0.88613319
0.051968113 0.18236029 0.88710821
0.03882768 0.1852994 0.88933343
0.042110432 0.18707792 0.88861108
0.047022771 0.18739194 0.88748878
0.052057527 0.18704566 0.88864756
0.043816671 0.19031948 0.8896001
0.047433261 0.19084716 0.88897336
0.050989453 0.19080953 0.88931113
0.067077577 0.11259857 0.89004171
0.063826337 0.11934946 0.89100015
0.067236662 0.11784228 0.89213055
0.063938566 0.12288064 0.89256692
0.066304877 0.12204305 0.89454478
0.062136713 0.13420607 0.89060009
0.061843023 0.13820322 0.89234179
-0.0009811538 0.14092241 0.89116675
0.001511025 0.14336947 0.8909176
0.061604876 0.14312519 0.8925001
0.0030115105 0.14812127 0.89258873
0.0056614825 0.14906603 0.89030015
0.061154678 0.1477579 0.89241123
0.003597457 0.15248132 0.89333242
0.0070905504 0.15300028 0.89116687
0.058801573 0.15405172 0.89040005
0.060596831 0.15190506 0.89238346
0.0040178401 0.15634339 0.89403355
0.0073376056 0.15772441 0.89243346
0.010641551 0.15898488 0.89020008
0.05723111 0.15793808 0.89177352
0.0040205368 0.16144088 0.89463347
0.0076848604 0.16198495 0.89396018
0.011991655 0.16293451 0.89187354
0.056470916 0.16196656 0.89294183
0.01400593 0.16612956 0.8930003
0.01675899 0.16812032 0.89180571
0.055727504 0.16887887 0.89436668
0.018466756 0.17185491 0.89397794
0.021769263 0.17326422 0.89266688
0.026422994 0.17395025 0.89051688
0.055563401 0.17252778 0.89173359
0.022769608 0.17667508 0.89382517
0.027081821 0.17771235 0.89172524
0.055537447 0.17825153 0.89131677
0.027918212 0.18241018 0.89408922
0.031803906 0.18271637 0.89171451
0.035573009 0.18396857 0.89090025
0.055669334 0.18116784 0.89343351
0.032763727 0.18660425 0.89360034
0.037299521 0.18761209 0.89245749
0.040586464 0.18907465 0.89153361
0.053803623 0.18712193 0.8901335
0.055611186 0.18927971 0.89249992
0.042648073 0.19236213 0.89293367
0.046800103 0.1935486 0.89113355
0.052763999 0.19288622 0.89126128
0.055742029 0.19138919 0.89460015
0.044062957 0.19638163 0.89460027
0.047559176 0.19724651 0.89312881
0.051992845 0.1967468 0.8932336
0.068644457 0.12280336 0.89604449
0.071069293 0.12119548 0.89853573
0.064178556 0.12750778 0.89591682
0.067613378 0.12684877 0.89714462
0.064195275 0.13254087 0.89615011
0.066894926 0.13208823 0.89873362
-0.00098641985 0.1366789 0.89594996
0.064265713 0.13769408 0.89713347
0.066631332 0.136021 0.89894462
0.064356454 0.1420669 0.89840013
0.062459968 0.14905943 0.89523339
0.0023538745 0.15407243 0.89533341
0.06203841 0.15355264 0.89716679
0.0034682334 0.15888561 0.89586681
0.059144933 0.15994938 0.89560014
0.060819782 0.15746236 0.89566684
0.0031906313 0.16246402 0.89568341
0.0056973053 0.16334206 0.89593351
0.05806059 0.16336213 0.89604449
0.061035562 0.16220234 0.89884454
0.0085103251 0.16612111 0.89894456
0.011837219 0.16743678 0.89703339
0.057584506 0.16659591 0.89730012
0.0135242 0.17094083 0.89791131
0.01698553 0.17344776 0.89648342
0.058011096 0.17154241 0.89742512
0.017705893 0.17702436 0.89770579
0.022393702 0.17907485 0.89543331
0.019105868 0.18206738 0.8978669
0.022183586 0.18228671 0.89660019
0.026572339 0.18409279 0.89553332
0.055910271 0.18362106 0.89730012
0.022698836 0.18664317 0.89807165
0.027185824 0.18719094 0.89612383
0.031584606 0.18827119 0.89560008
0.035766009 0.18996543 0.89573324
0.055892624 0.18689746 0.8970167
0.027484024 0.19129564 0.898067
0.032472927 0.19192091 0.89707786
0.037468806 0.192635 0.89652234
0.041606374 0.19410175 0.89560008
0.038097877 0.1966161 0.89820576
0.041934844 0.19739403 0.89667779
0.047424566 0.19981401 0.89506686
0.054260973 0.19873197 0.89770007
0.042743824 0.20183523 0.8975752
0.047258973 0.20226684 0.8964476
0.051336341 0.20167637 0.89779186
0.04427065 0.2065035 0.89881694
0.047609355 0.20644228 0.89855027
0.0712642 0.12823111 0.90100002
0.069582485 0.1324196 0.90098304
0.071268857 0.13242982 0.90105897
0.068261646 0.13783023 0.90129358
0.071490631 0.1370455 0.90386283
0.066372506 0.14279906 0.90303344
0.064770728 0.14718567 0.90418333
0.0023663191 0.15739845 0.90006667
0.063135587 0.15740494 0.90491676
0.0023769224 0.16146742 0.90410012
0.0074227774 0.16833846 0.90261668
0.059458628 0.16833436 0.90035027
0.061347172 0.16639003 0.90343344
0.0091218892 0.17156455 0.90413338
0.012124079 0.17312455 0.90174675
0.059543379 0.17276739 0.90163356
0.013749186 0.17775045 0.90351671
0.01582348 0.17864481 0.90166676
0.057905689 0.17709598 0.90231675
0.016849902 0.18270119 0.90264672
0.058041528 0.18003358 0.90443337
0.018664842 0.1871466 0.90357774
0.021688875 0.18937133 0.90083373
0.056120053 0.18766087 0.90066677
0.022802021 0.19252609 0.9021526
0.027587011 0.1945328 0.90145582
0.027982673 0.19729526 0.90335333
0.032855395 0.19775847 0.90182102
0.036532816 0.19888677 0.90092254
0.037945252 0.20260468 0.90219539
0.04100376 0.20442255 0.90070027
0.053830035 0.20330417 0.90168685
0.038336162 0.20625238 0.90382224
0.042453334 0.20802142 0.90177232
0.047745388 0.2095446 0.90111136
0.052629523 0.20771182 0.90250963
0.044494756 0.21174955 0.90336663
0.047883827 0.21267533 0.90372771
0.052400257 0.21136378 0.90411109
0.068346843 0.14256459 0.90688366
0.070731848 0.14085425 0.90854621
0.06482923 0.1498438 0.90500003
0.067285299 0.14692393 0.90776682
0.064923555 0.15259117 0.90631682
0.066820852 0.15221995 0.90913361
0.065078378 0.15718009 0.90847802
0.063246831 0.16189937 0.90651125
0.065115787 0.16065155 0.90900022
0.003509504 0.16693239 0.90637797
0.0057611084 0.16854189 0.90596676
0.06247896 0.16715777 0.90761673
0.0040863003 0.17084716 0.90926683
0.0068964628 0.17274153 0.90737242
0.061547112 0.17199194 0.90637785
0.0079525122 0.177169 0.90822881
0.011253363 0.17740805 0.90605843
0.059855968 0.17704804 0.90636683
0.061752345 0.17763884 0.90940022
0.0091753639 0.18102887 0.90943342
0.012325054 0.18250425 0.90730441
0.058131382 0.18284011 0.9058336
0.060067292 0.18190177 0.90956676
0.013567517 0.18722008 0.90828025
0.016330438 0.18760875 0.90648347
0.058273982 0.18751289 0.90805578
0.014266293 0.19121425 0.90960002
0.017602868 0.19230801 0.90677804
0.018479967 0.19769657 0.90828353
0.022455426 0.19748825 0.90635848
0.026029123 0.19881819 0.90570003
0.056617483 0.19777751 0.90865016
0.019348448 0.2012926 0.90926671
0.023279382 0.20220034 0.90827805
0.027749401 0.20241857 0.90672994
0.032553487 0.20272718 0.90595728
0.05663617 0.20375791 0.90895021
0.028150279 0.20692554 0.90874684
0.033077132 0.2075391 0.90791696
0.037191153 0.20799741 0.90605342
0.05655551 0.20769036 0.90765589
0.0345979 0.21136358 0.9089334
0.038148876 0.21256213 0.90772945
0.042371567 0.21293308 0.90601683
0.053792477 0.2132103 0.90672028
0.056639273 0.21137907 0.90900016
0.04351731 0.21768464 0.90809554
0.048067164 0.21771182 0.90720028
0.052635953 0.21738 0.90816706
0.071471699 0.14345871 0.9107759
0.068741255 0.14847757 0.91211665
0.07141573 0.14788233 0.91368216
0.068820387 0.15289462 0.9131667
0.071411043 0.15297095 0.91362333
0.067904405 0.15783793 0.91228324
0.070644446 0.15826185 0.91473359
0.066184521 0.16288425 0.91203344
0.063539088 0.16772833 0.9107002
0.065526463 0.16676956 0.91473371
0.0041005309 0.17313953 0.91243351
0.063820481 0.17187434 0.91473365
0.0041089696 0.17689787 0.91431135
0.005793117 0.17879933 0.91100001
0.062994391 0.17725024 0.91263354
0.0074989018 0.18322946 0.91196668
0.062244426 0.18275787 0.91244459
0.0072706072 0.18747027 0.91373354
0.011459857 0.18817693 0.91127777
0.061080351 0.18748166 0.91201675
0.012607007 0.19266349 0.91246676
0.058552768 0.19265173 0.91240007
0.060774405 0.19167596 0.91381681
0.013490397 0.19649716 0.9145003
0.015991664 0.19749436 0.91125
0.058111928 0.197265 0.91215014
0.060362279 0.19554676 0.91403353
0.017719682 0.20249501 0.91278344
0.021068148 0.20321472 0.91029996
0.058131978 0.20199932 0.91245842
0.019440657 0.20565087 0.91360021
0.022829846 0.2069125 0.91291684
0.026158435 0.20827183 0.91019994
0.031247605 0.20994191 0.91009992
0.058514714 0.20694499 0.911807
0.024588106 0.21105692 0.91493374
0.028155601 0.21211243 0.91306263
0.032642074 0.21289694 0.91115332
0.05770177 0.21215811 0.91236675
0.029707192 0.21616268 0.91493374
0.033416685 0.21655798 0.91372681
0.07422778 0.14754164 0.91685021
0.072492808 0.15772091 0.91653335
0.069090441 0.16287522 0.91674995
0.071949206 0.16264077 0.91831589
0.067431003 0.16726001 0.91742003
0.070999712 0.16589814 0.91933322
0.065717496 0.1723756 0.91739988
0.065686464 0.17740965 0.91696662
0.0041170097 0.18235624 0.91609997
0.063883282 0.18396623 0.9156335
0.065806665 0.18286385 0.91864443
0.063924365 0.18749426 0.91622227
0.06587591 0.18818654 0.91961116
0.0077568279 0.19262409 0.91731656
0.010943992 0.19415745 0.91550028
0.063197635 0.19299132 0.9180584
0.0075546764 0.19654985 0.91872209
0.012251403 0.19801825 0.91760838
0.061551593 0.19812022 0.91650009
0.014396993 0.20150374 0.91793317
0.016085258 0.20376587 0.91658342
0.061149031 0.20193379 0.91730005
0.01779831 0.20780863 0.91687226
0.022030175 0.20937014 0.91500038
0.06073321 0.20615731 0.91965008
0.018683765 0.21182609 0.91826648
0.022916591 0.21280485 0.91635013
0.026296381 0.21447644 0.91500038
0.069391906 0.16872364 0.92075008
0.072030261 0.16801348 0.92155015
0.068403937 0.17276847 0.92131346
0.072402164 0.17225745 0.92409337
0.068890952 0.17724936 0.92323339
0.071406454 0.17716855 0.92459989
0.068569407 0.18177554 0.92354
0.071434774 0.18067962 0.92496651
0.067911118 0.18735826 0.92396671
0.066932425 0.19260436 0.92233336
0.0075867586 0.1978966 0.92233324
0.064201131 0.19686389 0.9201889
0.066043057 0.19724095 0.92194444
0.0093260286 0.20119646 0.92436641
0.01245385 0.20239908 0.92201114
0.063744068 0.20236225 0.92184448
0.013777502 0.2072883 0.9224
0.062111776 0.20779622 0.92313331
0.016582232 0.21275982 0.92045838
0.074936181 0.16875078 0.92559981
0.074938975 0.17220002 0.92563432
0.076736979 0.17149866 0.92650008
0.073281117 0.17753327 0.9264999
0.075009048 0.17580871 0.9265002
0.069795087 0.18434642 0.92609978
0.072592698 0.18305241 0.92652732
0.075130485 0.18386152 0.92800003
0.069383845 0.1878455 0.92636651
0.072393551 0.18791451 0.9284066
0.069241703 0.19244628 0.92638874
0.071681887 0.19166411 0.92816657
0.0058853226 0.19972152 0.92549986
0.068685114 0.19651961 0.92664433
0.0081967385 0.20285845 0.92672211
0.011057952 0.20478304 0.92503315
0.066460118 0.20280106 0.92776674
0.0093682883 0.20729156 0.92855567
0.011083651 0.20784685 0.92718327
0.064712383 0.20619678 0.9275167
0.075340986 0.1869733 0.93060005
0.073100097 0.19235696 0.93152231
0.070980519 0.19643444 0.93031681
0.0059169051 0.20252417 0.93046671
0.068505637 0.20287217 0.93205565
0.0076616481 0.20797382 0.9316113
0.072310045 0.19856869 0.93630016
