# .PCD v0.7 - Point Cloud Data file format
VERSION 0.7
FIELDS x y z
SIZE 4 4 4
TYPE F F F
COUNT 1 1 1
WIDTH 982
HEIGHT 1
VIEWPOINT 0 0 0 1 0 0 0
POINTS 982
DATA ascii
0.0098549677 0.059821475 0.82440001
0.013107432 0.058413994 0.82349145
0.017525019 0.058227818 0.8235628
0.02195492 0.058457352 0.82409161
0.026270771 0.059345424 0.824889
0.0098496554 0.06285464 0.8239556
0.012896139 0.062727146 0.8222813
0.017506383 0.062756099 0.82265925
0.021707548 0.062864035 0.82407635
0.0098541724 0.065950319 0.82433349
0.012916472 0.066652566 0.82353348
0.01753342 0.066686057 0.82394457
0.021138156 0.066492043 0.82471132
0.0099203167 0.054043304 0.82986683
0.012999169 0.05397673 0.82884455
0.01763377 0.053196847 0.82871127
0.022258788 0.053166743 0.82824463
0.027153978 0.053432655 0.82838899
0.033598632 0.052929524 0.82855564
0.037700359 0.052389249 0.8281408
0.042170502 0.052619196 0.82871687
0.045506716 0.054030288 0.82966697
0.0087349098 0.057550147 0.82760012
0.0125864 0.055787094 0.82711679
0.017586404 0.05535927 0.82646674
0.022587128 0.055721972 0.82615012
0.027882446 0.057210181 0.8258822
0.03301755 0.056926683 0.82690352
0.037650686 0.056936484 0.82704425
0.042347472 0.05702889 0.82838541
0.045503069 0.05711237 0.82960016
0.007724335 0.062157165 0.82694674
0.02371273 0.06294214 0.82510006
0.027602678 0.063037612 0.82634991
0.033050045 0.062372278 0.82770556
0.037578966 0.06222583 0.82855171
0.041361753 0.060690511 0.82928902
0.0089579877 0.067996882 0.82682657
0.012945172 0.06910459 0.82537788
0.017564042 0.069106452 0.82539994
0.022723937 0.068169326 0.82644421
0.02718297 0.067601353 0.82764661
0.031945083 0.06767989 0.82908368
0.0098953499 0.072385632 0.8277778
0.012968679 0.072306424 0.8268739
0.017595271 0.072306417 0.8268739
0.022234648 0.072348051 0.82734799
0.026909487 0.072469674 0.82874095
0.030016445 0.071738422 0.82920027
0.0099083651 0.075564124 0.82886696
0.012993897 0.077071972 0.82848907
0.017437793 0.076884024 0.82854182
0.022283109 0.076693065 0.82916218
0.025904497 0.076143511 0.82957792
0.013009709 0.080252014 0.82951123
0.016100805 0.080234803 0.82933348
0.023997251 0.049717795 0.83499986
0.027107537 0.049709857 0.83486646
0.03254826 0.049696952 0.8346498
0.037913561 0.049200632 0.83283329
0.042579666 0.048819467 0.83294439
0.047308058 0.048890356 0.83414441
0.050450955 0.049697947 0.83466655
0.0079600057 0.053144149 0.83306658
0.0130403 0.051826537 0.83146673
0.017689116 0.051044565 0.83131123
0.022341952 0.051044568 0.83131117
0.027398441 0.051466759 0.83190006
0.031344019 0.051680215 0.83160007
0.043977041 0.050964043 0.83000022
0.047342826 0.052398294 0.83132499
0.051965728 0.052759528 0.8339777
0.0059082303 0.056941975 0.83162671
0.047346991 0.057237223 0.83139998
0.051448304 0.056898419 0.83399993
0.0059107542 0.062853597 0.83206666
0.039336324 0.064864904 0.83006662
0.042702343 0.062730849 0.83100957
0.047081206 0.061843503 0.83355832
0.0068470072 0.068158485 0.83255559
0.034205388 0.069041632 0.8307777
0.037865777 0.068092719 0.83175558
0.042441968 0.067384772 0.83362961
0.047356527 0.065250404 0.83499974
0.0076195546 0.072778299 0.83227772
0.032907221 0.072898343 0.83186662
0.037656374 0.071997598 0.83398664
0.041127395 0.071463473 0.83499974
0.008393107 0.077623509 0.83204836
0.019231271 0.078843921 0.83093321
0.022324134 0.078818619 0.83066666
0.027555889 0.077982031 0.83272219
0.031222532 0.077053957 0.83385545
0.009440057 0.081112906 0.83306664
0.013042417 0.082778364 0.83163333
0.01789638 0.082224116 0.83189166
0.02237721 0.082104415 0.83263713
0.025930088 0.081904441 0.83454984
0.014014433 0.086588189 0.83405322
0.017754473 0.086929083 0.83434796
0.022038627 0.08578337 0.83453315
0.0084667709 0.049967878 0.83920014
0.012694889 0.049223606 0.83793324
0.017819799 0.049081843 0.83742213
0.022516549 0.048584536 0.83781105
0.027206078 0.047552262 0.83791113
0.032333504 0.047652889 0.83772373
0.037608217 0.047274005 0.83758879
0.042835325 0.045995593 0.83795553
0.047531758 0.04600304 0.83808881
0.052386757 0.048287962 0.83716184
0.057400409 0.048186362 0.83765554
0.062376708 0.049119793 0.8380363
0.0037657232 0.05378864 0.83793342
0.0064911172 0.051776577 0.83689994
0.057542797 0.052882597 0.83591652
0.062883765 0.053144492 0.83698326
0.0037603313 0.057602465 0.83673334
0.053157065 0.058619563 0.8364222
0.057144392 0.057462472 0.83693331
0.062107436 0.057686731 0.83792603
0.0037623283 0.062306512 0.83717793
0.048917733 0.063702218 0.83506638
0.052142866 0.062279914 0.8368147
0.05673207 0.061977796 0.83875257
0.062076114 0.061289642 0.83925015
0.0037706175 0.06712658 0.83902216
0.005317599 0.066902742 0.83622223
0.044245481 0.069139101 0.83506638
0.047426727 0.067096949 0.83622485
0.052022912 0.06663619 0.8384763
0.0053297514 0.072509378 0.83813345
0.038458101 0.074288338 0.83619976
0.042960346 0.07334964 0.83657485
0.047517668 0.072486572 0.83783323
0.050726306 0.071825616 0.83922225
0.006096384 0.077012479 0.83623451
0.033700988 0.078099623 0.83619988
0.037642017 0.077983476 0.83828896
0.043232784 0.076793388 0.83806664
0.047586322 0.076491959 0.83904457
0.0084741702 0.08282277 0.83993334
0.010005592 0.084090479 0.83700001
0.028093701 0.082787767 0.83641326
0.031709306 0.082452744 0.83815002
0.035070989 0.081182905 0.83913344
0.011570469 0.087245062 0.83739996
0.02277923 0.088032044 0.8359865
0.027005667 0.087085046 0.83771676
0.031166311 0.08588624 0.83933342
0.013923914 0.091982909 0.83796668
0.01781337 0.09189108 0.83713329
0.022286996 0.091496773 0.83759993
0.026464805 0.090552196 0.83916676
0.027410394 0.043985259 0.84422237
0.032123171 0.043969054 0.84391123
0.037624866 0.043960661 0.84375018
0.043119736 0.043555602 0.84351677
0.047523387 0.043319017 0.84349346
0.052615136 0.043209434 0.84441113
0.056030545 0.042719439 0.84250253
0.0030060357 0.047906749 0.84415001
0.0071274466 0.047242761 0.84282511
0.01216669 0.046505801 0.84250379
0.017935971 0.046265688 0.84287792
0.02232456 0.046082169 0.84238684
0.027315231 0.045397386 0.84128886
0.032025665 0.045399785 0.84133339
0.037516572 0.045400683 0.84134996
0.052432373 0.045798674 0.84148329
0.055539217 0.045381796 0.84099996
-0.00092981168 0.05342745 0.84453321
0.0019001247 0.052217901 0.84277999
0.0061332434 0.050086968 0.84119987
-0.00092988519 0.055002756 0.84459984
0.0022126657 0.057939842 0.84162217
-0.00093025208 0.062883183 0.84493333
0.0015852451 0.063024223 0.84261322
0.05786249 0.064121798 0.84056658
0.062483467 0.063482545 0.84097046
0.066676721 0.064307429 0.84300005
0.0014289209 0.067443401 0.84299999
0.053161621 0.068815395 0.84059989
0.057167478 0.067354113 0.84186673
0.061987147 0.067473836 0.84336311
0.065670833 0.066441916 0.84354633
-0.00093032554 0.070747465 0.84499991
0.002663203 0.071881711 0.84249538
0.053250045 0.072063632 0.84200007
0.057342205 0.07227248 0.84444451
0.061791904 0.071376197 0.84499991
0.0037795051 0.075105838 0.84100014
0.039813366 0.079716846 0.84013331
0.042664345 0.079148673 0.84073335
0.04775086 0.079106338 0.84194446
0.052331239 0.076655872 0.84298337
0.056328654 0.075987011 0.84499997
0.0074535529 0.083092608 0.8426699
0.033548594 0.084411994 0.84019983
0.037740082 0.083121456 0.841515
0.043121431 0.083178692 0.8435334
0.047851417 0.082412012 0.84372228
0.051009066 0.080859505 0.84390008
0.0085190078 0.087973535 0.84437776
0.010049421 0.088368937 0.84066665
0.028854514 0.089122005 0.8403998
0.032250438 0.088105485 0.84135228
0.037107524 0.087643504 0.84271348
0.041287214 0.087686524 0.8446399
0.0085212504 0.094280735 0.84459996
0.010856009 0.092482381 0.84252232
0.023383385 0.093867712 0.84090018
0.02755514 0.092843182 0.84173334
0.032085862 0.092526406 0.8429262
0.036638141 0.092229702 0.84431422
0.007886936 0.097060002 0.84417832
0.012428804 0.097194821 0.84261686
0.017922934 0.097153001 0.84225202
0.022661524 0.097264476 0.84322244
0.027413977 0.097389475 0.84430373
0.031826109 0.096454583 0.84437335
0.035307828 0.095874526 0.84479994
0.013767545 0.10158253 0.84434444
0.017957786 0.10205226 0.84389645
0.022475047 0.10169578 0.8446666
0.025857529 0.10138687 0.84489989
0.017980471 0.10532562 0.84497768
0.044205554 0.039508689 0.84926677
0.048516482 0.03907663 0.84846801
0.052536681 0.03799431 0.84633052
-0.0072683119 0.04107558 0.84900004
0.0025470112 0.043575905 0.84849346
0.0069658528 0.043344837 0.84706682
0.012490348 0.043325439 0.84668332
0.018039683 0.043379944 0.84775549
0.022772076 0.043359488 0.84735543
0.027852044 0.041975893 0.84806669
0.03227945 0.041816268 0.84803343
0.03697791 0.041763771 0.84696674
0.042386014 0.041645326 0.84683806
0.048396952 0.041342139 0.84638333
0.052679777 0.040904153 0.84545678
-0.0020657133 0.04759597 0.84861249
0.0015924305 0.046588074 0.8458668
0.0053738421 0.04560126 0.84506649
-0.0056821536 0.052894916 0.84858751
-0.0027099275 0.051788617 0.84664214
-0.0025147384 0.057543147 0.8473056
0.00064603478 0.058211084 0.84555554
-0.0027143478 0.062502898 0.84778881
0.000646731 0.061422706 0.84646678
-0.0017224415 0.067729257 0.84657335
0.067250706 0.068648599 0.8462534
-0.0017243482 0.072565168 0.84786582
0.00064611965 0.073163159 0.84566653
0.06255798 0.073565178 0.84576666
0.066552348 0.072277017 0.84713107
-0.00093486678 0.075831428 0.84912497
0.0022276584 0.076472558 0.84747368
0.0053738886 0.078613654 0.84507412
0.054291591 0.078699782 0.84600002
0.058008742 0.077699371 0.84652233
0.062285464 0.07725697 0.84742236
0.065449595 0.076472044 0.8474682
0.047928765 0.084903128 0.84508872
0.052952431 0.082499608 0.84664172
0.05760622 0.082073025 0.84832615
0.060851146 0.080602437 0.84946698
0.0069728959 0.087548256 0.8478629
0.043812513 0.088744827 0.84674448
0.047859013 0.08808694 0.84735018
0.052551329 0.086503088 0.84845352
0.056892909 0.085346296 0.84950018
0.0072839893 0.093024038 0.84746629
0.037692182 0.094355151 0.84526652
0.042223677 0.092722371 0.84758681
0.047377661 0.09204676 0.84935033
0.0513133 0.090026937 0.84893364
0.0061736349 0.09768308 0.8468802
0.032579325 0.098710462 0.84553313
0.037170459 0.097879648 0.84684163
0.040863298 0.097606376 0.84892017
0.0079075964 0.10203588 0.84637564
0.011162573 0.10281297 0.84585553
0.023510803 0.10381798 0.84549999
0.027933445 0.10257988 0.84639996
0.032267474 0.10251217 0.84769636
0.03706656 0.10187641 0.84897798
0.013289306 0.10720412 0.8473928
0.017998988 0.10779289 0.84583336
0.022764403 0.10715949 0.84703714
0.027021594 0.10681216 0.84845585
0.031545699 0.10589767 0.84956682
0.013626581 0.11115657 0.84869355
0.0180384 0.11197311 0.8476966
0.02228839 0.11161514 0.84897804
0.018868018 0.11536618 0.8494668
-0.005718396 0.039728884 0.85400003
-0.0022132341 0.039090756 0.85394764
0.0022466946 0.039754082 0.85454184
0.0070221913 0.039722394 0.85386056
0.012592146 0.039712988 0.85365838
0.018577259 0.039345253 0.85430002
0.022954348 0.039337501 0.85413337
0.027735723 0.038944047 0.85421675
0.032511164 0.0389397 0.85411674
0.03724274 0.038889579 0.85303897
0.041687947 0.038721405 0.85283345
0.047657624 0.037396483 0.85153073
-0.00634633 0.043164641 0.85280001
-0.00252886 0.042829264 0.85249591
0.0018410732 0.041586809 0.85139179
0.0069953837 0.041154068 0.85062224
0.012541176 0.041131221 0.85015011
0.018106019 0.041166436 0.85087776
0.022862062 0.041158367 0.85071117
0.026019711 0.041133635 0.85020012
-0.0065025711 0.047576468 0.85231948
-0.0041100355 0.046699785 0.85076255
-0.0076168193 0.051395237 0.85249996
-0.0063464763 0.05711475 0.85267323
-0.0063461051 0.062185429 0.85259932
-0.0041065537 0.064844593 0.85004169
-0.0057163499 0.066711955 0.85369444
-0.0041110017 0.068081163 0.85096246
-0.0033147591 0.072777852 0.85035002
-0.0017318013 0.076924682 0.85246974
0.0022399619 0.078746878 0.85218114
0.065645121 0.079071894 0.85000002
0.005429904 0.081816092 0.85388297
0.062774964 0.082567059 0.85138202
0.065751314 0.083950967 0.85137492
0.0054213293 0.08802934 0.85253453
0.054087903 0.088142343 0.85106665
0.058108013 0.087674364 0.85237139
0.062550224 0.086946078 0.85412395
0.066365093 0.087404385 0.85416675
0.0062137977 0.092781484 0.85249889
0.04345829 0.09489841 0.85013354
0.048239321 0.093628675 0.85056663
0.05333541 0.092216738 0.85275418
0.056940515 0.091112792 0.85417777
0.005420051 0.098315001 0.85233331
0.043097105 0.098536834 0.85082495
0.047275096 0.097424001 0.85223699
0.051586159 0.096857019 0.85344666
0.037135649 0.10444012 0.85056669
0.041967444 0.1030362 0.85202968
0.046198972 0.1019897 0.8538934
0.0086168749 0.10804898 0.85407782
0.010174013 0.10767183 0.85108894
0.028682629 0.10868933 0.85079986
0.032630689 0.10814836 0.85128558
0.037228122 0.10787436 0.85268891
0.040876191 0.10766075 0.85415006
0.012036455 0.11306807 0.85199887
0.023926524 0.11345655 0.85094434
0.027680017 0.1126025 0.85245925
0.032182921 0.11183248 0.8538534
0.037292946 0.11123923 0.85417795
0.01391267 0.11694419 0.85328889
0.017886747 0.11764287 0.85123318
0.022903247 0.11732165 0.85218513
0.026674105 0.11654162 0.85422236
0.018485203 0.12134641 0.85374004
0.022723539 0.12188347 0.85400486
0.0022503382 0.038222153 0.85583335
0.0070617832 0.038345508 0.85859555
0.012177858 0.03768485 0.85812008
0.017449155 0.036703099 0.85758668
0.022762625 0.036940869 0.85692233
0.027858062 0.03672193 0.85797769
0.032654889 0.03671813 0.8578887
0.037495434 0.035958245 0.85882217
0.042272765 0.035934489 0.85825557
0.046659414 0.035702918 0.85652006
-0.0073282393 0.0573375 0.85600007
-0.0073282388 0.060522147 0.85600007
-0.0017462638 0.079068094 0.85854757
0.00065513141 0.07976602 0.85746157
0.0028927899 0.082336023 0.85765725
0.0054451837 0.08443521 0.85628569
0.0038496975 0.087653667 0.85661918
0.0054456373 0.086035229 0.85635722
0.06368421 0.089142345 0.85560036
0.067665398 0.089131907 0.8555001
0.0054459912 0.092410758 0.85641283
0.058637142 0.092865944 0.85568923
0.062923335 0.092379943 0.85610402
0.066904135 0.092365079 0.85596681
0.054120559 0.097120926 0.85577524
0.057889372 0.097444311 0.8572135
0.062620506 0.096110463 0.85741675
0.066760927 0.096258946 0.85754949
0.0054560849 0.10375679 0.85800004
0.048523575 0.10187302 0.85557812
0.051787861 0.10201427 0.85676312
0.056217462 0.10178968 0.85935563
0.0070572942 0.10616782 0.85812509
0.043103565 0.10857026 0.85568017
0.046995085 0.10679827 0.85678524
0.051376853 0.10651796 0.85881108
0.0086423215 0.11155468 0.85660011
0.010243079 0.1147773 0.8568669
0.03298692 0.1142789 0.85611689
0.03742449 0.11402398 0.857189
0.042241681 0.11248356 0.85759997
0.046898637 0.11162742 0.85868335
0.011311471 0.11853993 0.85717791
0.028321058 0.11835542 0.85584474
0.032650381 0.11808638 0.8577407
0.037292361 0.11785889 0.85940963
0.042341534 0.11514936 0.85964447
0.045563031 0.11518803 0.8599335
0.012829132 0.12271263 0.85885334
0.016620645 0.12332772 0.85615253
0.023793787 0.12416676 0.85566688
0.027847022 0.12285438 0.85760742
0.031636927 0.12201604 0.8592
0.017773639 0.12736282 0.85789335
0.023027085 0.12752414 0.85682976
0.027692627 0.12765181 0.85903335
0.019091431 0.13112342 0.85953343
0.02267923 0.13141406 0.85881662
0.034505572 0.028949236 0.86416686
0.036924791 0.028950352 0.86420017
0.043370299 0.028949795 0.86418343
0.046788927 0.028369943 0.86282969
0.0087153008 0.033758752 0.86383349
0.012333086 0.033340171 0.86339176
0.017651118 0.03266231 0.86318892
0.022781277 0.03331114 0.86265838
0.028339747 0.033078991 0.8628934
0.033079349 0.032578237 0.86299527
0.037673306 0.032115057 0.86288524
0.042492051 0.032109026 0.86271858
0.047254231 0.032064691 0.86152059
0.0038648925 0.036808476 0.86000001
0.0074145496 0.036271956 0.86247003
0.011502519 0.035670813 0.86150008
0.015110985 0.035252381 0.86106688
0.023925146 0.035225086 0.86040026
0.027931742 0.035218716 0.86024469
0.032736938 0.035210527 0.86004466
-0.0041546617 0.078402385 0.86000001
-0.0022906812 0.082101546 0.8624413
0.0014600612 0.084087439 0.86087501
-0.00095158251 0.085226223 0.86430776
0.001865247 0.088290632 0.8628304
0.0038818645 0.093208373 0.86377668
0.063610151 0.098683491 0.86108017
0.0054719825 0.1016576 0.8605001
0.057915628 0.10355944 0.86077791
0.062522762 0.10258668 0.86157227
0.066978142 0.10304543 0.86205482
0.0071056099 0.10930397 0.86400002
0.053105485 0.10837376 0.86086684
0.056958098 0.10750797 0.8624779
0.061849311 0.10762281 0.86340004
0.066500537 0.10745723 0.86368638
0.0087068919 0.1139935 0.86300004
0.048774395 0.11359721 0.86000019
0.052049451 0.11213994 0.86108899
0.056527 0.11199418 0.86408907
0.061944943 0.11100528 0.86473352
0.0087030083 0.11714923 0.86261529
0.037547003 0.1199963 0.86000019
0.042381182 0.11765769 0.86044455
0.047432706 0.11714965 0.86111677
0.051689629 0.11694252 0.86275715
0.0086991657 0.12271288 0.86223418
0.010684641 0.12363168 0.86025131
0.033269923 0.12372912 0.86000019
0.037809078 0.12215917 0.86074305
0.042468026 0.1219079 0.86220002
0.047355387 0.12126902 0.86336118
0.051428348 0.12057769 0.86416686
0.0078898752 0.12664062 0.86166883
0.012129867 0.12771405 0.86118323
0.015895978 0.12960993 0.86010015
0.029552648 0.12970535 0.86073357
0.032765169 0.12811202 0.86077791
0.03763682 0.1266972 0.86205184
0.041550178 0.12654324 0.86318672
0.0087061143 0.13003537 0.8629232
0.011611158 0.13110061 0.86359346
0.017208204 0.13336295 0.86160004
0.023453461 0.13387504 0.86077356
0.027786104 0.13289374 0.86193341
0.0328325 0.13158113 0.86253333
0.037410147 0.13087824 0.86424685
0.018044602 0.13794395 0.86319005
0.023177488 0.13798195 0.86242223
0.027641498 0.13657899 0.86370015
0.018402228 0.14157905 0.86480016
0.021608464 0.14145172 0.86402243
0.023053149 0.028533278 0.86781693
0.028177192 0.029072067 0.86783361
0.0326382 0.028042501 0.86595094
0.038264241 0.027839238 0.86715847
0.042262297 0.02781097 0.86626786
0.007120139 0.033834301 0.8657667
0.015186669 0.030599622 0.86537933
0.023016118 0.031173354 0.86641675
0.027748147 0.031061821 0.86705852
0.032144886 0.03061096 0.86570019
-0.0041860631 0.083830535 0.86650002
-0.0023041617 0.087191619 0.86785537
0.00066127314 0.086953796 0.86549997
-0.0013627763 0.09179014 0.86937022
0.0013097065 0.092327796 0.86758578
0.0020801204 0.097164035 0.86862153
0.0032080268 0.1022443 0.86840981
0.0039089341 0.10680173 0.86979997
0.0055175559 0.10653979 0.86766672
0.0071206875 0.11114652 0.86583334
0.058273446 0.11386467 0.86608905
0.062113296 0.11372756 0.86708897
0.066183306 0.11296826 0.8674472
0.05397407 0.11844799 0.86622596
0.057148367 0.11773968 0.86842084
0.062266361 0.11643233 0.86922216
0.066312052 0.11642042 0.86913329
0.04750732 0.12407444 0.86613345
0.052642703 0.12306061 0.86709499
0.055782594 0.12209324 0.86923331
0.043885525 0.12773705 0.86638337
0.047632374 0.12763348 0.86841851
0.052329794 0.12753101 0.86909997
0.012789782 0.13389334 0.86711681
0.032969981 0.13374154 0.86613345
0.03827912 0.13355112 0.86750829
0.042769987 0.13246587 0.86832595
0.046606448 0.13155384 0.86942226
0.013617839 0.13730049 0.86825562
0.015183524 0.13842566 0.86520016
0.029211888 0.1380948 0.86648893
0.033047155 0.13728879 0.86818147
0.03774669 0.13724969 0.86921668
0.041735638 0.13638476 0.86928892
0.01364311 0.14079045 0.86986661
0.016305853 0.1425951 0.86771679
0.022961829 0.14313608 0.86643344
0.028183337 0.14209916 0.86797053
0.032764126 0.14134015 0.86926669
0.017327132 0.14683245 0.86868572
0.022521241 0.14696886 0.86812514
0.027144521 0.14608723 0.86928892
0.018501529 0.15042992 0.8694666
0.021743819 0.15082569 0.86941659
-0.0025810436 0.093093045 0.87021339
-0.001772806 0.097284384 0.87150359
-0.00096164196 0.10237595 0.8734445
0.00066530547 0.10206234 0.87077785
-0.0009611526 0.10557071 0.87300003
0.0022917152 0.10704205 0.87174672
0.0055355737 0.10850698 0.87050003
0.0039239139 0.11208535 0.87313336
0.0059505999 0.11231919 0.87180012
0.0071845618 0.11620637 0.87360007
0.05912219 0.11986504 0.87066686
0.062380299 0.11907516 0.8708114
0.066936269 0.11925258 0.87092435
0.0071746018 0.12280332 0.8723889
0.057972185 0.12335593 0.87080973
0.062216591 0.12279626 0.87176198
0.067398161 0.1225793 0.87269139
0.070684195 0.1226344 0.87307996
0.054242466 0.1295628 0.87053359
0.057403658 0.12800081 0.87229985
0.062780514 0.12696558 0.87354982
0.067175046 0.12585595 0.87402648
0.070788674 0.12525441 0.87437022
0.0088262083 0.13345642 0.87482625
0.010430362 0.1347297 0.87253338
0.048300449 0.13337238 0.8707335
0.05269165 0.13298589 0.87173343
0.057291932 0.13165918 0.8736999
0.061038997 0.13020773 0.87486666
0.01140186 0.13760629 0.87224662
0.039627429 0.13926834 0.87046695
0.043437023 0.13825777 0.87090021
0.047825005 0.13787945 0.87191856
0.051850118 0.13788255 0.87399322
0.012054169 0.14329085 0.87242377
0.033548869 0.14375973 0.87070012
0.038038656 0.14263576 0.87125206
0.042965874 0.14280933 0.87230742
0.0476171 0.14212182 0.87407321
0.013037095 0.14743319 0.8727867
0.015275366 0.14816871 0.87043339
0.028801039 0.14788549 0.87035561
0.033185378 0.1475926 0.87180746
0.038117807 0.14699115 0.87305546
0.041956078 0.14686058 0.87388879
0.016717255 0.1526233 0.87160015
0.021773648 0.15322192 0.87062681
0.027487131 0.15241164 0.87154442
0.032857265 0.1516006 0.87388325
0.01750154 0.15709758 0.87356108
0.0218034 0.15732312 0.87180746
0.026522817 0.15738259 0.87326241
0.030028742 0.15701252 0.87459993
-0.0026041386 0.10454211 0.87800002
-0.0019469811 0.10801963 0.87705004
0.00066948641 0.10840895 0.87625003
-0.0013767618 0.11238593 0.8786667
0.0014864127 0.11254246 0.87670279
0.0027162023 0.11638619 0.87802505
0.0059837177 0.11784367 0.87669998
0.0055808825 0.12408807 0.87762505
0.068052724 0.12832098 0.87587506
0.070919238 0.12792951 0.87598336
0.058945339 0.13310479 0.87607783
0.063095637 0.13250436 0.87794179
0.067819446 0.13233155 0.87815207
0.071049213 0.1322466 0.87758905
0.0088638701 0.13647857 0.87855923
0.054528024 0.13757055 0.87511671
0.057853758 0.13718021 0.87913322
0.063038386 0.13588263 0.87999976
0.068352595 0.13625324 0.87974977
0.071165271 0.1373678 0.87902236
0.010475188 0.14101341 0.87628335
0.048017681 0.14413382 0.87543339
0.053268701 0.14229397 0.87789178
0.056452144 0.14074022 0.87966657
0.010478383 0.14758053 0.87655044
0.036570024 0.14975962 0.875
0.044227507 0.14772844 0.87582231
0.048346572 0.14716049 0.87769604
0.052741315 0.14600319 0.87933326
0.012935125 0.15172556 0.87695831
0.0327699 0.15413539 0.87520003
0.037921917 0.1521032 0.8779543
0.042761229 0.15212639 0.87926656
0.047267199 0.15187472 0.8797065
0.013776074 0.15686886 0.87834454
0.016213959 0.15912899 0.87730014
0.028426835 0.15961681 0.87550002
0.032069713 0.15790729 0.87686014
0.036533356 0.15678036 0.87900001
0.017386397 0.16215971 0.87868673
0.02192444 0.16309391 0.87667423
0.026628574 0.16282071 0.87771928
0.03202277 0.16208699 0.87895411
0.035671536 0.16092207 0.87966651
0.018718578 0.16528544 0.87966645
0.021986267 0.16764104 0.87914437
0.026908537 0.1665698 0.87924433
0.030214144 0.16534807 0.87999976
0.022826914 0.17024612 0.87993312
-0.0026100704 0.10314327 0.88000005
-0.00097073114 0.11728522 0.88170004
0.0014953322 0.11806352 0.88139999
0.0023261821 0.12016486 0.88480008
0.0072474764 0.12296132 0.88125008
0.0072733816 0.13491692 0.88440013
0.0088985842 0.13947287 0.88199991
0.059760459 0.13916713 0.88006634
0.063118525 0.13816254 0.88111407
0.067675509 0.13858816 0.88054645
0.0089072818 0.14453611 0.88286203
0.058399301 0.14282905 0.88119161
0.063005656 0.14261581 0.88240838
0.068004422 0.14290687 0.88293457
0.071392857 0.14272757 0.88183331
0.0089034541 0.14611556 0.88248289
0.053547125 0.14840034 0.88045323
0.057820853 0.14755569 0.88267148
0.060854644 0.14719799 0.88405013
0.069937192 0.14640357 0.88422227
0.010960927 0.15310943 0.88258314
0.048632953 0.15302333 0.88066643
0.052873783 0.15245549 0.88252383
0.055093996 0.15297905 0.88420016
0.011779099 0.15714999 0.88222486
0.038428936 0.15883628 0.88019967
0.041753024 0.15735076 0.88104433
0.046573095 0.15747198 0.88287085
0.050141208 0.15625095 0.88410014
0.013185014 0.16224307 0.88269329
0.015457878 0.16304736 0.88083315
0.037187494 0.16274707 0.88187426
0.041462239 0.16150652 0.88360846
0.013856411 0.16599946 0.88346672
0.016914848 0.16755527 0.88191658
0.027766336 0.16870508 0.88043308
0.031930905 0.16737816 0.88206661
0.036091801 0.16595873 0.88325012
0.018789275 0.17248081 0.88298893
0.02181535 0.17269251 0.8816762
0.026549581 0.17222492 0.8828761
0.030334316 0.17093624 0.8835001
0.01882072 0.17605901 0.88446683
0.021782745 0.17665896 0.88417351
0.025433253 0.17615852 0.88496679
-0.00097656634 0.12046364 0.88700002
0.0023321237 0.12235012 0.88720626
0.0056366832 0.12285565 0.88640004
0.0028891787 0.12678236 0.88888335
0.0056489767 0.12808084 0.88833332
0.0028860169 0.13243677 0.88800007
0.0060499534 0.13234887 0.88650006
0.0035787523 0.13677938 0.88847888
0.0062993569 0.13724697 0.88669825
0.0075746872 0.14201163 0.88761288
0.066707656 0.14490789 0.88513339
0.0089692082 0.14884835 0.889
0.062906563 0.14777108 0.88584441
0.066848584 0.14768837 0.88699436
0.070233271 0.14867514 0.88796538
0.057217866 0.15303579 0.88643324
0.061972823 0.15202779 0.88824433
0.066799641 0.15196683 0.88910002
0.070303373 0.15047695 0.88885188
0.0089723086 0.15717094 0.88930732
0.01059513 0.15911588 0.88631642
0.04855999 0.15976265 0.88533342
0.051906142 0.15797341 0.88607216
0.056676202 0.15666331 0.88830662
0.060430467 0.15562639 0.88993359
0.0085401759 0.16220531 0.88743937
0.011153013 0.16334613 0.88690907
0.03864431 0.16466616 0.8851335
0.041976884 0.16396332 0.88578331
0.046977233 0.16246761 0.88661081
0.052236404 0.16213518 0.88817489
0.055397257 0.16126338 0.88906664
0.0089692092 0.16538547 0.88899994
0.012258342 0.16752081 0.88717753
0.033702116 0.16965677 0.88540012
0.037279196 0.168653 0.88630456
0.042293139 0.16722122 0.88745683
0.047088061 0.16698414 0.88870358
0.05126366 0.16626237 0.88926673
0.01338391 0.17191839 0.88857776
0.016368112 0.17300121 0.88565558
0.028765591 0.1738795 0.88593328
0.0323034 0.17340337 0.88665819
0.037093103 0.17253591 0.88749975
0.041921198 0.17178936 0.88897502
0.045455344 0.17038491 0.88920009
0.013957312 0.17548521 0.88989997
0.017205974 0.17779593 0.88628888
0.022569723 0.17924044 0.88595837
0.027344914 0.17836618 0.88673311
0.032144222 0.17757976 0.88795537
0.037153043 0.17695118 0.88894814
0.040472642 0.17614123 0.88903332
0.017521502 0.18178181 0.88831091
0.022186352 0.18318968 0.88712567
0.027172616 0.18251233 0.88784432
0.031938091 0.18141329 0.88881892
0.036332924 0.18030261 0.88916665
0.018509852 0.18654391 0.88935006
0.022227367 0.18766151 0.88876659
0.026734252 0.18665199 0.88901901
0.030552924 0.18541053 0.88986671
0.018927114 0.19029097 0.8894667
0.022232667 0.19018638 0.88897777
0.026390227 0.19027671 0.88940001
0.0012335391 0.12862287 0.89017779
0.0015099224 0.13080449 0.89000005
0.0023428765 0.13843399 0.89115
0.0035953848 0.1424249 0.89278167
0.0056671668 0.14341444 0.89119399
0.0066757975 0.14750153 0.8928563
0.0085916454 0.15324098 0.89291686
0.068760045 0.1540402 0.89033347
0.071245596 0.15320094 0.89026821
0.0073306966 0.15753463 0.89136928
0.058278669 0.1585518 0.89086694
0.062372867 0.15767881 0.89100444
0.067164235 0.15750496 0.89119273
0.071352698 0.15757824 0.89160508
0.057529192 0.16264553 0.8921113
0.06233051 0.16204281 0.89336133
0.067380942 0.16217077 0.89406681
0.071274497 0.16189843 0.89409703
0.010644282 0.16896395 0.89042854
0.052898206 0.16820209 0.89165354
0.056071948 0.16741356 0.89320022
0.043882348 0.17403163 0.89093357
0.047271788 0.17261706 0.89218128
0.052053679 0.17202534 0.89428693
0.013970559 0.17813772 0.89074445
0.042729028 0.17771649 0.89160025
0.04627971 0.17693615 0.89444476
0.015643604 0.18324672 0.89141661
0.033069871 0.18390661 0.89060014
0.037495207 0.18289642 0.89143831
0.041492954 0.18194047 0.89314198
0.016314751 0.1878064 0.89182007
0.028920365 0.18806988 0.8907001
0.032311212 0.18763764 0.89258128
0.037365709 0.18627636 0.89402246
0.017600952 0.19255757 0.89229459
0.022292027 0.1931829 0.89135575
0.027326496 0.19296451 0.89290029
0.031515133 0.19117524 0.89360029
0.019040613 0.19642554 0.89480007
0.022356257 0.19623773 0.89394456
0.02571203 0.19639631 0.89466679
0.0012433672 0.14301175 0.89733678
0.0031957005 0.14693938 0.89754593
0.0056945495 0.14993669 0.89550012
0.0040380871 0.1504454 0.89853853
0.0065417308 0.15272707 0.89721453
0.0040329201 0.15609492 0.89738888
0.0057141799 0.1571418 0.89858699
0.0073620714 0.16237274 0.89518416
0.059149336 0.16495958 0.89566666
0.060815241 0.1649473 0.89560002
0.071666598 0.16410241 0.89553332
0.05862629 0.1678322 0.89617777
0.062798128 0.16709709 0.89707512
0.067624912 0.16693135 0.89730388
0.071850054 0.16702598 0.89781678
0.049104828 0.17487812 0.89526683
0.052477829 0.17415538 0.89583331
0.057783164 0.17211303 0.8971293
0.062432747 0.17164603 0.89827168
0.067904778 0.17190816 0.89823776
0.071055911 0.17214178 0.89836693
0.047877677 0.17830168 0.89573336
0.052721281 0.17698 0.89642084
0.057055697 0.17647652 0.89775008
0.043008685 0.18331383 0.89580005
0.047722436 0.18204619 0.8967334
0.052611209 0.18211557 0.89810395
0.055978794 0.18133962 0.89840031
0.034097988 0.18997954 0.89579999
0.037433218 0.18828052 0.89564449
0.042700786 0.1870314 0.89664173
0.047396969 0.18700027 0.89849609
0.051833734 0.18567225 0.89915025
0.014055019 0.19088238 0.89612973
0.015722783 0.19334006 0.89592868
0.029081622 0.19494957 0.89566666
0.032871343 0.19304667 0.89650005
0.03727619 0.19155808 0.89761442
0.041466676 0.19113104 0.89860034
0.01408946 0.19636406 0.89832544
0.017082009 0.19727671 0.89715737
0.02240069 0.1982917 0.89571112
0.027757714 0.19770113 0.89605331
0.03230758 0.19697466 0.89825028
0.019104449 0.20042422 0.89780027
0.022694265 0.20163767 0.89788586
0.027247289 0.20168768 0.89810973
0.0015283599 0.14751266 0.90104765
0.0032095436 0.15261355 0.90147698
0.072944567 0.1692939 0.90100002
0.063663833 0.17421567 0.90045035
0.066164263 0.17416731 0.90020025
0.07340607 0.17232187 0.90150005
0.058912665 0.1787032 0.90055579
0.0628637 0.17767745 0.90101516
0.067942135 0.1777754 0.90150768
0.071934201 0.17682709 0.90237588
0.014162775 0.18310775 0.90300012
0.058328599 0.18302543 0.90140975
0.062766656 0.18264298 0.9030714
0.067220904 0.18145141 0.90311658
0.014183885 0.18506294 0.90434635
0.04940284 0.1893433 0.90070039
0.053080238 0.1884208 0.90200967
0.057527862 0.18688031 0.90296674
0.06307862 0.18501256 0.9041
0.014182223 0.19008745 0.90424013
0.038497604 0.19443446 0.9010002
0.043287579 0.19345205 0.90162235
0.047783844 0.19245932 0.9018383
0.052606452 0.19234321 0.90377331
0.05633191 0.19005102 0.90406668
0.014172681 0.19500233 0.90363163
0.015844489 0.19987507 0.90286368
0.03429592 0.19946246 0.90100032
0.03749349 0.19782166 0.9021126
0.041697491 0.19723725 0.90359998
0.047093991 0.19608524 0.90475005
0.014193164 0.20033418 0.90493751
0.017533878 0.20247141 0.90320766
0.021692304 0.20448308 0.900967
0.028414333 0.20448309 0.900967
0.032433301 0.20277625 0.90175849
0.03746257 0.20223853 0.90442008
0.019234961 0.2059975 0.90393329
0.022793489 0.20754671 0.90179068
0.02737863 0.20769224 0.90242398
0.032307405 0.20688617 0.90414166
0.022595041 0.21065263 0.90346664
0.027103722 0.21133254 0.90397781
0.011280476 0.17784831 0.90831542
0.073430337 0.17885727 0.90700006
0.0091771334 0.18444782 0.90960878
0.011866525 0.18238887 0.90778303
0.068234958 0.18303323 0.9054001
0.071354076 0.18275191 0.90748596
0.0091806427 0.18621105 0.90995646
0.01297325 0.1871258 0.90823662
0.05898514 0.1887652 0.90596676
0.063223273 0.1874053 0.90617794
0.067174114 0.18761015 0.90736216
0.070986964 0.18754148 0.90820032
0.054760624 0.19382097 0.90596676
0.058208566 0.19235881 0.90701926
0.062198609 0.19298719 0.90883827
0.066825956 0.19282258 0.90920001
0.071050942 0.19278423 0.90902239
0.044034272 0.19820078 0.90544444
0.048274819 0.19771709 0.9058001
0.053132787 0.19741887 0.90700763
0.057025366 0.19729701 0.90839195
0.015917808 0.20417456 0.90704173
0.039537888 0.20300783 0.90560007
0.04292715 0.20221788 0.90583336
0.048035409 0.20238802 0.90659267
0.0526703 0.20230967 0.90876698
0.056691196 0.20141807 0.90983337
0.017596612 0.20740232 0.90639818
0.033910085 0.20835538 0.90565562
0.037872776 0.20734963 0.90616673
0.043005638 0.20765042 0.90748173
0.047901511 0.20742986 0.90862888
0.018898953 0.2124256 0.90805024
0.022319954 0.2133799 0.90600681
0.028392578 0.21296148 0.90566003
0.032831714 0.21259072 0.90695214
0.037753522 0.21271428 0.90837955
0.042650409 0.21178861 0.90894192
0.019364053 0.21668996 0.90999991
0.02290413 0.21755053 0.90740854
0.027770326 0.21775354 0.90737438
0.032052685 0.21726391 0.90885866
0.0091928495 0.17459409 0.91116667
0.0091849156 0.17783041 0.91038013
0.0086216843 0.18241458 0.91071934
0.010879327 0.18285269 0.91009086
0.0079314895 0.18720266 0.9127298
0.011732494 0.18800783 0.91046047
0.0092209969 0.1904299 0.91395658
0.011877039 0.19226535 0.91229975
0.010918995 0.1954132 0.91340917
0.058403041 0.19808392 0.91006678
0.061908711 0.19758983 0.91168886
0.067163534 0.19804478 0.91378897
0.071133412 0.19774477 0.91371131
0.057261143 0.202353 0.91214174
0.061734278 0.20135455 0.91415346
0.065543175 0.20085239 0.91496694
0.016039316 0.20913345 0.91396576
0.048215788 0.20991883 0.90999997
0.052760504 0.20739099 0.91228008
0.056106605 0.20661984 0.91412514
0.017667534 0.21331216 0.91003329
0.043994993 0.21340987 0.91044992
0.047991175 0.21245933 0.91218007
0.051844507 0.21228844 0.91412801
0.018288201 0.21735899 0.91281128
0.034666423 0.21771227 0.91073334
0.0078249713 0.19304973 0.91697907
0.0083847893 0.195914 0.91575015
0.011821557 0.19797832 0.91742229
0.073856324 0.19843096 0.91754174
0.058723904 0.20427877 0.91506678
0.06266392 0.20418042 0.91653359
0.067427926 0.20309179 0.91739041
0.071795791 0.20249191 0.91854155
0.057518512 0.20837301 0.91623354
0.062343996 0.20751931 0.91810542
0.067132413 0.20691161 0.91919994
0.071035758 0.20533544 0.91980004
0.016098015 0.21160521 0.91731048
0.052752614 0.21449988 0.91510034
0.057421308 0.21216016 0.9176001
0.061297268 0.21097784 0.91953325
0.074546233 0.20298536 0.92078334
0.068826176 0.20842142 0.92083341
0.073007584 0.20777558 0.92303342
0.016153406 0.21404548 0.92046666
