# .PCD v0.7 - Point Cloud Data file format
VERSION 0.7
FIELDS x y z
SIZE 4 4 4
TYPE F F F
COUNT 1 1 1
WIDTH 1259
HEIGHT 1
VIEWPOINT 0 0 0 1 0 0 0
POINTS 1259
DATA ascii
0.027362593 0.059444148 0.81920016
0.028118249 0.062473197 0.81895572
0.031580422 0.062523447 0.81961662
0.028121021 0.067050219 0.81903726
0.031201299 0.066341981 0.8197
0.028141502 0.070910864 0.81963348
0.019089328 0.058316123 0.82480007
0.022262011 0.05764531 0.82321209
0.027464485 0.057040632 0.82225221
0.032839082 0.057380576 0.82242769
0.037480958 0.05820914 0.82330364
0.01909087 0.061389744 0.82486683
0.02211161 0.062771231 0.82285905
0.025105679 0.062578082 0.82033342
0.033689816 0.062608965 0.82073319
0.037437301 0.062730722 0.82232577
0.022876998 0.067355067 0.82275534
0.025106361 0.067158498 0.82035559
0.033215757 0.06742125 0.82090455
0.037283752 0.067196742 0.82316667
0.023664512 0.072004922 0.82342225
0.027478397 0.072607689 0.82091266
0.032628935 0.071684279 0.82194144
0.035976745 0.07129202 0.82403338
0.027503779 0.076217823 0.8234334
0.031337056 0.07505358 0.82326669
0.01351624 0.05295385 0.82893354
0.017617483 0.052376356 0.82794076
0.022018028 0.052789249 0.82751429
0.02730923 0.053229444 0.82751429
0.032870993 0.052770127 0.82807523
0.037689511 0.052373916 0.82790387
0.042364098 0.052425966 0.82871872
0.045495763 0.054017246 0.82946676
0.012989983 0.057023149 0.82830381
0.017194338 0.057067387 0.82616663
0.020647591 0.055301212 0.82560003
0.0375739 0.055284839 0.82535571
0.042128596 0.057480637 0.82684237
0.046272632 0.057106882 0.82952231
0.013662392 0.061689012 0.82887644
0.017256685 0.062925495 0.82711852
0.042450063 0.062807091 0.82736003
0.045495763 0.06018912 0.82946676
0.01781735 0.067615204 0.82829183
0.020645369 0.067580797 0.82551122
0.039159413 0.069184586 0.8263334
0.041581105 0.067055874 0.82851684
0.019185759 0.071718201 0.82896698
0.021453774 0.072321318 0.82703334
0.03450818 0.073736459 0.82566679
0.037661653 0.072342739 0.82728004
0.022560092 0.076104537 0.82802677
0.027124578 0.078063563 0.82594669
0.033215374 0.077124037 0.82698333
0.036184859 0.075558044 0.82880026
0.027466657 0.081991427 0.82864875
0.031292941 0.081733026 0.82887799
0.013864094 0.049680084 0.83436668
0.017751278 0.049668837 0.83417779
0.022431808 0.049699273 0.83468884
0.027087206 0.049672808 0.83424443
0.03250486 0.049631454 0.83355004
0.03824519 0.048993304 0.83326656
0.042274036 0.048980772 0.83305329
0.046528224 0.049664207 0.83409989
0.009339557 0.053031363 0.83338654
0.0120028 0.051551413 0.83117771
0.023097651 0.051002949 0.83063334
0.026983431 0.051028203 0.83104438
0.031630237 0.051024105 0.83097774
0.047386475 0.052445538 0.83207506
0.0091788862 0.057344999 0.83297759
0.048779726 0.057326574 0.83271122
0.0099498052 0.060397133 0.83233327
0.012261351 0.063408561 0.83121663
0.046738714 0.062354214 0.83189529
0.013502955 0.067728318 0.83272374
0.016130572 0.069564134 0.83086658
0.043100983 0.068648107 0.83100003
0.04635999 0.067335591 0.83387983
0.014646906 0.072984345 0.83462197
0.017260343 0.072977982 0.83201903
0.039375812 0.073431849 0.83090007
0.042604651 0.072878741 0.83340734
0.018122721 0.076371476 0.83346653
0.021978628 0.078592598 0.83236665
0.038124409 0.077700198 0.83315831
0.041892894 0.076098934 0.83473325
0.022587735 0.081978388 0.83333319
0.025414772 0.084203377 0.83043337
0.03317887 0.083037026 0.83091432
0.036793154 0.081831068 0.83381659
0.023576954 0.086495668 0.83391666
0.026995782 0.088173151 0.8314445
0.032521829 0.087680392 0.83241546
0.036417689 0.08690653 0.83413321
0.023991503 0.090080999 0.83479983
0.027264897 0.092875853 0.83374166
0.032724455 0.092919335 0.83453834
0.0079416614 0.049427677 0.83886677
0.012044177 0.048006661 0.83768666
0.017835477 0.04772193 0.83816004
0.022530606 0.047579229 0.83838892
0.027412232 0.04718842 0.83739048
0.032041583 0.047079764 0.83722961
0.037187304 0.047059834 0.83746672
0.043421213 0.046731569 0.83718663
0.047646739 0.047480896 0.83667493
0.052240867 0.049139779 0.83840013
0.05619403 0.049959935 0.83906686
0.0037692182 0.053058844 0.83871126
0.0062972107 0.052367859 0.83703327
0.052120619 0.052917063 0.83646655
0.056179941 0.053068373 0.83885574
0.0061086551 0.057682514 0.83787781
0.05215339 0.057620659 0.83697772
0.055942338 0.056732431 0.8392002
0.007778571 0.061890393 0.83758098
0.010003201 0.063834451 0.83679992
0.048941161 0.062955879 0.83546644
0.051724207 0.061881989 0.83846682
0.0084684528 0.066372737 0.83936679
0.010637415 0.067325719 0.83762676
0.048374943 0.067851976 0.83643991
0.050743099 0.066383347 0.83950007
0.012353838 0.072460555 0.83755559
0.047648408 0.072911829 0.83736002
0.014312687 0.077550411 0.83781672
0.017491424 0.078772016 0.83673334
0.043002848 0.078295045 0.83685714
0.046605211 0.07767228 0.83829337
0.014729588 0.081202246 0.83933342
0.018020537 0.082414143 0.83775836
0.020887677 0.083909646 0.83519971
0.03900259 0.082762979 0.83617324
0.042415582 0.082454897 0.83845717
0.019401003 0.086557552 0.83826679
0.021540696 0.087451898 0.83638656
0.038904503 0.087249041 0.83742231
0.041327707 0.085858949 0.83906674
0.022815276 0.09160722 0.83739984
0.025585145 0.094875835 0.83599991
0.037953854 0.092195384 0.83707988
0.02765185 0.097989157 0.83791417
0.032411557 0.097915262 0.83659381
0.036858242 0.097729683 0.83824444
0.028838491 0.10157199 0.83993334
0.032238025 0.10205001 0.83872014
0.035855629 0.10147928 0.8391667
0.0077336193 0.044006679 0.84463322
0.012450108 0.043970209 0.84393334
0.017979484 0.044022311 0.84493327
0.022707045 0.044022311 0.84493327
0.027366837 0.043914642 0.8428669
0.032086946 0.043918114 0.84293348
0.036866181 0.043994527 0.84440017
0.042364512 0.0439815 0.84415019
0.047554716 0.043347128 0.8440401
0.057379279 0.044025782 0.84499991
0.062418334 0.04339426 0.84494656
0.066560179 0.042708259 0.8448475
-0.00093025219 0.048737511 0.84493321
0.0024411189 0.047526371 0.84337145
0.0067255325 0.046788469 0.8416999
0.012418251 0.045424059 0.84178334
0.017918449 0.045830119 0.84206676
0.022637948 0.045456141 0.84237784
0.026513036 0.045365606 0.84069979
0.033591192 0.045396183 0.84126651
0.037537076 0.045425866 0.84181666
0.042182215 0.045354813 0.84049994
0.047692198 0.045376405 0.84090006
0.052530993 0.046275321 0.84305555
0.057230089 0.047044143 0.84280014
0.062006976 0.047091864 0.84362978
0.067380816 0.047293246 0.84465975
-0.0014544908 0.052606929 0.84397775
0.0016885637 0.052187964 0.84145188
0.058661021 0.052408673 0.84078324
0.061797891 0.05231607 0.84272122
0.067216307 0.05128606 0.84483957
-0.00093017874 0.056591753 0.84486657
0.0022121756 0.05796859 0.84202969
0.057667341 0.05845499 0.84152222
0.061429907 0.057184942 0.8443467
0.002413596 0.062592372 0.84365839
0.0058714482 0.063643612 0.84113318
0.053441267 0.063625127 0.84088892
0.057235852 0.062730581 0.84286672
0.060502488 0.061287243 0.84460008
0.0037968815 0.066807359 0.84486657
0.0064776097 0.067617439 0.84237152
0.052926295 0.067602985 0.84219044
0.056174193 0.067183219 0.84464997
0.0074601807 0.071668923 0.84351116
0.010051017 0.071960397 0.84079981
0.052319724 0.071935169 0.84280002
0.0085195694 0.076198325 0.84443331
0.011441414 0.077368252 0.84219998
0.048755359 0.078255996 0.84122223
0.051771577 0.076112509 0.84348333
0.012704701 0.08248201 0.84355563
0.016327314 0.084492356 0.84099972
0.044604018 0.08379373 0.84183329
0.047292706 0.082350992 0.84310013
0.014027609 0.086387619 0.84423327
0.017465802 0.087942801 0.84193331
0.043062896 0.087763086 0.84236199
0.046347741 0.086466081 0.84499991
0.018889194 0.092259668 0.84334671
0.021610631 0.093597077 0.84315568
0.042347413 0.09261971 0.84377789
0.023115035 0.097066507 0.84344763
0.025740212 0.09857998 0.84106654
0.039468005 0.097413167 0.84111667
0.041970406 0.096975058 0.84411681
0.023870068 0.10170592 0.84428334
0.026830643 0.1024035 0.842489
0.031615704 0.10442632 0.84089988
0.037745703 0.10241289 0.84203345
0.041619938 0.10061287 0.84499991
0.024284655 0.1053284 0.84499991
0.02740874 0.10679615 0.84417045
0.032092705 0.10823212 0.84312612
0.036400598 0.10722619 0.84402877
0.028487137 0.11056796 0.84499997
0.032164332 0.11161589 0.84499997
0.053628247 0.034717426 0.84800005
0.044980213 0.039493185 0.84893358
0.047334939 0.039476123 0.84856683
0.053398188 0.038421649 0.84852982
0.05751827 0.037829686 0.84704822
0.06189872 0.038748074 0.84646332
0.06606292 0.039319824 0.84520686
-0.010435104 0.041075584 0.84900004
-0.0017280057 0.044270642 0.84970009
0.0025442548 0.043544281 0.84788018
0.00696701 0.042294446 0.84708905
0.012496005 0.041767862 0.84705013
0.018035797 0.042318657 0.84757787
0.022474106 0.041975275 0.84805357
0.027514922 0.041786272 0.84743357
0.031944394 0.041949 0.8475334
0.037034791 0.041827824 0.8482666
0.042538811 0.041797802 0.84764999
0.048437871 0.04137665 0.84708321
0.052764144 0.042543877 0.84681487
0.05747091 0.042323899 0.84634995
0.061760105 0.041306779 0.84564996
0.066877842 0.04248146 0.84553319
-0.0056889346 0.048216172 0.84960008
-0.0027138037 0.047132771 0.84789187
0.0014343506 0.045639023 0.84576666
0.070041992 0.045633618 0.84566671
-0.0056849904 0.052132357 0.84901142
-0.0036959918 0.051591776 0.84661674
0.06841483 0.05306717 0.84505004
-0.0026890216 0.057597518 0.84682232
0.063023284 0.058290582 0.84671658
0.067586392 0.056610417 0.84726071
-0.0020637312 0.062626712 0.84754306
0.00064576312 0.064475276 0.84519994
0.062304728 0.062635645 0.8476668
-0.0014631645 0.066877998 0.84908915
0.0017734925 0.067942239 0.84640968
0.058418144 0.068026938 0.84634668
0.060798604 0.067903452 0.84873366
0.0027580301 0.072102673 0.84861135
0.0059044226 0.073444568 0.84588891
0.054240264 0.073908657 0.84519994
0.057362214 0.072348163 0.84763348
0.0038178535 0.075867869 0.84953344
0.0067017949 0.077219859 0.84702235
0.053139571 0.077563435 0.84648335
0.056594249 0.076344907 0.84897804
0.0081590982 0.081640385 0.84793353
0.010634854 0.083390154 0.84568888
0.04901458 0.083389819 0.84568864
0.051912129 0.081760444 0.84836024
0.0085723717 0.085363045 0.84966677
0.012492272 0.087849855 0.84698349
0.04478946 0.089645185 0.84533316
0.048274133 0.087921791 0.84767079
0.013711306 0.091613397 0.84900022
0.016841248 0.093384616 0.84715015
0.044842448 0.092900418 0.84633321
0.04715734 0.09279076 0.84821337
0.019225072 0.097392842 0.84775013
0.021151941 0.098344773 0.8457666
0.04382221 0.097690731 0.84693331
0.045015536 0.099580124 0.8496002
0.019650957 0.10267678 0.84906697
0.021805324 0.10270153 0.84666669
0.042931739 0.1026859 0.84751678
0.022577042 0.10741694 0.84752512
0.038474143 0.10770325 0.84513319
0.040799908 0.1069123 0.84758681
0.023737568 0.11169571 0.84798688
0.026938306 0.11225545 0.84586668
0.031875737 0.11391215 0.84570658
0.037194338 0.11212666 0.84736675
0.040217761 0.11052154 0.84866703
0.027744701 0.11660753 0.84843361
0.032459632 0.11747409 0.84756672
0.035878167 0.11648294 0.84896696
0.029157795 0.12086408 0.84923363
0.031931199 0.12087119 0.84928358
0.035514016 0.1201444 0.84973359
0.049214311 0.03495197 0.85372901
0.051619548 0.034963071 0.85400003
-0.0069827242 0.038729139 0.85299718
-0.0035960793 0.038684871 0.85433131
0.0038374632 0.039724071 0.85389656
0.0066202693 0.039309606 0.85353386
0.012580146 0.039143089 0.85279441
0.018557267 0.039303821 0.85339999
0.022630477 0.039089866 0.85393333
0.027721098 0.039718028 0.85376674
0.032900475 0.039325483 0.85387504
0.037270181 0.038918555 0.85366678
0.041998353 0.038874324 0.85270566
0.048086371 0.038074553 0.85255557
0.05149965 0.036863431 0.8520447
-0.011731257 0.043710578 0.8510955
-0.0072884932 0.042776901 0.85143369
-0.00275303 0.042348336 0.85193807
0.0018414981 0.041616075 0.85199165
0.0054069078 0.041136868 0.85026664
0.018095812 0.041143313 0.85040021
0.024428342 0.041123971 0.85000014
0.033961195 0.041149762 0.85053349
-0.01527472 0.047671907 0.85400003
-0.012063999 0.047569249 0.85215425
-0.007739509 0.0472808 0.85104758
-0.015265297 0.051611468 0.85347325
-0.012079869 0.051600855 0.85329342
-0.008094172 0.052350741 0.85254997
-0.0061087725 0.056725629 0.85278344
0.070483729 0.058585607 0.85100001
-0.005720628 0.060404301 0.85433346
-0.0041107009 0.063327916 0.85089993
0.06414526 0.064136863 0.85113335
0.067491382 0.061918788 0.85328895
0.071235649 0.061416466 0.8536644
-0.0025251615 0.068486691 0.85109997
0.063470237 0.068221614 0.85271114
0.066946581 0.066135965 0.85446674
-0.0013375883 0.072629645 0.85325003
0.0011789369 0.073882341 0.85093325
0.059394784 0.074442074 0.85129994
0.061728984 0.072672658 0.8528266
0.0025592602 0.07742551 0.85276002
0.0054115709 0.0791649 0.85099989
0.054548301 0.079071879 0.85000026
0.058192439 0.078014635 0.85227334
0.061185405 0.076278679 0.85413337
0.0038382276 0.08103893 0.85406673
0.006211475 0.082425386 0.85197496
0.054247346 0.08277519 0.85149169
0.05718616 0.082609437 0.8538723
0.0078116972 0.08730942 0.85325009
0.010160998 0.088558905 0.85000008
0.052938998 0.087063238 0.85277092
0.056406509 0.085811816 0.85413343
0.0086187813 0.090592526 0.85426682
0.011775144 0.092867553 0.85222858
0.04946864 0.092647053 0.85124183
0.051577229 0.091284283 0.85330003
0.012851476 0.096841715 0.85331851
0.017155532 0.098474093 0.85096657
0.047429625 0.097628251 0.85227144
0.050075624 0.097013198 0.85483336
0.014458281 0.10064113 0.85413343
0.017353585 0.10314706 0.8529501
0.04707766 0.10267433 0.85343903
0.019111753 0.10763469 0.85330677
0.043113846 0.10807463 0.85115004
0.045840189 0.10761341 0.85314
0.019775938 0.11127687 0.8544668
0.021691488 0.11286837 0.85147494
0.041733485 0.11262695 0.85265559
0.023680121 0.11724324 0.85161656
0.026036037 0.11870334 0.85073322
0.038094498 0.1174376 0.8507334
0.040847734 0.11711157 0.85354996
0.023995744 0.12119559 0.85342216
0.027195295 0.12221535 0.85156661
0.032771099 0.12302658 0.85053343
0.037411019 0.12229063 0.85229576
0.040503662 0.12164183 0.85470009
0.02790251 0.12679411 0.85325831
0.032419786 0.12676337 0.85171473
0.037026078 0.12653644 0.85324287
0.029330608 0.13032 0.85426676
0.032506898 0.13027932 0.85400003
0.038740881 0.032401394 0.8598001
0.042293303 0.032415904 0.85868222
0.046674386 0.032845192 0.85677528
-0.0057284404 0.03820727 0.85550004
-0.001854745 0.037568737 0.8565256
0.0020547381 0.038105782 0.85773975
0.0074528563 0.037502185 0.85761148
0.011862602 0.036473617 0.85842228
0.017525844 0.036854461 0.85697788
0.02304131 0.036429904 0.85740012
0.027822502 0.037470657 0.85688901
0.032640252 0.03696432 0.85747784
0.037465639 0.035930533 0.85815567
0.042220742 0.035891604 0.85721129
0.046117567 0.035813786 0.8553502
-0.015310492 0.049375877 0.85600001
-0.016410667 0.052674893 0.8578667
-0.012129356 0.054200042 0.85674614
-0.011696444 0.057276435 0.85848868
-0.0082863104 0.057656061 0.85600024
-0.01056416 0.061569124 0.85950005
-0.0073410082 0.062212825 0.85735255
0.072451107 0.063668311 0.85548288
-0.0068898434 0.067051016 0.85803825
-0.0041306685 0.068406448 0.85503358
0.06850183 0.067686312 0.85598361
0.071763776 0.06695535 0.85680419
-0.005748752 0.07028348 0.85853326
-0.0037441943 0.072213523 0.85773343
0.064099096 0.073643483 0.85581696
0.067578115 0.072022274 0.85641348
0.071696952 0.07151027 0.85791999
-0.0015857692 0.077291071 0.85830677
0.0011865823 0.07915514 0.85660011
0.059690125 0.079586618 0.85553348
0.06299299 0.078134239 0.85704774
0.068099335 0.076864645 0.85845
0.072833054 0.075202852 0.85999995
0.0025208935 0.08299876 0.85790014
0.0054399744 0.08435443 0.85546696
0.059766103 0.08287514 0.8566224
0.06194935 0.082724832 0.8592
0.0038571029 0.087824106 0.85826665
0.0058476985 0.088077083 0.85685009
0.054911945 0.089149289 0.85566688
0.057908688 0.087663285 0.85670012
0.0073182806 0.092543341 0.85762233
0.053329818 0.092355773 0.85588014
0.05605175 0.092953466 0.85845327
0.0080196243 0.097100437 0.8584134
0.01023989 0.098010853 0.85660011
0.052290101 0.097546227 0.85751438
0.055138703 0.095910512 0.85919994
0.011848077 0.10209864 0.85747629
0.01502207 0.10351492 0.85600024
0.048543319 0.10350595 0.85592616
0.051067486 0.1021719 0.85808897
0.013465354 0.10541835 0.85853344
0.016321346 0.10748807 0.85721338
0.048155494 0.10750996 0.85611689
0.050310615 0.10705506 0.85884446
0.018246861 0.11281669 0.85754299
0.043749653 0.11384276 0.85583365
0.046817329 0.11262703 0.85718346
0.019466413 0.11777569 0.8583833
0.02141121 0.11786538 0.85613352
0.043139834 0.11821802 0.85638684
0.046135172 0.11789098 0.8586399
0.019902457 0.12158666 0.8599335
0.02271699 0.12312275 0.85726678
0.042705726 0.12309737 0.85772389
0.023848832 0.12765527 0.85771132
0.026174791 0.1288816 0.85526681
0.038173757 0.12900215 0.85606694
0.041423474 0.12758307 0.85722232
0.024658261 0.13088959 0.85799986
0.027645567 0.13262609 0.85760832
0.032616764 0.13310796 0.85686684
0.037255574 0.13226965 0.85788333
0.040691651 0.13099127 0.85866678
0.028690288 0.13583058 0.85896665
0.0322701 0.13612483 0.85829997
0.035904102 0.13584639 0.85906672
0.031969532 0.028843148 0.86100006
0.0074925367 0.03329251 0.86215967
0.011911579 0.032883588 0.86195111
0.017192662 0.032999158 0.86199349
0.022750493 0.033266045 0.86148345
0.028235314 0.032334905 0.8634035
0.032806464 0.03207906 0.86188579
0.036594141 0.031697512 0.86022675
0.0070804185 0.035643999 0.86086035
0.01029568 0.035260569 0.86126679
0.015898904 0.035219625 0.8602668
0.024715727 0.035208706 0.86000019
0.027927885 0.035214167 0.86013347
0.031936955 0.0352128 0.86010015
-0.017005701 0.054469161 0.86100006
-0.015966361 0.056713045 0.86263895
-0.013791033 0.058460198 0.86080563
-0.01266588 0.062795296 0.86221826
-0.0089670867 0.064009465 0.86006671
-0.017051786 0.067463271 0.8633334
-0.012012054 0.067209482 0.86263573
-0.0089688245 0.067222551 0.86023331
-0.017064953 0.071534619 0.86400002
-0.011020018 0.071918145 0.86378109
-0.0075771417 0.072329 0.86149174
0.072833054 0.073603086 0.86000001
-0.010623155 0.075578853 0.86430019
-0.0071856016 0.076847084 0.8627376
-0.0037569844 0.077264443 0.86068338
0.072397433 0.077441931 0.86116791
-0.0057873656 0.080402158 0.86430019
-0.0027615095 0.082074843 0.86286253
0.00065724895 0.084024563 0.86023349
0.064361982 0.083043166 0.86111122
0.068197921 0.081814215 0.86222231
0.072143652 0.08159177 0.86326677
-0.00095082168 0.085961752 0.86361682
0.0016206147 0.087784432 0.86101329
0.061939754 0.088390529 0.86184174
0.066981472 0.086249329 0.86382031
0.071560442 0.085999474 0.86400002
0.0028021473 0.092255563 0.86238891
0.0054724067 0.093662366 0.86056668
0.05845521 0.092892446 0.86084461
0.061841249 0.09315329 0.86327052
0.065145113 0.090059161 0.86440021
0.0038808219 0.098002315 0.8635447
0.0058776303 0.098136187 0.86119998
0.057087585 0.09795814 0.86139172
0.060915161 0.097716004 0.86385357
0.0072900942 0.10246121 0.86220425
0.010280537 0.10399865 0.86000019
0.053613823 0.1024522 0.86044455
0.056771856 0.1025196 0.86269587
0.0087149637 0.10606502 0.86380017
0.011706796 0.10761863 0.86175841
0.015092262 0.10879795 0.86000019
0.05291979 0.10747335 0.86220002
0.05599707 0.10665008 0.86420012
0.012458171 0.11182338 0.86277229
0.015500262 0.11245011 0.86040008
0.048774395 0.11359721 0.86000019
0.051662464 0.11206616 0.86228573
0.013550567 0.11572837 0.86396682
0.01652129 0.11759119 0.8614251
0.048819769 0.11690664 0.86080009
0.051092636 0.11613675 0.86302215
0.018026037 0.12223969 0.86228675
0.021511251 0.12481497 0.86013347
0.047485881 0.12208871 0.86206257
0.019567495 0.12641631 0.86287498
0.021540701 0.12819123 0.86131126
0.044043317 0.12823135 0.86157793
0.046160627 0.12652506 0.86360848
0.02348819 0.13279647 0.86209345
0.039157014 0.134415 0.86013341
0.042206183 0.13315235 0.86231667
0.024837401 0.13666338 0.86423355
0.027950538 0.13799627 0.86084455
0.033056602 0.13855577 0.86001348
0.037816759 0.13804272 0.86155003
0.040889107 0.13724525 0.86283332
0.028811799 0.14282346 0.86259443
0.03278102 0.14259288 0.86120009
0.036867291 0.14286356 0.86283892
0.029675681 0.1471276 0.86431682
0.03285154 0.14771639 0.86305553
0.03609357 0.14700583 0.86360013
0.031834304 0.15172653 0.8645668
0.024976308 0.029113378 0.8690666
0.027331449 0.029033542 0.86668342
0.023640122 0.03132423 0.86764014
0.026542025 0.030666359 0.86726671
-0.020358138 0.054848738 0.86700004
-0.018741172 0.054042347 0.86700004
-0.020358138 0.057267919 0.86700004
-0.017509628 0.058006398 0.866
-0.016070077 0.064085864 0.8683334
-0.016573293 0.067162581 0.86633343
-0.013905228 0.069438495 0.86793333
-0.016609065 0.071624599 0.86833334
-0.013262974 0.07301183 0.86819422
-0.012015756 0.077493705 0.86774373
-0.0090237353 0.078903794 0.86550033
-0.011492978 0.080848143 0.86909413
-0.0076331962 0.082556061 0.8679167
-0.007443795 0.085732736 0.86944437
-0.0030354972 0.087359667 0.86723816
0.067976989 0.088103026 0.86624455
0.070625544 0.088048898 0.86571354
-0.0013615377 0.091714412 0.86864996
0.0012001852 0.093528055 0.86675555
0.06722796 0.092236035 0.86785841
0.071291879 0.091787934 0.86858004
0.0013116626 0.097321965 0.86894667
0.063705713 0.097560249 0.86674994
0.067074031 0.096948914 0.86849272
0.070901647 0.095937014 0.86909133
0.0033594391 0.10170811 0.8677668
0.0055005974 0.10460329 0.86500013
0.058782637 0.10468389 0.86566681
0.061350971 0.10251098 0.86772227
0.0039026423 0.10501444 0.86840004
0.0071312119 0.10810942 0.86730957
0.057586648 0.10840352 0.86708671
0.060659923 0.10756573 0.8694334
0.0083603719 0.11274263 0.86881661
0.010889343 0.11384603 0.86594456
0.054011084 0.11369202 0.86681998
0.05672279 0.11216465 0.86872661
0.011992666 0.11787613 0.86794764
0.052703261 0.11800964 0.86656016
0.055797569 0.11646508 0.86946666
0.013626378 0.12203272 0.86880004
0.015628442 0.12306716 0.86755008
0.051661033 0.12273675 0.86806113
0.017488752 0.12782796 0.86755335
0.048514862 0.1277214 0.86682016
0.050909415 0.12772866 0.86906672
0.018484507 0.13170916 0.86866671
0.020467315 0.13264844 0.86687511
0.044279613 0.13375182 0.86620009
0.047418054 0.1322424 0.86818743
0.0230515 0.13723227 0.86782783
0.043663338 0.13738902 0.8667801
0.046459481 0.13704462 0.86919999
0.024319828 0.14190874 0.86878669
0.026502581 0.14177294 0.86597776
0.039404348 0.14250979 0.86556673
0.042539004 0.14185858 0.86773765
0.024991635 0.14560014 0.86959994
0.027624413 0.14765961 0.86745006
0.038383566 0.14755015 0.86680007
0.041835926 0.14681482 0.8691268
0.028992726 0.15260264 0.86802787
0.033520188 0.15367453 0.86647797
0.03764597 0.15186538 0.86842775
0.029834185 0.15761146 0.86893332
0.033057019 0.15752415 0.86845011
0.03671772 0.15638125 0.8688333
0.023380565 0.029144645 0.87
0.025003128 0.027526267 0.87
-0.015585938 0.069715843 0.8714
-0.015560898 0.074458942 0.87
-0.015565369 0.07690835 0.87024999
-0.013942124 0.078526221 0.87023652
-0.0074564326 0.088307709 0.8709113
-0.0069355741 0.092096031 0.87354428
-0.003559272 0.09271308 0.87120008
0.072651707 0.093408637 0.87063718
-0.0025895271 0.097381309 0.87237042
0.071717702 0.098471887 0.87244892
-0.0015035588 0.10119692 0.87262207
0.0013161252 0.1025372 0.87205344
0.064016469 0.10208639 0.87097788
0.067356423 0.10222475 0.87215549
0.071313426 0.10137268 0.87414092
0.0031101331 0.10724401 0.87339985
0.062889062 0.10669534 0.87223327
0.067447193 0.10561103 0.87333316
0.003931405 0.1106703 0.87479997
0.0060785082 0.11177867 0.87075567
0.058626439 0.1129334 0.87133336
0.061250698 0.11154212 0.87206662
0.0078201871 0.11711296 0.87187994
0.010411237 0.11990176 0.87093353
0.054217521 0.11979161 0.87013334
0.057898611 0.11688457 0.8725999
0.061041329 0.1155654 0.87489998
0.0084042996 0.12145868 0.87338328
0.011717026 0.12289307 0.87146664
0.054293692 0.12320226 0.87135571
0.056835193 0.12180317 0.87294436
0.012536575 0.12722911 0.8735714
0.015285701 0.12801541 0.87102246
0.053351592 0.1278173 0.87188005
0.056064956 0.1259619 0.87363321
0.016660236 0.13305081 0.87216669
0.049394481 0.13448264 0.87093353
0.052543737 0.13251133 0.87262499
0.018172063 0.13766725 0.87314987
0.02055994 0.1381073 0.87080014
0.048744403 0.13804491 0.87092006
0.051561575 0.13768168 0.87324142
0.018603671 0.14231616 0.87426651
0.021340555 0.14297767 0.87192398
0.044504527 0.14414811 0.87060004
0.047819301 0.14272577 0.87180001
0.022646887 0.14779995 0.87303329
0.025028989 0.14824796 0.87090015
0.044150397 0.14796534 0.87161672
0.047349021 0.14727376 0.87312776
0.02347731 0.15114504 0.87359995
0.025876904 0.15251687 0.87214446
0.039645635 0.1531022 0.87086689
0.042507213 0.15233375 0.87242848
0.04632071 0.15125462 0.87423342
0.027523847 0.15750016 0.87278885
0.039017551 0.15756086 0.87133342
0.042064179 0.15736885 0.87386674
0.029971518 0.16077262 0.87293321
0.03285294 0.16216189 0.87166673
0.037629504 0.16208802 0.87251425
0.033286881 0.16593932 0.87448883
0.036558878 0.16598569 0.87473333
-0.010783348 0.083246596 0.87733334
-0.011613744 0.092590131 0.8782385
-0.0085880654 0.093975633 0.87592226
-0.0075166067 0.097989969 0.87782228
-0.0067062266 0.10139866 0.87906671
-0.0029299881 0.10315838 0.87734002
0.072048351 0.1038164 0.87646812
-0.0013782246 0.10755192 0.87923324
0.0010779946 0.10803609 0.8765251
0.064439505 0.10846937 0.87673342
0.067733154 0.10850721 0.87703896
0.071956843 0.10707512 0.87867492
-0.00096885912 0.1129651 0.87999982
0.0021021701 0.11292758 0.87811673
0.0055641886 0.11395095 0.87500006
0.063881807 0.11304071 0.87803996
0.067372195 0.11234838 0.87943882
0.0028557286 0.11716876 0.87878895
0.0055775433 0.11748908 0.87710017
0.059436791 0.1188747 0.87530005
0.062288545 0.11802568 0.87867337
0.0039547752 0.12114996 0.87999976
0.0064023882 0.1225327 0.8781749
0.059477534 0.12221634 0.87590009
0.061779555 0.12232234 0.87959987
0.0084481789 0.12700304 0.87802505
0.010485549 0.12810065 0.87715018
0.058381788 0.127487 0.87693816
0.061397173 0.12687933 0.87999976
0.011918924 0.132431 0.87746251
0.054558139 0.13357449 0.8756001
0.057018626 0.13202257 0.87827331
0.013375268 0.13694707 0.87895
0.015789708 0.13737863 0.87648344
0.05430948 0.13764161 0.87816668
0.016392294 0.14180321 0.87814009
0.052353717 0.14226297 0.87694675
0.0178806 0.14714836 0.87884444
0.020259645 0.14737998 0.87536669
0.048862398 0.14910725 0.8759501
0.051447053 0.14704871 0.87824458
0.018310402 0.1518032 0.87976646
0.021403322 0.15239757 0.87769455
0.044776306 0.15399012 0.87591678
0.048359346 0.15273109 0.87738103
0.022528423 0.15643962 0.87899995
0.025192803 0.15737258 0.87660015
0.044273403 0.15820746 0.87672234
0.047371622 0.15691321 0.87859994
0.023645731 0.16041285 0.87986642
0.027089695 0.16232722 0.87757623
0.030045906 0.16442746 0.87510008
0.039891463 0.16383268 0.87626678
0.042691078 0.16248775 0.87781113
0.027722836 0.16680862 0.87906665
0.031760558 0.16839619 0.87740016
0.037145521 0.16815586 0.87756681
0.040863261 0.16772744 0.87959981
0.031596366 0.1722351 0.87934273
0.036986087 0.17223342 0.8793332
0.032675959 0.17598842 0.87999976
0.03568485 0.17571558 0.87999982
-0.010829733 0.088521771 0.88110715
-0.012472488 0.097181089 0.88106692
-0.011395258 0.10069567 0.88245678
-0.007542579 0.10326342 0.88102055
-0.0042516026 0.10478815 0.88006634
0.074526846 0.10314327 0.88000005
-0.0072347098 0.10651712 0.88354003
-0.0034350883 0.1081897 0.88109982
0.073677599 0.10792483 0.88161993
-0.0035586115 0.11281683 0.88250482
0.069119386 0.1141599 0.88079977
0.072171777 0.11306103 0.88330668
-0.0022905511 0.11726241 0.8827734
0.0012203866 0.11911621 0.88109988
0.064748198 0.11800198 0.88093311
0.06790787 0.11793246 0.88194573
0.071503498 0.11666173 0.88320005
-0.00097366725 0.12010602 0.88436681
0.0026478176 0.12278213 0.88231993
0.0055981032 0.12447105 0.88033307
0.064127468 0.12331402 0.88142663
0.067910291 0.12197126 0.88358009
0.0031517078 0.12594448 0.88493347
0.0064348159 0.12807164 0.88257504
0.063161574 0.12794456 0.8817066
0.065850005 0.12673417 0.88470012
0.0084940884 0.13261858 0.88278341
0.05942779 0.13320266 0.88121659
0.062245358 0.13269143 0.88271999
0.011359056 0.13775411 0.88149989
0.057444777 0.13787962 0.88229442
0.013179684 0.14248669 0.88237333
0.015444427 0.14407842 0.88006645
0.054933388 0.14269446 0.88162214
0.056710973 0.14138551 0.88370013
0.01386556 0.1471979 0.88405013
0.015476006 0.14765418 0.88186663
0.053291161 0.14762063 0.88165545
0.055060767 0.14631158 0.88366675
0.016310215 0.15269215 0.88254172
0.051579848 0.15234105 0.88051099
0.018368371 0.15720946 0.88255
0.020933315 0.15840285 0.88082212
0.049396027 0.1572724 0.880611
0.051136028 0.15757437 0.88230008
0.022400543 0.1622161 0.8825534
0.025292424 0.16372351 0.88006645
0.046757881 0.16252992 0.88246673
0.050167672 0.16126981 0.88456672
0.023756808 0.1660997 0.88400012
0.025732286 0.16760249 0.88109159
0.043006826 0.16767888 0.88149154
0.04523553 0.16626881 0.88490015
0.02377562 0.17116839 0.8847
0.026995849 0.17231672 0.88214815
0.040988207 0.17233847 0.88226104
0.028249271 0.1769416 0.88270837
0.031243047 0.17771515 0.88125324
0.037380856 0.17761181 0.88128328
0.040774051 0.1764303 0.88357782
0.032514289 0.18179886 0.883039
0.03643297 0.18209632 0.8829667
-0.012528907 0.092211194 0.88505566
-0.010884341 0.10379378 0.88555002
-0.01173856 0.1073465 0.88767773
-0.0086825555 0.10818743 0.88555551
-0.011332963 0.1119682 0.88832617
-0.0075892266 0.11213773 0.88639987
0.074950293 0.11113752 0.88500005
-0.010932684 0.11666455 0.88948333
-0.0076008877 0.11725962 0.88771844
-0.0042831651 0.11876011 0.88659978
0.07284452 0.11760158 0.886154
-0.0059563289 0.12080766 0.88953334
-0.0026340999 0.12243676 0.8876285
0.0006761718 0.12348459 0.88500011
0.072017394 0.12231757 0.88698155
-0.0013934609 0.12692992 0.88894999
0.0017803417 0.12765385 0.88727754
0.0678178 0.1273506 0.88669318
0.071930751 0.12727456 0.88846648
-0.00097972213 0.13078488 0.88986683
0.0023338506 0.13219827 0.88823694
0.0060442304 0.13221771 0.88560003
0.066690683 0.13190021 0.88762492
0.07032828 0.13150913 0.88916665
0.0035790419 0.136803 0.88863331
0.0070870384 0.13717172 0.88700819
0.062097151 0.13737825 0.88662857
0.065851294 0.1360818 0.88842207
0.007782903 0.14196905 0.88881904
0.011008858 0.14264226 0.88640821
0.057975356 0.14288794 0.88622206
0.061487168 0.14184713 0.88805711
0.0089698797 0.14637883 0.8890667
0.011708983 0.14774655 0.88735551
0.05738486 0.14706953 0.88681889
0.060793161 0.1468088 0.88916671
0.012601068 0.1516531 0.88799989
0.01553334 0.154787 0.88513345
0.05352423 0.15320645 0.88551116
0.056807328 0.15184872 0.88840836
0.01391532 0.15680306 0.88722199
0.01636786 0.15817241 0.88565004
0.05304113 0.158345 0.88662213
0.055405561 0.15549818 0.88920009
0.013942674 0.16124517 0.88896668
0.016994638 0.1623006 0.88762844
0.02105134 0.16424106 0.88579988
0.048574619 0.16475296 0.88560009
0.051438477 0.16290756 0.88751096
0.018497011 0.16657619 0.88873333
0.022162274 0.16816328 0.88620937
0.046987932 0.16800256 0.88681096
0.050816596 0.1665705 0.88869989
0.02198641 0.17294234 0.88747483
0.043649752 0.17310984 0.8862111
0.04683106 0.17201571 0.88907772
0.022554573 0.17721775 0.88862658
0.026119847 0.17831823 0.88587987
0.042351037 0.17847836 0.88667995
0.045462161 0.17620081 0.88933331
0.023349956 0.18091063 0.88944453
0.027353218 0.18296793 0.88704985
0.030943722 0.18389404 0.88522226
0.038642853 0.18359426 0.88510013
0.041762359 0.18209437 0.88822663
0.027606517 0.18678562 0.88853323
0.032314729 0.18790601 0.8869915
0.03686 0.18788148 0.88687485
0.040880535 0.18644603 0.88888335
0.02886516 0.19019113 0.889
0.032188375 0.19216394 0.88920003
0.036754169 0.19191715 0.88933343
0.040510587 0.19037652 0.88986689
-0.010951327 0.11934945 0.89100003
-0.0072191246 0.12236682 0.89184934
-0.0042995918 0.12252665 0.8900001
-0.0059889155 0.12729216 0.89440012
-0.0036444857 0.12811498 0.89202023
-0.002649335 0.13285175 0.89263356
0.068806387 0.13425632 0.89093357
0.072681896 0.13297795 0.89187717
-0.0018178582 0.13628483 0.89336687
0.001512452 0.13771543 0.89186686
0.067792445 0.1383123 0.89215022
0.070635408 0.1370682 0.89305025
0.0035972465 0.14249408 0.89321697
0.0056676297 0.14342542 0.89126694
0.063797675 0.14331819 0.89060009
0.06675189 0.14233065 0.89306694
0.0070605241 0.1477605 0.89241695
0.063215762 0.14798298 0.89175355
0.06574779 0.14644679 0.89453351
0.0084568784 0.15178816 0.89332253
0.011203901 0.15359353 0.89094466
0.058854401 0.15419014 0.89120018
0.061243497 0.15235569 0.89210033
0.01149382 0.15764862 0.89200574
0.056981266 0.1576858 0.89221698
0.060769983 0.15650076 0.89493346
0.01290373 0.16290733 0.89354473
0.05389832 0.16257222 0.89170003
0.055739939 0.16142885 0.89456695
0.016478051 0.16753393 0.89163345
0.053151783 0.16781071 0.89310849
0.01856989 0.17221637 0.89225858
0.048899144 0.17331687 0.89151686
0.05109369 0.17246407 0.89354193
0.019027844 0.17716497 0.89420038
0.020640761 0.17835586 0.89183354
0.047744263 0.17781527 0.89209551
0.050731044 0.1763923 0.8945002
0.021993056 0.18302616 0.89277351
0.043883167 0.18315074 0.89095014
0.046341896 0.18251042 0.89349365
0.023461895 0.18676841 0.89372236
0.026173607 0.18850608 0.89145583
0.043102801 0.18750861 0.89197528
0.045731384 0.18639675 0.89460027
0.027592169 0.19261138 0.89255023
0.030591834 0.19393392 0.89100021
0.038353372 0.19341527 0.89115572
0.041665535 0.1931006 0.89327365
0.029026436 0.1962426 0.89396703
0.032514114 0.1973687 0.89247113
0.037333623 0.19774857 0.89325213
0.040729113 0.19722852 0.89466685
0.033220321 0.20138901 0.89466691
0.037388597 0.201369 0.89457816
-0.0084992498 0.12408412 0.89526463
-0.0080150515 0.12814942 0.89691621
-0.01104351 0.13205282 0.89850003
-0.0078932857 0.13209376 0.89735448
-0.00432568 0.13492937 0.89540011
-0.0065704393 0.13585114 0.89782184
-0.0026592661 0.13794906 0.89697784
0.00068447436 0.13999914 0.89586663
0.072895288 0.13805917 0.89625341
0.076047868 0.13782069 0.89796007
-0.00099080557 0.14063464 0.8999337
0.001242248 0.14294295 0.89691114
0.068349384 0.14416003 0.89583331
0.07267309 0.1419449 0.89763349
0.076063946 0.14119148 0.89815027
0.0026365619 0.14690191 0.89731675
0.068177797 0.14744323 0.89722246
0.071069099 0.14710258 0.89853358
0.0033669416 0.15177257 0.8984803
0.0066997991 0.15268914 0.89601338
0.063596137 0.15327777 0.89555556
0.066377938 0.1515086 0.89740849
0.0040383632 0.15547042 0.89860022
0.0071649146 0.15703505 0.89679593
0.059153739 0.15830688 0.89573342
0.063159965 0.15746303 0.89725572
0.066050358 0.15631542 0.89865029
0.0079438342 0.16151725 0.89813906
0.010707697 0.16247281 0.89573336
0.058097553 0.16235153 0.89660019
0.061393052 0.16162103 0.89794183
0.012677514 0.16692691 0.89728349
0.015708826 0.16985664 0.89513344
0.057118688 0.1667265 0.89749062
0.014086964 0.17043227 0.89816678
0.01630727 0.17309241 0.89752245
0.053787418 0.1722535 0.89677513
0.05656524 0.17111611 0.89883357
0.017829066 0.17768794 0.89684165
0.052782703 0.17759587 0.89743346
0.019081041 0.18266489 0.89670002
0.020731021 0.18496677 0.89573324
0.048573717 0.18330042 0.89573336
0.051906526 0.18232767 0.89750683
0.019112252 0.18546921 0.89816689
0.021309638 0.18793969 0.89666677
0.044122055 0.18997957 0.89579993
0.048049465 0.18731399 0.8963334
0.051377624 0.18679361 0.89850861
0.022686327 0.19156006 0.89762878
0.025729269 0.19319724 0.89526665
0.044130266 0.19251496 0.89596665
0.047339033 0.19177748 0.89738768
0.024141097 0.19552277 0.89830023
0.026897183 0.19749351 0.89712787
0.043021515 0.19753675 0.89606667
0.04660017 0.19689935 0.89848024
0.028480947 0.20176068 0.89780027
0.031775765 0.20241937 0.89627999
0.03744201 0.20332555 0.89586669
0.04250871 0.20191236 0.8969906
0.033066139 0.20660108 0.8980279
0.037487224 0.20691091 0.89695573
0.041578636 0.206954 0.89859354
0.037568096 0.21070258 0.89890021
-0.011071165 0.12819529 0.90075004
-0.0077158976 0.13750292 0.90134817
-0.0043480634 0.13897607 0.90003359
-0.002676999 0.14266714 0.90220022
0.074608371 0.14412142 0.90080035
0.076244019 0.14403756 0.90027612
-0.0018389894 0.14798225 0.90391117
0.00068829441 0.14832184 0.90086687
0.073785238 0.14750649 0.90100592
0.076264694 0.14575176 0.90052015
-0.0009943652 0.1520602 0.90316665
0.0011090996 0.1530984 0.90185851
0.0689018 0.15284632 0.90086699
0.073022492 0.15269618 0.90195572
0.002652636 0.15788119 0.90282792
0.068419583 0.1578832 0.90146697
0.072906807 0.15772302 0.9031235
0.0040601599 0.1621924 0.90345001
0.0062991087 0.1639661 0.90242243
0.063890345 0.1629751 0.90127355
0.067516185 0.16244549 0.90330011
0.071517281 0.16148522 0.90420002
0.0091107907 0.1671567 0.90303338
0.010779418 0.16859366 0.90173352
0.059498254 0.16844657 0.90095037
0.062543996 0.16780989 0.90331906
0.012804638 0.17256303 0.90232009
0.058436483 0.17336649 0.90183902
0.061370935 0.17233902 0.90378332
0.0133476 0.17590211 0.90481669
0.015834205 0.17792666 0.90227789
0.056913149 0.17765041 0.90257996
0.016955471 0.18184702 0.90230006
0.054496694 0.18282513 0.90160018
0.05632152 0.18160878 0.90390003
0.018375546 0.18650264 0.9031834
0.053709738 0.18803865 0.90248352
0.021698901 0.19449203 0.90126693
0.049419295 0.19443448 0.90100032
0.051832587 0.19264746 0.9020468
0.022900818 0.19772866 0.9022668
0.049055614 0.19843099 0.90202522
0.051320877 0.1969593 0.90490001
0.024287123 0.20258987 0.90373331
0.02633414 0.20339201 0.9017002
0.044358477 0.20439985 0.90060031
0.046943303 0.20300573 0.90184498
0.028726781 0.20696037 0.90202236
0.031497758 0.20897834 0.90107805
0.044002853 0.20847178 0.9019084
0.047023505 0.20755255 0.90338337
0.029334875 0.21093297 0.90346658
0.032661725 0.21234077 0.90230566
0.037674192 0.2129705 0.9014225
0.041643962 0.21209073 0.9024334
0.046201698 0.21016984 0.90380001
0.033581518 0.21535641 0.90439999
0.037758749 0.21512623 0.90343332
-0.0077518392 0.13981706 0.90548021
-0.0069128983 0.1424436 0.9061178
-0.0043720575 0.14479338 0.90500003
-0.0074218228 0.14788517 0.90641701
-0.0043754387 0.14827473 0.90570003
-0.0069178287 0.15267812 0.90683353
-0.0030242354 0.15298434 0.90565336
-0.0072061219 0.15590973 0.90764481
-0.0029001175 0.15705279 0.90652478
0.00069221662 0.15843605 0.90600008
-0.0022111568 0.16206206 0.90877628
0.0013690323 0.16231965 0.90698022
0.069967411 0.16348605 0.90596676
0.073334008 0.16219482 0.9058122
0.075107127 0.16279742 0.90682209
0.0028117965 0.16609585 0.90871674
0.0066156527 0.16796969 0.90742528
0.064919978 0.1685977 0.90626681
0.067687139 0.16740493 0.907107
0.071844332 0.16729258 0.90832615
0.076116934 0.1669537 0.90878338
0.0087337438 0.17181621 0.90768361
0.010830429 0.17360403 0.90600008
0.063805185 0.17200084 0.90643358
0.066793904 0.17244105 0.90875256
0.07027889 0.17098503 0.90999991
0.009173682 0.17592143 0.90926683
0.011972115 0.17778184 0.90725017
0.059811935 0.17775898 0.90570021
0.062477514 0.17728905 0.90760589
0.065572307 0.17722613 0.90944999
0.013807998 0.18188444 0.90736687
0.015904212 0.18377021 0.90626681
0.058480307 0.18220514 0.90686685
0.061739016 0.1826742 0.90920001
0.016601462 0.18773134 0.90748692
0.057433363 0.18753044 0.90814471
0.060661633 0.18678427 0.90999991
0.01761937 0.19250107 0.90768909
0.054801594 0.19228064 0.90664452
0.056664195 0.19286497 0.90940005
0.018466333 0.1975549 0.90763354
0.020966319 0.19886209 0.90590006
0.053156115 0.19750312 0.90740031
0.019334972 0.20199803 0.90863359
0.022000123 0.20208767 0.9067601
0.049699962 0.20312384 0.90611684
0.051941127 0.20236203 0.9083668
0.024374904 0.20754068 0.9070003
0.026588982 0.2083423 0.90560007
0.04975006 0.2075469 0.90703011
0.051606335 0.20651817 0.90993327
0.024419704 0.2121473 0.90866685
0.027264088 0.21276665 0.90667635
0.044041347 0.21339364 0.90558904
0.047803547 0.21272342 0.90752244
0.028284201 0.21775888 0.90840501
0.032572463 0.21802504 0.90650016
0.037870307 0.21829112 0.9061057
0.043013006 0.2178155 0.90763366
0.046464115 0.21728209 0.90893352
-0.0095085483 0.14760983 0.91200012
-0.0015698858 0.16679585 0.91176671
0.0023991179 0.16896567 0.91280842
0.076223083 0.16845515 0.91004997
0.0041093691 0.17181171 0.91440022
0.0066478373 0.17302218 0.9118166
0.068642013 0.17452385 0.91079998
0.07213027 0.17276472 0.91194445
0.076316439 0.17205358 0.91117519
0.0078455368 0.17761122 0.91274005
0.067887731 0.17815977 0.9120667
0.072619461 0.17612238 0.91381919
0.075658843 0.17503789 0.9134829
0.0086544259 0.18196882 0.91415572
0.011744318 0.18311599 0.91140008
0.063535616 0.18381254 0.91064996
0.066791221 0.18214592 0.91334021
0.012611427 0.18707304 0.91278911
0.06306842 0.18777354 0.9120667
0.065489851 0.18708496 0.91422248
0.013898942 0.1915825 0.91337514
0.058472551 0.19238852 0.91114998
0.061560612 0.19184102 0.91373354
0.014315959 0.19527575 0.91276681
0.016000438 0.19760287 0.91175008
0.057243504 0.1974079 0.91320688
0.060421716 0.1957393 0.91493374
0.017151007 0.20204984 0.91268903
0.053348292 0.20330401 0.91069996
0.05517571 0.20123361 0.91283333
0.019439947 0.20649418 0.91356689
0.021779062 0.20725219 0.91167337
0.052989706 0.20737129 0.911825
0.022163482 0.21208251 0.91348016
0.049933057 0.21339034 0.91036671
0.052635264 0.21232337 0.91305566
0.024539739 0.21658844 0.91313356
0.026158435 0.21843073 0.91019988
-0.0027165499 0.16868602 0.91590017
-0.0016967051 0.17217587 0.91815329
0.0018384472 0.1727273 0.91624469
0.0032683779 0.17758875 0.91787767
0.0058198227 0.17792079 0.91520035
0.072458826 0.17894675 0.91609526
0.0041319896 0.18216464 0.91943324
0.0065191314 0.18300161 0.91762674
0.069075361 0.18329863 0.91655004
0.072618775 0.18275934 0.91812581
0.076032974 0.18273409 0.91800004
0.007759315 0.18758783 0.91772503
0.0109416 0.18900721 0.91530037
0.068263747 0.18767704 0.91711664
0.072716519 0.18728189 0.91936654
0.0086956704 0.19195287 0.91853315
0.011640541 0.19303438 0.91663343
0.063982114 0.19363408 0.91705
0.067281835 0.19283 0.91829991
0.013014168 0.19756737 0.91710007
0.058803059 0.19944063 0.9163
0.062339749 0.19811288 0.91804272
0.065770045 0.1964239 0.91813314
0.014401173 0.20156226 0.91819984
0.016091693 0.20384729 0.91694999
0.057412315 0.20296276 0.91681105
0.06157887 0.20184027 0.91946661
0.017460611 0.20780602 0.91711342
0.056630466 0.20749171 0.91798902
0.018502757 0.21206796 0.91783333
0.02119082 0.21461706 0.91560024
-0.0015898658 0.1767869 0.92261118
0.00070399535 0.17741615 0.92141682
-0.0015934244 0.18125539 0.92497754
0.0015659595 0.18209846 0.9234333
0.0041447734 0.18701804 0.92227793
0.071058936 0.18999834 0.92010003
0.0041540107 0.19173244 0.92433321
0.0062895012 0.19244657 0.92157507
0.073064536 0.19212276 0.92105007
0.0081605772 0.19682823 0.92269444
0.011028864 0.1990957 0.92260021
0.068035357 0.19737631 0.9209801
0.072632387 0.19633539 0.9237417
0.0093310727 0.20130531 0.9248665
0.012464006 0.20257209 0.92280006
0.063248709 0.20292902 0.92130011
0.066726558 0.20157355 0.92346668
0.013614695 0.20777215 0.92302227
0.059053354 0.20799254 0.92019999
0.061618812 0.20733997 0.92262679
0.016164524 0.21248038 0.92110014
-0.0021724401 0.18391864 0.92683315
0.00070719147 0.18424688 0.92559981
-0.0016001925 0.18720146 0.92886668
0.0015729252 0.18807764 0.92750549
-0.0010236882 0.19027178 0.92980015
0.0024384188 0.19297254 0.92824167
0.004169066 0.19760495 0.92768329
0.0064614024 0.19917667 0.92563313
0.069714688 0.19962077 0.92503315
0.073289029 0.19823526 0.92659986
0.075211436 0.19874872 0.92900002
0.0041785785 0.20064947 0.92980009
0.0072776834 0.20283329 0.9271332
0.011063531 0.20488636 0.9254998
0.068504542 0.20330699 0.92614985
0.071686186 0.20203646 0.92822218
0.0081300344 0.20703335 0.92850953
0.011068312 0.20755869 0.9258998
-0.0027613356 0.18878555 0.93100017
-0.0018977434 0.19262251 0.9328084
0.00071073149 0.19382133 0.93023354
-0.0010291929 0.19651167 0.93480003
0.0015809009 0.19777083 0.93253344
0.003320032 0.20298401 0.93258345
0.073592223 0.20251727 0.93043351
-0.0021979485 0.19707243 0.93746656
-0.001032936 0.20071687 0.93819994
0.00071706052 0.20340367 0.93851662
-0.0027904026 0.19952303 0.94080031
