# .PCD v0.7 - Point Cloud Data file format
VERSION 0.7
FIELDS x y z
SIZE 4 4 4
TYPE F F F
COUNT 1 1 1
WIDTH 814
HEIGHT 1
VIEWPOINT 0 0 0 1 0 0 0
POINTS 814
DATA ascii
0.034476139 0.057556063 0.82490015
0.038292281 0.057511762 0.82426673
0.041715316 0.058523368 0.82462871
0.048521597 0.058518391 0.82456201
0.052843723 0.058219809 0.82344449
0.056545604 0.058542609 0.82368004
0.053909939 0.061843276 0.82408899
0.057507116 0.062877797 0.82424456
0.009394858 0.053474229 0.82902259
0.013002302 0.053216506 0.8290115
0.017626187 0.052842166 0.82834291
0.022256 0.053160083 0.82814449
0.027322775 0.053255815 0.82792383
0.033073921 0.05284027 0.82831436
0.037671883 0.052349865 0.82752597
0.042114843 0.052830841 0.82815254
0.047404733 0.053266425 0.82808584
0.05294238 0.052529685 0.82765937
0.057002172 0.05238482 0.82806665
-0.00091287261 0.058623642 0.82914823
0.0021777751 0.057801206 0.82842231
0.0079936814 0.057574652 0.82773334
0.012970321 0.057700869 0.82698321
0.017575651 0.057630066 0.82597786
0.022185436 0.057598259 0.82552224
0.027571807 0.057594437 0.82546669
0.03265395 0.057597287 0.82550681
0.036795106 0.057573427 0.82515574
0.042856924 0.056270041 0.82629329
0.046825793 0.056839388 0.82564461
0.052960556 0.055278882 0.82526684
0.057080775 0.055805162 0.82548648
-0.005537604 0.063086882 0.82700002
-0.0016846234 0.06323342 0.82893032
0.0021769123 0.062403928 0.8281334
0.0073536015 0.062668636 0.82727605
0.012970533 0.063085802 0.826985
0.017595733 0.063079879 0.82690358
0.022221597 0.063076936 0.82686645
0.027600927 0.063037477 0.82634449
0.032981798 0.063013464 0.8260296
0.037594676 0.062998042 0.82582229
0.042236604 0.063028283 0.82622212
0.047660291 0.063070633 0.82677215
0.0524568 0.063477956 0.82541114
0.056043845 0.062960364 0.82533342
-0.002456618 0.067071393 0.82870775
0.0024009098 0.067443267 0.82921928
0.0077973143 0.067692213 0.82858205
0.01300009 0.067083135 0.82885581
0.017831879 0.067666717 0.82891697
0.022263862 0.067822389 0.82845944
0.02744087 0.067633055 0.82785451
0.032752763 0.067940854 0.8280201
0.037668169 0.0677386 0.82743692
0.042345088 0.067812189 0.82834095
0.04701462 0.067863367 0.82897073
0.052354831 0.067774124 0.82787228
0.056913599 0.06768588 0.82679415
0.022800429 0.071999155 0.82924467
0.026917007 0.072492033 0.82900041
0.032117508 0.072351836 0.82900041
0.03774114 0.071723901 0.82903367
0.040831875 0.071720988 0.82900035
0.047833577 0.071015552 0.82976687
0.052893061 0.07234019 0.82902706
0.057035077 0.072453432 0.82855248
0.026929986 0.075612746 0.82940024
0.030016445 0.075594515 0.82920033
0.013874371 0.04971581 0.83496642
0.016210824 0.049717795 0.83499974
0.027111826 0.049717795 0.83499974
0.032560237 0.049714819 0.83494979
0.038255535 0.049006816 0.83349323
0.042197179 0.049214434 0.8330667
0.047288191 0.049646344 0.83380002
0.052676667 0.049079046 0.8329556
0.055976156 0.04850471 0.83196265
-0.0014362102 0.053767111 0.83356595
0.002187327 0.053407695 0.83200002
0.0070172804 0.052315209 0.83241475
0.013032782 0.051022749 0.83095551
0.017670868 0.050990671 0.83043325
0.022341356 0.051043212 0.83128887
0.027013903 0.051085513 0.83197778
0.031666495 0.05146781 0.83191669
0.043227486 0.05099272 0.83046663
0.047121018 0.051015925 0.8308444
0.050969735 0.050990671 0.83043337
-0.0022099414 0.057290215 0.83220059
0.0021834562 0.055637602 0.8306222
0.0052780313 0.055595934 0.83000004
-0.002854065 0.061482482 0.83131671
-0.0020782934 0.068436392 0.83124214
0.0014085714 0.069519475 0.83033335
0.005281846 0.069541804 0.83060002
0.013028334 0.069547392 0.8306666
0.01612669 0.069547392 0.8306666
-0.0015401045 0.072888352 0.83352137
0.0021884602 0.072798088 0.83248889
0.0076220431 0.0727944 0.83244449
0.013067063 0.072853386 0.83311862
0.017706124 0.072765321 0.83211112
0.021308146 0.073729277 0.83135551
0.034731075 0.074212782 0.83099991
0.037856996 0.074266359 0.83159995
0.04291467 0.072873831 0.83083802
0.046904087 0.073102079 0.83092374
0.050184995 0.073375225 0.83026671
0.0076449579 0.076117165 0.8349331
0.013095945 0.076121219 0.83497757
0.018068943 0.076702014 0.8345331
0.022593366 0.077344805 0.83349991
0.027048726 0.077691071 0.83305001
0.032709125 0.077661149 0.83330309
0.038172543 0.077412479 0.83423316
0.042392254 0.077108458 0.83363789
0.047426503 0.077281117 0.8328082
0.052387465 0.077231318 0.83170915
0.057540879 0.077415377 0.83217031
0.030226398 0.080783039 0.83499974
0.048913829 0.080783039 0.83499974
0.052028388 0.080783039 0.83499974
0.058248241 0.080770135 0.83486646
-0.0081215492 0.046522435 0.83900005
0.0072875833 0.049545761 0.8386668
0.011838209 0.048846956 0.8378334
0.018132959 0.048930638 0.83750665
0.022500202 0.049071014 0.83724451
0.027588867 0.047927238 0.83765006
0.032338437 0.047660489 0.83785719
0.037618104 0.046765324 0.83777785
0.043016586 0.046728607 0.83713335
0.047300979 0.046942417 0.837475
0.051802911 0.047147818 0.83765006
0.055308063 0.045971237 0.83749998
-0.0056045642 0.053729348 0.83700001
-0.0024809761 0.052158043 0.836806
0.0021961832 0.051295638 0.83539987
-0.0056045642 0.056064822 0.83700001
-0.0040435484 0.056843311 0.83700001
-0.0040338864 0.0621439 0.83500004
-0.0024766009 0.073016718 0.83500004
-0.0013126397 0.07754799 0.8377887
0.0021998978 0.077854753 0.83689886
0.0073261531 0.07850147 0.83669519
0.012678032 0.078732766 0.83679038
0.017412264 0.078991503 0.83658326
0.020904353 0.079312012 0.83586651
0.036458436 0.079236135 0.83506638
0.043537833 0.079365768 0.83643329
0.045817535 0.079261422 0.83533311
0.0025979569 0.081584707 0.83925009
0.0068893656 0.082609698 0.83776301
0.012349668 0.082550235 0.83716661
0.017817214 0.082565494 0.83731848
0.022487566 0.082512878 0.83678508
0.027171088 0.082515329 0.83680737
0.032845549 0.082656547 0.83680594
0.038101751 0.082529195 0.83695549
0.042830985 0.082617685 0.83784455
0.04731591 0.082801528 0.83773333
0.052146003 0.083301157 0.83688885
0.057276227 0.082805395 0.83659327
0.0072920606 0.086254343 0.83911681
0.012287501 0.08687786 0.83885199
0.017854525 0.085858963 0.8390668
0.022548063 0.085854411 0.8390224
0.027241066 0.085849874 0.83897799
0.03233178 0.08625453 0.83911681
0.037293974 0.08650548 0.83884776
0.041860718 0.086402178 0.83928901
0.04800085 0.086290307 0.83946681
0.052508201 0.086978875 0.83911449
0.056754056 0.086975969 0.83908588
0.060087036 0.085831672 0.83880019
0.061666112 0.092875272 0.83900011
-0.0076047839 0.04271942 0.84249997
0.0037974806 0.044025782 0.84499991
0.0069493516 0.044025782 0.84499997
0.012202338 0.043501247 0.84498876
0.017980903 0.044025782 0.84499991
0.022708712 0.044025782 0.84499991
0.027808495 0.043598957 0.84434998
0.032101337 0.04393895 0.84333348
0.037593067 0.043924194 0.84305024
0.043140732 0.043576378 0.84391677
0.047860026 0.043966737 0.84386683
0.052645605 0.044020992 0.844908
-0.0061710402 0.048121899 0.84333342
-0.0022399954 0.047593053 0.84322721
0.0022159761 0.047057483 0.84302586
0.0067276023 0.046799894 0.84190834
0.012419305 0.046212375 0.84189999
0.017926738 0.046243142 0.84245563
0.022628365 0.046218578 0.84201115
0.027007271 0.046031423 0.84145337
0.032027069 0.045402173 0.84137756
0.036724284 0.045390185 0.84115535
0.042967539 0.045356609 0.84053314
0.049249671 0.045367405 0.84073329
0.052473087 0.045444146 0.84215564
-0.010336774 0.050075065 0.84100002
-0.0072014979 0.050873093 0.84125006
-0.0035406614 0.050620731 0.84141666
0.002209021 0.05003801 0.84037775
-0.0034396097 0.078612104 0.84169996
-0.002500382 0.083088748 0.84262055
0.0018965441 0.083831981 0.84064865
-0.0021072838 0.086683296 0.84328794
0.0022137472 0.087757319 0.84229636
0.0066035106 0.088574342 0.84113324
0.012665566 0.089171477 0.84086651
0.017889965 0.08837574 0.84073323
0.022602325 0.088408239 0.84104425
0.027301684 0.088386215 0.84083319
0.031699412 0.088562734 0.84102643
0.037652358 0.088858701 0.84086645
0.043529119 0.088172108 0.84127766
0.047383737 0.088561401 0.84101313
0.051601402 0.08915735 0.84073311
0.057875879 0.089160889 0.84076643
-0.0025042836 0.094250977 0.84433335
0.0024444035 0.092226163 0.84427631
0.0069386866 0.092619717 0.8437705
0.012436461 0.092534862 0.84299451
0.01795318 0.09261252 0.84370381
0.02266887 0.092592828 0.84352612
0.027377861 0.09255442 0.84317803
0.032104846 0.092583187 0.84343719
0.037589811 0.092533082 0.84298354
0.043117788 0.09258464 0.84345192
0.047832619 0.092579618 0.84340006
0.052466594 0.092430204 0.84204447
0.057155475 0.092392571 0.84170365
0.060244646 0.093096688 0.84099972
-0.002503295 0.09578377 0.84400004
0.0037974806 0.09589722 0.84499991
0.0077373185 0.09589722 0.84499991
0.012464897 0.095895328 0.84498322
0.024284655 0.09589722 0.84499991
0.027436515 0.09589722 0.84499997
0.032361321 0.097272612 0.84499985
0.037445001 0.097276516 0.84456354
0.042377383 0.097398438 0.84438318
0.048238873 0.096525967 0.84499991
0.052823652 0.097228169 0.84460831
0.057321057 0.09737207 0.84414822
0.060342528 0.096382454 0.8423667
0.033740267 0.10061287 0.84499991
0.037286114 0.10100583 0.84499991
0.04161993 0.10139879 0.84499985
0.053702127 0.10113681 0.84499997
0.057364292 0.10215861 0.84478503
0.060445525 0.10125484 0.84380472
0.053024821 0.038062017 0.84783673
-0.0056759878 0.042590071 0.84766674
-0.002514581 0.043373544 0.84762591
0.0022273448 0.042564262 0.84722805
0.0069576264 0.041720111 0.84606671
0.012755148 0.041492242 0.84677792
0.018038271 0.042136822 0.84769541
0.022774059 0.042123951 0.84742874
0.027195781 0.041624203 0.8473202
0.032245576 0.041771304 0.84712237
0.036975175 0.041759703 0.84688902
0.042397838 0.041655552 0.84704781
0.048056204 0.041781679 0.84732229
0.052741215 0.041738879 0.84644771
0.055869397 0.041716371 0.84600008
-0.0030371665 0.046200991 0.84646672
-0.0056648282 0.087356195 0.84600008
-0.0028236771 0.089034095 0.84549999
-0.0019839031 0.092346728 0.84607393
0.0014338241 0.094352201 0.84524012
-0.00093394273 0.097059794 0.84828573
0.0020289456 0.097884834 0.84688318
0.006733167 0.098050721 0.84613329
0.012484747 0.098405927 0.84629172
0.018023092 0.097697943 0.84697038
0.022566322 0.097904079 0.84705007
0.027482165 0.098419636 0.84641117
0.030598043 0.099072233 0.84526652
0.044821255 0.098364368 0.84593332
0.047582559 0.098757371 0.84593332
0.051083628 0.099056609 0.84513319
0.060531165 0.099040985 0.84500003
-0.0025181249 0.10108912 0.84900004
0.003024684 0.10111689 0.84923363
0.0069812709 0.10107851 0.84891146
0.012181791 0.1017378 0.84876215
0.018069983 0.10150613 0.84918368
0.022825897 0.10113407 0.84937811
0.027569063 0.10149416 0.84908366
0.032068003 0.10270722 0.84768349
0.036625255 0.10326634 0.84613335
0.0433052 0.10322801 0.84711123
0.04806219 0.10248114 0.84744465
0.052224811 0.10290422 0.8466112
0.033105545 0.10581876 0.8489337
0.037669763 0.10668987 0.84832031
0.041800871 0.10736506 0.84866691
0.048159316 0.10584646 0.8491559
0.053062007 0.10713722 0.84842521
0.057547756 0.10721754 0.84748906
-0.00093995885 0.039717253 0.85375005
0.0038232354 0.039576806 0.85073084
0.0070090042 0.039651081 0.85232759
0.013101622 0.039112102 0.85212779
0.018154709 0.038897339 0.85319996
0.022906991 0.038858913 0.85236663
0.027664989 0.038844936 0.85205549
0.03244793 0.038862575 0.85244995
0.037219573 0.038864806 0.85249996
0.0419848 0.038860671 0.85241109
0.046988886 0.039100666 0.85187775
0.050722413 0.037274145 0.85232818
-0.0017330258 0.041209839 0.85177505
0.00065108592 0.041228794 0.85216665
-0.0056949602 0.045894433 0.85050005
-0.00093754276 0.099809356 0.85155553
-0.0017345151 0.1031478 0.85295832
0.002013799 0.10353189 0.85237843
0.0070038703 0.10379075 0.85172218
0.013027282 0.10415982 0.85085994
0.018106615 0.10384881 0.85090655
0.02286846 0.10369509 0.85094434
0.027623644 0.10383265 0.85077322
-0.0041256757 0.10645027 0.85400003
0.0033090375 0.10705233 0.85457784
0.0072240359 0.10786484 0.85419178
0.012598552 0.10804427 0.85404176
0.018157955 0.10795762 0.8533482
0.022902984 0.10781859 0.85224438
0.027664838 0.10779191 0.85203332
0.032176752 0.10814957 0.85129511
0.036353976 0.10843186 0.85084993
0.047189873 0.10814966 0.8507036
0.051434185 0.10923383 0.85093325
0.01287435 0.11131161 0.85473353
0.018580358 0.11167224 0.85445017
0.023151971 0.11261726 0.85408342
0.027502662 0.11235716 0.85404772
0.032504391 0.11200175 0.85393339
0.03747512 0.11224009 0.85314763
0.04197285 0.11256394 0.8521629
0.047055494 0.11231808 0.85374767
0.052476875 0.11221892 0.85356671
0.05759225 0.11161322 0.85400003
0.041680261 0.11642238 0.85431677
0.039081123 0.033549014 0.85846657
0.042311214 0.032429013 0.85903817
0.046022195 0.033018634 0.85853153
0.0078532612 0.039089933 0.85745001
0.011855553 0.037777767 0.85782236
0.017925177 0.036380764 0.8574667
0.02304705 0.035905451 0.85756683
0.027851991 0.035915516 0.85781127
0.032336164 0.03608026 0.8579334
0.03742769 0.035893667 0.85727787
0.042216349 0.035886902 0.85711122
0.047222976 0.036215607 0.85680962
0.050109714 0.035816666 0.85541534
-0.0057451804 0.10854492 0.85800004
-0.0019023663 0.10708356 0.85651577
0.001931227 0.10860687 0.8559702
0.0054425178 0.10986713 0.85586697
-0.0013447981 0.11135283 0.85810435
0.0020256808 0.11215612 0.85771239
0.0072485534 0.11301513 0.85709178
0.011839285 0.11362226 0.85673344
0.017078215 0.1140058 0.85620022
0.02140788 0.11466121 0.8560003
0.02857041 0.11457637 0.85536695
0.032567244 0.11460465 0.85557812
0.036560025 0.11461656 0.855667
0.046124086 0.11458977 0.85546696
0.05224891 0.1146106 0.85562247
0.058456201 0.11404415 0.85614681
0.061462414 0.1149291 0.85800004
0.0022595401 0.11514043 0.85957783
0.0070680939 0.11617974 0.85937786
0.011866901 0.11662474 0.85873336
0.01746092 0.11735096 0.85819995
0.023028009 0.11797151 0.85690385
0.027829001 0.11799814 0.85709637
0.032630749 0.11801745 0.85723716
0.037396472 0.11792425 0.85656315
0.042464975 0.11875713 0.85568029
0.04699114 0.11794712 0.85672611
0.05236778 0.11780889 0.85677582
0.057892345 0.11817846 0.85725337
0.061462414 0.11812118 0.85800004
0.024145687 0.12195009 0.85873336
0.027916901 0.12156781 0.85980016
0.031926032 0.12156781 0.8598001
0.038037382 0.12252212 0.85901117
0.042287726 0.12298939 0.85854816
0.047148794 0.12153953 0.85960007
0.052361701 0.12194648 0.85965008
0.05725468 0.1226825 0.85888892
0.040751681 0.12638561 0.8599335
0.029675109 0.028953703 0.86430019
0.032827035 0.028490363 0.86243337
0.037603248 0.028853655 0.8613134
0.04075484 0.02880965 0.86000007
0.017547075 0.032902148 0.86245835
0.022751881 0.033268057 0.86155009
0.028243339 0.032569587 0.86276668
0.032814667 0.032086696 0.8621037
0.037362263 0.031822778 0.86037511
0.042358749 0.030409411 0.86000013
0.047170483 0.032009177 0.86000001
-0.00095124386 0.036979679 0.86400002
0.002268167 0.038520832 0.86252117
0.0070927017 0.037980352 0.8624
0.011903173 0.036066782 0.86140013
0.016706875 0.03523327 0.86060005
0.034339193 0.035208706 0.86000019
-0.0025507507 0.10879794 0.86000001
-0.003626084 0.11223684 0.86183339
-0.0017539901 0.11711643 0.86234212
0.0022625017 0.11768349 0.86063343
0.0066720541 0.11800347 0.86005014
0.011884446 0.11839653 0.86000019
0.017498132 0.1199963 0.86000019
-0.0009510236 0.12052651 0.86380005
0.0022680133 0.12197465 0.86266696
0.0070895096 0.1218904 0.86207408
0.011906186 0.12182099 0.8615852
0.017515248 0.12252446 0.86090004
0.022797875 0.12355258 0.86025351
0.027941665 0.1239168 0.86056012
0.032979082 0.1237096 0.8603906
0.0364861 0.12429139 0.86020017
0.04721209 0.12330406 0.86075562
0.051204003 0.12325314 0.86040008
0.055190049 0.12479562 0.86000019
0.060536396 0.12426236 0.86000013
0.0071075168 0.12541954 0.86430025
0.011936083 0.12598415 0.86376017
0.017551171 0.12678756 0.86266381
0.023159936 0.12772895 0.86179996
0.02798577 0.12796052 0.86192
0.032798562 0.12824292 0.86165929
0.03781113 0.12801276 0.86145836
0.042642403 0.12844534 0.86167502
0.047322791 0.1268048 0.86277783
0.052126341 0.12674791 0.86239266
0.056879234 0.12738818 0.86129999
0.06089443 0.12738606 0.86128575
0.019191187 0.13020012 0.86401689
0.022239815 0.13141464 0.86354673
0.028014505 0.13162182 0.86280006
0.032868221 0.13172521 0.86347789
0.037311401 0.13137665 0.8638252
0.042541664 0.13176082 0.86371118
0.047394648 0.13101493 0.86408901
0.052223999 0.13100123 0.86400026
0.057043444 0.13096775 0.86377794
0.061088026 0.1310046 0.86402166
0.0039053396 0.029111145 0.8689999
0.007146731 0.029111145 0.8689999
0.023023317 0.028781887 0.86881334
0.027341375 0.029043591 0.86698341
0.0027460728 0.032550223 0.86832851
0.0071442458 0.032334834 0.86874807
0.011978009 0.03226291 0.86682761
0.01681597 0.03062596 0.86612421
0.023019368 0.03117992 0.8666169
0.027319808 0.030632177 0.86630011
-0.00095464685 0.03549901 0.86709094
0.002279341 0.036296193 0.86689204
0.0068063019 0.036138691 0.86698008
0.010356643 0.035469361 0.86636674
-0.0014920706 0.12251916 0.86651677
-0.00095699338 0.12775034 0.86922222
0.0022779952 0.12736587 0.86659706
0.0071265716 0.12816851 0.86657792
0.011967306 0.12849313 0.86605018
0.0022811806 0.1323131 0.86732674
0.0071395645 0.13243423 0.86811852
0.012001363 0.13248938 0.8684814
0.016641801 0.13255924 0.86761254
0.022495117 0.13390236 0.8671751
0.028135063 0.13380329 0.86653346
0.033002615 0.13387878 0.86702234
0.037852641 0.13387536 0.86700016
0.042693492 0.13384447 0.86680013
0.047578689 0.13394569 0.86745566
0.052395266 0.13384962 0.86683345
0.057245031 0.13384961 0.86683345
0.061296269 0.1338702 0.86696684
0.0022839571 0.13573766 0.86859709
0.0063393251 0.13586834 0.86943328
0.016873829 0.13582666 0.86916661
0.022756809 0.13722943 0.86873937
0.028184894 0.13726895 0.86805558
0.033069327 0.13738129 0.86877036
0.037936725 0.13740553 0.86892581
0.042754527 0.13726717 0.86804444
0.047889568 0.1369393 0.86889517
0.052494422 0.13733512 0.86847413
0.057318278 0.13725202 0.86794829
0.062189307 0.13728303 0.86814785
0.065341055 0.13871367 0.86700004
0.024176953 0.14153463 0.8694666
0.028501146 0.14180419 0.8694666
0.032296017 0.14077426 0.86976671
0.039581906 0.14072572 0.86946666
0.042814042 0.14149846 0.8692444
0.058227394 0.14072031 0.86943334
0.06304574 0.14223424 0.86879998
0.065491781 0.14065015 0.86900002
0.016890321 0.029144645 0.87000018
0.0031021747 0.13854825 0.87102658
0.0073943138 0.13818167 0.87090492
0.012035602 0.13772541 0.87094837
0.016905153 0.13816036 0.87077171
0.020143157 0.13924697 0.87033343
0.046941932 0.13929501 0.87063354
0.0031124658 0.14144745 0.87392592
0.0071809539 0.14295109 0.87317395
0.01204956 0.14275628 0.8719852
0.016918391 0.14266759 0.87144458
0.021316472 0.1428102 0.87090492
0.027054403 0.14376822 0.87075019
0.033374663 0.14300713 0.87069541
0.037810914 0.1427466 0.8706919
0.042900551 0.14421433 0.87100023
0.047803607 0.14268379 0.87154078
0.052654702 0.14261538 0.87112606
0.057275478 0.14302585 0.87080973
0.060727369 0.14249645 0.87040013
0.012405859 0.14701006 0.87413323
0.017199693 0.14748599 0.87392372
0.02163605 0.14763811 0.87327492
0.027253015 0.1472223 0.87281483
0.032755274 0.14729416 0.87278098
0.038319137 0.14722167 0.87235248
0.042951278 0.14763194 0.87203711
0.047905833 0.14765963 0.87340397
0.052792076 0.14786185 0.87339985
0.057618909 0.14771035 0.87250352
0.06158128 0.14745505 0.87100011
0.043901771 0.15134689 0.87476665
0.05936097 0.15205978 0.8741833
0.060956523 0.152786 0.87368423
0.0039332025 0.14328168 0.87519991
0.0032872502 0.14651248 0.87699413
0.0072012302 0.14743644 0.8757
0.011687943 0.14941257 0.87535006
0.016171442 0.14975961 0.87500006
0.023514928 0.14975961 0.87500006
0.026787883 0.14981095 0.87530005
0.034145981 0.14986515 0.87561673
0.037396483 0.14980239 0.87524998
0.047993217 0.14975961 0.875
0.0035398775 0.15206517 0.87891495
0.0072223255 0.15194665 0.87822986
0.012132667 0.15271719 0.87796688
0.017040426 0.15267682 0.87773353
0.021938985 0.15258743 0.87721682
0.027098371 0.15234046 0.8778097
0.031777941 0.15234873 0.87785727
0.037506294 0.15269518 0.87783766
0.042788405 0.15296185 0.87702513
0.048094664 0.15252274 0.87684464
0.052967053 0.15242821 0.8763001
0.057064526 0.15245892 0.8764751
0.0075646364 0.15616223 0.87989312
0.012355708 0.15682893 0.87926656
0.017071061 0.15704143 0.87931103
0.021985361 0.15700033 0.87908149
0.026916165 0.15707271 0.87948877
0.031828646 0.15703042 0.87925172
0.037085753 0.15691099 0.87949979
0.042701062 0.15714823 0.87907881
0.047590695 0.156441 0.87961978
0.053163383 0.15626423 0.87954426
0.058079571 0.15625232 0.87947756
0.061283197 0.15687151 0.87836671
0.02693172 0.16043715 0.87999982
0.031855356 0.16043715 0.87999982
0.036778104 0.16043311 0.87997752
0.042796772 0.16043715 0.87999982
0.063038357 0.16043715 0.87999976
0.0023209723 0.14945553 0.88281828
0.0023142197 0.15393308 0.88024992
0.0035493369 0.15696613 0.88118267
0.0068370397 0.15861793 0.88125825
0.010522809 0.1588483 0.88026643
0.049127184 0.15810794 0.88069981
0.053225741 0.15890443 0.88057756
0.058228835 0.15911298 0.88173324
0.062291734 0.15898667 0.88103324
0.0081003783 0.16128802 0.8846668
0.012533138 0.16165704 0.88308001
0.017145798 0.16245334 0.88316256
0.022067038 0.16251451 0.8823778
0.026971048 0.16313364 0.88129979
0.031895701 0.16309889 0.88111097
0.036841128 0.16316463 0.88146663
0.041793961 0.16290188 0.88194287
0.046764523 0.16255382 0.88260013
0.05262199 0.16202515 0.88270009
0.058086421 0.1625081 0.88235188
0.063109413 0.16246359 0.88099581
0.02295322 0.16625002 0.88480014
0.027021503 0.16589923 0.88293338
0.031991314 0.16604957 0.88373345
0.036138281 0.16617486 0.88440013
0.043555632 0.16615607 0.88430011
0.045235533 0.16626881 0.88490015
0.064122468 0.16603002 0.88362938
0.065032355 0.16789594 0.8848002
0.065032355 0.17118774 0.8848002
0.0023276471 0.15812002 0.88535702
0.0029954747 0.16214587 0.8875578
0.006878335 0.1628689 0.88654983
0.012241311 0.16425084 0.88585562
0.017188657 0.16470957 0.88536674
0.048541706 0.16464137 0.88500017
0.051019415 0.16464756 0.88503349
0.056794401 0.16464137 0.88500017
0.0033321865 0.16738014 0.88905323
0.0073051252 0.16690233 0.8882665
0.012024245 0.16718359 0.88725692
0.017213179 0.16741943 0.88663322
0.021840293 0.16822033 0.88650644
0.027120883 0.16898239 0.8861776
0.032099158 0.16908778 0.88673306
0.037293453 0.16872206 0.88666642
0.041792594 0.16837981 0.88625824
0.046960067 0.16790633 0.88629985
0.051925581 0.16737981 0.8864221
0.056870665 0.16733594 0.88618881
0.061832458 0.16789405 0.88623327
0.065066658 0.16963121 0.88526684
0.003166459 0.17035937 0.88906664
0.0073119593 0.17119499 0.8891111
0.012492882 0.17180054 0.88903332
0.017254401 0.17195389 0.88875544
0.022228161 0.17216912 0.88879991
0.026879525 0.17268807 0.88913333
0.032180209 0.17282312 0.88897777
0.037132014 0.17272186 0.88845545
0.042097285 0.17269601 0.88832206
0.047094334 0.17169271 0.88883334
0.052087884 0.17121004 0.88918895
0.057253402 0.17177936 0.88892496
0.061794195 0.17214295 0.88866663
0.066101491 0.17347172 0.88806653
0.018931368 0.17543919 0.88966674
0.021418504 0.17542605 0.88960004
0.037992526 0.17617437 0.88920003
0.041897096 0.17650998 0.88910472
0.045460455 0.17619431 0.88929999
0.058770753 0.17549178 0.88993353
0.06539499 0.17545234 0.88973349
0.00317109 0.17309313 0.89036685
0.0073250621 0.17398389 0.89068913
0.010647128 0.17397955 0.8906669
0.028897636 0.17384936 0.8900001
0.048013091 0.17394701 0.89050019
0.052185159 0.17401427 0.89084464
0.05547617 0.17391445 0.89033347
0.0040142452 0.17614251 0.89323366
0.0076799965 0.17682265 0.89330691
0.012569731 0.17716905 0.89241934
0.01710717 0.1777429 0.89187527
0.022530885 0.17791696 0.89141452
0.02729699 0.17754696 0.89193356
0.032267038 0.17743659 0.89138168
0.036567338 0.17798993 0.8908335
0.04304 0.17895675 0.89070022
0.047702905 0.17766748 0.89135259
0.052243918 0.1775292 0.89184463
0.056987606 0.17761794 0.89125437
0.062182918 0.1774113 0.89125705
0.065543205 0.17750888 0.89174992
0.018199231 0.18137743 0.89446688
0.022366865 0.18218486 0.89434463
0.026950613 0.18174967 0.89425027
0.032373887 0.18218018 0.89432257
0.037369791 0.18214424 0.89414477
0.042331848 0.18197034 0.89328915
0.046277434 0.18191846 0.8944003
0.05779529 0.18172058 0.89410871
0.061536599 0.18293549 0.89394754
0.0056973053 0.17834152 0.89593333
0.012368117 0.1798207 0.8950001
0.0078575602 0.18172459 0.89735252
0.012145403 0.18220358 0.89619046
0.01697178 0.18287732 0.89569998
0.020732559 0.18498053 0.89579993
0.028236028 0.1832186 0.89533341
0.03242971 0.18499428 0.89586663
0.037439339 0.18498054 0.89579999
0.042445064 0.18495299 0.89566678
0.048578341 0.18276347 0.89582223
0.052474722 0.1824789 0.89578891
0.057465512 0.18380086 0.8954668
0.0082309535 0.18562064 0.89890021
0.012620053 0.18692246 0.89812112
0.01740486 0.18679889 0.89652604
0.022623649 0.18695116 0.89625835
0.027421795 0.18669169 0.89601475
0.032435168 0.18690041 0.8960166
0.03745117 0.1869144 0.89608335
0.04246388 0.1869109 0.89606661
0.04753761 0.18693396 0.89717793
0.05259461 0.18707156 0.89783734
0.057369404 0.18715328 0.8972252
0.061715707 0.18763775 0.89655113
0.014111015 0.19080666 0.89970016
0.017674787 0.19165774 0.89808595
0.022464767 0.19217016 0.89824843
0.027280932 0.19196366 0.89825857
0.032504514 0.19126721 0.89793366
0.03753702 0.19130982 0.89813358
0.042557944 0.19129203 0.89805025
0.046934739 0.19154997 0.89847362
0.052681342 0.19072181 0.89930028
0.058491718 0.19136691 0.89840025
0.062641509 0.19208437 0.89784837
0.065920606 0.19187795 0.8968848
0.019140625 0.19578394 0.89950013
0.06432303 0.19544294 0.89793354
0.0057261339 0.18259402 0.90046686
0.0074139293 0.18812786 0.90156692
0.010763479 0.18928023 0.90040028
0.0082711419 0.1924209 0.90335
0.01246287 0.19266485 0.90186691
0.016659852 0.1945352 0.90146685
0.029225575 0.19424027 0.90010017
0.032617927 0.19444649 0.90105587
0.037690911 0.19461191 0.90182239
0.042685676 0.19438173 0.90075588
0.048560563 0.19352125 0.90065038
0.052780047 0.19359644 0.90100032
0.057128459 0.19336031 0.90068036
0.013338557 0.19597618 0.90425003
0.017185785 0.19746783 0.90260679
0.022547735 0.19743173 0.90156215
0.027594032 0.19708867 0.90163904
0.032678742 0.19732662 0.90272778
0.03775198 0.19744916 0.90328884
0.043010302 0.19764289 0.90252864
0.047581308 0.19779438 0.90198755
0.052849639 0.19720887 0.90218896
0.057889145 0.19718222 0.90206677
0.062909558 0.19793858 0.9016906
0.022597155 0.20002711 0.90354991
0.027665578 0.20011936 0.90396661
0.038659323 0.20030382 0.90480006
0.042856019 0.20076132 0.90433329
0.047883973 0.20174915 0.90373421
0.052959397 0.2001415 0.90406674
0.058853209 0.20011567 0.90394998
0.064728938 0.20171897 0.90359998
0.0082954057 0.19718905 0.90595561
0.011953178 0.19770233 0.90573341
0.0083162272 0.20275106 0.90821689
0.01254519 0.20266904 0.90785217
0.017597945 0.20236492 0.90648907
0.022660391 0.20311743 0.90608901
0.02772744 0.2030974 0.90600008
0.032797892 0.20226337 0.90603709
0.037622772 0.20272882 0.9059667
0.04258927 0.20323007 0.90584004
0.048579782 0.20342831 0.9062224
0.053129319 0.2033149 0.90696687
0.057946611 0.20289753 0.90671456
0.062656544 0.20284595 0.90612793
0.014256882 0.20715229 0.90900016
0.017635413 0.20786059 0.9084003
0.022707231 0.20775847 0.90795588
0.027791832 0.20779258 0.90810406
0.032870334 0.20777892 0.90804482
0.037896294 0.20748408 0.90675575
0.042960845 0.20743792 0.90655202
0.048056047 0.20753199 0.90696311
0.053045176 0.20782135 0.90915012
0.057499915 0.20804821 0.90921676
0.061401743 0.20771483 0.90924007
0.019362634 0.21159612 0.90993327
0.023171563 0.21193399 0.9095667
0.02783701 0.21151471 0.90958345
0.032921512 0.21148759 0.90946674
0.037641462 0.21199998 0.90876019
0.043305941 0.21252313 0.90872401
0.047595829 0.21249799 0.9089613
0.0092202593 0.20826538 0.91388357
0.012251562 0.20816632 0.91121995
0.063567005 0.20847775 0.91110003
0.065302029 0.20689641 0.91159999
0.012964296 0.21208873 0.91351348
0.01735666 0.2129924 0.91155994
0.021915592 0.21335909 0.91023326
0.027866662 0.21301195 0.91055828
0.032954339 0.21339034 0.91036659
0.039731428 0.21331222 0.91003329
0.049980607 0.21359345 0.91123331
0.05253803 0.21277997 0.91137499
0.056794029 0.21280527 0.91148335
0.061723355 0.21234338 0.91314459
0.014334257 0.21592641 0.91393352
0.018311022 0.21705316 0.9139002
0.0075318944 0.20785721 0.91583353
0.008403454 0.21171823 0.91779983
0.011507641 0.21392469 0.91506702
0.063915834 0.21303008 0.91610014
0.065836906 0.21115616 0.91906655
