# .PCD v0.7 - Point Cloud Data file format
VERSION 0.7
FIELDS x y z
SIZE 4 4 4
TYPE F F F
COUNT 1 1 1
WIDTH 1294
HEIGHT 1
VIEWPOINT 0 0 0 1 0 0 0
POINTS 1294
DATA ascii
-0.011800744 -0.031298824 0.15335843
-0.011383772 -0.031451121 0.15513037
-0.010028802 -0.031715803 0.15513037
-0.0082568601 -0.031962149 0.15513037
-0.011695772 -0.031451121 0.15690231
-0.010028802 -0.031787612 0.15690231
-0.0082568601 -0.032039478 0.15690231
-0.013572685 -0.030925646 0.15513037
-0.011800744 -0.031360783 0.15513037
-0.013572685 -0.03098546 0.15690231
-0.011800744 -0.03142672 0.15690231
-0.0064849257 -0.032022052 0.15158649
-0.004712984 -0.032101206 0.15158649
-0.0064849257 -0.032052942 0.15335843
-0.004712984 -0.032151647 0.15335843
-0.0029410422 -0.03213162 0.15158649
-0.0011691004 -0.03213352 0.15158649
-0.0029410422 -0.032201476 0.15335843
-0.0011691004 -0.032223679 0.15335843
-0.0064849257 -0.032124206 0.15513037
-0.004712984 -0.032230243 0.15513037
-0.0064849257 -0.032236956 0.15690231
-0.004712984 -0.032379679 0.15690231
-0.0029410422 -0.032294467 0.15513037
-0.0011691004 -0.032345213 0.15513037
-0.0029410422 -0.032447353 0.15690231
-0.0011691004 -0.032496989 0.15690231
-0.030173324 -0.013731718 0.1303232
-0.029520154 -0.015301205 0.1303232
-0.030202918 -0.013731718 0.13209514
-0.029520154 -0.015333973 0.13209514
-0.030240588 -0.013731718 0.13386708
-0.029520154 -0.015402317 0.13386708
-0.030280925 -0.013731718 0.13563903
-0.029520154 -0.0154984 0.13563903
-0.029554769 -0.01550366 0.13741097
-0.029520154 -0.015578821 0.13741097
-0.029520154 -0.01550366 0.1357293
-0.030322134 -0.013731718 0.13741097
-0.029572986 -0.01550366 0.13918291
-0.029520154 -0.01561705 0.13918291
-0.030341536 -0.013731718 0.13918291
-0.029575914 -0.01550366 0.14095485
-0.029520154 -0.015622631 0.14095485
-0.030351937 -0.013731718 0.14095485
-0.029575594 -0.01550366 0.14272679
-0.029520154 -0.015623361 0.14272679
-0.030358717 -0.013731718 0.14272679
-0.030806966 -0.011959776 0.1303232
-0.031306125 -0.010187835 0.1303232
-0.031292096 -0.010242529 0.1303232
-0.031292096 -0.010187835 0.12994483
-0.030859232 -0.011959776 0.13209514
-0.031370804 -0.010187835 0.13209514
-0.031292096 -0.010490872 0.13209514
-0.031688102 -0.0084158927 0.1303232
-0.031960875 -0.0066439509 0.1303232
-0.03176026 -0.0084158927 0.13209514
-0.032033004 -0.0066439509 0.13209514
-0.030901395 -0.011959776 0.13386708
-0.031416506 -0.010187835 0.13386708
-0.031292096 -0.01065243 0.13386708
-0.030949824 -0.011959776 0.13563903
-0.031467907 -0.010187835 0.13563903
-0.031292096 -0.010844938 0.13563903
-0.031818084 -0.0084158927 0.13386708
-0.032084651 -0.0066439509 0.13386708
-0.031865411 -0.0084158927 0.13563903
-0.032135464 -0.0066439509 0.13563903
-0.032145768 -0.0048720166 0.1303232
-0.032268859 -0.0031000748 0.1303232
-0.032224625 -0.0048720166 0.13209514
-0.03235966 -0.0031000748 0.13209514
-0.032363161 -0.001328133 0.1303232
-0.032405503 0.00044380873 0.1303232
-0.032447696 -0.001328133 0.13209514
-0.032472007 0.00044380873 0.13209514
-0.03227172 -0.0048720166 0.13386708
-0.032423042 -0.0031000748 0.13386708
-0.032336943 -0.0048720166 0.13563903
-0.032478735 -0.0031000748 0.13563903
-0.032513864 -0.001328133 0.13386708
-0.032532185 0.00044380873 0.13386708
-0.032564633 -0.001328133 0.13563903
-0.032586917 0.00044380873 0.13563903
-0.030989774 -0.011959776 0.13741097
-0.031513855 -0.010187835 0.13741097
-0.031292096 -0.010997497 0.13741097
-0.031010091 -0.011959776 0.13918291
-0.031543866 -0.010187835 0.13918291
-0.031292096 -0.011079066 0.13918291
-0.031909302 -0.0084158927 0.13741097
-0.032193825 -0.0066439509 0.13741097
-0.031955011 -0.0084158927 0.13918291
-0.032265827 -0.0066439509 0.13918291
-0.031022832 -0.011959776 0.14095485
-0.031561084 -0.010187835 0.14095485
-0.031292096 -0.011119053 0.14095485
-0.031033687 -0.011959776 0.14272679
-0.031574361 -0.010187835 0.14272679
-0.031292096 -0.011147462 0.14272679
-0.031988487 -0.0084158927 0.14095485
-0.03231395 -0.0066439509 0.14095485
-0.032010689 -0.0084158927 0.14272679
-0.032349072 -0.0066439509 0.14272679
-0.032402195 -0.0048720166 0.13741097
-0.03253828 -0.0031000748 0.13741097
-0.032480955 -0.0048720166 0.13918291
-0.032606989 -0.0031000748 0.13918291
-0.032612994 -0.001328133 0.13741097
-0.032625429 0.00044380873 0.13741097
-0.032670572 -0.001328133 0.13918291
-0.032671869 0.00044380873 0.13918291
-0.032545559 -0.0048720166 0.14095485
-0.032672398 -0.0031000748 0.14095485
-0.03258431 -0.0048720166 0.14272679
-0.032735668 -0.0031000748 0.14272679
-0.032722309 -0.001328133 0.14095485
-0.032709591 0.00044380873 0.14095485
-0.032779738 -0.001328133 0.14272679
-0.032750405 0.00044380873 0.14272679
-0.029562518 -0.01550366 0.14449874
-0.029520154 -0.01559402 0.14449874
-0.030350529 -0.013731718 0.14449874
-0.029531188 -0.01550366 0.14627068
-0.029520154 -0.015527725 0.14627068
-0.030314855 -0.013731718 0.14627068
-0.029520154 -0.01550366 0.14681126
-0.03026133 -0.013731718 0.14804262
-0.029520154 -0.015433125 0.14804262
-0.030203529 -0.013731718 0.14981456
-0.029520154 -0.015324645 0.14981456
-0.030133553 -0.013731718 0.15158649
-0.029520154 -0.0152013 0.15158649
-0.030093908 -0.013731718 0.15335843
-0.029520154 -0.01509805 0.15335843
-0.030075841 -0.013731718 0.15513037
-0.029520154 -0.015036732 0.15513037
-0.030070767 -0.013731718 0.15690231
-0.029520154 -0.015018128 0.15690231
-0.031028338 -0.011959776 0.14449874
-0.031574078 -0.010187835 0.14449874
-0.031292096 -0.011138916 0.14449874
-0.030990213 -0.011959776 0.14627068
-0.031538531 -0.010187835 0.14627068
-0.031292096 -0.011004463 0.14627068
-0.032022864 -0.0084158927 0.14449874
-0.032374427 -0.0066439509 0.14449874
-0.032008678 -0.0084158927 0.14627068
-0.032370724 -0.0066439509 0.14627068
-0.030941643 -0.011959776 0.14804262
-0.031499192 -0.010187835 0.14804262
-0.031292096 -0.010856733 0.14804262
-0.030901939 -0.011959776 0.14981456
-0.031474188 -0.010187835 0.14981456
-0.031292096 -0.010770924 0.14981456
-0.031985529 -0.0084158927 0.14804262
-0.032366678 -0.0066439509 0.14804262
-0.031972647 -0.0084158927 0.14981456
-0.03237585 -0.0066439509 0.14981456
-0.032615617 -0.0048720166 0.14449874
-0.032782048 -0.0031000748 0.14449874
-0.032637417 -0.0048720166 0.14627068
-0.032815352 -0.0031000748 0.14627068
-0.032839768 -0.001328133 0.14449874
-0.032832243 0.00044380873 0.14449874
-0.03288579 -0.001328133 0.14627068
-0.032921888 0.00044380873 0.14627068
-0.032662228 -0.0048720166 0.14804262
-0.032862671 -0.0031000748 0.14804262
-0.032690085 -0.0048720166 0.14981456
-0.032902479 -0.0031000748 0.14981456
-0.032942273 -0.001328133 0.14804262
-0.032993197 0.00044380873 0.14804262
-0.032993972 -0.001328133 0.14981456
-0.033039533 0.00044380873 0.14981456
-0.030843839 -0.011959776 0.15158649
-0.031442091 -0.010187835 0.15158649
-0.031292096 -0.01066573 0.15158649
-0.030815996 -0.011959776 0.15335843
-0.031425647 -0.010187835 0.15335843
-0.031292096 -0.010610752 0.15335843
-0.031949013 -0.0084158927 0.15158649
-0.032378808 -0.0066439509 0.15158649
-0.031950869 -0.0084158927 0.15335843
-0.032396242 -0.0066439509 0.15335843
-0.030813545 -0.011959776 0.15513037
-0.031436548 -0.010187835 0.15513037
-0.031292096 -0.010630094 0.15513037
-0.03081505 -0.011959776 0.15690231
-0.031454384 -0.010187835 0.15690231
-0.031292096 -0.010661758 0.15690231
-0.03198047 -0.0084158927 0.15513037
-0.0324414 -0.0066439509 0.15513037
-0.032024652 -0.0084158927 0.15690231
-0.032505259 -0.0066439509 0.15690231
-0.032709792 -0.0048720166 0.15158649
-0.032939188 -0.0031000748 0.15158649
-0.032738104 -0.0048720166 0.15335843
-0.033007272 -0.0031000748 0.15335843
-0.033118896 0.00044380873 0.15158649
-0.03306403 -0.00084681064 0.15158649
-0.03306403 0.00044380873 0.15060832
-0.03314352 -0.001328133 0.15335843
-0.03306403 -0.0025866404 0.15335843
-0.03306403 -0.001328133 0.15186793
-0.033224255 0.00044380873 0.15335843
-0.03304968 -0.001328133 0.15158649
-0.033096604 -0.0031000748 0.15513037
-0.03306403 -0.0033333153 0.15513037
-0.03306403 -0.0031000748 0.15451923
-0.033191331 -0.0031000748 0.15690231
-0.03306403 -0.0039127246 0.15690231
-0.032808192 -0.0048720166 0.15513037
-0.032887518 -0.0048720166 0.15690231
-0.033242792 -0.001328133 0.15513037
-0.033328697 0.00044380873 0.15513037
-0.033361241 -0.001328133 0.15690231
-0.033477724 0.00044380873 0.15690231
-0.023886055 -0.024363361 0.1303232
-0.022432387 -0.025800958 0.1303232
-0.023849271 -0.024363361 0.13209514
-0.022432387 -0.025776982 0.13209514
-0.026635468 -0.020819478 0.1303232
-0.02597627 -0.021813564 0.1303232
-0.0266276 -0.020819478 0.13209514
-0.02597627 -0.021787159 0.13209514
-0.025401413 -0.02259142 0.1303232
-0.024204329 -0.024016298 0.1303232
-0.025370285 -0.02259142 0.13209514
-0.024204329 -0.023975112 0.13209514
-0.023831218 -0.024363361 0.13386708
-0.022432387 -0.025778808 0.13386708
-0.023822382 -0.024363361 0.13563903
-0.022432387 -0.025780067 0.13563903
-0.026615262 -0.020819478 0.13386708
-0.02597627 -0.021754846 0.13386708
-0.026614569 -0.020819478 0.13563903
-0.02597627 -0.021741346 0.13563903
-0.025338665 -0.02259142 0.13386708
-0.024204329 -0.023945063 0.13386708
-0.025328398 -0.02259142 0.13563903
-0.024204329 -0.023933016 0.13563903
-0.022062175 -0.026135303 0.1303232
-0.020660445 -0.027259357 0.1303232
-0.02204071 -0.026135303 0.13209514
-0.020660445 -0.027251929 0.13209514
-0.022041976 -0.026135303 0.13386708
-0.020660445 -0.027261019 0.13386708
-0.022044241 -0.026135303 0.13563903
-0.020660445 -0.027277969 0.13563903
-0.027700983 -0.019047536 0.1303232
-0.028601833 -0.017275602 0.1303232
-0.027748212 -0.018960908 0.1303232
-0.027691111 -0.019047536 0.13209514
-0.028595395 -0.017275602 0.13209514
-0.027748212 -0.018941693 0.13209514
-0.029431783 -0.01550366 0.1303232
-0.029444098 -0.01550366 0.13209514
-0.027687505 -0.019047536 0.13386708
-0.028610267 -0.017275602 0.13386708
-0.027748212 -0.018935539 0.13386708
-0.02770862 -0.019047536 0.13563903
-0.02865006 -0.017275602 0.13563903
-0.027748212 -0.01897613 0.13563903
-0.029474631 -0.01550366 0.13386708
-0.029517777 -0.01550366 0.13563903
-0.023816966 -0.024363361 0.13741097
-0.022432387 -0.02578292 0.13741097
-0.023842737 -0.024363361 0.13918291
-0.022432387 -0.025816627 0.13918291
-0.02663295 -0.020819478 0.13741097
-0.02597627 -0.021754235 0.13741097
-0.026635595 -0.020819478 0.13918291
-0.02597627 -0.021769062 0.13918291
-0.02533295 -0.02259142 0.13741097
-0.024204329 -0.023928232 0.13741097
-0.02534721 -0.02259142 0.13918291
-0.024204329 -0.023953475 0.13918291
-0.023909949 -0.024363361 0.14095485
-0.022432387 -0.025890477 0.14095485
-0.023987666 -0.024363361 0.14272679
-0.022432387 -0.025970489 0.14272679
-0.026655629 -0.020819478 0.14095485
-0.02597627 -0.021809354 0.14095485
-0.026668482 -0.020819478 0.14272679
-0.02597627 -0.021849118 0.14272679
-0.025379181 -0.02259142 0.14095485
-0.024204329 -0.024016246 0.14095485
-0.025433443 -0.02259142 0.14272679
-0.024204329 -0.024106383 0.14272679
-0.022054255 -0.026135303 0.13741097
-0.020660445 -0.027305067 0.13741097
-0.022089489 -0.026135303 0.13918291
-0.020660445 -0.027332358 0.13918291
-0.022164583 -0.026135303 0.14095485
-0.020660445 -0.027376443 0.14095485
-0.022249974 -0.026135303 0.14272679
-0.020660445 -0.027423002 0.14272679
-0.027736329 -0.019047536 0.13741097
-0.028682351 -0.017275602 0.13741097
-0.027748212 -0.019026205 0.13741097
-0.027743541 -0.019047536 0.13918291
-0.028696321 -0.017275602 0.13918291
-0.027748212 -0.019039303 0.13918291
-0.02774933 -0.019047536 0.14095485
-0.027748212 -0.019049525 0.14095485
-0.027748212 -0.019047536 0.14046441
-0.028699301 -0.017275602 0.14095485
-0.02775275 -0.019047536 0.14272679
-0.027748212 -0.019055776 0.14272679
-0.02869869 -0.017275602 0.14272679
-0.024078161 -0.024363361 0.14449874
-0.022432387 -0.026051447 0.14449874
-0.024182431 -0.024363361 0.14627068
-0.022432387 -0.026135221 0.14627068
-0.026665613 -0.020819478 0.14449874
-0.02597627 -0.021902569 0.14449874
-0.026686348 -0.020819478 0.14627068
-0.02597627 -0.02198261 0.14627068
-0.025493756 -0.02259142 0.14449874
-0.024204329 -0.024212569 0.14449874
-0.025564812 -0.02259142 0.14627068
-0.024204329 -0.024337083 0.14627068
-0.022498325 -0.026135303 0.14804262
-0.022432387 -0.026192591 0.14804262
-0.022432387 -0.026135303 0.14627329
-0.024241887 -0.024363361 0.14804262
-0.024204329 -0.024408042 0.14804262
-0.024204329 -0.024363361 0.14673337
-0.022543825 -0.026135303 0.14981456
-0.022432387 -0.026234426 0.14981456
-0.024270564 -0.024363361 0.14981456
-0.024204329 -0.024441674 0.14981456
-0.026702851 -0.020819478 0.14804262
-0.02597627 -0.022019967 0.14804262
-0.026677839 -0.020819478 0.14981456
-0.02597627 -0.02200973 0.14981456
-0.025603883 -0.02259142 0.14804262
-0.025609501 -0.02259142 0.14981456
-0.022337526 -0.026135303 0.14449874
-0.020660445 -0.027472585 0.14449874
-0.022432297 -0.026135303 0.14627068
-0.020660445 -0.027531929 0.14627068
-0.020660445 -0.027594224 0.14804262
-0.020660445 -0.027645797 0.14981456
-0.027748212 -0.019047536 0.14360347
-0.027733266 -0.019047536 0.14449874
-0.028682314 -0.017275602 0.14449874
-0.027748212 -0.01902087 0.14449874
-0.027711019 -0.019047536 0.14627068
-0.028654344 -0.017275602 0.14627068
-0.027748212 -0.018979564 0.14627068
-0.027710035 -0.019047536 0.14804262
-0.028621614 -0.017275602 0.14804262
-0.027748212 -0.018974669 0.14804262
-0.02768106 -0.019047536 0.14981456
-0.028580427 -0.017275602 0.14981456
-0.027748212 -0.018918984 0.14981456
-0.029488258 -0.01550366 0.14804262
-0.029440954 -0.01550366 0.14981456
-0.022570826 -0.026135303 0.15158649
-0.022432387 -0.026263118 0.15158649
-0.024266481 -0.024363361 0.15158649
-0.024204329 -0.024436511 0.15158649
-0.022601932 -0.026135303 0.15335843
-0.022432387 -0.02629476 0.15335843
-0.024248555 -0.024363361 0.15335843
-0.024204329 -0.024417348 0.15335843
-0.026670821 -0.020819478 0.15158649
-0.02597627 -0.022005185 0.15158649
-0.02665969 -0.020819478 0.15335843
-0.02597627 -0.021983102 0.15335843
-0.025605612 -0.02259142 0.15158649
-0.025584683 -0.02259142 0.15335843
-0.022619426 -0.026135303 0.15513037
-0.022432387 -0.026314363 0.15513037
-0.024248511 -0.024363361 0.15513037
-0.024204329 -0.024417587 0.15513037
-0.022636816 -0.026135303 0.15690231
-0.022432387 -0.026333317 0.15690231
-0.024274647 -0.024363361 0.15690231
-0.024204329 -0.024446942 0.15690231
-0.026609547 -0.020819478 0.15513037
-0.02597627 -0.021905713 0.15513037
-0.026588008 -0.020819478 0.15690231
-0.02597627 -0.021907955 0.15690231
-0.025557399 -0.02259142 0.15513037
-0.025577247 -0.02259142 0.15690231
-0.020660445 -0.027686246 0.15158649
-0.020660445 -0.027731076 0.15335843
-0.020660445 -0.027764805 0.15513037
-0.020660445 -0.027798809 0.15690231
-0.027653366 -0.019047536 0.15158649
-0.028541811 -0.017275602 0.15158649
-0.027748212 -0.0188611 0.15158649
-0.027628481 -0.019047536 0.15335843
-0.028493538 -0.017275602 0.15335843
-0.027748212 -0.01880759 0.15335843
-0.029390454 -0.01550366 0.15158649
-0.029342659 -0.01550366 0.15335843
-0.027602844 -0.019047536 0.15513037
-0.02846501 -0.017275602 0.15513037
-0.027748212 -0.018752702 0.15513037
-0.027586199 -0.019047536 0.15690231
-0.028458141 -0.017275602 0.15690231
-0.027748212 -0.018722922 0.15690231
-0.029316515 -0.01550366 0.15513037
-0.029311337 -0.01550366 0.15690231
-0.020587489 -0.027907245 0.15867426
-0.018888511 -0.028992347 0.15867426
-0.020707175 -0.027907245 0.1604462
-0.020660445 -0.02794084 0.1604462
-0.020660445 -0.027907245 0.15972269
-0.018888511 -0.029097289 0.1604462
-0.017522864 -0.029679187 0.15867426
-0.017116569 -0.029856905 0.15867426
-0.015344627 -0.030544922 0.15867426
-0.017758779 -0.029679187 0.1604462
-0.017116569 -0.029961556 0.1604462
-0.015344627 -0.030656517 0.1604462
-0.020844556 -0.027907245 0.16221814
-0.020660445 -0.028043158 0.16221814
-0.018888511 -0.029221185 0.16221814
-0.021003902 -0.027907245 0.16399008
-0.020660445 -0.028165661 0.16399008
-0.018888511 -0.029348232 0.16399008
-0.018024109 -0.029679187 0.16221814
-0.017116569 -0.030085392 0.16221814
-0.015344627 -0.030790381 0.16221814
-0.018277541 -0.029679187 0.16399008
-0.017116569 -0.030222461 0.16399008
-0.015344627 -0.030940004 0.16399008
-0.021171361 -0.027907245 0.16576202
-0.020660445 -0.028297484 0.16576202
-0.018888511 -0.029478408 0.16576202
-0.021355666 -0.027907245 0.16753396
-0.020660445 -0.028450981 0.16753396
-0.018888511 -0.029624075 0.16753396
-0.018529624 -0.029679187 0.16576202
-0.017116569 -0.030357338 0.16576202
-0.015344627 -0.03106688 0.16576202
-0.018790208 -0.029679187 0.16753396
-0.017116569 -0.030502357 0.16753396
-0.015344627 -0.031219564 0.16753396
-0.015567541 -0.031451121 0.17107785
-0.015344627 -0.031532347 0.17107785
-0.015344627 -0.031451121 0.17009127
-0.019099116 -0.029679187 0.16930591
-0.018888511 -0.029799253 0.16930591
-0.018888511 -0.029679187 0.16817743
-0.021568634 -0.027907245 0.16930591
-0.020660445 -0.028638683 0.16930591
-0.01943247 -0.029679187 0.17107785
-0.018888511 -0.030000903 0.17107785
-0.021775626 -0.027907245 0.17107785
-0.020660445 -0.02883786 0.17107785
-0.017116569 -0.030666262 0.16930591
-0.015344627 -0.031382643 0.16930591
-0.017116569 -0.030857384 0.17107785
-0.01213932 -0.031451121 0.15867426
-0.011800744 -0.031525679 0.15867426
-0.011800744 -0.031451121 0.15730877
-0.012661956 -0.031451121 0.1604462
-0.011800744 -0.031647548 0.1604462
-0.010028802 -0.031885877 0.15867426
-0.0082568601 -0.032150842 0.15867426
-0.010028802 -0.032006226 0.1604462
-0.0082568601 -0.032277234 0.1604462
-0.013572685 -0.031091258 0.15867426
-0.013572685 -0.031216837 0.1604462
-0.013175502 -0.031451121 0.16221814
-0.011800744 -0.031777911 0.16221814
-0.013743006 -0.031451121 0.16399008
-0.013572685 -0.031496368 0.16399008
-0.013572685 -0.031451121 0.16345976
-0.011800744 -0.031924859 0.16399008
-0.010028802 -0.032135382 0.16221814
-0.0082568601 -0.032407388 0.16221814
-0.010028802 -0.032283619 0.16399008
-0.0082568601 -0.032557771 0.16399008
-0.013572685 -0.031349152 0.16221814
-0.0064849257 -0.032347195 0.15867426
-0.004712984 -0.032504573 0.15867426
-0.0064849257 -0.032480195 0.1604462
-0.004712984 -0.032651864 0.1604462
-0.0029410422 -0.032607689 0.15867426
-0.0011691004 -0.032680742 0.15867426
-0.0029410422 -0.032776959 0.1604462
-0.0011691004 -0.032860182 0.1604462
-0.0064849257 -0.032630615 0.16221814
-0.004712984 -0.032832488 0.16221814
-0.0064849257 -0.032790631 0.16399008
-0.004712984 -0.03298419 0.16399008
-0.0029410422 -0.032970563 0.16221814
-0.0011691004 -0.033041142 0.16221814
-0.0029410422 -0.033131115 0.16399008
-0.0011691004 -0.0332174 0.16399008
-0.014196664 -0.031451121 0.16576202
-0.013572685 -0.031631738 0.16576202
-0.011800744 -0.032063082 0.16576202
-0.014669634 -0.031451121 0.16753396
-0.013572685 -0.031763934 0.16753396
-0.011800744 -0.032175742 0.16753396
-0.010028802 -0.032420263 0.16576202
-0.0082568601 -0.032691799 0.16576202
-0.010028802 -0.032540739 0.16753396
-0.0082568601 -0.032808132 0.16753396
-0.015156731 -0.031451121 0.16930591
-0.013572685 -0.031904489 0.16930591
-0.011800744 -0.032287546 0.16930591
-0.013572685 -0.032023624 0.17107785
-0.011800744 -0.032363169 0.17107785
-0.010028802 -0.032636158 0.16930591
-0.0082568601 -0.032896608 0.16930591
-0.010028802 -0.032705076 0.17107785
-0.0082568601 -0.032975145 0.17107785
-0.0064849257 -0.032916635 0.16576202
-0.004712984 -0.033115126 0.16576202
-0.0047458932 -0.033223063 0.16753396
-0.004712984 -0.033226162 0.16753396
-0.004712984 -0.033223063 0.16747195
-0.0064849257 -0.033030249 0.16753396
-0.0035229996 -0.033223063 0.16576202
-0.0029410422 -0.033271685 0.16576202
-0.0029410422 -0.033223063 0.1651752
-0.0011691004 -0.033376738 0.16576202
-0.0011691004 -0.033223063 0.1640484
-0.0029410422 -0.033376358 0.16753396
-0.0011691004 -0.033477604 0.16753396
-0.0056641772 -0.033223063 0.16930591
-0.004712984 -0.03331317 0.16930591
-0.0064849257 -0.033126459 0.16930591
-0.0062113777 -0.033223063 0.17107785
-0.004712984 -0.033370197 0.17107785
-0.0064849257 -0.033191845 0.17107785
-0.0029410422 -0.033447139 0.16930591
-0.0011691004 -0.033548802 0.16930591
-0.0029410422 -0.033506684 0.17107785
-0.0011691004 -0.03360416 0.17107785
-0.015935116 -0.031451121 0.17284979
-0.015344627 -0.031666033 0.17284979
-0.01610297 -0.031451121 0.17462173
-0.015344627 -0.031718969 0.17462173
-0.019668974 -0.029679187 0.17284979
-0.018888511 -0.030145593 0.17284979
-0.021917984 -0.027907245 0.17284979
-0.020660445 -0.028979965 0.17284979
-0.019727245 -0.029679187 0.17462173
-0.018888511 -0.030181758 0.17462173
-0.021984272 -0.027907245 0.17462173
-0.020660445 -0.029021628 0.17462173
-0.017116569 -0.030996278 0.17284979
-0.017116569 -0.031053342 0.17462173
-0.016124286 -0.031451121 0.17639366
-0.015344627 -0.031728663 0.17639366
-0.016010769 -0.031451121 0.1781656
-0.015344627 -0.0317057 0.1781656
-0.019733019 -0.029679187 0.17639366
-0.018888511 -0.030191362 0.17639366
-0.022008844 -0.027907245 0.17639366
-0.020660445 -0.029049322 0.17639366
-0.019620143 -0.029679187 0.1781656
-0.018888511 -0.030123755 0.1781656
-0.021940783 -0.027907245 0.1781656
-0.020660445 -0.028981142 0.1781656
-0.017116569 -0.03107094 0.17639366
-0.017116569 -0.031011172 0.1781656
-0.015584514 -0.031451121 0.17993754
-0.015344627 -0.031541191 0.17993754
-0.015344627 -0.031451121 0.18057197
-0.019392684 -0.029679187 0.17993754
-0.018888511 -0.029983319 0.17993754
-0.02175156 -0.027907245 0.17993754
-0.020660445 -0.028816156 0.17993754
-0.019022949 -0.029679187 0.18170948
-0.018888511 -0.029760055 0.18170948
-0.021400012 -0.027907245 0.18170948
-0.020660445 -0.028547876 0.18170948
-0.017116569 -0.030875601 0.17993754
-0.017116569 -0.030657835 0.18170948
-0.015344627 -0.031282179 0.18170948
-0.018888511 -0.029679187 0.18209991
-0.020779736 -0.027907245 0.18348143
-0.020660445 -0.02800411 0.18348143
-0.018888511 -0.029286169 0.18348143
-0.020660445 -0.027907245 0.1837465
-0.019775763 -0.027907245 0.18525337
-0.018888511 -0.028525375 0.18525337
-0.018208042 -0.029679187 0.18348143
-0.017116569 -0.030213639 0.18348143
-0.015344627 -0.030915186 0.18348143
-0.017116569 -0.029679187 0.18493651
-0.01681006 -0.029679187 0.18525337
-0.015344627 -0.030242682 0.18525337
-0.017116569 -0.029541321 0.18525337
-0.013572685 -0.032146901 0.17284979
-0.011800744 -0.032454431 0.17284979
-0.013572685 -0.032192178 0.17462173
-0.011800744 -0.032490671 0.17462173
-0.010028802 -0.03276071 0.17284979
-0.0082568601 -0.033016898 0.17284979
-0.010028802 -0.032781415 0.17462173
-0.0082568601 -0.033041306 0.17462173
-0.013572685 -0.032187209 0.17639366
-0.011800744 -0.032496311 0.17639366
-0.013572685 -0.032225229 0.1781656
-0.011800744 -0.032561824 0.1781656
-0.010028802 -0.032808684 0.17639366
-0.0082568601 -0.033039279 0.17639366
-0.010028802 -0.032833733 0.1781656
-0.0082568601 -0.032995395 0.1781656
-0.0064956546 -0.033223063 0.17284979
-0.0064849257 -0.033224262 0.17284979
-0.0064849257 -0.033223063 0.17271005
-0.004712984 -0.033397272 0.17284979
-0.0065925643 -0.033223063 0.17462173
-0.0064849257 -0.033233531 0.17462173
-0.004712984 -0.033390135 0.17462173
-0.0029410422 -0.033521026 0.17284979
-0.0011691004 -0.033603959 0.17284979
-0.0029410422 -0.033493973 0.17462173
-0.0011691004 -0.033557504 0.17462173
-0.0064849257 -0.033223063 0.1757158
-0.0062754229 -0.033223063 0.17639366
-0.004712984 -0.033357449 0.17639366
-0.0064849257 -0.033204108 0.17639366
-0.0049083233 -0.033223063 0.1781656
-0.004712984 -0.033237308 0.1781656
-0.0064849257 -0.033112578 0.1781656
-0.0029410422 -0.033462249 0.17639366
-0.0011691004 -0.033522367 0.17639366
-0.0029410422 -0.033339478 0.1781656
-0.0011691004 -0.033419281 0.1781656
-0.013572685 -0.032090753 0.17993754
-0.011800744 -0.032467537 0.17993754
-0.014841765 -0.031451121 0.18170948
-0.013572685 -0.031794608 0.18170948
-0.011800744 -0.03211838 0.18170948
-0.010028802 -0.032738574 0.17993754
-0.0082568601 -0.032848716 0.17993754
-0.010028802 -0.032413729 0.18170948
-0.0082568601 -0.032563485 0.18170948
-0.013572685 -0.031451121 0.18341909
-0.013505608 -0.031451121 0.18348143
-0.011800744 -0.031764261 0.18348143
-0.011800744 -0.031451121 0.18466553
-0.010028802 -0.032008626 0.18348143
-0.0082568601 -0.032214709 0.18348143
-0.01060611 -0.031451121 0.18525337
-0.010028802 -0.031544872 0.18525337
-0.0082568601 -0.031784534 0.18525337
-0.013572685 -0.031435512 0.18348143
-0.013572685 -0.03081695 0.18525337
-0.011800744 -0.031246386 0.18525337
-0.004712984 -0.033223063 0.1782981
-0.0064849257 -0.032965109 0.17993754
-0.004712984 -0.033104643 0.17993754
-0.0064849257 -0.032700107 0.18170948
-0.004712984 -0.032881729 0.18170948
-0.0029410422 -0.033223063 0.17949557
-0.0024343506 -0.033223063 0.17993754
-0.0011691004 -0.033265293 0.17993754
-0.0029410422 -0.03320355 0.17993754
-0.0011691004 -0.033223063 0.18047497
-0.0029410422 -0.032982729 0.18170948
-0.0011691004 -0.033047244 0.18170948
-0.0064849257 -0.032361314 0.18348143
-0.004712984 -0.032502785 0.18348143
-0.0064849257 -0.031944394 0.18525337
-0.004712984 -0.032012679 0.18525337
-0.0029410422 -0.032564119 0.18348143
-0.0011691004 -0.032642901 0.18348143
-0.0029410422 -0.032046102 0.18525337
-0.0011691004 -0.032069854 0.18525337
-0.030087069 -0.013731718 0.15867426
-0.029520154 -0.01502917 0.15867426
-0.030126408 -0.013731718 0.1604462
-0.029520154 -0.015093431 0.1604462
-0.03017775 -0.013731718 0.16221814
-0.029520154 -0.015179902 0.16221814
-0.030232951 -0.013731718 0.16399008
-0.029520154 -0.015261166 0.16399008
-0.030303448 -0.013731718 0.16576202
-0.029520154 -0.015380315 0.16576202
-0.029529564 -0.01550366 0.16753396
-0.029520154 -0.015523449 0.16753396
-0.029520154 -0.01550366 0.16729772
-0.030371994 -0.013731718 0.16753396
-0.029598452 -0.01550366 0.16930591
-0.029520154 -0.015668631 0.16930591
-0.030437745 -0.013731718 0.16930591
-0.029655114 -0.01550366 0.17107785
-0.029520154 -0.015786469 0.17107785
-0.030490622 -0.013731718 0.17107785
-0.030848928 -0.011959776 0.15867426
-0.031500049 -0.010187835 0.15867426
-0.031292096 -0.010776006 0.15867426
-0.03089942 -0.011959776 0.1604462
-0.031573795 -0.010187835 0.1604462
-0.031292096 -0.010954373 0.1604462
-0.032098703 -0.0084158927 0.15867426
-0.032599494 -0.0066439509 0.15867426
-0.032179363 -0.0084158927 0.1604462
-0.032692537 -0.0066439509 0.1604462
-0.030954123 -0.011959776 0.16221814
-0.031640902 -0.010187835 0.16221814
-0.031292096 -0.011109956 0.16221814
-0.031027138 -0.011959776 0.16399008
-0.031718798 -0.010187835 0.16399008
-0.031292096 -0.011306033 0.16399008
-0.032265425 -0.0084158927 0.16221814
-0.032790706 -0.0066439509 0.16221814
-0.032343514 -0.0084158927 0.16399008
-0.032879397 -0.0066439509 0.16399008
-0.03330832 -0.0031000748 0.15867426
-0.03306403 -0.0045021176 0.15867426
-0.033099964 -0.0048720166 0.1604462
-0.03306403 -0.0050464496 0.1604462
-0.03306403 -0.0048720166 0.15982381
-0.033431917 -0.0031000748 0.1604462
-0.032990761 -0.0048720166 0.15867426
-0.03352797 -0.001328133 0.15867426
-0.033652015 0.00044380873 0.15867426
-0.033670209 -0.001328133 0.1604462
-0.033797808 0.00044380873 0.1604462
-0.033208378 -0.0048720166 0.16221814
-0.03306403 -0.0055314153 0.16221814
-0.03354951 -0.0031000748 0.16221814
-0.033308715 -0.0048720166 0.16399008
-0.03306403 -0.0059354827 0.16399008
-0.033665478 -0.0031000748 0.16399008
-0.033791162 -0.001328133 0.16221814
-0.033952534 0.00044380873 0.16221814
-0.033915691 -0.001328133 0.16399008
-0.034070373 0.00044380873 0.16399008
-0.03109774 -0.011959776 0.16576202
-0.031796232 -0.010187835 0.16576202
-0.031292096 -0.011478007 0.16576202
-0.031156801 -0.011959776 0.16753396
-0.031851992 -0.010187835 0.16753396
-0.031292096 -0.011624172 0.16753396
-0.032421581 -0.0084158927 0.16576202
-0.0329445 -0.0066439509 0.16576202
-0.032478318 -0.0084158927 0.16753396
-0.032997102 -0.0066439509 0.16753396
-0.031214073 -0.011959776 0.16930591
-0.031900682 -0.010187835 0.16930591
-0.031292096 -0.011767551 0.16930591
-0.031250782 -0.011959776 0.17107785
-0.031930253 -0.010187835 0.17107785
-0.031292096 -0.011856958 0.17107785
-0.032512106 -0.0084158927 0.16930591
-0.033029422 -0.0066439509 0.16930591
-0.032535098 -0.0084158927 0.17107785
-0.03305503 -0.0066439509 0.17107785
-0.033383615 -0.0048720166 0.16576202
-0.03306403 -0.006196849 0.16576202
-0.033746846 -0.0031000748 0.16576202
-0.033440121 -0.0048720166 0.16753396
-0.03306403 -0.0063913241 0.16753396
-0.033814654 -0.0031000748 0.16753396
-0.034013763 -0.001328133 0.16576202
-0.034176446 0.00044380873 0.16576202
-0.034092836 -0.001328133 0.16753396
-0.034272075 0.00044380873 0.16753396
-0.033475593 -0.0048720166 0.16930591
-0.03306403 -0.006514132 0.16930591
-0.033859737 -0.0031000748 0.16930591
-0.033511229 -0.0048720166 0.17107785
-0.03306403 -0.0066110119 0.17107785
-0.033891283 -0.0031000748 0.17107785
-0.034146957 -0.001328133 0.16930591
-0.034331881 0.00044380873 0.16930591
-0.0341857 -0.001328133 0.17107785
-0.034389593 0.00044380873 0.17107785
-0.029706843 -0.01550366 0.17284979
-0.029520154 -0.015896924 0.17284979
-0.030532576 -0.013731718 0.17284979
-0.029756486 -0.01550366 0.17462173
-0.029520154 -0.016001239 0.17462173
-0.030568354 -0.013731718 0.17462173
-0.02981586 -0.01550366 0.17639366
-0.029520154 -0.016117796 0.17639366
-0.030664697 -0.013731718 0.17639366
-0.029866748 -0.01550366 0.1781656
-0.029520154 -0.016165003 0.1781656
-0.030730054 -0.013731718 0.1781656
-0.029826209 -0.01550366 0.17993754
-0.029520154 -0.016046368 0.17993754
-0.030739114 -0.013731718 0.17993754
-0.029722445 -0.01550366 0.18170948
-0.029520154 -0.015869677 0.18170948
-0.030610338 -0.013731718 0.18170948
-0.029520154 -0.01550366 0.18319124
-0.030298427 -0.013731718 0.18348143
-0.029520154 -0.015384562 0.18348143
-0.029829368 -0.013731718 0.18525337
-0.029520154 -0.014384381 0.18525337
-0.031286411 -0.011959776 0.17284979
-0.03196121 -0.010187835 0.17284979
-0.031292096 -0.011945628 0.17284979
-0.03131073 -0.011959776 0.17462173
-0.031292096 -0.012005426 0.17462173
-0.031292096 -0.011959776 0.17331059
-0.031987458 -0.010187835 0.17462173
-0.033065967 -0.0066439509 0.17284979
-0.03306403 -0.0066510364 0.17284979
-0.03306403 -0.0066439509 0.17201084
-0.033072405 -0.0066439509 0.17462173
-0.03306403 -0.0066734776 0.17462173
-0.032551579 -0.0084158927 0.17284979
-0.032559827 -0.0084158927 0.17462173
-0.031417564 -0.011959776 0.17639366
-0.031292096 -0.012286842 0.17639366
-0.032057054 -0.010187835 0.17639366
-0.031488918 -0.011959776 0.1781656
-0.031292096 -0.012455359 0.1781656
-0.032139264 -0.010187835 0.1781656
-0.033130698 -0.0066439509 0.17639366
-0.03306403 -0.0068990514 0.17639366
-0.0331508 -0.0066439509 0.1781656
-0.03306403 -0.0069516748 0.1781656
-0.032629527 -0.0084158927 0.17639366
-0.032663614 -0.0084158927 0.1781656
-0.033526532 -0.0048720166 0.17284979
-0.033912815 -0.0031000748 0.17284979
-0.033530608 -0.0048720166 0.17462173
-0.03391622 -0.0031000748 0.17462173
-0.034201138 -0.001328133 0.17284979
-0.034409486 0.00044380873 0.17284979
-0.034205966 -0.001328133 0.17462173
-0.034405835 0.00044380873 0.17462173
-0.033577859 -0.0048720166 0.17639366
-0.033964925 -0.0031000748 0.17639366
-0.033603981 -0.0048720166 0.1781656
-0.033982076 -0.0031000748 0.1781656
-0.034248546 -0.001328133 0.17639366
-0.034424886 0.00044380873 0.17639366
-0.034222111 -0.001328133 0.1781656
-0.034394056 0.00044380873 0.1781656
-0.031502359 -0.011959776 0.17993754
-0.031292096 -0.012495153 0.17993754
-0.03211078 -0.010187835 0.17993754
-0.031346045 -0.011959776 0.18170948
-0.031292096 -0.012108915 0.18170948
-0.031937055 -0.010187835 0.18170948
-0.033110671 -0.0066439509 0.17993754
-0.03306403 -0.0068248585 0.17993754
-0.03306403 -0.0066439509 0.1810578
-0.032625169 -0.0084158927 0.17993754
-0.032501362 -0.0084158927 0.18170948
-0.033010431 -0.0066439509 0.18170948
-0.031292096 -0.011959776 0.18197688
-0.031040825 -0.011959776 0.18348143
-0.031740695 -0.010187835 0.18348143
-0.031292096 -0.011344612 0.18348143
-0.030651279 -0.011959776 0.18525337
-0.031339899 -0.010187835 0.18525337
-0.031292096 -0.010327391 0.18525337
-0.032320872 -0.0084158927 0.18348143
-0.032778032 -0.0066439509 0.18348143
-0.031941466 -0.0084158927 0.18525337
-0.032368682 -0.0066439509 0.18525337
-0.033548512 -0.0048720166 0.17993754
-0.033900537 -0.0031000748 0.17993754
-0.033409975 -0.0048720166 0.18170948
-0.03306403 -0.0064276904 0.18170948
-0.03374508 -0.0031000748 0.18170948
-0.034132287 -0.001328133 0.17993754
-0.034316175 0.00044380873 0.17993754
-0.033998191 -0.001328133 0.18170948
-0.03414233 0.00044380873 0.18170948
-0.033132307 -0.0048720166 0.18348143
-0.03306403 -0.0052700788 0.18348143
-0.033442818 -0.0031000748 0.18348143
-0.03306403 -0.0048720166 0.18379974
-0.03306403 -0.0031000748 0.18498333
-0.032694094 -0.0048720166 0.18525337
-0.032984756 -0.0031000748 0.18525337
-0.033687502 -0.001328133 0.18348143
-0.033817545 0.00044380873 0.18348143
-0.03320954 -0.001328133 0.18525337
-0.03306403 -0.0025014281 0.18525337
-0.033353068 0.00044380873 0.18525337
-0.022687398 -0.026135303 0.15867426
-0.022432387 -0.026380949 0.15867426
-0.024319738 -0.024363361 0.15867426
-0.024204329 -0.024503149 0.15867426
-0.022769734 -0.026135303 0.1604462
-0.022432387 -0.026460066 0.1604462
-0.024360925 -0.024363361 0.1604462
-0.024204329 -0.024562761 0.1604462
-0.026614837 -0.020819478 0.15867426
-0.02597627 -0.021961302 0.15867426
-0.026637241 -0.020819478 0.1604462
-0.02597627 -0.021982975 0.1604462
-0.025603823 -0.02259142 0.15867426
-0.025616132 -0.02259142 0.1604462
-0.022853367 -0.026135303 0.16221814
-0.022432387 -0.026551895 0.16221814
-0.024428137 -0.024363361 0.16221814
-0.024204329 -0.024641089 0.16221814
-0.022954747 -0.026135303 0.16399008
-0.022432387 -0.026663542 0.16399008
-0.024499245 -0.024363361 0.16399008
-0.024204329 -0.024735101 0.16399008
-0.026680142 -0.020819478 0.16221814
-0.02597627 -0.022063427 0.16221814
-0.02676449 -0.020819478 0.16399008
-0.02597627 -0.022180632 0.16399008
-0.025670215 -0.02259142 0.16221814
-0.025729805 -0.02259142 0.16399008
-0.020660445 -0.027855933 0.15867426
-0.027580902 -0.019047536 0.15867426
-0.028448582 -0.017275602 0.15867426
-0.027748212 -0.018703163 0.15867426
-0.027603 -0.019047536 0.1604462
-0.028463319 -0.017275602 0.1604462
-0.027748212 -0.01874461 0.1604462
-0.029314935 -0.01550366 0.15867426
-0.029335842 -0.01550366 0.1604462
-0.027633257 -0.019047536 0.16221814
-0.028488889 -0.017275602 0.16221814
-0.027748212 -0.018804602 0.16221814
-0.027686208 -0.019047536 0.16399008
-0.028526679 -0.017275602 0.16399008
-0.027748212 -0.018912844 0.16399008
-0.029371351 -0.01550366 0.16221814
-0.029405825 -0.01550366 0.16399008
-0.023090921 -0.026135303 0.16576202
-0.022432387 -0.02680216 0.16576202
-0.024571896 -0.024363361 0.16576202
-0.024204329 -0.024841517 0.16576202
-0.023200847 -0.026135303 0.16753396
-0.022432387 -0.026937947 0.16753396
-0.024646029 -0.024363361 0.16753396
-0.024204329 -0.024942122 0.16753396
-0.026819244 -0.020819478 0.16576202
-0.02597627 -0.022291169 0.16576202
-0.026869223 -0.020819478 0.16753396
-0.02597627 -0.022392221 0.16753396
-0.02579467 -0.02259142 0.16576202
-0.025857054 -0.02259142 0.16753396
-0.023357399 -0.026135303 0.16930591
-0.022432387 -0.027109183 0.16930591
-0.024743646 -0.024363361 0.16930591
-0.024204329 -0.025104456 0.16930591
-0.023498423 -0.026135303 0.17107785
-0.022432387 -0.027281851 0.17107785
-0.024835572 -0.024363361 0.17107785
-0.024204329 -0.025249466 0.17107785
-0.026914217 -0.020819478 0.16930591
-0.02597627 -0.022491515 0.16930591
-0.025988132 -0.02259142 0.17107785
-0.02597627 -0.022611976 0.17107785
-0.02597627 -0.02259142 0.17073287
-0.026991069 -0.020819478 0.17107785
-0.025917813 -0.02259142 0.16930591
-0.027736053 -0.019047536 0.16576202
-0.02858796 -0.017275602 0.16576202
-0.027748212 -0.019021921 0.16576202
-0.027792245 -0.019047536 0.16753396
-0.027748212 -0.019137435 0.16753396
-0.027748212 -0.019047536 0.16627452
-0.028666094 -0.017275602 0.16753396
-0.029461406 -0.01550366 0.16576202
-0.027840607 -0.019047536 0.16930591
-0.027748212 -0.019233197 0.16930591
-0.02873569 -0.017275602 0.16930591
-0.02791208 -0.019047536 0.17107785
-0.027748212 -0.019371398 0.17107785
-0.028806947 -0.017275602 0.17107785
-0.023579545 -0.026135303 0.17284979
-0.022432387 -0.02740851 0.17284979
-0.024887688 -0.024363361 0.17284979
-0.024204329 -0.025333181 0.17284979
-0.023644634 -0.026135303 0.17462173
-0.022432387 -0.027484849 0.17462173
-0.024933107 -0.024363361 0.17462173
-0.024204329 -0.025405772 0.17462173
-0.026047744 -0.02259142 0.17284979
-0.02597627 -0.02271352 0.17284979
-0.027065933 -0.020819478 0.17284979
-0.026083767 -0.02259142 0.17462173
-0.02597627 -0.022776864 0.17462173
-0.027077265 -0.020819478 0.17462173
-0.023642436 -0.026135303 0.17639366
-0.022432387 -0.027492523 0.17639366
-0.024965346 -0.024363361 0.17639366
-0.024204329 -0.025423303 0.17639366
-0.023568526 -0.026135303 0.1781656
-0.022432387 -0.027416065 0.1781656
-0.024884678 -0.024363361 0.1781656
-0.024204329 -0.025336444 0.1781656
-0.026136704 -0.02259142 0.17639366
-0.02597627 -0.022846423 0.17639366
-0.027129598 -0.020819478 0.17639366
-0.026081279 -0.02259142 0.1781656
-0.02597627 -0.022748455 0.1781656
-0.027084559 -0.020819478 0.1781656
-0.027980655 -0.019047536 0.17284979
-0.027748212 -0.019515194 0.17284979
-0.028866671 -0.017275602 0.17284979
-0.027990423 -0.019047536 0.17462173
-0.027748212 -0.019540317 0.17462173
-0.028893173 -0.017275602 0.17462173
-0.028044589 -0.019047536 0.17639366
-0.027748212 -0.019628212 0.17639366
-0.028937079 -0.017275602 0.17639366
-0.028010137 -0.019047536 0.1781656
-0.027748212 -0.019555137 0.1781656
-0.028915465 -0.017275602 0.1781656
-0.023443677 -0.026135303 0.17993754
-0.022432387 -0.02725672 0.17993754
-0.024827868 -0.024363361 0.17993754
-0.024204329 -0.025205977 0.17993754
-0.023153886 -0.026135303 0.18170948
-0.022432387 -0.026914641 0.18170948
-0.024586923 -0.024363361 0.18170948
-0.024204329 -0.024869695 0.18170948
-0.026024453 -0.02259142 0.17993754
-0.02597627 -0.02266904 0.17993754
-0.026978716 -0.020819478 0.17993754
-0.02597627 -0.02259142 0.18098363
-0.026883535 -0.020819478 0.18170948
-0.02597627 -0.022396579 0.18170948
-0.025846258 -0.02259142 0.18170948
-0.022657081 -0.026135303 0.18348143
-0.022432387 -0.026365057 0.18348143
-0.024204329 -0.024363361 0.18326651
-0.024158977 -0.024363361 0.18348143
-0.022432387 -0.026135303 0.18411553
-0.023504317 -0.024363361 0.18525337
-0.022432387 -0.025585316 0.18525337
-0.026614413 -0.020819478 0.18348143
-0.02597627 -0.021848485 0.18348143
-0.026055798 -0.020819478 0.18525337
-0.02597627 -0.020946316 0.18525337
-0.02545999 -0.02259142 0.18348143
-0.024204329 -0.024301648 0.18348143
-0.024870157 -0.02259142 0.18525337
-0.024204329 -0.023488037 0.18525337
-0.021882877 -0.026135303 0.18525337
-0.020660445 -0.027222037 0.18525337
-0.02794715 -0.019047536 0.17993754
-0.027748212 -0.019414805 0.17993754
-0.028833471 -0.017275602 0.17993754
-0.02789031 -0.019047536 0.18170948
-0.027748212 -0.019284166 0.18170948
-0.028804034 -0.017275602 0.18170948
-0.027748212 -0.019047536 0.18291378
-0.02765698 -0.019047536 0.18348143
-0.028629482 -0.017275602 0.18348143
-0.027748212 -0.018901058 0.18348143
-0.027140222 -0.019047536 0.18525337
-0.028120071 -0.017275602 0.18525337
-0.027748212 -0.01794906 0.18525337
-0.029461168 -0.01550366 0.18348143
-0.029006608 -0.01550366 0.18525337
-0.018888511 -0.027907245 0.18635665
-0.015344627 -0.029679187 0.18641742
-0.018182062 -0.027907245 0.18702531
-0.017116569 -0.028506868 0.18702531
-0.015344627 -0.029339731 0.18702531
-0.017116569 -0.027907245 0.18784046
-0.015442125 -0.027907245 0.18879725
-0.015344627 -0.027951196 0.18879725
-0.015344627 -0.027907245 0.18884219
-0.010028802 -0.031451121 0.18554269
-0.0082568601 -0.031451121 0.18612583
-0.014413737 -0.029679187 0.18702531
-0.013572685 -0.02996394 0.18702531
-0.011800744 -0.030432321 0.18702531
-0.013572685 -0.029679187 0.18751888
-0.011800744 -0.029679187 0.188236
-0.013572685 -0.028698698 0.18879725
-0.011800744 -0.029234782 0.18879725
-0.010028802 -0.030739598 0.18702531
-0.0082568601 -0.030954994 0.18702531
-0.010028802 -0.029679187 0.1886376
-0.0091402382 -0.029679187 0.18879725
-0.0082568601 -0.02978237 0.18879725
-0.010028802 -0.029557139 0.18879725
-0.013572685 -0.027907245 0.18958393
-0.011800744 -0.027907245 0.19006601
-0.0082568601 -0.029679187 0.18892483
-0.010028802 -0.027907245 0.19039123
-0.0086716935 -0.027907245 0.19056919
-0.0082568601 -0.027951732 0.19056919
-0.0082568601 -0.027907245 0.19060254
-0.0064849257 -0.031451121 0.18638551
-0.004712984 -0.031451121 0.18648699
-0.0029410422 -0.031451121 0.18657441
-0.0011691004 -0.031451121 0.18662563
-0.0064849257 -0.031094946 0.18702531
-0.004712984 -0.031170823 0.18702531
-0.0064849257 -0.029915594 0.18879725
-0.004712984 -0.029995076 0.18879725
-0.0029410422 -0.03121458 0.18702531
-0.0011691004 -0.031247973 0.18702531
-0.0029410422 -0.030042291 0.18879725
-0.0011691004 -0.030069955 0.18879725
-0.0064849257 -0.029679187 0.18907242
-0.004712984 -0.029679187 0.18915237
-0.0064849257 -0.028083712 0.19056919
-0.004712984 -0.02816201 0.19056919
-0.0064849257 -0.027907245 0.19070339
-0.004712984 -0.027907245 0.19076578
-0.0029410422 -0.029679187 0.1892308
-0.0011691004 -0.029679187 0.18925613
-0.0029410422 -0.028221555 0.19056919
-0.0011691004 -0.028226078 0.19056919
-0.0029410422 -0.027907245 0.19080034
-0.0011691004 -0.027907245 0.19080245
-0.029520154 -0.013731718 0.18609433
-0.029947817 -0.011959776 0.18702531
-0.029520154 -0.012881443 0.18702531
-0.031292096 -0.010187835 0.18539637
-0.03065715 -0.010187835 0.18702531
-0.029520154 -0.011959776 0.18782073
-0.029520154 -0.010187835 0.18876272
-0.031292096 -0.0084158927 0.18681052
-0.031187251 -0.0084158927 0.18702531
-0.031655282 -0.0066439509 0.18702531
-0.031292096 -0.008045651 0.18702531
-0.030027613 -0.0084158927 0.18879725
-0.029520154 -0.010098115 0.18879725
-0.031292096 -0.0066439509 0.18768629
-0.030553214 -0.0066439509 0.18879725
-0.029520154 -0.0084158927 0.18939416
-0.029520154 -0.0066439509 0.18996167
-0.032011874 -0.0048720166 0.18702531
-0.032275848 -0.0031000748 0.18702531
-0.031292096 -0.0048720166 0.18830252
-0.030926071 -0.0048720166 0.18879725
-0.031292096 -0.0031000748 0.18865347
-0.03117723 -0.0031000748 0.18879725
-0.03306403 -0.001328133 0.18565571
-0.03306403 0.00044380873 0.18593368
-0.032447107 -0.001328133 0.18702531
-0.032487951 0.00044380873 0.18702531
-0.031330399 -0.001328133 0.18879725
-0.031292096 -0.0021947771 0.18879725
-0.031292096 7.4729323e-05 0.18879725
-0.031292096 0.00044380873 0.18876854
-0.031266481 0.00044380873 0.18879725
-0.029520154 -0.0048720166 0.19022678
-0.029520154 -0.0031000748 0.19041695
-0.031292096 -0.001328133 0.18884376
-0.029520154 -0.001328133 0.19049627
-0.029520154 0.00044380873 0.19038171
-0.022432387 -0.024363361 0.18689169
-0.02597627 -0.020819478 0.18543956
-0.024204329 -0.02259142 0.18645908
-0.023825265 -0.02259142 0.18702531
-0.022432387 -0.024241872 0.18702531
-0.025093183 -0.020819478 0.18702531
-0.024204329 -0.022092007 0.18702531
-0.022432387 -0.02259142 0.18861161
-0.024204329 -0.020819478 0.18819301
-0.02362664 -0.020819478 0.18879725
-0.022432387 -0.022348054 0.18879725
-0.022432387 -0.020819478 0.18982215
-0.020660445 -0.026135303 0.18687107
-0.020516343 -0.026135303 0.18702531
-0.018888511 -0.027433425 0.18702531
-0.022326194 -0.024363361 0.18702531
-0.020660445 -0.026012629 0.18702531
-0.018888511 -0.026135303 0.18851453
-0.020660445 -0.024363361 0.18873568
-0.020586237 -0.024363361 0.18879725
-0.018888511 -0.025848024 0.18879725
-0.018490598 -0.026135303 0.18879725
-0.017116569 -0.027029984 0.18879725
-0.022228934 -0.02259142 0.18879725
-0.020660445 -0.024288274 0.18879725
-0.018888511 -0.024363361 0.18998255
-0.017116569 -0.026135303 0.18959685
-0.015344627 -0.026135303 0.19036922
-0.017756343 -0.024363361 0.19056919
-0.017116569 -0.02482906 0.19056919
-0.015344627 -0.025851071 0.19056919
-0.017116569 -0.024363361 0.19084232
-0.015344627 -0.024363361 0.19142827
-0.020660445 -0.02259142 0.19002473
-0.019746207 -0.02259142 0.19056919
-0.018888511 -0.023408979 0.19056919
-0.021337226 -0.020819478 0.19056919
-0.020660445 -0.021643527 0.19056919
-0.018888511 -0.02259142 0.19099432
-0.020660445 -0.020819478 0.19095267
-0.018888511 -0.020819478 0.19180155
-0.017116569 -0.02259142 0.19169267
-0.015344627 -0.02259142 0.19216117
-0.017252885 -0.020819478 0.19234113
-0.017116569 -0.020919964 0.19234113
-0.015344627 -0.02206549 0.19234113
-0.026253149 -0.019047536 0.18702531
-0.02597627 -0.01949431 0.18702531
-0.027748212 -0.017275602 0.18611093
-0.027274214 -0.017275602 0.18702531
-0.02597627 -0.019047536 0.18745731
-0.025987469 -0.017275602 0.18879725
-0.02597627 -0.017295428 0.18879725
-0.02485662 -0.019047536 0.18879725
-0.024204329 -0.019982472 0.18879725
-0.028227247 -0.01550366 0.18702531
-0.027748212 -0.01642783 0.18702531
-0.029117398 -0.013731718 0.18702531
-0.027748212 -0.01550366 0.1878439
-0.027012579 -0.01550366 0.18879725
-0.027978599 -0.013731718 0.18879725
-0.027748212 -0.014170498 0.18879725
-0.02597627 -0.017275602 0.18880899
-0.024204329 -0.019047536 0.18941893
-0.022726789 -0.019047536 0.19056919
-0.022432387 -0.019429103 0.19056919
-0.024204329 -0.017275602 0.19040199
-0.02396331 -0.017275602 0.19056919
-0.022432387 -0.019047536 0.19075087
-0.022432387 -0.017275602 0.19143549
-0.02597627 -0.01550366 0.18983316
-0.027748212 -0.013731718 0.18906148
-0.026088931 -0.013731718 0.19056919
-0.02597627 -0.013941668 0.19056919
-0.02597627 -0.013731718 0.19065301
-0.025101468 -0.01550366 0.19056919
-0.024204329 -0.016901173 0.19056919
-0.024204329 -0.01550366 0.19114983
-0.022432387 -0.01550366 0.19199549
-0.024204329 -0.013731718 0.19168948
-0.022669546 -0.013731718 0.19234113
-0.022432387 -0.014226355 0.19234113
-0.020660445 -0.019047536 0.19164799
-0.01896932 -0.019047536 0.19234113
-0.018888511 -0.019171603 0.19234113
-0.020660445 -0.017275602 0.19221239
-0.02030576 -0.017275602 0.19234113
-0.021533191 -0.01550366 0.19234113
-0.020660445 -0.016812921 0.19234113
-0.017116569 -0.020819478 0.19237781
-0.015344627 -0.020819478 0.19271147
-0.022432387 -0.013731718 0.19243737
-0.018888511 -0.019047536 0.19237381
-0.018888511 -0.017275602 0.19279231
-0.017116569 -0.019047536 0.19283518
-0.015344627 -0.019047536 0.19305624
-0.017116569 -0.017275602 0.19312103
-0.015344627 -0.017275602 0.19335076
-0.020660445 -0.01550366 0.19264746
-0.018888511 -0.01550366 0.19312845
-0.020660445 -0.013731718 0.19298592
-0.018888511 -0.013731718 0.19336125
-0.017116569 -0.01550366 0.1934182
-0.015344627 -0.01550366 0.19358131
-0.014714375 -0.026135303 0.19056919
-0.013572685 -0.026650086 0.19056919
-0.011800744 -0.027242243 0.19056919
-0.013572685 -0.026135303 0.19089924
-0.011800744 -0.026135303 0.19125634
-0.013572685 -0.024363361 0.19181675
-0.011800744 -0.024363361 0.19211577
-0.010028802 -0.027666397 0.19056919
-0.010028802 -0.026135303 0.19150233
-0.0082568601 -0.026135303 0.1917195
-0.010208145 -0.024363361 0.19234113
-0.010028802 -0.024414495 0.19234113
-0.0082568601 -0.024853855 0.19234113
-0.014459066 -0.02259142 0.19234113
-0.013572685 -0.023033656 0.19234113
-0.011800744 -0.023812629 0.19234113
-0.0064849257 -0.026135303 0.1918243
-0.004712984 -0.026135303 0.19189341
-0.0064849257 -0.025082059 0.19234113
-0.004712984 -0.025222741 0.19234113
-0.0029410422 -0.026135303 0.19191612
-0.0011691004 -0.026135303 0.19192716
-0.0029410422 -0.025272593 0.19234113
-0.0011691004 -0.025296643 0.19234113
-0.010028802 -0.024363361 0.19236307
-0.0082568601 -0.024363361 0.19254477
-0.013572685 -0.02259142 0.19248998
-0.011800744 -0.02259142 0.19275627
-0.013572685 -0.020819478 0.19296445
-0.011800744 -0.020819478 0.19320351
-0.010028802 -0.02259142 0.19297595
-0.0082568601 -0.02259142 0.19311169
-0.010028802 -0.020819478 0.19333176
-0.0082568601 -0.020819478 0.19343193
-0.0064849257 -0.024363361 0.1926429
-0.004712984 -0.024363361 0.19271277
-0.0029410422 -0.024363361 0.19274369
-0.0011691004 -0.024363361 0.19273573
