# .PCD v0.7 - Point Cloud Data file format
VERSION 0.7
FIELDS x y z
SIZE 4 4 4
TYPE F F F
COUNT 1 1 1
WIDTH 902
HEIGHT 1
VIEWPOINT 0 0 0 1 0 0 0
POINTS 902
DATA ascii
0.021405272 -0.033605106 0.18843579
0.027706534 -0.031406906 0.18707666
0.023485949 -0.023969334 0.19350266
0.014024227 -0.031223185 0.19088399
0.023265235 -0.028254073 0.19176266
0.027116731 -0.025587257 0.1904135
0.014639458 -0.033744913 0.18682393
0.028774109 -0.028702524 0.18679994
0.020547967 -0.034539949 0.18304548
0.028512258 -0.030247042 0.18222299
0.024965333 -0.033762597 0.17799574
-0.0016414598 -0.029115167 0.19236413
0.0064014583 -0.026908318 0.19289121
0.01633415 -0.022645094 0.19264349
0.024871552 -0.019038012 0.19264701
0.027436025 -0.017236359 0.19115907
-0.004781072 -0.032815292 0.18881971
-0.0014293995 -0.032176271 0.18976721
0.0074679395 -0.030776272 0.19047308
0.027247362 -0.021159766 0.19074163
0.02914067 -0.020186113 0.18819392
-0.00068316236 -0.033626895 0.18616036
0.0083030881 -0.033142451 0.18497825
0.029866412 -0.022237806 0.18373084
0.0085820891 -0.033913843 0.18025982
0.029451547 -0.028164182 0.17907718
0.029508654 -0.024005592 0.17834595
0.014418049 -0.034443196 0.17627418
0.028593458 -0.028911998 0.17497742
0.029710844 -0.024928994 0.17437342
0.01941349 -0.033794779 0.17138016
0.028018564 -0.029584251 0.17050248
0.024345335 -0.032837801 0.16649625
0.007883098 -0.018126022 0.1925233
0.018751767 -0.015061997 0.19349563
0.022754032 -0.013365365 0.19343299
0.026622672 -0.010588159 0.19161806
-0.0077760993 -0.02802128 0.19115129
-0.0039233891 -0.027594006 0.19284523
0.0049249665 -0.023211095 0.193142
0.013530698 -0.019762935 0.19228131
0.027981956 -0.013116646 0.18998671
-0.0085848197 -0.030612437 0.1876719
-0.0037999982 -0.030895837 0.19058838
0.02931419 -0.013986676 0.18502623
-0.0071906848 -0.032242369 0.18384129
-0.00181277 -0.033485059 0.1830512
0.029660411 -0.019882765 0.17951018
-0.0061091054 -0.032310426 0.17940068
-0.0017630011 -0.033419862 0.17849344
0.029333534 -0.01922391 0.17720497
-0.00038701016 -0.033349648 0.17350227
0.0073588458 -0.034478981 0.17363131
0.029997172 -0.022638027 0.171624
0.0083533693 -0.034175292 0.16956425
0.01642807 -0.034066226 0.16908994
0.03093834 -0.024910223 0.16838866
0.012947193 -0.032842524 0.16449487
0.022637174 -0.033465091 0.16445509
0.030327581 -0.026058557 0.16443196
0.018680509 -0.032860011 0.1602045
0.027553326 -0.030642888 0.16022891
0.026618522 -0.031759381 0.15581924
-0.0062814015 -0.021307496 0.19233796
-0.0017497232 -0.019303638 0.19231814
0.0065224981 -0.014649892 0.19296721
0.015824188 -0.010963004 0.19309589
0.021170011 -0.0082788896 0.19362041
0.025266185 -0.0068385834 0.19281453
0.028711716 -0.0059290063 0.18988141
-0.018836681 -0.027685342 0.18853694
-0.015312489 -0.027262665 0.18935162
-0.011403007 -0.026186395 0.19059128
0.029823614 -0.007505781 0.18675032
-0.018594975 -0.029803917 0.18479207
-0.014664119 -0.029839819 0.18603417
-0.011298941 -0.029436167 0.18827394
0.029975746 -0.009282493 0.18233061
-0.017615609 -0.031654231 0.18102893
-0.014203663 -0.03156811 0.18164665
-0.010315337 -0.031462982 0.18112034
0.028511921 -0.012273002 0.18016768
-0.013333606 -0.031559587 0.17750406
-0.0090212375 -0.032000035 0.17698899
0.028031409 -0.016111493 0.17318353
-0.0081906151 -0.032035332 0.17249259
-0.0038349731 -0.033035338 0.17214239
0.02975936 -0.018085601 0.1698122
-0.0023061857 -0.033607312 0.16756973
0.005948436 -0.033294301 0.16642267
0.030992245 -0.020497221 0.16352001
0.031823821 -0.018031241 0.16586334
-0.00061202608 -0.034126267 0.163719
0.0073770867 -0.033624332 0.16297072
0.02994615 -0.023930438 0.16050857
0.012263652 -0.03377888 0.15849635
0.028398111 -0.027526345 0.15719542
0.028889071 -0.024399457 0.15715367
0.012685995 -0.034247614 0.1540314
0.023880305 -0.033639647 0.1527068
0.018695531 -0.033455655 0.15051365
0.027962413 -0.031298399 0.1480341
0.027723005 -0.032588527 0.14389592
0.008430698 -0.0066307108 0.19322982
0.012699157 -0.0046253684 0.1928556
0.017852422 -0.0022561094 0.192801
0.02265802 -0.00071117375 0.19315881
0.025577705 0.0012352252 0.1918363
-0.025325507 -0.024109736 0.19163045
-0.017907843 -0.019610345 0.19038382
-0.013928387 -0.018733738 0.19153509
-0.0091215223 -0.016521832 0.19226369
-0.0041858354 -0.01337838 0.19206256
0.0050102575 -0.010816965 0.19319353
0.0095865233 -0.0095703769 0.19331679
0.014431211 -0.0069542262 0.19269398
0.018446555 -0.0064364253 0.19313681
0.027735328 -0.0010095481 0.18987232
-0.024774916 -0.027474806 0.18819925
-0.021877216 -0.025368031 0.18879452
-0.017856497 -0.022649635 0.18960398
-0.012949184 -0.021213792 0.1904175
0.030761836 -0.0042747939 0.18623891
-0.024440045 -0.028356735 0.18371454
-0.021515228 -0.028480515 0.18426234
0.031036153 -0.0055370284 0.18028778
0.031508844 -0.0023248689 0.17938098
-0.023499558 -0.030258764 0.1790275
-0.020659117 -0.03032098 0.17999297
0.027736861 -0.010550383 0.17619997
0.029700868 -0.0080984924 0.17628786
-0.019242508 -0.031661995 0.17488661
-0.01525546 -0.031405523 0.175172
0.027629251 -0.010683538 0.17161974
0.029359052 -0.0096807731 0.1718142
-0.01864621 -0.032091059 0.17118964
-0.014942466 -0.031525489 0.1703425
-0.01083511 -0.031468086 0.17076674
0.028652377 -0.013681652 0.16902056
0.029938195 -0.012750535 0.16777042
-0.01423079 -0.031700507 0.16685721
-0.0096285818 -0.032029737 0.16636848
-0.0050250748 -0.032414045 0.16433316
0.031171579 -0.015335948 0.16356757
-0.0089989733 -0.032333974 0.16120264
-0.0041021593 -0.032904398 0.16016304
0.030319674 -0.019123953 0.15876111
0.030969609 -0.016496953 0.15722278
-0.0029489854 -0.033211056 0.15535706
0.0055102194 -0.033521686 0.15618455
0.029263729 -0.021203132 0.15423346
0.0066468702 -0.033286095 0.15132165
0.029359972 -0.024065437 0.15044993
0.011489853 -0.032742441 0.14657134
0.029500546 -0.025939258 0.14650723
0.017036006 -0.033824153 0.14305151
0.027506353 -0.031246403 0.14057353
0.029711951 -0.028079223 0.14179626
0.022841852 -0.033938497 0.13694915
0.024510402 -0.03304388 0.1325056
0.016930742 0.0043123206 0.19399655
0.019913223 0.005363577 0.19393596
0.023132259 0.0079681613 0.19303003
-0.020186419 -0.014003444 0.19222483
-0.016483031 -0.012479514 0.19294792
-0.011280457 -0.010569826 0.1928007
-0.0062951725 -0.0081828553 0.19233817
-0.0015515089 -0.0072078928 0.19264677
0.0064003058 -0.0023468658 0.19295806
0.011163336 -0.00062930607 0.1930241
0.016271694 0.0011721961 0.19305184
0.021936912 0.0032588081 0.19321409
0.025794506 0.0057367985 0.19134527
-0.02401839 -0.018872928 0.19012907
-0.019921772 -0.017381923 0.19107583
-0.015156541 -0.015714163 0.19230369
-0.010756019 -0.013983663 0.19211322
0.027935985 0.0036214008 0.18812934
0.028842159 0.0054362221 0.18446606
-0.025854461 -0.023282908 0.18920487
0.030345831 0.0011477498 0.18264669
0.032202385 -0.0012045708 0.17884424
-0.02253744 -0.02890967 0.17653686
0.03039597 -0.0044121463 0.17299008
0.031936131 -0.0021649776 0.17323327
-0.022283237 -0.029831853 0.17435557
0.030143857 -0.0059154015 0.16881818
0.031600833 -0.0034551444 0.16890803
-0.019925538 -0.032086976 0.16921493
0.030273747 -0.0092958296 0.16569132
-0.019581977 -0.030928742 0.16465071
-0.015427114 -0.031309981 0.16417539
-0.011975477 -0.031458963 0.16341591
0.030187683 -0.0095460583 0.16019189
-0.014906667 -0.030507056 0.15969169
-0.011216017 -0.031506706 0.1587055
0.030532422 -0.015384891 0.15642047
-0.0098145446 -0.032171477 0.15450472
-0.0062633669 -0.033151153 0.15390182
0.030019885 -0.018941678 0.15198731
0.031061079 -0.017212737 0.15203816
-0.0089212153 -0.032289635 0.15135342
-0.0039213216 -0.033038527 0.14930093
0.030389348 -0.020287149 0.14820421
0.031310547 -0.017171983 0.14732122
-0.0024232678 -0.03225182 0.145107
0.0055900305 -0.032189351 0.144638
0.029268604 -0.020813568 0.14259261
0.010582425 -0.03267825 0.13997227
0.029553292 -0.023455042 0.13867429
0.011197788 -0.032423291 0.13597536
0.029522613 -0.026011538 0.13463032
0.020896586 -0.032561433 0.13134572
0.029845946 -0.027726946 0.13048017
0.026065234 -0.031717207 0.12634355
0.029265635 -0.028362734 0.12653303
0.016561631 0.012268074 0.19616735
0.021742161 0.0129029 0.195871
0.026105678 0.016129412 0.1944572
-0.022803023 -0.00766824 0.19364625
-0.019063294 -0.0062840311 0.19353247
-0.013913893 -0.004171466 0.19325772
-0.0089605432 -0.0016156605 0.19269401
-0.00437654 0.00069218955 0.19294596
0.0042293468 0.0040439633 0.19277394
0.0089349942 0.0051402105 0.1929993
0.013088776 0.0067449571 0.19301894
0.018658781 0.009460384 0.19383052
0.024119053 0.010517016 0.19382647
0.025779895 0.014461126 0.19164842
-0.026046555 -0.013160883 0.1918934
-0.022384997 -0.01139267 0.19268966
-0.017939713 -0.0089616347 0.19342208
-0.012624221 -0.0072530429 0.19340983
-0.0077415709 -0.0045880075 0.19276947
-0.0029619588 -0.0036507347 0.19310236
0.0072801928 0.00057557505 0.19254234
0.026943933 0.010979126 0.18830422
-0.026439346 -0.015835367 0.19028422
0.028832551 0.0091297608 0.18378693
0.029740438 0.0072613871 0.18021774
0.032042995 0.010116026 0.1785962
0.031775955 0.0059788008 0.17632914
0.0311947 0.00092446432 0.16614661
0.029721659 -0.0035126265 0.16198346
0.030898545 -0.0020787641 0.16227597
-0.021651553 -0.029368911 0.1610426
-0.018048503 -0.02968898 0.1610429
0.029426113 -0.0054101273 0.15743476
-0.020836458 -0.029477671 0.15691674
-0.017253894 -0.029510744 0.15667313
0.029360889 -0.0079019647 0.15330073
-0.016321884 -0.029611271 0.15249306
-0.012916042 -0.03071573 0.1532889
0.03034346 -0.010973069 0.14881077
-0.0114085 -0.030957665 0.14804694
-0.007417311 -0.032389209 0.14697605
0.031360999 -0.014053369 0.14529663
-0.0096042408 -0.031691592 0.14412835
-0.0050129546 -0.032303799 0.14287132
-0.00043980498 -0.031909205 0.14212528
0.029118199 -0.017579636 0.1404238
0.030931406 -0.01512795 0.14073703
-0.0042697489 -0.03178731 0.1386354
0.0046092486 -0.032249991 0.13771278
0.028944699 -0.017560989 0.13556373
0.0056922021 -0.033129923 0.13381234
0.0062781149 -0.033456966 0.12888229
0.015254215 -0.032028411 0.12913543
0.030135969 -0.026109731 0.12712193
0.010764251 -0.032712869 0.124466
0.019964831 -0.032355513 0.12454349
0.029033076 -0.027143784 0.12331021
0.020407895 -0.032574311 0.11960763
0.028495228 -0.029275071 0.11921018
0.025232477 -0.032285437 0.11524314
0.0068087876 0.013049435 0.19461361
0.011139917 0.013051655 0.19584244
0.014597103 0.012956521 0.19604641
-0.025640793 -0.00724247 0.1928885
-0.021108149 -0.0016133403 0.19235262
-0.016116526 -0.0010086987 0.19290796
-0.011100738 0.0015781957 0.19326827
-0.0063725617 0.0037715717 0.19333467
0.0027589176 0.0078391135 0.19312686
0.0069135674 0.0104146 0.19333914
0.011777382 0.011164559 0.19378316
0.027554156 0.016868744 0.19112653
0.030110745 0.019361578 0.1901032
0.028210793 0.014348949 0.18659267
0.030867601 0.016332008 0.18593615
0.029069109 0.012500946 0.18347955
0.032144189 0.013470689 0.18197855
0.030469285 0.0097818486 0.178496
0.03313126 0.011728596 0.17758217
0.030935129 0.0079846289 0.1721586
0.032691713 0.0103777 0.17482123
0.03046521 0.0090817139 0.16952524
-0.028229093 -0.025928695 0.16322577
-0.025302067 -0.024667442 0.16303504
0.030829903 0.0010858094 0.16061851
-0.031573754 -0.026766812 0.16021696
-0.02880846 -0.026457962 0.15995505
-0.024660544 -0.026662275 0.15966851
0.029545672 -0.0035994584 0.15536964
0.030326501 -0.0011211429 0.15492231
-0.023640942 -0.02853631 0.15408069
0.02975551 -0.0044510486 0.15214258
0.029634945 -0.0043738279 0.14920205
-0.022215001 -0.028096955 0.15039894
-0.018279895 -0.029455539 0.15006635
0.029963188 -0.0077302884 0.14759311
0.029705416 -0.0047895378 0.14660886
-0.017196056 -0.029376723 0.14601126
-0.013889444 -0.029663906 0.1447506
0.030295499 -0.0068572927 0.14133984
-0.016871305 -0.029347174 0.14100468
-0.012514272 -0.030462794 0.14144856
0.031127505 -0.0095479945 0.1365256
-0.011753303 -0.030624878 0.13647845
-0.0072714081 -0.031372394 0.13704938
0.030410733 -0.014688399 0.13494077
-0.0065972954 -0.030867428 0.13233978
-0.0016791737 -0.031646382 0.13193974
0.030125406 -0.016683087 0.12975812
-0.00052987132 -0.031796962 0.12721062
0.030325651 -0.019405797 0.12607634
0.0050199805 -0.032970242 0.12189287
0.029482596 -0.02499567 0.12036753
0.02953266 -0.020561419 0.12024367
0.010081042 -0.032725029 0.11727506
0.029817268 -0.026177742 0.11735791
0.030235596 -0.022923844 0.11518329
0.015324177 -0.033426903 0.11311841
0.02483115 -0.031554066 0.11210781
0.029129488 -0.028067455 0.11235583
0.030744581 -0.024714354 0.11065412
0.020180348 -0.032037467 0.10886532
0.028593734 -0.029025752 0.10783643
0.031425804 -0.026765972 0.10832393
-0.00057674712 0.014701562 0.19795409
-0.012418881 0.0090735573 0.19344214
-0.003668773 0.012181458 0.19371089
0.00049695326 0.013819346 0.19492224
0.0042420272 0.014214359 0.1953612
-0.021245107 0.0027607968 0.19170478
-0.01795575 0.0041581313 0.19224942
-0.012998487 0.0061833686 0.19310543
-0.0030128118 0.0093644178 0.19308844
0.0016023682 0.010789382 0.19310611
0.032291681 0.013565265 0.17064676
0.033317156 0.01529331 0.16823459
0.031328939 0.011736882 0.16596273
0.030348347 0.010658134 0.16134167
0.030321311 0.0038027973 0.15756041
0.030443775 0.0081325192 0.15680772
-0.032100365 -0.025985789 0.15771183
-0.028424498 -0.02440184 0.15747228
0.029702691 0.0051237685 0.15278611
-0.028403135 -0.025774527 0.15451738
-0.025776997 -0.024903132 0.15451178
0.030242011 -0.0013576858 0.14932254
-0.024428502 -0.026500937 0.14685169
0.029602196 7.3022209e-05 0.14539146
-0.023297288 -0.027748484 0.14363995
-0.019672215 -0.028654268 0.14283991
0.029985581 -0.006059478 0.14075342
-0.022583146 -0.028262608 0.1384635
-0.018595072 -0.029315123 0.13886565
0.031066194 -0.0063561257 0.13537547
-0.017555103 -0.03069092 0.13495946
-0.014147691 -0.030527256 0.13463503
0.03126822 -0.008497457 0.1313985
-0.016657395 -0.030498559 0.12966943
-0.012669123 -0.030550033 0.13011229
-0.0084398482 -0.030937804 0.13002777
0.031092079 -0.010326338 0.12634099
-0.01222227 -0.03113332 0.12620962
-0.0073115462 -0.031415213 0.12605125
-0.0038235057 -0.031454019 0.12589836
0.030660873 -0.014116985 0.12293887
-0.0071625784 -0.031864535 0.1210711
-0.0020592064 -0.032128375 0.12138182
0.030346693 -0.018189413 0.11977702
-0.00084101502 -0.032342032 0.11660206
0.030535454 -0.019167863 0.11460245
0.0041314028 -0.033111528 0.11147815
0.031488597 -0.02216387 0.11001927
0.01028502 -0.033092983 0.10639638
0.019286919 -0.03204051 0.10597968
0.029292032 -0.028239546 0.10490048
0.03179419 -0.025298228 0.10498971
0.019649057 -0.032557469 0.10167134
0.0289768 -0.029440109 0.10146648
0.031614956 -0.02615756 0.10039282
0.020071475 -0.033622425 0.096811771
0.029019952 -0.030598484 0.096586466
0.031615064 -0.02844608 0.095661879
0.025100112 -0.03334032 0.092807889
0.031893231 -0.029489171 0.092488527
-0.0062196031 0.017699009 0.19530481
-0.02843455 0.0072814804 0.19161153
-0.025413282 0.0092189247 0.19316655
-0.021074099 0.010850275 0.19254994
-0.01621362 0.011892527 0.19305781
-0.0058134389 0.015635395 0.19391364
-0.02800826 0.0059856158 0.18960312
-0.024816116 0.0060390811 0.19033134
-0.020946998 0.0062182504 0.19166893
0.032343462 0.017648939 0.16282266
0.031583268 0.013482603 0.15900013
0.03255387 0.016751133 0.15862915
0.031761196 0.011481868 0.15499988
0.033005383 0.015204233 0.15487087
0.031325094 0.0092982128 0.15078047
0.029639184 0.004991916 0.14901584
0.028962962 0.0038267262 0.14091933
0.028755981 0.0017287508 0.13736877
0.030789942 -0.0018453654 0.13332587
-0.022279648 -0.028275281 0.13230324
0.031992085 -0.0055009359 0.12917411
0.03296531 -0.0012726178 0.12657523
-0.019692531 -0.029307323 0.12730253
0.031317655 -0.0063773859 0.12471539
-0.017866075 -0.028955098 0.12328249
-0.013874553 -0.029670576 0.12218457
0.030095259 -0.008085127 0.12067652
-0.012630684 -0.029845085 0.11824739
-0.0086528854 -0.031426691 0.11789066
0.03035697 -0.01383216 0.11677963
-0.0081704091 -0.030541815 0.11367768
-0.0048204185 -0.030732447 0.11335891
0.03059339 -0.014844608 0.11259556
-0.0067474544 -0.030901238 0.1090467
-0.0034202011 -0.031040709 0.10869169
-0.0020016115 -0.031600326 0.10502315
0.007018073 -0.031054353 0.10348648
0.0081684012 -0.031499863 0.099641025
0.0099357469 -0.031726766 0.095167577
0.017751219 -0.033009324 0.093528748
0.031797435 -0.024379084 0.094746292
0.018626299 -0.032093313 0.089853048
0.028594442 -0.030274741 0.088209748
0.031915899 -0.026645029 0.090403378
0.023727495 -0.031393413 0.085441887
0.03122277 -0.028335217 0.085417628
0.0281692 -0.03089378 0.081983805
-0.027366579 0.0088230008 0.19093359
-0.021766063 0.012646927 0.19353056
-0.018767118 0.013876358 0.19337022
0.033242639 0.021348072 0.15948445
0.033674434 0.018318888 0.15693468
0.033545434 0.015167287 0.15307909
0.033437673 0.013507698 0.14830059
0.031750161 0.0082322285 0.143538
0.029018018 0.005863966 0.13864803
0.031719197 0.0080310805 0.13977391
0.029289184 0.0048539732 0.13545588
0.031144591 0.0073399134 0.13502496
0.030023722 0.0025593471 0.13222164
0.031129731 0.0041357842 0.13045049
0.031375661 -0.0016473318 0.12647229
0.032170739 0.0010337867 0.12781489
-0.024224646 -0.024928186 0.12471712
-0.023447158 -0.027081991 0.12238914
-0.020774048 -0.027964026 0.12128866
0.029799666 -0.0050905589 0.11857843
-0.019855699 -0.027392343 0.11704797
-0.015387923 -0.028850995 0.11653024
0.030188972 -0.0088871438 0.11432838
-0.013682497 -0.029321026 0.11228383
-0.010560523 -0.029998038 0.11050034
0.030613139 -0.010539237 0.10861218
-0.013160499 -0.029804543 0.10775304
-0.0090472801 -0.030556966 0.10725987
0.030025113 -0.014141746 0.10301113
0.030541411 -0.010760367 0.10375476
-0.012758342 -0.029903963 0.10391009
-0.0085847136 -0.030697167 0.10306394
-0.0041502984 -0.031034291 0.102099
-3.9637089e-05 -0.031100037 0.10180628
-0.0075283377 -0.030332634 0.099440575
-0.0031543402 -0.0309042 0.097691655
-0.0021648277 -0.031303484 0.093377113
0.0064737401 -0.031478211 0.093370855
0.012597013 -0.032273129 0.088329017
0.031787783 -0.025037143 0.087166309
0.018408692 -0.031888612 0.0842098
0.031233028 -0.023811718 0.084091961
0.018893264 -0.032998655 0.079640925
0.028671669 -0.030441783 0.079027832
0.031075904 -0.028494697 0.079407215
0.02388493 -0.03235342 0.074577153
0.033782348 0.011638933 0.13594282
0.031751581 0.0097499648 0.13182768
0.033832487 0.011368737 0.13416883
0.030937649 0.0093046948 0.12800378
0.029734369 0.0024756873 0.12138522
-0.026076633 -0.024468668 0.11770368
0.028809061 -0.00036195666 0.11414844
-0.025836093 -0.025515862 0.11448163
-0.022007124 -0.025672032 0.11280823
0.029330358 -0.002103948 0.11046982
-0.02474297 -0.025916811 0.11033922
-0.021201059 -0.026008464 0.10922116
-0.017711654 -0.025866449 0.10893726
0.030507907 -0.0056197057 0.10716653
-0.016239442 -0.027095143 0.10512376
0.028094707 -0.0088980421 0.10286772
0.030439133 -0.0058392873 0.10228533
-0.014337686 -0.028083652 0.10022968
-0.011388064 -0.029375665 0.10084599
0.028024845 -0.0092215575 0.097037017
0.030006256 -0.009715531 0.098870814
-0.010176179 -0.029270973 0.095763445
-0.0051104361 -0.03024297 0.095930457
0.029108331 -0.012646602 0.091648698
-0.0088090328 -0.030080412 0.091254234
-0.0049453033 -0.030294569 0.091667831
-0.00052160583 -0.03122619 0.091703296
0.029368885 -0.013560669 0.089326978
-0.0079577174 -0.030918421 0.087594926
-0.0042852312 -0.030800054 0.086640716
0.0052473499 -0.03098027 0.085859537
-0.0027656918 -0.031201664 0.082977355
0.0055547487 -0.03064662 0.082046688
0.030197363 -0.021376725 0.079983175
0.01101251 -0.031635012 0.077457249
0.030706439 -0.023177199 0.075316191
0.017260067 -0.031848781 0.07220149
0.029122626 -0.028708164 0.07087189
0.030458344 -0.026381616 0.071508348
0.022264712 -0.030697456 0.067634821
0.030068113 -0.026953379 0.066686332
0.02784127 -0.028267119 0.06399864
0.032459434 0.014913707 0.12961376
0.031450272 0.01258507 0.12596822
0.032923996 0.013394794 0.1267491
0.030135402 0.011061602 0.12172312
-0.027978159 -0.021061437 0.12028039
0.028692378 0.0050358614 0.11745214
0.029685037 0.008718621 0.11720121
-0.026935333 -0.024873774 0.11111736
-0.026009012 -0.025893614 0.10761523
0.030283313 -0.00049561821 0.10355854
0.030336224 0.0018132478 0.10398728
-0.025733797 -0.024706785 0.10322201
-0.021533433 -0.025006149 0.10268945
-0.018064158 -0.025920335 0.10285747
0.030224213 -0.0030909795 0.099303722
0.030267818 -0.0009231288 0.097791016
-0.02100914 -0.02532362 0.098021805
-0.017534606 -0.026226338 0.097735822
0.027729303 -0.0086379806 0.094527185
0.029410379 -0.0052593555 0.094560087
-0.015261158 -0.027114306 0.093637288
0.027263552 -0.007706847 0.090701699
-0.011396097 -0.029877376 0.08955121
0.029297289 -0.013631744 0.086307704
0.029494211 -0.0094736936 0.085378528
-0.0096880449 -0.030692443 0.084952593
-0.0060679838 -0.031609785 0.084490478
0.029616402 -0.014695038 0.084101677
-0.0083910385 -0.030746104 0.081218362
-0.0047189873 -0.031120043 0.080370426
0.02889307 -0.013284342 0.077758372
-0.0038985265 -0.030858327 0.075582623
0.0045690401 -0.030938851 0.076034904
0.028426226 -0.017092591 0.074286044
0.010282239 -0.030856928 0.070446014
0.029638305 -0.020839591 0.069154978
0.015040476 -0.030605536 0.065846801
0.030475345 -0.023467951 0.065159321
0.020787228 -0.030703973 0.061915696
0.030107977 -0.026349904 0.061568975
0.02595688 -0.030026622 0.056738496
0.029266609 -0.028148398 0.055961967
0.026182882 -0.029673459 0.052127779
0.031085497 0.015052727 0.11889297
0.030175783 0.010442914 0.11515826
0.031781439 0.013271852 0.11462647
0.028890939 0.0088139493 0.11095035
0.031793281 0.011638384 0.10969752
0.029065618 0.0073426389 0.10619926
0.030183155 0.0045925309 0.10304308
-0.027872112 -0.024074066 0.10227442
-0.024267018 -0.024237808 0.10121524
0.030877443 0.0022429107 0.097745121
-0.026114477 -0.024760729 0.097078443
-0.023820812 -0.024836332 0.09717232
0.030512139 1.0980293e-06 0.09354043
-0.022437925 -0.02561667 0.092452228
-0.018687997 -0.025945835 0.092577875
0.028716449 -0.0046380889 0.08885926
0.029994346 -0.00091995485 0.088556707
-0.021689456 -0.026361991 0.087845504
-0.017165039 -0.026495963 0.087977648
0.029522033 -0.0067248363 0.084625006
0.030357188 -0.0022558421 0.084476531
-0.020506863 -0.027189746 0.083803177
-0.016634202 -0.02738801 0.083108783
-0.012751308 -0.028665122 0.082699955
0.029897645 -0.0094074244 0.080304861
0.031062553 -0.0045592617 0.080145121
-0.016031174 -0.027779449 0.079164803
-0.011543339 -0.029265337 0.078640342
-0.0069957711 -0.030351456 0.077163458
0.029964415 -0.010748272 0.076156974
-0.010701219 -0.029940706 0.074100971
-0.0057775257 -0.0305469 0.073488355
0.029165633 -0.0113672 0.071586072
-0.009584832 -0.030852593 0.0699687
-0.0057825074 -0.030577673 0.069100499
-0.00047201291 -0.029880175 0.069177151
-0.0045305118 -0.030721202 0.064936459
-0.00045339949 -0.030529426 0.064470172
0.008805275 -0.030070588 0.063091576
0.0048877099 -0.030387824 0.060104251
0.013874946 -0.029606907 0.058795691
0.030303733 -0.023651937 0.057969987
0.030564368 -0.019573819 0.058026373
0.009929793 -0.030870853 0.054940999
0.019614346 -0.030845668 0.053352118
0.030030701 -0.024892118 0.05362606
0.030730536 -0.020339757 0.054468334
0.015182196 -0.03117799 0.050297379
0.025130266 -0.030146111 0.049507797
0.029429097 -0.026795169 0.049699664
0.020480597 -0.031629108 0.045428157
0.029581239 -0.027656011 0.044845164
0.025745057 -0.030947257 0.041621387
0.032543711 0.013168953 0.10883319
0.030136479 0.009587286 0.10263312
0.032630861 0.012521251 0.1032244
0.03013983 0.0092809983 0.098780513
0.03145197 0.012175648 0.098445892
0.030789841 0.0018595308 0.089842916
0.030419853 0.0013212478 0.085521996
-0.026356664 -0.025668073 0.087433934
-0.02364056 -0.025992949 0.085247934
0.030822128 -0.00087958854 0.081128597
-0.022235088 -0.026221227 0.080188692
-0.018817339 -0.027431272 0.080275416
0.031082697 -0.0032303473 0.077118754
-0.021374399 -0.027373996 0.075965285
-0.017288683 -0.027959492 0.076318681
0.030548925 -0.0086221108 0.072664678
0.03115461 -0.0053545423 0.073514104
-0.02071834 -0.028400173 0.072210252
-0.016884409 -0.028993573 0.071548998
-0.012844244 -0.030044381 0.071292758
0.029131221 -0.0099086277 0.068690896
-0.02023658 -0.030232733 0.067440152
-0.016549855 -0.029569892 0.06705904
-0.011688302 -0.02996628 0.066947579
0.028552871 -0.01110347 0.064639986
-0.0098227793 -0.029720197 0.063484251
-0.0065761581 -0.030490158 0.062129259
0.028292086 -0.013395151 0.057928622
-0.0053090239 -0.029774779 0.057717323
-0.0015953491 -0.030156961 0.05689621
0.029632799 -0.017218936 0.055964887
-0.00064134039 -0.030384116 0.053288639
0.030555941 -0.02015911 0.0511235
0.0092664352 -0.031242462 0.048423409
0.030286187 -0.0197393 0.047552228
0.014702184 -0.030699337 0.043435514
0.03063545 -0.025813935 0.043974519
0.031703461 -0.024188593 0.0408535
0.024727996 -0.030697446 0.038264513
0.030055881 -0.027939018 0.038431346
0.031327497 -0.023416331 0.038000405
0.025186723 -0.030481562 0.034024894
0.029142888 -0.028419774 0.03415066
0.033139534 0.01395291 0.096931159
0.034206476 0.017630244 0.097029746
0.029743269 0.0099522797 0.093116403
0.032340765 0.012588894 0.092913687
0.030366413 0.0078616384 0.088574648
0.031810246 0.011197155 0.087596297
-0.028740758 -0.019923974 0.08891958
0.030774238 0.0063368375 0.083571017
0.032032799 0.0094771609 0.084050477
0.030986637 0.0054005026 0.079119921
0.03140115 -0.001050909 0.074567139
-0.023044745 -0.026988724 0.073697329
0.030910628 -0.0017116973 0.069726944
-0.021558221 -0.028306324 0.069142461
0.029729037 -0.0070084454 0.065005422
0.030895848 -0.0051651467 0.067063451
-0.021249648 -0.030186042 0.066094935
-0.018924188 -0.029394414 0.065054536
0.029039863 -0.0086302869 0.061856568
0.030557228 -0.0046921866 0.061382532
-0.017090248 -0.027138915 0.061023235
-0.013142202 -0.027948335 0.060565352
0.028579433 -0.009282547 0.058447301
-0.011440742 -0.028170526 0.056966662
-0.007386093 -0.029081207 0.055224657
0.029606968 -0.011258523 0.054008245
-0.0066898623 -0.029443007 0.051457763
-0.0012572706 -0.030336857 0.050441742
-0.0047702147 -0.031049393 0.046858609
-0.0014436319 -0.030945014 0.047077656
0.029396489 -0.017668556 0.043558836
-0.00092108361 -0.031542692 0.042519212
0.0083761467 -0.030745562 0.041718066
0.029939178 -0.019388525 0.040808797
0.0091407038 -0.030870158 0.037756562
0.018368814 -0.029432185 0.035986304
0.018720753 -0.029935364 0.032561183
0.029822038 -0.024856679 0.03016597
0.024360947 -0.030226972 0.028061509
0.027513262 -0.027274542 0.027705312
0.024470711 -0.030303374 0.023375332
0.034433242 0.016483603 0.089664638
0.033476554 0.013905283 0.086085677
0.034995444 0.014627458 0.085940182
0.032896705 0.011176733 0.081255078
0.034785274 0.014860595 0.080544174
0.031199064 0.0095658135 0.076174855
0.029905576 0.007861333 0.071867704
-0.024348248 -0.024711901 0.068541467
0.02954335 0.003164622 0.062623501
-0.025288448 -0.02333194 0.06306088
-0.019157486 -0.025641276 0.057408333
0.029394222 -0.006894487 0.055369794
0.029701132 -0.002803456 0.055518031
-0.017722793 -0.025222231 0.053753018
-0.013860429 -0.026650555 0.053323209
0.029603234 -0.0078472579 0.0508582
-0.012395129 -0.026693605 0.048320889
-0.0096765244 -0.02775776 0.048280001
0.028443767 -0.0099124154 0.0468238
-0.0085425917 -0.028409932 0.044186473
0.02818062 -0.0095007727 0.043233633
-0.0066136867 -0.028966296 0.039726377
-0.002505485 -0.030973108 0.038878202
0.028884798 -0.016729288 0.038405776
-0.0015436495 -0.030911218 0.035413802
0.0034142868 -0.030069435 0.030340731
0.012383522 -0.029355779 0.029572546
0.017330203 -0.030278903 0.02453649
0.028564043 -0.023916673 0.024290681
0.018754339 -0.030482804 0.020777106
0.027763966 -0.025733549 0.020094872
0.023642495 -0.028887223 0.015435517
0.027457951 -0.02620185 0.016139984
0.031533267 0.013527698 0.074451804
0.032860164 0.016573876 0.07503283
0.03002023 0.0073308293 0.069139838
0.030831244 0.011835954 0.070261836
0.029992612 0.0071733906 0.066095948
0.030624699 0.01034138 0.064984083
0.029958289 0.0068788528 0.061029851
0.02966848 0.0024430389 0.057909846
0.030276375 0.0057357159 0.057725728
-0.024349144 -0.023544541 0.05711025
-0.021908542 -0.023713857 0.055752218
0.029276531 0.00063696038 0.052806258
-0.024362532 -0.022785254 0.052270055
-0.020814525 -0.024047986 0.051325798
0.029554496 -0.0029141316 0.049188972
-0.019555828 -0.024955571 0.046961963
-0.015683236 -0.025493797 0.047575474
0.02870678 -0.0058850516 0.044843912
0.029389702 -0.0029808423 0.04278326
-0.018353207 -0.025261488 0.042923987
-0.014463866 -0.026387416 0.042438686
0.028125804 -0.0096201878 0.040098667
0.028371431 -0.0054476401 0.039052606
-0.013039224 -0.027256779 0.037753642
-0.0097791394 -0.027776975 0.038091779
0.028069021 -0.0099089313 0.034930825
-0.012341627 -0.027738722 0.033574581
-0.0080739437 -0.029171159 0.033740044
-0.0070898514 -0.030067008 0.028235376
-0.0027525676 -0.029939851 0.029087067
0.027745593 -0.014745701 0.025713384
-0.006165484 -0.030570179 0.024555087
-0.0020658812 -0.030218961 0.02398628
0.0073786969 -0.028648352 0.024060369
0.028476365 -0.017212015 0.02030611
0.007788816 -0.02905931 0.018870831
0.029430866 -0.020062039 0.017457902
0.013202433 -0.029484766 0.014233887
0.02801119 -0.024405412 0.013203561
0.029513294 -0.020628795 0.013572991
0.023204532 -0.028325994 0.0093567371
0.026984628 -0.025598431 0.0089210272
0.03306232 0.017465606 0.07164669
0.03074996 0.015180837 0.06676054
0.032532632 0.017757939 0.06638819
0.031039046 0.014046785 0.062373042
0.033253331 0.015400291 0.061936259
0.031213392 0.010736383 0.058491468
0.032865264 0.013583755 0.056801677
0.030427469 0.0075678355 0.054269135
0.029171307 0.0032599326 0.050789833
0.029348671 0.0077020749 0.04961741
-0.025219915 -0.02129015 0.048761129
0.028489966 0.0047119572 0.045225263
-0.025396951 -0.021491995 0.044568419
-0.022349054 -0.02433458 0.044351816
0.029262584 0.00026886258 0.041529894
-0.020535706 -0.024898615 0.039894879
0.029406717 -0.0026772171 0.036814809
-0.020821519 -0.025501516 0.035343707
-0.015962899 -0.026128989 0.035626769
0.02915252 -0.0056220982 0.032927036
-0.014737207 -0.026761731 0.031049013
0.027405895 -0.0086600715 0.028346002
0.028776672 -0.0062080985 0.028405786
-0.014160099 -0.026527781 0.026664376
-0.010510926 -0.028588537 0.027166367
0.027732745 -0.011126987 0.024428606
0.02885234 -0.0079540322 0.024920702
-0.008810834 -0.028949941 0.021939158
-0.0047108084 -0.029937569 0.022274017
0.028289553 -0.013020848 0.020114362
-0.0071034059 -0.029049532 0.018673778
-0.0035660043 -0.028828993 0.017682076
0.005625268 -0.029128518 0.01583761
0.02956783 -0.015633985 0.016043961
-0.0021377075 -0.028403759 0.012979507
0.0069169444 -0.029076969 0.012657166
0.029332897 -0.017873283 0.011239648
0.0071680541 -0.028376317 0.0081769228
0.03387586 0.021553973 0.065029562
0.033810291 0.015997052 0.056320727
0.031322092 0.012487395 0.051884294
0.033323385 0.014973956 0.051183164
0.03015537 0.010377685 0.047807932
0.032521568 0.013933583 0.047893524
0.02929878 0.00736367 0.043416142
0.030128144 0.0047212923 0.039190054
-0.025306066 -0.022536598 0.038920939
0.029880596 -3.0755997e-05 0.034152746
0.030362811 0.003634376 0.033591688
0.030184912 -0.0011449521 0.030767262
0.030799178 0.0020189453 0.028446794
-0.021006992 -0.024785701 0.029091537
-0.017192537 -0.025673296 0.028405786
0.029589746 -0.0024594041 0.025107324
-0.021176891 -0.025524007 0.024986207
-0.016250934 -0.025224561 0.023936868
0.029373448 -0.0066814814 0.021423459
-0.013924275 -0.025699008 0.020587385
-0.011558113 -0.0271367 0.019130111
0.029231353 -0.0079318117 0.017713785
-0.0095375255 -0.028063536 0.015332699
-0.0047406405 -0.028595613 0.014585912
0.028552638 -0.0081351399 0.012914658
-0.0086934641 -0.028422879 0.011086941
-0.0039595356 -0.02872568 0.010874093
-0.00012428127 -0.029227242 0.0098356009
0.030906804 0.013148339 0.044835448
0.032927454 0.015151826 0.044926643
0.030348688 0.011372849 0.041068435
0.032901272 0.01540472 0.03997153
0.030694397 0.011065857 0.036191165
0.032477025 0.013187719 0.035469055
0.030909956 0.0091301277 0.032081366
0.032850575 0.011898718 0.032203853
0.030917702 0.0066780024 0.027005076
0.031357531 0.0026063481 0.023213506
-0.022315145 -0.023237769 0.022099555
0.030245965 -0.0021181703 0.020635664
0.031328529 -0.00015938375 0.019367695
-0.02102706 -0.022423776 0.018133938
-0.017110631 -0.023615319 0.01799649
0.029965915 -0.0034710011 0.015043378
-0.015367575 -0.025000144 0.013430119
0.028737053 -0.0055517405 0.0097506046
-0.011312702 -0.02792575 0.0093591809
0.03417512 0.019200146 0.042198539
0.034641232 0.01766381 0.03914547
0.035868082 0.01938385 0.039248228
0.033533692 0.015280552 0.034142077
0.034879401 0.016745826 0.035556912
0.031429131 0.010492587 0.028540432
0.033654734 0.01252639 0.029311419
0.035540923 0.014338117 0.027754545
0.031435505 0.0089556277 0.025359035
0.033439357 0.01174286 0.024158597
0.031932414 0.006829795 0.021306634
0.03339491 0.0095687248 0.021013021
-0.024809875 -0.022208361 0.019104719
0.03188907 0.0049659209 0.017633617
-0.022715803 -0.021742191 0.015629888
-0.019193834 -0.022834355 0.014559269
0.030296331 0.0021335604 0.011708379
-0.021716747 -0.02182617 0.010794401
-0.019553056 -0.022496765 0.010848761
0.029256951 -0.00029727165 0.0089409351
0.035189077 0.015086307 0.023779154
0.03353275 0.012495216 0.018739402
0.032604836 0.008844954 0.015843511
-0.026255695 -0.019499913 0.014298558
0.030573532 0.0063353791 0.0095056295
-0.024332486 -0.020369021 0.0088580251
0.03187551 0.013181333 0.011070013
