# .PCD v0.7 - Point Cloud Data file format
VERSION 0.7
FIELDS x y z
SIZE 4 4 4
TYPE F F F
COUNT 1 1 1
WIDTH 999
HEIGHT 1
VIEWPOINT 0 0 0 1 0 0 0
POINTS 999
DATA ascii
0.029428393 0.027901877 0.1904217
0.03044875 0.028998915 0.18765017
0.032053411 0.027863085 0.1847918
0.022690412 0.025449621 0.1931172
0.029035857 0.018757753 0.19111255
0.026082721 0.027661145 0.19160444
0.024246436 0.030564196 0.18991965
0.03208435 0.019756604 0.18682188
0.028612765 0.031549551 0.18703511
0.025980707 0.032146744 0.18554884
0.03275881 0.024559565 0.18252501
0.028806651 0.031857908 0.18223304
0.031662345 0.029107496 0.17844257
0.028825849 0.03130364 0.17803657
0.029445296 -0.0017576618 0.19284084
0.027055785 0.0064658211 0.19299087
0.022737181 0.016166195 0.19273001
0.018867332 0.025058549 0.19309831
0.017372128 0.028608175 0.19176602
0.03167313 -0.0016569989 0.18942076
0.029968148 0.0076570273 0.19006371
0.019713093 0.030923421 0.18913552
0.032675292 -0.00051432569 0.1862247
0.031406976 0.0078112315 0.18496159
0.022352984 0.032392867 0.18429738
0.031651855 0.01348028 0.17984724
0.025633452 0.031782825 0.17889524
0.032276507 0.018736491 0.17563438
0.030549884 0.028550714 0.17489433
0.02696351 0.031474106 0.1747151
0.031319745 0.023946159 0.17098573
0.027853675 0.031478215 0.17012572
0.028703624 0.030852653 0.16684324
0.023337051 -0.0042580576 0.19330233
0.022145551 -0.00053436775 0.19330266
0.01873607 0.0081451051 0.19293144
0.015587687 0.018621515 0.19350728
0.013319002 0.022393405 0.19315672
0.010394124 0.026545664 0.1914894
0.028362967 -0.0084077194 0.1911571
0.028174922 -0.0037661185 0.19333935
0.023888428 0.0052210973 0.193598
0.019570287 0.013469812 0.19260952
0.012633864 0.028457044 0.1907447
0.010741136 0.030666191 0.18700317
0.030347602 -0.0078993477 0.18782926
0.030844338 -0.0038234862 0.19055307
0.012714724 0.031161509 0.18498659
0.031218223 -0.0068897055 0.18348271
0.031914879 -0.0026625637 0.18351322
0.031378634 0.0059713461 0.18184197
0.013972617 0.030851793 0.18165252
0.031389076 -0.0015705731 0.17887881
0.031491384 0.006923995 0.17782176
0.019087255 0.030882861 0.17558876
0.032195825 0.0075436011 0.17347187
0.022674102 0.032108873 0.17253694
0.020626105 0.032905117 0.16957048
0.032565661 0.012725006 0.16945156
0.031001991 0.021846935 0.16827482
0.024261199 0.032544788 0.16807783
0.021017697 0.032996748 0.16798234
0.030260457 0.023059301 0.16434821
0.027056813 0.031113353 0.16362208
0.029290641 0.027001962 0.15923962
0.022695702 -0.011401577 0.19158036
0.021249987 -0.0074146097 0.19270045
0.018432403 -0.0016353554 0.19319841
0.01492485 0.0069028712 0.19359064
0.010881798 0.016229887 0.19288176
0.0090358648 0.021512799 0.19294029
0.0069936402 0.025308806 0.19239134
0.0051437812 0.029191617 0.18963251
0.028946348 -0.023766896 0.1897223
0.028733239 -0.020004455 0.18985322
0.028234148 -0.015066731 0.19049791
0.026159344 -0.011226028 0.19136974
0.0082582133 0.030848984 0.18791506
0.0056545297 0.033332091 0.18586302
0.030560682 -0.019268293 0.18580592
0.030363951 -0.014416493 0.18639556
0.030493349 -0.010977071 0.18622261
0.010659352 0.032585498 0.18320397
0.0074994694 0.034303408 0.18209875
0.031647868 -0.018020783 0.18140754
0.031806316 -0.014090624 0.18181342
0.031150475 -0.0098507376 0.18163505
0.0117105 0.031780884 0.17839381
0.0085713333 0.034602448 0.17911944
0.03246342 -0.01747489 0.17785224
0.031813841 -0.014027334 0.17739841
0.031488359 -0.0090695154 0.17725992
0.031189229 -0.0047372673 0.17714101
0.012767063 0.031486839 0.17403939
0.031234358 -0.008046668 0.17341873
0.031450026 -0.0032109385 0.17236465
0.01611761 0.03248493 0.16945279
0.032919653 -0.00084321853 0.1685026
0.031672969 0.0065324903 0.16598254
0.019450899 0.034023099 0.16627938
0.031135211 0.011614343 0.16250399
0.02294885 0.031833239 0.16152155
0.030531012 0.017269036 0.15786964
0.028195389 0.028668309 0.1576865
0.025057444 0.03080051 0.15704837
0.031129397 0.022546921 0.153157
0.027053818 0.031177282 0.1525597
0.031107973 0.027705207 0.14716372
0.028291907 0.030074138 0.14960057
0.03216273 0.026300788 0.14376858
0.015450008 -0.015165356 0.19398704
0.01358249 -0.010831214 0.19370466
0.0095565105 -0.00057366234 0.19326431
0.0068062227 0.0085049253 0.19334507
0.004325971 0.012575912 0.19265962
0.0019203452 0.01753303 0.19218051
-3.5271049e-05 0.022362245 0.19267294
0.022488946 -0.022158641 0.19173434
0.019898709 -0.018319454 0.19208631
0.019217653 -0.013647679 0.19278887
0.016718671 -0.008704572 0.1931679
0.014498562 -0.004020575 0.19292873
0.012053037 0.0046904506 0.19385257
0.0095352819 0.0095718782 0.19329369
0.0063731414 0.014192425 0.19231206
0.0050939135 0.019590437 0.1925686
0.0035892669 0.024044268 0.19251928
0.00065482408 0.027886771 0.19000009
-5.8259815e-05 0.030904964 0.18800259
0.027822789 -0.029577265 0.18749177
0.027918138 -0.02604505 0.18900952
0.025270756 -0.021416385 0.19120944
0.023399277 -0.017109433 0.19091958
0.02259044 -0.014033584 0.19102296
0.0024922155 0.032887299 0.1862022
0.029287007 -0.029897893 0.18399113
0.029832948 -0.025062362 0.18401855
0.030712664 -0.021283876 0.18343461
0.0035700491 0.035314955 0.17993489
0.030676998 -0.024823893 0.1790196
0.031079095 -0.020691343 0.17970529
0.0072776759 0.034543552 0.17610657
0.032085408 -0.023672482 0.17490193
0.032022975 -0.019780373 0.17503503
0.031947844 -0.014904236 0.17480263
0.01175067 0.031817541 0.1726467
0.0076251887 0.034017026 0.17101452
0.032050148 -0.019289 0.17041183
0.031824008 -0.014800752 0.17055705
0.031131864 -0.010162644 0.17083371
0.030883459 -0.0058488175 0.16992629
0.013171754 0.0334634 0.16874549
0.0088003408 0.033513624 0.16790906
0.032034565 -0.014537623 0.16653484
0.031344626 -0.0099467421 0.16587228
0.03114027 -0.0045220368 0.16560552
0.017960675 0.031670842 0.16205391
0.031542044 -0.0094487928 0.162112
0.03131875 -0.0042864541 0.16031012
0.031423774 0.0054296814 0.16014081
0.017728776 0.031453948 0.15811229
0.031593382 -0.0020790733 0.15615308
0.031119794 0.0062093465 0.15572163
0.03056843 0.014415614 0.15523639
0.019556232 0.031983078 0.15374842
0.031289108 0.011135953 0.15122551
0.030634981 0.019286435 0.1506761
0.02385067 0.031866677 0.15273753
0.021192815 0.032436907 0.14923871
0.03179305 0.011476718 0.14708209
0.031065816 0.02050475 0.14717263
0.026263904 0.03059784 0.14648676
0.031834949 0.021411758 0.14226913
0.027784836 0.030439336 0.14176381
0.031171307 0.027036453 0.13703364
0.028373105 0.030062523 0.13682678
0.011047814 -0.020345664 0.196024
-0.0049847248 0.017512543 0.19371751
-0.0058699991 0.01971193 0.19360989
0.015580473 -0.024683237 0.19230911
0.014651012 -0.020433201 0.19416791
0.012756004 -0.016242493 0.19499233
0.011148009 -0.010770509 0.1945166
0.0085650543 -0.006075114 0.19352147
0.0056705759 -0.0021273945 0.19349539
0.0026421198 0.0065249922 0.19315076
0.00041738711 0.011076081 0.19288629
-0.0014514327 0.016275313 0.19276071
-0.0035652593 0.021815278 0.19301587
-0.0052631688 0.025751008 0.19115114
-0.0070915883 0.028405489 0.18989056
0.022569753 -0.026071586 0.19058868
0.019085156 -0.024405375 0.19181305
0.018498525 -0.020800307 0.19287625
-0.0026725377 0.028331218 0.18967462
-0.0045928298 0.030246805 0.18744072
-0.0034573879 0.032304246 0.18257526
0.028919362 -0.030756641 0.18236941
-0.00065906346 0.033818431 0.18082112
-0.0014404254 0.035050169 0.17501861
0.029672075 -0.02991575 0.1774095
0.030030623 -0.027106484 0.17817983
0.0023377286 0.034661274 0.17256877
-2.6642345e-05 0.035531014 0.17410201
0.030618466 -0.029383093 0.1729573
0.031968571 -0.026150063 0.17349657
0.0025624689 0.034612443 0.16802439
0.032027349 -0.025174277 0.16858184
0.032441694 -0.020971932 0.16844314
0.0070310403 0.033777222 0.16461679
0.032377835 -0.02413984 0.16462511
0.032155208 -0.020008497 0.16431224
0.031786222 -0.015602309 0.16362441
0.031307068 -0.012046752 0.16330531
0.0078877872 0.032990087 0.16160995
0.031591892 -0.019015172 0.16015524
0.0311564 -0.015221905 0.15940729
0.031149188 -0.010898663 0.1591363
0.031245187 -0.0064009372 0.15784937
0.011628276 0.030815901 0.15597436
0.030687926 -0.0099402079 0.15516818
0.031094387 -0.0051539037 0.15385273
0.030320726 -0.0010851584 0.15270364
0.014338684 0.031627748 0.15030247
0.0303677 -0.0046404218 0.1500726
0.031566896 0.0049030152 0.14879307
0.017064501 0.032538682 0.14751714
0.031259988 0.010348983 0.14391237
0.022836559 0.031170275 0.14339557
0.018579334 0.032097094 0.14269337
0.031039486 0.015132174 0.13909394
0.023478961 0.031260252 0.13906848
0.031542312 0.020118058 0.13560247
0.026487187 0.031128187 0.13531795
0.031289611 0.026031565 0.13101283
0.029135495 0.030567456 0.13122141
0.029045584 0.029540822 0.12706697
-0.012378617 0.01732864 0.1950115
-0.014053056 0.021795833 0.19486189
-0.016336638 0.02687745 0.19447771
0.0086625014 -0.022275826 0.19523552
0.008337494 -0.018114744 0.19487855
0.0057579381 -0.013194703 0.1942952
0.0018493829 -0.0090974104 0.19372874
0.00028662372 -0.0042864727 0.19370621
-0.0017308162 3.2376847e-05 0.19333565
-0.0043262122 0.0044473866 0.1924673
-0.0054230248 0.0088184383 0.19281685
-0.006551309 0.013502061 0.19302005
-0.0096619381 0.018288575 0.19349554
-0.012393026 0.022836324 0.19248265
-0.014758112 0.027162271 0.19196019
-0.017067475 0.031848516 0.19178712
-0.017627075 0.03474943 0.19053835
0.013288305 -0.027001034 0.19194382
0.011850793 -0.023583373 0.1940524
-0.00057530613 0.0072803246 0.19254252
-0.0081439158 0.024699967 0.19137156
-0.011167403 0.029063497 0.18884823
-0.014240738 0.032498207 0.18744043
-0.015949972 0.036453955 0.18691468
-0.0085622724 0.031091286 0.18491161
-0.011798661 0.033056196 0.1836215
-0.014775846 0.037673343 0.18297821
-0.0078628017 0.031249549 0.18163782
-0.0094671976 0.033135794 0.1791864
-0.0051604812 0.033752788 0.17626527
0.02590178 -0.036214445 0.17388451
0.026051581 -0.034294765 0.1752888
0.028784921 -0.035336629 0.16829026
0.027672365 -0.033363409 0.17020091
0.0016274676 0.034257576 0.1673792
0.029912863 -0.030982394 0.16636172
0.0014330791 0.034075819 0.16346174
0.030870657 -0.029675912 0.16128024
0.031270541 -0.026577368 0.16153851
0.031422399 -0.022480059 0.16122052
0.0075490326 0.031047011 0.15722224
0.0045877239 0.031632438 0.1564225
0.031928003 -0.029496945 0.15723848
0.031023966 -0.025833812 0.15711045
0.03164658 -0.021108305 0.15762162
0.030946136 -0.01719483 0.156968
0.0079532722 0.030659685 0.15360397
0.0047364198 0.031602409 0.15366077
0.030842401 -0.02070041 0.15267512
0.030656192 -0.016452633 0.15250003
0.030448951 -0.011914684 0.15269607
0.010224928 0.030113153 0.15018439
0.030593667 -0.015847506 0.14877021
0.029991174 -0.011575514 0.147928
0.030219434 -0.0063301781 0.14794272
0.029771969 -0.0010879925 0.14631754
0.030201342 -0.0057271887 0.14320898
0.029819876 0.003728318 0.14245772
0.016217019 0.032401472 0.13976675
0.030790161 -0.004178334 0.13991904
0.030128224 -0.00025781803 0.13777751
0.030013304 0.0095288996 0.13715374
0.018438004 0.031661861 0.13617462
0.030103086 0.0097887572 0.13293305
0.02233002 0.030571621 0.13141343
0.01880084 0.030947885 0.13104764
0.030798282 0.010085369 0.12821692
0.030336976 0.019065907 0.12843889
0.022314478 0.030465223 0.12847793
0.022704467 0.030553244 0.12682486
0.030925499 0.019964119 0.12420094
0.027484979 0.029388266 0.12336814
0.031517617 0.025124904 0.11998141
0.028745739 0.028932542 0.11918789
0.030025713 0.028343519 0.1151399
-0.014098341 0.0068686246 0.19542566
-0.0141137 0.010728078 0.195636
-0.013990425 0.01548672 0.1960845
-0.016063143 0.020221097 0.19529554
0.0030849027 -0.020426946 0.19331345
0.00099567045 -0.015655663 0.19344854
-0.0023010171 -0.010981616 0.19407189
-0.0046668164 -0.006255995 0.1942389
-0.0080558155 0.0026696557 0.19299001
-0.010653431 0.0068146498 0.19318616
-0.011457748 0.011658618 0.1935963
-0.012689661 0.014634744 0.19435564
-0.015098866 0.02138841 0.19419852
-0.015876401 0.028590171 0.18949726
-0.018094916 0.030384654 0.19133842
-0.018704798 0.036023941 0.18922716
-0.013166662 0.034398053 0.18097815
-0.015082202 0.036779705 0.18179408
-0.01335926 0.034230035 0.17709404
-0.014091952 0.036877833 0.17742962
-0.012253809 0.033694144 0.1738964
-0.013981089 0.035606351 0.17323416
-0.0078431722 0.033414338 0.16802147
0.0010779584 0.032074753 0.15715763
0.031719506 -0.029809123 0.15418088
0.030733807 -0.027883772 0.15459183
0.0039927792 0.031789862 0.15004736
0.030966833 -0.030392969 0.15070376
0.030400513 -0.026942689 0.15035069
0.030159133 -0.022738498 0.15008169
0.0072757378 0.030640196 0.14744735
0.0047513964 0.031373892 0.14597702
0.030494425 -0.026264478 0.14583242
0.030129762 -0.022145035 0.14543656
0.03035715 -0.017252561 0.14584839
0.029824775 -0.012934283 0.14506233
0.0089446334 0.031106357 0.14287281
0.0078074811 0.030664634 0.14203811
0.030560076 -0.021546453 0.14174938
0.030231211 -0.017161274 0.14079744
0.030151535 -0.012139908 0.1416001
0.030640483 -0.0085123451 0.14079174
0.010571603 0.031616881 0.14019978
0.010999118 0.033401743 0.13798124
0.029750794 -0.012153217 0.13698575
0.03008667 -0.0074756211 0.13654947
0.03002909 -0.0038148481 0.13659936
0.013706159 0.032622274 0.1357421
0.012094075 0.032822032 0.1337502
0.029512845 -0.0068516089 0.1326696
0.029719926 -0.0015996946 0.13204408
0.016572487 0.03135483 0.12963575
0.030528203 0.0042633112 0.12697816
0.019980971 0.030614071 0.12497681
0.030819232 0.009535443 0.12170124
0.021362821 0.030546341 0.12122989
0.031333655 0.014696901 0.11739242
0.027319159 0.030205235 0.1162914
0.024118807 0.031141922 0.11623198
0.031282924 0.019616609 0.11263019
0.028937604 0.029548256 0.1126973
0.026506323 0.031458601 0.1120916
0.030426981 0.024813235 0.10801423
0.027970094 0.031905834 0.10929716
-0.014586627 0.00034197001 0.19817808
-0.014889199 0.0036889622 0.19859332
-0.0052747484 -0.023830079 0.19542143
-0.0071399091 -0.019067852 0.19447005
-0.007999368 -0.014035935 0.19455895
-0.012086891 -0.0037738783 0.19460985
-0.013760026 0.00052211061 0.19495994
-0.014235105 0.0045093931 0.19576764
-0.016697671 0.0097913537 0.19680169
-0.0036274921 -0.022195855 0.19166604
-0.0038136789 -0.018483149 0.19272241
-0.0045646178 -0.014029872 0.19383594
-0.010401989 0.00089701265 0.19319922
-0.013479854 0.032306504 0.17007142
-0.01611837 0.034791309 0.17086062
-0.012761848 0.032448366 0.16579774
-0.0084946845 0.032183494 0.16264889
-0.0098410798 0.031570181 0.15789008
-0.0017718943 0.030928098 0.15322837
-0.0060968385 0.03110709 0.15438199
0.028071031 -0.033128746 0.15499085
-0.0007281322 0.03127069 0.1520443
0.030741999 -0.030715071 0.14760891
0.029984623 -0.029305117 0.14742023
0.001011068 0.031651534 0.14362824
-0.0019584037 0.032293897 0.14378852
0.031207735 -0.030764595 0.14404181
0.030906856 -0.027981477 0.14380217
0.030610241 -0.024057617 0.14316911
0.0032855384 0.031309098 0.1388447
0.033296164 -0.030076146 0.14072174
0.03240234 -0.027014421 0.13983294
0.031435397 -0.022433253 0.13964427
0.030737717 -0.019054458 0.13854131
0.004783947 0.032337777 0.1351065
0.032095321 -0.026546095 0.13584942
0.031407971 -0.022417355 0.13630453
0.030320549 -0.017494395 0.13496915
0.030177465 -0.012909323 0.13448292
0.0091623431 0.03251398 0.13075495
0.030085919 -0.017205503 0.13073593
0.029956456 -0.012947848 0.1296497
0.029575095 -0.008102457 0.1299268
0.029639456 -0.0043759737 0.12941927
0.010855513 0.031328946 0.12772655
0.030484224 -0.011796118 0.12570256
0.030465698 -0.0077497419 0.12530482
0.030034278 -0.0024855444 0.12577879
0.013894378 0.030573569 0.12276733
0.030497797 -0.0068212226 0.12096
0.030613579 -0.0018390454 0.12087971
0.019270321 0.030708015 0.11864626
0.031063884 -0.0006588595 0.11674255
0.031557817 0.009065195 0.1147449
0.020610332 0.0310838 0.11508012
0.032156479 0.0097783459 0.11114138
0.022351582 0.031961229 0.10927558
0.03166268 0.014575107 0.10632116
0.030413637 0.02299867 0.10558605
0.028214548 0.029281985 0.10488009
0.024727099 0.031995524 0.10535932
0.031440515 0.019407485 0.10105419
0.029246695 0.028691452 0.10150456
0.026445501 0.031473204 0.10066521
0.032234758 0.024485249 0.096649945
0.027964534 0.031422712 0.095262706
0.031084033 0.029069947 0.092950821
0.028694138 0.031575516 0.091823876
-0.016698189 -0.0066683074 0.19578278
-0.0062274477 -0.023498015 0.19307953
-0.0065559139 -0.020990174 0.19333923
-0.015304186 -0.0061612059 0.19478306
-0.0051349038 -0.024941638 0.19063222
-0.019828524 0.033379685 0.16647786
-0.018042836 0.032616116 0.16216117
-0.013856422 0.031885631 0.1593079
-0.016330283 0.033117048 0.1580399
-0.012649144 0.031753559 0.15427572
-0.015061324 0.034192376 0.15455651
-0.009329224 0.031526908 0.14956409
-0.0045530591 0.032457672 0.14215958
0.00063509308 0.031392775 0.13946611
-0.0027693426 0.031818327 0.13734981
-0.0013894336 0.03223189 0.13444167
0.03011689 -0.028509237 0.13279989
0.02916798 -0.023704328 0.13160381
0.028847653 -0.020345317 0.13116023
0.0035062497 0.032118235 0.12885284
0.033147812 -0.031219471 0.12572211
0.029430788 -0.027879734 0.12921643
0.028834909 -0.023903593 0.12699306
0.02868066 -0.019187216 0.12682676
0.0076601002 0.031336624 0.12410903
0.035352677 -0.030259352 0.1254645
0.030087834 -0.02316322 0.12311018
0.029432446 -0.01862444 0.12268323
0.029433191 -0.014190039 0.12247521
0.0083803721 0.03014786 0.11891574
0.030023888 -0.017095461 0.11892271
0.029835964 -0.013492108 0.11789393
0.029868897 -0.0090014692 0.1180501
0.0136997 0.030304976 0.11667657
0.010076013 0.030621095 0.11425537
0.030205075 -0.012012168 0.11428165
0.029611409 -0.0082044611 0.11343652
0.029900797 -0.0040002586 0.11330277
0.015739974 0.030912805 0.11230487
0.012622114 0.031425741 0.11025316
0.029878672 -0.0023520812 0.1088748
0.017752286 0.031541884 0.10890663
0.029873993 0.0078466516 0.10334283
0.030324383 0.0085450392 0.099906385
0.021419859 0.031697199 0.098602295
0.030868579 0.01350549 0.09492588
0.023747347 0.031546842 0.094223857
0.031462472 0.018762924 0.090632677
0.030126411 0.028589945 0.089610577
0.025877591 0.031320672 0.089689374
0.029891813 0.028356519 0.085590243
0.027324477 0.030853577 0.085585892
0.030488446 0.027586484 0.082037807
-0.02183065 0.034339625 0.16451049
-0.023933586 0.035338759 0.16535276
-0.020660209 0.033997282 0.16170925
-0.022362046 0.035779372 0.16064686
-0.018200915 0.034752786 0.15722013
-0.019450203 0.03670815 0.15684444
-0.012585543 0.030428583 0.15212408
-0.015851699 0.034713987 0.1522474
-0.017226137 0.03738641 0.15257701
-0.011893992 0.031028531 0.1493026
-0.015041607 0.034365632 0.14808407
-0.017060986 0.037335813 0.14784282
-0.008985348 0.031803973 0.13967043
-0.0069749262 0.031955089 0.13465142
-0.0016903551 0.032061234 0.13225523
0.027722191 -0.031546894 0.12988102
-0.0014602374 0.031923413 0.12452471
0.029358506 -0.029859468 0.12675846
0.0017018104 0.031338222 0.12453425
0.030712236 -0.028960753 0.12261128
0.03033538 -0.025535354 0.12313432
0.029486567 -0.01901786 0.1200912
0.0055667898 0.030822881 0.1181435
0.032412067 -0.032021113 0.11910844
0.03165739 -0.028772602 0.11933762
0.030302575 -0.024154676 0.11748505
0.029838961 -0.019307736 0.11715299
0.030308943 -0.015418983 0.11554408
0.0057156738 0.030728538 0.11326718
0.030274328 -0.022696525 0.11282939
0.03036269 -0.019354289 0.11242503
0.030349813 -0.013854819 0.11196131
0.029539306 -0.010138678 0.1109432
0.0074552409 0.031249613 0.10961044
0.030260101 -0.017616203 0.10901839
0.029782861 -0.014033492 0.10712981
0.029394265 -0.0090000872 0.10702384
0.029384671 -0.0050280811 0.10699242
0.01129813 0.030751314 0.10418242
0.029496465 -0.0082797389 0.10268682
0.029928032 -0.0037372168 0.10265315
0.016859358 0.030930625 0.10015118
0.01157678 0.030765001 0.10137582
0.029409809 -0.0035323184 0.098744631
0.030346435 0.0059916303 0.097217083
0.017444981 0.030964386 0.094548583
0.030658299 0.0069813016 0.092969
0.017099882 0.030729685 0.091212392
0.03107797 0.012634262 0.088300884
0.023390634 0.031168059 0.086807072
0.03088925 0.018262163 0.084008515
0.025153298 0.030825475 0.08295393
0.031824794 0.023448776 0.079682648
0.026916292 0.030444091 0.078056574
0.029978812 0.027649004 0.074734926
-0.011567179 0.0270366 0.14140782
-0.019040953 0.034809902 0.14316961
-0.013077688 0.031503025 0.1345337
-0.011265553 0.032078173 0.13189653
-0.0087101404 0.03142802 0.12751514
-0.0056957584 0.030949187 0.1234687
-0.0013485346 0.030078907 0.1192441
-0.0034974478 0.031032812 0.11900592
0.030205483 -0.032981753 0.11936927
0.00069254451 0.030715633 0.11580265
-0.003223653 0.031023022 0.11521107
0.029482957 -0.033634957 0.11474031
0.029060811 -0.029895237 0.11451387
0.0019551972 0.031023514 0.11075664
0.02879072 -0.029777572 0.11015141
0.029626643 -0.025427651 0.11045712
0.0050581228 0.031457487 0.10700017
0.029785566 -0.028725801 0.10606509
0.030248368 -0.024994936 0.10525811
0.029833678 -0.019997437 0.10590035
0.029546697 -0.016343091 0.10581428
0.0059866598 0.030496258 0.10240221
0.031627327 -0.024190936 0.10066074
0.030517537 -0.019817218 0.10063624
0.029510481 -0.01486913 0.10111141
0.028731439 -0.01093318 0.10110241
0.011143375 0.030532122 0.099002838
0.029417923 -0.014849244 0.096199691
0.029013555 -0.010055472 0.095860779
0.028965419 -0.0053208331 0.096307039
0.029749127 -0.00097132102 0.094569325
0.011542647 0.030432317 0.091178477
0.029463103 -0.0089194085 0.091729164
0.029442849 -0.0048056291 0.091374278
0.016065311 0.030256027 0.088316321
0.030144723 -0.0041855937 0.08661139
0.029867448 0.0052766162 0.086574137
0.017038964 0.030540168 0.086047173
0.029509239 0.0055741472 0.082048178
0.019815791 0.029577259 0.078664243
0.030321624 0.01153206 0.07755059
0.020706171 0.02979314 0.07528007
0.031219941 0.017036572 0.07269454
0.028804855 0.027861843 0.071127594
0.02492027 0.030366302 0.071919441
0.030111877 0.02202229 0.067121923
0.026346542 0.029896334 0.068242967
0.028493522 0.027049534 0.063961864
-0.017782761 0.032418896 0.13367236
-0.016426219 0.033204276 0.13105011
-0.010726353 0.032069195 0.12435186
-0.013978005 0.033581886 0.12651139
-0.010208758 0.031025672 0.1218195
-0.012605885 0.033991512 0.12353462
-0.0067584333 0.031543795 0.11693412
-0.010843086 0.031811949 0.11625624
-0.0045159385 0.031350978 0.11241347
0.028111037 -0.032639537 0.11202568
-0.0039518094 0.03098432 0.10770184
0.028315537 -0.031787209 0.10754299
0.0016378155 0.030663015 0.10242635
-0.00071369391 0.031607307 0.104038
0.030291095 -0.030140795 0.10406941
0.003181804 0.030552583 0.099444389
0.00037906785 0.031274002 0.098999262
0.031410228 -0.029403094 0.098962963
0.032069739 -0.02640537 0.099141836
0.0054632891 0.029195447 0.09465313
0.030594934 -0.024597418 0.095485568
0.029809963 -0.020012297 0.094293833
0.029981818 -0.015567031 0.093689203
0.008430942 0.029312264 0.091718078
0.029104026 -0.015164109 0.089249134
0.029932728 -0.010626669 0.089611948
0.011717913 0.030372102 0.087221384
0.030190008 -0.0095801372 0.085294366
0.030903056 -0.005753614 0.084731579
0.014304425 0.029362306 0.080682516
0.012050511 0.030340588 0.082348108
0.029727783 -0.0088626463 0.080347359
0.030562997 -0.0047340533 0.080209911
0.030045174 0.0036831256 0.079661131
0.014850332 0.029510634 0.079070628
0.029782519 -0.00018967967 0.075387001
0.030231006 0.0088330843 0.074959159
0.019061862 0.029139597 0.073880911
0.030373896 0.010204684 0.070708394
0.022736784 0.030392986 0.070788026
0.030208159 0.0152614 0.06603241
0.024178142 0.030299965 0.065138161
0.03054459 0.020720799 0.061774611
0.026808415 0.029108983 0.060718179
0.030051187 0.02560444 0.056454122
0.027656153 0.028906181 0.055898011
0.028853478 0.028516062 0.052121639
-0.014638857 0.032628085 0.1187073
-0.013308441 0.03266662 0.11546743
-0.0099549443 0.031984944 0.11087668
-0.0075730868 0.030928601 0.10520685
-0.010347269 0.031702258 0.10550982
-0.0061971131 0.031310234 0.10118532
-0.0034594052 0.031592954 0.097067833
0.0025043348 0.028928507 0.092490196
-0.00021585915 0.031693049 0.093010306
0.028788656 -0.03073157 0.092023313
0.028741084 -0.02698235 0.092050076
0.028604269 -0.022958327 0.092422545
0.0030446425 0.029012954 0.088812947
0.0016896622 0.031535298 0.088749468
0.029483061 -0.030156273 0.087195933
0.029317193 -0.026554145 0.087961495
0.028881352 -0.021562276 0.088290095
0.028598158 -0.017874235 0.087532401
0.0070388597 0.030344363 0.084850013
0.0045373868 0.03206189 0.084487319
0.032256797 -0.029211663 0.083269358
0.030864144 -0.026213031 0.0830006
0.029691614 -0.021270731 0.083376229
0.028719932 -0.016491057 0.083603024
0.029330716 -0.011591531 0.082451701
0.010221763 0.030771848 0.080091596
0.0068287533 0.031877406 0.079941094
0.03177144 -0.025126211 0.079811037
0.030698124 -0.020885088 0.078613341
0.029628504 -0.01619762 0.078417778
0.029515151 -0.011425459 0.078854501
0.029867215 -0.0072188498 0.076746523
0.011105035 0.030377351 0.075836122
0.0075015649 0.032585669 0.075802028
0.030660097 -0.015111041 0.074285269
0.030300848 -0.010776184 0.07409066
0.030155078 -0.0054469705 0.074314892
0.029144671 -0.00063938648 0.071692228
0.0125557 0.029128589 0.071496308
0.031223653 -0.010162447 0.070271373
0.030313194 -0.0056621926 0.069192052
0.029315751 -0.00072610099 0.068684697
0.014025743 0.029703964 0.067139268
0.030589852 -0.0039456617 0.065685809
0.030192731 -0.00036417786 0.064498425
0.029582767 0.0090987701 0.063350677
0.01668405 0.029626384 0.061837256
0.030126544 0.0045355321 0.060258269
0.029466366 0.013814894 0.058671296
0.022161532 0.02974497 0.057710409
0.030371053 0.015303003 0.05450654
0.024347024 0.029813435 0.05314219
0.031179447 0.020711547 0.049972415
0.026900481 0.029675454 0.049324334
0.030888617 0.025513908 0.045533121
0.028479721 0.028994739 0.044582069
0.031032834 0.02599762 0.041194677
-0.016329017 0.032353602 0.11069638
-0.015654009 0.032502547 0.10714477
-0.012871657 0.032998655 0.10278118
-0.010508271 0.033227183 0.098651826
-0.0048213894 0.031606652 0.094079077
-0.0092021702 0.033341393 0.093719304
-0.0066686934 0.033000879 0.088505864
-0.001733562 0.032467399 0.085210383
-0.0056070061 0.033749238 0.085841477
0.00037634373 0.033155706 0.082780421
0.028868036 -0.032604426 0.082019806
0.004329226 0.032687947 0.07831949
0.029728767 -0.030757559 0.076890707
0.032123752 -0.026318647 0.077108085
0.030748535 -0.02221607 0.07565105
0.0063522384 0.032367568 0.072483182
0.030705441 -0.026068188 0.07255888
0.029719077 -0.021403225 0.071626663
0.03044685 -0.016978487 0.071777761
0.0091864318 0.030180877 0.068315506
0.0070838882 0.031606603 0.06763196
0.030131608 -0.016283309 0.067550361
0.029964868 -0.011738942 0.066097498
0.011588249 0.029582396 0.063534141
0.029437289 -0.010872077 0.062994182
0.030224852 -0.0062938863 0.062437475
0.030521164 -0.0023834947 0.06186533
0.014758975 0.029774651 0.060931921
0.029928807 -0.0046474515 0.057660639
0.030095609 -0.0012710728 0.057035446
0.016974738 0.029536095 0.055748105
0.030192133 -0.00072751381 0.053116262
0.030525757 0.0087784613 0.05225563
0.018931838 0.030104395 0.051098943
0.030187111 0.0095768683 0.048244655
0.019349303 0.030131692 0.047204137
0.03003026 0.014700134 0.043510616
0.025466565 0.03049672 0.04365921
0.031348713 0.024256263 0.038833559
0.027564377 0.029906362 0.038088322
0.031086355 0.025155053 0.033895254
0.028700829 0.028997203 0.033766389
-0.02259093 0.033351902 0.10942382
-0.021090303 0.033198655 0.10566163
-0.018313326 0.034509253 0.10122663
-0.016570674 0.035030663 0.097439647
-0.013387092 0.035601359 0.09312433
-0.010167995 0.034146085 0.088466108
-0.012838583 0.035656348 0.087354481
-0.007969832 0.034344234 0.084301949
-0.0035422519 0.031549521 0.075410247
0.027130747 -0.032195386 0.072528839
0.02943885 -0.028191386 0.069506824
0.029226283 -0.023294184 0.069034934
0.00145174 0.031345248 0.067554832
0.030562714 -0.026561735 0.066050887
0.029907182 -0.022547031 0.065997899
0.029394688 -0.018924071 0.065054655
0.008693492 0.030256828 0.062220216
0.0076931752 0.031686973 0.062885106
0.029119452 -0.022467146 0.061294913
0.028900996 -0.017325982 0.061156452
0.028927196 -0.012581098 0.060581684
0.010022199 0.029720075 0.057841182
0.028972911 -0.015946575 0.057092786
0.028989438 -0.012124075 0.056268334
0.029206112 -0.0072128968 0.055788815
0.011598986 0.029874058 0.053813696
0.029836506 -0.0070602903 0.051397979
0.03015729 -0.0013380582 0.050279617
0.012190939 0.029372942 0.049901307
0.031113068 -0.0047410848 0.046916366
0.030808799 -0.0015050992 0.046953321
0.029898947 0.0072974926 0.045006633
0.016231745 0.028827172 0.042271852
0.031226333 -0.0010638228 0.042228937
0.030391747 0.0087013897 0.042059779
0.031424168 0.0048730015 0.038078725
0.02958517 0.013754541 0.037409186
0.029873494 0.014521153 0.032752633
0.024736252 0.029773863 0.03005445
0.030655582 0.024777517 0.028071284
0.027162723 0.027599119 0.027100682
0.03061332 0.024598405 0.023668528
-0.022090321 0.03446874 0.099155247
-0.019808957 0.035163336 0.094728649
-0.013819055 0.03529413 0.086580396
-0.011629033 0.032326289 0.079133987
-0.01470218 0.034868699 0.081715405
-0.0086496901 0.031545155 0.076917946
-0.005049882 0.030888727 0.071022093
-0.0037879702 0.031311166 0.0699597
0.00079729408 0.031003682 0.063837528
-0.00029864907 0.030492067 0.059729576
0.028954159 -0.028043609 0.058829546
0.028524211 -0.023777455 0.057646632
0.028225712 -0.019880362 0.057598472
0.0063272463 0.029173102 0.054879844
0.0034102779 0.029872967 0.053902209
0.02857567 -0.029045321 0.055451453
0.028006548 -0.021981169 0.05475688
0.027731616 -0.018522566 0.05333823
0.02846792 -0.014588485 0.052829266
0.0075522549 0.029455518 0.049528778
0.0059291814 0.030722244 0.051806688
0.028048106 -0.01683615 0.048709512
0.028526234 -0.012960678 0.049056351
0.010008335 0.029050626 0.046000421
0.028398022 -0.01207361 0.044214606
0.028967034 -0.0082848407 0.044693053
0.012072087 0.029124076 0.043358803
0.029466864 -0.0071158195 0.040699363
0.030652249 -0.0026512118 0.038582563
0.014494052 0.027998637 0.036388934
0.029714666 -0.0058487486 0.036948919
0.030603416 -0.0019227602 0.035523474
0.029794341 0.0067436886 0.034077048
0.015371175 0.028241061 0.033926725
0.029365184 -0.00080354605 0.031609654
0.029258862 0.0084288027 0.030425787
0.028964607 0.0079096677 0.027260482
0.030564498 0.017450944 0.024805725
0.022698585 0.02790934 0.023540258
0.030356865 0.018623058 0.020200729
0.025642285 0.02774833 0.020636976
0.029125748 0.023384392 0.015776992
0.026122088 0.027135435 0.016343176
-0.014306909 0.033120394 0.077413678
-0.015624855 0.034477841 0.078886509
-0.013477105 0.031552244 0.074492574
-0.016210921 0.033430878 0.073616326
-0.011944965 0.030790083 0.070172727
-0.0068786344 0.030075673 0.065281391
-0.010386424 0.030635953 0.066008091
-0.0062054363 0.030214969 0.061594903
-0.000628029 0.030304762 0.057320476
-0.0044189179 0.030749012 0.057770193
0.024963567 -0.032569416 0.053906441
-0.00099295191 0.030073054 0.053802967
0.02809241 -0.029081061 0.05251658
0.027322631 -0.024637435 0.052253008
0.004203652 0.029990656 0.048163414
0.028300948 -0.028747022 0.047851026
0.027658155 -0.024433188 0.047437847
0.027199883 -0.020185567 0.047794878
0.0065757278 0.028910737 0.043296337
0.0037102429 0.030125991 0.043544292
0.031180982 -0.028921295 0.040373445
0.02852424 -0.023489226 0.04192543
0.028184485 -0.018966081 0.04288888
0.028115895 -0.01472782 0.042557359
0.0081460103 0.028486839 0.040117621
0.0059427172 0.029136851 0.038570523
0.032183833 -0.028571052 0.03910017
0.02924403 -0.022476487 0.038456261
0.029219661 -0.018200288 0.03817153
0.028616127 -0.013546837 0.038255572
0.028399587 -0.0093862619 0.037796199
0.0094381971 0.027883746 0.034508228
0.029305408 -0.012805435 0.033395052
0.029488217 -0.0081743188 0.033695221
0.015377847 0.028138045 0.030667841
0.030133605 -0.0077429749 0.028376937
0.02985096 -0.002792934 0.029004216
0.014635976 0.027702097 0.025615156
0.03075863 -0.0060788896 0.024732828
0.030350445 -0.0023655603 0.023903966
0.028472221 0.0073014577 0.023894787
0.015712271 0.027987333 0.02221483
0.030486085 -0.00097084232 0.019425631
0.028995801 0.0075175576 0.018466532
0.022709344 0.028597973 0.01721704
0.018194949 0.028724238 0.016810775
0.029227665 0.013092329 0.01398772
0.027552452 0.02487345 0.013591588
0.024293758 0.027850408 0.013209701
0.028362866 0.023219874 0.0093920827
0.025950678 0.026630308 0.0088181496
-0.019602414 0.034665633 0.069801092
-0.01471534 0.03092468 0.067141652
-0.017754309 0.033440642 0.066615045
-0.013335832 0.030840334 0.062315822
-0.015884902 0.033468984 0.061937869
-0.010749555 0.031208593 0.058481872
-0.007630331 0.030842826 0.053796232
-0.0032083769 0.029129706 0.048681319
-0.0059547778 0.029955916 0.048954129
-0.001291465 0.02974363 0.046023726
-0.0040976638 0.03051593 0.045154333
0.028305881 -0.028961565 0.044578254
0.0013640113 0.030580154 0.041852772
-0.0017723907 0.031254824 0.041763246
0.028433993 -0.028971339 0.04079783
0.02823882 -0.026451826 0.040897727
0.0035641761 0.030334085 0.037038207
-0.00024690479 0.031718004 0.038757205
0.030405311 -0.027634606 0.036874771
0.029144105 -0.024869364 0.036423087
0.02927259 -0.019848863 0.035960078
0.0046102349 0.029691128 0.032999516
0.031055391 -0.027604442 0.03306222
0.028325604 -0.024649769 0.032256722
0.02835343 -0.019574247 0.031692803
0.028523978 -0.014637533 0.030669987
0.010573686 0.028125288 0.028987586
0.0061105704 0.029178634 0.027896583
0.028492445 -0.018811326 0.02802664
0.028148249 -0.01393308 0.026938558
0.012056245 0.028502861 0.023760796
0.0084861573 0.029906644 0.023460746
0.028473308 -0.012625752 0.023201764
0.029787149 -0.0087913424 0.022734046
0.030035235 -0.0029205438 0.020681858
0.014964326 0.02853189 0.019579768
0.0098107122 0.030291241 0.020267904
0.02917113 -0.0077120569 0.017866015
0.029289538 -0.0040369276 0.016826928
0.015214243 0.029402129 0.015651703
0.029198904 -0.0027128849 0.013469398
0.029237105 0.0069876378 0.012810647
0.018140906 0.028523419 0.011217713
-0.017735239 0.035108682 0.060689867
-0.015521614 0.033639066 0.057268679
-0.012275605 0.031401724 0.052063286
-0.014494057 0.033158369 0.052354574
-0.011551579 0.030623343 0.047044396
-0.014182827 0.032428484 0.047682166
-0.0097641777 0.030242374 0.042914093
-0.0068091755 0.03113097 0.036763906
-0.0033456925 0.031083863 0.03401494
0.028727859 -0.03043169 0.033697963
0.00269101 0.030718205 0.029960513
-0.0011621555 0.031126995 0.029210806
0.028760407 -0.028955838 0.027590275
0.02875891 -0.025480453 0.029430568
0.028049193 -0.021718409 0.029040575
0.0021651685 0.030390125 0.025093794
0.028444936 -0.024428081 0.024662554
0.02823207 -0.020322941 0.024582505
0.027861563 -0.015876792 0.024704814
0.0053112051 0.030061647 0.021501482
0.029008962 -0.023703741 0.020492733
0.02856495 -0.019800654 0.020361245
0.028240979 -0.014996624 0.019870937
0.02863816 -0.010921363 0.019438148
0.0071971267 0.030168332 0.017388105
0.028575566 -0.019443747 0.01694864
0.028448628 -0.014579139 0.01515162
0.029348237 -0.0093616825 0.015629947
0.008072719 0.028562071 0.0139696
0.029259387 -0.01295569 0.011645317
0.029233491 -0.0095651662 0.010870695
0.029241025 -0.0037447419 0.01099664
0.012716635 0.028276371 0.0088636875
-0.017436106 0.033097334 0.047566414
-0.013169877 0.030870808 0.043731689
-0.015689807 0.032727752 0.044469833
-0.011223036 0.030881355 0.040890276
-0.014846731 0.032909859 0.039747179
-0.010418314 0.031224903 0.037264109
-0.012860182 0.03262658 0.036847949
-0.0087285535 0.03167776 0.031616926
-0.01054937 0.033760022 0.031309724
-0.0066165146 0.030941064 0.027059436
-0.0021429174 0.03124333 0.024099946
0.026233733 -0.02843939 0.023521185
0.00025688484 0.031365871 0.019455791
0.028206997 -0.025362281 0.019373059
0.028359715 -0.022257496 0.018175125
0.002526029 0.030213287 0.014348686
0.027418865 -0.024829268 0.013355315
0.027487254 -0.021075124 0.013011098
0.028282138 -0.017006472 0.012989402
0.0062852269 0.028408553 0.0102548
-0.020531224 0.03368495 0.041067123
-0.017133446 0.033919986 0.039358258
-0.019286418 0.034068473 0.038849711
-0.014889652 0.033066437 0.034318686
-0.011622521 0.034683019 0.028540432
-0.0089922668 0.031421635 0.025326014
-0.011950772 0.033562206 0.024688482
-0.006325339 0.031489275 0.020850539
-0.010174007 0.032552749 0.020302296
-0.0050200997 0.03122288 0.016296089
-0.0025462331 0.030138165 0.011330664
0.024809059 -0.02839132 0.011874795
0.027174514 -0.023247816 0.010279179
-0.013857746 0.035591733 0.022647321
-0.012388906 0.033263639 0.018749714
-0.010120265 0.031826615 0.014980018
-0.0072359149 0.03026085 0.0098078847
0.024479205 -0.030105587 0.0094432235
-0.014500849 0.03138094 0.009878695
0.019007387 -0.03242806 0.0099215508
-0.019160423 0.031588715 0.0095828176
