# .PCD v0.7 - Point Cloud Data file format
VERSION 0.7
FIELDS x y z
SIZE 4 4 4
TYPE F F F
COUNT 1 1 1
WIDTH 702
HEIGHT 1
VIEWPOINT 0 0 0 1 0 0 0
POINTS 702
DATA ascii
-0.024926959 0.028633585 0.18956405
-0.028359365 0.021634486 0.1912913
-0.031775765 0.012276204 0.19051495
-0.027364623 0.03056227 0.18788508
-0.032073069 0.023345156 0.18846855
-0.033699125 0.013300233 0.18646973
-0.029093055 0.031515971 0.18370917
-0.033727393 0.024266873 0.18425506
-0.034367684 0.015625846 0.18244627
-0.02931471 0.030990351 0.18003976
-0.034318432 0.02478224 0.17929423
-0.03472703 0.016622685 0.17893851
-0.034211978 0.025756806 0.17586952
-0.018740634 0.025921244 0.19256863
-0.01970011 0.022934962 0.19315702
-0.023674926 0.014765466 0.19342285
-0.027855836 0.0042739105 0.19218186
-0.030351508 -0.0044206502 0.19217616
-0.031702518 -0.0071296617 0.19033822
-0.021084638 0.028495807 0.1903837
-0.022084674 0.024420228 0.19173655
-0.026456799 0.015774231 0.19215402
-0.031807031 0.006460228 0.18963233
-0.033446573 -0.0028970409 0.1888954
-0.033184391 -0.0063593267 0.18775287
-0.021533446 0.030822217 0.1855472
-0.034465376 0.0028322935 0.18385738
-0.034658074 -0.0019943565 0.1837211
-0.024455654 0.032160055 0.18304747
-0.034429885 0.0080472752 0.17988873
-0.034584567 -0.00031308085 0.17935294
-0.028513126 0.031804889 0.1776191
-0.034971058 0.019068884 0.17676052
-0.035129182 0.0087730698 0.17524207
-0.029229436 0.032202549 0.17301816
-0.033433426 0.024529245 0.17268139
-0.035112947 0.015684772 0.17207426
-0.030113408 0.031972237 0.16886586
-0.033733569 0.025330102 0.1674273
-0.035104454 0.017307835 0.16834247
-0.013703821 0.019593287 0.19344205
-0.015175106 0.015996596 0.19323277
-0.02090597 0.00071457634 0.19205803
-0.02374297 -0.0023115519 0.19275987
-0.024517953 -0.0070731756 0.19275016
-0.025789056 -0.011563296 0.19126728
-0.014561649 0.026230693 0.19154912
-0.016834075 0.021704488 0.19394335
-0.018297018 0.018949535 0.19396839
-0.020889828 0.0083263284 0.19238427
-0.029342417 -0.010116422 0.19022286
-0.013358615 0.030816598 0.18640435
-0.016238114 0.02971641 0.18907508
-0.031969652 -0.0094082896 0.18619454
-0.015063134 0.031711679 0.18303996
-0.017619822 0.030987108 0.18428123
-0.034251135 -0.0038824677 0.17994866
-0.032879487 -0.0077737253 0.18192482
-0.019887794 0.031549409 0.17913845
-0.0339421 -0.0023942217 0.17630428
-0.032468509 -0.0068706274 0.17744011
-0.022902906 0.032712016 0.17460266
-0.03429082 0.0029965602 0.17227727
-0.034009881 -0.0014777044 0.17157546
-0.025210788 0.033582926 0.17151487
-0.033973269 0.0089629013 0.16868645
-0.03482927 -0.00061538722 0.16834626
-0.027434403 0.032662839 0.16700789
-0.034685515 0.018985402 0.16489613
-0.033137605 0.010995794 0.16464067
-0.027265698 0.03119079 0.16227314
-0.033533495 0.025242906 0.16076267
-0.033752847 0.016098561 0.16047451
-0.032481514 0.025651731 0.15674362
-0.0080612618 0.02330544 0.191394
-0.0096805207 0.019773133 0.19285336
-0.01198953 0.014675613 0.19293892
-0.016305497 0.0061070928 0.19236434
-0.01935789 -0.0037757535 0.19281152
-0.020161815 -0.0090576876 0.19327682
-0.022507127 -0.01289308 0.19251871
-0.024187982 -0.017391026 0.18965647
-0.025369147 -0.021323236 0.18974274
-0.0082513504 0.029266257 0.18915975
-0.010205006 0.026239809 0.19084445
-0.027309522 -0.015865145 0.18723264
-0.028688375 -0.020705426 0.18661752
-0.030006219 -0.023134224 0.18482426
-0.010546412 0.030960437 0.18624267
-0.028728714 -0.015059059 0.18275151
-0.02984754 -0.019677639 0.18205136
-0.030484825 -0.022812663 0.18150774
-0.011953336 0.032248136 0.18142897
-0.032006837 -0.0099782422 0.1787228
-0.029397212 -0.013924201 0.17867011
-0.03046428 -0.019290052 0.17882749
-0.014593345 0.033081353 0.1773777
-0.018675782 0.031923741 0.17596585
-0.031406648 -0.0087386025 0.1746839
-0.016573116 0.03376095 0.17343819
-0.019167606 0.032213084 0.17448911
-0.033581577 -0.0037847776 0.16944861
-0.032635823 -0.0070954431 0.17007738
-0.034196917 -0.0018761354 0.16520399
-0.034128122 -0.0057662083 0.16490072
-0.024227791 0.031624872 0.16243854
-0.033509582 0.0036971867 0.16122347
-0.03386436 -0.0016512861 0.16187534
-0.025116324 0.031340092 0.1591458
-0.02616949 0.031002849 0.1578081
-0.033214822 0.010217343 0.15760043
-0.028939562 0.030034769 0.15442774
-0.03398823 0.020954605 0.15356001
-0.033182278 0.01205905 0.15439036
-0.027983617 0.034288302 0.15053117
-0.030449133 0.030939307 0.14967218
-0.032944653 0.02114284 0.14951801
-0.031667359 0.02972962 0.14573324
-0.0060149636 0.0070308009 0.19304562
-0.01029744 -0.0014166818 0.19299945
-0.012606796 -0.0064116186 0.19285187
-0.014720237 -0.01185408 0.1932078
-0.015915398 -0.015941873 0.19358385
-0.0168644 -0.021155702 0.19225991
-0.019637071 -0.023064585 0.19291514
-0.0013138857 0.026252965 0.1909799
-0.0029444699 0.022874301 0.19214565
-0.0048071579 0.018004656 0.19284019
-0.0070150075 0.012618054 0.19239798
-0.011457943 0.0045836098 0.19274035
-0.012364578 -0.00049226219 0.19254208
-0.014752299 -0.0054397974 0.19245097
-0.017910117 -0.010057227 0.19286963
-0.02043223 -0.015780739 0.1926342
-0.020329479 -0.019211447 0.19070318
-0.022388306 -0.021723613 0.19111621
-0.0020205099 0.032027751 0.18649289
-0.0034861946 0.029126467 0.18869102
-0.0058850022 0.025004301 0.19067958
-0.0062348638 0.033181582 0.18400505
-0.0068037352 0.031722847 0.18390438
-0.0072026821 0.034293927 0.17932364
-0.0087321214 0.032757487 0.1797474
-0.028610658 -0.015751095 0.17602891
-0.029365208 -0.019696916 0.17531061
-0.0091645624 0.035370596 0.17472425
-0.01114497 0.033905953 0.17682782
-0.030190717 -0.010572436 0.17196167
-0.028244322 -0.014698311 0.17171788
-0.028186209 -0.020140253 0.1717217
-0.0098779369 0.035918634 0.17063889
-0.013790524 0.034482025 0.17109722
-0.031336993 -0.0099125691 0.16817337
-0.029367011 -0.012510555 0.16718626
-0.033037886 -0.0086187301 0.16339916
-0.030683644 -0.01177695 0.16349894
-0.033049546 -0.001887287 0.15850425
-0.033093058 -0.0068116849 0.15821117
-0.021872858 0.03153979 0.15723619
-0.032868121 -0.0017819889 0.15371865
-0.032787755 -0.0061559286 0.15422314
-0.02353999 0.032367509 0.15238023
-0.032790687 0.010100247 0.15142357
-0.033770807 0.00024099182 0.14921653
-0.024790928 0.034378499 0.14856854
-0.032692108 0.01538561 0.14732677
-0.034260705 0.0060658203 0.14563274
-0.028964838 0.030626046 0.14317065
-0.032116849 0.02068945 0.14316708
-0.033752687 0.011158577 0.14215082
-0.028140211 0.034707867 0.13744813
-0.029826742 0.029975522 0.13917071
-0.032325096 0.021588793 0.13849583
-0.030797046 0.029688332 0.13499185
-0.01001709 -0.014554334 0.19470829
-0.011153408 -0.018729033 0.19489616
-0.013241418 -0.021777833 0.19534782
0.0042084153 0.023917327 0.19285655
0.0019353828 0.020545045 0.1938436
-0.00016448414 0.015965056 0.1936107
-0.0020729273 0.010522045 0.19281465
-0.0025318 0.0055248858 0.19351268
-0.0064128586 -0.003123516 0.19319242
-0.0083473837 -0.0074454476 0.19302967
-0.010610789 -0.011920594 0.19330573
-0.014529981 -0.018543422 0.19417843
-0.015210772 -0.021085232 0.19322702
0.0044490742 0.028632205 0.18881294
0.0018859999 0.026659427 0.19119328
0.0014381371 0.031635012 0.18715054
-0.0023661591 0.03348178 0.18192011
-0.0026967153 0.033958286 0.17666489
-0.0045566112 0.034911249 0.17334056
-0.026983855 -0.017115092 0.16818371
-0.027237849 -0.020480465 0.16827568
-0.0076705674 0.036423672 0.16903669
-0.027643155 -0.015842924 0.1651949
-0.027295057 -0.019446833 0.16392449
-0.028803216 -0.01457463 0.16061646
-0.032950941 -0.0087214261 0.15542832
-0.030023735 -0.012287408 0.15684098
-0.033271737 -0.006961924 0.15183842
-0.031046093 -0.011201438 0.15162975
-0.033776585 -0.0024418067 0.14791635
-0.03337593 -0.0064876489 0.1468944
-0.03433229 -0.00051894225 0.14319974
-0.033382505 -0.0054870667 0.14339554
-0.023405746 0.032484289 0.1423499
-0.025045747 0.03157169 0.14022851
-0.033702705 0.011267243 0.13928869
-0.034683321 0.001116165 0.13933808
-0.026380196 0.033900827 0.13894135
-0.027548073 0.032316606 0.13774565
-0.032265101 0.015761863 0.1357252
-0.033991367 0.0063601607 0.13600117
-0.029500239 0.031914789 0.13316041
-0.032433629 0.021390323 0.13210163
-0.029895207 0.03036518 0.12900698
-0.032616187 0.022818182 0.12817717
0.0092186695 0.017857324 0.19341719
0.0066382689 0.012691334 0.19373468
0.0054129642 0.0073242914 0.19385713
0.0033225412 0.003039984 0.1933901
0.0010011677 -0.0011668769 0.19346377
-0.00055150397 -0.0056783967 0.19304451
-0.0030632173 -0.0097955875 0.19324476
-0.00438018 -0.014069658 0.19295079
-0.0065846276 -0.018709771 0.19450173
0.010629518 0.026024669 0.1912218
0.0082057901 0.024043459 0.19258976
0.0059510078 0.020011693 0.1939089
0.0029690182 0.013521218 0.19370514
0.0014905361 0.0090033039 0.19324389
0.0075031826 0.028721621 0.18856472
0.008367192 0.030852381 0.18357706
-0.025380163 -0.022904258 0.16178343
-0.0242348 -0.025216237 0.16232473
-0.027715364 -0.016428603 0.15752953
-0.027138645 -0.020002197 0.15824664
-0.028183058 -0.015396312 0.15394986
-0.02795556 -0.018803868 0.15316403
-0.028715059 -0.014814892 0.14911762
-0.029314388 -0.017860774 0.14893344
-0.029975466 -0.011922295 0.14551774
-0.032963444 -0.0064472202 0.14060268
-0.030479155 -0.011123153 0.14176443
-0.033872023 -0.018252015 0.13972938
-0.033480607 -0.0043043671 0.13615423
-0.032619197 -0.0081977593 0.13631478
-0.033546604 0.0062997104 0.13281056
-0.033226501 -0.0030932659 0.13187322
-0.031951442 0.010996205 0.12845176
-0.033242915 0.0028617792 0.12861711
-0.023845721 0.033600636 0.12660003
-0.027032429 0.03132952 0.12526894
-0.031723816 0.016301706 0.12419003
-0.028061509 0.029931182 0.12069881
-0.032498918 0.022002434 0.12071019
-0.031282496 0.026891999 0.11662304
0.019465823 0.022170654 0.19660547
0.014487722 0.0091870939 0.19629067
0.012659472 0.0053900983 0.19638932
0.0034915637 -0.017994201 0.19401869
0.0012588021 -0.022276213 0.19448379
0.019184845 0.028373387 0.19324967
0.017359011 0.024913514 0.19382468
0.013853669 0.021414921 0.19326055
0.013185114 0.01583351 0.19307172
0.011379654 0.011941229 0.19458082
0.00874402 0.0071580661 0.19512215
0.0078125605 0.0010882036 0.19418231
0.0047336915 -0.0080011329 0.19331461
0.0020685601 -0.012084058 0.19359985
0.00012265937 -0.016458219 0.19342661
-0.0021317028 -0.020278547 0.19402927
0.01698776 0.029703828 0.18882817
0.014013669 0.027361006 0.18977481
0.014746865 0.030854985 0.18475634
0.012324598 0.029162956 0.18559986
0.013608104 0.031499505 0.18181488
-0.02392713 -0.0252745 0.15928969
-0.026104219 -0.022355998 0.15479624
-0.024604656 -0.024832893 0.15506911
-0.005253558 0.029675605 0.15233108
-0.025961366 -0.022307985 0.1509138
-0.02822474 -0.020673132 0.14655718
-0.029126309 -0.014607494 0.14330992
-0.029614918 -0.018584915 0.14276889
-0.029906388 -0.02189358 0.14000195
-0.030553561 -0.012971536 0.13907328
-0.031689502 -0.0172651 0.13868251
-0.03119514 -0.011419534 0.13440889
-0.031202193 -0.015450979 0.13392332
-0.032700744 -0.0050114952 0.12996072
-0.031427555 -0.0089618005 0.13000059
-0.031920236 0.0006631026 0.12511462
-0.032247826 -0.0044600815 0.1253081
-0.031600885 -0.0082982369 0.12594211
-0.023649395 0.033700019 0.12358224
-0.032243457 0.006216527 0.12126029
-0.032306053 -0.0034337416 0.12209493
-0.023897966 0.034075256 0.11897904
-0.025867287 0.03198491 0.11926955
-0.031871635 0.011490726 0.11685574
-0.026049962 0.035139486 0.11585104
-0.026686745 0.032034494 0.11426598
-0.032772493 0.02250281 0.11322486
-0.032682244 0.012626091 0.11252207
-0.032336626 0.022483967 0.10996807
0.014775088 -0.0090845749 0.19800803
0.0096735191 -0.016055979 0.19736531
0.0085090138 -0.019921491 0.19692391
0.0072364616 -0.023292126 0.19620711
0.019011889 0.019783091 0.19619241
0.018128801 0.014136063 0.19511575
0.015540098 0.01167698 0.19580004
0.012997657 0.0022600438 0.19642147
0.011566642 -0.006019068 0.19438854
0.010011511 -0.010364883 0.1945501
0.007189949 -0.014410067 0.19492126
0.0056386529 -0.018985864 0.19471875
0.0037637935 -0.023005351 0.19529831
0.021605464 0.03196289 0.19258216
0.020812966 0.030542901 0.1926114
0.01776401 0.019203173 0.19408733
0.016627913 0.015185079 0.19358537
0.021384042 0.03311437 0.18795028
0.019603558 0.03089943 0.18925095
0.019711923 0.034062125 0.18295559
0.017425187 0.032469586 0.18375239
0.017720792 0.034384571 0.1794304
0.01487022 0.032427795 0.17997563
0.0020286646 0.030005548 0.15575588
-0.00025714654 0.030119348 0.1527645
-0.023355503 -0.025233956 0.14847308
-0.0027906653 0.030164227 0.14715403
-0.025966227 -0.023890976 0.14468816
-0.0032645185 0.029492805 0.14240682
-0.0056486921 0.028641764 0.14360148
-0.02700652 -0.02328426 0.1406894
-0.0046817549 0.030295197 0.13867453
-0.030263823 -0.017230179 0.13161111
-0.030392285 -0.019611999 0.13035882
-0.030245934 -0.011798982 0.12747395
-0.02960683 -0.015257791 0.12675226
-0.032297902 -0.0061182706 0.12318206
-0.03115367 -0.010382554 0.12278986
-0.029864026 -0.014304038 0.12291378
-0.032619283 -0.0043265447 0.11949015
-0.032517888 -0.0085031455 0.11863422
-0.032736465 0.0014291564 0.11512053
-0.032358043 -0.0037640678 0.11472446
-0.033166498 0.0072992961 0.11067498
-0.024687499 0.031031214 0.10731697
-0.031534616 0.022325754 0.10640597
-0.031986073 0.012362831 0.10655916
-0.03308709 0.0036703488 0.10719365
-0.025546385 0.030464914 0.10306877
-0.031641651 0.022566549 0.1025849
-0.029936844 0.027774304 0.097933352
-0.031795491 0.01937848 0.097621799
0.016924903 -0.0077091996 0.19587588
0.015325549 -0.0065240944 0.19469076
0.021897996 0.034338653 0.18184334
0.0080512017 0.031595659 0.15344951
0.0061704125 0.031702429 0.15024021
0.0032244409 0.031775959 0.14788121
0.0021935292 0.030552156 0.14619339
0.00026488025 0.03028499 0.14195079
-0.0025223661 0.029524494 0.13709819
-0.0035953131 0.030145358 0.13405719
-0.028129224 -0.01812771 0.12451357
-0.028726064 -0.020272147 0.12617332
-0.02839154 -0.01636954 0.11967176
-0.030361999 -0.012070618 0.11607832
-0.02930964 -0.01429375 0.11467528
-0.031785324 -0.0050381124 0.11138988
-0.030927854 -0.009373703 0.11167192
-0.031831212 -0.00042035058 0.10698509
-0.031294115 -0.0042258771 0.10735846
-0.031306341 -0.0083690258 0.10733187
-0.019588219 0.031493407 0.1033594
-0.030746348 0.0063567674 0.10252619
-0.031987406 -0.0034804596 0.10265785
-0.022589633 0.030695431 0.10062808
-0.030029621 0.01146666 0.099747777
-0.032239631 0.0018515615 0.099031985
-0.023966378 0.030885343 0.096520066
-0.028234458 0.029380159 0.09554708
-0.031126814 0.016905967 0.096034944
-0.031595778 0.0088329129 0.094916582
-0.02522701 0.030961819 0.091980696
-0.028122317 0.02891916 0.091717124
-0.031793203 0.017935337 0.091098905
-0.028848145 0.028014164 0.087778568
-0.032311101 0.018330561 0.087556481
0.011675663 0.033999197 0.15190226
0.012395403 0.03387725 0.14739877
0.0089906268 0.03300184 0.14770702
0.0074357009 0.031774096 0.1437982
0.0061761159 0.031637076 0.13876343
0.0026339116 0.03082379 0.13921061
0.0012059603 0.03031534 0.13553566
-0.0010075215 0.03180011 0.13296258
-0.025384665 -0.019786958 0.11730582
-0.027248446 -0.01808656 0.11370003
-0.029609099 -0.012169204 0.10861343
-0.028164182 -0.016658606 0.10893959
-0.030559391 -0.010389969 0.10417449
-0.02936196 -0.014673788 0.10503483
-0.031918775 -0.0045466293 0.099682689
-0.031798609 -0.0088704331 0.10041809
-0.029555824 -0.013736596 0.10106307
-0.018595407 0.031363465 0.098627925
-0.032013029 0.0018760664 0.095873177
-0.032719471 -0.0031792438 0.096667051
-0.032430023 -0.007717534 0.09494555
-0.021181094 0.032246515 0.094154119
-0.032862488 0.0023885434 0.092599988
-0.033058904 -0.0026015891 0.091296911
-0.022866473 0.032169327 0.089735627
-0.03203848 0.0077722264 0.088045835
-0.032879017 -0.00097110774 0.087422371
-0.024650879 0.031145316 0.084543943
-0.027585721 0.029381648 0.0853315
-0.031972721 0.018847186 0.084308803
-0.031211926 0.0091580823 0.083625913
-0.028314169 0.02875426 0.080880642
-0.031777136 0.020038338 0.080089748
0.011638622 0.03240487 0.14106867
0.0084502613 0.032230586 0.13608715
0.0080853086 0.030819325 0.13292664
-0.022284824 -0.023818513 0.11303216
-0.024684329 -0.02301087 0.11084932
-0.026132882 -0.021803427 0.10618305
-0.028518569 -0.017419791 0.10267103
-0.027034709 -0.02079078 0.1015842
-0.028926842 -0.015732074 0.097968519
-0.029347548 -0.011784483 0.093503475
-0.028163381 -0.014151988 0.093936801
-0.031404871 -0.0085411677 0.089517891
-0.032233559 -0.0035794219 0.085404992
-0.031689487 -0.0075226314 0.084768116
-0.019953959 0.031107448 0.082237601
-0.030143768 0.00662982 0.081594825
-0.031801522 -0.0024038479 0.080742717
-0.022245567 0.031362854 0.078829765
-0.026143111 0.029794805 0.077647448
-0.031280395 0.01452191 0.077360034
-0.030033348 0.0053245169 0.077379346
-0.023212429 0.031595781 0.073947608
-0.026164183 0.028621256 0.073044419
-0.030122144 0.020133741 0.072917819
-0.031400576 0.011530206 0.07228899
-0.024456685 0.03187301 0.070301294
-0.026601981 0.029267643 0.069216132
-0.030534711 0.020272397 0.068549871
-0.029539205 0.025357381 0.065487564
0.015978748 0.033162847 0.13078272
0.011881344 0.031230208 0.13071978
0.011085072 0.030086296 0.12589467
0.0033833263 0.031657699 0.11228281
-0.024042895 -0.025546351 0.1076138
0.0016096504 0.029625542 0.10875344
-0.025124326 -0.024946429 0.10449892
-0.026703585 -0.025972808 0.10319233
-0.026188862 -0.023399394 0.099663973
-0.026646489 -0.025945241 0.1011501
-0.028244399 -0.017757513 0.094816029
-0.027851969 -0.020683251 0.095605373
-0.028190579 -0.016082343 0.0910272
-0.02834468 -0.020285776 0.089979291
-0.02882633 -0.022715334 0.0874542
-0.029383853 -0.011533367 0.086502373
-0.028646454 -0.014576213 0.085986555
-0.028079547 -0.018484227 0.086323619
-0.030353205 -0.010048414 0.082570791
-0.029290205 -0.012335878 0.082077384
-0.015778009 0.031395081 0.07836473
-0.031786889 -0.0029206704 0.078334928
-0.03122144 -0.0075120702 0.078304112
-0.018103216 0.032065608 0.075610518
-0.030572921 0.0036463491 0.074866295
-0.030974383 -0.001096949 0.074018598
-0.030652089 -0.0050924243 0.074210048
-0.017857935 0.034367796 0.072621822
-0.021053649 0.03321787 0.072034597
-0.029806394 0.0041747112 0.070116401
-0.023582024 0.033415034 0.068140388
-0.0264998 0.03023345 0.067069173
-0.03077236 0.014860771 0.066214323
-0.024034524 0.032064982 0.063838363
-0.026703887 0.029659744 0.06285882
-0.029181642 0.020605983 0.062142909
-0.02725582 0.028333183 0.058621049
0.018265003 0.034011751 0.12698764
0.014542623 0.031553738 0.12785769
0.017171251 0.033956096 0.12271929
0.013849529 0.031449527 0.12331843
0.013000164 0.031080194 0.11951804
0.010813345 0.031593252 0.11352903
0.0077411802 0.03045937 0.1131171
0.0079735126 0.033108 0.10937977
0.0053422833 0.031678427 0.10900825
0.0075874315 0.032773081 0.10588133
0.004570256 0.030076724 0.10535318
0.0017671753 0.028065296 0.104105
0.002225887 0.028084625 0.10076499
-0.0012676371 0.02812402 0.093932211
-0.0028926004 0.029008996 0.090206981
-0.027089328 -0.023612209 0.090053916
-0.0039050281 0.029553395 0.08800143
-0.028414194 -0.019641338 0.084628582
-0.028877243 -0.022636084 0.085471749
-0.028900491 -0.013819502 0.080274165
-0.028584179 -0.018979352 0.080352068
-0.030421376 -0.0088456227 0.074811935
-0.028533131 -0.013615908 0.075709641
-0.028388191 -0.01847738 0.075750172
-0.012084786 0.031937487 0.073873222
-0.030637311 -0.0031601228 0.070738077
-0.030485189 -0.0068946602 0.07174468
-0.028709453 -0.011962737 0.071835876
-0.015043182 0.03336022 0.070250452
-0.030060004 -0.0014991127 0.067794085
-0.030603496 -0.0069024125 0.067072034
-0.029756581 0.0039819018 0.063260674
-0.03032738 -0.001190614 0.062890649
-0.03102904 -0.0054222792 0.062951565
-0.022427198 0.032413989 0.061740398
-0.029358255 0.01458895 0.058832288
-0.030257806 0.0046977457 0.05865556
-0.03055907 -3.775768e-05 0.059287369
-0.021898039 0.031518254 0.057890534
-0.025723727 0.029615302 0.056197762
-0.02900329 0.020287065 0.054927349
-0.030793348 0.010238238 0.054739833
-0.025645271 0.029538058 0.051555693
-0.029655082 0.020793142 0.050337732
-0.031595062 0.011680113 0.050596118
-0.027353015 0.029451257 0.047004402
-0.030175753 0.021617005 0.047335565
-0.029075861 0.029901657 0.043713808
0.021065524 0.035054278 0.12625325
0.018737869 0.035664536 0.12187672
0.018042065 0.033881452 0.11706263
0.014872773 0.031907819 0.11608779
0.01425164 0.032651916 0.11126763
0.015390716 0.034959387 0.10762531
0.0120957 0.033991661 0.10791373
0.010083826 0.033417039 0.10283703
0.0070589697 0.030832659 0.10221279
0.0059361644 0.029720943 0.098511636
0.0030369307 0.027979068 0.097138822
0.0048337444 0.029352173 0.092298269
0.0037052585 0.027925355 0.093608022
0.00094483327 0.031101197 0.089333951
0.00036667474 0.029074438 0.08956039
-0.00083072763 0.032041114 0.085708261
-0.002078156 0.029609894 0.084713995
-0.0005848296 0.03226921 0.080451906
-0.0037707528 0.029964631 0.080320239
-0.0076866411 0.030665562 0.075170994
-0.028275847 -0.019261083 0.072607577
-0.0091751041 0.03259515 0.073077679
-0.028005131 -0.014011358 0.06855011
-0.027869407 -0.018347602 0.06834054
-0.028282639 -0.012032722 0.064291775
-0.027874149 -0.01698545 0.063945651
-0.030300144 -0.007291019 0.059880137
-0.028117027 -0.011227469 0.059848547
-0.02973433 -0.0014372794 0.055484772
-0.029420642 -0.0055965111 0.055779636
-0.020545647 0.031142294 0.054652214
-0.029420411 5.4818578e-05 0.051470757
-0.022549128 0.030515667 0.048529506
-0.031341758 0.010052674 0.047913611
-0.025284849 0.031124819 0.045096099
-0.029979296 0.016058616 0.04416889
-0.024102317 0.033377867 0.041192532
-0.026943972 0.030699819 0.040246904
-0.029845614 0.02172669 0.040436983
0.019970901 0.034486901 0.11469465
0.018343782 0.034182157 0.11090267
0.013447192 0.034399007 0.10055178
0.012048651 0.033360813 0.097377777
0.0079024062 0.03060407 0.095797241
0.011223748 0.03222784 0.092070162
0.0073707909 0.030407179 0.092126429
0.003794577 0.028078688 0.090517879
0.0059929672 0.031759061 0.087613463
0.0035483185 0.032609113 0.083115995
0.00025626644 0.029955644 0.083232343
0.0025550779 0.032345988 0.078312099
-0.00070313364 0.030038536 0.078393817
-0.0018886253 0.029569671 0.074203253
-0.0029337276 0.032022148 0.070558071
-0.027144905 -0.020136151 0.06546855
-0.025303058 -0.023764163 0.064997733
-0.027117845 -0.01482735 0.062062919
-0.026884902 -0.019837864 0.061545253
-0.027468156 -0.013913361 0.057733536
-0.026855854 -0.018664688 0.057902694
-0.029317308 -0.007251136 0.05371058
-0.027943563 -0.012332124 0.053714812
-0.029528268 -0.002281623 0.050006986
-0.029784974 -0.0066687511 0.049769461
-0.029592084 -0.00086412765 0.045614183
-0.030027546 -0.0055429479 0.044957519
-0.030200863 0.0096489582 0.041384697
-0.029846778 0.00035017077 0.040919721
-0.022493847 0.031136479 0.036995769
-0.029077563 0.015107572 0.03755033
-0.0297745 0.0062917816 0.036978185
-0.024772119 0.030447036 0.033845365
-0.028732484 0.02100159 0.033482909
-0.026195858 0.029457197 0.029558539
-0.028842339 0.0226925 0.02944839
0.013659846 0.033522755 0.089843333
0.011649603 0.033810746 0.085069358
0.0091219731 0.034219977 0.081199527
0.0073574553 0.032776408 0.079319656
0.0070901685 0.032242015 0.075148225
0.0035460768 0.031133689 0.071990252
0.00092448946 0.03040617 0.071477056
-0.024759799 -0.023864375 0.059321821
-0.026408423 -0.019604005 0.054398298
-0.026943062 -0.022706786 0.054962039
-0.027338963 -0.014353756 0.050436974
-0.027171411 -0.018527184 0.050510645
-0.027801607 -0.0221745 0.050473928
-0.028149761 -0.012622777 0.046691656
-0.028025433 -0.017090419 0.045425415
-0.027965005 -0.021954525 0.045348644
-0.029253943 -0.0076210285 0.04149425
-0.028339278 -0.012007786 0.041931212
-0.029122028 -0.015729181 0.042028725
-0.029395204 -0.0013999734 0.038013637
-0.02922387 -0.0056595933 0.037901163
-0.028667418 0.0043453015 0.033554256
-0.029318586 -0.00053559989 0.033761442
-0.028779536 -0.005404586 0.033716857
-0.020559881 0.030783653 0.028911114
-0.028182263 0.010414583 0.029659629
-0.029128224 -0.00049251597 0.030397296
-0.02387806 0.030027591 0.026340604
-0.027657466 0.020774959 0.025930703
-0.027984885 0.0084001133 0.026323199
-0.024303731 0.029680265 0.022020996
-0.026893135 0.020995229 0.022231579
0.015825562 0.034395274 0.086612463
0.0065885191 0.031850349 0.070115209
-0.026723105 -0.020665877 0.044894814
-0.027084766 -0.022947645 0.043633282
-0.027377907 -0.014590756 0.038995087
-0.027738668 -0.018490197 0.040002048
-0.028055776 -0.020811129 0.039400518
-0.028368514 -0.0084394794 0.035525203
-0.027291745 -0.012430204 0.035680294
-0.027760582 -0.016441356 0.034303784
-0.028631052 -0.006932457 0.03124404
-0.027550824 -0.011236783 0.029993176
-0.028913589 -0.00049050618 0.027798891
-0.028915513 -0.0057783443 0.026381791
-0.019706283 0.03059081 0.026007771
-0.028999761 0.0052627986 0.023768604
-0.029755592 -0.0035722926 0.021051049
-0.022591121 0.03032379 0.019460082
-0.027493101 0.015842322 0.020032346
-0.029699 0.0058121001 0.017981768
-0.023196198 0.02967885 0.015757143
-0.025804905 0.026349705 0.016126752
-0.02822246 0.016427938 0.0142712
-0.029827151 0.0078698676 0.014484406
-0.023771834 0.029426146 0.011289656
-0.026338495 0.026646465 0.010357499
-0.028259614 0.017552497 0.010336757
-0.028017148 -0.017805893 0.031840205
-0.028001439 -0.012064083 0.027430415
-0.027606515 -0.016039345 0.02892381
-0.028436918 -0.019348867 0.027255833
-0.026977142 -0.010903442 0.023155451
-0.026711613 -0.015072871 0.024608374
-0.027626887 -0.019648291 0.024349928
-0.028954353 -0.005790961 0.020689905
-0.027544862 -0.0088938568 0.019532204
-0.030301623 -0.0012662774 0.015785038
-0.029139103 -0.0047676032 0.015305281
-0.027909379 -0.0079713343 0.01577431
-0.019960055 0.030799441 0.013171256
-0.028996507 0.0011129444 0.01125741
-0.029286418 -0.001571117 0.011570513
-0.020744093 0.030150775 0.0085882545
-0.025933521 -0.017209278 0.021036625
-0.025722211 -0.011843484 0.017016709
-0.025338119 -0.01577216 0.016354203
-0.026475279 -0.010029822 0.012559831
-0.029140262 -0.00405611 0.009408772
-0.028033292 -0.0076560369 0.008271277
-0.024281189 -0.019044474 0.014316499
-0.025183575 -0.012830047 0.010713577
-0.023938075 -0.016042722 0.010083616
