# .PCD v0.7 - Point Cloud Data file format
VERSION 0.7
FIELDS x y z
SIZE 4 4 4
TYPE F F F
COUNT 1 1 1
WIDTH 795
HEIGHT 1
VIEWPOINT 0 0 0 1 0 0 0
POINTS 795
DATA ascii
0.024980091 -0.028653271 0.18959978
0.027837452 -0.021434296 0.1909385
0.030430792 -0.013174005 0.18880817
0.026616365 -0.029468266 0.18713886
0.030475529 -0.022732895 0.18737817
0.027599972 -0.03004159 0.18423545
0.031063544 -0.023199487 0.18331197
0.018048991 -0.02566449 0.19211066
0.020005303 -0.023100294 0.19246635
0.023580087 -0.014510653 0.19290853
0.027405951 -0.0038462426 0.19229364
0.030304445 0.004222149 0.1919789
0.031337254 0.0072865635 0.19009027
0.02096051 -0.028226044 0.19016063
0.022044573 -0.024405058 0.19171011
0.026508858 -0.015404165 0.19162485
0.030235607 -0.0057724533 0.18958667
0.032490369 0.0033029029 0.18824211
0.032681242 0.0065753907 0.18740857
0.023058034 -0.030387307 0.18647251
0.031254951 -0.012324583 0.18479073
0.032768186 -0.0022299336 0.18387347
0.032909207 0.0018424047 0.18465224
0.026056837 -0.03058218 0.18131423
0.030879922 -0.023274899 0.18049452
0.03193396 -0.013343572 0.18018791
0.02744988 -0.030406903 0.17694694
0.031007418 -0.023518156 0.17698199
0.032962263 -0.014355529 0.17540342
0.027880974 -0.0307776 0.17363545
0.031480834 -0.02418571 0.17217666
0.033434425 -0.015856609 0.1718353
0.031732906 -0.025936218 0.16893408
0.018426482 -0.0072567877 0.19254661
0.023887102 0.0022704462 0.19330603
0.025356673 0.0067168577 0.19331056
0.026134759 0.011446559 0.19240108
0.027198788 0.014338076 0.19125667
0.014293967 -0.026322922 0.19151384
0.016944438 -0.02179629 0.1931231
0.02017764 -0.013040697 0.19332907
0.023524791 -0.0047461079 0.19209576
0.029213134 0.0066518467 0.19272432
0.029955562 0.0098508494 0.19063726
0.02961061 0.014853399 0.18879497
0.016321436 -0.029505137 0.18897039
0.031920023 0.0087973867 0.18634167
0.031133477 0.013456533 0.18517166
0.01843136 -0.0306901 0.18355879
0.032829765 0.0031463243 0.18196636
0.031958468 0.0081699956 0.18128681
0.020591054 -0.030858859 0.17860252
0.032670371 -0.0023126556 0.17718387
0.032506965 0.0026517315 0.17665201
0.032289609 0.0080972146 0.17759281
0.023040129 -0.031256504 0.17461997
0.03237576 -0.0027094455 0.1727089
0.032591868 0.00093298126 0.1724951
0.025543571 -0.031688929 0.17041606
0.03232966 -0.019448152 0.16918182
0.032227285 -0.0098447669 0.1687035
0.026545066 -0.031191245 0.16680247
0.031104807 -0.023947801 0.16587186
0.031728562 -0.015627969 0.16442269
0.030982979 -0.024392996 0.16058248
0.0080612646 -0.023305438 0.191394
0.010360941 -0.019597348 0.19239274
0.012616414 -0.01496535 0.19245189
0.01503302 -0.0057712132 0.19300771
0.019021492 0.0038427021 0.19278294
0.020110322 0.0090863332 0.1934236
0.02173534 0.013480788 0.19307375
0.025251992 0.017196242 0.1912083
0.026649276 0.022017315 0.19076598
0.028559666 0.026538916 0.18946776
0.008977294 -0.028898183 0.18890715
0.0099983662 -0.02623108 0.19100195
0.030110456 0.020580126 0.18744126
0.031305045 0.025795456 0.18638968
0.011567464 -0.030114008 0.18611452
0.030473821 0.015383566 0.18241465
0.031036314 0.019493412 0.18295464
0.032137215 0.0243444 0.18199363
0.013167855 -0.03102855 0.18176389
0.032162294 0.0099107586 0.17883116
0.031305842 0.013743701 0.17906806
0.031264108 0.018648732 0.17814812
0.032534573 0.02390831 0.1782006
0.013657657 -0.031543631 0.17665222
0.016458318 -0.030898094 0.17807424
0.032714125 0.0043637836 0.1743238
0.032071572 0.0081175212 0.17538655
0.031705741 0.013158442 0.1744583
0.017223094 -0.031565018 0.17223835
0.032750234 0.0026843958 0.16998398
0.033025861 0.0074813534 0.16987947
0.032780197 0.011021373 0.16961616
0.020966487 -0.032428041 0.16912159
0.031305056 -0.0027687987 0.1654157
0.033053897 0.0026158327 0.16623402
0.033722162 0.0070143659 0.1657792
0.021205567 -0.030410279 0.16212404
0.024735425 -0.030152 0.16229665
0.031102166 -0.0093106087 0.16190085
0.026301039 -0.029284567 0.15923777
0.031665221 -0.014837021 0.15830752
0.028681735 -0.027988989 0.15465945
0.031867795 -0.020233298 0.15476042
0.0083778352 -0.0028938386 0.19316632
0.010367755 0.0013878536 0.19304544
0.012527518 0.0064445138 0.19279993
0.014578738 0.011561697 0.19293809
0.016123602 0.015692085 0.19289428
0.017194524 0.020714454 0.19225484
0.019833352 0.023419619 0.19338021
0.0010762205 -0.02642677 0.19120583
0.0034182742 -0.022852963 0.19216758
0.0052355458 -0.018110717 0.19266653
0.006952839 -0.0125937 0.19235721
0.011368277 -0.0041765966 0.19330901
0.013069937 0.00020539202 0.19300458
0.015082177 0.0053032278 0.19266796
0.020640567 0.019089486 0.19136381
0.022013325 0.02191937 0.19177267
0.001616694 -0.031194504 0.18640038
0.0036094794 -0.028825257 0.18812108
0.0055906717 -0.024897017 0.19048765
0.0022206213 -0.031526111 0.18498218
0.0070803585 -0.030159283 0.18360972
0.0052417815 -0.033184994 0.17788756
0.0081542647 -0.031578723 0.17870477
0.031072916 0.019762613 0.17533958
0.032174844 0.024312515 0.17543626
0.032382637 0.028626267 0.17350465
0.0096250959 -0.032593917 0.17464161
0.031275377 0.014364974 0.17147261
0.031090295 0.018786401 0.1719237
0.031676516 0.023678722 0.17082635
0.032451481 0.027380712 0.17142856
0.0084777363 -0.034919988 0.17093274
0.012356657 -0.032590717 0.17089793
0.031505417 0.014141872 0.16794884
0.031073742 0.018623706 0.16637045
0.031879209 0.023117501 0.16663235
0.015358691 -0.032722969 0.16869634
0.0316168 0.0023623873 0.16293976
0.032470331 0.0074528903 0.16210333
0.032272343 0.012559634 0.16349825
0.031793438 0.017021205 0.16289943
0.018670838 -0.030596811 0.16065985
0.030814093 -0.0028572641 0.1593686
0.031148128 0.0027264711 0.15804708
0.032415457 0.0073414398 0.15835065
0.032783054 0.010670032 0.15944514
0.019689225 -0.030185759 0.15549564
0.023499187 -0.029966943 0.15680221
0.031009912 -0.0091101406 0.15538532
0.031439804 0.00035090744 0.15366748
0.022145256 -0.031524502 0.14983827
0.02397819 -0.029580416 0.15225953
0.030944325 -0.014408223 0.15131557
0.03189639 -0.0050727502 0.15009874
0.02342435 -0.032859448 0.14762774
0.02645215 -0.029144816 0.1479724
0.029753579 -0.019487495 0.14701489
0.031840287 -0.010461176 0.1466389
0.027348544 -0.028364293 0.14321679
0.030340757 -0.020216364 0.14244533
0.029943677 -0.025102042 0.13937184
0.0085136686 0.015195551 0.19373065
0.010585992 0.019051136 0.19422933
0.013390021 0.022380825 0.19594771
-0.0095980279 -0.032978453 0.1955516
-0.00451033 -0.024584075 0.1930024
-0.0017929138 -0.020861499 0.19361311
0.00055526197 -0.015847916 0.19348058
0.0017353734 -0.010391389 0.19259661
0.0038046215 -0.0061172377 0.19252017
0.0061033797 0.0032489062 0.19299185
0.0086999061 0.0072989091 0.19325927
0.010752226 0.012303024 0.19310102
0.013220171 0.017809791 0.19322279
0.01538578 0.021602292 0.1937885
-0.0046283314 -0.029723978 0.18968281
-0.0014219414 -0.026929049 0.19164345
0.00022420939 -0.023441311 0.19266286
-0.0037240451 -0.034268338 0.18524554
-0.0014760643 -0.031847764 0.18695727
0.000453596 -0.032751918 0.18156728
0.0033515599 -0.030493822 0.18161383
0.0020546457 -0.033898976 0.17698541
0.0039396631 -0.030936683 0.17835763
0.0056165522 -0.034509536 0.17289689
0.031711176 0.029165205 0.16811782
0.0065671047 -0.035202999 0.16803151
0.0095170802 -0.033797003 0.16839823
0.032441575 0.023569467 0.16429871
0.032243624 0.027970893 0.16455218
0.0071803462 -0.034822129 0.16451639
0.0099857328 -0.032526802 0.16453999
0.014033924 -0.03080564 0.16359606
0.031347319 0.014826175 0.16016236
0.031866405 0.018653823 0.1605753
0.032511998 0.02298921 0.16028583
0.033312738 0.026112963 0.16076627
0.032352522 0.007266908 0.15550998
0.031911001 0.012928483 0.15659517
0.032051336 0.017845215 0.15590018
0.031686157 0.021525176 0.15646425
0.016048513 -0.030480213 0.15432262
0.031067619 0.0030879937 0.1515947
0.031782381 0.0071696844 0.15164718
0.03193485 0.012206205 0.15224212
0.032183729 0.016805105 0.15250871
0.018784057 -0.031532444 0.14966992
0.031447139 0.00097917113 0.14779156
0.031602111 0.0064391522 0.14724874
0.032554448 0.010415463 0.14898786
0.020810671 -0.033777684 0.14591032
0.032359786 -0.0050821374 0.14390373
0.023690812 -0.033291943 0.14221203
0.025648452 -0.030602124 0.14157817
0.0312858 -0.014831113 0.14052537
0.032221083 -0.0054299338 0.13938612
0.026994934 -0.029148526 0.13686198
0.030766742 -0.020456564 0.13650259
0.03137866 -0.011271604 0.13589865
0.027693983 -0.029327746 0.13275021
0.030845081 -0.021310531 0.13169518
-0.013739442 -0.029741477 0.19429213
-0.012669948 -0.026363589 0.19466916
-0.011240273 -0.022196665 0.1935392
-0.0089263599 -0.017964359 0.19360235
-0.0067077614 -0.012856462 0.19337299
-0.0051862728 -0.0070305816 0.19303733
-0.0034364965 -0.003018853 0.19286111
-6.3650077e-05 0.0059293248 0.19264823
0.0025553498 0.010006171 0.19291678
0.0042953654 0.014105232 0.19289601
0.0070242165 0.019547533 0.19431877
-0.011537289 -0.031450316 0.1918695
-0.010016984 -0.027925763 0.19207978
-0.0080085639 -0.023926178 0.19343203
-0.0056496225 -0.019279419 0.19386721
-0.0032214958 -0.014271872 0.19377813
-0.0017577289 -0.0088999672 0.19307238
0.00013162161 -0.0045366362 0.19287375
0.0017103225 -0.0017554746 0.19294733
-0.0093497075 -0.032723796 0.18822086
-0.0075419364 -0.03077567 0.18958226
-0.0083123762 -0.034555349 0.18484056
-0.0055939178 -0.034601383 0.17964783
-0.0034103077 -0.035754707 0.17521849
0.00065138005 -0.03503751 0.17394704
-0.0021924553 -0.035852384 0.17068058
0.001240124 -0.035487857 0.17066467
0.0040077269 -0.035980944 0.16677043
0.0045679994 -0.034802616 0.16202778
0.0070353039 -0.031611748 0.16032207
0.032371689 0.026473155 0.15727451
0.0080841342 -0.028827636 0.15662879
0.031628668 0.023445303 0.15371871
0.033311766 0.025895052 0.15232587
0.011800366 -0.030626282 0.15179375
0.031019077 0.014048989 0.14947766
0.031223407 0.018273383 0.14903563
0.031102868 0.023081625 0.14858684
0.032666523 0.026530631 0.14793536
0.014111137 -0.030962359 0.14757952
0.030699629 0.0024022218 0.14460385
0.031572562 0.00725001 0.14523232
0.031046128 0.012947699 0.14514166
0.030732559 0.016964704 0.14522836
0.016271548 -0.032983016 0.14283329
0.031515356 0.0014625322 0.14109695
0.031419013 0.0060094278 0.14116269
0.031768098 0.010497311 0.14083517
0.031981759 -0.00022813492 0.1366365
0.031558074 0.0044890177 0.13642812
0.020076834 -0.031666987 0.13325199
0.022973962 -0.031034488 0.13489729
0.031294502 -0.010252259 0.13304371
0.031754848 -0.0016366448 0.13163269
0.025164168 -0.030238353 0.1296072
0.030358214 -0.015486333 0.12886596
0.03190754 -0.0057504713 0.12868321
0.02640794 -0.028976332 0.1254757
0.030798577 -0.021052258 0.12512565
0.029562669 -0.025582181 0.12111473
-0.012951866 -0.021464296 0.19427997
-0.013417697 -0.016200952 0.19258434
-0.011412257 -0.011450667 0.19308403
-0.009435853 -0.0065021133 0.1938844
-0.0068248198 -0.0018258435 0.19367027
-0.0040707616 0.0076890793 0.19282073
-0.0033778204 0.012628313 0.19276133
-0.001155165 0.016894963 0.19276345
0.0018064808 0.020495212 0.19352186
-0.0086238226 -0.034564458 0.17794508
-0.0072910306 -0.035275094 0.17514142
0.00041556451 -0.033472359 0.15728199
0.0024948185 -0.031726241 0.15703505
0.0042334674 -0.03016554 0.15454677
0.0071918759 -0.028677665 0.15319157
0.0076734498 -0.030775761 0.15029654
0.0078023206 -0.029012855 0.15174925
0.031215064 0.024085931 0.14589089
0.03276258 0.027750939 0.14570946
0.010424442 -0.030418504 0.14611024
0.030837784 0.018600279 0.14287245
0.031871308 0.022808727 0.14284909
0.033447519 0.02646327 0.14268893
0.030880969 0.013487231 0.13935581
0.031213012 0.01734196 0.13816929
0.03223145 0.02208887 0.13896531
0.033710781 0.025935981 0.13852477
0.013859349 -0.032465197 0.1353741
0.030968601 0.0071762698 0.13559929
0.03124851 0.010527731 0.13472238
0.030637005 0.015463683 0.13343573
0.015355325 -0.031480543 0.13309699
0.031687312 0.00068506692 0.12997895
0.031464234 0.0050213067 0.1307866
0.03128209 0.0097554279 0.12981844
0.019460093 -0.031669565 0.12897742
0.021177847 -0.030823907 0.12591916
0.030622516 -0.0053472207 0.124807
0.031874429 0.0044232234 0.12564784
0.022888565 -0.030579319 0.12239647
0.030103616 -0.010516557 0.12125623
0.030869577 -0.00030148588 0.12236726
0.031834308 0.002764618 0.12200475
0.023804262 -0.029600494 0.11784399
0.031102231 -0.020709965 0.11740804
0.030163251 -0.011896021 0.11717057
0.031259399 -0.021821717 0.11395097
0.029070023 -0.025464905 0.10974526
-0.0118498 0.013021318 0.19659579
-0.010984497 0.015274977 0.19643462
-0.0085931066 0.021248609 0.19605795
-0.0064511364 0.024143117 0.19700116
-0.01907439 -0.01207353 0.19405913
-0.017548334 -0.0087568909 0.19441932
-0.015701856 -0.0037337095 0.19479388
-0.011339121 0.0059989118 0.19392756
-0.009884825 0.010537405 0.19403735
-0.0082926601 0.014868899 0.19422245
-0.006379229 0.019289896 0.1940183
-0.0036467137 0.023357786 0.19433653
-0.016405921 -0.018402206 0.19346765
-0.017370803 -0.014249608 0.19256577
-0.01530939 -0.01061443 0.19330716
-0.013793804 -0.0073039019 0.19366384
-0.008395982 0.0043490087 0.1933144
-0.0064607384 0.0087479064 0.19312871
-0.0019569453 -0.035122298 0.15732858
-0.0017472003 -0.033487022 0.15281194
0.0017674584 -0.03092071 0.15157649
-0.0014944896 -0.032382712 0.14910287
0.0020531695 -0.030896636 0.14693189
0.0040698666 -0.029839834 0.14203674
0.03063301 0.023530841 0.13491732
0.010911874 -0.031232592 0.13604495
0.030823758 0.017070241 0.13110703
0.03145697 0.021798771 0.13131446
0.032892063 0.025973637 0.13041741
0.01180992 -0.030374411 0.12756896
0.030990303 0.01156097 0.12711418
0.030712126 0.015810609 0.12688822
0.031799294 0.020598225 0.12606108
0.033208203 0.025035242 0.12579423
0.01519316 -0.030235376 0.12381524
0.032297898 0.0061182743 0.12318206
0.031992547 0.0098076276 0.12375706
0.031093547 0.014892604 0.12220639
0.032143481 0.020331878 0.12245005
0.016831741 -0.031058509 0.12121832
0.031270035 -0.00058462657 0.11978018
0.032362968 0.0044158073 0.11960936
0.032485325 0.0089022461 0.11876559
0.01947505 -0.032417834 0.11649978
0.022237625 -0.031375639 0.11650521
0.031219497 -0.0057404572 0.11594987
0.032195769 0.0040976666 0.1149314
0.032740306 0.0082713217 0.11491764
0.021289442 -0.034214407 0.11335623
0.023705892 -0.030666748 0.11238641
0.026787497 -0.027921228 0.11100197
0.031821176 -0.011736832 0.11099404
0.03240633 -0.0025161756 0.110717
0.021970298 -0.033838835 0.10972863
0.022931512 -0.031181047 0.10830194
0.030801574 -0.02166119 0.10647869
0.03184101 -0.011922276 0.10710996
0.02850363 -0.026861738 0.10208273
0.031049334 -0.017502658 0.10247111
0.030595548 -0.02408931 0.098390043
-0.017175995 0.0082231965 0.19514048
-0.013410529 0.017652132 0.19594088
-0.01120832 0.021099837 0.19614598
-0.021235602 -0.012990469 0.19317833
-0.019292051 -0.0049027195 0.19572642
-0.015858293 0.0071488889 0.19377905
-0.0050912295 -0.034414206 0.14949337
-0.0041151615 -0.03301239 0.14578423
-0.0011659488 -0.030914819 0.14692467
-0.0031005628 -0.032711253 0.14096683
-0.0004087463 -0.030887293 0.14117342
0.0010399185 -0.030941419 0.1363824
0.0037577776 -0.03109232 0.13194209
0.0047699716 -0.031042457 0.12723392
0.0070242193 -0.030131429 0.12837213
0.011065114 -0.030222017 0.12508333
0.030860772 0.016694676 0.11951429
0.031390112 0.02058664 0.11893517
0.032276429 0.024638604 0.11919194
0.031079249 0.011725086 0.11567163
0.030132212 0.015485431 0.11507297
0.030808125 0.020764533 0.1155411
0.032369331 0.024493128 0.11535174
0.031125143 0.0044436203 0.11114812
0.031797342 0.0097213835 0.11128151
0.030776136 0.013490668 0.1109395
0.031114448 0.0003418643 0.10802245
0.030764403 0.0044503948 0.10693222
0.031888813 0.0090346318 0.10642123
0.021611005 -0.029654814 0.10411513
0.030545935 -0.0058185402 0.10270953
0.031193599 0.0029248763 0.1030699
0.022397295 -0.029305678 0.10053027
0.02598149 -0.029020419 0.10088378
0.029621391 -0.011303674 0.099414825
0.031529184 -0.0027110055 0.099170566
0.022530202 -0.02957808 0.096698344
0.026051862 -0.028155392 0.095961988
0.030015402 -0.01695176 0.09556967
0.027397905 -0.027863227 0.091714621
0.030207042 -0.018410018 0.091500461
0.030091867 -0.024438538 0.08759135
-0.0037045386 -0.033879209 0.13949585
-0.0027229739 -0.03367807 0.13515058
-0.0019037109 -0.033480003 0.12970644
0.00077837147 -0.032700356 0.13113999
-0.00019758102 -0.034325711 0.12710297
0.0026583457 -0.032012567 0.126203
0.0055026924 -0.029704327 0.12530613
0.0042202417 -0.031208316 0.1210131
0.0061722975 -0.029780341 0.12131345
0.0067605246 -0.028963629 0.11697072
0.029885842 0.017515263 0.11202717
0.030637279 0.020756882 0.1124599
0.032298483 0.024977025 0.11197841
0.010522897 -0.030808032 0.11173338
0.030804029 0.015712406 0.10895532
0.0313453 0.02005963 0.10874647
0.032394581 0.025192831 0.10819066
0.033307455 0.02834494 0.10776305
0.032254916 0.010785105 0.10384375
0.031301543 0.01459527 0.10419899
0.031814452 0.020188272 0.10420108
0.03257563 0.024654903 0.10469115
0.033371646 0.028244004 0.10484314
0.01356778 -0.030922659 0.10110921
0.016595302 -0.030406181 0.10097122
0.031491365 0.0044834185 0.10075074
0.032119662 0.0089424625 0.10035825
0.031629473 0.014094976 0.10032618
0.031436026 0.018244194 0.10083121
0.018395562 -0.03023294 0.09851563
0.031603433 -0.0010678144 0.096661866
0.032218728 0.0033919206 0.096253693
0.031983104 0.0077466285 0.095034361
0.020868212 -0.030843284 0.093388796
0.031152187 -0.0069465176 0.09296453
0.032129299 0.0028983103 0.091517448
0.022663247 -0.030747142 0.089512527
0.025749821 -0.029540623 0.089838505
0.030975411 -0.012387802 0.088629246
0.032177199 -0.0034652771 0.087770522
0.027177643 -0.02884745 0.08528173
0.031108355 -0.018827369 0.084850907
0.027712112 -0.028530594 0.080373168
0.031407248 -0.020316087 0.079723895
-0.0053837583 -0.034121271 0.12575412
-0.0028975289 -0.034572512 0.12310034
-0.0011054138 -0.032472316 0.12297767
-0.0022015525 -0.034533307 0.11846167
0.00055008009 -0.032501232 0.11907685
0.001515015 -0.031821892 0.11499733
0.0044301013 -0.029513575 0.11414242
0.0061270185 -0.031003302 0.10823387
0.032396857 0.025473081 0.1015988
0.033200592 0.028251734 0.10172123
0.030870896 0.016018849 0.097835898
0.030603763 0.020561174 0.097239554
0.032099523 0.025044335 0.097010612
0.033722728 0.027890259 0.097157359
0.011748387 -0.030443067 0.096689939
0.031907991 0.010636928 0.094620466
0.029638134 0.015012831 0.092875659
0.030288534 0.020371139 0.093300581
0.032611489 0.02514269 0.092774451
0.034719229 0.02728482 0.091967463
0.016129475 -0.030642673 0.093672156
0.031990312 0.0032286197 0.089082241
0.031117119 0.0092467219 0.08923161
0.030168284 0.013078268 0.089574277
0.01865736 -0.032025069 0.08776474
0.031773642 -0.0009724563 0.085961103
0.031500462 0.0035365829 0.085333407
0.031278629 0.0083619421 0.0853194
0.020959906 -0.03054902 0.083776951
0.029508993 -0.0071582948 0.081483245
0.031406745 0.0020861058 0.080301642
0.022272173 -0.030501157 0.078546464
0.024984144 -0.029057324 0.076902449
0.030687226 -0.014209649 0.077237844
0.025534311 -0.028230481 0.073511839
0.030023301 -0.020095441 0.072833002
0.030948613 -0.010700264 0.073048115
0.026520807 -0.027398627 0.070219517
0.03042995 -0.020215202 0.068798184
0.029891169 -0.024614982 0.065481365
-0.0076312185 -0.033215079 0.12604493
-0.0025188383 -0.034340631 0.11269701
-0.0010343213 -0.032316882 0.11200565
-0.002670167 -0.0309959 0.10850632
0.0032618679 -0.028119382 0.10742068
0.0056605907 -0.029818896 0.095411658
0.010158846 -0.030047616 0.092432916
0.030398592 0.016617756 0.09057349
0.030347466 0.02027075 0.090764344
0.03267774 0.024232443 0.090384483
0.011565547 -0.030910954 0.087569237
0.03049513 0.014875387 0.086901486
0.031095382 0.019560322 0.086241543
0.032624554 0.024289701 0.085439146
0.034713503 0.027142501 0.085912704
0.012539835 -0.03138062 0.086357355
0.031649593 0.0089102006 0.082633972
0.031031691 0.013727745 0.082078576
0.030857017 0.017034814 0.081563592
0.033732262 0.025688168 0.081639409
0.016142672 -0.031002847 0.080030024
0.031594574 0.0033843713 0.078757226
0.031379886 0.0080014467 0.078129888
0.031026851 0.010446474 0.076747596
0.018432789 -0.031252973 0.076592565
0.030553957 -0.0038494361 0.07518065
0.030866992 0.001141876 0.073926628
0.030652087 0.005092429 0.074210048
0.020694202 -0.03094502 0.071804345
0.023413016 -0.029573919 0.071835697
0.03005792 -0.0042778607 0.070333004
0.021872072 -0.030928643 0.0680933
0.02493793 -0.028903654 0.067270279
0.03027872 -0.014891057 0.066458583
0.026800852 -0.027942713 0.062317431
0.029650161 -0.020721378 0.062132239
0.027083388 -0.028268967 0.058470011
0.029149475 -0.02200786 0.057752192
-0.0055892719 -0.033466555 0.10740548
-0.0037503741 -0.030756716 0.10544997
-0.0016506324 -0.028046079 0.10518682
-0.0030818451 -0.030726301 0.10072559
-0.0010637939 -0.028621115 0.099676371
1.6517006e-05 -0.032255806 0.096163392
0.002391831 -0.029751172 0.096757531
0.0016921312 -0.032438781 0.092073619
0.0043691965 -0.030553401 0.092337251
0.0060746567 -0.030159518 0.087636054
0.031158794 0.0232995 0.082720399
0.0082991207 -0.029975811 0.080881238
0.030364748 0.019348038 0.080092251
0.030829981 0.023367621 0.079388499
0.031685691 0.026577974 0.077860713
0.029980835 0.013073205 0.075520098
0.029809974 0.018251522 0.075271368
0.030854926 0.022998739 0.074634075
0.031729899 0.026506677 0.075853169
0.011528274 -0.031737968 0.073409438
0.015423103 -0.031563316 0.073007464
0.030514874 0.0032118736 0.070632637
0.030387396 0.0069362903 0.071660399
0.029744374 0.012322913 0.071477413
0.029345106 0.016524281 0.071400583
0.015026092 -0.033822179 0.069882035
0.016907491 -0.03181218 0.068971097
0.029471006 -0.0036967765 0.067116082
0.030002965 0.0015230887 0.067744792
0.030505862 0.0069442727 0.066987395
0.030567005 0.010337962 0.06714654
0.015220061 -0.03366603 0.066322446
0.018839553 -0.031638015 0.065103471
0.029268147 -0.008944354 0.063022792
0.030197226 0.0012453878 0.062777281
0.030968152 0.0054483367 0.062898338
0.019933183 -0.031155584 0.060505927
0.023912378 -0.029505201 0.060749292
0.029127123 -0.014513648 0.058971524
0.030076928 -0.0045380299 0.05872786
0.020540107 -0.031023284 0.056709409
0.025702503 -0.029608129 0.05618006
0.029312752 -0.020197866 0.054863334
0.030500464 -0.010120601 0.05448097
0.025808904 -0.029598752 0.05170083
0.030062135 -0.020949762 0.050700665
0.031419225 -0.011563676 0.051476717
0.02730401 -0.029433127 0.046960413
0.030658031 -0.02192799 0.04652971
0.028929347 -0.029847294 0.043581843
0.031731918 -0.022941731 0.043179929
-0.0039965715 -0.032284681 0.098595142
-0.0028341068 -0.03256841 0.096741617
-0.00028814003 -0.033153612 0.089433968
0.00048996042 -0.032393269 0.085077941
0.0029860307 -0.031168355 0.084830046
0.003689019 -0.030646514 0.0803895
0.0067475084 -0.030132059 0.075193703
0.031422205 0.024724174 0.072111249
0.032042053 0.027197354 0.072732389
0.0093636103 -0.032723673 0.072217166
0.029001027 0.014155369 0.068514526
0.030031927 0.01818895 0.06897378
0.031570427 0.022728411 0.06875205
0.032804012 0.026720662 0.068243325
0.02940507 0.012919723 0.064369798
0.029886622 0.017882384 0.064025462
0.031217813 0.022749813 0.063279152
0.032515105 0.026431102 0.063272119
0.016149994 -0.032482598 0.062399745
0.030402075 0.0072471024 0.059970021
0.029959284 0.010830491 0.059746861
0.029736213 0.0012013474 0.05617094
0.029505083 0.0064000348 0.055415511
0.020954233 -0.031349741 0.053976059
0.029299336 -4.1369349e-06 0.051362813
0.023151726 -0.030736476 0.049062073
0.031048182 -0.010383409 0.048054934
0.024972726 -0.031010486 0.044817924
0.030171501 -0.015907183 0.043652773
0.0270418 -0.030735441 0.040335
0.030297201 -0.021623781 0.03911078
0.027112316 -0.029512141 0.035664916
0.029671831 -0.023357537 0.035354853
-0.0039124889 -0.033340339 0.082558632
-0.0017220629 -0.03234322 0.078885794
0.0021520043 -0.031307522 0.077060342
-0.00076781027 -0.032046657 0.075281858
0.0022095451 -0.030630477 0.073746502
0.0025488324 -0.033656783 0.070849419
0.0026127938 -0.031971768 0.069263577
0.0082339747 -0.032630611 0.066161036
0.028020544 0.014971895 0.060562968
0.028685257 0.016499866 0.060505629
0.032390069 0.026733566 0.060632586
0.028605651 0.013998931 0.057824731
0.029092252 0.018301554 0.057800531
0.030613666 0.022884173 0.05755043
0.031786241 0.026935827 0.056973398
0.028797919 0.0033219913 0.0526191
0.029269628 0.0067816982 0.052787364
0.029296447 0.012546897 0.053658724
0.029868171 0.017306257 0.053254604
0.032024678 0.022313155 0.052712917
0.033177726 0.02522256 0.052258193
0.029390823 0.0015596487 0.049458921
0.03005399 0.0065533165 0.050009668
0.030339079 0.011084508 0.049568534
0.03007072 0.0008798521 0.045701087
0.030765805 0.0058097793 0.044703126
0.031437397 0.0091953734 0.045045614
0.029787887 -0.010381493 0.041339576
0.030561138 8.6054206e-07 0.040529728
0.031099163 0.0046086172 0.041126072
0.021849807 -0.032500997 0.040217221
0.023660485 -0.031562775 0.038048506
0.029389599 -0.015419919 0.037013531
0.03001564 -0.006390261 0.037198305
0.022334358 -0.033034056 0.034356117
0.024789663 -0.030812131 0.033923507
0.029821865 -0.0213356 0.03343153
0.026319452 -0.029445864 0.030729175
0.029595274 -0.022082159 0.028984785
-0.0050033927 -0.032967955 0.076833129
-0.0026047044 -0.032418143 0.072040021
0.030497314 0.02839921 0.053413689
0.029589593 0.018527843 0.049893737
0.03069941 0.020782899 0.049904585
0.031519853 0.02830147 0.050485134
0.029627498 0.013151123 0.046177268
0.030274514 0.017182492 0.046628118
0.031780221 0.022018757 0.046006799
0.032135449 0.02619347 0.046194673
0.012933909 -0.028606601 0.043822765
0.030512199 0.011900878 0.042005181
0.030610293 0.016600844 0.041294932
0.031717315 0.0210118 0.04205662
0.012642718 -0.028619764 0.041466832
0.0304523 0.0019993428 0.037310004
0.030336186 0.0060086558 0.03728646
0.030537952 0.01076468 0.037926674
0.030863427 0.01666978 0.038706243
0.014833035 -0.029774344 0.037093461
0.029150726 -0.0043133148 0.033624351
0.030214716 0.0001434423 0.034128129
0.030339302 0.0052226055 0.033031821
0.030510817 0.0092775961 0.034689188
0.017391492 -0.031062372 0.033053398
0.020684808 -0.030829228 0.029025018
0.028435143 -0.010515712 0.029892921
0.029061183 -0.00043268315 0.029607177
0.018546674 -0.031841688 0.027743757
0.022109175 -0.029738504 0.026476502
0.026344672 -0.027001943 0.025511324
0.028935833 -0.016421024 0.025999904
0.023610141 -0.028729968 0.022929192
0.028576236 -0.022006966 0.021660864
0.027185172 -0.026792001 0.01884979
0.0052582603 -0.028513076 0.046124339
0.029699344 0.02851437 0.042142272
0.0061709201 -0.031548988 0.03983146
0.0078165689 -0.029142307 0.042342424
0.03085826 0.022283936 0.039529085
0.030160047 0.025865138 0.038608968
0.0066216169 -0.031834975 0.038115382
0.0098308278 -0.029036818 0.03789264
0.029374599 0.012595088 0.034768701
0.030193666 0.016892921 0.035613418
0.030754033 0.020866802 0.034639835
0.031436272 0.024669975 0.034078181
0.029932015 0.0075484859 0.03057009
0.029718569 0.01138839 0.031156182
0.029943863 0.015494403 0.02950877
0.031281777 0.019931663 0.029207051
0.03297174 0.023805846 0.029071987
0.029308282 0.00061322097 0.027605891
0.029973406 0.0055477517 0.027010143
0.030209526 0.0096004698 0.026233554
0.019043792 -0.030468185 0.023269653
0.029191535 -0.0053413636 0.023947358
0.030389579 0.0045547811 0.02190423
0.030614737 0.008802982 0.021947265
0.021548064 -0.029824208 0.020630538
0.029198024 -0.011074751 0.019574583
0.030887753 -0.0010524197 0.017746449
0.022759702 -0.02924192 0.015353084
0.026117001 -0.026894297 0.015270054
0.028879981 -0.016684668 0.014892101
0.030515008 -0.0068018753 0.014075518
0.023097875 -0.02917764 0.010653734
0.028822994 -0.022404797 0.010450602
0.0007598931 -0.028868549 0.047772467
0.0027641533 -0.029833868 0.045293808
0.0041934252 -0.031277575 0.041132092
0.0057311859 -0.029469658 0.040907264
0.004274101 -0.032383513 0.036012113
0.0078966757 -0.029717872 0.036143899
0.0050823297 -0.031539842 0.032516718
0.0082053272 -0.029982479 0.031521678
0.0082485555 -0.031240966 0.028285623
0.029657157 0.011204774 0.024670482
0.029397406 0.015052966 0.024132848
0.029783376 0.020455092 0.022430301
0.031186825 0.024180993 0.02249378
0.02930052 0.009814987 0.020004034
0.028863216 0.014789896 0.019669294
0.029383007 0.018678753 0.01950109
0.01541758 -0.029386429 0.015638947
0.029633826 0.004557698 0.015772462
0.029014194 0.0083865514 0.015383363
0.021030694 -0.029987492 0.013713121
0.030078586 -0.0010270597 0.011642396
0.029811902 0.0031691743 0.010646164
0.02064779 -0.029482074 0.0088062286
0.0031553283 -0.032513272 0.028871536
0.0055804681 -0.033001564 0.026894689
0.006324484 -0.029773191 0.024085283
0.029299522 0.027701754 0.01992476
0.028218508 0.011618884 0.016844988
0.028413508 0.015735088 0.016006052
0.029004235 0.020653712 0.016276717
0.029409159 0.025184043 0.016002297
0.028518992 0.0099369735 0.01276356
0.028388314 0.01516448 0.012346148
0.028992113 0.020069649 0.012080133
0.029274389 0.024221798 0.012952209
0.013697834 -0.028880896 0.011885643
0.030265447 0.0038094828 0.0081875324
0.02893398 0.0094113611 0.0087922812
0.028264612 0.013849852 0.0086920857
0.028769813 0.028297117 0.014348805
0.028893176 0.021793455 0.0098811984
0.028339542 0.026475532 0.0091648698
0.012120182 -0.028427932 0.0082490444
