# .PCD v0.7 - Point Cloud Data file format
VERSION 0.7
FIELDS x y z
SIZE 4 4 4
TYPE F F F
COUNT 1 1 1
WIDTH 783
HEIGHT 1
VIEWPOINT 0 0 0 1 0 0 0
POINTS 783
DATA ascii
-0.024913322 0.03047449 0.191551
-0.02873346 0.028483042 0.19163367
-0.024943758 0.032618959 0.18817231
-0.02265382 0.035516307 0.18497556
-0.03000298 0.032613218 0.18393555
-0.029354975 0.034217168 0.18099213
-0.026515909 0.024163753 0.19347909
-0.014165585 0.031418372 0.19126776
-0.022578493 0.028163312 0.19223011
-0.029839719 0.025733542 0.19217572
-0.031118419 0.023538934 0.18989983
-0.01494051 0.034444075 0.18730977
-0.032555617 0.025380637 0.1849007
-0.020348068 0.035216037 0.18316379
-0.032169778 0.028636239 0.18128183
-0.020818608 0.035759382 0.17839786
-0.030040473 0.033781804 0.17758685
-0.032022636 0.030788848 0.17757913
-0.028595895 0.033049792 0.17281035
-0.032126322 0.031380605 0.1743187
0.0013922155 0.029667018 0.19273975
-0.0061426945 0.027109239 0.19277969
-0.01702846 0.022980077 0.19288811
-0.024981938 0.019225514 0.19368184
-0.027973933 0.017502256 0.19187367
0.0045921309 0.033226963 0.18910369
0.001679631 0.032062501 0.18987793
-0.0071589313 0.030662593 0.19029459
-0.030936819 0.019112321 0.18886951
0.0043196743 0.034174033 0.18699551
0.00078247394 0.033925839 0.18551165
-0.0076480713 0.033057638 0.18502426
-0.032644309 0.022910953 0.18559378
-0.0086770467 0.034131475 0.18041295
-0.032721553 0.024789266 0.179474
-0.01440967 0.034972984 0.17643663
-0.032780264 0.026463965 0.17503712
-0.014926057 0.035183862 0.17201972
-0.024352577 0.033457316 0.171664
-0.032292876 0.028615959 0.1711438
-0.035021983 0.026174247 0.17164108
-0.024570428 0.033610366 0.16613251
-0.03102155 0.029209204 0.16627547
0.0049095731 0.023782982 0.19344193
0.00058842218 0.022024265 0.19322109
-0.013139958 0.016599393 0.19261515
-0.018565774 0.015407486 0.19384581
-0.022793438 0.013461815 0.19349754
-0.025300832 0.011467679 0.19188648
0.014041511 0.029683083 0.19018137
0.0087195439 0.028293036 0.19137567
0.003798279 0.027870374 0.19303203
-0.0054242406 0.023441834 0.19291931
-0.013313416 0.02007474 0.19215181
-0.028527383 0.013167881 0.19022608
-0.031791925 0.0099615511 0.18797308
0.013910258 0.031433992 0.18713579
0.008484452 0.0312966 0.18828484
-0.032083482 0.01310895 0.18555826
0.013115128 0.032990947 0.18382737
0.0078825736 0.032762118 0.18344694
0.002232994 0.033750605 0.18258104
-0.031196207 0.014930202 0.18138131
0.0066715805 0.032839019 0.1794897
0.001775831 0.033391628 0.17847314
0.00075963605 0.033526316 0.17307425
-0.0066123968 0.034028109 0.1735037
-0.033396453 0.021877412 0.17045477
-0.007962672 0.033793323 0.16901097
-0.032357734 0.025296604 0.16746122
-0.017749697 0.033203956 0.16441745
-0.031353064 0.02703842 0.16356868
-0.018731927 0.032956325 0.15999207
-0.028702645 0.032050487 0.15962961
-0.030527122 0.028567819 0.15925682
-0.024251604 0.033912428 0.15413827
-0.030604523 0.029100396 0.15588236
-0.02735332 0.034366865 0.14924848
0.011162626 0.022511564 0.19212788
0.0069695637 0.020831708 0.1936053
0.0018374012 0.018993959 0.19303188
-0.0067703272 0.015258458 0.19306681
-0.015707342 0.010235475 0.19301373
-0.021166887 0.0080863796 0.19323382
-0.025483696 0.0075813206 0.19115949
-0.029782403 0.0057892529 0.19030482
-0.033396453 0.0038545262 0.19039708
0.024322864 0.030112632 0.18932569
0.01980973 0.029136773 0.19013092
0.015843375 0.027166694 0.19081593
0.011780769 0.02582752 0.19152501
-0.029905207 0.0092453249 0.18901545
-0.034802113 0.0067539969 0.18702328
0.023628296 0.032767683 0.18605688
0.018788155 0.032041851 0.18655753
-0.032634519 0.011976066 0.18262959
-0.035683636 0.0080411667 0.18287355
0.022934578 0.033932582 0.18163085
0.018450417 0.033521041 0.18199801
0.013788394 0.033543434 0.18154821
-0.031898752 0.011101357 0.17827725
-0.035343483 0.0083239963 0.17911464
0.021585191 0.034725443 0.17842036
0.018083513 0.033968866 0.17818999
0.013632594 0.033530515 0.17741919
0.0088237524 0.032883067 0.17719033
-0.031915274 0.013630751 0.17359194
0.012208368 0.033394638 0.17391708
0.0085480614 0.032789838 0.17304331
0.0043189051 0.03302392 0.17212918
-0.032415967 0.015676627 0.16971958
0.0023684725 0.03346885 0.16746947
-0.0057677599 0.032886047 0.16612643
0.00072715338 0.03387234 0.16353345
-0.007389891 0.033144321 0.16289985
-0.031860512 0.02301768 0.16157213
-0.012258229 0.033766158 0.15848693
-0.031452768 0.02459166 0.15688655
-0.033148043 0.022677656 0.15413317
-0.012709388 0.034405015 0.15383664
-0.022620104 0.034751955 0.1522243
-0.031492479 0.027350284 0.15243095
-0.022072112 0.034331914 0.14805973
-0.030889664 0.029531509 0.14776736
-0.028270151 0.033571362 0.14379537
-0.030690022 0.030511037 0.14364266
-0.027307224 -0.0060785501 0.1966981
-0.0292769 -0.0051842355 0.19573551
0.013720633 0.01482752 0.19389296
0.010049913 0.013401445 0.1937438
0.0050524203 0.01109232 0.19332805
0.00071063288 0.0092422161 0.19305718
-0.0084902849 0.0067709312 0.19332197
-0.012721939 0.0046778666 0.19289014
-0.017666502 0.0022517652 0.19239694
-0.021917691 0.00018667337 0.19198489
-0.027140243 -0.003048569 0.19168681
-0.029616132 -0.0040062461 0.19281206
0.025998479 0.022455795 0.19237694
0.022879113 0.021252677 0.19173065
0.018700993 0.019517979 0.19202271
0.014099851 0.018676888 0.19261891
0.009345578 0.016371414 0.19339633
0.0036642756 0.014552008 0.19284233
-0.0044647078 0.011528934 0.19350615
-0.010205753 0.0090236925 0.19311386
-0.014399167 0.0068749199 0.19264194
-0.019004218 0.0057298904 0.19282961
-0.024153279 0.0030795997 0.19151208
-0.027598578 -0.00014147628 0.19009358
-0.031009376 -5.8365986e-06 0.19080573
0.029796077 0.029490314 0.18733269
0.025836512 0.025802549 0.19007868
0.022226397 0.023578938 0.19006199
0.017660826 0.022231555 0.19012904
0.013937426 0.022796802 0.19116244
0.028919151 0.0308601 0.18388924
0.028377581 0.032775175 0.17959559
0.025242778 0.033956032 0.18000385
-0.030946542 0.010243979 0.17572147
-0.035026863 0.0077110222 0.17590934
0.027549153 0.036073741 0.17667073
0.023865717 0.034364272 0.17565724
0.019352067 0.033306133 0.1750271
-0.031342097 0.011491799 0.17378387
-0.035321474 0.0093734283 0.17258045
0.023654591 0.033844762 0.1706425
0.019394923 0.033124983 0.17043447
0.014512128 0.032921996 0.17106488
0.010506559 0.0325316 0.17062658
-0.032594375 0.013169073 0.16763586
-0.034602739 0.0100032 0.16737932
0.018972311 0.033686314 0.1666615
0.01454008 0.033138026 0.16582015
0.0094113359 0.032741226 0.16594535
0.0048146406 0.032870747 0.16466588
-0.032206926 0.014796709 0.16297275
-0.034144398 0.010885883 0.16372392
0.013469746 0.033543576 0.16191745
0.0096600903 0.033321228 0.16037539
0.0040191785 0.033083443 0.16029513
-0.032452166 0.016432144 0.15770259
-0.035197597 0.014441859 0.15585619
0.0078578899 0.034083497 0.15652966
0.0035854671 0.033674303 0.15545607
-0.0054314202 0.033343941 0.15605292
-0.032920983 0.01933438 0.15418065
-0.035503231 0.015459575 0.15374303
-0.0066274544 0.033869937 0.1516664
-0.03329324 0.022254677 0.15059137
-0.011863222 0.033603258 0.14722106
-0.031441599 0.025559952 0.14620715
-0.017052053 0.033862218 0.14308023
-0.028524855 0.031762067 0.14019725
-0.030926822 0.027990714 0.14153367
-0.02292124 0.034130838 0.13709763
-0.030099444 0.029647991 0.13626218
-0.024801711 -0.00849122 0.19853944
-0.016732816 -0.0048048478 0.19367909
-0.020709071 -0.0066117365 0.19382685
-0.025071414 -0.0069468836 0.19580153
-0.028534738 -0.0074143508 0.19798774
0.026723009 0.020430181 0.19474018
0.024230829 0.016961327 0.1944204
0.020297263 0.014913155 0.19404811
0.015982121 0.013477891 0.19423091
0.011427512 0.010010419 0.19429278
0.0064458898 0.0084186373 0.19410294
0.0015365066 0.0060910424 0.19338533
-0.0066541694 0.0021150035 0.19305497
-0.011123485 0.00053200801 0.1929608
-0.016288869 -0.0014182758 0.19278201
-0.021770479 -0.0031419345 0.19239879
-0.025937306 -0.0041267988 0.19268093
0.027624866 0.022835663 0.19137475
0.024567505 0.019732954 0.1928958
0.031313226 0.032435298 0.17695281
0.029390486 0.031560231 0.17306894
0.028328942 0.032477997 0.17010006
0.025673162 0.033571981 0.16819131
-0.035722099 0.0070527932 0.16493142
0.024278561 0.033382319 0.16459841
0.019968783 0.033606552 0.1638712
-0.032750722 0.011942964 0.16034785
-0.03468613 0.0098425299 0.16092628
0.023347661 0.033519562 0.16047609
0.019547192 0.033090897 0.15973437
0.015416703 0.033368815 0.15951425
0.0095432708 0.033942446 0.15797037
-0.032894909 0.012544977 0.15793544
-0.035410717 0.012204503 0.15654859
0.014548192 0.033347383 0.15526903
0.010045122 0.03379342 0.15479717
0.0060487352 0.034736302 0.15355492
-0.033940718 0.01593234 0.15182364
-0.036168583 0.014738884 0.15114897
0.0094326502 0.033186957 0.15087491
0.0040338337 0.03341461 0.14950418
0.00024967361 0.03286941 0.14884478
-0.033420663 0.017233098 0.14686483
-0.036768518 0.015588309 0.14651397
0.0030122465 0.032866485 0.14538288
-0.0052499422 0.033019438 0.14411375
-0.031055141 0.02262928 0.14228016
-0.032195523 0.018747721 0.14378142
-0.036069803 0.015637858 0.14258069
-0.010330392 0.03209839 0.1395278
-0.031145241 0.023189245 0.13884884
-0.015789397 0.032668527 0.13547584
-0.030988894 0.025429279 0.13456818
-0.020908434 0.03259014 0.13136828
-0.030768361 0.029247433 0.13096079
-0.02622937 0.03243586 0.12631577
-0.030277353 0.029522816 0.12692147
-0.028478066 0.031165518 0.1224727
-0.018320361 -0.012028312 0.19538614
0.023206536 0.0086784055 0.19415072
0.018957162 0.0065163891 0.19368458
0.012997786 0.0048317346 0.1944181
0.0084577864 0.0026354017 0.19429344
0.0045300825 -0.00021659327 0.19291237
-0.0042742649 -0.0038374739 0.1919744
-0.0089276442 -0.0051578102 0.19298798
-0.01303311 -0.0068835113 0.19293028
-0.01795735 -0.0096307406 0.19404551
0.022623863 0.012029734 0.19433001
0.018358372 0.0099423323 0.19390884
0.006037056 0.0045239688 0.19304335
0.0036657369 0.0040165065 0.19318411
0.030031748 0.030696182 0.16551229
0.030620277 0.031255763 0.16196144
0.026993945 0.031710703 0.16109982
0.02915366 0.032758575 0.15688545
0.025928997 0.032122545 0.15715507
0.021599201 0.032743003 0.15719062
0.028416526 0.03699366 0.15309089
0.025771432 0.033187017 0.15269887
0.020784894 0.032627381 0.15284908
0.016586961 0.033000074 0.1527133
0.019941607 0.032559432 0.14852959
0.015780732 0.03235051 0.14824969
0.011519159 0.032048587 0.14809465
0.0073951762 0.032559846 0.14613739
-0.033580933 0.015625177 0.14394087
-0.036442604 0.014254481 0.14366418
0.010241535 0.031903893 0.14355326
0.0049840473 0.032604918 0.14286453
0.00044727698 0.031892493 0.14211246
-0.032671165 0.017383551 0.14052704
-0.035551947 0.015228818 0.13964298
0.0095219808 0.032492545 0.13986912
0.0052133705 0.032281332 0.13817653
-0.0051704142 0.031906322 0.13744771
-0.03281885 0.018814884 0.13629919
-0.03592959 0.015516196 0.13533896
-0.0057677673 0.032783914 0.13383669
-0.03239914 0.019620212 0.13160589
-0.035128217 0.01630955 0.13127828
-0.010667892 0.032771427 0.129143
-0.018591143 0.031348914 0.12805557
-0.030916966 0.023535347 0.12844372
-0.01099609 0.032771155 0.12404037
-0.019529097 0.032381676 0.1247189
-0.029406041 0.026850332 0.12261051
-0.020471791 0.032727323 0.11972994
-0.02884591 0.029754581 0.11923885
-0.020977817 0.033348098 0.11588758
-0.028589573 0.03043424 0.11457187
-0.010213697 -0.014917403 0.19578952
-0.015441282 -0.014106054 0.19601163
0.024152739 0.0045341146 0.19346726
0.020793114 0.0021960684 0.1934855
0.016459825 0.00087767327 0.19388568
0.01077951 -0.0021986677 0.19427118
0.006184624 -0.0038224508 0.19380435
-0.0030133855 -0.0071335565 0.19264746
-0.0071839099 -0.01057845 0.19310918
-0.01164751 -0.01148418 0.19357932
-0.014762972 -0.01236923 0.19455948
0.032224756 0.029598184 0.1580539
0.032033786 0.030545849 0.15487593
0.027941421 0.03190542 0.1546917
0.029100407 0.033704702 0.15178081
0.026134159 0.032805011 0.14991769
0.024939291 0.033563033 0.14721307
0.021820625 0.032596916 0.14623159
0.018162068 0.031806197 0.14522579
0.024475792 0.033802591 0.14227432
0.021557989 0.032639869 0.1411804
0.016600467 0.031906128 0.14178127
0.012775407 0.031669918 0.14198032
0.015877012 0.03222052 0.13731828
0.011744526 0.032255806 0.13704726
0.0080843763 0.03230726 0.13620406
0.010766547 0.031922199 0.13276109
0.006751149 0.031887792 0.13234359
0.001161959 0.031750981 0.13157263
-0.033074643 0.017850356 0.12894779
-0.034831047 0.015694777 0.12885797
0.005602479 0.031048646 0.12814564
0.0011126464 0.031747133 0.12747627
-0.031046901 0.018723693 0.12460691
-0.0050389264 0.032492075 0.12181169
-0.029472105 0.0249695 0.12034696
-0.029718891 0.019947186 0.11986434
-0.010206443 0.033012755 0.11750549
-0.029744487 0.02599615 0.11721438
-0.030246142 0.022950251 0.11520493
-0.015185344 0.033633959 0.11298585
-0.03002793 0.028337497 0.11255163
-0.030803993 0.024777938 0.11169887
-0.020242881 0.032186855 0.10898697
-0.028745323 0.030034438 0.108311
-0.03106568 0.02586263 0.10759401
-0.02768172 0.030926928 0.10346305
1.1306722e-05 -0.015428481 0.19764867
-0.0035229805 -0.015289282 0.19834206
0.026763264 -0.00134103 0.19648889
0.023150962 -0.0042496705 0.19588265
0.019528382 -0.0060950285 0.19509974
0.013407051 -0.0082829557 0.19451091
0.0041348254 -0.012891373 0.19439456
-0.0004602219 -0.013905874 0.19486773
-0.0053765881 -0.014613342 0.1953375
0.026380746 0.0012843739 0.19400954
0.022255028 -0.0013033208 0.1937477
0.017767765 -0.0031105881 0.19399107
0.01314974 -0.0045578266 0.1939967
0.0020436789 -0.0091348179 0.19339085
-0.001632187 -0.010718767 0.19315132
-0.0045728777 -0.011985936 0.1929597
0.02886207 0.031158969 0.14634889
0.024816405 0.033521038 0.13911527
0.026705775 0.0328172 0.13531929
0.022091303 0.031859688 0.13497365
0.017636862 0.032110255 0.13510969
0.016745077 0.032076351 0.13050187
0.012583801 0.032071579 0.13050729
0.016669031 0.032000914 0.12627792
0.012027732 0.032179438 0.12573981
0.0073180292 0.031908087 0.12614083
0.0037130043 0.031816956 0.12519413
0.010900673 0.031812336 0.12157726
0.0070314165 0.032255623 0.12105399
0.0016003316 0.03196514 0.12147403
-0.03072026 0.016949587 0.11901164
0.005868922 0.03194223 0.11692274
0.00095375534 0.032091897 0.11640137
-0.030830784 0.019998429 0.11426556
-0.0047364393 0.033026524 0.11162275
-0.031380706 0.021937206 0.1092425
-0.010265341 0.03304765 0.10635924
-0.019358078 0.032209162 0.10611796
-0.029756103 0.02715978 0.10523111
-0.030963162 0.023607437 0.10397702
-0.014801766 0.033465683 0.1011337
-0.024445035 0.032217477 0.10203898
-0.030683495 0.025593523 0.099357724
-0.020051941 0.034119219 0.096919596
-0.029105324 0.030808087 0.096760631
-0.031077895 0.026927756 0.096423864
-0.025291145 0.034103956 0.0927881
0.01564144 -0.015047831 0.19513592
0.0069170655 -0.017384885 0.19629118
0.019259172 -0.0096410904 0.19502577
0.016755821 -0.012290774 0.19414094
0.0069980067 -0.015210666 0.19468859
0.027088007 0.031554699 0.13146698
0.024556514 0.031231081 0.13181475
0.027558433 0.030362986 0.12794852
0.023502506 0.02977128 0.12739623
0.019979343 0.030278955 0.12730503
0.026989754 0.030904844 0.12417662
0.023832865 0.030742176 0.1232332
0.018587593 0.030732658 0.12245011
0.014955542 0.030502912 0.12171751
0.017135039 0.03107924 0.11815435
0.01333009 0.031194391 0.11837184
0.0091854772 0.032190003 0.11829436
-0.030446082 0.014223052 0.11509699
-0.030815326 0.01065465 0.1137079
0.012912854 0.031434596 0.11413038
0.0085207121 0.030807558 0.11328411
0.0050295629 0.030275341 0.11299098
-0.030758135 0.015346172 0.11199439
-0.031334378 0.012387828 0.11006975
0.006690721 0.031024382 0.10914677
0.0034020534 0.031080805 0.10872424
-0.031527866 0.017881446 0.10700792
0.0020911573 0.031403482 0.10486203
-0.0069529875 0.030906217 0.10336483
-0.031892914 0.01922274 0.10306662
-0.0081642913 0.031796984 0.099499226
-0.031237796 0.021319248 0.098911226
-0.014049698 0.033709716 0.095123351
-0.031093098 0.024872895 0.093931735
-0.018790657 0.032721099 0.090054989
-0.030431617 0.030519169 0.088857651
-0.031250387 0.026426893 0.09007591
-0.023980845 0.032073237 0.0853374
-0.031196356 0.028269127 0.085361838
-0.028096028 0.031460021 0.081272185
0.017573692 -0.015410101 0.19459787
0.029835213 0.030202778 0.12601775
0.028814802 0.031006228 0.12284404
0.022183556 0.030374493 0.11997205
0.028109824 0.031309828 0.11825961
0.023940498 0.031238692 0.11792994
0.019725911 0.030847263 0.11650276
-0.030688869 0.0057707485 0.11130613
0.023542762 0.031059492 0.11284345
0.018464431 0.031371184 0.11215955
0.013891213 0.031417783 0.11120433
-0.031982388 0.0071734544 0.10858876
0.01867458 0.031076105 0.10783851
0.013418929 0.031550542 0.10716695
0.0090827942 0.030974962 0.10725993
-0.031631373 0.012433839 0.1051935
0.012303607 0.031132108 0.10287976
0.0084990961 0.030932991 0.10285044
0.0042624073 0.030788988 0.10189658
0.0003055986 0.030509494 0.10131991
-0.032024644 0.015045435 0.10112745
0.0075509371 0.030283671 0.099400103
0.0027552778 0.030441357 0.097153604
-0.031289689 0.01827113 0.095224738
-0.0062989844 0.031731948 0.093476415
-0.031420581 0.021229599 0.09236455
-0.011858471 0.031948272 0.087733388
-0.03137017 0.023899686 0.087233782
-0.018153299 0.032086592 0.084195375
-0.032034479 0.025915401 0.084840953
-0.019005753 0.033264965 0.079870522
-0.029179782 0.029692609 0.078458965
-0.030693997 0.027452447 0.079544961
-0.024049606 0.033306554 0.075088561
-0.025107391 0.031993508 0.07026428
0.032260634 0.027717706 0.11983043
-0.029835561 0.00075050164 0.11464715
-0.032026518 -0.0026642922 0.11282468
0.030738691 0.029561341 0.11466432
-0.030788619 0.0031304825 0.11190724
-0.033555478 1.7396174e-05 0.10976064
0.029117409 0.029841263 0.11043006
0.025835922 0.030350655 0.10981631
-0.034294449 0.0031439876 0.10604781
0.028879438 0.031236032 0.10502994
0.024753774 0.030741697 0.10566097
0.020433418 0.030438716 0.10546857
-0.031997439 0.0072593493 0.10224348
-0.033862546 0.0045338441 0.10167766
0.028587002 0.03276689 0.10214484
0.024320703 0.032465976 0.10093606
0.019522954 0.031129645 0.10114151
0.014864275 0.030881103 0.10141397
0.011041354 0.030246753 0.1005432
-0.031982865 0.00876447 0.099007964
0.018341757 0.030351993 0.09683007
0.014633719 0.030176319 0.096157312
0.010126087 0.029377639 0.095851958
0.005642158 0.029651286 0.096047819
-0.031043373 0.012778236 0.096260011
0.009334296 0.029951081 0.091302156
0.0047482308 0.030090552 0.091605425
0.0079577183 0.030918419 0.087594926
0.0045401491 0.030765386 0.086296558
-0.0055303569 0.030498596 0.08659339
0.0035068989 0.031550165 0.083047152
-0.0053112898 0.029984439 0.081822515
-0.0061268662 0.030556671 0.077247083
-0.029786874 0.025451306 0.074738383
-0.016755337 0.032180227 0.072027087
-0.028658714 0.027467623 0.07083261
-0.029213261 0.024285367 0.070622027
-0.02206099 0.031166291 0.06744808
-0.021844391 0.030908721 0.064433753
-0.034386512 -0.0032912567 0.11193722
-0.034612641 -0.0025485409 0.11049604
0.032413408 0.028853755 0.11058456
-0.03524074 -0.00038240571 0.10511363
-0.034498628 0.0028661238 0.099147201
0.028907353 0.031988107 0.098142266
-0.031727321 0.0068040146 0.094862401
-0.033699304 0.0034425678 0.094301045
0.024925251 0.03093008 0.095136046
0.020462805 0.029994378 0.094025731
0.015864071 0.030378466 0.093393922
-0.030642714 0.0062284442 0.08995533
0.015076257 0.029290602 0.089405656
0.011100539 0.030295268 0.089078605
0.010036329 0.030593161 0.084792852
-0.029899692 0.01084121 0.082379282
0.0082899835 0.030964307 0.081405044
0.0049141711 0.031328697 0.079888523
0.00052773487 0.0306697 0.079050779
0.0039499728 0.030745378 0.075484991
-0.004392745 0.030919101 0.075014114
-0.0096765039 0.031397056 0.07055974
-0.011254546 0.031354241 0.066800475
-0.028031323 0.026368089 0.064662099
-0.029044766 0.023161622 0.065065563
-0.021490276 0.031258363 0.061642349
-0.027688669 0.025885962 0.060038984
-0.025293369 0.029808942 0.056441009
-0.027804568 0.026540464 0.05640316
0.030936521 0.028474327 0.091066241
0.027408285 0.028879255 0.091534674
-0.032764316 0.0027702479 0.088302076
-0.034791373 -0.00027575437 0.086819351
0.030002734 0.029792689 0.087456763
0.026386423 0.029658299 0.088248551
0.021612264 0.028777607 0.088202715
0.016957097 0.028742714 0.086839616
-0.030390754 0.0071584145 0.084946394
-0.032677401 0.0038348222 0.084130347
-0.035302971 0.0012969002 0.084997892
0.029044524 0.032593243 0.08355701
0.026166633 0.030957635 0.08308059
0.021380143 0.029466035 0.083184958
0.016483575 0.028848507 0.083368599
-0.030334581 0.0085972194 0.080334544
-0.031352613 0.0053107198 0.080763876
0.028931983 0.033400878 0.080051303
0.02617237 0.032525871 0.079585969
0.020589534 0.030572027 0.07869333
0.016273951 0.029467415 0.078279793
0.010931546 0.029893722 0.078769207
-0.029946893 0.0096132811 0.075726807
0.014890044 0.030437782 0.074521899
0.010823288 0.030720163 0.074132681
0.0056557311 0.030812707 0.073718846
0.001774257 0.03063629 0.07251966
-0.028301008 0.012382239 0.069700956
0.0098994756 0.03156995 0.06973362
0.005652179 0.030861041 0.069348335
0.00037046522 0.030105852 0.069374084
-0.030316018 0.013406289 0.065790415
0.0087066777 0.032122448 0.065601826
0.0048251348 0.031486653 0.064745665
0.00021409709 0.031059846 0.06493777
-0.008914331 0.030320575 0.063311875
-0.0045045917 0.030824386 0.059141815
-0.013984343 0.030242877 0.05834192
-0.028179981 0.022603577 0.058678925
-0.009759401 0.031025428 0.054752946
-0.019766724 0.031207968 0.053677976
-0.028023668 0.024545599 0.05365026
-0.015202728 0.031226257 0.050340891
-0.025286209 0.029849909 0.049917698
-0.028192671 0.025938356 0.048685372
-0.020640042 0.032079831 0.045126319
-0.028185878 0.028686244 0.044521213
-0.025574319 0.031518809 0.040758967
-0.032649152 0.0036676861 0.077567577
0.029001605 0.033697907 0.077148139
0.025465537 0.031505805 0.076423049
0.022635803 0.030423174 0.075994551
-0.030151976 0.0076019615 0.0718081
-0.031944621 0.0038980292 0.073159933
0.026835635 0.031026553 0.072601736
0.021492407 0.029534988 0.071466923
0.016829215 0.030485019 0.071983516
-0.029438846 0.010665457 0.069749355
0.016222171 0.030261315 0.067664385
0.012245321 0.030724805 0.066401005
-0.028681181 0.011967606 0.064278305
0.011190463 0.029933807 0.061713994
0.0066259932 0.031787757 0.062410116
-0.0281487 0.017623605 0.060073793
-0.028773377 0.013074504 0.058160305
0.0055223517 0.030725975 0.057689428
0.0010068426 0.031225957 0.057003438
-0.027864661 0.017264746 0.055524826
0.00056555774 0.031210719 0.052630544
-0.028283335 0.018848795 0.050541878
-0.0091976468 0.031084828 0.048280418
-0.028959075 0.021078359 0.046123505
-0.014736767 0.030781593 0.043511391
-0.029370528 0.024881318 0.042881608
-0.020533979 0.031521704 0.038917363
-0.029165847 0.027143758 0.038252115
-0.025357068 0.030896291 0.034409702
0.02911813 0.02987285 0.073248625
-0.031369165 0.0037595555 0.070312619
0.027174836 0.030626671 0.070130229
0.023282606 0.029250199 0.069055855
-0.029417679 0.0059616184 0.067278624
-0.030679602 0.0046057561 0.06659162
0.027031543 0.030988218 0.066511333
0.022573538 0.029852487 0.065950036
0.017095447 0.029496079 0.064558685
-0.02951552 0.0066252779 0.062567413
-0.030675378 0.0049975682 0.061643422
0.026869321 0.030513287 0.061727762
0.022354281 0.029352184 0.061500669
0.017628022 0.029306617 0.060858965
0.012805101 0.029496815 0.060430884
-0.028790589 0.01148971 0.058357477
0.016495552 0.029207982 0.056422412
0.012318382 0.029625272 0.056176245
0.008507017 0.029636219 0.055352688
-0.028830659 0.012832392 0.053424835
0.011495139 0.029414274 0.052265167
0.0068786899 0.030230572 0.051753223
-0.02877111 0.01538949 0.050098956
0.0050973082 0.031275779 0.047478795
0.0013166312 0.031224858 0.04733187
-0.02902131 0.016546423 0.044700146
0.0045921495 0.031946272 0.043351769
0.00087871123 0.031748168 0.042350352
-0.0091978395 0.030619914 0.041135371
-0.0041223299 0.031794913 0.038165331
-0.013765241 0.029921571 0.037009716
-0.014551771 0.029945131 0.032819271
-0.023788009 0.030146357 0.030597925
-0.028399728 0.025705172 0.031523228
-0.02449931 0.029978113 0.02743572
-0.026895415 0.026720922 0.02869463
-0.024043372 0.030123485 0.023319781
-0.030364852 -0.00078782346 0.061440468
-0.030569922 -1.6967766e-05 0.058906019
0.027973251 0.029814364 0.057949185
0.023610897 0.028867345 0.05795151
-0.028703135 0.0050384393 0.054832995
-0.029863883 0.0032239752 0.055878878
0.023274763 0.028297795 0.054106295
0.018592017 0.028419413 0.053423762
-0.029302903 0.0070774732 0.050184965
-0.03022578 0.0046472857 0.050694585
0.017286969 0.028360903 0.049187243
0.012998218 0.029086167 0.048873246
-0.028734248 0.0095437085 0.04608494
0.012574057 0.029509436 0.044133365
0.0083796317 0.029665967 0.044361174
-0.029058436 0.012077403 0.041206121
0.007078018 0.029954042 0.039377928
0.0031887572 0.031494968 0.039103627
-0.029110245 0.012554134 0.037308991
0.0014746524 0.031063925 0.035555303
0.0022217836 0.030316181 0.03197515
-0.0083083268 0.029533921 0.031076729
-0.0086354259 0.028524825 0.027109981
-0.017420746 0.030493071 0.024738371
-0.026486859 0.024412237 0.024533153
-0.018807551 0.03060928 0.020897627
-0.026019439 0.025227455 0.019636869
-0.023749061 0.029144173 0.015681505
-0.026130289 0.025786955 0.01686275
-0.031330999 -0.0026612282 0.05605787
-0.031597938 -0.0044099139 0.055874228
-0.030293871 0.00087414496 0.053680956
-0.031425089 -0.0021052388 0.052252829
0.02932521 0.02835251 0.052723229
0.025105601 0.02762894 0.051511049
-0.030499062 0.0025504287 0.04916203
-0.032166176 0.00030170567 0.047882557
0.028709728 0.028523114 0.046960175
0.024285965 0.027961107 0.04771167
0.020222062 0.027721966 0.048082113
-0.028939379 0.0066490863 0.043361068
-0.030544037 0.0036207577 0.043587565
-0.033843372 0.0017194878 0.041392207
0.023627724 0.028789606 0.042812943
0.018719614 0.028700713 0.04335922
-0.029408412 0.0081873089 0.040399492
-0.031032864 0.0053734239 0.038640857
-0.034426447 0.0022548661 0.039279282
0.022168346 0.029880777 0.039041996
0.018312242 0.029861771 0.038197994
0.013363841 0.029533934 0.038762093
0.0097992355 0.02893232 0.037386239
-0.029023685 0.01002788 0.035290718
-0.029969098 0.0077203587 0.034806967
0.016760323 0.030267712 0.034359694
0.012999373 0.030059606 0.033345759
0.0079774605 0.029914282 0.0340904
-0.028405737 0.011285769 0.029632986
0.0076038782 0.030434502 0.028658509
0.0027026311 0.030163229 0.028933525
0.0058624744 0.031229565 0.025177181
0.0020122183 0.030336795 0.024097621
-0.0072673308 0.028394291 0.023821414
-0.026943624 0.019477464 0.021353364
0.00099206157 0.030439066 0.019380808
-0.0077720759 0.029020824 0.018834352
-0.027309241 0.02157568 0.01809001
-0.013237884 0.029567499 0.014313102
-0.026825633 0.023947075 0.013351083
-0.018510353 0.030236967 0.0095690489
-0.026254419 0.025688507 0.0085965991
-0.032785915 -0.0026755566 0.043623745
-0.032854475 0.00011911895 0.042572498
0.028730847 0.028526893 0.041941166
0.025610331 0.028177358 0.040001214
-0.033406533 0.0029546814 0.036676109
0.02954291 0.02816017 0.03675127
0.025124433 0.028506218 0.036717594
0.020725369 0.029544234 0.034851193
-0.030799842 0.0067033544 0.032719254
0.023751315 0.028578479 0.032525122
0.019668115 0.029065985 0.031292498
0.015352235 0.029837299 0.03007257
-0.030283686 0.0066334121 0.028256893
0.019090259 0.028965594 0.027782083
0.014243514 0.02862593 0.026144385
0.0099133784 0.030271653 0.025426865
-0.027163612 0.010145579 0.022568941
-0.029875351 0.0082362806 0.025433242
0.013385804 0.028857358 0.023297071
0.0088355234 0.029799193 0.02185607
0.0046462314 0.030078948 0.022407711
-0.027261771 0.012687931 0.020099401
0.0082740877 0.029624252 0.018258691
0.0038648471 0.02942271 0.017403364
-0.0056460449 0.029175717 0.015882671
-0.028232403 0.016867779 0.016673207
0.0023011174 0.02950434 0.013106942
-0.007001847 0.029270057 0.012842596
-0.028476361 0.019212967 0.0115453
0.028889677 0.028006107 0.033552408
0.027128417 0.027731275 0.033819973
0.028700674 0.028685037 0.031965852
0.025616724 0.028365552 0.029952109
0.025012022 0.028200559 0.024961829
0.020133436 0.028941568 0.024520159
-0.028680852 0.0061814031 0.020533979
0.024299659 0.029086705 0.020386338
0.019683447 0.029125623 0.020157695
0.014726607 0.02892887 0.020154893
-0.027856821 0.010857467 0.017136335
0.019426739 0.029458646 0.016203105
0.014439354 0.029574718 0.015893579
0.0091500664 0.029910384 0.015272141
-0.028403813 0.012508427 0.015344858
0.013824841 0.030135721 0.01174742
0.0088577215 0.030236254 0.011432827
0.0040168026 0.030098163 0.010891676
0.025890866 0.028425429 0.01940006
0.024674516 0.027883019 0.012668669
0.021468524 0.028321104 0.01306361
0.020526668 0.028474066 0.0090213418
0.0159213 0.02998095 0.0087919235
0.028808389 0.025013298 0.011364222
