# .PCD v0.7 - Point Cloud Data file format
VERSION 0.7
FIELDS x y z
SIZE 4 4 4
TYPE F F F
COUNT 1 1 1
WIDTH 821
HEIGHT 1
VIEWPOINT 0 0 0 1 0 0 0
POINTS 821
DATA ascii
0.021974485 0.029245945 0.19188821
0.012135445 0.031425424 0.19027781
0.026672728 0.028470824 0.18760905
0.018935915 0.033381701 0.18793067
0.0074328915 0.033711541 0.18658477
0.024010878 0.033056404 0.18379107
0.015612708 0.034817312 0.18324864
0.021369707 0.03422777 0.18005347
0.023064889 0.020045452 0.19338605
0.014722142 0.02367913 0.19370365
0.0042953417 0.027908504 0.19221723
-1.0281801e-05 0.028903056 0.19262961
-0.0042221397 0.030304054 0.19197959
-0.0087027475 0.032028504 0.19097802
0.026891623 0.020792346 0.19036275
0.025261898 0.023344483 0.19132581
0.015990404 0.02701138 0.19252574
0.0059376694 0.031172134 0.19038713
-0.002894232 0.033452179 0.18889943
-0.0076040141 0.034194209 0.18796152
-0.010767262 0.034653056 0.1873095
0.028318955 0.023653938 0.18602422
0.028076623 0.026997259 0.18513352
0.0029978398 0.034865055 0.18413299
-0.0018996987 0.035217181 0.18381792
-0.0068921112 0.035407316 0.18361664
0.029259056 0.025200069 0.18079624
0.027945124 0.027794622 0.18154407
0.0081747426 0.034742311 0.18010682
-0.00063986145 0.035711586 0.17899007
0.02999243 0.026327573 0.17616737
0.02458417 0.032531135 0.17681843
0.014384299 0.034570657 0.17651901
0.004179962 0.035919003 0.17521328
0.030564589 0.027303662 0.17323107
0.024293736 0.032271698 0.17244673
0.015760381 0.034515698 0.17183122
0.027429741 0.031318847 0.16913778
0.020647064 0.034047034 0.16825718
0.019492496 0.013437638 0.19326741
0.015997473 0.015174742 0.19323283
0.0072356206 0.018373702 0.19251168
-0.0024428824 0.023427628 0.19254965
-0.0068542436 0.025033522 0.19309446
-0.010955421 0.026253771 0.19214985
-0.015812581 0.027703678 0.1911169
-0.022083847 0.030200806 0.19132188
-0.025446482 0.032076105 0.19188473
0.025001068 0.01470311 0.19152108
0.021844443 0.017206747 0.19418851
0.0084664486 0.021242172 0.19261831
-0.0066518066 0.029213248 0.19272435
-0.0098327044 0.029641986 0.19205838
-0.014579086 0.032150578 0.1902799
-0.019905113 0.033501152 0.18951163
-0.024509519 0.034590237 0.18880367
-0.026774498 0.037016347 0.18859333
0.027530298 0.016214222 0.18761232
-0.013678829 0.034309983 0.18627968
-0.019177008 0.034761611 0.18495131
-0.023759138 0.035456248 0.18425241
-0.026865546 0.037867919 0.18570179
0.027999964 0.017421603 0.18375939
-0.0068057906 0.035334595 0.18032512
-0.012389683 0.035167988 0.18183851
-0.017671317 0.034924574 0.18021375
-0.022137158 0.035509817 0.1808579
0.028515946 0.018999992 0.17884037
-0.0022535827 0.035316281 0.17663521
-0.006788101 0.034546949 0.17664272
-0.012385488 0.034116324 0.17738608
0.0028519249 0.03428879 0.17137626
-0.0015797839 0.034884281 0.17179149
-0.0050930344 0.034640372 0.1715323
0.029999204 0.025338065 0.16912448
0.028757982 0.027885081 0.16995656
0.0089339837 0.033902667 0.16863635
-0.001337599 0.035116546 0.16829973
0.030372798 0.025771959 0.16578299
0.02462478 0.032213092 0.16586268
0.014898871 0.032996818 0.164496
0.028385825 0.029662836 0.16126862
0.020240858 0.033165623 0.16063738
0.024893126 0.031775229 0.15748113
0.019488789 0.0099718468 0.19288817
0.014205612 0.011737054 0.19340047
0.0054841097 0.014424206 0.19350886
-0.0038895672 0.019400064 0.19248962
-0.0093211075 0.02034015 0.19330004
-0.013153905 0.023042642 0.19266126
-0.01679495 0.024676101 0.19146228
-0.021947773 0.027258854 0.19157532
-0.026549904 0.028318353 0.19207504
0.026132472 0.0098855998 0.18953952
0.028141268 0.011911505 0.18619776
-0.025451692 0.035837136 0.18191984
0.028956968 0.013789483 0.18114689
-0.020276949 0.034403101 0.17770424
-0.024010964 0.035493717 0.17823654
-0.026985649 0.03748206 0.17836398
0.028492182 0.014555614 0.17720088
-0.0077808443 0.033922102 0.17370838
-0.012454303 0.033751413 0.17438942
-0.017565291 0.034595817 0.17448425
-0.022766951 0.035562493 0.17333001
-0.027127527 0.03737212 0.17494267
0.029008791 0.019312296 0.17269719
-0.006981534 0.03520868 0.1701133
-0.011857522 0.034690984 0.16955325
-0.016396202 0.035193108 0.1692248
-0.020281281 0.035146888 0.17011335
0.02997981 0.020923942 0.16742915
-0.0014847945 0.034513649 0.16511118
-0.0061009238 0.035687976 0.16535097
-0.010232437 0.035406291 0.16518936
0.030551821 0.021742094 0.1634253
0.029998217 0.024317708 0.16199824
0.0033294242 0.033455078 0.16126597
-0.0014775191 0.034275282 0.16217333
-0.0061896611 0.035169385 0.16128436
0.029128941 0.025885442 0.15893644
0.010231739 0.033248924 0.15762544
0.027811211 0.029389046 0.15550888
0.020352632 0.033267129 0.15458408
0.012100283 0.033285134 0.15446603
0.02050088 0.032616246 0.15100208
0.017263096 0.0019454458 0.19370466
0.010685198 0.0045615854 0.19328102
0.007051792 0.0060681398 0.19308019
-0.001510723 0.010068201 0.19284952
-0.0067856861 0.011767102 0.19290671
-0.01174297 0.013812026 0.19364658
-0.015847445 0.016038859 0.19338164
-0.020447562 0.016790429 0.19165242
-0.025373211 0.019074311 0.19178584
-0.027342167 0.021530963 0.19182745
0.025994437 0.00059898011 0.19051653
0.022815494 0.0027837991 0.19204131
0.018570969 0.0055450271 0.1930396
0.013186663 0.0074657346 0.19325942
-0.00059485901 0.013100487 0.19245502
-0.005356953 0.014891659 0.19194001
-0.0087590879 0.016963832 0.1927202
-0.014531825 0.019382527 0.192415
-0.019644849 0.020135581 0.19066012
-0.022497518 0.021954676 0.19096932
0.027755074 0.0038159266 0.18756402
0.024346761 0.005150212 0.18963099
0.028473157 0.0059421435 0.18294859
0.028612666 0.012449982 0.17510009
-0.025411841 0.035306118 0.17055142
-0.028044023 0.03525383 0.17067528
0.028442282 0.013360421 0.16998923
-0.018361244 0.035365056 0.1670886
-0.02257397 0.035026819 0.1675036
-0.027878415 0.035367876 0.16613227
-0.012038967 0.03453511 0.16251242
-0.017030191 0.034723654 0.16313857
-0.021783942 0.034654029 0.16244656
-0.025724478 0.036035482 0.16248512
0.030615568 0.021467369 0.16046876
-0.0017790124 0.033306111 0.15869102
-0.0065435423 0.034112684 0.15772966
-0.012031212 0.033495322 0.15820587
-0.015968949 0.033766918 0.15874797
0.028882956 0.022670196 0.15502304
-0.0017699404 0.032896679 0.15373951
-0.0063623581 0.033263512 0.15397584
0.028158024 0.024652461 0.15223649
0.010069238 0.032713722 0.15136656
0.00062812679 0.033238709 0.14938885
0.027418006 0.026312973 0.14734638
0.020220172 0.031521946 0.14739677
0.010646001 0.033012751 0.14628524
0.024866886 0.029856697 0.14305931
0.016098296 0.032756772 0.14266932
0.0075936895 0.034761056 0.14198208
0.021222118 0.032231174 0.13792107
0.02529026 0.032506853 0.13468337
-0.01020873 0.0060982574 0.19382179
-0.013928661 0.009470121 0.19458982
-0.018854508 0.010683643 0.19518948
-0.02290931 0.012696613 0.19566381
-0.025251927 0.0151823 0.19633532
0.02377452 -0.0046027401 0.19260409
0.020435464 -0.0022348277 0.19365185
0.015224991 -0.0004623821 0.19404972
0.01040677 0.0013494568 0.19384074
0.0060238275 0.0026619681 0.19326046
-0.0032201554 0.0061740507 0.19303748
-0.0070369355 0.0083500408 0.1936034
-0.011159596 0.0097748023 0.19368148
-0.017949505 0.01392378 0.19401884
-0.022058502 0.015075916 0.19276282
-0.024987102 0.016762655 0.19297588
-0.028402075 0.019309821 0.19216999
0.028718101 -0.0042069755 0.18896872
0.026530614 -0.0022439938 0.19096231
0.030004157 -0.002511438 0.18609577
0.028892228 0.00016447529 0.18679163
0.028895205 0.00076027028 0.181559
0.028443286 0.0037177615 0.17595693
0.028355408 0.0051187305 0.17267925
0.027991096 0.0082824472 0.17158222
0.028328227 0.0084343506 0.16708452
0.029039344 0.0097737173 0.16431645
-0.023223374 0.033785045 0.15908712
-0.027504154 0.034871113 0.15891695
-0.011920574 0.033555172 0.15576321
-0.017441045 0.034200162 0.15667826
-0.02206799 0.034197498 0.15590715
-0.026182573 0.035502978 0.15571377
-0.0069955923 0.033370454 0.15129286
-0.012145157 0.033303425 0.15247113
-0.016555039 0.03408736 0.15207335
-0.020306921 0.03402539 0.15255362
0.028628584 0.020183003 0.1491577
-0.0018681036 0.033436108 0.14772624
-0.0065797176 0.033161223 0.14673367
-0.010868609 0.03278318 0.14835379
0.02926315 0.022234075 0.14538366
0.00010258052 0.033729233 0.14361519
-0.0045315474 0.033497289 0.14248997
0.027731683 0.02537686 0.14141312
0.011308377 0.033804573 0.13936612
0.0018198723 0.034481253 0.13935256
0.027869957 0.026333448 0.1364187
0.019692026 0.032904185 0.13570747
0.011504177 0.033360049 0.1355499
0.028204776 0.028273709 0.13257048
0.021103462 0.03290277 0.13203707
0.025577297 0.03167719 0.12813485
-0.021264965 0.0049027866 0.19567779
0.016445564 -0.0084514469 0.19343582
0.012594225 -0.0059949514 0.19405043
0.0075234897 -0.0049513495 0.19376108
0.0029370692 -0.0035848771 0.19322222
-0.0055714138 0.00081234833 0.19321316
-0.0093314918 0.0033727838 0.19372094
-0.013776645 0.0048935134 0.19358015
-0.018836068 0.0053288857 0.19426429
0.02617657 -0.01036863 0.19047594
0.023800459 -0.0083003584 0.19222435
0.019903295 -0.0062468774 0.19372061
0.003867445 0.00059306587 0.19293505
0.02875001 -0.0074225529 0.18861678
0.030639959 -0.0059501892 0.18391788
0.029697189 -0.0046472359 0.18001726
0.028143115 -0.0032509426 0.17723501
0.03043877 -0.0025370102 0.17267084
0.028680949 -0.0012225145 0.17478442
0.031278826 -0.0010065353 0.16908154
0.02931839 0.0022411607 0.16966811
0.032156568 0.00063064881 0.1655637
0.029641591 0.0041081738 0.16522247
0.029340809 0.0057790717 0.16111073
-0.018815754 0.033242375 0.14873487
-0.022565706 0.033220764 0.1492404
-0.02702792 0.033945084 0.14831728
-0.029297315 0.03700953 0.14876798
0.028654238 0.014886484 0.14829391
-0.012151268 0.032865383 0.14564961
-0.017273091 0.032559127 0.14497402
-0.021713842 0.032792684 0.14451647
-0.026842879 0.035092942 0.14412686
-0.029471736 0.036403205 0.14357254
0.030049879 0.016557209 0.14353603
-0.0066020023 0.033156779 0.14044642
-0.012068414 0.032616675 0.14063323
-0.016101399 0.032906882 0.14076033
0.030031584 0.017129235 0.1405243
0.028730828 0.020660583 0.13848567
-0.00017475523 0.033630371 0.13626832
-0.0046153832 0.033576012 0.13630751
-0.0096381335 0.033267297 0.13594767
0.028926294 0.0229045 0.1337004
0.0070855417 0.033376582 0.13295212
-0.0032484913 0.033511113 0.13168287
0.028999534 0.024961893 0.12972373
0.011238317 0.032047477 0.12883377
0.002227759 0.0337894 0.12876552
0.028316084 0.026508007 0.12516457
0.020474702 0.032534637 0.125588
0.012657472 0.031382933 0.12473577
0.022099458 0.032749441 0.12090713
0.022359293 0.032784197 0.11612993
-0.014681552 -0.0047667418 0.19564548
-0.017508479 -0.0027049589 0.19618341
-0.020599309 -4.0512066e-05 0.19573146
0.032148551 -0.021061465 0.19292161
0.029197846 -0.018991895 0.19320607
0.025290875 -0.017242286 0.19252813
0.020713352 -0.014286545 0.19225252
0.016943797 -0.012443276 0.19256479
0.011770122 -0.01056304 0.19362134
0.0059231352 -0.0093737096 0.19437498
0.0014391672 -0.0078196768 0.19408911
-0.0079739094 -0.0038411689 0.19360697
-0.011951586 -0.0017500808 0.19380382
-0.016151823 0.00060112914 0.1938909
-0.019845596 0.0021719136 0.19463086
0.032505523 -0.02039198 0.19151324
0.030164413 -0.017399762 0.18920159
0.027033418 -0.013867201 0.19002855
0.023742422 -0.011965644 0.19172603
0.030448819 -0.01460946 0.18518507
0.029494511 -0.011376905 0.18620929
0.031222247 -0.012327008 0.18056527
0.030891206 -0.0086062383 0.18158868
0.03036207 -0.0078971945 0.17652023
0.030316647 -0.0064283283 0.17294124
0.031207394 -0.0039908593 0.16791588
0.029911514 -0.00027146935 0.1681602
0.032255691 -0.0016647773 0.16331521
0.030554105 0.00036609638 0.16209263
0.029588966 0.0016892171 0.15846044
0.028755169 0.0087953061 0.14844128
0.02866729 0.010268985 0.14547291
-0.023220833 0.03283 0.14234969
-0.026015485 0.034315262 0.14143959
0.030222651 0.012051167 0.14127299
-0.01768304 0.032755189 0.13844323
-0.021998983 0.033306405 0.13821208
-0.026403788 0.035164159 0.13799426
0.029681012 0.014300212 0.13671285
0.028674804 0.017438266 0.13643521
-0.012171294 0.032997545 0.13453245
-0.016595375 0.033293106 0.13410038
-0.021470066 0.033651769 0.1330373
-0.025820561 0.036127217 0.13322413
0.02955237 0.014881494 0.13316
0.02919659 0.018255224 0.13324499
-0.0047706133 0.033442121 0.12941152
-0.010106961 0.033093367 0.13020843
-0.014607714 0.033522684 0.13035107
-0.027189795 0.036757596 0.12906826
0.03044448 0.016398534 0.12856948
0.0297086 0.019746678 0.12756068
0.0057004038 0.031385377 0.12444067
-0.0037242975 0.033347622 0.12487108
-0.0086302618 0.032771952 0.12561125
0.029517757 0.021725969 0.12250549
0.01076878 0.03123907 0.12183559
0.001166774 0.032030635 0.12004453
-0.0038292324 0.033307474 0.12131274
0.029045675 0.024237815 0.1185382
0.02736311 0.027100546 0.11824429
0.011366051 0.031008834 0.11680621
0.026220376 0.028915741 0.11427468
0.017174305 0.032518879 0.11325788
0.025665764 0.029600497 0.11016959
0.01738435 0.032574456 0.10942078
0.015382012 -0.023146205 0.19842511
-0.010878079 -0.0108608 0.19768432
-0.013998941 -0.0079097236 0.19836593
0.021300592 -0.021907663 0.19509098
0.018337956 -0.022126939 0.19479102
0.012376877 -0.020948736 0.19564885
0.0092349369 -0.018822921 0.19466078
0.004044883 -0.015181723 0.19483981
-0.0060540223 -0.011654678 0.19433302
-0.0099940505 -0.0091043497 0.19512245
-0.013115709 -0.0065419711 0.19597951
0.029173125 -0.019878164 0.19272995
0.023602866 -0.019728675 0.19425803
0.019489525 -0.018687515 0.19309536
0.014376078 -0.017927574 0.19249412
0.010669442 -0.015161213 0.19340056
0.006846508 -0.012745385 0.19408968
-0.0042703408 -0.0082002468 0.19343877
-0.0072457548 -0.007016886 0.19324714
0.030964689 -0.01823318 0.18850985
0.031724624 -0.016556162 0.1827651
0.031919286 -0.015023774 0.18021631
0.031608306 -0.01229421 0.17504841
0.031844061 -0.012520379 0.170257
0.031450801 -0.0091218343 0.17017141
0.03304866 -0.010312071 0.16521052
0.03213907 -0.008036226 0.16624835
0.034315739 -0.0075560375 0.16240504
0.032974064 -0.0055788243 0.16172451
0.032225419 -0.0048763417 0.15761554
0.028974213 -0.0001436742 0.15655968
0.027577743 5.3732656e-05 0.15242523
0.026064437 0.00026972964 0.15017447
0.029245667 0.0032335343 0.14617881
0.027169468 0.0041571362 0.14835203
0.028657667 0.0055313976 0.14256868
0.030228099 0.0090886764 0.14040822
0.029807758 0.011361478 0.13393587
-0.023160011 0.034147639 0.1306355
-0.026112579 0.035381019 0.13048261
0.029663056 0.014717196 0.1301719
-0.015365954 0.032426253 0.12694901
-0.020196551 0.03348374 0.12745309
-0.025210161 0.034561746 0.12613666
0.030427959 0.016038995 0.12638056
-0.010322073 0.032353573 0.12304217
-0.014777254 0.032634661 0.12257898
-0.019628404 0.03359763 0.12189019
-0.025611628 0.034735005 0.1217708
0.030526817 0.019747693 0.12097996
-0.0040797517 0.033557564 0.11927176
-0.0089908335 0.032929823 0.11899143
-0.013793563 0.032593198 0.11894357
0.032020465 0.018376751 0.11564541
0.03027242 0.021391314 0.11706233
0.0062859128 0.032348715 0.11490619
-0.003363614 0.033836734 0.11526507
-0.0075995727 0.034137402 0.11408001
0.033447213 0.019695692 0.11243802
0.030494163 0.022685969 0.11240202
0.027984289 0.026288284 0.11134636
0.0070717703 0.03311345 0.11031729
-0.0028201761 0.034063887 0.11023355
-0.0066943038 0.033888038 0.11025876
0.031167792 0.022896163 0.10827386
0.022147253 0.031199848 0.1071102
0.012300834 0.031830721 0.10643345
0.0032916842 0.033509418 0.10668975
0.022517422 0.031513162 0.10248089
0.026337568 0.029720614 0.098548174
0.019553442 0.032245532 0.097991645
-0.0077257943 -0.017304994 0.19583079
0.015899636 -0.022506814 0.19423983
0.013839478 -0.021938497 0.1936644
0.0064924606 -0.021253437 0.19451851
-0.0065394281 -0.015365971 0.19466561
0.032012403 -0.01258043 0.16742176
0.031274047 -0.0080128219 0.15324685
0.028829016 -0.0053527798 0.15344256
0.027636563 -0.0034514423 0.149874
0.027632639 -0.00061371084 0.14722663
0.026035476 -0.00013214163 0.14799696
0.029097056 0.00072265975 0.14170492
-0.01977095 0.033140678 0.11934197
-0.024477594 0.033237666 0.11920595
0.030669663 0.015440817 0.11821294
-0.011373427 0.031810485 0.1152755
-0.01535681 0.031437181 0.11515236
-0.01974676 0.031420287 0.11507851
-0.024540104 0.032876916 0.11500573
0.031028856 0.016114481 0.1167959
-0.011086048 0.032169059 0.1116479
-0.014434759 0.032042086 0.11103851
-0.0041508982 0.033358585 0.10677403
-0.0087659508 0.032999575 0.10699987
-0.012577767 0.032492694 0.10740095
0.032733954 0.018909853 0.10730737
0.029467702 0.023441527 0.1052916
0.0063909446 0.030829543 0.1025939
-0.0033131195 0.032925565 0.10277343
-0.0076415604 0.033167381 0.10249883
0.029159836 0.022001257 0.10021198
0.011493326 0.030096378 0.099802256
0.0018585017 0.032256238 0.099045575
-0.0014959266 0.032716274 0.099237442
0.028214674 0.02621137 0.096091866
0.016887717 0.031245017 0.095728457
0.008264346 0.031665672 0.095108211
0.023474585 0.030384695 0.091606319
0.013819592 0.031802338 0.091044545
0.019860817 0.031779118 0.08770895
0.03196042 -0.011082717 0.15099809
0.03053702 -0.010302934 0.14739689
0.028275946 -0.0076023159 0.14808011
0.030590061 -0.0090613663 0.14401996
0.02851522 -0.0055306051 0.14356518
0.028485335 -0.0043812683 0.13742438
0.028639723 -0.0044594109 0.13448286
0.029262515 0.00010877475 0.12570107
-0.021517437 0.030920312 0.11239827
-0.025286088 0.032401532 0.11194563
-0.028173018 0.033831596 0.11114931
-0.015645314 0.03169449 0.10785818
-0.019956144 0.03210346 0.10871035
-0.024460474 0.033464834 0.10838598
-0.028249044 0.033514448 0.10793179
-0.010849953 0.032106038 0.10372269
-0.014720454 0.031987011 0.10411429
-0.019675894 0.032410536 0.10401589
-0.02441005 0.033804912 0.10405308
-0.028436709 0.034785591 0.10371411
-0.0094054146 0.032620974 0.099740863
-0.013971374 0.032055631 0.099849939
-0.019684002 0.032202862 0.10086834
-0.027875744 0.035790704 0.10056144
0.029476658 0.018158572 0.097696483
0.0019931197 0.032294411 0.096105337
-0.0032396885 0.033072889 0.09663707
-0.008037799 0.033248156 0.095648408
0.029931381 0.020828517 0.093629718
0.0024044663 0.032901052 0.092632115
-0.002447187 0.033423394 0.091600537
-0.0062612146 0.033431489 0.092085481
0.030422706 0.022501955 0.089390993
0.029036809 0.025629673 0.090087771
0.0078050084 0.032075867 0.088409126
-0.00095032901 0.032928407 0.087463856
0.028539822 0.026968036 0.085280955
0.018708546 0.031644795 0.084783018
0.027961189 0.028102867 0.080283165
0.02000002 0.031780489 0.080391586
0.032489009 -0.014528285 0.14912304
0.032059517 -0.016341206 0.144997
0.03185964 -0.01247593 0.1443097
0.030231385 -0.011687807 0.1403794
0.029264422 -0.011454049 0.13629735
0.028396755 -0.009170345 0.13643491
0.028643012 -0.004965608 0.13121986
0.029411932 -0.0036568935 0.1273402
0.029017277 -0.0025442671 0.12196606
0.027969565 0.001608259 0.11830842
0.027420506 0.0026396811 0.11480856
-0.026219886 0.033665869 0.10169595
-0.016409922 0.031282242 0.097312152
-0.020280421 0.030683406 0.096630871
-0.024694845 0.032863013 0.097637892
-0.027552847 0.03439974 0.096716404
-0.014609647 0.031044086 0.093712211
-0.019620154 0.030543461 0.092372537
-0.024755359 0.032447439 0.092285872
-0.027516361 0.034271017 0.092599094
-0.0044555003 0.03317979 0.088474154
-0.0090871882 0.032311868 0.089685321
-0.014095921 0.03128529 0.088217378
-0.017752972 0.031738356 0.089075148
0.030832432 0.019990841 0.087271392
0.00047209766 0.031921804 0.085215628
-0.0033117998 0.032261413 0.084972918
-0.0081588486 0.032118306 0.085024655
-0.013612523 0.032582726 0.084947824
0.030374112 0.021514609 0.083086967
0.0074608717 0.03006456 0.081650257
-0.0027098665 0.0319166 0.080292106
0.030229503 0.021530703 0.07792604
0.029110774 0.02527852 0.078155875
0.014688093 0.031700138 0.077718258
0.0042608669 0.030811472 0.076741338
0.027915908 0.024983067 0.07341677
0.020080602 0.029984547 0.072799802
0.011043533 0.031343646 0.072593093
0.027343135 0.026372179 0.070092082
0.02022076 0.030400937 0.068434238
0.023835059 0.030144611 0.065389514
0.032124456 -0.016908681 0.14075845
0.03046746 -0.017245226 0.1371021
0.029905515 -0.014594996 0.13458526
0.028334895 -0.0098717483 0.13303584
0.02931634 -0.012203872 0.13091856
0.028170343 -0.01086803 0.12940538
0.029263865 -0.0086444234 0.12616616
0.03010126 -0.0055638929 0.1211983
0.029950049 -0.0039394014 0.11705703
0.028105356 3.725104e-05 0.11534977
0.029035773 -0.0025800578 0.11195779
0.028480839 0.00041365158 0.11170685
-0.020939548 0.031473648 0.090533078
-0.024580162 0.032657772 0.089441538
-0.027274717 0.034636982 0.089887083
-0.01558706 0.032306746 0.08612597
-0.019608498 0.03195817 0.086309195
-0.024122395 0.033432022 0.08605212
-0.027153963 0.03468864 0.085890234
-0.0094276443 0.031629287 0.081624985
-0.013562994 0.03196957 0.08249557
-0.01757301 0.032275937 0.081340253
-0.023337476 0.032939155 0.081889033
-0.0042163292 0.032882854 0.078148603
-0.0075023407 0.03253901 0.079117477
-0.011535296 0.031653728 0.077327371
0.030330874 0.019258667 0.075315833
-0.0011486094 0.031359263 0.074016213
-0.0059674624 0.031702984 0.074136138
0.030348418 0.021229705 0.073634505
0.028705388 0.022585362 0.070589662
0.0042893421 0.030271422 0.070179343
0.028581105 0.024695728 0.067240119
0.014981402 0.030466719 0.066281915
0.027844666 0.026537726 0.062088311
0.020821257 0.029910013 0.062359035
0.028204806 0.026911063 0.058319092
0.032001559 -0.021363737 0.13657129
0.031248754 -0.020606501 0.13233763
0.030401429 -0.018374059 0.13144892
0.029646145 -0.016353868 0.12797767
0.028884361 -0.01452705 0.12338269
0.029784782 -0.0096667036 0.11166888
0.030082889 -0.0064738235 0.11018455
0.028680917 -0.0042727329 0.1067155
-0.019222498 0.031812735 0.078402638
-0.02277183 0.032081638 0.079433978
-0.025682984 0.033633217 0.079520345
-0.013073205 0.03118147 0.075952291
-0.017607771 0.031188861 0.075428247
-0.022742953 0.031902969 0.075197101
-0.026407566 0.033395868 0.07457304
0.030418146 0.016939502 0.072655559
-0.0065636048 0.031144438 0.070949554
-0.012521352 0.030083474 0.071232677
-0.017618943 0.030888718 0.071076274
-0.02270446 0.032715857 0.071128726
-0.026218224 0.034003824 0.071343482
0.030113542 0.017869215 0.069066882
-0.001801461 0.030172465 0.067561567
-0.0068605933 0.030748814 0.0668571
-0.010522535 0.030220818 0.06787461
0.030968048 0.017907973 0.064884841
0.029487055 0.022096554 0.063585997
0.0090572443 0.029547965 0.063266575
-0.0011680601 0.030381454 0.062938213
-0.005438026 0.0309924 0.062919736
0.030363683 0.019531075 0.060975075
0.029093198 0.023332912 0.060593724
0.0146005 0.029347662 0.059164882
0.0045133154 0.030535035 0.058793485
0.029687434 0.025317272 0.056471944
0.02039801 0.029291848 0.05518198
0.010162188 0.031172525 0.054393649
0.030026365 0.025534553 0.051386714
0.021317331 0.030302076 0.050563097
0.011294695 0.031991415 0.050964415
0.034012426 0.026176035 0.045134366
0.03073018 0.027155589 0.04679358
0.021441229 0.030716365 0.046446741
0.030635059 0.028672138 0.043675423
0.023016319 0.031926379 0.043356061
0.033339925 -0.024135895 0.13382414
0.034717891 -0.025638597 0.13134608
0.032369956 -0.024166506 0.12923974
0.035432242 -0.024739275 0.12611651
0.032070853 -0.023114428 0.12557507
0.029949212 -0.019187961 0.1244961
0.029370304 -0.018359594 0.12014967
0.028872587 -0.015843129 0.11552656
0.030022359 -0.013649466 0.11121815
0.031575449 -0.012247827 0.10693902
0.029940372 -0.010311147 0.10522836
0.028999981 -0.007865834 0.10244673
0.028802924 -0.0074681486 0.098564684
0.027550641 -0.0010109041 0.088102698
0.027839012 0.0020611705 0.084106266
0.027928676 0.0031084735 0.079686821
0.028210839 0.0072964653 0.073359013
0.029477544 0.010141042 0.071644008
-0.014438654 0.029680107 0.068205953
-0.017656848 0.030597452 0.067740679
-0.022020655 0.032256618 0.068236947
-0.026209081 0.033859584 0.068130612
0.032094479 0.011507892 0.067275882
0.030879661 0.013032046 0.067941964
-0.012644517 0.029842492 0.064518034
-0.017330155 0.030512583 0.064217627
-0.022430506 0.032378767 0.063436329
-0.025790121 0.034119911 0.063668013
0.031271998 0.013455142 0.064204931
-0.0071594166 0.030606207 0.060149252
-0.011325989 0.029435501 0.059087515
0.030628726 0.017677885 0.058663547
-0.0013535572 0.029935971 0.055662692
-0.0063172812 0.029699259 0.055587173
0.031185359 0.020502843 0.053580999
0.00060219783 0.030292572 0.051432073
0.010403285 0.031469624 0.047397614
0.03308237 0.023939751 0.045214891
0.015803689 0.030446112 0.043557107
0.033614159 0.02475347 0.041777372
0.031214848 0.027488183 0.040500998
0.02172612 0.03056423 0.039354026
0.029809689 0.027915448 0.036396444
0.022629835 0.030100737 0.035415888
0.032243837 -0.024324909 0.1227107
0.032783236 -0.024098082 0.11940831
0.030316029 -0.020710407 0.11898047
0.03201833 -0.022855189 0.1146363
0.029740123 -0.019712187 0.11423081
0.033309601 -0.020445624 0.10945845
0.031195959 -0.017702851 0.11002535
0.03443319 -0.018532597 0.10611773
0.032673892 -0.015838599 0.10558921
0.032814518 -0.013389061 0.1015361
0.029926496 -0.011082167 0.10064662
0.032489106 -0.012803501 0.096937716
0.029676111 -0.0096496902 0.096593082
0.02876965 -0.0086355824 0.091624141
0.027544912 -0.0049470779 0.091625333
0.029698344 -0.0066461493 0.086661458
0.028071238 -0.004163357 0.088207662
0.030981164 -0.003936958 0.083545446
0.028915837 -0.0016776109 0.083461881
0.030946082 -0.002994176 0.078574657
0.028961154 -0.00069684163 0.078861952
0.02834082 0.0022598933 0.074562609
0.030331541 0.0047206376 0.069405437
0.032067429 0.00539192 0.066381752
-0.018856304 0.02953694 0.060292304
-0.021104202 0.030630503 0.060291231
-0.027144611 0.033432323 0.060189664
-0.013740204 0.029145125 0.057605684
-0.017768055 0.029726556 0.057658553
-0.022448782 0.031512152 0.057301998
-0.026209593 0.032627292 0.056432545
-0.0068127178 0.029196868 0.052722812
-0.012578431 0.029271383 0.053288937
-0.017288078 0.030457607 0.053087354
-0.021950781 0.03230251 0.05278039
-0.025028072 0.033601943 0.052637577
-0.0019316608 0.029581241 0.049466252
-0.006588323 0.029972171 0.049936891
-0.011282412 0.029880092 0.049157858
-0.016889062 0.031076837 0.049450099
-0.021836072 0.03230764 0.048588991
-0.00084509794 0.030200839 0.045469642
-0.0058591655 0.030650653 0.044599235
0.0050868453 0.030837789 0.041720748
-0.0042127948 0.031257533 0.04067719
0.032015845 0.024580225 0.036782622
0.015458116 0.029486358 0.037101865
0.0058906055 0.030842792 0.037503123
0.030936547 0.026002314 0.034264088
0.021268146 0.029838646 0.033097744
0.029684316 0.026655259 0.028922439
0.022569694 0.029990617 0.029579282
0.033521488 -0.025030836 0.11323619
0.032509997 -0.0149682 0.092774391
0.031757336 -0.014233473 0.090259194
0.030191503 -0.012169993 0.089738011
0.032245815 -0.012504276 0.08397305
0.030863862 -0.0099909008 0.085726321
0.033194408 -0.010714825 0.080293953
0.032178681 -0.0075202505 0.08056742
0.031637352 -0.0050930744 0.075797141
0.029699676 -0.0020332551 0.075690269
0.030537454 -0.0050602527 0.071782053
0.029384013 -0.0016963128 0.071216404
0.031033959 0.00013856031 0.068246186
-0.027900521 0.031469002 0.052179039
-0.01317555 0.029571231 0.046126604
-0.017031748 0.030543687 0.045817256
-0.02185403 0.031563472 0.04590559
-0.025728125 0.031788833 0.045749664
-0.011635904 0.029942643 0.041979671
-0.016915826 0.030523993 0.041575253
-0.021114515 0.031489797 0.04185015
-0.0019385815 0.030596679 0.03744185
-0.0061084433 0.030361263 0.037453532
-0.010664947 0.029750522 0.03790617
-0.015327738 0.029737927 0.038348615
0.0047184508 0.02968407 0.033287168
-0.005126399 0.030601321 0.033698142
0.031145234 0.021550875 0.02981478
0.010621932 0.028700238 0.030136764
-0.00085157063 0.030355005 0.030127048
0.030462235 0.023924153 0.027080655
0.016278571 0.028571615 0.025661707
0.030072764 0.025369143 0.023009181
0.021944264 0.028231051 0.022048593
0.026723739 0.026952999 0.018275499
0.032456715 -0.016289862 0.085661411
0.033168465 -0.014997337 0.082599521
0.034191236 -0.012796939 0.080255985
0.032175742 -0.0094654039 0.07558167
0.030927643 -0.0066748951 0.069740832
0.030630387 -0.0057080318 0.066099286
-0.02264389 0.030104917 0.039552152
-0.0256577 0.030011289 0.038680375
-0.012388991 0.028832851 0.034973025
-0.016837362 0.029649241 0.035581827
-0.020759951 0.030333007 0.034400821
-0.024735086 0.031293247 0.033947051
-0.0077673076 0.029507626 0.03124547
-0.011479573 0.028997507 0.030843616
-0.015623534 0.029650776 0.029237747
-0.019990869 0.031149402 0.029084563
-0.023571253 0.033485856 0.029550314
-0.0001801597 0.029565159 0.027387261
-0.0056547215 0.029723976 0.0267784
-0.010351978 0.028894892 0.025849819
0.0052978694 0.029085036 0.023847938
-0.0039110398 0.030086743 0.021727443
0.030501317 0.02307526 0.019909978
0.016059279 0.027920328 0.0193609
0.0059326552 0.029993059 0.018259525
0.029909996 0.023271227 0.015465736
0.027109016 0.026407219 0.015255332
0.016781757 0.029127441 0.015126109
0.0068522384 0.030830145 0.014015675
0.029676979 0.024294255 0.010704219
0.027128194 0.026984435 0.010786891
0.017162515 0.029459981 0.01004976
-0.028751457 0.028963687 0.037214935
-0.011370445 0.029275851 0.024315357
-0.015199542 0.029064124 0.023822188
-0.020205773 0.030336875 0.022948146
-0.023612535 0.032434579 0.02366221
-0.005561525 0.029403891 0.020034194
-0.009703543 0.028530236 0.019993544
-0.015141374 0.028932158 0.01992023
-0.019396108 0.02986376 0.019605994
-0.0046286965 0.029467303 0.015615582
-0.0075536389 0.028884482 0.016693115
0.030805673 0.018325232 0.011871159
0.00068808347 0.0301359 0.011448979
-0.0030795634 0.03003104 0.010927498
0.030470306 0.020052003 0.0087081194
-0.025660139 0.030597456 0.020035982
-0.011629303 0.028194502 0.016822577
-0.015260616 0.028457619 0.016547084
-0.02056667 0.029754888 0.016263187
-0.025014414 0.029781476 0.016353369
-0.009779851 0.027848044 0.012845635
-0.015077394 0.028585404 0.012533426
-0.019920576 0.02948017 0.011634409
-0.024178909 0.029368818 0.013041794
-0.0036422703 0.029994188 0.0087720156
-0.009083108 0.029044013 0.0085310936
-0.014076999 0.028841794 0.0084705949
-0.018323923 0.029477 0.0086956024
-0.028339196 0.028621376 0.013114214
-0.021994635 0.029790826 0.0097721219
-0.026417537 0.028968293 0.0094006062
