# .PCD v0.7 - Point Cloud Data file format
VERSION 0.7
FIELDS x y z
SIZE 4 4 4
TYPE F F F
COUNT 1 1 1
WIDTH 651
HEIGHT 1
VIEWPOINT 0 0 0 1 0 0 0
POINTS 651
DATA ascii
-0.011582657 0.032668889 0.18999711
-0.014937985 0.032778978 0.18873173
-0.021734364 0.032739218 0.1883609
-0.026107501 0.033522245 0.18889135
-0.029777974 0.033414599 0.18827522
-0.026978809 0.034649428 0.18533444
-0.030515287 0.034949835 0.18413559
0.017267818 0.026979389 0.19304025
0.013654872 0.026816549 0.19305688
0.0043807919 0.027423322 0.19296169
-0.0064245374 0.026969731 0.19251707
-0.015455413 0.0269801 0.19206142
-0.020717999 0.027169703 0.19139335
-0.026296435 0.027119575 0.19191179
-0.030338677 0.02663481 0.19160518
0.027798118 0.029445114 0.18906349
0.024645956 0.029653074 0.18994448
0.018802594 0.030071201 0.19012067
0.013810658 0.030721666 0.19006518
0.0045488225 0.031830788 0.19029242
-0.0059006186 0.031695902 0.18967515
-0.016113443 0.030231891 0.18986413
-0.020074999 0.031016348 0.18943098
-0.026285337 0.030525981 0.19061607
-0.030364649 0.030522583 0.18980327
0.032532144 0.033510927 0.18642119
0.028771626 0.031824116 0.18515378
0.024846822 0.032080475 0.18602836
0.019657228 0.032887995 0.18588942
0.014058252 0.033262014 0.18532357
0.0048194109 0.033231556 0.18483454
-0.0059574274 0.033787131 0.18464136
-0.015186275 0.033493638 0.18398488
-0.02057543 0.03295207 0.18336478
-0.025399473 0.034276243 0.18336004
-0.029006723 0.034049686 0.18363801
0.029709686 0.033842925 0.18192577
0.024899218 0.033498887 0.18106753
0.019498546 0.034101844 0.18082583
0.014288687 0.033499479 0.18092245
0.0050602863 0.034066856 0.1799047
-0.0054212371 0.03436178 0.17938057
-0.014988351 0.033882618 0.17876986
-0.019621126 0.033285677 0.17814952
-0.025000013 0.034136232 0.17842591
-0.029598065 0.034980472 0.17873853
0.00065273291 0.035728514 0.1752612
-0.010184973 0.035183609 0.17527521
-0.020261165 0.03406024 0.1749509
-0.025280233 0.035266157 0.1738306
-0.029428519 0.035679396 0.17370674
-0.0022900044 0.036973 0.17225066
0.01286543 0.019902708 0.19328487
0.010534829 0.019841194 0.19312787
-0.005785916 0.019652724 0.19217733
-0.011562245 0.020521877 0.19314569
-0.015504239 0.020940183 0.19292814
-0.020535974 0.020425675 0.19189876
-0.025974708 0.02082604 0.19247359
-0.029334756 0.021383522 0.19324932
0.028276598 0.023266019 0.19129175
0.024579713 0.024425389 0.19212848
0.019725464 0.023475828 0.19260663
0.013602538 0.024066987 0.19407171
0.004326012 0.023651183 0.19334078
-0.0049364883 0.023166418 0.1921145
-0.01655647 0.02405691 0.1925244
-0.020426238 0.023679791 0.19209364
-0.02428556 0.023975788 0.19207937
0.029155454 0.026143493 0.18887874
0.024630161 0.026692571 0.19081384
0.021514218 0.027177574 0.19095838
0.029955307 0.028910639 0.18564233
0.02949788 0.032247964 0.17950901
0.026030481 0.033511046 0.1787748
0.022176377 0.033231739 0.17839831
0.014447466 0.033066213 0.1778993
0.029258154 0.032332841 0.17448512
0.025490507 0.033147637 0.17482764
0.020065198 0.033108175 0.17452717
0.014660561 0.032464862 0.17383277
0.0064036557 0.034315944 0.17339894
-0.010079338 0.034120083 0.17182249
-0.015222508 0.034062803 0.17310479
-0.019190416 0.034038603 0.17262521
-0.022479273 0.034700271 0.17249787
0.020296339 0.032482803 0.17042962
0.014857627 0.032368422 0.1700795
0.0053743506 0.034114242 0.16913021
-0.0047157751 0.034294069 0.16834
-0.014392461 0.033601165 0.16809058
-0.019442994 0.034342885 0.16802824
-0.024441563 0.035217997 0.16829285
-0.029558044 0.0348255 0.16760597
-0.020677336 0.034043133 0.16382527
-0.02378602 0.033999082 0.16363919
-0.030000154 0.034022566 0.1633417
0.034836896 0.015150729 0.19551235
0.019582368 0.016653778 0.19208699
0.014974305 0.01699424 0.19282249
0.0086819977 0.017232716 0.19252652
-0.00079640705 0.016498983 0.19277754
-0.01085499 0.015696106 0.19314122
-0.01627118 0.016170559 0.19315428
-0.020523766 0.015909789 0.19254935
-0.025000641 0.015788792 0.19201723
-0.028559415 0.015316066 0.19291431
0.032574926 0.020280067 0.18995827
0.029377056 0.019665183 0.1912463
0.024611888 0.020431461 0.1923877
0.032682367 0.021382514 0.18790218
0.031160111 0.021727921 0.18712357
0.031313036 0.025992872 0.1833975
0.030258892 0.031103315 0.17373234
0.029418932 0.030767741 0.16836149
0.025890967 0.031647209 0.1683003
0.020795852 0.03205955 0.16752052
0.015468576 0.032009184 0.1669524
0.0072468678 0.03298068 0.16638571
-0.015318415 0.032186508 0.16471964
-0.017643336 0.033074796 0.16519296
0.025760816 0.031329814 0.16388649
0.021464216 0.033063773 0.16342744
0.015987234 0.033484161 0.16343421
0.0058512324 0.033659577 0.163041
-0.0044797575 0.033562541 0.16228592
-0.014405939 0.032487571 0.16123497
-0.018878467 0.032609046 0.16085756
-0.023710787 0.033520933 0.16052645
-0.028866157 0.033474918 0.16079551
0.021284975 0.033585191 0.15955776
0.016316878 0.034042299 0.15883502
0.0060355114 0.033263922 0.15904289
-0.0037075086 0.033231318 0.1580618
-0.013204685 0.033014476 0.15728152
-0.019331157 0.032718182 0.15692958
-0.023812652 0.033290025 0.1562199
-0.028051794 0.033253845 0.15598226
-0.031442743 0.03291839 0.15692496
-0.032686673 0.036044773 0.15053558
0.034288403 0.010263148 0.19718283
0.023069348 0.0085150618 0.19417536
0.019923422 0.0084704179 0.19398704
0.014655757 0.0081584463 0.19414032
0.0089126742 0.0083145509 0.19332808
0.0041937837 0.0082477331 0.19304565
-0.005252854 0.0095428228 0.19334507
-0.010746417 0.0097079268 0.19316328
-0.016264401 0.0087015014 0.19273037
-0.020958867 0.0088630896 0.1921283
-0.025690604 0.007903276 0.19130474
0.03313978 0.012058499 0.19194886
0.029187499 0.011846843 0.19222957
0.024707107 0.011708559 0.19252962
0.020146722 0.012508275 0.19301268
0.014438386 0.012157799 0.19319382
0.0089653404 0.011604668 0.19257632
-0.00014854516 0.012259841 0.19269183
-0.0051909061 0.011958659 0.1929816
-0.0098888474 0.012082457 0.19281611
-0.016147161 0.012526808 0.19276547
-0.022408811 0.012266694 0.19228652
-0.025564807 0.011003552 0.19135717
0.037292674 0.015096132 0.19157606
0.034210186 0.015208068 0.19056857
0.030551409 0.014890435 0.19049367
0.02474354 0.015449824 0.19115204
0.031749811 0.027852478 0.16571146
0.031055724 0.029140892 0.16128111
0.026621135 0.031167688 0.16129193
0.030855862 0.030243816 0.1577791
0.026552087 0.031563763 0.15704197
0.022160914 0.032912675 0.15660769
0.016126923 0.033343971 0.15584534
0.0061810156 0.032686532 0.15584004
-0.0028925268 0.032646596 0.15516901
-0.014707684 0.032073498 0.154688
-0.018547878 0.032435954 0.15423951
-0.022741552 0.032904442 0.15359461
-0.029002678 0.032788094 0.15320098
0.03164275 0.032900278 0.15064856
0.026607929 0.031924788 0.15216234
0.022119671 0.03249288 0.1517854
0.01659682 0.03305912 0.15189677
0.0064079827 0.032473207 0.15098435
-0.0030142544 0.032413661 0.150471
-0.014005761 0.032245696 0.14980489
-0.018714041 0.03222239 0.14955208
-0.023401245 0.033281263 0.15004459
-0.028096866 0.033497628 0.14995798
-0.031176429 0.034406837 0.14948475
0.031698734 0.03391761 0.14945588
0.025455702 0.033000771 0.14850914
0.021523295 0.032945041 0.1482738
0.016803868 0.032892048 0.14800093
0.0018612527 0.032666504 0.14709699
-0.0080826422 0.033560812 0.14549014
-0.01887295 0.032669306 0.14530081
-0.023432694 0.033281144 0.144593
-0.027933694 0.033691045 0.1444141
-0.031067401 0.034751531 0.14594305
-0.007734749 0.034938872 0.14201114
-0.024113774 0.034768518 0.14091516
-0.027730763 0.035388585 0.13989794
-0.030887604 0.035782512 0.14097077
-0.026224215 0.0025034524 0.19515026
0.032567292 0.005620542 0.19475052
0.029446229 0.0059816269 0.19389111
0.024659846 0.0058832788 0.19450748
0.01985245 0.0064416546 0.1955145
0.014084282 0.0056252494 0.19503418
0.008878069 0.0050460706 0.19371942
0.0041397824 0.0052080755 0.1935733
-0.0053425492 0.0051777954 0.1934621
-0.010073245 0.0053111902 0.19329959
-0.015484016 0.0050454126 0.19299263
-0.021114748 0.0047830325 0.19241443
-0.025828443 0.0054674125 0.19258371
-0.028969955 0.005807159 0.19262728
0.030050792 0.0083455471 0.19197851
0.034547884 0.028221134 0.15612313
0.031768959 0.029413821 0.15471151
0.031106496 0.030459763 0.15147495
0.02775358 0.032093111 0.14989755
0.030365234 0.030720117 0.14622229
0.027388886 0.032303933 0.14597887
0.022670686 0.03297675 0.14590466
0.016952738 0.03292346 0.14517382
0.0068979124 0.03187561 0.14465654
-0.0011374085 0.033885598 0.14398754
-0.015339258 0.032762647 0.14344731
-0.018077277 0.032909155 0.14293638
-0.021590501 0.033706184 0.14284024
-0.031026352 0.033682641 0.14235228
0.03216083 0.032014851 0.14243355
0.026639251 0.031743769 0.14196807
0.022675263 0.031953637 0.14191708
0.017508812 0.032322943 0.14109626
0.0068820426 0.031344593 0.1407021
-0.002339137 0.033450246 0.13956237
-0.013554438 0.034041703 0.13870186
-0.018323265 0.033327997 0.13891834
-0.02249245 0.034203466 0.13868934
-0.0077212262 0.034689724 0.13542187
-0.018195834 0.033406794 0.13514462
-0.023059595 0.034590837 0.13405919
-0.027571239 0.035390493 0.134161
0.027955282 -0.0011647319 0.1941345
0.023071896 0.0013629218 0.19539416
0.01996045 -5.4476899e-05 0.19438717
0.013846405 -0.00021886705 0.19459176
0.0088365469 -0.0013368122 0.19397449
0.0040575899 -0.00068753923 0.1941165
-0.00070472615 -0.00048714882 0.19399098
-0.0054618027 -0.00089418935 0.19350412
-0.010222308 -0.0010046372 0.19319358
-0.01498235 -0.00099563727 0.19295439
-0.019987635 -0.00048297818 0.19269511
-0.023779847 -0.001794996 0.19386816
0.028735247 0.0012919332 0.19379711
0.026372418 0.00092202658 0.19345373
0.032853402 0.0046831397 0.1905095
0.030628225 0.029135825 0.14226341
0.03163429 0.029486479 0.13871196
0.027887149 0.030125977 0.13842273
0.022891724 0.030756118 0.1382055
0.016861608 0.031605184 0.13792646
0.0070210369 0.031172335 0.13770798
0.034215208 0.030161027 0.13545728
0.026845703 0.029830815 0.13421121
0.022959778 0.030499281 0.13344365
0.017597554 0.030640246 0.13303524
0.0072291205 0.031972349 0.13346404
-0.0020505143 0.032834291 0.13306528
-0.017059356 0.033143461 0.13244668
-0.021236453 0.033392847 0.13113058
0.01750071 0.031568944 0.12981683
0.0072761131 0.032613039 0.12835926
-0.0020930814 0.032322466 0.12841308
-0.01158978 0.034014642 0.12818551
-0.016609736 0.032429814 0.12735271
-0.022032812 0.032465871 0.12720126
-0.027148793 0.031725701 0.12722504
-0.012082393 -0.0087995538 0.19495493
-0.015334683 -0.0098777423 0.19547907
-0.019032136 -0.0092053432 0.19497666
0.019300165 -0.0048465114 0.19242066
0.015260191 -0.0058506713 0.19316155
0.0091232872 -0.0062825074 0.19419622
0.003993277 -0.0066675539 0.19426158
-0.0052553765 -0.0070394282 0.1933803
-0.010372526 -0.0066216597 0.19354886
-0.015159237 -0.0065456643 0.19334716
-0.02015356 -0.0061953682 0.19290057
-0.023109879 -0.0051955003 0.19373536
0.036090601 0.027646843 0.13182789
0.032127477 0.028211001 0.13358322
0.028349025 0.02935678 0.13226983
0.02489814 0.029993059 0.13099915
0.031831935 0.028818132 0.12904394
0.028488843 0.029495182 0.12831986
0.023290114 0.030373873 0.12754357
0.018721407 0.030911447 0.12690341
0.013488331 0.031488478 0.12650371
0.0020101899 0.032329798 0.12570691
-0.0059503121 0.031971335 0.12505305
-0.015505697 0.031999826 0.12459946
-0.021611692 0.031786021 0.12414205
-0.027812021 0.030968664 0.1240232
-0.030696532 0.02971041 0.12219262
0.02846854 0.029256286 0.12480086
0.02370874 0.029855194 0.12369269
0.01891326 0.030565502 0.12331748
0.013341517 0.031299412 0.12259495
0.0029779123 0.032431126 0.12192506
-0.0065965867 0.032730997 0.12166947
-0.016165487 0.032462478 0.12099952
-0.021536324 0.032277402 0.12077665
-0.027014056 0.031952854 0.11989653
-0.030549677 0.031217216 0.11938238
0.0031642923 0.031731665 0.11750507
-0.0069252653 0.032734513 0.11643153
-0.016040759 0.031622767 0.11647522
-0.021223081 0.031697154 0.11578202
-0.026103914 0.032646354 0.11519986
-0.0026684259 -0.015977979 0.1968177
-0.010707612 -0.013504506 0.19783747
-0.013908661 -0.012412132 0.19830585
0.0095435241 -0.012319147 0.19493267
-0.0011353332 -0.012899101 0.19444141
-0.0057472019 -0.012607277 0.1949054
-0.010368622 -0.011272491 0.1956794
-0.015435944 -0.01167971 0.19680163
-0.020165009 -0.010992529 0.19510585
0.028257204 -0.011491713 0.1917226
0.025054656 -0.0095062833 0.1908693
0.020209432 -0.0097227674 0.19111395
0.015279359 -0.0098127117 0.19298166
0.010413853 -0.0095688095 0.19380495
-0.0072107194 -0.0093009481 0.19305551
0.032995127 0.025958184 0.13047332
0.034301151 0.025980715 0.12664741
0.032677755 0.027809147 0.1220004
0.028625479 0.029526236 0.12206519
0.024215257 0.030129077 0.12179446
0.019028747 0.030285003 0.12116057
0.013499248 0.0309608 0.11941683
0.032092437 0.028122429 0.11826432
0.028900044 0.02975929 0.11733019
0.024059666 0.030173959 0.11739528
0.019229015 0.03050405 0.11739874
0.013635044 0.031360745 0.11676669
0.0032785321 0.032170236 0.11507803
-0.0052471878 0.0325436 0.11440718
-0.01597579 0.031436265 0.11437428
-0.019976972 0.031669199 0.11434793
-0.023900788 0.032693442 0.11294001
-0.029261589 0.032366212 0.11309016
0.024294535 0.029877366 0.11323988
0.019479098 0.030551614 0.11270845
0.013866999 0.031817913 0.11218154
0.0034758104 0.03287977 0.11087555
-0.0063473759 0.033172488 0.1104598
-0.015843043 0.031304717 0.11033428
-0.020655805 0.031549454 0.11027861
-0.02541469 0.032747682 0.10994512
-0.029422991 0.032702442 0.10971385
0.0094359526 0.033157587 0.10741252
-0.0011609189 0.033214629 0.10653657
-0.010804991 0.032889068 0.10581762
-0.015667785 0.032135308 0.10600656
-0.020492263 0.032138824 0.1057719
-0.025313199 0.032250877 0.10561812
-0.02933855 0.031996246 0.10522938
0.023250999 -0.019681929 0.19600728
0.020015722 -0.019727765 0.19581363
-0.0002259 -0.018267632 0.19561547
0.024539011 -0.017450331 0.19336474
0.020156277 -0.017984031 0.19309422
0.015250266 -0.016393481 0.19377238
0.010317532 -0.016614556 0.19525543
-0.0001590591 -0.016915143 0.19453973
0.028318109 -0.014915165 0.19157204
0.025118811 -0.014409302 0.19077063
0.020596718 -0.014625249 0.19059744
0.016997354 -0.014450727 0.1912632
0.03283456 0.026676062 0.11526412
0.032651111 0.026753072 0.10935384
0.029297838 0.028839828 0.11073422
0.024494557 0.029166998 0.10974693
0.019656437 0.02971703 0.1094203
0.029551918 0.030531945 0.10603529
0.024740448 0.029822471 0.10526586
0.019905107 0.029459955 0.10475618
0.01524132 0.030193212 0.10482627
0.0037831096 0.031569123 0.10355216
-0.0058938591 0.031054378 0.10268867
-0.015579811 0.03054863 0.10183138
-0.020417014 0.030983565 0.10192102
-0.02525763 0.03091502 0.10163128
-0.029294861 0.030749915 0.10130841
0.029758325 0.03102869 0.10242254
0.025750605 0.03029597 0.10167181
0.01522321 0.030362429 0.10120463
0.0039546723 0.031862676 0.09978193
-0.00573711 0.031022251 0.098669708
-0.015693875 0.030688463 0.098500013
-0.02028895 0.031181334 0.098074555
-0.025128899 0.031537469 0.09810698
-0.029981205 0.031307336 0.097694814
-0.033107851 0.032949861 0.096787095
0.0039050141 0.032755256 0.095106483
-0.0072044609 0.032089472 0.095393956
-0.025816387 0.031852718 0.094300568
-0.030581743 0.033057507 0.092977881
-0.033087913 0.032098886 0.094132245
0.010332709 -0.02073139 0.19473144
0.029169695 0.030202331 0.098756194
0.024863845 0.03007585 0.098879755
0.020212086 0.029756548 0.098983765
0.015364545 0.030048789 0.098393023
-0.014568998 0.030281542 0.095664859
0.029410647 0.029015126 0.094839036
0.02538844 0.030330183 0.093626082
0.020471739 0.031217219 0.094066024
0.01558604 0.031583071 0.094107628
0.0054915519 0.032571435 0.092859864
-0.0052940408 0.031988502 0.093144119
-0.015236272 0.031069336 0.092203081
-0.020098222 0.031333983 0.092168689
-0.024704257 0.031741258 0.09168011
-0.028190637 0.031803664 0.092132688
0.020399114 0.031326771 0.089289188
0.015627701 0.031668305 0.088682413
0.0055361362 0.03237921 0.088835716
-0.005527935 0.032629967 0.088392735
-0.015033665 0.031774402 0.086939752
-0.019901557 0.031804383 0.086471796
-0.024762686 0.032454725 0.086738527
-0.028790437 0.033603366 0.087433934
-0.026233092 0.033002611 0.082015038
-0.027812507 0.033762749 0.081515193
0.028727619 0.028746309 0.092575788
0.029593913 0.028699042 0.088925898
0.025677221 0.03022057 0.088487566
0.021275658 0.031398416 0.086644411
0.016802358 0.031807363 0.086235762
0.0062204944 0.031417072 0.085415184
-0.0043705264 0.03130722 0.084812522
-0.014959405 0.031357586 0.08433485
0.029675284 0.029623451 0.083118618
0.025966482 0.030119361 0.083325326
0.021090163 0.030645432 0.082477331
0.01618032 0.030762734 0.082329512
0.006128964 0.030394614 0.081988931
-0.0042418754 0.030390263 0.081041753
-0.014858569 0.031034468 0.081028283
-0.019748246 0.031400979 0.081076622
-0.023829469 0.031203328 0.080722511
0.025886359 0.030638339 0.07881099
0.021109529 0.031437635 0.078232646
0.016414652 0.031432033 0.077742994
0.0065967785 0.031150997 0.077043653
-0.0035606241 0.030921161 0.076573372
-0.014062497 0.030445037 0.076303124
-0.019635873 0.030349372 0.076161385
-0.024546048 0.0303331 0.075909555
-0.027760299 0.031559225 0.075695753
0.001842455 0.032218874 0.073546171
-0.0090783229 0.032064199 0.072892606
-0.029281737 0.031778093 0.071683407
0.03093048 0.024968149 0.083652377
0.031038823 0.029345812 0.080919266
0.029983481 0.029937925 0.077736378
0.026781043 0.030604543 0.076050282
0.023072513 0.031535391 0.076093912
-0.015475503 0.030258177 0.074235678
-0.019534653 0.030683992 0.073347092
-0.024471747 0.029693065 0.072320938
-0.028561244 0.030192969 0.072518706
0.025781462 0.02884257 0.072020352
0.021309547 0.030352773 0.072177291
0.016745573 0.030590715 0.071161866
0.0068944404 0.032414854 0.070852399
-0.0029488159 0.032142937 0.070157051
-0.012835528 0.030715225 0.069568634
-0.018702203 0.030294714 0.069637179
-0.024148261 0.030752419 0.069049358
-0.029218951 0.031855699 0.069426537
0.0070377076 0.03227973 0.067646027
-0.0019895798 0.030988038 0.066168666
-0.011045034 0.030463098 0.06530726
-0.029958973 0.031203447 0.064987063
-0.030733718 0.031039415 0.062739134
-0.030582283 0.032593306 0.059841156
0.031425614 0.026820304 0.074829459
0.031033704 0.026771368 0.070209861
0.027150465 0.027946295 0.069815636
0.02183296 0.029134693 0.068605304
0.016896183 0.029712262 0.068135858
-0.014415777 0.029559968 0.066495419
-0.016887167 0.029498516 0.066326261
-0.022652907 0.029443322 0.066002429
0.030999212 0.027919235 0.064877987
0.02697981 0.028331043 0.065431476
0.022241494 0.029286982 0.065376997
0.017047847 0.029874744 0.065152824
0.0072122132 0.030874074 0.063399315
-0.0029332738 0.030176461 0.062790871
-0.012634086 0.029977856 0.063104033
-0.01760949 0.029551385 0.063213408
-0.022556746 0.029666482 0.063066363
-0.027481699 0.02982056 0.062257707
-0.030669158 0.031446751 0.060989857
0.031302232 0.029316129 0.06225878
0.027204802 0.029612781 0.061254561
0.022058344 0.029893996 0.060448527
0.017301567 0.030143978 0.060159862
0.0077437321 0.03002131 0.058760703
-0.0025154192 0.030489922 0.058437467
-0.012490935 0.029530166 0.058570564
-0.017482819 0.028918264 0.058529913
-0.022623131 0.029346703 0.057844281
-0.027149132 0.02968186 0.057374477
-0.03141157 0.030777154 0.056229711
0.015825145 0.030962171 0.056562543
0.013339383 0.030979695 0.056456923
-0.0070708534 0.031638443 0.054512382
-0.023925839 0.030188678 0.054010808
-0.030547528 0.030252753 0.053743958
0.031476218 0.029460432 0.059239984
0.027384164 0.029538156 0.058055997
0.024067258 0.029508652 0.057871819
-0.013236503 0.029112099 0.055746794
-0.017383607 0.028781233 0.055276275
-0.020693781 0.029138146 0.055408061
0.030891461 0.028360965 0.055156231
0.027266892 0.028565647 0.054304004
0.022366246 0.029442431 0.054124534
0.01784165 0.030128779 0.053604245
0.007664402 0.029840767 0.05314064
-0.0016127926 0.030888498 0.052714407
-0.012721094 0.030121325 0.052088857
-0.017239904 0.02955818 0.051707804
-0.021994555 0.030053316 0.05162406
-0.027189469 0.029879926 0.05149436
-0.030518899 0.029444037 0.0509758
0.017024187 0.029544594 0.049119949
0.012896591 0.029974522 0.048217654
0.0029073332 0.029850304 0.047634304
-0.0070835045 0.030521393 0.047710419
-0.022495965 0.029462455 0.046620965
-0.026180873 0.030125199 0.045403719
0.029422471 0.026995542 0.051849484
0.02279436 0.028422119 0.050587893
0.027479609 0.027311029 0.048074365
0.02317466 0.028500797 0.047943294
0.018368447 0.029182972 0.04729259
0.014715579 0.030034544 0.045169294
0.0030438316 0.029816866 0.044427037
-0.006962656 0.029831946 0.043959141
-0.013178776 0.028574644 0.04544723
-0.017082253 0.028414665 0.045480669
-0.022015905 0.029251991 0.04417026
0.027349064 0.027780594 0.043893874
0.022996468 0.029019834 0.042852163
0.018150168 0.030299904 0.04342562
0.012937349 0.030533912 0.043105721
0.0031321731 0.030584395 0.042678058
-0.006875108 0.030403495 0.042046189
-0.01690737 0.028775273 0.040466428
-0.021694278 0.029285906 0.040397286
-0.026037494 0.030047355 0.040028274
0.02175119 0.029440405 0.038600564
0.018167684 0.031214656 0.038397908
0.013416917 0.031245591 0.037584245
0.0033417707 0.030954897 0.037927508
-0.0066868169 0.030721724 0.03725028
-0.01676655 0.029207585 0.036559343
-0.022572869 0.030223308 0.036067784
-0.026704257 0.030989824 0.035447955
-0.03002583 0.031695362 0.035887122
0.016951915 0.031895101 0.034012377
-0.028224643 0.032476362 0.0323506
0.029773595 0.025006415 0.045970917
0.028388279 0.026625099 0.040480673
0.025050642 0.028150083 0.039815009
0.027802659 0.027067782 0.035811067
0.023569779 0.028430941 0.036043704
0.019450499 0.029607179 0.0343346
0.0035017368 0.029701948 0.033652782
-0.0065621985 0.029793501 0.033249497
-0.012469883 0.029397247 0.033705711
-0.016663725 0.029064653 0.033222795
-0.021027802 0.02917379 0.0333215
0.02294494 0.027881088 0.031954885
0.019106803 0.02997929 0.031185031
0.01371085 0.030807199 0.031387985
0.0036414873 0.029586911 0.030326903
-0.0066641262 0.029765666 0.029524982
-0.016518684 0.029721199 0.029479146
-0.021554878 0.02974504 0.029259026
-0.026546312 0.030362723 0.028470218
0.013861713 0.030279519 0.028164923
-0.0021066226 0.029081166 0.026373565
-0.011290702 0.030572532 0.025051594
-0.016416995 0.029448746 0.026007235
-0.022305625 0.029456137 0.025732875
-0.028110741 0.030438481 0.024134994
0.0281037 0.02702147 0.030385911
0.024467407 0.027407946 0.029820085
0.028430706 0.027653458 0.024424076
0.024191124 0.027876498 0.024415255
0.019078506 0.028863015 0.025022507
0.014043965 0.029499294 0.024245799
0.0038841863 0.028998613 0.024416566
-0.0058522625 0.029490232 0.023073316
-0.01632273 0.028388022 0.021838784
-0.021160396 0.028345285 0.022037208
-0.025887659 0.028771458 0.022077262
0.022735571 0.028956713 0.019825935
0.019371619 0.029772045 0.019282818
0.014286601 0.030043842 0.019278824
0.0041472232 0.029831469 0.018611848
-0.0060006147 0.030843675 0.019011617
-0.015942691 0.028591989 0.01684922
-0.020375883 0.028577326 0.016352057
-0.024284745 0.028344331 0.016401529
0.017881813 0.030159654 0.01516968
0.014080712 0.03058845 0.014817178
0.0043245507 0.030328035 0.014674723
-0.0060228361 0.031324744 0.013492227
0.028012386 0.025248768 0.01684922
0.024873978 0.027507009 0.01800859
-0.026335226 0.02703434 0.014725387
-0.028119409 0.025822638 0.015778661
0.024436263 0.027326884 0.013433695
0.020014355 0.029413285 0.013294935
0.015426968 0.030691387 0.013323963
0.0044158967 0.030432522 0.012574315
-0.012533686 0.029523788 0.010970592
-0.01511795 0.028978763 0.011467278
-0.019360358 0.028834997 0.01113981
-0.024234114 0.027082978 0.010470331
0.02326251 0.028748812 0.0097756386
0.019343728 0.029253842 0.0085618496
0.029758042 0.023361148 0.016391933
0.029145671 0.023438158 0.012015581
0.026037773 0.026844682 0.011173487
-0.026270742 0.024770914 0.0083441734
-0.028153831 0.021244405 0.0084834695
