# .PCD v0.7 - Point Cloud Data file format
VERSION 0.7
FIELDS x y z
SIZE 4 4 4
TYPE F F F
COUNT 1 1 1
WIDTH 1014
HEIGHT 1
VIEWPOINT 0 0 0 1 0 0 0
POINTS 1014
DATA ascii
-0.01933389 -0.028072886 0.18990543
-0.023693817 -0.02595846 0.18622625
-0.018325299 -0.031152321 0.1861566
-0.027450031 -0.010249647 0.19197428
-0.02237164 -0.016109526 0.19192395
-0.014712393 -0.024204828 0.19227374
-0.0086566806 -0.029713055 0.1917963
-0.03227593 -0.0082073789 0.187998
-0.030157648 -0.010868682 0.18966082
-0.025024125 -0.018779933 0.18999416
-0.017306548 -0.026236963 0.19179949
-0.011117593 -0.031727295 0.18873987
-0.032918289 -0.00875533 0.18671012
-0.031587057 -0.012200564 0.18545979
-0.026943274 -0.019930677 0.18515041
-0.021383386 -0.028630171 0.18387464
-0.012334958 -0.032920729 0.18358412
-0.027723521 -0.02056901 0.17995733
-0.020909632 -0.02903118 0.18016353
-0.013245319 -0.033060163 0.17930454
-0.025691275 -0.025871938 0.17570028
-0.017656654 -0.032060951 0.1752567
-0.023514993 -0.028900936 0.17161933
-0.0068827495 -0.022753736 0.19270143
-0.0035776002 -0.02533531 0.192781
-0.028602198 -0.0029125959 0.1902867
-0.026538331 -0.0071557099 0.19211096
-0.019672003 -0.013487451 0.1923098
-0.012637761 -0.019971339 0.19188267
-0.0052175969 -0.028364593 0.19125241
-0.0018553492 -0.02935937 0.1889649
-0.031397976 -0.0036816811 0.18771553
-0.029534547 -0.0078150593 0.19016436
-0.0069859382 -0.031091806 0.18701443
-0.0031801499 -0.0314488 0.18556085
-0.032607473 -0.0054370509 0.18358999
-0.031959102 -0.010770381 0.18250909
-0.0083207656 -0.032132544 0.18261027
-0.0048461817 -0.031469066 0.18110734
-0.031742439 -0.0070497682 0.17993343
-0.031819284 -0.011447992 0.17874724
-0.010667982 -0.032647684 0.17694661
-0.0060307747 -0.031886138 0.17772192
-0.03152208 -0.012054555 0.17307821
-0.028807767 -0.019618623 0.17412302
-0.013005219 -0.032843728 0.17235181
-0.028154869 -0.02056402 0.16935182
-0.021489613 -0.028662017 0.168571
-0.012819647 -0.03247254 0.1684016
-0.02510798 -0.023577193 0.16517723
-0.021515034 -0.0026767459 0.19204491
-0.018473782 -0.0057251668 0.19210282
-0.011639483 -0.012191188 0.19255894
-0.0036250269 -0.019036071 0.19255748
-9.9660829e-06 -0.02298148 0.19242722
0.0034349877 -0.025794063 0.19088322
0.0066119311 -0.029192533 0.18982595
0.0096760998 -0.031625427 0.18843693
-0.032596409 0.0070191789 0.18836123
-0.030960903 0.0038244082 0.18956086
-0.028607946 0.00045790058 0.19063801
-0.025329709 -0.0025894567 0.19152558
0.00092015881 -0.029625792 0.18857548
0.0042383838 -0.031271294 0.18720514
0.0083461003 -0.032742053 0.18584657
-0.032842107 0.002501864 0.18571889
-0.0010781204 -0.031748801 0.182612
0.002914371 -0.032309022 0.18275571
0.0066890502 -0.033577733 0.18192163
-0.033593096 0.00072783418 0.18165636
-0.032901086 -0.0023855157 0.18101281
-0.00217635 -0.031764258 0.17910567
0.0018430306 -0.032268845 0.17846906
-0.033278245 0.00049364939 0.17753553
-0.032623507 -0.0041619185 0.17777404
-0.031810306 -0.0068298355 0.17618504
-0.0086916583 -0.032049008 0.17356694
-0.0035176193 -0.031789139 0.17437217
-0.032164589 -0.0047666673 0.17363667
-0.032044452 -0.0082184291 0.17194948
-0.0090564182 -0.03222651 0.17012069
-0.0053242883 -0.032566577 0.16970807
-0.032008305 -0.010811622 0.16764358
-0.028560776 -0.018317815 0.16649684
-0.011374969 -0.03233511 0.16522536
-0.0061862217 -0.033608332 0.16556019
-0.031763162 -0.012424177 0.16275293
-0.028058898 -0.019491849 0.16279367
-0.021128118 -0.027969843 0.16251293
-0.012988841 -0.032262459 0.16094518
-0.028349997 -0.020009799 0.15802401
-0.022115348 -0.027558085 0.15810025
-0.026107324 -0.023862232 0.15412
-0.019723479 -0.02965636 0.15387386
-0.0024308607 -0.0098525863 0.19282657
0.0008426453 -0.013247055 0.19263658
0.0049194698 -0.017189264 0.19265553
0.0090999994 -0.020556444 0.19166642
0.016089721 -0.026939929 0.19138119
0.019747129 -0.03041265 0.19131908
0.021238362 -0.032860279 0.190851
-0.024874672 0.0091451379 0.19029701
-0.022476766 0.0058736131 0.19139048
-0.018749032 0.0017792825 0.19172579
-0.014476379 -0.002130066 0.19203836
-0.0079697333 -0.0086593898 0.19310102
-0.0045341742 -0.012401694 0.19251585
-0.0004778658 -0.015570222 0.19232947
0.002641906 -0.020195987 0.19269598
0.00692447 -0.022580091 0.19163856
0.010265758 -0.025851499 0.19045389
0.013525862 -0.029203823 0.18933722
0.017462231 -0.031961095 0.18858492
0.020378919 -0.035054378 0.18818009
-0.032306261 0.014223503 0.18716419
-0.031482659 0.010748441 0.18794078
-0.027749421 0.0079313889 0.18983459
-0.024798587 0.0035795067 0.19063857
-0.022837479 0.0010909727 0.19070724
0.011689713 -0.032844402 0.18521944
0.014924685 -0.034106568 0.18419254
0.01843603 -0.036847889 0.18399924
-0.03342006 0.013318971 0.18436155
-0.033403412 0.0088828886 0.18338314
0.0097822798 -0.033528663 0.17958608
0.014214934 -0.034057003 0.17943251
0.017177107 -0.037550312 0.17928061
-0.034342673 0.0076439166 0.17905509
-0.03384155 0.003664582 0.17973077
0.0036851075 -0.032382481 0.17595693
0.0076442761 -0.033452231 0.17566675
-0.034775153 0.0065558208 0.1743395
-0.033757687 0.0027665282 0.17473069
-0.03243757 -0.0017505987 0.17435461
0.00262996 -0.032116491 0.17172116
0.0065210657 -0.032778729 0.17102134
-0.033660829 0.0022129621 0.17017794
-0.032409579 -0.0022604121 0.17060155
-0.0031807832 -0.033038791 0.16754013
0.00093778223 -0.032893531 0.16756141
-0.033849567 0.00082077459 0.16649884
-0.032936096 -0.0029902104 0.16603786
-0.031938214 -0.0078352569 0.16439983
-0.0060774339 -0.033373371 0.16260192
-0.001369033 -0.033868603 0.16372049
-0.033038042 -0.0039829817 0.16190618
-0.032157283 -0.0086261928 0.16016445
-0.0088059017 -0.031435575 0.15845034
-0.0058491481 -0.032474481 0.15928265
-0.031765502 -0.010308427 0.15551066
-0.029224062 -0.018234719 0.15557188
-0.012346726 -0.031342361 0.15457729
-0.02837747 -0.019355437 0.15186071
-0.022330701 -0.026566472 0.15101254
-0.013040267 -0.031539217 0.14973468
-0.028071489 -0.019314378 0.14741993
-0.0227484 -0.026709663 0.14656198
-0.015590577 -0.031393636 0.14492863
-0.019765424 -0.030123381 0.14179146
0.011266061 -0.014311934 0.19375181
0.014749119 -0.017537979 0.1933994
0.016442189 -0.020344742 0.19501841
0.017356526 -0.023772633 0.19461092
-0.017933028 0.01042533 0.19208026
-0.013679845 0.0063220207 0.19250393
-0.010034698 0.0026154215 0.19239569
-0.0069354512 -0.00099523598 0.19237086
-0.00023349235 -0.0077373208 0.19281906
0.0037921688 -0.010453143 0.19293791
0.0076667704 -0.014235192 0.19275147
0.011499654 -0.018358383 0.19245452
0.014084565 -0.02239079 0.19191182
0.017225699 -0.025961652 0.19295189
0.019242946 -0.028374407 0.19277546
-0.028965529 0.019071395 0.18889314
-0.026322596 0.015681619 0.18930662
-0.02314451 0.012345061 0.19059122
-0.019698648 0.0086615728 0.19175053
-0.016593814 0.0050593209 0.19172123
-0.013846109 0.0010873331 0.19200382
-0.031479813 0.018096173 0.18640894
-0.029257204 0.013841495 0.18864557
-0.03340701 0.014952433 0.18165368
0.014647924 -0.03453467 0.17691606
0.016766503 -0.036436193 0.1768598
-0.034430295 0.01347784 0.17735368
-0.034720518 0.010360744 0.17691839
0.010648063 -0.033347182 0.17296866
0.013907546 -0.034352481 0.17326507
0.017074209 -0.036758147 0.17343339
-0.035591435 0.012013992 0.17385763
-0.035195872 0.0093492419 0.17253515
0.0089221159 -0.032999098 0.16900292
0.013011565 -0.033188701 0.16894832
-0.03459749 0.0076244418 0.16809538
-0.034548767 0.0037381649 0.16809964
0.0035770014 -0.033111326 0.16513985
0.0068563744 -0.033290885 0.16452375
-0.034069154 0.0030597001 0.16408122
-0.032893732 -0.00014879927 0.16267887
0.0023013046 -0.033252437 0.16076729
0.0054001128 -0.033400543 0.16059488
-0.033324689 0.0018817112 0.16012996
-0.033222079 -0.0020292029 0.15951639
-0.0043524187 -0.032028239 0.1564436
0.00011973269 -0.032517258 0.15664849
-0.032631967 -0.003208695 0.15490773
-0.0325789 -0.0070349183 0.15420681
-0.0080978638 -0.030464735 0.15199977
-0.004491196 -0.031440005 0.15247276
-0.031778794 -0.0089960862 0.14960682
-0.030747078 -0.012650684 0.14912909
-0.0098091988 -0.031133771 0.14749306
-0.0066679586 -0.031072693 0.1473527
-0.031498659 -0.0097740591 0.14536381
-0.028474426 -0.018536588 0.14470875
-0.013664916 -0.032272369 0.14393392
-0.010328483 -0.032007776 0.14052474
-0.027962036 -0.018445855 0.14004734
-0.023244204 -0.026355639 0.13980192
-0.015244085 -0.032233752 0.13940462
-0.011360941 -0.032883305 0.13859862
-0.025288798 -0.021953352 0.13616759
-0.019572688 -0.029569527 0.13496742
-0.021918282 0.024413383 0.1940231
-0.020602537 0.023414245 0.19473067
-0.015379541 0.017426113 0.19372123
-0.012924138 0.015399175 0.19337729
-0.0089870449 0.01146208 0.19309115
-0.0036624218 0.0066760913 0.19249621
-0.0010297101 0.0036769544 0.19244638
0.0022667893 0.00076390599 0.19252172
0.005316569 -0.0023707584 0.19233271
0.0084640048 -0.0055333688 0.19238776
0.011689434 -0.0099402592 0.19260949
0.015449654 -0.013785028 0.19321314
-0.032493599 0.027342167 0.19221318
-0.028778207 0.026307398 0.19221789
-0.025303595 0.02334588 0.19229534
-0.021534437 0.020421432 0.19169262
-0.018646743 0.01651985 0.19187918
-0.01546054 0.012878628 0.19274855
-0.011788882 0.0093365293 0.19298515
-0.0068465187 0.0057705115 0.19246089
-0.0040628389 0.001799891 0.19271934
0.0024110966 -0.0051720534 0.19244248
-0.033451829 0.02727286 0.1885176
-0.031078093 0.024527553 0.18895739
-0.02816792 0.020985516 0.18961412
-0.02417649 0.017818473 0.19023374
-0.035730097 0.026294947 0.1848672
-0.032955416 0.022939986 0.18489963
-0.036354024 0.026197571 0.18007329
-0.033225615 0.022868458 0.17969543
-0.032713763 0.018967746 0.18080196
-0.033555299 0.021644019 0.17574865
-0.033164307 0.018080633 0.17539963
0.015859913 -0.03383749 0.16970077
0.021163862 -0.034382135 0.16922158
-0.033518478 0.016304534 0.17067683
0.011252185 -0.032536939 0.16578677
0.01537707 -0.033079341 0.16586527
0.019562207 -0.034343112 0.1674791
-0.034352086 0.010939941 0.16619006
0.011128128 -0.032514878 0.16207099
0.013406144 -0.032550685 0.160956
-0.034129485 0.0086601507 0.16176271
-0.033566616 0.0049859211 0.16079679
0.0084675997 -0.03300095 0.15794072
-0.033855289 0.0083909295 0.15757012
-0.033106416 0.0046465117 0.15692049
-0.032335315 0.00094038621 0.15625092
0.0034570023 -0.032236733 0.15397924
0.0067453301 -0.032751966 0.15338933
-0.032602724 0.0032461844 0.15251952
-0.03214176 0.00056391768 0.1521337
-0.0026326114 -0.031750623 0.14975631
0.0015884507 -0.031548291 0.14967227
0.0056070462 -0.032792188 0.14979789
-0.031942077 -0.0016304962 0.14804155
-0.031896595 -0.0054579834 0.14744252
-0.0039798226 -0.031373296 0.1455186
-9.204261e-05 -0.031373195 0.14541286
-0.031672597 -0.0071289642 0.14276484
-0.030257951 -0.011636012 0.14173082
-0.0065804506 -0.030721284 0.14147899
-0.0026866766 -0.031461291 0.1420123
-0.03117997 -0.0084111728 0.13881788
-0.028590214 -0.016377689 0.13726717
-0.013004718 -0.032140546 0.13625047
-0.0083109867 -0.031555131 0.13636914
-0.028670266 -0.018190367 0.13406071
-0.022546407 -0.025704065 0.13259363
-0.01448036 -0.031890195 0.1324307
-0.011114348 -0.032311998 0.13145906
-0.029083528 -0.018835835 0.12927002
-0.022728628 -0.025660168 0.12880343
-0.015357159 -0.03112559 0.12766087
-0.026250869 -0.02214602 0.12419993
-0.019806862 -0.029147882 0.12304127
0.015460473 -0.0016314201 0.19437954
0.017075786 -0.0045781545 0.19569272
0.017771317 -0.0083178673 0.19586968
-0.023364875 0.029985987 0.19253463
-0.022788292 0.02702667 0.19341302
-0.018076697 0.02265537 0.19386634
-0.014434928 0.020662973 0.19389465
-0.0099148666 0.017671155 0.19359872
-0.0066517922 0.014836461 0.19443214
-0.0025271443 0.011107318 0.19345269
0.00050836592 0.0065852869 0.19300559
0.0078169666 8.8587403e-06 0.1927754
0.01253639 -0.002433287 0.19283256
0.014809551 -0.0062807179 0.19326746
0.018079458 -0.0096733579 0.1936574
-0.035063904 0.027609233 0.1777899
-0.034307834 0.024558518 0.17741945
-0.036194593 0.026908726 0.17387325
-0.033897944 0.023860598 0.17312098
-0.036761649 0.025808532 0.16993135
-0.034077339 0.022952942 0.16908985
-0.033234391 0.018794047 0.16861492
0.022072645 -0.034132637 0.16427839
-0.033398882 0.022079933 0.16478983
-0.032999046 0.017626919 0.16410118
-0.033323046 0.013067447 0.16288126
0.016731668 -0.032881171 0.15998691
0.020982226 -0.034262709 0.15982059
0.023355246 -0.036412265 0.15955716
-0.033438951 0.016721584 0.15947461
-0.032908298 0.013333119 0.15828311
0.011031026 -0.032326907 0.15446216
0.014960313 -0.032784477 0.15513015
0.01975916 -0.034510989 0.15546495
-0.033102706 0.01060026 0.15432113
-0.033096477 0.0071958946 0.15389693
0.010285944 -0.032324538 0.15054905
0.013529849 -0.032028109 0.14924955
-0.033146616 0.0097852163 0.14991271
-0.033020392 0.005942734 0.15031368
0.0041758055 -0.031844541 0.14724749
0.00775233 -0.032511588 0.14666301
-0.03259553 0.0047467547 0.14552557
-0.031914197 0.001654367 0.14569259
0.0021008775 -0.0314302 0.14334399
0.0051601613 -0.032018334 0.1416342
-0.031686388 -0.00012781657 0.14136037
-0.0039231712 -0.030269982 0.13827431
-0.00014469773 -0.031401128 0.13848874
0.0041711712 -0.031496242 0.13844377
-0.031478692 -0.001175249 0.13661903
-0.031188577 -0.0046607666 0.13645303
-0.0049712444 -0.03111388 0.13535562
-0.0020173592 -0.031580344 0.13400266
-0.03064548 -0.0061232569 0.13296393
-0.030085973 -0.010032848 0.13222015
-0.0066837063 -0.031403817 0.13059372
-0.0031025093 -0.03134656 0.13059396
-0.030103792 -0.01156511 0.12711757
-0.01285167 -0.031456135 0.12520671
-0.0097028473 -0.031806324 0.12560719
-0.029356893 -0.0176054 0.12210405
-0.022700051 -0.026304679 0.12131786
-0.010479359 -0.031960838 0.12122399
-0.026191432 -0.021646671 0.11707962
-0.019992746 -0.029009202 0.11721253
-0.025247244 -0.022722527 0.11314487
-0.019902073 -0.028699314 0.11308104
-0.010699159 0.024279131 0.19638026
-0.0062837871 0.021945056 0.19573459
-0.0040397355 0.01851128 0.195557
0.010034619 0.0083367703 0.19379926
0.013152061 0.0050262096 0.19476092
0.015402175 0.00073871575 0.19559702
-0.012152187 0.024114225 0.19431558
-0.0085333027 0.020956175 0.19387627
0.0078064678 0.0066822693 0.19282869
0.010661919 0.0027304091 0.19303834
-0.035727579 0.027647534 0.16644588
-0.034306936 0.024498532 0.16611966
-0.035902314 0.027945843 0.16164374
-0.034221273 0.024093648 0.16220388
-0.033348765 0.020084742 0.1618048
-0.034302287 0.022741839 0.15770796
-0.03365083 0.01955314 0.1578885
0.021525178 -0.03461777 0.15208012
-0.033389762 0.018213281 0.15330619
-0.032863997 0.013914445 0.15227288
0.016356185 -0.032704283 0.14906788
0.019281887 -0.034016941 0.14879817
-0.032903597 0.017028488 0.14948887
-0.032811441 0.013055452 0.14733499
0.013304612 -0.032593712 0.14409009
0.01814628 -0.034568388 0.14300939
-0.032996263 0.011904892 0.14330608
-0.033056457 0.0075350301 0.14364937
0.0084560029 -0.031988535 0.14029527
0.012483694 -0.032623403 0.13913625
0.017100262 -0.034450017 0.14030617
-0.032684624 0.0059102559 0.13914531
-0.03213691 0.0025287559 0.13914871
0.0061646113 -0.03199878 0.13544917
0.01020963 -0.032392703 0.13569278
-0.032915123 0.0050274869 0.13404778
-0.032193597 0.0011969553 0.13466102
0.0012754044 -0.031735189 0.13232815
0.0051589087 -0.032191649 0.13072282
-0.031958215 0.00053184293 0.1295532
-0.030912582 -0.0039034076 0.13012922
-0.00079445075 -0.03152477 0.12725025
0.0032564476 -0.03189633 0.12745273
-0.031961545 -0.00083173066 0.12599927
-0.03134387 -0.0047485763 0.12554789
-0.030778669 -0.0087054223 0.12515497
-0.0056907889 -0.031278577 0.12415814
-0.0021449877 -0.031680729 0.12270749
-0.031345472 -0.0061066365 0.12079644
-0.030665403 -0.010553788 0.12093544
-0.0079306178 -0.031657077 0.11870193
-0.0037966697 -0.03145184 0.11830592
-0.030603375 -0.011700592 0.11667627
-0.013908902 -0.031212419 0.11490452
-0.0090849027 -0.031375989 0.11467582
-0.02936691 -0.01720055 0.11136222
-0.02382024 -0.025063781 0.11003888
-0.015231896 -0.030770799 0.11049449
-0.011058588 -0.031303212 0.11138994
-0.026344769 -0.021587914 0.10647279
-0.019836284 -0.027801542 0.10587364
0.015315004 0.012736083 0.19462371
0.012844148 0.012091023 0.1936363
-0.035073049 0.029461881 0.15531105
-0.033881463 0.026624795 0.15496874
-0.034396835 0.023993064 0.15134016
-0.033867948 0.020616569 0.15033796
-0.034561306 0.023788162 0.14640081
-0.033192318 0.019649616 0.14630961
-0.04013034 0.024410672 0.14024383
-0.032970913 0.019254481 0.14143708
-0.032678228 0.014893111 0.14128846
0.018019252 -0.034503229 0.1372382
-0.032129735 0.013904096 0.13690364
-0.03185622 0.0099448385 0.13660353
0.013485153 -0.032236125 0.13325974
0.016833119 -0.033945084 0.13390601
-0.032058641 0.012313863 0.13368005
-0.032025985 0.0095421672 0.13248354
0.0079088639 -0.031987533 0.12697107
0.010655493 -0.031755898 0.12932235
-0.031827971 0.0066951383 0.1273185
-0.031855218 0.0038241157 0.12670565
0.005317973 -0.031704351 0.12430191
0.010366583 -0.031884156 0.12561536
-0.031725615 0.0019798065 0.12258303
0.0011270521 -0.031342469 0.11951113
0.0043030297 -0.031153021 0.11917871
-0.031316049 0.00043463893 0.11815619
-0.030941285 -0.0023919763 0.11791444
-0.00095496885 -0.031528454 0.11551809
0.002897406 -0.031758815 0.11578369
-0.030807972 -0.0040877592 0.11377084
-0.029858498 -0.0068993662 0.11295128
-0.0066959066 -0.030904651 0.1114099
-0.0025501447 -0.030740896 0.11168057
-0.030761085 -0.0052681416 0.1096791
-0.030081578 -0.0091342907 0.10919785
-0.0081764907 -0.030255958 0.1072855
-0.03016974 -0.010603203 0.10448539
-0.026732614 -0.019127283 0.10427719
-0.013584116 -0.029597608 0.10335982
-0.010452844 -0.030317321 0.1026119
-0.025584133 -0.020001136 0.10006243
-0.018443136 -0.026562955 0.099276483
-0.011625865 -0.031231329 0.098729432
-0.022906596 -0.023836281 0.094439387
-0.016549589 -0.029027339 0.095420241
-0.034263004 0.030558223 0.15298912
-0.0349879 0.029549452 0.14943349
-0.034230974 0.02747906 0.14849669
-0.035441808 0.028855618 0.14559805
-0.034400482 0.026375143 0.14343148
-0.037205573 0.027513662 0.14026964
-0.03489073 0.025331244 0.1390703
-0.033894982 0.020842196 0.13925755
-0.033278883 0.020018227 0.13498625
-0.032335676 0.016604878 0.1348125
0.018921264 -0.033583149 0.13020945
-0.032381438 0.019283384 0.13067389
-0.031826008 0.015192002 0.13028049
0.014733809 -0.031249901 0.12693542
0.018904664 -0.032187589 0.12581766
-0.031431638 0.013638255 0.12585789
-0.031417295 0.010367901 0.12598407
0.0086989542 -0.031087451 0.12220299
0.012801515 -0.031374037 0.12211359
-0.031352207 0.0090641193 0.12102443
0.0077789323 -0.031232819 0.11832392
0.010781487 -0.032109909 0.11800528
-0.031417422 0.0073093483 0.11792004
-0.031540517 0.0033159582 0.11648077
0.0056678485 -0.031330395 0.11350226
0.010111305 -0.031687547 0.11380458
-0.031731285 0.0016698847 0.11183345
-0.031109426 -0.0018703947 0.11087704
-0.00082248356 -0.031234499 0.10897577
0.0035940353 -0.032181658 0.10924894
-0.031788409 0.00072669238 0.10832924
-0.031204239 -0.0032019997 0.10692173
-0.030564349 -0.0071332203 0.10649288
-0.0057240343 -0.030445721 0.10500848
-0.0021384815 -0.031254642 0.10464627
0.0024064006 -0.032326031 0.10488391
-0.031428903 -0.0040293178 0.1026457
-0.030639661 -0.0078346748 0.10247815
-0.006958277 -0.030287825 0.10062152
-0.0025698682 -0.031755205 0.10054427
-0.030317154 -0.009199894 0.097636104
-0.0083793905 -0.030899368 0.095417976
-0.0038699284 -0.031313844 0.096702576
-0.030515192 -0.010724737 0.09318316
-0.026902154 -0.01859132 0.093217492
-0.015022239 -0.029958906 0.092746735
-0.011235447 -0.031435966 0.091967702
-0.026219999 -0.019349255 0.088766098
-0.019853301 -0.0273172 0.088388622
-0.012649408 -0.031651825 0.087431133
-0.02034566 -0.026431441 0.084160984
-0.034641724 0.031135285 0.14321476
-0.036147848 0.029360278 0.13300711
-0.034686614 0.026161077 0.13270101
-0.03364801 0.022585653 0.13180751
-0.034313265 0.025843363 0.12771112
-0.032721993 0.021887733 0.12744105
-0.031183127 0.018551473 0.12642699
0.020683635 -0.032694399 0.1231373
0.024040047 -0.032538123 0.12062705
-0.032084435 0.021422727 0.12360013
-0.031121124 0.01725954 0.12274158
0.017014518 -0.029986061 0.11822635
0.01979732 -0.031618338 0.11873674
-0.031217527 0.015454106 0.11835074
-0.031560458 0.011760383 0.11887729
0.015310138 -0.030667698 0.11449027
0.018093336 -0.03108022 0.11417699
-0.031498078 0.014551344 0.11453521
-0.031209875 0.010477512 0.11406207
0.0079690311 -0.031326145 0.1108191
0.011996429 -0.031166002 0.11013657
-0.030862957 0.0091784922 0.10923785
-0.030398026 0.0066868905 0.10967833
0.0071116555 -0.031988248 0.1076138
0.01029135 -0.03122199 0.1054911
-0.030892525 0.0042159362 0.10512912
0.0056942236 -0.032191366 0.10208368
0.00965269 -0.031677879 0.10204542
-0.031404808 0.0016376767 0.10164517
-0.031106971 -0.0010707946 0.10046434
-0.00088285841 -0.032314278 0.098193288
0.0029961802 -0.031852614 0.098194599
-0.030373368 -0.0019112797 0.095751762
-0.03039817 -0.0061954893 0.095887661
-0.0018384811 -0.03123685 0.093760431
-0.030530477 -0.0037016096 0.091667235
-0.030374307 -0.0067926338 0.091717899
-0.0079972846 -0.031120811 0.089534581
-0.0038825506 -0.030829428 0.089553118
-0.030209202 -0.0083378796 0.087004244
-0.026503136 -0.016587716 0.085734785
-0.0077412669 -0.030298375 0.084899545
-0.0046298364 -0.030781528 0.085381269
-0.030030876 -0.0095413858 0.083143353
-0.026079651 -0.01674711 0.081924617
-0.018859901 -0.025971113 0.081008196
-0.011715843 -0.030479643 0.08118999
-0.026735183 -0.01771988 0.077514291
-0.019961027 -0.026139028 0.077244461
-0.012051229 -0.030561259 0.076308608
-0.024793766 -0.02245757 0.073015273
-0.017792149 -0.027929511 0.073197067
-0.037464038 0.028649962 0.12610871
-0.03512492 0.027335433 0.12567115
-0.034277186 0.027216585 0.12129378
-0.03229063 0.022653341 0.12081748
0.021906443 -0.032101523 0.11559612
0.02498585 -0.032693926 0.11721396
-0.031915013 0.021837963 0.11666691
-0.031742785 0.018275106 0.11641085
0.016279664 -0.030434774 0.11185873
0.020321045 -0.031587157 0.11221546
0.025467098 -0.03216736 0.11371833
-0.031613115 0.016544361 0.11205065
0.015359001 -0.031159863 0.10869861
0.018762557 -0.032491479 0.108145
-0.031462397 0.015961723 0.10782015
-0.031487003 0.011872796 0.10738003
0.013322191 -0.031739783 0.10406935
0.017009122 -0.03281698 0.10356307
-0.030996878 0.010561815 0.10276747
-0.031060182 0.0065485081 0.10307717
0.010597592 -0.032049753 0.099280477
0.015480637 -0.031861268 0.099909544
-0.030515354 0.0055392236 0.098210454
0.0065623531 -0.031294301 0.095507026
0.0086968755 -0.031151626 0.094233751
-0.029028319 0.0046579223 0.093743384
-0.030424878 0.00093734637 0.093340755
0.0004666429 -0.030756069 0.090581179
0.002935254 -0.030739281 0.091196895
-0.030478925 -0.0017119925 0.089105129
-0.00085238088 -0.030718818 0.087247908
0.0020224378 -0.030226186 0.085346222
-0.03090268 -0.0029874276 0.084889174
-0.031007662 -0.0060081407 0.084963083
-0.0068890527 -0.030513581 0.082472682
-0.0033314759 -0.030571451 0.082477272
-0.030720666 -0.0077248411 0.080558181
-0.029157931 -0.011909618 0.079760313
-0.0086171795 -0.029721452 0.078977585
-0.006065663 -0.030117156 0.078199446
-0.030533705 -0.0087781725 0.076196969
-0.027964685 -0.016187508 0.075127125
-0.0097930701 -0.029819239 0.073553801
-0.02730011 -0.017278694 0.070920885
-0.020325199 -0.026769437 0.069974542
-0.013021433 -0.029695245 0.070590973
-0.024441626 -0.021403607 0.066481233
-0.017182088 -0.027538668 0.065901399
-0.033999451 0.027307805 0.11589718
-0.032363087 0.024847552 0.11566615
0.025013139 -0.031379938 0.11058879
-0.033927135 0.027442176 0.11109877
-0.031977125 0.023949509 0.11034441
-0.030832976 0.020441931 0.1093694
0.023923494 -0.032176025 0.10450989
-0.031796921 0.022806166 0.10522866
-0.031321317 0.01930627 0.10573351
0.022691287 -0.032906342 0.1012373
-0.031718593 0.017551616 0.10137582
-0.031124007 0.013767268 0.10060209
0.017158413 -0.03211676 0.097413123
0.021702182 -0.033925116 0.096443892
-0.032293856 0.015876908 0.096663177
-0.03116997 0.011933736 0.097206116
0.011609189 -0.031064097 0.093229651
0.016241197 -0.031768613 0.092586279
0.020074204 -0.033786099 0.092533529
-0.032821424 0.01507508 0.092759669
-0.031500589 0.010882865 0.092728674
-0.030013818 0.0068966988 0.092507303
0.0069441944 -0.029215859 0.08917582
0.010719574 -0.030218735 0.088553905
0.014286069 -0.031469937 0.089201391
-0.031401247 0.0097556449 0.088457823
-0.029848639 0.0063851569 0.087467253
-0.029032523 0.002786506 0.087532341
0.0051053436 -0.03018247 0.085087717
0.0085328193 -0.030925192 0.084008574
-0.03020788 0.0050718412 0.083285987
-0.030063193 0.0014996901 0.083135843
0.0029704599 -0.03056485 0.080611527
0.0067110611 -0.031321455 0.080118358
-0.030302746 -0.00014556479 0.078452826
-0.030682046 -0.0051125931 0.077121735
-0.0025077108 -0.029763881 0.076238871
0.0018516295 -0.030375019 0.075927258
-0.031139884 -0.0020725839 0.074153781
-0.030608308 -0.00663104 0.073325515
-0.0084832273 -0.029197576 0.070379674
-0.0037944382 -0.029719476 0.071421385
-0.03176336 -0.0032957308 0.069559634
-0.03054617 -0.0067455275 0.069268942
-0.028539678 -0.011726911 0.06897682
-0.010269732 -0.028889835 0.066720784
-0.0055278298 -0.029458188 0.067093492
-0.030344836 -0.0078164348 0.065205216
-0.029075094 -0.011685206 0.064855397
-0.02384311 -0.020593323 0.062563539
-0.016076893 -0.02732922 0.062310457
-0.011102004 -0.029050121 0.06321305
-0.027042372 -0.016573712 0.05920279
-0.020702858 -0.024279125 0.059511364
-0.012642724 -0.028801033 0.059485734
-0.024671804 -0.020937491 0.05488342
-0.017620739 -0.027180774 0.054661334
-0.02194833 -0.025010763 0.051231623
-0.033544835 0.027379436 0.1075508
-0.033052724 0.028252464 0.10381758
-0.032492783 0.025495743 0.10340726
-0.032000966 0.02383654 0.098227143
-0.032377202 0.019826554 0.098346829
-0.031778574 0.023218472 0.094310105
-0.032389 0.019230764 0.09414804
0.018454526 -0.032172829 0.089243352
0.020572724 -0.033994563 0.089631617
-0.032325782 0.019394716 0.090338886
-0.031261623 0.013813342 0.089085281
0.012751337 -0.030498369 0.085490584
0.016770735 -0.031619839 0.085561633
0.020944672 -0.032796711 0.085409224
-0.030796865 0.011848998 0.085001945
-0.030382339 0.0087635415 0.084261
0.011811614 -0.031238031 0.082286358
0.015605276 -0.031493466 0.080928802
-0.030386129 0.011418959 0.080851555
-0.030291542 0.0076211793 0.07997036
0.0095914528 -0.031213552 0.077365577
-0.03030967 0.0059954124 0.075285792
-0.03049292 0.0022601848 0.075250447
0.0040451782 -0.030478928 0.072626829
0.0076905135 -0.030929366 0.073491991
-0.03071193 0.0047395322 0.070970416
-0.031059321 0.0013985662 0.071357012
0.0016585188 -0.029677495 0.069181979
-0.030766789 0.0002850974 0.066552639
-0.030747546 -0.0043981997 0.066410363
-0.0023963647 -0.029485961 0.064298749
0.0013275174 -0.028879846 0.064371347
-0.030452896 -0.0056859972 0.062319815
-0.0088674864 -0.029081285 0.060136318
-0.0051440019 -0.029522881 0.060514867
-0.030025154 -0.0070110466 0.058294058
-0.029677715 -0.010494635 0.05716455
-0.010507817 -0.02861736 0.056269109
-0.0059127416 -0.028405249 0.055879951
-0.029598042 -0.012002748 0.053285837
-0.016051289 -0.027840693 0.05195123
-0.029364895 -0.012354245 0.048842609
-0.025317788 -0.021153325 0.048021317
-0.01730625 -0.026616327 0.047423184
-0.024904266 -0.020529864 0.044235528
-0.033028748 0.028994292 0.096295297
-0.03239369 0.027081849 0.097895026
-0.032891907 0.029460995 0.092906475
-0.032279432 0.026090939 0.092498243
-0.032170288 0.024073131 0.08930856
-0.030389665 0.020525964 0.086619198
0.024289113 -0.03271183 0.08278656
-0.030055804 0.018756833 0.083172441
-0.030381631 0.015225885 0.083063364
0.01845382 -0.031845484 0.078786254
0.022207029 -0.032242961 0.079600811
0.025974805 -0.034080833 0.078716874
-0.030705344 0.014456308 0.078801095
0.011916352 -0.030844003 0.073755205
0.016875414 -0.030904505 0.075069427
0.020894052 -0.031792477 0.075283408
-0.031327598 0.01266768 0.074823916
-0.030430771 0.0094982069 0.074591637
0.010427241 -0.030383863 0.070226192
0.014328722 -0.030825932 0.071301997
-0.031961173 0.011318667 0.069848716
-0.031423468 0.0072634704 0.070074797
0.0050946055 -0.029277461 0.066526413
0.0094172582 -0.030228451 0.066561401
-0.03156276 0.0067159375 0.065206289
-0.030775316 0.0027861912 0.064713001
0.0040234858 -0.029340513 0.062310398
0.0072165122 -0.030202735 0.062611699
-0.02982698 0.001273172 0.060744405
-0.029718805 -0.0028073471 0.058650613
-0.0016982835 -0.029134164 0.057928681
0.0021015899 -0.029539615 0.058261752
-0.029621243 -0.00015474018 0.056108832
-0.029412456 -0.0039994549 0.054888189
-0.0079888999 -0.027914148 0.052662253
-0.0029336866 -0.028569907 0.053453684
0.00081089046 -0.029682245 0.053892791
-0.029579084 -0.0054317107 0.051109672
-0.029955121 -0.0094794892 0.049743354
-0.0080435202 -0.027817044 0.049468875
-0.0052331202 -0.028401753 0.049545765
-0.030809129 -0.0077952724 0.047219574
-0.029858064 -0.010942358 0.046776175
-0.01425414 -0.026566856 0.04519558
-0.010911839 -0.028037328 0.045704424
-0.0067146271 -0.028703818 0.045951724
-0.030862462 -0.0075419964 0.042850792
-0.030149337 -0.011525885 0.042489707
-0.024662243 -0.020148287 0.041741252
-0.016679695 -0.026723467 0.041933775
-0.029860869 -0.013291683 0.037954926
-0.025150882 -0.020108173 0.038020611
-0.017025728 -0.026482718 0.037286937
-0.032720726 0.029968634 0.089467049
-0.032433096 0.030612953 0.085877895
-0.031486578 0.02732425 0.085934281
-0.030236337 0.026066169 0.080652475
-0.029953919 0.022667497 0.08115232
0.024809171 -0.032056667 0.075944066
0.026181551 -0.033808369 0.075345933
-0.030707616 0.021121832 0.076109588
0.019469947 -0.030700993 0.071382761
0.023056591 -0.032289542 0.071944118
-0.032395765 0.019782402 0.071490586
-0.031585887 0.015727049 0.072057366
0.017957833 -0.030330384 0.067587554
0.022189096 -0.032207832 0.067644536
-0.031905115 0.018180843 0.067828774
-0.031557813 0.014963007 0.067191124
0.012369218 -0.030080594 0.063695073
0.015373671 -0.030527916 0.063627362
-0.031243607 0.012802934 0.06321913
-0.030601829 0.010462554 0.06055069
0.010485859 -0.029750179 0.059376717
0.014803233 -0.029982427 0.059043646
-0.029247552 0.0072122579 0.058289051
-0.029147532 0.0049964665 0.0572927
0.0052516982 -0.029437756 0.05495441
0.0083711194 -0.029419348 0.054653883
-0.029145641 0.0029294649 0.053098738
0.0031893291 -0.029629316 0.050300241
0.0071203234 -0.029849533 0.05086565
-0.028543506 0.0014295187 0.049287677
-0.028862342 -0.0012363195 0.048803091
-0.0021356493 -0.028490953 0.046736658
0.0011968603 -0.029157169 0.046011746
-0.029188912 0.001055981 0.045616448
-0.02930294 -0.0031284662 0.044243217
-0.0083005531 -0.027716547 0.042127728
-0.0040972466 -0.028388534 0.042024493
-0.029555123 -0.0059782071 0.039019048
-0.0090379305 -0.028241634 0.038602412
-0.0064968811 -0.028708637 0.037807465
-0.029914645 -0.01041862 0.035291672
-0.022577552 -0.020006781 0.033920646
-0.016218919 -0.025498621 0.032998919
-0.011289604 -0.028365608 0.033111989
-0.0076866606 -0.029015999 0.032814026
-0.029380362 -0.010029718 0.031499863
-0.023973729 -0.018841397 0.030914187
-0.016159106 -0.025267117 0.029594064
-0.023382073 -0.018027877 0.026826501
-0.016346013 -0.025283188 0.026477933
-0.030370045 0.029453022 0.082165837
-0.030806741 0.028545909 0.079109192
-0.031283114 0.027254308 0.074827909
-0.03329609 0.025793707 0.071031451
0.021419903 -0.030984972 0.064102411
0.024670847 -0.032627843 0.065154314
-0.034108482 0.02391831 0.066678166
-0.032785684 0.020351781 0.0659554
0.018561788 -0.030445606 0.061285734
0.02196596 -0.031780198 0.061664045
0.024507565 -0.032659281 0.061048627
-0.032458585 0.019923702 0.061210036
-0.030924231 0.016730612 0.061142385
0.016504386 -0.029877843 0.05656749
0.020442778 -0.031632353 0.056562126
0.023279607 -0.033549033 0.05376029
-0.030000629 0.015604369 0.056940675
-0.028874852 0.011394285 0.055841088
0.012250138 -0.029080981 0.053736806
0.015349274 -0.029902503 0.052010357
0.019686064 -0.031716719 0.051956773
-0.029007398 0.0096857725 0.051813006
-0.028765315 0.0058425777 0.051297188
0.0091928458 -0.029599007 0.048942924
0.013347415 -0.030165445 0.047976196
-0.029317426 0.0080930367 0.046137571
-0.028849987 0.0044792546 0.047104418
0.0050405972 -0.029218815 0.044329166
0.0081972098 -0.029744286 0.043751955
0.011150339 -0.030436404 0.042321861
-0.029408045 0.0030661877 0.042504251
-0.028681349 -0.0005534701 0.041901946
0.0027760034 -0.028842989 0.040161312
0.0066033741 -0.029851582 0.038349688
-0.029639155 0.0018142313 0.0374192
-0.029027797 -0.0015668469 0.037948549
-0.0024537574 -0.028331317 0.036142111
0.0013199188 -0.028807675 0.034588456
0.0051278751 -0.029925317 0.034994781
-0.030138744 0.0010180594 0.033312023
-0.029775631 -0.0034166109 0.03341049
-0.0037601152 -0.028538957 0.031578481
-0.00086925458 -0.028692126 0.029408872
-0.030212499 -0.0049356073 0.028481424
-0.029022822 -0.0089866351 0.028295875
-0.0087649059 -0.027458292 0.027209938
-0.0061393501 -0.027860854 0.02630949
-0.030338299 -0.0057173148 0.024221778
-0.028638542 -0.0095797097 0.02389735
-0.023484008 -0.017961599 0.024061918
-0.016350798 -0.025114706 0.023127556
-0.0071342271 -0.028020293 0.022139907
-0.028430924 -0.010656651 0.019291282
-0.023644261 -0.018150996 0.018981457
-0.016995322 -0.025476392 0.018304288
-0.023127705 -0.019401163 0.014370203
-0.017592482 -0.025846671 0.014533877
-0.032009527 0.021153266 0.054883718
-0.029534282 0.017527748 0.05276072
0.020354757 -0.032047398 0.048850894
0.023110272 -0.034144327 0.049379647
-0.030680075 0.020920981 0.050786257
-0.029258424 0.017155036 0.048936665
-0.02902247 0.013034238 0.048646748
0.015623881 -0.030274555 0.044514835
0.020451961 -0.031265251 0.044625521
0.023229804 -0.034101762 0.044824123
-0.029221607 0.015449289 0.046393037
-0.028930377 0.012231465 0.04472822
0.015032131 -0.030310119 0.04095459
0.01883569 -0.030345328 0.041885853
-0.029293664 0.010027587 0.040332854
-0.029275358 0.006228203 0.039603829
0.00810833 -0.030714639 0.036816895
0.012355106 -0.03053111 0.036897182
-0.02944267 0.0087481514 0.036153853
-0.029244272 0.0057979859 0.035138607
0.0058610225 -0.030313786 0.032591641
0.010359303 -0.030799434 0.032222629
-0.029698145 0.004018751 0.031352937
0.0021769376 -0.028933112 0.028708756
0.0058164606 -0.029735222 0.028391421
-0.030165816 0.0013245651 0.028813958
-0.030026009 -0.0015366646 0.025993705
-0.0046235723 -0.028126642 0.024952531
-7.1904622e-05 -0.028066684 0.024637461
-0.030052098 -0.0028668633 0.02185601
-0.02935564 -0.0069907028 0.022140384
-0.0052771615 -0.027953438 0.020363688
-0.0017432645 -0.02758766 0.02062434
-0.029380849 -0.0043642735 0.018450439
-0.027906936 -0.007653283 0.01775682
-0.011545312 -0.028343901 0.015338004
-0.0059247157 -0.027769417 0.015744209
-0.027271505 -0.0091202725 0.013249636
-0.023710044 -0.016991165 0.012014866
-0.017241245 -0.025374953 0.011829793
-0.010326553 -0.02817139 0.011141956
-0.023333993 -0.016899724 0.0086253881
-0.016903063 -0.02438416 0.0079337358
-0.030703606 0.022379192 0.047871351
-0.029847065 0.019680325 0.046647906
-0.029068246 0.017944267 0.042794347
0.020949163 -0.030920861 0.038481951
0.023254111 -0.033150453 0.038552523
-0.02867024 0.016720688 0.037800014
-0.028891105 0.014003752 0.038336635
0.016451137 -0.029962329 0.034492552
0.02037173 -0.030983049 0.032909572
-0.029375892 0.011458684 0.033526599
0.014414161 -0.030487627 0.029525578
-0.029471878 0.010071015 0.02927202
-0.029163249 0.0072239675 0.028125167
0.0078981463 -0.029715888 0.025182664
0.011584767 -0.030363135 0.025119185
-0.029268768 0.0044653527 0.024721265
0.0022613369 -0.027779488 0.021097541
0.0061647696 -0.028845597 0.021412253
0.010549786 -0.030229084 0.020879745
-0.029053915 0.0030488912 0.020565212
-0.029213743 0.00059907418 0.01877445
0.00070469826 -0.027506642 0.017182708
0.0059700878 -0.028480049 0.017303884
-0.029180711 -0.0020080358 0.015195847
-0.028211214 -0.0061755544 0.015079916
-0.0060169119 -0.027709167 0.01246959
-0.00065266714 -0.027430372 0.013241649
-0.029267102 -0.0024995618 0.010676086
-0.027989991 -0.0072654197 0.0107916
-0.0058189984 -0.027363218 0.0088254213
-0.0031576091 -0.028392006 0.0087968111
-0.027898112 0.020166619 0.035439372
0.020097539 -0.03116253 0.030730009
0.02374983 -0.032572694 0.033603489
-0.028729532 0.017124658 0.032167912
-0.028971076 0.014468102 0.031605721
0.019824039 -0.031316735 0.027711689
-0.028651163 0.01759108 0.027482212
-0.028881626 0.014343668 0.026693285
0.015305701 -0.030638818 0.023593843
0.01969564 -0.030900221 0.022816122
-0.028660156 0.011589089 0.022497177
-0.027737979 0.0092381304 0.020602524
0.0089404751 -0.029317722 0.019188046
0.013471082 -0.030218981 0.019023418
0.017777333 -0.030568488 0.018703163
-0.027906358 0.0072775073 0.017413497
0.0075784996 -0.028846985 0.014647841
0.012108254 -0.029358292 0.014255345
-0.028503992 0.0051506814 0.012822926
-0.029125251 0.0011145473 0.012905478
0.0020659314 -0.027748961 0.011116326
0.0059969751 -0.027932309 0.0096803904
-0.029312281 0.0037083291 0.008187294
-0.029519487 0.00042973738 0.0085713267
-0.02710272 0.023758041 0.031892538
-0.027845316 0.025725087 0.02907455
-0.026831904 0.023055809 0.028816998
-0.027736664 0.021155188 0.025665641
0.020557199 -0.031204935 0.020247757
-0.027793204 0.018936388 0.021787107
-0.028958209 0.014553772 0.020571232
0.019955337 -0.030061653 0.015568793
-0.028848499 0.013750576 0.015899122
0.016027849 -0.028842606 0.012200832
0.017774981 -0.029176217 0.011277497
-0.028460857 0.012327638 0.010988176
-0.02786136 0.0098145101 0.011492848
0.010074005 -0.027868833 0.0076801777
0.016323775 -0.029206134 0.0077725649
-0.027370341 0.026466638 0.026167989
-0.027650679 0.026550401 0.021868646
-0.027088381 0.023353335 0.022192419
-0.027358195 0.021795325 0.017691314
-0.028167626 0.019889571 0.013159633
0.020691307 -0.028821865 0.0092191696
-0.028451374 0.015627529 0.008523941
-0.027180672 0.027593045 0.015429735
-0.027386626 0.024821326 0.016004205
-0.0271935 0.027884126 0.011919498
-0.02720153 0.024823781 0.010857105
