# .PCD v0.7 - Point Cloud Data file format
VERSION 0.7
FIELDS x y z
SIZE 4 4 4
TYPE F F F
COUNT 1 1 1
WIDTH 1062
HEIGHT 1
VIEWPOINT 0 0 0 1 0 0 0
POINTS 1062
DATA ascii
0.039067794 0.053687286 0.82440013
0.0479935 0.05312866 0.82366675
0.053209402 0.053070188 0.82434589
0.038390644 0.057823766 0.82401907
0.042110156 0.057476196 0.82376677
0.047438655 0.057417933 0.82291669
0.052852917 0.057464693 0.82358295
0.043683872 0.061359979 0.82446682
0.046774648 0.061379828 0.8247335
-0.0070885303 0.052381493 0.82800007
0.0021806585 0.054020155 0.8295114
0.0075933821 0.054009661 0.82935023
0.013312019 0.053372525 0.82904035
0.017626556 0.053173825 0.82835573
0.022265451 0.053183198 0.82850021
0.026521606 0.053583816 0.82873356
0.03307974 0.053070694 0.82846683
0.037453577 0.052122593 0.8269667
0.0422756 0.052315958 0.82700002
0.046594758 0.051395148 0.82701331
0.052125055 0.051066585 0.82666653
0.056075528 0.052241031 0.8258
-0.0024603207 0.057870686 0.8294127
0.0021772115 0.057023697 0.82832605
0.0076364903 0.057208709 0.82757431
0.012974978 0.056952748 0.82728875
0.017439058 0.057226509 0.82679319
0.022213791 0.057212025 0.82658654
0.027559776 0.057161096 0.82687151
0.033136073 0.057172906 0.82602662
0.03633425 0.057114296 0.8251735
0.056330748 0.057411481 0.82502681
-0.0070799692 0.061548509 0.82700002
-0.0015319925 0.061410576 0.82929361
0.0021778976 0.062434241 0.82852793
0.0075299633 0.062551267 0.82803559
0.01298521 0.062389608 0.82793331
0.017750172 0.062571831 0.8275696
0.022234291 0.062555432 0.82735735
0.02767536 0.062473383 0.8270219
0.032881495 0.062528744 0.82701188
0.037624743 0.063048236 0.82648134
0.042034503 0.063207529 0.82604992
0.047259301 0.06324105 0.82649159
0.052519094 0.063237816 0.8271274
0.057031911 0.063201912 0.82850009
-0.0071013719 0.066363655 0.82950008
0.0083707469 0.066380538 0.82971138
0.013008996 0.0663592 0.82944471
0.018027345 0.066710532 0.82901704
0.02250435 0.067440026 0.82918131
0.026727229 0.067682013 0.82910866
0.032318588 0.067847081 0.82876688
0.037685253 0.067769296 0.82780743
0.04232379 0.067780808 0.82794821
0.046984877 0.067821249 0.82844466
0.052421037 0.067857817 0.82889444
0.057859078 0.06788981 0.82928914
0.033883933 0.070969917 0.82923365
0.038054388 0.071577229 0.82912034
0.042903293 0.071994789 0.82918924
0.047021963 0.072501265 0.82910413
0.051870454 0.072210602 0.82970369
0.057841241 0.071723841 0.82903367
0.048601381 0.07563705 0.82966685
0.050922401 0.075637057 0.82966667
0.016210824 0.049717795 0.83499974
0.034119621 0.049717795 0.83499974
0.037923049 0.049601357 0.83304453
0.042598072 0.048840955 0.83331102
0.047293738 0.04887585 0.83389997
0.052636802 0.04955902 0.83233339
0.05643386 0.049484219 0.83107692
-0.0055627138 0.053328373 0.83075005
-0.0024677236 0.052646086 0.83221936
0.0021899354 0.051921662 0.83299994
0.0076237284 0.051906701 0.83275831
0.012646754 0.051414747 0.83104998
0.017681142 0.051020015 0.83091098
0.022351468 0.05106641 0.83166665
0.027324503 0.051704805 0.83200008
0.031365532 0.051715028 0.83216
-0.0059579383 0.057262432 0.83177084
-0.0024634174 0.05562837 0.83048433
-0.0058794804 0.063139908 0.83176577
-0.0029797798 0.063099511 0.83053875
-0.0055688517 0.067311153 0.83166671
-0.0026251844 0.067845047 0.83251798
0.0021865608 0.068095773 0.83179259
0.0073601208 0.068633705 0.83206666
0.013045602 0.068868347 0.83178884
0.01736982 0.068943977 0.83083993
0.021548664 0.069547385 0.8306666
0.02852262 0.06955298 0.83073324
0.05764224 0.068307117 0.83061332
-0.0062005408 0.073168859 0.8332001
-0.0019559355 0.072711319 0.83446342
0.0021942323 0.072985478 0.83463693
0.0076434128 0.072995804 0.83475536
0.013088175 0.07297352 0.8344962
0.017728891 0.072859615 0.83319265
0.022353401 0.072737783 0.83179998
0.026992418 0.072694063 0.8313036
0.032101672 0.07298851 0.83113337
0.037473023 0.07388597 0.83166665
0.041432641 0.073672108 0.83071107
0.054324344 0.073646389 0.8304221
0.057962101 0.072866879 0.83076185
0.009203041 0.076123245 0.83499974
0.013096253 0.076123245 0.83499974
0.018155117 0.07650245 0.83489972
0.022421634 0.076839097 0.83433318
0.027080728 0.076811664 0.83403325
0.032531649 0.07682769 0.83420819
0.03797657 0.076827973 0.83421093
0.042813234 0.077365279 0.83371651
0.047058508 0.077701889 0.8331666
0.05230679 0.077433601 0.83237141
0.057308808 0.076674767 0.83254725
0.048913829 0.080783039 0.83499974
0.0079440856 0.049442109 0.83911127
0.012354877 0.049092326 0.83759999
0.018230129 0.049137231 0.83836675
0.022519849 0.049270242 0.83797342
0.027399404 0.048722494 0.83699036
0.031872366 0.048296906 0.83732498
0.038495369 0.0478907 0.8370167
0.043204233 0.046361446 0.83751667
0.047201432 0.046142366 0.83778667
0.052162644 0.04750903 0.83715558
0.055266246 0.046713512 0.83686668
-0.0056045637 0.051393878 0.83700007
0.0037744117 0.050007574 0.8398667
0.0053411974 0.050011542 0.8399334
-0.0071484577 0.060590636 0.83500004
-0.0055956356 0.069966018 0.83566666
-0.0035156317 0.073554434 0.83522338
-0.0024855928 0.07795874 0.83801538
0.0022010254 0.077894457 0.83732593
0.0066877361 0.07804849 0.8369
0.012346724 0.07863871 0.83697492
0.017490933 0.078763224 0.83663988
0.022473035 0.079347849 0.83624429
0.027142728 0.079320431 0.83595544
0.032588437 0.079291455 0.83564985
0.038062263 0.079333082 0.83608884
0.041179933 0.079330973 0.83606666
0.05364985 0.079324655 0.83599991
0.056772638 0.079331897 0.8360762
0.007213342 0.081802532 0.83908015
0.012626314 0.082140423 0.83827418
0.017837711 0.082662046 0.83828896
0.02251064 0.082597286 0.83763707
0.027210031 0.08263474 0.83801484
0.032203805 0.08246173 0.83784008
0.037575673 0.082764037 0.83789098
0.042818148 0.082595371 0.83761483
0.047242165 0.082672358 0.83642483
0.052134667 0.082504801 0.83669639
0.05720241 0.082612023 0.83778667
0.060101349 0.084291406 0.83900005
0.026478067 0.085913524 0.83960009
0.033511326 0.085879423 0.83926684
0.037159674 0.085870326 0.83917791
0.041357242 0.085920334 0.83966672
0.048085485 0.086858697 0.83866686
0.052063212 0.087187514 0.83870012
0.056747906 0.08696612 0.83899069
0.060101353 0.085852139 0.83899993
0.061666124 0.092875257 0.83900017
0.061666101 0.095216334 0.83900005
0.010101226 0.044025782 0.84499991
0.043971464 0.044013627 0.84476656
0.047848683 0.043956321 0.84366673
0.052584719 0.043969553 0.84392053
0.055477891 0.043769006 0.84007132
-0.00092932436 0.048688933 0.84409088
0.0022157661 0.047850322 0.84315777
0.006734286 0.046847817 0.84278327
0.012430754 0.046250828 0.84260821
0.017929077 0.047423854 0.84254998
0.022635575 0.047408722 0.84228349
0.027036658 0.046080701 0.84236014
0.032481126 0.045880821 0.84300005
0.037211981 0.04610781 0.84203815
0.04219164 0.045365602 0.84069985
0.049214527 0.045335028 0.84013313
0.05241384 0.045392577 0.84120005
-0.002495392 0.050093651 0.84131217
0.0014268206 0.050086968 0.84119987
-0.0020506426 0.082882039 0.84278899
0.0022131735 0.0830172 0.84188884
0.0065261889 0.08412829 0.84126651
0.01161467 0.084443241 0.84051102
-0.0025040673 0.087175712 0.84426057
0.0024163942 0.087760106 0.8442083
0.0069370088 0.087889411 0.84356302
0.012427602 0.087774843 0.84246677
0.017914554 0.087715924 0.8418963
0.022619851 0.087696873 0.84171122
0.027550023 0.088130854 0.84159034
0.031827573 0.087850027 0.84130812
0.03760336 0.088177629 0.84132576
0.043198675 0.087841213 0.84122491
0.046632599 0.088629127 0.84066653
0.053936481 0.089129068 0.8404665
0.057889644 0.089182094 0.8409664
0.0077369823 0.091178074 0.84496653
0.012303231 0.091464385 0.84470665
0.017967116 0.091899216 0.84436661
0.022878539 0.092449449 0.84400845
0.027388534 0.092592686 0.84352612
0.032100394 0.092569552 0.8433187
0.037388023 0.092420511 0.84326082
0.042802371 0.09274289 0.84346688
0.047780443 0.092477947 0.84248161
0.05245072 0.092401594 0.84178513
0.057135087 0.092358902 0.84139991
0.060231637 0.092294395 0.84081817
0.028224479 0.09589722 0.84499991
0.032163799 0.096524462 0.84498656
0.036881506 0.097441353 0.84475547
0.041929908 0.097299799 0.84489316
0.048281435 0.096218318 0.84436661
0.052906942 0.096416511 0.84403992
0.057521701 0.096882083 0.84379047
0.060360089 0.097195573 0.84261161
0.058955215 0.10139879 0.84499991
0.060435653 0.10045408 0.84366661
0.056054305 0.034750182 0.84880006
0.053702816 0.03950404 0.84916681
0.056021769 0.037886828 0.84830761
0.0022294207 0.044208679 0.84851068
0.0069680382 0.043360546 0.84737796
0.01284268 0.043257061 0.84755248
0.018058477 0.044214487 0.84862256
0.02279412 0.044192493 0.84820032
0.027517423 0.043366894 0.84751129
0.032258246 0.043364063 0.84745568
0.036953323 0.043310985 0.84641123
0.042422462 0.042805549 0.84753352
0.04805306 0.041778285 0.84725571
0.052755546 0.041750003 0.84667796
0.055862181 0.041711252 0.845891
-0.00219743 0.047620833 0.84745294
0.0022229527 0.045643117 0.84584254
0.018005764 0.045658801 0.84613341
0.022716656 0.04561444 0.84531099
-0.0040870272 0.084206894 0.84600008
-0.0021146447 0.088515803 0.84580952
0.00064571213 0.089623973 0.84513319
-0.0017200505 0.092894994 0.84628838
0.0022256963 0.092932336 0.84661722
0.0067378744 0.093397938 0.846762
0.01258734 0.093727104 0.84567612
0.017995203 0.094404779 0.84571105
0.021134436 0.094332822 0.84506649
-0.0019830719 0.096607991 0.84664583
0.0022316258 0.097125702 0.84886318
0.0072063613 0.097457014 0.84880024
0.012512632 0.097844101 0.848239
0.018050613 0.097847946 0.84827435
0.022796191 0.09784732 0.84826684
0.027273355 0.098143458 0.84693336
0.032186963 0.098720253 0.84561652
0.044780627 0.098274514 0.8451665
0.047622126 0.098440312 0.84523982
0.052311569 0.098749273 0.8458668
0.056640111 0.09912692 0.84573328
0.018869104 0.10114864 0.8495003
0.027579335 0.10113671 0.84940034
0.032507773 0.10211054 0.84810489
0.036973849 0.10241447 0.84688157
0.042512789 0.1024388 0.84708333
0.048065346 0.102488 0.84749639
0.052758083 0.1023926 0.84671134
0.057018671 0.10257126 0.84633338
0.038683545 0.10591844 0.84973347
0.042640656 0.10590599 0.84963357
0.047539316 0.10619311 0.84940034
0.052600116 0.10649252 0.84926683
0.05757679 0.10569195 0.84791642
0.053149894 0.034130018 0.85303336
0.019768221 0.039735086 0.85413343
0.023746938 0.039728884 0.85400003
0.027728736 0.039728884 0.85400003
0.032508671 0.039730951 0.8540445
0.037286922 0.039730951 0.8540445
0.042020809 0.039690118 0.85316664
0.04754068 0.038853966 0.85226244
0.052478366 0.037447363 0.85181248
-0.0014679808 0.043884337 0.85244721
0.0026374839 0.042414673 0.85212272
0.0070119356 0.041254457 0.85269731
0.012563236 0.041201372 0.85159993
0.018118411 0.041986492 0.8514778
0.022865644 0.041956101 0.85084993
0.027631328 0.041172344 0.85099989
0.032392707 0.041172344 0.85099989
0.037149113 0.041166969 0.85088873
0.041897863 0.041155148 0.85064435
-0.0035869714 0.046503052 0.852
-0.0041111824 0.091829114 0.85100001
-0.0014665254 0.09925691 0.85134029
0.0022368026 0.099736333 0.85093254
0.0062033841 0.099718839 0.85078335
-0.0017348673 0.10318649 0.8532784
0.0022418622 0.10312791 0.85278648
0.0070104175 0.10309434 0.85250735
0.012564794 0.10300502 0.85176665
0.017882535 0.10336835 0.85104275
0.022864018 0.1028843 0.85078144
0.027630666 0.10369924 0.85097766
0.031592797 0.10447285 0.8508333
0.0086160908 0.1064503 0.85400003
0.012600648 0.10727096 0.85420841
0.018160135 0.10797055 0.85345191
0.022913292 0.10786483 0.85261106
0.027697617 0.10791808 0.8530333
0.03244504 0.10783705 0.85239249
0.036955748 0.10785791 0.85100406
0.041681003 0.10809135 0.85083801
0.047351647 0.10855182 0.85090458
0.053440887 0.10888541 0.8513
0.057886079 0.10863761 0.85245633
0.018975474 0.11125515 0.85430014
0.022955475 0.11163735 0.85418344
0.027743002 0.11127397 0.8544445
0.032508593 0.11122187 0.85404444
0.037583962 0.11179619 0.85357344
0.04202117 0.11269411 0.85314816
0.047046728 0.11237824 0.85195988
0.052375991 0.11272081 0.85335672
0.057617314 0.11166129 0.85436672
0.047167376 0.11663561 0.85413343
0.051658399 0.1167049 0.85464019
0.048664741 0.033533387 0.85806686
0.05012054 0.033436999 0.85560018
0.003864089 0.039999701 0.85982132
0.012170212 0.03925655 0.85758674
0.017440949 0.038279273 0.85716021
0.022798771 0.037810255 0.85683823
0.027828207 0.037478138 0.85705566
0.032637905 0.037495196 0.85744458
0.037446886 0.037506383 0.85770017
0.042473231 0.03716322 0.85768592
0.046961885 0.035849251 0.85621125
0.050085384 0.035004012 0.85500008
-0.0028642819 0.042124517 0.85750759
0.0014513662 0.041399308 0.85569131
-0.00094145734 0.10658879 0.85511112
0.0022499498 0.10745564 0.85567808
0.0070388941 0.10827798 0.85588598
0.011827202 0.10986713 0.85586697
0.01501037 0.10979865 0.85533357
0.0022578298 0.11184536 0.85882229
0.0068302047 0.11224484 0.85839039
0.012072347 0.11275535 0.85706669
0.017104199 0.11343433 0.85634679
0.023008803 0.11404599 0.85616016
0.0278173 0.11396178 0.85672235
0.032610621 0.11396178 0.85672235
0.036989368 0.1143145 0.85638356
0.054899096 0.11458977 0.85546696
0.058478139 0.11408569 0.85646075
0.06143567 0.1140817 0.85762668
0.0081409076 0.1157153 0.85988903
0.011556101 0.1160815 0.85944015
0.01746879 0.11740233 0.85857499
0.023268716 0.11797643 0.8583917
0.027657539 0.11778481 0.85886663
0.032485642 0.11801886 0.85869992
0.037463859 0.11813751 0.85811108
0.042200599 0.11795621 0.85679281
0.04656079 0.1190635 0.85616696
0.053109288 0.11852988 0.85600978
0.05820518 0.11800316 0.85714084
0.061469913 0.11813562 0.85810471
0.023909047 0.12157252 0.85983348
0.042329207 0.12151125 0.85940003
0.047076736 0.12215462 0.85830003
0.051860832 0.12270999 0.85799176
0.057177078 0.12266521 0.85852003
0.061536212 0.12305816 0.85903025
0.056780729 0.126366 0.8598001
0.033707503 0.028956208 0.864375
0.018916644 0.033219483 0.86374468
0.022810917 0.03335461 0.86378348
0.0280494 0.033760484 0.86387795
0.033532701 0.032801013 0.86401349
0.037700839 0.032139618 0.86352986
0.042508148 0.032121599 0.86304462
0.046919689 0.032696806 0.86128092
-0.0017571202 0.038575716 0.86374998
0.0087260623 0.038627066 0.86490023
0.01233021 0.036939237 0.86308336
0.017056864 0.035612684 0.86203992
0.023157032 0.035276946 0.86166668
0.027982801 0.035283316 0.86182219
0.032808792 0.035287868 0.86193329
0.03761987 0.035276949 0.86166662
0.041609794 0.035253745 0.86109996
-0.0017510407 0.040057853 0.86107147
0.00065747299 0.040032495 0.86052632
0.0070781237 0.040041521 0.86072034
0.0022647649 0.11699382 0.86144441
0.0065418915 0.11740486 0.8605445
0.012285424 0.11879647 0.86000019
0.017498134 0.1199963 0.86000019
0.021507917 0.1199963 0.86000019
0.028725518 0.1199963 0.86000019
0.034339193 0.1199963 0.86000019
0.0024982267 0.12153899 0.86283338
0.0070914072 0.12192141 0.86229628
0.011709001 0.12205955 0.86185837
0.017511969 0.12249847 0.8607167
0.02312254 0.12325169 0.86038673
0.027941421 0.12247387 0.86054462
0.032753896 0.12246599 0.86048895
0.037759699 0.12303574 0.86027515
0.042360459 0.12400058 0.86003351
0.047170479 0.12479562 0.86000019
0.051998321 0.1248343 0.86026657
0.058397882 0.12479562 0.86000019
0.060001757 0.12479562 0.86000019
0.0071066595 0.1257973 0.86413348
0.0123372 0.12572703 0.8636502
0.017558293 0.12683733 0.86300009
0.022965647 0.12689593 0.86204165
0.027830452 0.12702301 0.86208659
0.032808848 0.12667957 0.86193335
0.037401382 0.12713628 0.86192375
0.042457003 0.12829211 0.8619926
0.047268923 0.12826355 0.86179996
0.052062426 0.12819354 0.86132586
0.056886274 0.12756291 0.86140001
0.060891703 0.12738021 0.86124581
0.022944771 0.13070257 0.86379462
0.028378364 0.1311744 0.86408025
0.032872546 0.13094193 0.86360574
0.037705723 0.13094698 0.86363906
0.042544138 0.13176928 0.86376685
0.047327306 0.13163199 0.8628667
0.052160498 0.13204668 0.86295009
0.0570301 0.13093741 0.86357802
0.061062913 0.13095126 0.86366767
0.0071505695 0.029126776 0.86946672
0.029012389 0.029097747 0.86859989
0.031383321 0.029042808 0.86696005
0.03615208 0.028977146 0.86500007
0.0012046994 0.032359574 0.86940986
0.011778734 0.032811154 0.86914283
0.016575499 0.032294638 0.86769754
0.023049278 0.031486616 0.86766672
0.028174167 0.03148983 0.86774445
0.032175865 0.031446233 0.8665418
0.0024844105 0.036952302 0.86811912
0.0071407855 0.037162162 0.86828572
0.010902802 0.036031768 0.86698896
0.0014695483 0.12416039 0.86673355
0.0027429687 0.12734132 0.86800474
0.007123583 0.12826487 0.86614019
0.011646236 0.12826672 0.86615354
0.0034996422 0.13215852 0.8689667
0.0071441969 0.13251758 0.86866677
0.012208071 0.13233334 0.86878335
0.016846031 0.13237768 0.86774457
0.021972196 0.13345739 0.86777228
0.028203508 0.1341258 0.86862212
0.033028755 0.13398515 0.86771107
0.037887949 0.13400058 0.86781114
0.042710979 0.13389938 0.86715561
0.047520518 0.1337827 0.86640018
0.052325714 0.13367203 0.8656835
0.057269584 0.13390793 0.86721128
0.061376683 0.13404517 0.86810005
0.016887605 0.13593605 0.86986661
0.023357097 0.13674554 0.86913341
0.028218659 0.13662292 0.86908883
0.033077482 0.13660713 0.86898881
0.038175441 0.13696909 0.86908567
0.042782612 0.13735673 0.86861479
0.04760623 0.13725272 0.86795568
0.052439664 0.13718998 0.86755931
0.057374272 0.13738492 0.86879265
0.062445629 0.13719913 0.86889851
0.044429556 0.14067177 0.86913329
0.04800133 0.14133599 0.86923999
0.052540064 0.1414946 0.86922222
0.055813234 0.14238317 0.86971134
0.063227728 0.14195526 0.86907339
0.063782893 0.14529876 0.86780006
0.0071601514 0.029168094 0.87070018
0.023411024 0.029182609 0.87113357
0.025823025 0.029154694 0.87030017
0.0032629159 0.032723244 0.87048018
0.0071605765 0.032407992 0.87070394
0.012838786 0.030774958 0.87033808
0.01528666 0.030801091 0.87107712
0.0055379043 0.035653602 0.87086684
-0.00095997844 0.12652726 0.87193334
0.00066522055 0.1287729 0.8706668
-0.00096274907 0.13258564 0.87444997
0.0014786266 0.13292453 0.87133348
0.010402471 0.13436942 0.87019998
0.0033842709 0.13713478 0.87406659
0.0071695042 0.13786612 0.87182969
0.012042874 0.13781042 0.87148166
0.016909363 0.1381934 0.87098116
0.021448802 0.1386483 0.87064016
0.028263563 0.13926835 0.87046689
0.033146504 0.13932168 0.8708002
0.037209295 0.13933235 0.87086689
0.060727373 0.13925767 0.87040007
0.008004169 0.14148641 0.87416649
0.012307233 0.14258571 0.87378079
0.016940344 0.14285499 0.87258512
0.021803107 0.14272992 0.87182224
0.027477771 0.14264111 0.87128347
0.033169143 0.14265887 0.87139267
0.038044117 0.14265782 0.87138534
0.042702418 0.14281338 0.87110019
0.047366835 0.14380655 0.8709836
0.052618895 0.14413707 0.87053347
0.058306649 0.14253078 0.87061125
0.061161041 0.14296609 0.8708002
0.021872267 0.1464355 0.87458897
0.02754803 0.14625733 0.87352496
0.033263642 0.14712994 0.8738777
0.038136218 0.14706612 0.87349987
0.042790625 0.1475773 0.87291241
0.047827825 0.14762436 0.87199271
0.052702166 0.14760897 0.87190372
0.057594914 0.1476464 0.87212586
0.061573926 0.14743818 0.87089986
0.049587306 0.15127191 0.87433326
0.052844152 0.15125848 0.87425542
0.057753276 0.15130652 0.87453336
0.060918089 0.15106431 0.87313306
-0.0009633546 0.12859991 0.875
-0.0021968493 0.13194001 0.87826657
-0.00096750137 0.13569221 0.87876666
0.001216348 0.13717185 0.87776667
0.0034017172 0.14110923 0.87856674
0.0068021156 0.143186 0.8771084
0.011280756 0.14494288 0.87540007
0.0076942975 0.14690888 0.87880945
0.012127382 0.14775625 0.87760019
0.017012641 0.14754087 0.87631679
0.021917835 0.14837459 0.87643343
0.026799748 0.14824854 0.87568897
0.030049341 0.14816576 0.87520003
0.039071176 0.14996499 0.87620008
0.044739682 0.14979385 0.87520009
0.0083243875 0.15104292 0.87931103
0.012145815 0.15206641 0.87891853
0.017059186 0.15202926 0.87870377
0.02197109 0.15199858 0.87852597
0.026880259 0.15196167 0.87831491
0.031776521 0.15187839 0.87783355
0.037179086 0.15220182 0.87781686
0.0432177 0.15262491 0.87743354
0.047712617 0.15251073 0.87584007
0.052928474 0.15312766 0.87564451
0.057918448 0.15337054 0.87703341
0.061122715 0.15401709 0.8760668
0.01216083 0.15552633 0.87999982
0.017412703 0.15618107 0.87999976
0.022008099 0.15634476 0.8799997
0.027258333 0.15617163 0.87994641
0.03184472 0.15711209 0.87971091
0.03708417 0.15690392 0.87945998
0.042687062 0.15709414 0.87877584
0.048182763 0.15688825 0.8784557
0.052891292 0.15667835 0.878425
0.057727627 0.15602279 0.87910652
0.061369259 0.15709177 0.87959981
0.035958387 0.16043715 0.87999976
0.043343838 0.16043715 0.87999982
0.048267469 0.16043715 0.87999982
0.052370496 0.16043715 0.87999976
-0.0031687666 0.12924899 0.88314456
-0.0065757842 0.13346647 0.88351345
-0.0042596008 0.13286768 0.88172215
-0.0059199454 0.13651569 0.88410014
-0.0022890321 0.13762331 0.88276005
0.00067349768 0.13939382 0.88149989
0.0019883043 0.14311083 0.88217992
0.0033072967 0.14745842 0.88266009
0.0055985269 0.14822759 0.8803997
0.0039700535 0.15284227 0.88340002
0.0067009325 0.15307117 0.88157207
0.0077328933 0.1574911 0.88314289
0.012175118 0.15816998 0.88104433
0.016702833 0.15865853 0.8814832
0.02204863 0.15909292 0.88162208
0.026531434 0.15845105 0.88033313
0.054836474 0.15881222 0.88006657
0.058589436 0.15856527 0.8809666
0.062309422 0.15903358 0.88129318
0.012216802 0.16118473 0.88410014
0.017144397 0.16100241 0.88310003
0.022059659 0.16081403 0.88206667
0.027259881 0.16216692 0.88304281
0.031930882 0.16246349 0.88210368
0.037078433 0.16282852 0.88154751
0.041522715 0.16275713 0.88116175
0.046716612 0.16320857 0.88170552
0.052114129 0.16284236 0.88162369
0.057667959 0.1626485 0.88230306
0.063191608 0.16246828 0.88213706
0.032025501 0.16623122 0.88470012
0.036150258 0.16623123 0.88470018
0.041885216 0.16648617 0.88386679
0.046848238 0.16613726 0.8842001
0.051747877 0.16598691 0.88340002
0.056752 0.1661644 0.88434452
0.061708856 0.16618736 0.88446683
0.065017663 0.16621241 0.8846001
-0.0026384369 0.12412331 0.88957781
-0.0069450848 0.12796089 0.88865328
-0.0036238488 0.12673521 0.88701993
-0.015904311 0.1339951 0.88919997
-0.012019078 0.13270907 0.8879776
-0.0081364717 0.13132033 0.88603884
-0.016719846 0.13718495 0.88843322
-0.012562888 0.13701889 0.88735539
-0.0081324242 0.13729708 0.88560003
-0.0034505264 0.13913986 0.88510019
-0.015907887 0.14064302 0.88939995
-0.011585406 0.14184399 0.88862658
-0.0076000788 0.14202234 0.88767385
-0.0028659622 0.14228888 0.88639981
0.00067637558 0.14492971 0.88526684
-0.0072809123 0.14623094 0.88917333
-0.002634038 0.1469868 0.88774049
0.0012271994 0.14836378 0.88611108
-0.0020845397 0.15163124 0.88915557
0.0013387302 0.15214865 0.88702649
0.0026084885 0.15687923 0.88765544
0.0056315963 0.1581634 0.88560009
0.0039932723 0.16117328 0.88856649
0.0072995238 0.16209696 0.8875888
0.012250494 0.16327749 0.88653308
0.016785918 0.16357628 0.88591659
0.02214841 0.1639339 0.88562226
0.02626146 0.16465376 0.88506687
0.0089735799 0.16629374 0.88943338
0.012271206 0.16685925 0.88803685
0.017430969 0.16690603 0.88719136
0.022181647 0.16747798 0.88694423
0.027122376 0.16734433 0.88623315
0.032091383 0.16843031 0.88652486
0.037294608 0.1687275 0.88669497
0.042012546 0.16921732 0.88654643
0.046965111 0.16902453 0.88639981
0.05190514 0.16896127 0.88606662
0.057278696 0.16855517 0.88609982
0.061832607 0.16882923 0.88623989
0.065081358 0.16884643 0.88546675
0.013392582 0.17092359 0.88913327
0.017257821 0.17115857 0.88892221
0.02222974 0.17114793 0.8888666
0.027424259 0.17140396 0.88835227
0.032163192 0.17273264 0.888511
0.037113883 0.17263781 0.88802212
0.042086229 0.17265074 0.8880887
0.047064345 0.17268729 0.88827759
0.052001622 0.17257917 0.88772196
0.056781806 0.17201854 0.88802499
0.061991777 0.172381 0.8885237
0.06612844 0.17271733 0.88843322
0.03219831 0.17622946 0.88947791
0.037394833 0.17650232 0.88906664
0.042134058 0.17677483 0.88909996
0.047318295 0.17678483 0.88914996
0.052082717 0.17698093 0.88909638
0.057068467 0.17654419 0.88927639
0.062065851 0.17542167 0.88957781
-0.006536026 0.12406034 0.89310032
-0.0026467105 0.12287081 0.89250022
-0.011809152 0.12956972 0.89290023
-0.0084669627 0.12691954 0.89179188
-0.017297843 0.13317975 0.89260691
-0.013736334 0.13165081 0.8920002
-0.021825626 0.13804252 0.89398932
-0.019267885 0.13763762 0.8913669
-0.022185842 0.14281173 0.89410037
-0.017833225 0.14297125 0.89230865
-0.013868057 0.14305604 0.8915419
-0.022681413 0.14650139 0.89486682
-0.017329449 0.14707205 0.89428693
-0.012088108 0.14731129 0.89304471
-0.0080480007 0.14883026 0.89136684
-0.00717312 0.15266831 0.89337641
-0.0037501678 0.15358788 0.89091134
-0.0059862384 0.15633757 0.89400035
-0.0020942162 0.15729184 0.89311695
0.00068090879 0.15833536 0.89120018
0.0020132717 0.1624057 0.89261359
0.0056697489 0.16421063 0.89160031
0.0040206863 0.16643962 0.89466691
0.0073371208 0.16765329 0.89226687
0.0085969465 0.17244223 0.89342523
0.011759576 0.17295472 0.89107251
0.017293228 0.17399693 0.89075583
0.022263663 0.17389275 0.89022237
0.026410708 0.17386889 0.89010024
0.01268982 0.17699072 0.89416039
0.017542047 0.17752413 0.8928628
0.02230656 0.17754452 0.89192241
0.027282946 0.17746043 0.89150023
0.032254424 0.17902148 0.89102238
0.036390357 0.17893329 0.89058352
0.04218917 0.17886965 0.89026672
0.045509875 0.17886965 0.89026678
0.057137165 0.17888306 0.89033353
0.062186733 0.17824882 0.8913002
0.066196121 0.17714731 0.89159185
0.019042032 0.18145853 0.89486694
0.022368195 0.1813639 0.89440036
0.027784655 0.18174791 0.89424205
0.032353614 0.18206596 0.89376146
0.037329275 0.18194991 0.89318919
0.042292774 0.18180095 0.89245582
0.047287211 0.18180539 0.89247817
0.052304838 0.18272045 0.89288926
0.057519373 0.18254612 0.89305437
0.06236665 0.18209071 0.89388371
-0.0073493049 0.12221791 0.89746016
-0.003497069 0.12100613 0.89715004
-0.016088542 0.12885424 0.89950013
-0.012145147 0.12742004 0.89726132
-0.0093625812 0.12529849 0.8980003
-0.021496685 0.13359317 0.89762515
-0.01804713 0.13146576 0.89677334
-0.014354885 0.13001961 0.89600003
-0.032141678 0.1373339 0.89805508
-0.027514106 0.13730823 0.89695728
-0.024060722 0.13709538 0.89650667
-0.032600239 0.14220886 0.89798403
-0.02755869 0.1420314 0.89607334
-0.024370315 0.14412239 0.89560002
-0.032559946 0.14648826 0.8976956
-0.027944259 0.14695734 0.89637506
-0.022705059 0.14765199 0.89578658
-0.017684668 0.14908147 0.89536673
-0.013511687 0.14909784 0.89546674
-0.027311411 0.15181009 0.89813346
-0.02272813 0.15180735 0.89670384
-0.017914403 0.1519682 0.89642495
-0.012932913 0.15228224 0.89669532
-0.0093417307 0.15335387 0.89599997
-0.021956071 0.15560021 0.89935023
-0.017181618 0.15650989 0.89816689
-0.012508266 0.15688993 0.89835024
-0.008233415 0.15733869 0.89654446
-0.0043250355 0.15822442 0.89526683
-0.016084965 0.16061015 0.89930016
-0.011609855 0.16112603 0.89906693
-0.0076828855 0.16192183 0.89729267
-0.0028666416 0.16188852 0.8959583
0.0023545758 0.16494729 0.89560002
-0.0060163685 0.16548143 0.89850032
-0.0026639989 0.16620958 0.89791685
0.0017999372 0.16742124 0.89695019
0.0056926426 0.16820416 0.89520019
0.0033649399 0.1717234 0.89792693
0.0061168335 0.17215279 0.89625001
0.0040419591 0.17568551 0.89940017
0.007170435 0.17719547 0.89751261
0.011543436 0.17914157 0.89576662
0.015713504 0.17990106 0.89539999
0.0083905626 0.18177748 0.89808691
0.012385264 0.18195122 0.89626664
0.017060619 0.18268564 0.89598668
0.022393616 0.18323223 0.89540005
0.026988799 0.18408591 0.89550006
0.032424256 0.18496217 0.89571112
0.038276136 0.18498743 0.89583331
0.042445909 0.18495758 0.89568895
0.047443315 0.1849025 0.89542228
0.055771109 0.18482904 0.89506686
0.062462587 0.18487041 0.89526671
0.065794326 0.18235207 0.89516675
0.0090771597 0.1857858 0.89970022
0.012651442 0.18667069 0.8982051
0.017408431 0.18684186 0.8967334
0.02240973 0.18670097 0.89605927
0.027421053 0.18716277 0.89599037
0.032435033 0.18752426 0.89601105
0.037214227 0.18719074 0.89612383
0.042468552 0.18755691 0.89616662
0.047476288 0.18753119 0.89604443
0.052486479 0.18751955 0.89598888
0.05752942 0.18761759 0.89645571
0.062548541 0.18762694 0.89649993
0.065862119 0.18670709 0.8960889
0.014112581 0.19082783 0.8998003
0.017678378 0.1917015 0.89829063
0.022256678 0.19197711 0.89832103
0.027490368 0.19217248 0.89825565
0.032503385 0.1912601 0.89790016
0.037542745 0.19133836 0.89826697
0.042561013 0.19130629 0.89811701
0.047785439 0.19189313 0.89792937
0.052610774 0.19213966 0.89810395
0.057440117 0.19198084 0.89833772
0.062888071 0.19162616 0.89793837
0.066560388 0.19212823 0.89649332
0.066859424 0.19551551 0.89826691
-0.0066070729 0.11869332 0.9028222
-0.0038033135 0.1188092 0.90370435
-0.011092266 0.1234027 0.90246677
-0.0088453665 0.12139973 0.90213346
-0.0169921 0.12851053 0.90296662
-0.013615108 0.12674251 0.90233332
-0.031876933 0.13386877 0.90323335
-0.02797363 0.13455366 0.90406674
-0.022887783 0.13271672 0.90301102
-0.019497734 0.13089025 0.90200007
-0.031252623 0.1358335 0.90140015
-0.028715275 0.13575816 0.90090036
-0.03289111 0.1490546 0.90023345
-0.032959655 0.1527154 0.90207458
-0.029545799 0.15330672 0.90061694
-0.0320036 0.15768363 0.90361309
-0.027914567 0.15776566 0.90215939
-0.023082146 0.15807542 0.90119553
-0.018905744 0.15859099 0.90050036
-0.014431789 0.15920235 0.90080047
-0.031361848 0.1623894 0.90455002
-0.027958037 0.16221292 0.90356666
-0.022672864 0.1627112 0.90283328
-0.018024398 0.16296679 0.90192103
-0.013326626 0.16328903 0.90177244
-0.016736371 0.16710873 0.90428883
-0.011948847 0.16641152 0.90354997
-0.0077206944 0.16749109 0.90181679
-0.0026718944 0.16922919 0.90065593
-0.0060505201 0.17146334 0.90359992
-0.0026775093 0.17210494 0.90255564
0.0011088272 0.1731429 0.90140021
-0.0009961637 0.17505725 0.90480006
0.0032140415 0.17799425 0.90262508
0.0040590363 0.18146816 0.90319997
0.0061538965 0.18326716 0.90171677
0.0082609588 0.18798257 0.90220851
0.011607951 0.18936431 0.90080035
0.012469037 0.19276895 0.90235573
0.016665999 0.19460353 0.90178347
0.02418948 0.19424026 0.90010017
0.032611813 0.1944105 0.90088922
0.037682552 0.19456875 0.90162247
0.042697489 0.19443448 0.90100032
0.046032988 0.19432658 0.90050024
0.059461933 0.194305 0.9004004
0.061980821 0.194305 0.90040028
0.014172188 0.19667634 0.90359992
0.017858755 0.19712791 0.90258676
0.022564737 0.1972212 0.90224457
0.027616942 0.19725282 0.90238899
0.032681264 0.19734626 0.90281671
0.038090926 0.1972895 0.90332663
0.042764261 0.19725741 0.90241116
0.047764834 0.19789732 0.90150017
0.052822035 0.19794452 0.90171504
0.057911795 0.19725503 0.90240002
0.062955327 0.19724436 0.90235013
0.067096598 0.19788525 0.9014504
0.042838022 0.20011936 0.90396667
0.047907088 0.20226997 0.90418333
0.053384237 0.20225671 0.90412498
0.0568932 0.20069985 0.9040556
0.064814903 0.20030382 0.90480006
0.066512145 0.20033334 0.90493327
-0.01116847 0.11495472 0.90866667
-0.0073517384 0.11447385 0.90820736
-0.004384507 0.11481685 0.90757722
-0.011168971 0.11833954 0.90870762
-0.0083290087 0.11755168 0.90697247
-0.0032547656 0.11705041 0.9074375
-0.016977884 0.12218688 0.90858597
-0.013276963 0.12203362 0.90790009
-0.021900468 0.12903003 0.90860015
-0.01856222 0.12705949 0.90760857
-0.014531119 0.12570974 0.90700024
-0.028089792 0.13258046 0.907839
-0.024014339 0.13133276 0.90738678
-0.033098605 0.1617914 0.90591258
-0.03230051 0.16539921 0.90721691
-0.027841782 0.16668628 0.90765256
-0.023220005 0.16744958 0.9065668
-0.019014733 0.1679308 0.90570015
-0.01324475 0.16808024 0.90575004
-0.022473939 0.17191665 0.90895563
-0.017919861 0.17215832 0.90725583
-0.012843511 0.17215602 0.90724468
-0.0082388539 0.17215022 0.90594774
-0.017948875 0.17581396 0.90871143
-0.012524565 0.17648724 0.90869361
-0.0077755577 0.17739408 0.9081409
-0.0029005175 0.17730039 0.90658355
0.00069183449 0.17771974 0.90550005
-0.0060891323 0.18186192 0.90936673
-0.0024835404 0.18232736 0.90852523
0.0018999304 0.18241796 0.90672404
-0.0018500292 0.18613812 0.90960008
0.0025977849 0.18731083 0.90810442
0.0057584587 0.18783653 0.90555006
0.0040857005 0.19196227 0.90913343
0.0072445734 0.19252013 0.90678352
0.0076796217 0.19746454 0.90819192
0.012036009 0.19742532 0.9059335
0.015885493 0.19870843 0.90520006
0.036144011 0.19870843 0.90520012
0.0086116111 0.20193557 0.90962225
0.012762729 0.20255229 0.90827525
0.017606191 0.2024575 0.90690398
0.022663543 0.20230426 0.90621877
0.027731217 0.20228186 0.90611863
0.032811895 0.20235227 0.90643352
0.037868991 0.20227598 0.90609276
0.042922352 0.20304029 0.90574455
0.04798485 0.20386127 0.90565014
0.052227225 0.20393631 0.90598345
0.058731895 0.20290811 0.90640587
0.062789395 0.20245256 0.90688121
0.0666814 0.20295742 0.90725023
0.014264202 0.20641226 0.90946662
0.017861038 0.20781131 0.9091084
0.022722365 0.20789792 0.9085632
0.027804466 0.20767727 0.90852112
0.033120085 0.20734294 0.90824795
0.037930038 0.20766759 0.90755588
0.042988345 0.20757027 0.90712994
0.048051711 0.2075187 0.90690398
0.053139258 0.20757207 0.90713733
0.058033787 0.2074687 0.90760857
0.062002327 0.20798047 0.90892237
0.065163545 0.20645764 0.90966666
0.038422052 0.21184294 0.9091751
0.043304358 0.21251519 0.90869075
0.048155393 0.21282636 0.90885854
0.053045023 0.21289265 0.90914178
0.057774525 0.21196122 0.90907782
0.060082708 0.21156511 0.90979993
-0.013771966 0.11886638 0.91274488
-0.021992547 0.12335265 0.91243333
-0.019679312 0.12279515 0.91039991
-0.026964903 0.12778151 0.91275322
-0.023343105 0.126679 0.91137135
-0.027326457 0.1304478 0.91062409
-0.031618409 0.16880736 0.91195011
-0.029039577 0.16949069 0.91106665
-0.031692374 0.17260286 0.91408354
-0.028247684 0.17238541 0.91293341
-0.024231797 0.1740569 0.91131109
-0.03058028 0.1758597 0.91481143
-0.027436148 0.17603888 0.91426694
-0.023137921 0.17746125 0.91283345
-0.017575158 0.1784324 0.91129166
-0.012902002 0.17916663 0.9114334
-0.031723 0.18213032 0.91496688
-0.022753496 0.18076497 0.91451699
-0.018044597 0.18185697 0.91359061
-0.012933329 0.18214083 0.91359466
-0.0086519439 0.18224362 0.91127503
-0.004397179 0.18456778 0.91019994
-0.016346099 0.18531801 0.9139002
-0.011240577 0.18544647 0.91453367
-0.0075773471 0.18645345 0.91350973
-0.002706883 0.18834586 0.91210002
0.00069565471 0.18970971 0.91049993
-0.002370683 0.19184151 0.91420019
0.0020578983 0.19324043 0.91278017
0.0032507121 0.19703391 0.91305017
0.0057888771 0.19983537 0.91033328
0.0041059246 0.20141035 0.91363347
0.0066510057 0.20279002 0.91220009
0.010881428 0.20490055 0.91026664
0.0086452542 0.20612516 0.91318899
0.012258767 0.20795517 0.91178006
0.027850874 0.20992655 0.91003323
0.032095741 0.20993808 0.91008323
0.066457555 0.20809643 0.91190004
0.013302917 0.21172173 0.9133935
0.017474012 0.21270347 0.91260481
0.022793137 0.21278541 0.91140002
0.027904479 0.21287887 0.91179997
0.032995228 0.2128101 0.91150552
0.037202485 0.21340984 0.91044998
0.056705751 0.21331997 0.91006666
0.06247716 0.2125753 0.91171116
0.065502584 0.21178472 0.91440022
0.018608171 0.21607605 0.91456693
-0.031179285 0.17830192 0.91570026
-0.027464036 0.1787719 0.91520035
-0.030717215 0.18223962 0.91551352
-0.027477913 0.18227018 0.91566682
-0.023539828 0.18321033 0.9152602
-0.019778749 0.18383898 0.91500038
-0.014659286 0.18383898 0.91500038
-0.03015928 0.18727157 0.91931665
-0.027053367 0.18765271 0.91866654
-0.023036163 0.1874962 0.91727084
-0.018298283 0.18758477 0.91562527
-0.013175668 0.18758221 0.9156127
-0.0086865807 0.18894526 0.91500038
-0.022446752 0.19156751 0.91941667
-0.01813475 0.19215123 0.91811663
-0.012752888 0.19252267 0.91814274
-0.0078478782 0.19269532 0.91663712
-0.0038527651 0.19354063 0.91526705
-0.016455205 0.19511183 0.9199999
-0.0074398979 0.19704773 0.91904992
-0.0024783888 0.19757397 0.91780472
0.0011262302 0.1980278 0.91567528
-0.0018697821 0.20098501 0.91946661
0.0018401182 0.20186059 0.91696668
0.0058215191 0.20436804 0.91546696
0.0041286941 0.20508988 0.91869992
0.0075363624 0.20803179 0.91661119
0.0082374848 0.2121911 0.91836643
0.011799923 0.21379483 0.91572529
-0.030251138 0.19298908 0.92211676
-0.027016953 0.19227467 0.92177516
-0.02247683 0.1935371 0.92065006
-0.026447546 0.1964767 0.92440814
-0.022550404 0.19761132 0.92367786
-0.018441334 0.19763629 0.92278755
-0.013275702 0.1975944 0.92259169
-0.0087456666 0.19878273 0.92115009
-0.018844379 0.20190303 0.92497754
-0.011942632 0.20187883 0.92486644
-0.0079058595 0.20268965 0.92332977
-0.0033061849 0.20285928 0.92150015
0.00070296408 0.20368348 0.92006671
-0.0070563843 0.20649625 0.92499977
-0.0023977743 0.2070953 0.92459983
0.0024253936 0.20776992 0.92300951
0.0058543743 0.20894656 0.92063332
0.0058647604 0.21274935 0.92226678
-0.030377991 0.19724262 0.92598319
-0.026906652 0.19855267 0.92539978
-0.027004043 0.2012797 0.92871672
-0.022114713 0.20281513 0.9270466
-0.016554773 0.20231858 0.92556643
-0.013544723 0.20333478 0.92627484
-0.020085335 0.20656657 0.92918336
-0.017478475 0.20734227 0.92878324
-0.013140812 0.2072227 0.92825228
-0.0083645694 0.20812421 0.92649984
-0.0027441336 0.20912251 0.92519975
0.00070688577 0.20998301 0.92519975
-0.027107799 0.2040692 0.93225569
-0.026815176 0.20715657 0.93418664
-0.022171663 0.2080279 0.93186122
-0.014900138 0.20934997 0.93003356
-0.030739404 0.20394617 0.93699998
-0.028954756 0.20803688 0.9357999
-0.03262791 0.20483138 0.94106692
