# .PCD v0.7 - Point Cloud Data file format
VERSION 0.7
FIELDS x y z
SIZE 4 4 4
TYPE F F F
COUNT 1 1 1
WIDTH 1116
HEIGHT 1
VIEWPOINT 0 0 0 1 0 0 0
POINTS 1116
DATA ascii
-0.017711852 -0.031959578 0.18916306
-0.0077469307 -0.036054667 0.18957284
0.00051628333 -0.038114123 0.18840751
-0.022449929 -0.031562731 0.18626809
-0.014058802 -0.036842372 0.18638438
-0.0041546542 -0.038882948 0.18473196
-0.018860668 -0.035199046 0.18197101
-0.0093684457 -0.038052861 0.18165642
-0.019270817 -0.023846153 0.19137836
-0.01065647 -0.027247751 0.19087243
-0.00054145139 -0.031943202 0.19139537
0.0037465477 -0.032877229 0.19090167
0.0081449961 -0.034349449 0.19049525
0.013486192 -0.035825334 0.19013107
0.017569762 -0.037138037 0.18911922
-0.027856112 -0.022462443 0.18901357
-0.02077277 -0.02737283 0.19015187
-0.010945289 -0.029905517 0.19062725
-0.0026190178 -0.033950623 0.1905629
0.0027952399 -0.036781665 0.18882561
0.0064196885 -0.037647996 0.18793181
0.012241999 -0.038146015 0.18693826
0.01696584 -0.038876705 0.18602231
-0.02886956 -0.024730828 0.18518439
-0.023340987 -0.030793646 0.18374532
0.00095154531 -0.039049119 0.183146
0.0059898878 -0.038901441 0.18251693
0.010948193 -0.039258156 0.18287826
0.015583687 -0.039867476 0.18333027
-0.022912323 -0.031326622 0.1802828
-0.008846404 -0.038340908 0.17921287
0.00046445057 -0.03923858 0.17814988
0.0044214996 -0.039199591 0.17821193
-0.019678617 -0.035107791 0.17606828
-0.0095751714 -0.038862001 0.17533961
0.00016884506 -0.039615359 0.17479119
-0.019699927 -0.035454184 0.17187363
-0.010063925 -0.038590074 0.1711902
0.0065565687 -0.026483562 0.1911194
0.012399848 -0.028613865 0.19067827
0.01588944 -0.03032504 0.19065672
0.020457912 -0.032946587 0.1918759
-0.026901376 -0.016486796 0.19018325
-0.022246981 -0.018766191 0.1911982
-0.013496798 -0.022067862 0.19168869
-0.00373118 -0.024727959 0.19026956
0.00028721429 -0.028291512 0.19158262
0.0051834024 -0.029643586 0.19142646
0.0094649252 -0.031436276 0.19123122
0.014224655 -0.033413243 0.19100538
0.019642022 -0.03637673 0.18993366
0.023087293 -0.03677091 0.18767971
-0.031625584 -0.01616047 0.18505719
-0.029551633 -0.018632418 0.18795782
0.019574195 -0.038695518 0.1851871
0.022581646 -0.039536927 0.18481636
-0.030503307 -0.020994974 0.18313649
0.012053641 -0.039295726 0.17974496
0.017560488 -0.039546303 0.18053153
0.02200548 -0.040504195 0.18004459
-0.029708907 -0.022524595 0.17815617
-0.027297698 -0.02666552 0.17761829
0.005924318 -0.039452538 0.17609355
0.010358387 -0.039609201 0.17552033
0.015228713 -0.03929767 0.17557561
-0.028668918 -0.02383801 0.17298645
-0.023890456 -0.030697275 0.17286181
0.00023123063 -0.039205395 0.17177337
0.0050711073 -0.039739378 0.17160243
0.0098976884 -0.040264174 0.17050967
0.013564898 -0.039725777 0.17097896
-0.023433065 -0.030568734 0.16872579
-0.009562362 -0.037380736 0.16771021
0.00038576964 -0.038525995 0.16809559
0.0048056031 -0.040058814 0.16817498
0.0087354584 -0.040724169 0.16742051
-0.023193268 -0.030774061 0.16455835
-0.01564455 -0.036120955 0.16442484
-0.020045748 -0.034118824 0.1608026
-0.012695122 -0.036654394 0.16015142
0.021063738 -0.024823658 0.19442773
-0.019380616 -0.012483733 0.19130686
-0.015199894 -0.014863438 0.19118774
-0.0067861821 -0.01802716 0.19106233
0.0028004902 -0.022257894 0.19087425
0.0082182018 -0.022708837 0.19132394
0.012105545 -0.024975151 0.19081265
0.016602837 -0.02689573 0.19131079
0.02012551 -0.028619383 0.19219539
0.024977975 -0.030933015 0.18939286
-0.030012686 -0.011026083 0.18783283
-0.026092559 -0.012240825 0.19010353
-0.022304937 -0.010353286 0.19020855
0.024885286 -0.032893572 0.18776196
-0.031168092 -0.012881996 0.18537351
-0.032482788 -0.015610758 0.1813145
-0.033739597 -0.015875651 0.17628896
-0.031284153 -0.019665219 0.17654437
0.017932955 -0.03904872 0.17332596
0.022309378 -0.039497826 0.17386711
0.025321933 -0.04027896 0.17160764
-0.034189261 -0.016519515 0.17308605
-0.030693419 -0.021038095 0.17167974
0.015651193 -0.040010795 0.16889635
0.020977903 -0.039749335 0.16798955
0.02527348 -0.040235151 0.16881689
-0.030179139 -0.022607364 0.16759878
-0.028119357 -0.025736278 0.1665298
0.00066817645 -0.037604075 0.16496101
0.0050630383 -0.039205715 0.16481063
0.010035262 -0.040037416 0.16424403
0.014638754 -0.040164776 0.1637342
-0.027799688 -0.026709003 0.16256598
-0.0088897292 -0.036618523 0.16160852
0.0003598202 -0.037446029 0.1607182
0.0051477812 -0.038685337 0.16074806
0.0090822726 -0.039469581 0.16099131
-0.023648717 -0.030743666 0.1581887
-0.016438019 -0.036240671 0.15774953
-0.0049567549 -0.037553813 0.15675268
-0.022497125 -0.03100783 0.15401673
-0.016232386 -0.036268558 0.15348694
-0.0077829352 -0.037654903 0.15304765
-0.013309295 -0.036913022 0.14923599
0.021047121 -0.017287288 0.19494486
0.015491562 -0.017867755 0.19126961
0.01988104 -0.020204641 0.1929408
-0.026499804 -0.0037323339 0.18956235
-0.023747694 -0.0055274521 0.19070831
-0.019313166 -0.0079301596 0.19111031
-0.014165584 -0.010419258 0.19093537
-0.0047133616 -0.013123152 0.19146773
0.0049971761 -0.016290039 0.19053251
0.010130459 -0.018328123 0.19115087
0.014173886 -0.020845734 0.1914137
0.017969988 -0.02192123 0.19095996
-0.032267477 -0.0048302906 0.18531662
-0.029496167 -0.006234074 0.18763047
-0.024766702 -0.0079393424 0.18955892
-0.033069018 -0.0063174265 0.18175223
-0.031745564 -0.0084987683 0.18260908
-0.034529962 -0.009564124 0.17844942
-0.033387236 -0.011062223 0.17897969
-0.035418052 -0.011133476 0.17403334
-0.036444858 -0.013282138 0.17091823
-0.033861559 -0.015071524 0.16935402
0.023992838 -0.039119598 0.16574553
-0.032643821 -0.01585573 0.16665962
-0.031146582 -0.01954769 0.16504043
0.016626377 -0.039855249 0.16086805
0.020847395 -0.039505988 0.16232798
-0.030497948 -0.020541519 0.15981939
-0.028912608 -0.024607966 0.15954894
0.0022914531 -0.037172727 0.15787685
0.0053528929 -0.037955079 0.15744054
0.010401691 -0.03874708 0.15775934
0.014918374 -0.039606541 0.15747511
0.020169975 -0.038510174 0.15761325
-0.030437596 -0.02142051 0.15524679
-0.028097849 -0.024959257 0.15557039
-0.0029847389 -0.037146594 0.15380192
0.00087248534 -0.036656521 0.15399295
0.0053602429 -0.037616771 0.15347227
0.0099645061 -0.038809214 0.15282297
0.014172481 -0.039661255 0.15271342
-0.027125159 -0.025736477 0.15051275
-0.021353135 -0.031898331 0.15045041
-0.0050207386 -0.037125316 0.15021247
0.00032105111 -0.036977652 0.14892823
0.004966639 -0.038076051 0.14820385
0.0093130711 -0.039418019 0.14795744
0.012786634 -0.039914824 0.14887452
-0.020117272 -0.032553017 0.14669576
-0.011478793 -0.036819506 0.14649209
-0.0019670678 -0.037884124 0.14449573
-0.016160486 -0.035254735 0.14171842
-0.0077132345 -0.038414802 0.14142415
-0.013053921 -0.037089579 0.13787037
0.019015141 -0.012724612 0.1936681
0.020795802 -0.015015334 0.19563174
-0.024807746 0.0025284123 0.19121552
-0.021191837 0.00074672094 0.19211701
-0.016192349 -0.0013351017 0.19174895
-0.010637349 -0.0036689613 0.19116834
-0.0068147033 -0.0057758978 0.19080529
0.002444162 -0.0092478218 0.1906215
0.0065694591 -0.010669481 0.19072729
0.01186427 -0.01303763 0.1908724
0.016931342 -0.014676549 0.19190994
0.01943256 -0.016922448 0.19335529
-0.029359378 0.0022903588 0.18797213
-0.027075808 -0.00036970619 0.18995461
-0.022535538 -0.0025732489 0.19152075
-0.017348085 -0.0044350615 0.19111392
-0.012257162 -0.0065555968 0.19087419
-0.0095336195 -0.0082585588 0.19105509
0.0014973879 -0.012449368 0.19031596
-0.032136787 -0.00090794079 0.1858758
-0.029535422 -0.0025610039 0.1879136
-0.033328295 -0.0036816662 0.18173194
-0.034602989 -0.0045416588 0.17373797
-0.036014587 -0.0080034379 0.17239839
-0.036069106 -0.011656245 0.16705668
-0.036097396 -0.011390014 0.16503221
-0.03338537 -0.012910916 0.16357201
-0.031402543 -0.016419433 0.16288203
0.024339382 -0.038025346 0.15938646
-0.03193213 -0.012818421 0.15900761
-0.031245172 -0.016355587 0.15808979
0.020938605 -0.038894035 0.15526482
0.023481408 -0.039676655 0.15592536
-0.031353813 -0.020233329 0.15337902
0.015949313 -0.0393828 0.15012294
0.020215344 -0.038907543 0.15019667
0.022960961 -0.040464748 0.14994749
-0.030925548 -0.02060285 0.14873138
-0.029430373 -0.023313187 0.14900127
0.010741274 -0.040415596 0.14600894
0.014620143 -0.03998578 0.14623106
0.019173993 -0.03979174 0.14524633
-0.028005395 -0.025015358 0.14456511
0.00070981216 -0.03795087 0.14334059
0.0046699466 -0.038301479 0.14273214
0.0092802895 -0.039539471 0.14210021
0.013985085 -0.039681889 0.14218944
-0.026945651 -0.025489159 0.14054301
-0.020670943 -0.032218646 0.13980326
-0.0067781676 -0.038539086 0.13876295
0.0041158646 -0.038236871 0.13856474
0.0092073698 -0.039414819 0.13822353
-0.02063993 -0.032417811 0.13532192
-0.012178585 -0.037346799 0.13530049
-0.0029874556 -0.037950236 0.13402051
-0.016932361 -0.034525599 0.13090384
-0.0075196438 -0.037465446 0.13062888
-0.024483431 0.0097128563 0.19280833
-0.020066675 0.0078874398 0.19259146
-0.012800439 0.0045945728 0.1923894
-0.0096932547 0.0038273369 0.19196057
0.0065530785 -0.0026809548 0.19105247
0.0094998246 -0.003878376 0.19089678
0.013668632 -0.0062844371 0.19105712
0.017515892 -0.0087074367 0.19242144
-0.027634582 0.0081448378 0.19042969
-0.024603358 0.0057850159 0.19177783
-0.019745968 0.004351466 0.19254941
-0.014594115 0.0018745337 0.19211477
-0.0099108024 -3.5035657e-05 0.19150227
-0.0050383857 -0.0014711969 0.19076836
0.0034806968 -0.0049696583 0.19052339
0.0081707072 -0.0069825817 0.19107077
0.01234641 -0.0093291122 0.19119912
-0.029610328 0.0049655754 0.18796837
-0.032046385 0.0049259854 0.18355328
-0.03395265 0.00053491816 0.18000722
-0.035056654 -0.0079761017 0.1608263
-0.031878855 -0.0081473654 0.15810287
-0.031870078 -0.012141745 0.15574139
-0.032047812 -0.011821158 0.15084267
-0.03164408 -0.015492748 0.15295219
-0.031338573 -0.016043097 0.14748234
0.021788482 -0.038885355 0.14362639
-0.031302758 -0.019227907 0.14331633
-0.029781666 -0.021974202 0.14111891
0.014932558 -0.039103258 0.13895726
0.020253878 -0.038735054 0.13962406
0.023322988 -0.039056007 0.13848025
-0.031066751 -0.019420564 0.13846636
-0.028111275 -0.023459192 0.13748592
0.0049837707 -0.037781473 0.13541999
0.0092038345 -0.039199613 0.13521004
0.014323534 -0.039393567 0.13471609
0.019558534 -0.038949676 0.13499588
0.023036137 -0.039534345 0.13598377
-0.026738439 -0.024269966 0.13239014
-0.0013199244 -0.037862185 0.13152111
0.0027440852 -0.037819434 0.13151401
0.0082897181 -0.038163174 0.13039869
0.014285727 -0.039212361 0.13075665
-0.0214094 -0.032110699 0.12894154
-0.011763217 -0.035988152 0.12762195
-0.0024316348 -0.037359759 0.12703198
0.0018122317 -0.037562415 0.12680387
-0.020979524 -0.032373019 0.12404746
-0.012349321 -0.03590209 0.12338465
-0.0041975155 -0.037006825 0.12250328
-0.017239332 -0.03477212 0.11951983
-0.025484649 0.017696094 0.19625935
-0.028953485 0.016186375 0.1914869
-0.026073277 0.014377036 0.19353497
-0.021959919 0.011846525 0.19253668
-0.017236911 0.0097510954 0.19176236
-0.012450292 0.0091325305 0.192527
-0.0072729671 0.0069448519 0.19282836
-0.0025690161 0.0044072554 0.19158673
0.006137073 0.00089797797 0.19134283
0.011034473 -0.00036285562 0.19139084
0.015513426 -0.0020584229 0.19108796
0.020289466 -0.0032074391 0.19226864
-0.030650739 0.014563805 0.18815899
-0.028715139 0.011474268 0.18976268
-0.031882312 0.011997515 0.18428662
-0.030348103 0.0090538505 0.18547377
-0.031694409 0.010781562 0.18115932
-0.032348774 -0.0046113273 0.156138
-0.032064334 -0.0061101671 0.15351328
-0.032010045 -0.0069920011 0.14886037
-0.031847779 -0.010233771 0.14406195
-0.031418249 -0.013696821 0.14510262
-0.032194868 -0.015103638 0.14140397
-0.033745781 -0.013696073 0.13520196
-0.0325238 -0.016929116 0.13647684
0.021207385 -0.039509945 0.13267344
0.02413312 -0.040024538 0.13287073
-0.030865293 -0.017885379 0.13162944
-0.028947234 -0.021399714 0.13182211
0.010234712 -0.038285144 0.12754858
0.014013359 -0.038669609 0.12807351
0.019489333 -0.03922417 0.1291514
0.023499928 -0.040010579 0.12841165
-0.028784268 -0.021756118 0.12714219
-0.026208047 -0.025553588 0.12645423
0.0033088373 -0.037536401 0.12456995
0.0076394528 -0.037486732 0.12419945
0.013810718 -0.037893098 0.12423491
0.018955979 -0.038211703 0.12478322
0.025003787 -0.040959883 0.12401432
-0.027723499 -0.022930788 0.12366867
-0.022235345 -0.030323369 0.12090886
0.002557002 -0.037240978 0.11954194
0.0074068122 -0.037190434 0.11993331
0.011318285 -0.037335664 0.12075174
-0.021702623 -0.031316537 0.11682862
-0.012804758 -0.036286466 0.11695647
-0.0029280987 -0.036942381 0.11545777
0.00074248295 -0.037006408 0.11506474
-0.017728958 -0.035180207 0.11289477
-0.0084313797 -0.036959797 0.11227137
-0.020556552 -0.033117376 0.10847872
-0.014659105 -0.035622306 0.10825807
0.023161214 0.0049209036 0.19652542
-0.028156376 0.019784041 0.19587475
-0.023134064 0.0171538 0.19591796
-0.013846856 0.018106746 0.19480762
-0.010314737 0.014788354 0.19467518
-0.0053626355 0.012708611 0.19475827
0.0047198148 0.0092670266 0.19263947
0.0097696576 0.0077831149 0.19253969
0.013998769 0.0064043887 0.1926029
0.019081252 0.0043803803 0.19249845
0.022494905 0.0021958896 0.19324571
-0.03193054 0.02227773 0.18997672
-0.029156417 0.019220408 0.19272113
-0.019823309 0.016411403 0.19282359
-0.015482552 0.015314946 0.19165677
-0.012311797 0.012954229 0.19276363
-0.00074595725 0.008703691 0.19253379
0.0082836216 0.0053876434 0.19186929
0.012557682 0.003123532 0.191921
0.017041564 0.0013952786 0.19163406
-0.033751652 0.019435057 0.18731168
-0.031844981 0.017254461 0.18852729
-0.034440566 0.016995598 0.18225858
-0.033385478 0.015075934 0.18301773
-0.032308199 0.013285009 0.17844445
-0.032034766 0.0116217 0.17136368
-0.032852814 0.0097359186 0.16981739
-0.031678196 0.0064611412 0.17165434
-0.032755222 -0.00048745424 0.15188682
-0.032817163 -0.00493389 0.15073371
-0.033156034 -0.00095104054 0.14843607
-0.032708671 -0.0050633457 0.14645636
-0.032562856 -0.007393661 0.14253116
-0.032793146 -0.010055023 0.13883278
-0.034036603 -0.011583498 0.13396132
-0.034633219 -0.012779908 0.12905669
-0.032438565 -0.015690561 0.12984326
-0.035229266 -0.013823975 0.12600046
-0.031778745 -0.017231468 0.12543839
-0.03006782 -0.02028317 0.12464136
0.014850497 -0.037362959 0.12161535
0.019653376 -0.037947744 0.1217103
0.023702871 -0.039846387 0.12175083
-0.031982068 -0.01837795 0.12047726
-0.029343717 -0.021766061 0.12121791
-0.026706833 -0.024233703 0.12028396
0.0088578919 -0.037420396 0.11831957
0.013021014 -0.037774831 0.11829656
0.017806431 -0.037856579 0.11733031
0.023486514 -0.039438706 0.11730784
-0.029349051 -0.022123657 0.11604822
-0.0011929851 -0.037237801 0.11288726
0.0026334813 -0.03740672 0.11413598
0.0074568167 -0.037630755 0.11431909
0.012363506 -0.038392022 0.11325824
0.015772209 -0.038598608 0.11230803
-0.028282192 -0.022666339 0.11187053
-0.022467826 -0.030957133 0.11027503
-0.0030055139 -0.037067279 0.10941076
0.0022588223 -0.037595723 0.10979772
0.0068581896 -0.038080662 0.10913599
0.011319997 -0.038498558 0.10971427
-0.021544619 -0.03095999 0.10568613
-0.012727341 -0.035366286 0.10522664
-0.0026288442 -0.036871884 0.1056928
0.0016081128 -0.037404574 0.10537297
-0.017483568 -0.034108765 0.10140187
0.0034140425 0.017438931 0.19478521
0.011438815 0.012511618 0.1947549
0.016673226 0.011602217 0.19459313
0.020786574 0.0097041577 0.19467762
0.023144159 0.0070504015 0.19449773
-0.017119216 0.019784262 0.19293481
-0.014613864 0.019621473 0.19235292
0.0066987965 0.014020745 0.19242463
0.015356569 0.0094771022 0.19343174
0.018825069 0.007406923 0.19266012
-0.031564351 0.025774084 0.18895587
-0.029397413 0.024422448 0.19002986
-0.032578185 0.025865838 0.18636179
-0.034386165 0.021733735 0.18248755
-0.034056798 0.019149777 0.17625427
-0.032623421 0.017084451 0.17479017
-0.044311866 0.020557011 0.17073599
-0.042498697 0.020721251 0.17108673
-0.03247638 0.015604655 0.17138526
-0.044967987 0.019132474 0.16886646
-0.04314065 0.019565621 0.1681065
-0.033848226 0.013999554 0.16711056
-0.035206068 0.013833609 0.16338837
-0.032073952 0.0058269459 0.15178108
-0.032636885 0.0048927106 0.14863795
-0.032856256 0.00047490187 0.14458814
-0.033050381 0.00044544321 0.14175478
-0.03271528 -0.0030465592 0.14087662
-0.032806046 -0.0047428189 0.13612425
-0.035063975 -0.0076302979 0.13178635
-0.033388015 -0.010588032 0.12137729
-0.032647684 -0.013222089 0.12185967
-0.032772243 -0.01437313 0.11772096
0.019890431 -0.03746381 0.11420101
0.022975115 -0.038448304 0.11386961
0.026004585 -0.039557733 0.11363745
-0.031731971 -0.016672269 0.11335558
-0.030772895 -0.020370988 0.11312169
0.018976923 -0.03729368 0.11042446
0.022669166 -0.037624355 0.11012787
0.026179574 -0.039066222 0.111283
-0.031552132 -0.017392948 0.10940731
-0.02927262 -0.020328429 0.10864359
-0.026921555 -0.023188705 0.10880733
0.0090151876 -0.037447035 0.10578728
0.012835057 -0.037406191 0.10594684
0.017238759 -0.037311506 0.1058318
-0.028375443 -0.021849137 0.10439372
-0.02609876 -0.02428248 0.10405123
-0.0058523337 -0.034935322 0.1029439
0.002818902 -0.036129665 0.10142815
0.0073212003 -0.036998197 0.10204893
0.012124243 -0.037169315 0.10210532
0.015824288 -0.037811864 0.10183942
-0.025279649 -0.025130926 0.099946737
-0.018817764 -0.032027297 0.099215269
-0.0075899544 -0.034527119 0.099240422
0.0020946143 -0.036431652 0.097370982
0.0060439026 -0.03687764 0.097718775
-0.01753787 -0.032694411 0.09524554
-0.008021269 -0.034978334 0.09367919
0.00014808867 -0.036550205 0.094077647
-0.013683805 -0.03488946 0.09003222
-0.034077056 0.023284458 0.17872488
-0.034890532 0.02361496 0.17370299
-0.040374096 0.02228016 0.16866487
-0.035424542 0.020851081 0.17024857
-0.039908793 0.021511044 0.16705385
-0.036607388 0.018965699 0.16564775
-0.034587923 0.015318714 0.16427743
-0.03605793 0.016429864 0.16214433
-0.032107748 0.010814903 0.14883727
-0.032533742 0.0084707327 0.14712104
-0.032918412 0.00516603 0.14273691
-0.032722596 0.0034679016 0.13786179
-0.031679425 0.00088963099 0.13326147
-0.032944981 -0.0021118727 0.13159105
-0.032415975 -0.0074082436 0.11703843
-0.032257829 -0.012864091 0.11161113
0.024857584 -0.036573425 0.10674965
0.02743875 -0.036168654 0.10698628
-0.032130033 -0.016257195 0.10684192
-0.03049621 -0.018618707 0.10590029
0.019012246 -0.036771283 0.1031065
0.023345031 -0.037052184 0.1028977
0.027532831 -0.035803303 0.10371977
-0.032061674 -0.01621338 0.10278821
-0.029901769 -0.019721117 0.10216415
0.01305533 -0.036649827 0.098750472
0.017902946 -0.036986239 0.098940015
0.022655465 -0.037526488 0.09863323
-0.031921133 -0.016788237 0.099111795
-0.029564785 -0.020680565 0.097255647
-0.026701074 -0.024003897 0.097635031
0.0076714996 -0.03702246 0.095277309
0.012221275 -0.036929831 0.094643652
0.016132709 -0.036628529 0.093912363
-0.029303994 -0.022583734 0.093149424
-0.026827987 -0.025146738 0.093093395
-0.0025231056 -0.036290526 0.090753555
0.0017907368 -0.037145127 0.091680825
0.0068074372 -0.037255257 0.090347886
0.011184925 -0.037413456 0.090021074
-0.026096193 -0.025615791 0.088457882
-0.019042492 -0.031813502 0.088332891
-0.0081589576 -0.03608232 0.087772012
0.00088248029 -0.037795231 0.086878419
0.0048195655 -0.037377656 0.086033225
-0.018231928 -0.032535441 0.084007084
-0.0091372747 -0.035110515 0.082681656
-0.014399407 -0.03475311 0.078579009
-0.036266629 0.02831086 0.17085171
-0.034847163 0.026984451 0.17310372
-0.037804343 0.026927495 0.16869506
-0.035958543 0.021888394 0.15947232
-0.035061177 0.020294446 0.15578175
-0.033546261 0.014034671 0.14832503
-0.034287762 0.013443751 0.14499551
-0.032674324 0.010256496 0.14349878
-0.033717945 0.012673602 0.1403994
-0.033053767 0.0098819928 0.13992661
-0.032915045 0.0086738337 0.13571692
-0.030831622 0.0037428844 0.12926531
-0.030731462 -0.0061305221 0.10768622
0.027714178 -0.035243459 0.10028368
-0.032097444 -0.012839108 0.099515438
0.024848655 -0.037328687 0.096582353
0.027491998 -0.035631556 0.09860599
-0.031779572 -0.015879201 0.095419049
-0.030933687 -0.018232726 0.095741987
0.019203875 -0.035760604 0.093322933
0.023251198 -0.035384685 0.092418849
-0.030400801 -0.019171447 0.091154933
0.012801412 -0.037315421 0.088812709
0.017946821 -0.035719715 0.087886393
-0.030012473 -0.019718295 0.08632201
-0.027188271 -0.024044607 0.086369634
0.0030799685 -0.037063733 0.083347678
0.0072335517 -0.036623962 0.08409071
0.012324469 -0.037001219 0.083703995
0.015838489 -0.036625627 0.083872616
-0.029227037 -0.020944463 0.082836628
-0.026816875 -0.023610577 0.0818609
-0.019512262 -0.030449508 0.080669999
-0.0026600705 -0.034615874 0.079981029
0.0016288059 -0.03603974 0.080054462
0.0069025364 -0.036235884 0.079782248
0.011895659 -0.037158307 0.080460429
-0.025624074 -0.024523618 0.078011036
-0.01926484 -0.03048851 0.077034831
-0.0088668959 -0.035217155 0.076202989
0.0012433873 -0.035958868 0.075594127
0.0049673067 -0.036258344 0.076012969
-0.019003449 -0.030776007 0.07270205
-0.01010762 -0.035075355 0.071818471
-0.015527366 -0.033331193 0.068550229
-0.036607884 0.023802057 0.15678811
-0.036065299 0.022492092 0.1548005
-0.034795005 0.017874211 0.14739594
-0.037395883 0.01639981 0.14316839
-0.035590738 0.016453506 0.14358416
-0.034722243 0.015731316 0.13885596
-0.034122381 0.013835697 0.13440561
-0.032872304 0.011575653 0.13294432
-0.031857379 0.010140687 0.12989491
-0.030779153 0.0091898153 0.12486678
-0.031898368 -0.0012110174 0.11486202
-0.031548481 -0.0012740111 0.11145681
-0.030322868 -0.00060220156 0.1079545
-0.030449823 -0.0049661594 0.10481739
-0.030329693 -0.0042682486 0.10229856
0.031799495 -0.030325385 0.098715365
0.029424749 -0.032569513 0.093907237
-0.032282807 -0.010434993 0.09247601
0.025421072 -0.034417365 0.089022875
0.028502392 -0.033016935 0.089431405
-0.031126108 -0.01315861 0.088256955
0.019936029 -0.035615552 0.084869504
0.023722988 -0.034788374 0.085340023
-0.031419691 -0.017800063 0.084430277
0.018368594 -0.036003001 0.081284583
0.021812942 -0.035297327 0.081984878
-0.030421449 -0.019077798 0.079873145
-0.028269943 -0.022506766 0.079523385
0.0077938335 -0.036036301 0.076952457
0.011655774 -0.036674879 0.077333272
0.016098469 -0.036396153 0.076872766
0.019815773 -0.035379931 0.076556087
-0.02970558 -0.019861219 0.074527323
-0.027291192 -0.023366757 0.075437546
0.002223162 -0.036111157 0.072728395
0.0064868974 -0.035996884 0.073255658
0.0090012671 -0.034959674 0.071662903
-0.027202372 -0.023147807 0.071383953
-0.020532379 -0.029922381 0.070548952
-0.00024501979 -0.035270415 0.068837762
0.0040208697 -0.035880316 0.069887757
-0.019704819 -0.030280458 0.066287398
-0.010775443 -0.034412351 0.065284371
-0.014652318 -0.032606948 0.061495602
-0.036559902 0.023057286 0.14485356
-0.035892569 0.022869382 0.14280516
-0.037341479 0.019613765 0.13689834
-0.035582863 0.017901974 0.13583028
-0.037384074 0.01851845 0.13203371
-0.035517011 0.016882254 0.13207546
-0.038208663 0.017230792 0.12710989
-0.035196986 0.015822221 0.12706655
-0.032248557 0.01200296 0.12654781
-0.034626417 0.014969243 0.12276721
-0.032144308 0.012893515 0.12297165
-0.030238787 0.00694736 0.11912882
-0.030695198 0.0070788641 0.11115599
-0.033877201 0.0057122698 0.10859489
-0.031836528 0.0044497731 0.10917711
-0.034464434 0.0044291988 0.10530216
-0.031474065 0.0014900453 0.104931
0.034674056 -0.024288252 0.099871576
-0.034763385 0.0028222678 0.10104597
-0.031671897 0.00075999741 0.10061109
-0.030326072 -0.0039069764 0.10003304
0.035790481 -0.026836546 0.094778061
-0.030666318 -0.0041901693 0.096268594
0.031967934 -0.029599225 0.091079175
0.035860404 -0.027989242 0.091066599
-0.033380855 -0.0045787254 0.090784609
-0.031860739 -0.0067785578 0.093313575
0.031418726 -0.030607853 0.087861896
0.033751734 -0.029462686 0.08632493
-0.033896185 -0.0063708648 0.086542964
-0.032084439 -0.0085471096 0.086418867
0.029357703 -0.031971164 0.082750082
-0.034385614 -0.0070774211 0.083082974
-0.032154545 -0.010401667 0.082592547
0.023473388 -0.03417344 0.07928431
0.028035991 -0.032487299 0.078481019
-0.031857405 -0.012205122 0.077054858
-0.03137739 -0.016507078 0.076319456
0.016160851 -0.03525994 0.073581398
0.022653125 -0.034178771 0.074465334
-0.033006549 -0.013809694 0.072885931
-0.0311653 -0.017723242 0.072981238
0.011378947 -0.034444105 0.070901155
0.016564431 -0.034742791 0.070421219
0.021275751 -0.034453273 0.069904685
-0.033999823 -0.01530296 0.069099188
-0.030792801 -0.018431403 0.068869233
-0.026547996 -0.022163514 0.067859948
0.0017820895 -0.034473632 0.065496504
0.0052821608 -0.034784965 0.066250443
0.010939425 -0.034803271 0.066490531
0.015838727 -0.035448767 0.065541744
-0.029938977 -0.020052671 0.063849688
-0.027394187 -0.022106685 0.064207911
-0.019229967 -0.028668711 0.062274337
-0.0048744353 -0.033902649 0.061656594
0.0053461911 -0.034878843 0.061888814
0.010177911 -0.035619766 0.061359048
0.013540536 -0.036243327 0.061698318
-0.026618354 -0.023136942 0.060081601
-0.019387437 -0.028687356 0.059211493
-0.010553407 -0.033776198 0.058247149
-4.2671338e-05 -0.033916112 0.05842495
0.004971779 -0.034865823 0.058429062
-0.019780263 -0.0290638 0.054389417
-0.011195637 -0.034266684 0.054202199
-0.018994633 -0.031014558 0.050311804
-0.01144978 -0.034406576 0.049741447
-0.035309698 0.016794898 0.11999726
-0.030603096 0.015465548 0.11788726
-0.030254126 0.015280356 0.11521041
-0.038752448 0.014393155 0.10896719
-0.031886272 0.011338063 0.10879028
-0.02973213 0.009550442 0.11128885
-0.03624437 0.011985321 0.10669392
-0.03494313 0.0094086695 0.10744411
-0.034867484 0.0070682578 0.10184151
-0.03260465 0.0036710445 0.10183084
0.038293701 -0.020279346 0.095071137
-0.034733362 0.0050388481 0.097530544
-0.032012891 0.0025730981 0.096768975
0.038923565 -0.024060024 0.093969643
0.042908322 -0.024606509 0.091697335
-0.032065041 0.0019627698 0.092591643
0.038175672 -0.027979942 0.089000583
0.042086106 -0.027466942 0.088415563
0.046094391 -0.026770471 0.087680995
-0.034407601 -0.00081152562 0.089482486
0.036986217 -0.028361827 0.084522724
0.040667512 -0.027702944 0.084248126
-0.035002232 -0.0024817856 0.084646583
0.03480377 -0.029563878 0.080576599
-0.03469228 -0.0052147955 0.080864429
-0.03318217 -0.0079519004 0.079166532
0.03010316 -0.030836664 0.07509762
0.033673525 -0.029144293 0.0758425
-0.032828692 -0.0083151534 0.075575233
0.028171957 -0.03170117 0.071465254
-0.034156024 -0.010268817 0.070756078
0.023016479 -0.034484245 0.067262173
0.026059996 -0.03315964 0.06667316
-0.034127969 -0.012956546 0.066412687
-0.031961687 -0.016486021 0.06613183
0.021386584 -0.035155561 0.063437223
0.025732657 -0.033664048 0.062973917
-0.030924842 -0.016696207 0.062268734
0.015974205 -0.035886623 0.059257448
0.020189468 -0.035045244 0.057911158
-0.02925026 -0.017448615 0.057519615
-0.027545929 -0.021198353 0.057160079
-0.024788279 -0.024065498 0.05663538
0.0051483735 -0.034179684 0.054717243
0.01016253 -0.035182949 0.054760337
0.014877803 -0.035475187 0.054038763
-0.026505008 -0.022175126 0.052148581
-0.0042730663 -0.034649096 0.051001906
0.0045760358 -0.03455022 0.050529122
0.008925938 -0.034885701 0.050058722
-0.020679398 -0.029261556 0.048231184
-0.011440033 -0.0340841 0.04678154
-0.00043147244 -0.033807322 0.046905339
-0.016077813 -0.031903137 0.043601155
-0.0070137591 -0.03395018 0.042986035
-0.034185071 0.01848227 0.11406076
-0.031063564 0.016489113 0.11402285
-0.034713916 0.01789243 0.10953099
-0.03133969 0.015421562 0.10965693
-0.027461695 0.015502973 0.11083859
-0.036497831 0.014295709 0.10589159
-0.036996078 0.014150351 0.10111058
-0.035267401 0.011046393 0.099868596
0.041236326 -0.01794083 0.09464705
0.044095095 -0.01965813 0.093844116
-0.035117976 0.0096446406 0.096652269
0.045953292 -0.02187355 0.092052102
0.049241327 -0.02290163 0.089565158
-0.035193995 0.0072109853 0.091451347
0.049759466 -0.024902172 0.086278081
-0.036172695 0.0050698817 0.087488532
0.042703513 -0.026889265 0.081661701
0.047402315 -0.025817148 0.082502544
-0.036294471 0.0034886589 0.082632065
0.036897954 -0.028235203 0.077254415
0.041926328 -0.026753861 0.077689111
0.036356151 -0.028062522 0.073790729
0.040510595 -0.026332734 0.073715091
-0.033551026 -0.0035160528 0.074112236
0.031008877 -0.03058596 0.069434404
0.034483578 -0.029083187 0.069298625
0.030074617 -0.030805551 0.065315306
0.033097968 -0.029863365 0.065092802
-0.035097752 -0.0062110275 0.066093564
0.028915323 -0.031788185 0.060246348
-0.032032985 -0.011274723 0.060290158
-0.030943006 -0.012877101 0.058974385
0.022508258 -0.034983855 0.056648314
0.025420867 -0.034017541 0.057045519
-0.029866807 -0.014088999 0.054741979
0.016426358 -0.035268433 0.051593006
0.021307636 -0.035260793 0.052452564
0.025042385 -0.034518633 0.051214933
-0.028897842 -0.015789445 0.051953435
-0.027875971 -0.018745858 0.051138639
0.0057580741 -0.034266233 0.047184408
0.010516956 -0.034936532 0.048129082
0.015555538 -0.035531402 0.04831636
0.020179883 -0.035546754 0.04802084
-0.027315715 -0.021075841 0.047274649
-0.0038981643 -0.033092659 0.043352485
0.0045888657 -0.034645215 0.044699848
0.0099302884 -0.035449844 0.044211566
0.014820386 -0.035683982 0.043535113
-0.026991267 -0.023126153 0.041894019
-0.020349173 -0.028768022 0.040260315
-0.011903541 -0.032275606 0.039201677
-0.00090820435 -0.034394365 0.041146278
0.0039592376 -0.035196342 0.040286183
0.0090347575 -0.035616964 0.040131629
0.013017135 -0.035910077 0.039472044
-0.027541142 -0.023873992 0.037317514
-0.020901047 -0.029118648 0.037268817
-0.011031253 -0.032687884 0.036456347
-0.0012906864 -0.034844577 0.036290348
0.0026636394 -0.035515938 0.035740972
-0.016401457 -0.031478114 0.032719374
-0.007250804 -0.033455484 0.032009363
0.043880779 -0.010448916 0.095076919
0.046586495 -0.010598185 0.094325006
-0.035677791 0.015147317 0.097310364
0.043942109 -0.01321462 0.094288528
0.047681995 -0.01522579 0.092470884
0.050578829 -0.013805849 0.091038167
-0.034899954 0.01317043 0.093221068
0.051486365 -0.019568171 0.089727044
0.055460922 -0.019744368 0.086793303
0.059841696 -0.021428429 0.084855974
-0.036635034 0.013879705 0.090211153
-0.035738248 0.011438906 0.090517044
0.054522917 -0.022695936 0.083270013
0.05755556 -0.022199273 0.081962824
0.049421642 -0.024433663 0.079360902
0.053583946 -0.022572421 0.078307331
0.044574227 -0.025652416 0.075028241
0.047956377 -0.024407821 0.074105799
0.038351852 -0.026844027 0.07061857
0.042378403 -0.02620364 0.070925713
0.044686891 -0.02514812 0.067336738
0.037953518 -0.027528893 0.067051768
0.040789872 -0.027384922 0.066002965
-0.033602506 -0.002549123 0.067177594
0.036087744 -0.028437149 0.061726868
0.039712973 -0.027542528 0.062276959
-0.033540994 -0.0060867025 0.061270833
0.033913512 -0.029748406 0.057382405
0.037365079 -0.028354436 0.057323575
-0.030753661 -0.0072211251 0.054792523
0.029371615 -0.031335384 0.053743839
-0.030474523 -0.010665044 0.051907301
0.028491408 -0.032578066 0.049022198
-0.029670861 -0.013438235 0.048360765
0.022260491 -0.03484723 0.044650555
0.025602594 -0.033973653 0.044783294
-0.029451203 -0.014843532 0.043461919
-0.027738541 -0.017670471 0.043020368
0.015920164 -0.035665337 0.040392756
0.020582514 -0.03508592 0.040709853
0.024775606 -0.034533098 0.040688932
-0.027598334 -0.018688217 0.039279938
0.0061244275 -0.034689978 0.036726117
0.010114351 -0.034781445 0.036226749
0.015043753 -0.035317153 0.036518097
0.020845892 -0.034801148 0.03692627
-0.027519576 -0.020339148 0.033526599
-0.025275435 -0.024534158 0.033789814
0.0045660064 -0.034557164 0.03246206
0.0093460092 -0.034582607 0.032485008
0.015338486 -0.03446357 0.033259988
-0.021056551 -0.028053729 0.029061556
-0.010046657 -0.033245653 0.02855581
-0.0015795762 -0.034331046 0.028747261
0.0038147951 -0.034071423 0.028481007
-0.020275947 -0.027943907 0.025448143
-0.011614699 -0.032786854 0.024717391
-0.0015255744 -0.034399025 0.0249089
-0.01188639 -0.032478578 0.020687938
0.044091221 -0.0042983266 0.099271119
0.045772508 -0.0051557692 0.095186412
0.048587099 -0.008320434 0.093254745
0.050579101 -0.0099547673 0.09162569
0.053314339 -0.012608116 0.089394569
0.057958819 -0.012974903 0.087649345
0.058057956 -0.01561188 0.08675772
0.06111528 -0.018413479 0.085561872
0.060526296 -0.021855548 0.08077693
0.063347824 -0.021834079 0.079856277
0.054491095 -0.02195134 0.076553464
0.059258703 -0.022427259 0.076369643
0.062674463 -0.023106247 0.075720787
0.053910878 -0.022231713 0.072497368
0.058592789 -0.022160137 0.072017729
0.047858436 -0.024442283 0.068940103
0.052800812 -0.023411121 0.06790787
-0.031330336 0.0075240093 0.069857776
0.046787977 -0.025047585 0.064204752
0.050825275 -0.024920421 0.063562334
0.041373089 -0.026574571 0.059629977
0.045991607 -0.025550229 0.059023619
-0.033643298 0.00090768095 0.059459984
0.040258478 -0.027244749 0.055246711
0.044020433 -0.026072765 0.054498494
-0.030404402 -0.0013877135 0.052561879
0.034493241 -0.028230293 0.050796747
0.038688559 -0.027929872 0.050914645
-0.030652717 -0.0063944934 0.050964236
0.033847056 -0.028405532 0.046354413
-0.031688243 -0.0063517541 0.045523763
-0.030647397 -0.010288988 0.046365142
0.027845517 -0.032017693 0.042015672
0.031059904 -0.03076232 0.042530894
-0.032652341 -0.0088299373 0.041160583
-0.030941635 -0.011629293 0.042652071
0.026753301 -0.033171982 0.038439512
0.029480219 -0.032275073 0.037344873
-0.033332951 -0.0099012991 0.036823153
-0.030719124 -0.013190802 0.037571847
-0.028083563 -0.016204987 0.037033916
0.020983495 -0.034357183 0.034392953
0.025098914 -0.033453993 0.033323169
-0.031244285 -0.014337391 0.032427073
-0.028650653 -0.017144857 0.033643305
0.011644476 -0.034234479 0.03009963
0.015558694 -0.03437433 0.030341506
0.019915674 -0.034364872 0.029388547
0.023289459 -0.034472544 0.029704332
-0.027888078 -0.019050907 0.028345585
-0.025624469 -0.022416633 0.027964532
0.0056255125 -0.033613008 0.026028633
0.0097865658 -0.033979032 0.026247323
0.014164197 -0.034471095 0.025044143
0.017355472 -0.034577876 0.02451539
-0.027292013 -0.019978959 0.023781002
-0.024532393 -0.023077628 0.023468614
-0.0008885581 -0.03373193 0.021803975
0.004019225 -0.033603139 0.021809995
0.008739721 -0.033873737 0.021116138
0.012028512 -0.034860775 0.021776319
-0.020525444 -0.026633538 0.018527389
-0.012153517 -0.031739164 0.017842591
-0.0015970422 -0.033908073 0.017299235
0.0023865793 -0.033286486 0.017528892
-0.016633542 -0.029879086 0.013100863
-0.0072356276 -0.033713125 0.012668252
-0.015512996 -0.031174969 0.009329021
0.048233464 -0.0013780743 0.097158313
0.048291367 -0.0031376546 0.095168948
0.051325072 -0.0035331026 0.091893911
0.056627456 -0.0051568476 0.089728951
0.055275954 -0.0089164842 0.089993179
0.060022775 -0.0097589502 0.088531673
0.06285353 -0.01162548 0.086779833
0.063103549 -0.014897339 0.08572495
0.060060326 -0.022575432 0.069934726
0.063086808 -0.022184733 0.069727182
-0.031253166 0.012682584 0.06836307
0.054813091 -0.023541994 0.064967692
0.059122618 -0.022464694 0.064905941
-0.031099964 0.0089761876 0.064543605
0.053678207 -0.02422029 0.061173737
0.057558514 -0.023220491 0.060030043
-0.032685835 0.0077048331 0.061726749
0.048229363 -0.02518547 0.055629969
0.051764838 -0.024415802 0.056726635
-0.033211816 0.0069200015 0.058208644
0.046527669 -0.025346342 0.052066565
0.050432529 -0.02443439 0.052225351
-0.029395515 0.0011851424 0.052488804
0.041086592 -0.026690802 0.047066152
0.04465783 -0.025826849 0.048068345
-0.030069161 0.00032257196 0.046922445
0.035600211 -0.027543534 0.04351306
0.039336167 -0.027030323 0.043530583
-0.03558908 -0.0010569086 0.043402314
-0.033012677 -0.0033338219 0.044723392
0.034584809 -0.028164223 0.038956046
0.038486011 -0.027262174 0.040159464
-0.036120281 -0.0030186661 0.039295256
-0.034033347 -0.0059772152 0.040483117
0.033512626 -0.029635578 0.036113203
-0.034323584 -0.0085983267 0.034569383
0.027459826 -0.032256387 0.030497789
0.030968679 -0.030824145 0.031416774
-0.034036867 -0.0096375328 0.03092289
0.02543949 -0.033376999 0.026654303
0.029602993 -0.031515095 0.027003169
-0.034592155 -0.010707128 0.028681993
-0.030291334 -0.013308967 0.025867164
-0.028940041 -0.016630346 0.02467984
0.020083142 -0.034331981 0.023520529
0.024135659 -0.032932743 0.022430003
-0.029662274 -0.013568757 0.022567391
-0.028122012 -0.017459696 0.020664334
0.0061731832 -0.033171862 0.018234313
0.013515171 -0.034497287 0.019316316
0.018959062 -0.033767793 0.018401504
0.023012478 -0.033121243 0.018614113
-0.027757125 -0.017890062 0.016484499
-0.025296945 -0.021717142 0.017133713
0.0038234778 -0.032637417 0.015029788
0.008342715 -0.032732461 0.01462853
0.012818764 -0.034181468 0.014672875
0.016749429 -0.034308519 0.015251815
-0.027109187 -0.019642435 0.013233364
-0.02482339 -0.022344647 0.012056291
-0.0005783271 -0.033142563 0.010837793
0.0028212564 -0.032909248 0.010175765
0.0075549288 -0.032596532 0.010141373
0.011278392 -0.033665169 0.010163248
0.053631645 -0.00097228773 0.090740204
0.057227422 -0.0029282197 0.089145064
0.063918509 -0.020414863 0.06296885
-0.031822979 0.016354388 0.066008985
-0.0295962 0.015529507 0.062652051
0.060253885 -0.022591671 0.058270812
0.063758977 -0.021598194 0.058006167
-0.033675328 0.013851681 0.059325278
-0.031592559 0.012853228 0.061992049
0.054666258 -0.023578143 0.054452479
0.058856033 -0.023324393 0.054388404
0.063486002 -0.023011757 0.053225636
-0.034284685 0.011778297 0.055114448
-0.033606324 0.0088144941 0.054857671
0.053400103 -0.023291424 0.050102234
0.057619393 -0.023237256 0.048941255
0.060982019 -0.024141587 0.049519956
-0.031702232 0.0070446385 0.052267492
-0.029567339 0.0059413076 0.049112082
0.048194598 -0.02397779 0.045706153
0.051679187 -0.022996591 0.045781493
0.054838322 -0.023005739 0.045428693
-0.029745907 0.0045354138 0.045172215
0.045824531 -0.024680257 0.041422904
-0.033804443 0.00396105 0.042678416
-0.031283785 0.0024087047 0.043661952
0.040310085 -0.026622128 0.037257493
0.044623248 -0.025752075 0.036269426
-0.036145236 1.2741424e-05 0.039567888
0.034761313 -0.028841522 0.032920361
0.039011989 -0.027347073 0.032749116
-0.036147773 0.0010015909 0.033407271
-0.03401386 -0.0027811201 0.032232881
0.034295157 -0.028615206 0.02803117
0.036878821 -0.028118569 0.027285695
-0.0346772 -0.0037814416 0.027778208
0.032368638 -0.029480945 0.02337867
-0.033238102 -0.0063703591 0.022677958
-0.03176659 -0.0097850803 0.023682237
0.027027618 -0.031316526 0.020142138
0.030341761 -0.029602088 0.019821644
-0.030558668 -0.011476828 0.019077063
0.020919889 -0.033392649 0.015203774
0.025457766 -0.032246709 0.015402377
-0.030689137 -0.01270271 0.014580846
-0.02940562 -0.016432595 0.014843166
0.014991961 -0.033795457 0.011098683
0.01909158 -0.033076108 0.011593163
0.024472062 -0.032611895 0.011092663
-0.03078847 -0.014705098 0.010677755
-0.02856335 -0.018318364 0.010514855
0.0078728748 -0.033588029 0.0078346729
-0.032870289 0.019783594 0.061578751
-0.030258426 0.016442966 0.061169147
-0.034322087 0.017431227 0.058984697
0.060100354 -0.023942776 0.046460152
-0.031656828 0.010148518 0.04840529
0.051955551 -0.023004359 0.043183148
0.05749771 -0.022191828 0.042645693
0.061409339 -0.022519894 0.042123795
-0.03059528 0.010535707 0.043259978
-0.029598774 0.0066038072 0.044332385
0.04838568 -0.024345839 0.03891021
0.052567422 -0.022019941 0.038589478
0.055803962 -0.020897614 0.039266169
-0.03183559 0.0084021259 0.04162842
0.047099311 -0.025555963 0.034830868
0.051481005 -0.022740377 0.033956409
-0.035170764 0.0081554195 0.034267366
0.044721123 -0.025741132 0.030367374
0.048060618 -0.024720803 0.029528975
-0.03394736 0.0021815514 0.031745255
0.039871048 -0.027162656 0.027689874
0.043310549 -0.025743688 0.025848508
-0.033039592 0.0006736815 0.025996864
0.034673635 -0.028539076 0.021837533
0.037941657 -0.028060623 0.02205801
0.041008517 -0.027166523 0.020724714
0.033261638 -0.028651623 0.017309427
0.037468962 -0.027796568 0.017342091
-0.032647137 -0.0050259307 0.018494368
-0.031413995 -0.0078579215 0.016570568
0.031220565 -0.028994042 0.01243341
-0.031970974 -0.0087430747 0.013046563
0.026251169 -0.032389931 0.0087926388
-0.032178484 -0.010875039 0.0081546307
-0.03491161 0.023847431 0.059699059
-0.031732522 0.015238862 0.045307875
0.063185163 -0.02148064 0.039329767
-0.031584434 0.013766695 0.041978776
0.057785608 -0.021182895 0.036351919
0.062900066 -0.021502869 0.035370588
-0.033665944 0.011665555 0.036610723
0.052621543 -0.023293061 0.032334924
0.056906808 -0.022353841 0.031248093
0.061452705 -0.022857467 0.030041993
0.051655397 -0.023168415 0.027120173
0.05613815 -0.022836281 0.026951432
0.045361299 -0.024807991 0.022522092
0.049898777 -0.023707757 0.023206055
0.054495998 -0.023165235 0.02393055
0.044854678 -0.025071234 0.018867254
0.0481374 -0.024245128 0.019280434
0.037736829 -0.027790684 0.014669418
0.0423458 -0.026557552 0.014937997
-0.032302149 -0.0026887208 0.013979316
0.032901704 -0.027777571 0.010879874
0.037007529 -0.027160212 0.010759175
0.040966306 -0.026917428 0.011727512
-0.032249842 -0.0044474695 0.010891974
0.064908579 -0.021774635 0.032425821
0.063775435 -0.023955572 0.027854681
0.057365749 -0.023229804 0.025169015
0.060908433 -0.023862917 0.025496721
0.064571284 -0.0223224 0.02417773
0.051386092 -0.023542538 0.020907998
0.0564778 -0.023472708 0.020986259
0.060637813 -0.023344437 0.020253479
0.050864723 -0.023641611 0.01643604
0.054886363 -0.023143897 0.01550144
0.058312934 -0.023069952 0.015893817
0.045458693 -0.025620583 0.013547897
0.048948176 -0.023922581 0.011443377
-0.032553673 -0.00017487817 0.008774519
0.062600195 -0.022293104 0.018226326
0.056527369 -0.022725891 0.01404953
0.061381441 -0.021536797 0.013207078
0.052449815 -0.023077348 0.011324525
0.05546429 -0.022140004 0.0087891817
0.058894131 -0.021762446 0.0091362
0.066950761 -0.017504059 0.017568469
0.063800558 -0.019751109 0.0092173815
