# .PCD v0.7 - Point Cloud Data file format
VERSION 0.7
FIELDS x y z
SIZE 4 4 4
TYPE F F F
COUNT 1 1 1
WIDTH 727
HEIGHT 1
VIEWPOINT 0 0 0 1 0 0 0
POINTS 727
DATA ascii
0.032758951 0.022920569 0.1920661
0.034599721 0.016236572 0.18877271
0.034720659 0.021525821 0.18891034
0.034765065 0.025062485 0.18871319
0.029273093 -0.0086832633 0.19129613
0.028627396 0.00056705746 0.19048446
0.02937305 0.011434027 0.19176289
0.029504597 0.016278321 0.19162992
0.029244125 0.020888308 0.19178084
0.02983856 0.026821228 0.19098154
0.02866107 0.029919149 0.19011313
0.031839132 -0.024305789 0.18814203
0.031364739 -0.018871689 0.18851376
0.031405926 -0.013233841 0.18897274
0.031954169 -0.0041381349 0.18914273
0.032395065 0.0067939474 0.18857345
0.033641458 0.015107194 0.18889904
0.034030616 0.01994423 0.18817535
0.033511162 0.027379839 0.1878221
0.032542825 0.029700005 0.18711069
0.033410311 -0.024446176 0.18513364
0.033570409 -0.018817516 0.18483132
0.033953786 -0.0090046693 0.18425232
0.033922195 0.00087557506 0.1839807
0.035237193 0.011020066 0.18328115
0.035599589 0.015637478 0.18330896
0.0354864 0.021019375 0.18300065
0.034906089 0.026407743 0.18239349
0.033893645 0.029873481 0.18113962
0.03473419 6.8865374e-05 0.17978972
0.035782099 0.010816077 0.17816421
0.036124051 0.015444385 0.1781823
0.036010444 0.020382548 0.17807597
0.035708845 0.025466422 0.17747718
0.034544051 0.030273704 0.1768809
0.036684215 0.015599018 0.1741412
0.036865056 0.020419201 0.17355946
0.037351966 0.023739742 0.17312083
0.036207616 0.030726356 0.17298803
0.03808856 0.023620157 0.16993073
0.022168458 0.012310301 0.19142118
0.022736967 0.016193302 0.19159794
0.02227962 0.020849513 0.19110969
0.021993158 0.025509166 0.19072631
0.021383701 0.030175151 0.19014409
0.025063934 -0.027497528 0.18950942
0.025899889 -0.023921652 0.19032791
0.0257833 -0.018856073 0.19048738
0.026157975 -0.013357666 0.19138688
0.025581658 -0.0043518385 0.19135749
0.024643958 0.0056942375 0.19064265
0.026305556 0.01149796 0.19218922
0.026266694 0.015361813 0.19199359
0.025876462 0.02077237 0.19151238
0.02584195 0.026183045 0.19125071
0.025361894 0.030053338 0.19078246
0.027448716 -0.032874048 0.18721816
0.02810091 -0.029078284 0.18782654
0.029303612 -0.02429626 0.18927991
0.02901274 -0.018841682 0.18976635
0.029455125 -0.01495137 0.18987077
0.030143263 -0.033938911 0.18384099
0.031772792 -0.029037928 0.18429503
0.033746302 -0.024617663 0.1820671
0.033706784 -0.020751344 0.18187228
0.033657134 -0.015338173 0.18160316
0.031570792 -0.033803556 0.18034118
0.032575548 -0.029489404 0.17908102
0.033284962 -0.024859553 0.17810988
0.033333004 -0.019426452 0.17790344
0.033303082 -0.013998663 0.17764696
0.034176707 -0.0049153105 0.17729077
0.034998894 0.0037807168 0.17613214
0.034938872 0.02773626 0.1750477
0.034394562 0.02928978 0.17462695
0.032858253 -0.025100427 0.17415881
0.033133447 -0.018920278 0.17301273
0.033346236 -0.014285153 0.17215732
0.034317076 -0.0049243704 0.17238387
0.035082877 0.0051764282 0.17244419
0.036151528 0.014813269 0.17134315
0.036725044 0.018814316 0.17169881
0.035657823 0.026848068 0.17187792
0.035554647 0.030440105 0.17104045
0.034924746 -0.00041518582 0.16888881
0.034207642 0.010450227 0.16794485
0.035567582 0.015400385 0.16788483
0.03644073 0.019904936 0.16738611
0.036194265 0.024798134 0.16678101
0.035890102 0.030136341 0.16714263
0.036173224 0.021136744 0.16321626
0.036059618 0.023467915 0.16303983
0.019426823 -0.012677197 0.19084716
0.019728541 -0.0087621966 0.19085848
0.0190714 0.00062478415 0.19095191
0.018654823 0.011055437 0.19114572
0.018805265 0.016284198 0.19191641
0.018037498 0.021178361 0.19191456
0.018354712 0.025633894 0.19122452
0.018092213 0.029058706 0.19073069
0.02168596 -0.0378762 0.18786654
0.023138108 -0.033442423 0.18903205
0.022145631 -0.029313585 0.18983623
0.021878781 -0.024713298 0.1903353
0.020942926 -0.019730937 0.19026586
0.022087634 -0.015775966 0.19079679
0.022582412 0.0021407818 0.19030643
0.024450542 -0.037482936 0.18636334
0.025525691 -0.035062134 0.18693155
0.027646126 -0.038017556 0.18243486
0.029539587 -0.037841633 0.17810744
0.031161012 -0.034331098 0.17715389
0.03188616 -0.030501207 0.17561013
0.030905725 -0.037769474 0.17250943
0.031724274 -0.034583952 0.17290676
0.032512009 -0.029906569 0.17229104
0.033351004 -0.025232533 0.17171067
0.033403993 -0.020879196 0.17137104
0.032116055 -0.033846684 0.16786715
0.032374024 -0.029999798 0.16716027
0.033078492 -0.025520111 0.16689897
0.033215642 -0.020504521 0.16695851
0.034040153 -0.015120825 0.16691589
0.034149587 -0.0054370542 0.16620702
0.034024537 0.0049102842 0.16574275
0.034345627 0.014608374 0.16460663
0.034958839 0.018093294 0.16439852
0.033927858 0.025878711 0.16337705
0.034390867 0.028982738 0.16355029
0.032950103 -0.021048458 0.16288877
0.033825099 -0.015081016 0.16284069
0.033648312 -0.0057932404 0.16222817
0.03304553 0.003977546 0.16187161
0.034174383 0.014847675 0.16028619
0.035208642 0.019321999 0.16055307
0.035193205 0.024404181 0.16002434
0.03428638 0.028882278 0.15975642
0.033964455 0.031981554 0.15847349
0.035161555 0.020422382 0.15634388
0.035102069 0.023749849 0.15603581
0.034709394 0.028771946 0.15630502
0.034650564 0.031894565 0.15613109
0.010771929 0.017221816 0.19156182
0.01106131 0.02116245 0.19201934
0.010355412 0.025640771 0.19215664
0.011109232 0.028994754 0.19123909
0.013418258 -0.023063891 0.1894581
0.013958753 -0.019532368 0.19036755
0.014635147 -0.014306 0.19073227
0.015023828 -0.0087972051 0.19072446
0.013890028 0.00066649041 0.19144446
0.012948394 0.01051901 0.19056293
0.013856172 0.016373966 0.19163653
0.014483451 0.019505221 0.19187745
0.014346658 0.025763191 0.19151491
0.014555932 -0.0286148 0.18856165
0.01512766 -0.024646815 0.18873665
0.016509473 -0.019858677 0.18937311
0.017796814 -0.015876736 0.18998742
0.02227384 -0.038916852 0.18368146
0.030319156 -0.035392687 0.1658766
0.031767845 -0.031194141 0.16441095
0.030967416 -0.034625847 0.1602734
0.031672418 -0.030645566 0.16057357
0.032205343 -0.025900992 0.16072527
0.032415509 -0.021211827 0.16012794
0.032951891 -0.016061975 0.15973037
0.033205569 -0.0052222968 0.15938011
0.032581985 0.0038516088 0.15875837
0.031620979 -0.034815099 0.15695429
0.031858981 -0.030919658 0.15600365
0.032147944 -0.025977505 0.15558168
0.032560289 -0.02148878 0.15512845
0.032918513 -0.015967565 0.15513477
0.033065081 -0.0057518319 0.15479556
0.032917857 0.0036623585 0.15429217
0.03341794 0.014645206 0.15415859
0.034279644 0.018800555 0.153938
0.034304261 0.024384903 0.1529316
0.033847868 0.028708557 0.1529063
0.033671439 0.031841975 0.1526522
0.033293009 -0.005965984 0.15023661
0.033602178 0.0032374705 0.14964846
0.034304202 0.014126452 0.14893383
0.034766495 0.01915521 0.14922541
0.034871697 0.02385973 0.14909613
0.034502029 0.028567465 0.14864254
0.034532368 0.031702172 0.14852947
0.034691453 0.013528293 0.14562464
0.034900486 0.019030085 0.14553475
0.03526479 0.023404134 0.14484048
0.03527832 0.028600255 0.14372635
0.035415471 0.031561513 0.14440754
0.036819458 0.029298274 0.14009336
0.06910038 -0.0075154407 0.082915306
0.06864655 0.0005145066 0.082952321
0.070765674 -0.0050443918 0.079528332
0.0011717665 0.027889974 0.19635713
0.0024074302 0.029450431 0.19701514
0.0038992157 0.021367744 0.19275698
0.0044559827 0.026348419 0.19447404
0.0050997124 0.029941924 0.19528961
0.0072488794 -0.019502971 0.19153616
0.0071494584 -0.014341854 0.19170642
0.0071840887 -0.0088153463 0.19129571
0.0081538558 -0.0040794923 0.1909318
0.0073175426 0.0054166582 0.19092399
0.0077724452 0.010156691 0.19098616
0.0073279734 0.015709337 0.19138953
0.0075289598 0.021263257 0.19236323
0.0078211417 0.026512597 0.19242522
0.0080820313 0.029122185 0.19215921
0.0097807068 -0.032764811 0.18766329
0.010085226 -0.029155243 0.18815196
0.01053244 -0.024698276 0.18961254
0.010782779 -0.020265639 0.1909478
0.010379613 -0.014346499 0.19089809
0.010518968 -0.0088234115 0.19073594
0.011001885 -0.0048691924 0.19085252
0.01096642 0.0069347178 0.19030371
0.013682009 -0.03103463 0.18813205
0.026931705 -0.036931232 0.16332853
0.027382614 -0.037139591 0.15986922
0.030651571 -0.036004405 0.15473071
0.031594515 -0.031110952 0.15299594
0.032420754 -0.027114736 0.15338671
0.031947315 -0.03484311 0.15007287
0.031353951 -0.031359099 0.14904261
0.031998694 -0.026575169 0.14928007
0.032496154 -0.021808984 0.14941722
0.032792568 -0.016272342 0.14938456
0.0333637 -0.006097727 0.14744502
0.033921182 0.0041539627 0.14739147
0.032004178 -0.034713782 0.14582211
0.03179878 -0.026809277 0.1453436
0.03186518 -0.022056377 0.14518705
0.032422781 -0.016490085 0.14533535
0.031748414 -0.0054494762 0.14439911
0.034032464 0.0032103988 0.14370322
0.034582734 0.013425624 0.14269954
0.034549534 0.018937482 0.14244235
0.03510493 0.024035586 0.14213616
0.035084128 0.026774773 0.14152917
0.035574019 0.031484533 0.14167047
0.035080612 0.0077307425 0.13851273
0.034677505 0.018457906 0.13758379
0.03560102 0.023507262 0.13820994
0.036269486 0.027681237 0.13786656
0.03631562 0.031420238 0.14028603
0.035054266 0.023396166 0.1339969
0.035303056 0.028132474 0.13397312
0.05834657 0.011906209 0.091376483
0.060990393 0.00070690259 0.089390397
0.061211288 0.010984736 0.089329481
0.063987851 -0.012172504 0.084912241
0.064025998 -0.0041784504 0.086624801
0.065814376 0.0043629324 0.087335885
0.064040065 0.014786529 0.086877048
0.068341553 -0.0092121204 0.08344847
0.067355931 -0.0010991533 0.085222661
0.068761051 -0.012448614 0.078825116
0.071322143 -0.0043278751 0.077959061
0.070647955 0.0048550158 0.077420354
0.066084921 0.012808225 0.076625645
0.071068466 -0.0095290048 0.07359463
0.071103513 -5.4740034e-05 0.073255181
0.069059014 0.0086700199 0.073219299
0.071083784 -0.0049698525 0.069391489
-0.0022906077 0.02571024 0.19573128
-0.00023978813 -0.030930676 0.1963343
-0.00048971205 0.0070738308 0.19077882
-0.00018614576 0.010259356 0.19081697
0.00084310706 0.015033055 0.19121701
7.510095e-05 0.020671703 0.19281575
0.0011990656 0.024670102 0.19468158
0.0032200229 -0.028886143 0.18905848
0.0038455736 -0.024565738 0.19056848
0.0030354867 -0.02029185 0.19152844
0.0022032268 -0.014411014 0.19150364
0.0028247242 -0.0088484436 0.19116578
0.0039885044 -0.0040717591 0.19118878
0.0023532507 0.0054506417 0.19070265
0.0032382603 0.010219943 0.19101924
0.0037513368 0.01418443 0.19114903
0.0063282861 -0.032886624 0.18741274
0.0062863841 -0.029961728 0.18837023
0.0075623402 -0.026346944 0.18972373
0.029678108 -0.035742082 0.14330125
0.031078937 -0.03192094 0.14369529
0.031257153 -0.026682341 0.14228353
0.031596482 -0.022230843 0.1421389
0.031707168 -0.016675642 0.14197966
0.031321287 -0.0065962565 0.14169362
0.03000957 -0.03522294 0.13870105
0.030131521 -0.031477325 0.13894874
0.030684473 -0.027474606 0.13829467
0.03126961 -0.022304868 0.13734955
0.032007337 -0.016913904 0.13739738
0.032072306 -0.0065891729 0.13700637
0.033710182 0.0028843242 0.13583624
0.036029816 -0.036842719 0.13530278
0.031872332 -0.015531017 0.13338801
0.032492936 -0.0068202377 0.13207886
0.033153713 0.0027128435 0.13159263
0.034965098 0.012256803 0.13247836
0.034903944 0.017798962 0.13220137
0.034618735 0.023313662 0.13080248
0.032725871 0.027781365 0.12946099
0.037451506 -0.037100833 0.13053435
0.034573317 0.012077859 0.12737423
0.035161197 0.01681147 0.12662798
0.034686267 0.022160338 0.1262396
0.034198105 0.027936915 0.12547117
0.035370767 0.022247342 0.12266892
0.051386595 0.005809369 0.095077872
0.051063061 0.014553191 0.094471991
0.053749502 -0.013243663 0.092473865
0.053835154 -0.0036795563 0.09183681
0.054895461 0.0056748413 0.092869163
0.054529071 0.01501971 0.091808319
0.056213856 -0.018390128 0.08889395
0.058360398 -0.0088071832 0.089229763
0.058272004 0.00079675089 0.090965927
0.056801677 0.015010412 0.088428497
0.061508775 -0.013956067 0.085220933
0.062737107 -0.015177813 0.080500722
0.064667106 -0.014836882 0.075931907
0.064014018 0.01458957 0.073160052
0.067998409 0.0100153 0.070461988
0.068269789 -0.014105705 0.066690087
0.07075417 -0.0051154238 0.0660761
0.069598615 0.0044526919 0.06675446
0.06717521 0.012914061 0.065056622
0.070170939 -0.0098341918 0.062268734
0.069591403 -0.0008270971 0.06206888
0.068743467 0.0074589951 0.06184262
-0.0078975568 0.020078365 0.19321936
-0.0065989504 0.024123013 0.19564745
-0.0018929825 -0.032867309 0.19173521
-0.0032116161 -0.029696587 0.19173586
-0.0023935426 -0.024903517 0.1910786
-0.0020923009 -0.020090763 0.19104227
-0.0023218982 -0.014948789 0.19141847
-0.0024761553 -0.0093928277 0.19157195
-0.0022121069 -0.004288841 0.19158837
-0.0033147933 0.0053243358 0.19126222
-0.0038394933 0.010333478 0.19141904
-0.0039995317 0.015363242 0.19149581
-0.0042544017 0.019587796 0.19307089
-0.00053340051 -0.033672109 0.18849364
0.00011819732 -0.029964052 0.18962511
0.0003537547 -0.025651805 0.19089901
0.0019109264 -0.034178756 0.18602195
0.02493483 -0.036959585 0.13910139
0.027186634 -0.0366344 0.13678777
0.030281486 -0.032932013 0.13686603
0.03096682 -0.025828296 0.13511622
0.030927362 -0.024237035 0.13502118
0.031243445 -0.035838112 0.13341239
0.030374827 -0.032363962 0.13303733
0.030677082 -0.02776687 0.13281503
0.031119766 -0.022589838 0.131769
0.031501293 -0.018268509 0.13130352
0.032607555 -0.0069330917 0.12967589
0.032885134 -0.036197156 0.12819064
0.030959966 -0.032872632 0.1282016
0.030851128 -0.028068637 0.12760746
0.031031312 -0.023069711 0.12728304
0.031315207 -0.018286085 0.12672877
0.032800734 -0.0071086348 0.12593442
0.032224596 0.0024745069 0.12567526
0.033793747 0.011965366 0.12390542
0.033714473 0.024706936 0.12331516
0.032926202 0.027001096 0.12459582
0.031253636 -0.019267755 0.1233803
0.032602429 -0.0071355612 0.12049353
0.032126427 0.0022766399 0.12090886
0.033691704 0.011823094 0.11993402
0.034569502 0.016613698 0.12037182
0.034628212 0.021587251 0.11996388
0.033097327 0.026388673 0.11865032
0.033816695 0.016864499 0.11540711
0.034765244 0.021457652 0.11499995
0.033685565 0.026373936 0.11462134
0.041322172 0.015360435 0.10154188
0.044463754 -0.003217211 0.097530365
0.044125259 0.0060384739 0.098388493
0.045324683 0.015466245 0.09820652
0.044554293 0.018763902 0.096209764
0.048849404 -0.013953796 0.095196664
0.048425257 -0.0037396455 0.095144153
0.048264921 0.0059124143 0.096618831
0.04900825 0.016217681 0.095122576
0.051242292 -0.023241257 0.089140058
0.052386343 -0.016082333 0.093091667
0.051995337 -0.0046468745 0.092988849
0.055531144 -0.020815613 0.088445544
0.054495215 0.016381806 0.080104709
0.060198307 -0.017265929 0.079011083
0.059161842 -0.019179584 0.07317245
0.059144497 0.015990356 0.071778595
0.063814461 0.015202637 0.067565978
0.067237794 0.010697863 0.062478125
0.067116737 -0.014961642 0.060296834
0.069451988 -0.00022932024 0.059165835
0.067673564 0.0089621088 0.058824539
0.067829847 -0.013579686 0.055716634
0.070133567 -0.00558948 0.055338502
0.069229186 0.0039662598 0.054191351
0.069611669 -0.0089928573 0.050892949
0.069127381 -0.00097242068 0.050854683
0.068460464 0.007072038 0.051345885
-0.013969779 0.0074206251 0.19582039
-0.012927055 0.010646987 0.19627833
-0.012130977 0.014667294 0.19655734
-0.012376011 0.02108565 0.19612426
-0.01226318 0.023491293 0.19608057
-0.011097848 -0.0088578993 0.19264784
-0.011287093 -0.0064498861 0.19242796
-0.011274755 0.0062078084 0.19310597
-0.010431945 0.010525715 0.1940226
-0.010256709 0.015339043 0.19390777
-0.010645033 0.020182539 0.1943897
-0.01054448 0.023417808 0.19522867
-0.0068070875 -0.028647397 0.19296396
-0.0074673286 -0.025189519 0.19156629
-0.0071077934 -0.019812737 0.1903708
-0.0080498448 -0.015346058 0.19132057
-0.0080811977 -0.010031417 0.1918166
-0.0080370307 -0.0037431163 0.19161272
-0.0083585978 0.0055879722 0.19174504
-0.0072887545 0.01040962 0.19215825
-0.0072920923 0.014412057 0.19197574
-0.0036209209 -0.035242122 0.18894482
0.030621471 -0.032019623 0.12541443
0.030622842 -0.026407717 0.12518018
0.030583145 -0.02480715 0.12508458
0.030736329 -0.03626629 0.12175775
0.030248644 -0.032871336 0.12150681
0.030870916 -0.028223516 0.12151814
0.031254232 -0.023384148 0.12159342
0.031630516 -0.018352313 0.12109607
0.033165574 -0.0074626491 0.118397
0.030308185 0.029436352 0.11674178
0.030540587 -0.032272093 0.11685711
0.03138715 -0.02847684 0.11698902
0.031783819 -0.023466332 0.11633044
0.031814158 -0.018855123 0.11591488
0.033397019 -0.0078022801 0.11605322
0.03314507 0.0020225919 0.11503923
0.034238219 0.011821987 0.11388993
0.034301698 0.016055176 0.11314261
0.034708202 0.020351069 0.11247706
0.03399682 0.025574049 0.11222792
0.033225775 0.029559189 0.11336577
0.03176415 -0.0174553 0.11187059
0.034463048 -0.0076442775 0.11108685
0.034762204 0.0018117164 0.1103251
0.035277903 0.011407239 0.1093232
0.035134494 0.016216664 0.10901827
0.035358727 0.021024754 0.10898566
0.03404808 0.025875086 0.10880065
0.033854425 0.029629471 0.10883135
0.037417948 -0.0032335354 0.10558677
0.037365079 0.0063957777 0.10515171
0.038032055 0.016021317 0.10525846
0.036887288 0.020833017 0.10419893
0.033974171 0.025763398 0.1047883
0.033638 0.028983673 0.10440397
0.038728833 -0.019045135 0.10059339
0.039956212 -0.0082384497 0.10175055
0.040691435 0.0014086625 0.10191602
0.040861726 0.010832125 0.10190821
0.040347695 0.01745938 0.10199112
0.038933992 0.020188646 0.10009611
0.04046458 -0.022994174 0.096751094
0.041953146 -0.019693209 0.097762823
0.0430125 -0.0085946936 0.098376215
0.04277879 -0.00031048246 0.099601746
0.040821731 0.019672016 0.096290469
0.043515503 -0.023201177 0.092102051
0.044952631 -0.02003845 0.094346881
0.044321716 0.018668519 0.093039513
0.04680562 -0.024088057 0.089689493
0.047663391 -0.021519518 0.092265487
0.05053705 -0.023393309 0.086576462
0.060332179 -0.0178842 0.066962004
0.060459852 -0.018087706 0.06298089
0.063073099 -0.017515438 0.057972193
0.061371028 0.016931223 0.053126872
0.066317618 0.010360337 0.052462459
0.067389905 -0.01470662 0.049175739
0.069857001 -0.005873133 0.048918366
0.069624066 0.0021307759 0.048410237
0.068318009 -0.014916894 0.04479599
0.070149839 -0.0060468991 0.045029104
0.07010597 0.0035801802 0.044624567
0.070340097 -0.010011076 0.040481269
0.069797695 -0.0014150522 0.040372908
0.072470367 0.01279474 0.033844352
0.077547371 -0.008314658 0.030818939
0.076194346 0.0069885324 0.031122684
-0.015574574 0.0049793548 0.19500107
-0.013405024 -0.024662554 0.19247544
-0.015069484 -0.020225737 0.19270262
-0.014434754 -0.015559335 0.19263011
-0.014825046 -0.010527962 0.19209638
-0.0159446 0.00081358966 0.19217566
-0.01105678 -0.023457918 0.19146463
-0.011381148 -0.020612992 0.19039795
-0.010916113 -0.017001268 0.19125631
0.025988759 -0.037437387 0.11837208
0.027473571 -0.035021856 0.11736971
0.028564932 -0.033916987 0.11376655
0.03008193 -0.028735062 0.11307943
0.030960562 -0.025451833 0.11358917
0.030009629 -0.033018142 0.10923231
0.029975595 -0.02897338 0.10903937
0.030442061 -0.024090568 0.1091826
0.030734241 -0.019440992 0.10895848
0.031866312 -0.015471159 0.10855907
0.031479478 -0.03296442 0.1050083
0.031371295 -0.028965583 0.10466754
0.031613529 -0.024354724 0.10408849
0.032248497 -0.019464431 0.10436392
0.033436358 -0.01455847 0.10505164
0.032330036 0.025698731 0.10057157
0.030350445 0.028958229 0.098948896
0.033533156 -0.027816257 0.099671841
0.03431648 -0.024529314 0.10013145
0.035298169 -0.020125071 0.10136133
0.035061717 0.022268431 0.096780658
0.032284081 0.025296001 0.097753823
0.036658585 -0.025171226 0.096210003
0.036933124 0.021701207 0.093223691
0.034592092 0.023768095 0.092346847
0.040172637 -0.024568873 0.091770709
0.038214445 0.020866765 0.089217305
0.039912879 0.020195184 0.086531341
0.053830147 -0.022108654 0.064788818
0.057667196 -0.022436773 0.057701111
0.058536351 0.017029246 0.053808868
0.060775161 0.01521797 0.049572468
0.063541353 -0.01726315 0.046964645
0.062660933 0.013179827 0.045186937
0.066121042 -0.016960014 0.041897476
0.066451371 0.0086515872 0.040798903
0.06569308 -0.016111549 0.037288725
0.06945461 -0.0060158116 0.036573708
0.068353057 0.0033324764 0.0376544
0.064915836 0.01148229 0.037660658
0.06871587 -0.006180278 0.03276217
0.067896426 0.0031667047 0.033259332
0.069264233 0.01203617 0.033097625
0.074999571 -0.0068018292 0.028439403
0.072501481 0.01426475 0.029608071
-0.019039094 -0.0015602101 0.19328991
-0.017512321 -0.013758621 0.19285709
-0.018698692 -0.011373245 0.19205853
0.028732898 -0.037289537 0.10646737
0.026680233 -0.035654284 0.10754311
0.030492308 -0.034157503 0.10365188
0.031222524 -0.03016842 0.10203338
0.029662011 0.030589243 0.098364115
0.030862572 -0.033497095 0.098282576
0.031840801 -0.030363018 0.098493338
0.031927586 0.025950653 0.094748378
0.031045137 0.030250313 0.095158458
0.030816259 -0.033115618 0.093794167
0.032888412 -0.029251633 0.093872607
0.032589197 0.026219873 0.090711176
0.032767177 0.030270254 0.090683281
0.034530878 -0.028447015 0.088359416
0.037020028 -0.026661171 0.09021616
0.036491156 0.021923801 0.086827517
0.034092903 0.025220236 0.085844636
0.033926129 0.029280717 0.085551441
0.035549402 -0.028613864 0.085094273
0.038647413 -0.026902257 0.085414886
0.036037445 0.021252764 0.082107484
0.034738898 0.023469621 0.082359135
0.040791869 -0.026240619 0.081995666
0.039886355 0.018190185 0.074397564
0.048929393 -0.021247493 0.066872299
0.052006125 -0.023079125 0.062274694
0.053859055 -0.023248075 0.058661997
0.057192862 -0.020849997 0.049443662
0.060089409 -0.01901176 0.045075893
0.057749867 0.016661761 0.041684568
0.061965287 0.014422107 0.038626075
0.06519872 0.0097181974 0.03376925
0.065530062 -0.016381271 0.031876147
0.068307698 -0.0082909605 0.030890524
0.068009377 0.0030452863 0.030198157
0.064469099 0.013272374 0.03034389
0.067993701 -0.012559549 0.026524901
0.069396973 -0.0019534349 0.027400851
0.068334937 0.0061728386 0.027197719
0.021649482 -0.037207369 0.11123347
0.029147686 -0.035501961 0.095654368
0.028831067 -0.034923561 0.09184283
0.03143245 -0.030805824 0.091135144
0.029575767 -0.034202456 0.087200999
0.031710446 -0.031153621 0.087911785
0.032835066 -0.030702038 0.083058
0.034486353 0.020906316 0.078187525
0.032401204 0.025412781 0.079229593
0.033542573 0.028339135 0.080208659
0.033852458 -0.029019123 0.078671217
0.034570873 -0.027508738 0.076098859
0.033379972 0.021100501 0.074576199
0.032444179 0.02458143 0.075920463
0.032845795 0.028240649 0.075576425
0.036452413 0.018194703 0.071660519
0.038388193 -0.022927506 0.06866312
0.040281594 0.017860612 0.064446747
0.042529941 -0.023077751 0.064794064
0.045767009 -0.023167724 0.062277853
0.047783852 -0.025247062 0.053633988
0.053369105 -0.022206506 0.047788858
0.057857335 -0.020980777 0.039004445
0.060504735 -0.019583562 0.033879817
0.062618494 -0.017303253 0.024688363
0.065587044 -0.015218732 0.02230978
0.027754964 -0.034010235 0.080253839
0.031064631 -0.032311745 0.079690993
0.030735554 -0.034102395 0.077449203
0.03148514 -0.031154992 0.075861216
0.03288126 0.019969339 0.072857201
0.031917512 0.025244901 0.07270509
0.031547785 0.028998775 0.07143867
0.031899273 -0.0278551 0.070894539
0.033768237 0.020657944 0.069413006
0.03264457 0.024550853 0.068951309
0.03220576 0.029436113 0.068159282
0.03123617 0.031309705 0.064895034
0.035721183 -0.023081506 0.066516519
0.035412967 0.018818425 0.064602256
0.033526838 0.022290675 0.063358009
0.036745727 0.019440534 0.059427381
0.037247479 0.019309187 0.055672765
0.044672191 -0.025324745 0.053119302
0.047525048 -0.024078222 0.044973791
0.053319037 -0.022768741 0.037228525
0.059521735 -0.026471952 0.027949691
0.05839318 -0.021951167 0.020337522
0.027586998 -0.03420807 0.077041864
0.030220272 -0.032737583 0.072860479
0.026662888 -0.034649018 0.070117831
0.030540528 -0.031036997 0.069494009
0.031311393 -0.026064022 0.068626463
0.031054972 0.024725722 0.065012276
0.030741869 0.027200779 0.064662755
0.029603301 0.031445973 0.067731261
0.031164529 -0.031729974 0.065007329
0.033491015 -0.026512137 0.064852595
0.031754196 0.023501771 0.061465502
0.030348239 0.027947286 0.061195135
0.030726371 0.031784382 0.06099987
0.032806873 -0.031166183 0.061005473
0.035382628 -0.026944732 0.060744345
0.033733904 0.022772955 0.05753684
0.031160472 0.027795108 0.056635976
0.031550705 0.031922106 0.056790113
0.036208093 -0.026731463 0.056367517
0.03715694 0.019244296 0.053508222
0.034726679 0.022611437 0.053121626
0.038235366 -0.027190519 0.051232934
0.036090553 0.019116307 0.048427105
0.035410762 0.022031238 0.048275173
0.040979385 -0.027323565 0.04799968
0.041873336 -0.026789358 0.04238379
0.052347362 -0.021794485 0.024597526
0.026389064 -0.034919694 0.065742016
0.027312519 -0.035103001 0.062304258
0.029854538 -0.03315777 0.056584358
0.033006132 -0.031281456 0.054175019
0.033539832 0.024223601 0.050328195
0.031244872 0.027626516 0.05040884
0.030603705 0.03154356 0.051132739
0.035050988 -0.031059569 0.050055683
0.035372853 -0.027269321 0.050701022
0.033891559 0.022761533 0.046034396
0.031430304 0.026219158 0.044805825
0.03695327 -0.030786147 0.046869755
0.038654506 -0.0286578 0.044683158
0.034942806 0.018107301 0.041688144
0.034169436 0.02145108 0.041441143
0.039075375 -0.02768228 0.042169869
0.041892111 0.018509647 0.034271955
0.027830007 -0.034087371 0.051092923
0.03200388 -0.032552481 0.047052026
0.031293631 0.027426513 0.043054223
0.033508599 0.01725856 0.03998661
0.033074558 0.02266111 0.038879335
0.031229375 0.027314225 0.038747489
0.034169972 0.018757163 0.035150826
0.033818305 0.022119591 0.035435677
0.032280862 0.027372027 0.034554541
0.033792555 0.030470489 0.035447657
0.036906004 0.018585114 0.032133818
0.034128189 0.020821838 0.029670954
0.032720089 0.028709067 0.030315757
0.034671128 0.030346939 0.031915545
0.036777318 0.020057695 0.025515318
0.039035857 0.019918317 0.023161411
0.042635143 0.018040361 0.019896746
0.031534076 0.02375746 0.031647682
0.031987309 0.025427936 0.031968057
0.03248471 0.022508955 0.028199911
0.032090485 0.026768303 0.027428448
0.033149421 0.030294502 0.027390957
0.034461796 0.022430582 0.023855507
0.032727838 0.026831446 0.022838116
0.035601258 0.021580188 0.019021928
0.039458692 0.017975954 0.014926314
0.037010372 0.020289479 0.014859855
0.040205538 0.017001035 0.011263609
0.028021393 0.030307805 0.019732833
0.033005714 0.023250299 0.015601099
0.031652033 0.025700236 0.01694423
0.030228017 0.028468711 0.017349422
0.034922302 0.021390585 0.011884034
0.032461524 0.023192545 0.012939155
0.029616592 0.024899563 0.0098289847
0.025237141 0.028490799 0.010816932
0.027015446 0.026645446 0.0080311298
