# .PCD v0.7 - Point Cloud Data file format
VERSION 0.7
FIELDS x y z
SIZE 4 4 4
TYPE F F F
COUNT 1 1 1
WIDTH 899
HEIGHT 1
VIEWPOINT 0 0 0 1 0 0 0
POINTS 899
DATA ascii
-0.021915764 0.033026095 0.19287783
-0.02708929 0.032270905 0.1922994
-0.015861858 0.035134614 0.1893523
-0.021224063 0.035724521 0.1894854
-0.026591875 0.035025414 0.18880856
-0.01723849 0.03631103 0.18550894
-0.020308703 0.036008835 0.18518195
0.033237193 0.030217294 0.19478297
0.02412978 0.029428961 0.19207725
0.018719865 0.02943212 0.19183964
0.012971614 0.0292632 0.19220555
0.0040021418 0.029428363 0.19209242
-0.0067958799 0.029137194 0.19156268
-0.016076656 0.029846368 0.19236845
-0.020423813 0.029293356 0.19291583
-0.025973333 0.029307185 0.19303852
-0.029910782 0.030527173 0.19217578
0.028913664 0.031447474 0.1890088
0.024196913 0.031890813 0.18998888
0.018719062 0.032505631 0.18985373
0.0088986671 0.032959878 0.18962079
-0.0011997288 0.032609582 0.18903846
-0.010042581 0.033866942 0.18935442
-0.029992569 0.033641692 0.18796983
0.033553705 0.035423342 0.18717825
0.028126121 0.033199493 0.1858916
0.024427619 0.034265522 0.1851286
0.019066922 0.034622192 0.18493783
0.0088455984 0.034789681 0.18452954
-0.0010902688 0.034980416 0.184282
-0.011022388 0.03548187 0.18343669
-0.015437975 0.035828173 0.18323624
-0.020628467 0.035325468 0.18268785
-0.025845699 0.034633335 0.18207851
-0.030282065 0.033294912 0.18119633
0.0338968 0.035492066 0.18176404
0.018468164 0.034931004 0.18072778
0.0088105341 0.035459697 0.18018782
0.00017308877 0.035622001 0.17877063
-0.010823472 0.036538959 0.17865196
-0.015444844 0.036305487 0.17829922
-0.020069789 0.035771728 0.17775261
-0.025470674 0.035257991 0.17718512
-0.030876368 0.034790691 0.17664742
-0.010970547 0.037169158 0.17465928
-0.015788831 0.037185431 0.17397013
-0.019882448 0.037397444 0.17331856
-0.024702799 0.036611971 0.17300394
-0.030714493 0.036825117 0.17339161
-0.021302223 0.03834182 0.1701982
-0.023618415 0.038284596 0.17005992
0.010226795 0.02221483 0.1924521
-0.011542531 0.023345886 0.19217917
-0.016225616 0.022636591 0.1924451
-0.020880671 0.022017835 0.19185781
-0.026262848 0.023588656 0.19167364
-0.030117759 0.024566827 0.19210348
0.031890538 0.028202476 0.19256616
0.028847424 0.026509048 0.19229233
0.024208801 0.025364043 0.19228613
0.018773658 0.025435509 0.19208896
0.013655717 0.026584746 0.19302544
0.003987757 0.025636852 0.19246414
-0.0049563707 0.025285006 0.19112387
0.032496806 0.02916861 0.18864518
0.028878519 0.029445114 0.1904805
0.032658674 0.03194404 0.1834662
0.02970212 0.032934729 0.18390539
0.032514367 0.033991579 0.1798203
0.029641163 0.033420328 0.17877471
0.024813496 0.034058873 0.17860791
0.019686397 0.033943117 0.17769703
0.0096490281 0.034923017 0.17740348
-0.0014609464 0.035028458 0.17625254
-0.030576829 0.033825811 0.17567068
0.033460874 0.035419289 0.17397833
0.029269453 0.033984963 0.17353484
0.025147811 0.033858661 0.17296451
0.019716319 0.033624351 0.17257503
0.014269059 0.0337075 0.17239192
0.0048789294 0.035743415 0.17331398
-0.0048720422 0.036208034 0.17282534
-0.014176681 0.036671877 0.17186552
-0.027056988 0.03659546 0.17125559
-0.030702099 0.035838243 0.17156577
0.018300068 0.034845829 0.16961274
0.014414967 0.034749508 0.16938069
0.0051050321 0.035443962 0.16850755
-0.0049906163 0.035298586 0.16797382
-0.015253327 0.035731137 0.16711849
-0.01950343 0.036269605 0.16682738
-0.024791434 0.036714014 0.16712445
-0.029805291 0.036077257 0.1674121
-0.021137357 0.036061704 0.16314185
0.018670237 0.018665554 0.19125605
0.0141789 0.019723358 0.19201124
0.0083559994 0.018923402 0.19126129
-0.00087982963 0.019713938 0.19172674
-0.011985378 0.019023774 0.19178569
-0.016722029 0.017745135 0.19261709
-0.02070638 0.017304836 0.19244495
-0.025632849 0.018383084 0.19124204
-0.028776946 0.018185614 0.19189346
0.03216511 0.021782342 0.1913363
0.022892056 0.018369677 0.19065163
0.021332024 0.018274011 0.19052345
0.033982154 0.027922157 0.1842677
0.03284933 0.031719331 0.17560446
0.030898318 0.033751551 0.17252821
0.030189928 0.03334314 0.167276
0.025476038 0.03380448 0.1673772
0.020983722 0.034141541 0.16717422
0.015364406 0.03421396 0.16628191
0.0052517434 0.034941912 0.16539708
-0.0048745531 0.035188913 0.16512313
-0.013425726 0.034627616 0.16438049
-0.025873248 0.034374889 0.16367421
-0.028985422 0.034233805 0.16344586
0.020721581 0.033978105 0.16281226
0.015293484 0.034713924 0.16257071
0.0054166452 0.035246432 0.16187853
-0.0042517292 0.034763753 0.16132486
-0.014849729 0.034762621 0.16068035
-0.019320775 0.035738349 0.16090792
-0.024196379 0.03529888 0.16063637
-0.029194761 0.03426313 0.15972766
-0.031958401 0.033914264 0.15750572
-0.0053455192 0.035086274 0.15756646
-0.013153451 0.034558952 0.15687495
-0.019879192 0.035716474 0.15611723
-0.023833524 0.035743829 0.15557489
-0.028503008 0.035267409 0.1553542
-0.031894572 0.034650739 0.15613115
-0.033168793 0.03792518 0.14985207
-0.033073016 0.039029714 0.14779016
0.016589945 0.010866763 0.1931316
-0.017221846 0.010228692 0.19123331
-0.021148229 0.011075078 0.19156939
-0.025861183 0.010740397 0.19115627
-0.028948644 0.013966796 0.19296879
0.027742879 0.014140907 0.1901089
0.024523472 0.014489831 0.19109845
0.019954668 0.014235141 0.19188806
0.014236919 0.013966859 0.19215661
0.0087951282 0.014435531 0.19082311
-0.00035788983 0.013743818 0.19155252
-0.0057672458 0.012950837 0.19110346
-0.010526971 0.01378864 0.19107345
-0.015593403 0.014494835 0.1920591
-0.022631193 0.01480609 0.19193372
-0.02576823 0.013813732 0.19119114
0.029224457 0.017291429 0.19027039
0.025304539 0.017290177 0.19009531
0.030195525 0.031447772 0.16067123
0.025901195 0.032199387 0.16072094
0.021611556 0.033165339 0.15977764
0.016508855 0.033853948 0.15955189
0.030897081 0.032187644 0.15622517
0.026008166 0.032387678 0.15544176
0.021470059 0.032905582 0.15536162
0.015931506 0.03368181 0.15565032
0.0057195993 0.03405875 0.1554665
-0.00348279 0.034258485 0.1549722
-0.014834705 0.034046352 0.15434134
-0.018257115 0.034825206 0.15370506
-0.025535312 0.035056647 0.15292338
-0.029453114 0.034543272 0.15240625
0.020876322 0.033200324 0.15175804
0.016318329 0.033451438 0.15135583
0.0057705073 0.034269869 0.15018594
-0.0034616415 0.034706295 0.1498546
-0.014126829 0.034392655 0.14899451
-0.019154537 0.035012901 0.14939404
-0.023852974 0.035475191 0.14951012
-0.028548546 0.035678621 0.1494495
-0.031670321 0.036084291 0.14959508
-0.0032799013 0.03510052 0.14558393
-0.012998602 0.03530705 0.14436287
-0.019407414 0.035103738 0.14518422
-0.024031479 0.035370704 0.14488748
-0.028630026 0.035696086 0.14431956
-0.031508513 0.036812779 0.1444281
-0.029815435 0.036725517 0.13968778
-0.031397976 0.037418302 0.14105797
-0.029457111 0.0020043228 0.19677725
-0.026897762 0.0039820648 0.19255805
-0.029320914 0.0039190026 0.19424787
0.024628051 0.0080536027 0.19179034
0.01980808 0.0085344929 0.19278708
0.013950161 0.0081865201 0.19244611
0.0088378033 0.0075660357 0.19078928
0.0040900554 0.0078106527 0.19072479
-0.0054253959 0.0078419438 0.19124022
-0.010164988 0.0086212745 0.1914978
-0.01558739 0.0072583542 0.19108981
-0.021262139 0.0068792086 0.19178951
-0.025984816 0.0072587109 0.19180557
-0.029125839 0.0078572007 0.19202423
0.029132454 0.010705116 0.18954578
0.02456001 0.011082055 0.19178078
0.0088252509 0.010442556 0.19068968
0.032442123 0.029293064 0.15811718
0.030640593 0.03144503 0.15429401
0.027897563 0.032495681 0.15347117
0.030449849 0.033079211 0.15018848
0.026530262 0.032709423 0.14976597
0.02205376 0.032689814 0.14901891
0.016175754 0.033657432 0.14889055
0.0076408191 0.034269094 0.14813405
0.030882042 0.034522478 0.14676598
0.026807971 0.032708112 0.14501712
0.021854013 0.032796804 0.14445838
0.016546626 0.033342779 0.14406484
0.0062860129 0.033065319 0.14343607
-0.0031817586 0.035580695 0.14335263
-0.01578987 0.035455465 0.14320606
-0.018615007 0.035398722 0.14285624
-0.023250747 0.034875806 0.14201009
-0.027561482 0.035064634 0.1414822
0.0017039635 0.033499777 0.1397213
-0.0077444199 0.036090136 0.13921928
-0.01877911 0.03530854 0.13820463
-0.023505151 0.035839316 0.13837782
-0.027768411 0.036151286 0.13814408
-0.013119246 0.035171628 0.1345135
-0.018007591 0.03539145 0.1340782
-0.023052264 0.035525199 0.13357562
-0.028118711 0.036214527 0.13461852
-0.026372835 -0.0019474649 0.19550779
0.0072234459 0.00055331056 0.19204375
0.0032461099 0.00056952267 0.19187474
-0.00072739093 0.00047099584 0.19163746
-0.0054950584 0.00031453322 0.19132987
-0.010263354 0.00019627719 0.19104508
-0.015032858 0.00083356962 0.19121131
-0.020620558 0.0010994655 0.1920436
-0.025627945 0.00071024674 0.19319957
0.028500956 0.0045224451 0.19044703
0.024327736 0.0040135407 0.19164923
0.019943621 0.0028514878 0.19214046
0.014346946 0.0036562693 0.1923719
0.0088293683 0.0039969096 0.1914067
0.0040594484 0.0044184332 0.19144553
-0.0054723364 0.0036808248 0.19149756
-0.010224596 0.0036585918 0.19127104
-0.014976129 0.0037508593 0.19111323
0.030700326 0.0062044887 0.18847698
0.033027556 0.028482858 0.14905632
0.030709228 0.031621817 0.14219671
0.027012873 0.032115761 0.14174527
0.023046397 0.032140855 0.14159435
0.031234475 0.031774227 0.13784117
0.027239084 0.032081727 0.13788682
0.022465162 0.032193903 0.13776332
0.016881738 0.03266716 0.13785893
0.0065498678 0.033223689 0.13781428
-0.0020931524 0.033711493 0.13587058
0.021074608 0.032421887 0.13401058
0.017142322 0.032526791 0.13295239
0.006795737 0.033959687 0.13256514
-0.0027281858 0.03390336 0.13212419
-0.01201209 0.035164893 0.13208008
-0.017648757 0.035183132 0.13130525
-0.023691926 0.034841295 0.13046277
-0.028080277 0.03359526 0.12987286
0.0069864327 0.034352541 0.12850124
-0.0025707085 0.034042656 0.12836313
-0.012047972 0.035291851 0.12692058
-0.017135285 0.036065817 0.1274575
-0.022369716 0.034864422 0.1261819
-0.027593043 0.033344682 0.12632823
-0.016973056 0.036155701 0.12267941
-0.021426592 0.03563058 0.12211269
-0.021670211 -0.006554367 0.19393593
-0.023250028 -0.0044617672 0.19509286
0.023389142 -0.0039414745 0.19008645
0.014958404 -0.00252807 0.19129574
0.0096373875 -0.0027436009 0.19204274
0.0042554759 -0.0028136964 0.19228777
-0.0055457777 -0.0037401919 0.19169402
-0.010331519 -0.004079164 0.19127747
-0.015362136 -0.0043529286 0.19128686
-0.019968785 -0.0037841217 0.19286942
-0.023180798 -0.0031927249 0.19399673
0.030074924 -0.00073325372 0.18970296
0.025647957 0.00041860566 0.19093776
0.03067336 0.031744365 0.13393626
0.027552357 0.03157473 0.13271618
0.022817409 0.031660978 0.13160884
0.018103134 0.032308936 0.1299327
0.014897172 0.032667994 0.13005391
0.02788098 0.030874314 0.12737232
0.023312921 0.031330291 0.12695086
0.018036515 0.032608092 0.12681067
0.0071304003 0.033745348 0.12544799
-0.0024267947 0.032972574 0.12468576
-0.024705786 0.033823844 0.12339407
-0.028248392 0.032621559 0.12315786
-0.031141726 0.031518873 0.12243736
0.022221701 0.031614307 0.12311202
0.018806197 0.032098234 0.12279683
0.007143178 0.033626437 0.12092233
-0.0020374218 0.033146739 0.12019086
-0.011829882 0.0345577 0.12056297
-0.016166929 0.035523832 0.11962187
-0.022731453 0.035248574 0.11977541
-0.027781818 0.033877071 0.11940426
-0.03098622 0.033009287 0.11864018
-0.011682677 0.033933818 0.11619931
-0.016448896 0.035089314 0.11586648
-0.021215692 0.035504699 0.115237
-0.026496325 0.034886416 0.1147114
-0.030804832 0.034514304 0.11386585
-0.025885534 0.035513993 0.11087418
-0.006616524 -0.01390344 0.19589531
0.0082864361 -0.010970592 0.19331798
-0.00079850381 -0.011058807 0.19223458
-0.0063028587 -0.011766613 0.19268918
-0.010513506 -0.011755527 0.19325051
-0.015335749 -0.011455239 0.1932078
-0.0198026 -0.009738626 0.19326684
0.029136471 -0.0079367729 0.18983001
0.018734649 -0.0091857295 0.18861967
0.014978291 -0.0084698787 0.190745
0.010155146 -0.0082930317 0.19212186
0.0040353304 -0.0082733631 0.19222933
-0.0055825589 -0.0087419758 0.19151926
-0.01039737 -0.0086311707 0.19136739
-0.014408207 -0.008241416 0.19141626
0.029057346 -0.0048769689 0.18978259
0.026625607 -0.0044680214 0.18991747
0.02022839 -0.0047935825 0.18943572
0.028215526 0.030992033 0.12160546
0.023919212 0.031873289 0.12141132
0.018217403 0.032867372 0.12009901
0.0090632094 0.033205271 0.1184926
-0.0037413267 0.032887757 0.11772788
0.028237792 0.03190637 0.11693579
0.023643017 0.032446507 0.11657757
0.01901884 0.032783449 0.11638641
0.0076044006 0.034360528 0.11534756
-0.0020339203 0.033661425 0.11541748
-0.011580422 0.034549117 0.1137073
-0.016349562 0.034834504 0.11273605
-0.021152467 0.034498513 0.11228913
-0.027553566 0.034556743 0.11206692
-0.0291541 0.034517046 0.11197132
0.02387803 0.032655481 0.1122998
0.018631395 0.03291887 0.11227697
0.0079926318 0.034625053 0.11136973
-0.0018443123 0.034374893 0.1110245
-0.011403448 0.034844697 0.1090014
-0.016216122 0.034881949 0.10883027
-0.021026157 0.035148203 0.10882896
-0.025862049 0.034665938 0.10906208
-0.029874302 0.034616526 0.10905671
0.0028679471 0.034712911 0.1063211
-0.0064712982 0.034763694 0.10617274
-0.01608336 0.035529554 0.10535884
-0.020885352 0.035532057 0.10466635
-0.02575884 0.034334775 0.10505813
-0.029778209 0.034162518 0.10476351
0.020146174 -0.017653523 0.1949358
-0.0041646198 -0.016083479 0.19474313
-0.0090239523 -0.01450497 0.19543752
0.026209051 -0.015931187 0.19246954
0.015662195 -0.015744386 0.19156706
0.010782163 -0.014832973 0.19241509
-0.00082291343 -0.015540957 0.19241065
0.025055444 -0.012658415 0.18895453
0.020425672 -0.012821494 0.18841392
0.016560534 -0.01230496 0.18979451
0.029566208 0.029731097 0.11285603
0.028489003 0.030079903 0.10938132
0.024062235 0.032050613 0.10918272
0.019549748 0.031927764 0.10890526
0.027978962 0.031485979 0.10464144
0.024341719 0.03182954 0.10424888
0.019286683 0.031514585 0.10405457
0.014608354 0.032336295 0.10422713
0.0033898512 0.032106578 0.10159832
-0.0063200062 0.032522678 0.10151243
-0.016011838 0.033425033 0.10179305
-0.020847317 0.033885658 0.10194087
-0.025694981 0.032528099 0.10072064
-0.029743547 0.031707879 0.099937499
0.01481833 0.032143772 0.10009366
0.0035001682 0.032872975 0.099178791
-0.0064218631 0.032792687 0.09828198
-0.015877794 0.033689082 0.098000884
-0.020723503 0.033889234 0.097954333
-0.025578298 0.03277206 0.096909165
-0.030641403 0.032465633 0.096720815
-0.016040947 0.034473777 0.093777597
-0.020564623 0.034451962 0.093375742
-0.023770213 0.034359094 0.092168272
-0.031218596 0.03453606 0.092402995
-0.031699397 0.037221964 0.09002322
0.020199863 -0.0187214 0.19431937
0.0015553699 -0.018837035 0.19340682
0.024223419 -0.016753851 0.19152373
0.020332148 -0.017196236 0.19146398
0.014580717 -0.017784713 0.19273576
0.012175899 -0.018484293 0.1922197
0.022092333 -0.015768467 0.18862554
0.032347012 0.026324932 0.10847336
0.030753845 0.028460445 0.10699362
0.032723196 0.026965145 0.10195524
0.030145226 0.029811384 0.10297531
0.021242509 0.031271279 0.10170341
0.02855218 0.0293417 0.097869515
0.024693107 0.031564597 0.098050714
0.019810243 0.031724453 0.09797281
0.01494458 0.032225847 0.097580552
0.003632349 0.032905281 0.096198678
-0.0052721603 0.032361567 0.095421195
-0.028767586 0.032155927 0.094304681
0.024124896 0.031192364 0.093714535
0.019856514 0.031944454 0.092670977
0.0151844 0.033010662 0.092719436
0.0045952154 0.03379631 0.092891276
-0.0059433384 0.033452928 0.092198968
-0.015219695 0.034118295 0.090820312
-0.020469755 0.034541011 0.090427637
-0.026207477 0.033573922 0.091466904
-0.029028688 0.033542093 0.090824604
0.004784896 0.03352505 0.088649035
-0.005749396 0.03366673 0.087317467
-0.015473193 0.035018623 0.086956203
-0.020342447 0.034969211 0.086721063
-0.025212381 0.034669992 0.086292148
-0.029252809 0.035553869 0.086814344
-0.01696299 0.0346331 0.082539141
-0.020217486 0.034614801 0.082393408
-0.02510054 0.034270998 0.081927955
-0.028338555 0.035312589 0.082610488
0.032588217 0.024599973 0.10520738
0.034118805 0.023327235 0.10080445
0.033070456 0.024626259 0.097191453
0.030901773 0.026151659 0.096227825
0.028921945 0.027250053 0.092253804
0.025540797 0.029431047 0.090907097
0.021058092 0.031654716 0.089895368
0.024887657 0.029666128 0.086775839
0.020438118 0.031021954 0.086333394
0.015490171 0.031930625 0.086834848
0.0057210764 0.032575667 0.085923195
-0.0064290641 0.032631338 0.083439946
0.024453012 0.031158807 0.082861543
0.020661822 0.031893015 0.08191669
0.015746454 0.031943202 0.081757486
0.0059236744 0.032011032 0.081414402
-0.0043687252 0.032308459 0.080823064
-0.014966327 0.033935905 0.080851853
-0.020155843 0.034270227 0.080089509
-0.025056161 0.033037242 0.078925729
-0.028275546 0.034114894 0.078619361
0.020842332 0.032571971 0.078360438
0.015628178 0.032750964 0.077470779
0.0058000246 0.032549918 0.07691741
-0.0039996607 0.033080995 0.075915337
-0.015125888 0.033684134 0.075739503
-0.019834723 0.033495605 0.075658202
-0.024653781 0.03246605 0.075627148
-0.02821948 0.032445487 0.07423687
-0.010074816 0.034117222 0.072176695
-0.014988187 0.03399545 0.071883261
-0.019082669 0.033893943 0.071638763
0.035222083 0.017782453 0.10094088
0.038812928 0.019531313 0.097256064
0.036387675 0.020770315 0.0984869
0.038312465 0.020436589 0.094255686
0.034667537 0.022050444 0.093693256
0.031720709 0.023923041 0.092549324
0.030594623 0.025044801 0.088877678
0.02948018 0.026640059 0.084744275
0.02711237 0.028938474 0.08499217
0.029075956 0.028511466 0.079615235
0.026268898 0.030162992 0.080109656
0.02549828 0.030838313 0.07541728
0.020988341 0.032898247 0.075540483
0.016511951 0.032629907 0.074634194
0.0066379486 0.033302426 0.074771404
-0.021606639 0.033007439 0.072891593
-0.025316961 0.03200477 0.072462559
-0.028993735 0.031845864 0.071675003
0.021222578 0.031626225 0.071447134
0.01624788 0.032299697 0.071783841
0.0061982544 0.032649279 0.070182204
-0.0036474031 0.034036338 0.069716811
-0.013242065 0.033837974 0.068733394
-0.018647399 0.033603728 0.068772674
-0.024163678 0.032776054 0.068293333
-0.029691476 0.032700714 0.068200827
-0.0024246303 0.032886028 0.065294027
-0.013129118 0.033017755 0.064974129
-0.018064629 0.033530712 0.065190434
-0.023003925 0.032658216 0.064292192
-0.027943406 0.032438632 0.063919067
-0.031237643 0.032251056 0.063637197
0.034804285 0.0096810488 0.10240155
0.039212789 0.012412969 0.099712551
0.035766818 0.01319206 0.10136151
0.048427448 0.014999633 0.094674945
0.044436704 0.015374128 0.096150339
0.040408619 0.016331617 0.098052919
0.049333498 0.017200533 0.092274308
0.045124616 0.017969314 0.092679143
0.040627152 0.019537989 0.09299469
0.036005441 0.020732109 0.091327429
0.048712924 0.017959837 0.088725984
0.044409983 0.019101087 0.087773919
0.040392708 0.019926373 0.087826848
0.035615768 0.021057848 0.087908506
0.032132283 0.023214642 0.085903704
0.040321194 0.020582382 0.083396614
0.035643402 0.022086862 0.083127081
0.031765211 0.02407706 0.082449675
0.035355654 0.023017231 0.078338861
0.031854417 0.025053086 0.078679383
0.030812202 0.026699187 0.074141622
0.027745338 0.029041709 0.073796034
0.02965142 0.027887763 0.069849074
0.026341042 0.02910346 0.069297791
0.021395991 0.030468406 0.068458915
0.016851468 0.031040492 0.068215072
0.0073973378 0.032063305 0.067100525
0.024934204 0.029416265 0.064635098
0.021596884 0.030832352 0.064596534
0.016407588 0.031471908 0.064645052
0.006706479 0.032283425 0.064131498
-0.0033649271 0.032277226 0.062090099
-0.013017858 0.032438278 0.061390758
-0.017966811 0.032579839 0.061308622
-0.023344122 0.032226022 0.061330438
-0.027870338 0.032119211 0.060751855
-0.031150203 0.03272837 0.060906291
0.020698817 0.031755686 0.060434878
0.016840709 0.031956911 0.060096741
0.0066770492 0.03232348 0.059542418
-0.0029583899 0.032956839 0.058033347
-0.012873343 0.03250879 0.057276666
-0.017832484 0.032825351 0.057338715
-0.022610515 0.032175478 0.057405233
-0.027769906 0.031778034 0.056541204
-0.031888712 0.031914111 0.056040883
-0.0030285448 0.033852518 0.05412215
-0.012915614 0.03366679 0.053242743
-0.017664764 0.033688664 0.052811265
-0.022649001 0.033200558 0.052814245
-0.027666844 0.032281693 0.053363442
0.038866989 0.0066431197 0.10103446
0.03490717 0.0065146121 0.10213232
0.044344492 0.0095492043 0.096590281
0.040845551 0.0091930665 0.099245965
0.049954772 0.011646693 0.093875587
0.046307862 0.011371914 0.095295012
0.054741025 0.012834434 0.089213014
0.052041166 0.01489145 0.090649247
0.055301107 0.01499552 0.084981799
0.050874665 0.0165422 0.085423648
0.046882957 0.017159883 0.085472822
0.055984825 0.016072994 0.081401527
0.050638415 0.016720895 0.080852389
0.045355782 0.017798904 0.080912888
0.041302487 0.019894425 0.080122471
0.040686719 0.019912247 0.075745821
0.037185479 0.02243406 0.075889945
0.039683539 0.021064047 0.07215023
0.035794567 0.022196595 0.071492791
0.032972243 0.024309639 0.071308792
0.031879697 0.024951221 0.066980362
0.028254097 0.02660531 0.065648735
0.030143952 0.024994971 0.062343121
0.026764287 0.027600827 0.062204003
0.02576079 0.028808059 0.057366848
0.022508288 0.0310452 0.057832241
0.017012993 0.031679094 0.056733251
0.0078765573 0.031970918 0.056610644
0.021899188 0.030204715 0.052771389
0.017014129 0.031479955 0.052621961
0.007222916 0.032409787 0.052737653
-0.0018510214 0.033687294 0.051328301
-0.010969947 0.033710778 0.050989628
-0.022569124 0.033370551 0.050253451
-0.027585864 0.032094415 0.050056994
-0.031617396 0.031218527 0.050651252
0.015778234 0.031532645 0.048125744
0.0070344741 0.032003582 0.047643423
-0.0025345376 0.03279072 0.047391236
-0.012513123 0.03310281 0.047259152
-0.017462343 0.033048034 0.045960963
-0.022664901 0.032691296 0.04572618
-0.027479315 0.031625506 0.04544878
0.039820809 0.0019514 0.10065752
0.035911556 0.0015577109 0.10164094
0.048915103 0.003500585 0.094374955
0.04480952 0.0046995915 0.096454918
0.041982852 0.0029785074 0.097810507
0.054412231 0.0075227069 0.0914042
0.050840333 0.0071843909 0.09347254
0.047058031 0.0070923609 0.094889522
0.065209508 0.0091719087 0.088541985
0.060535744 0.01001293 0.088804483
0.057058364 0.010224228 0.0889979
0.065862983 0.011545843 0.084308982
0.060729317 0.013021415 0.085062444
0.057609491 0.014346187 0.083253086
0.065983415 0.013817972 0.08067292
0.061330631 0.015088981 0.08060509
0.056101397 0.015805727 0.079957485
0.051128983 0.016725961 0.078596473
0.04697036 0.01654226 0.07828629
0.060985357 0.015812939 0.07546711
0.056340173 0.016958302 0.075868011
0.051529132 0.017160837 0.075570464
0.046584368 0.016947452 0.07486999
0.043009795 0.017977063 0.074038744
0.055856943 0.016396111 0.07123816
0.051070586 0.017750148 0.070708275
0.046431676 0.017652217 0.070008934
0.042093959 0.019349698 0.070207238
0.038166188 0.020796958 0.069794357
0.050200507 0.018658642 0.066499174
0.045744181 0.018996779 0.06588769
0.041769393 0.02083886 0.065786183
0.036895219 0.021880034 0.066155374
0.031792115 0.023509683 0.063318491
0.040312223 0.021412615 0.06198442
0.036967497 0.022187416 0.061417341
0.032514181 0.023500565 0.060538292
0.028574271 0.025316061 0.060438812
0.031177169 0.024630668 0.056196928
0.02836488 0.026243152 0.056442499
0.03073716 0.025184752 0.051974773
0.027582759 0.027483346 0.05134511
0.023211328 0.029832127 0.050190687
0.019062718 0.030410411 0.04944551
0.026581259 0.029108705 0.04696697
0.022511138 0.030696156 0.047430992
0.017861595 0.031173708 0.046636999
0.0079870941 0.032017529 0.045040607
-0.0032232078 0.031869829 0.043417335
-0.012395273 0.031965196 0.043138862
-0.020726457 0.032037795 0.042874217
-0.027392318 0.031715628 0.042345047
-0.030825121 0.030533133 0.04441154
0.026140573 0.029560866 0.042637706
0.022535311 0.031207623 0.04234767
0.017721783 0.032467782 0.042604804
0.0077060694 0.033026338 0.042074502
-0.0020588888 0.032679617 0.041403532
-0.012289605 0.032656252 0.04052937
-0.017292604 0.032575727 0.04026711
-0.022297725 0.032085773 0.039660931
-0.027303791 0.031927045 0.039332747
-0.030668607 0.031773325 0.040138543
0.021326879 0.031726781 0.037849784
0.017728899 0.033381283 0.037576973
0.0079548815 0.033391595 0.036593795
-0.0021101059 0.032739341 0.036724091
-0.01232561 0.033045113 0.035783589
-0.01712209 0.032888234 0.035196841
-0.021936201 0.032487746 0.034939051
-0.027407233 0.032537576 0.035114408
-0.031123489 0.03395718 0.03513217
-0.031194832 0.033984657 0.031297743
0.039203577 -0.0044556824 0.10119861
0.036454428 -0.0052479473 0.10051501
0.043854315 -0.0018097124 0.097485065
0.041513532 -0.0025164448 0.099271834
0.04997573 0.00030553777 0.093102992
0.046501853 -5.393814e-05 0.094756484
0.065062031 0.002966648 0.089145482
0.061236471 0.002458697 0.087918103
0.056033395 0.0023966481 0.089728892
0.052525245 0.0023421096 0.091610491
0.064427897 0.0054938253 0.088239014
0.061867803 0.0058360752 0.08838892
0.066545531 0.012800163 0.077240109
0.066855565 0.012906259 0.073154926
0.063400269 0.014385467 0.073115408
0.066181511 0.013870543 0.067999303
0.062031806 0.015089279 0.068366289
0.05717402 0.015965408 0.068258286
0.052992716 0.016717974 0.067881823
0.04856807 0.01663119 0.066935718
0.065780349 0.01524896 0.063376248
0.062327333 0.015948182 0.063790798
0.057036951 0.016698902 0.063381433
0.052363098 0.017508451 0.063307881
0.047680885 0.017675225 0.062813878
0.051365361 0.017343823 0.058470666
0.046522409 0.017547611 0.059146523
0.042260729 0.019479875 0.058757901
0.037235606 0.021198098 0.057471454
0.040845513 0.019740943 0.054322064
0.037453659 0.020880643 0.054046512
0.033659998 0.022294942 0.053449452
0.036008596 0.020253722 0.050291598
0.031818744 0.023452105 0.048475623
0.031146301 0.024563434 0.045095503
0.029055366 0.026667537 0.04408294
0.02717012 0.028406681 0.039573193
0.023816338 0.030216875 0.03881824
0.023173941 0.030430915 0.035037518
0.019032205 0.031696975 0.033440411
0.003067092 0.031999528 0.033080161
-0.0069910353 0.031663358 0.032405794
-0.023755783 0.031716224 0.031802535
-0.026269423 0.031653997 0.031652451
0.021696268 0.031135621 0.030910015
0.017985284 0.032150447 0.030768573
0.0082426714 0.032142222 0.030169904
-0.0021611853 0.031073987 0.029072821
-0.011881228 0.032731116 0.028819025
-0.016915236 0.032438934 0.028375089
-0.021988401 0.031383928 0.028357267
-0.027024357 0.031298097 0.028089523
-0.031175684 0.032290991 0.027700841
-0.011710412 0.032425761 0.023698747
-0.017179605 0.032335401 0.023411393
-0.020748394 0.031575203 0.024606109
-0.028632624 0.030536233 0.024133027
-0.030318478 0.030390738 0.023943305
0.043894242 -0.011257824 0.10201764
0.04004287 -0.011174258 0.10242945
0.0370644 -0.010530469 0.10224658
0.044035237 -0.0096970163 0.099017203
0.041082367 -0.0086096488 0.100357
0.0360214 -0.0093815895 0.1002776
0.049983345 -0.0076309401 0.096031904
0.046249636 -0.0071902829 0.096268594
0.055176288 -0.0042931391 0.09029144
0.051714912 -0.0044314815 0.092293859
0.047606632 -0.0046318131 0.093528271
0.061459959 -0.0017940945 0.087890804
0.057319388 -0.002085025 0.088959277
0.067557037 0.013808852 0.063366294
0.066973269 0.014341658 0.059528351
0.062598228 0.014454549 0.05792439
0.057963118 0.015657252 0.057486653
0.053743035 0.016544109 0.057219386
0.047993675 0.016427878 0.056720436
0.057520553 0.01564086 0.052385569
0.052901015 0.017140333 0.052699804
0.04783459 0.017023508 0.052404523
0.043174565 0.018049899 0.052744508
0.053152144 0.017582837 0.048797965
0.047765791 0.017781977 0.047890067
0.043036189 0.018579368 0.04706794
0.038089748 0.019787196 0.047591567
0.034467958 0.020851079 0.047517121
0.041597217 0.019565109 0.042456448
0.037976176 0.020437125 0.04222697
0.033515643 0.021958951 0.04273206
0.037553508 0.021272007 0.038327813
0.033088278 0.023033444 0.037732542
0.029828208 0.025454583 0.038281143
0.031845085 0.024284186 0.033063591
0.028598333 0.026540341 0.033487976
0.02843673 0.027620913 0.028445482
0.023975099 0.029485108 0.029281378
0.020149516 0.030641617 0.02826643
0.027760955 0.028446557 0.023780107
0.023576485 0.029821994 0.023622274
0.018670803 0.030866088 0.024061322
0.013583519 0.031272531 0.024216771
0.0034689987 0.030854762 0.023468792
-0.0066266311 0.03153646 0.022583902
-0.01586354 0.0315184 0.021127939
-0.022375626 0.030500052 0.02144742
-0.026419582 0.029765783 0.021383524
-0.030264406 0.029582439 0.020533562
0.022295492 0.030555906 0.01957339
0.018745502 0.031442642 0.01829505
0.013870635 0.031843781 0.018185198
0.0034561502 0.031602561 0.018202424
-0.0064380458 0.032450914 0.01793927
-0.016567364 0.032194138 0.017329216
-0.021432402 0.031608935 0.016907215
-0.025306163 0.030594228 0.015602708
-0.028485933 0.029141543 0.01640594
-0.0064732349 0.033400416 0.012831867
-0.016155645 0.03293997 0.011707008
-0.020916589 0.032439888 0.012275577
-0.023200115 0.031559404 0.012147665
0.046855859 -0.01294231 0.096811652
0.055227265 -0.010347779 0.093496621
0.052794561 -0.0088758422 0.094805002
0.060386389 -0.0084173027 0.089741886
0.056658067 -0.0078090974 0.091146231
0.060749978 -0.0052738138 0.088415265
0.066668242 0.011761015 0.05426234
0.064078644 0.012798255 0.053921819
0.067003787 0.011673098 0.049921513
0.063499972 0.01249898 0.05044806
0.059479855 0.014618045 0.049498677
0.066063553 0.012540584 0.046644807
0.062906131 0.013027197 0.0465554
0.058603495 0.014855331 0.045719862
0.053015098 0.016534749 0.04525727
0.048388787 0.016640607 0.044265509
0.067468144 0.015390223 0.041116893
0.058439031 0.014920657 0.041996241
0.053738378 0.016135817 0.041189015
0.048649572 0.01613969 0.040632486
0.044265546 0.01812667 0.041376472
0.040061057 0.02006549 0.039580941
0.052200437 0.017453793 0.037894011
0.047142431 0.016829733 0.037178993
0.043476917 0.018116657 0.036554754
0.038623657 0.020131413 0.035259962
0.035204131 0.022100929 0.034607649
0.03853596 0.019921247 0.031174481
0.034102954 0.021723215 0.0303455
0.033081271 0.023245398 0.026806355
0.030527389 0.026898922 0.025464058
0.032435969 0.024774853 0.022626758
0.029881088 0.026626172 0.021933317
0.025649307 0.029221239 0.020730615
0.02807677 0.027278723 0.018412411
0.024475327 0.029294433 0.01724714
0.0046761082 0.031234622 0.015115559
-0.029598745 0.027914284 0.013836205
0.023667945 0.02962357 0.013109446
0.019506341 0.030678632 0.012366772
0.014141516 0.031647563 0.012543559
0.003966962 0.031313777 0.011864185
-0.019745104 0.032235801 0.010677934
-0.025452869 0.030292271 0.010217309
-0.02837011 0.027474342 0.0094700456
0.018610427 0.030512335 0.0084068775
0.066805571 0.0129242 0.044111907
0.063092336 0.013494616 0.043711424
0.066496208 0.014935082 0.040703893
0.063272566 0.014734214 0.04041189
0.059360847 0.015438741 0.039540172
0.05562035 0.015871292 0.038884401
0.050511554 0.01574463 0.038579285
0.066335082 0.01394338 0.034452021
0.063218787 0.014619296 0.03423661
0.059133887 0.015676206 0.034790754
0.054327376 0.017051106 0.035203457
0.049214706 0.01693422 0.034906268
0.044760168 0.018005852 0.033725858
0.058819339 0.015691107 0.030161619
0.054475315 0.017005568 0.030001283
0.049121164 0.01702464 0.029341102
0.044158295 0.018311802 0.029604018
0.040137704 0.019819263 0.029265046
0.053014368 0.016700987 0.026408851
0.044049621 0.018228475 0.024612784
0.039057828 0.019451443 0.02443856
0.035372999 0.021453205 0.024824381
0.038672961 0.019580904 0.020617247
0.034881834 0.022105638 0.020799339
0.030936444 0.024511876 0.019058168
0.032816622 0.022044841 0.01700449
0.029432146 0.025189402 0.015191495
0.028990222 0.025587322 0.010661721
0.025368987 0.028583648 0.010277689
0.066800371 0.014175123 0.028106272
0.063526653 0.014059132 0.028703213
0.058991477 0.015533989 0.027849257
0.063261732 0.013706809 0.023731291
0.05938267 0.014789348 0.022842765
0.055238754 0.015484159 0.022994161
0.050072394 0.015509193 0.022815228
0.045528457 0.017228309 0.022175848
0.055924788 0.015576904 0.018231392
0.049030885 0.015492682 0.017893553
0.044959001 0.017129663 0.017660737
0.040284533 0.018708471 0.018096685
0.036245905 0.02026147 0.017805219
0.044350348 0.017432634 0.013472795
0.039705992 0.017952505 0.012855411
0.034841098 0.019553069 0.012720942
0.031348791 0.022117617 0.012596488
0.031575505 0.022471728 0.0084791183
0.067293927 0.012777215 0.022551
0.063854292 0.013823574 0.021464407
0.064228572 0.012189155 0.017510056
0.059328884 0.01426453 0.016650915
0.053686343 0.015197282 0.01745224
0.050759494 0.014977877 0.016045034
0.057563826 0.014100914 0.012221992
0.054974161 0.014755015 0.011571407
0.050614148 0.015059237 0.011667609
0.045797266 0.016910974 0.011412203
0.040164493 0.018388692 0.010808706
0.036755864 0.018709306 0.0098451972
0.064622849 0.010388559 0.01339674
0.064553499 0.010136073 0.0097529888
0.059839234 0.012481755 0.009801209
0.052545726 0.014536445 0.0090619922
0.068478644 0.0062389434 0.011492789
0.066805139 0.0091824587 0.0083472133
0.070602402 0.0031188193 0.0089150667
