# .PCD v0.7 - Point Cloud Data file format
VERSION 0.7
FIELDS x y z
SIZE 4 4 4
TYPE F F F
COUNT 1 1 1
WIDTH 982
HEIGHT 1
VIEWPOINT 0 0 0 1 0 0 0
POINTS 982
DATA ascii
0.034240674 0.059448984 0.81926686
0.037901096 0.058523804 0.81912011
0.042184852 0.058075178 0.81923997
0.03346803 0.062480971 0.81905574
0.037283726 0.062475502 0.8189854
0.042623073 0.062465426 0.81885004
0.034230925 0.066288099 0.8190335
0.037285075 0.067048356 0.81901497
0.042177014 0.066901699 0.81908685
0.03883715 0.070139751 0.81953335
0.041125208 0.07013119 0.81943345
0.03847735 0.054089267 0.82275552
0.041747935 0.054184448 0.82265329
0.023296006 0.05825796 0.82398349
0.02769242 0.057716724 0.82252848
0.032664295 0.057111692 0.82153928
0.036633093 0.056554794 0.82152206
0.044252723 0.056503311 0.82076657
0.046427816 0.057687834 0.82311112
0.023692608 0.062888712 0.82440019
0.027444035 0.062681101 0.82168323
0.031241471 0.062610656 0.8207553
0.047316454 0.063123092 0.82345331
0.028057581 0.066786915 0.8228333
0.032344025 0.067428313 0.8209902
0.045892894 0.067732856 0.82270002
0.029828213 0.070522048 0.82400018
0.032845452 0.071935676 0.82262212
0.03720291 0.072021425 0.82142478
0.042129025 0.073026299 0.82112646
0.045128871 0.071948946 0.82277781
0.038250685 0.075062692 0.8233667
0.041379236 0.076699734 0.82450008
0.045184936 0.075102173 0.82380027
0.014034049 0.053477045 0.82906699
0.017630821 0.053187583 0.82856697
0.021949498 0.053322233 0.8282668
0.027628662 0.053867467 0.82716656
0.033553414 0.052857105 0.82743341
0.037400592 0.051840115 0.82639992
0.042280301 0.051553503 0.82707763
0.045811888 0.052776791 0.82818335
0.0099115521 0.0578513 0.82913363
0.012995258 0.057043672 0.82860774
0.017599234 0.056938265 0.82707381
0.021625912 0.057262644 0.82621664
0.02603475 0.055296749 0.82553339
0.048071496 0.056561381 0.8272
0.0099131456 0.060174618 0.82926691
0.013342478 0.061856959 0.82883734
0.017609369 0.062360805 0.82755548
0.021443062 0.063056737 0.82659984
0.048331942 0.061404627 0.82506675
0.018160122 0.067368142 0.82920033
0.022237631 0.067745775 0.82752591
0.026417777 0.068731152 0.82550013
0.048026357 0.067655198 0.82641679
0.022717806 0.072264515 0.82891464
0.027398007 0.072420128 0.82657564
0.047683686 0.07232929 0.82714456
0.023834394 0.075606667 0.8293336
0.02805195 0.076475687 0.82829177
0.032712083 0.077088654 0.8270067
0.03739677 0.077307694 0.82630455
0.042596381 0.077966832 0.82573342
0.046619374 0.07666593 0.82744008
0.050056051 0.075497255 0.82813352
0.033498369 0.080614045 0.82926697
0.037866462 0.082276992 0.82870328
0.042215046 0.082263023 0.82855773
0.045510396 0.081045419 0.82973331
0.013091966 0.04970324 0.83475542
0.017761206 0.049696624 0.83464432
0.028669115 0.049717795 0.83499974
0.032525532 0.049665205 0.83411646
0.037896838 0.048790485 0.83245558
0.04256184 0.048798304 0.83258885
0.045744408 0.04965825 0.83399987
0.0025845775 0.053989273 0.83499974
0.007941124 0.053042341 0.83355319
0.012520596 0.052072186 0.83126664
0.017681614 0.051021382 0.83093327
0.022731237 0.051436119 0.83139998
0.027007664 0.051846433 0.83178896
0.031339385 0.051673871 0.83149338
0.048129849 0.052337147 0.8322134
0.052523702 0.053316802 0.83461094
0.0021951892 0.057483062 0.8349849
0.0071548037 0.057158671 0.83252001
0.051691942 0.056911077 0.83312362
0.0025067129 0.061211944 0.83499974
0.0074166548 0.06216589 0.83339995
0.012257038 0.064157121 0.83089995
0.050408639 0.061292104 0.83396673
0.0087328264 0.065851919 0.83474648
0.013063329 0.067673892 0.83294809
0.016656676 0.069089979 0.83135551
0.014264215 0.072628409 0.83499974
0.017731737 0.072874121 0.83335555
0.020798486 0.073496401 0.83163333
0.050334096 0.074367553 0.83273339
0.017765025 0.076111086 0.83486646
0.022397449 0.07753168 0.8334285
0.025974015 0.078412943 0.83182216
0.04821004 0.078410834 0.83179998
0.027542647 0.082073852 0.83458078
0.031876706 0.082660258 0.83239174
0.046833508 0.082489252 0.83261669
0.028669115 0.085442789 0.83499974
0.033139322 0.086579576 0.8343035
0.037700683 0.087876096 0.83156002
0.042659231 0.087865047 0.83145988
0.045729782 0.086865135 0.83373332
0.034898266 0.090102598 0.83499974
0.038171373 0.092929386 0.83422482
0.042616114 0.093059212 0.83364439
0.045791935 0.090088211 0.83486658
0.039180778 0.097868912 0.83499974
0.041127395 0.097868912 0.83499974
0.0079403566 0.049419448 0.83873338
0.012359575 0.04793581 0.83780831
0.017824573 0.048315804 0.83762217
0.022507589 0.048501547 0.83750832
0.027189035 0.047779255 0.83736295
0.032077167 0.047339536 0.83759999
0.037369199 0.046781547 0.83805007
0.043209907 0.046366867 0.83761662
0.047490668 0.048560228 0.83737779
0.052190375 0.049093399 0.83759999
0.056262217 0.048633546 0.83774728
-0.0069591873 0.053517222 0.83891338
-0.0024844892 0.052988961 0.83762228
0.0018888796 0.052040003 0.83738679
0.0060998257 0.051369313 0.83659995
0.051014751 0.051813554 0.83539987
0.056607019 0.053113531 0.83649158
-0.0071759904 0.057695575 0.83807015
-0.0024820929 0.057594106 0.83659995
0.052819557 0.059051506 0.83519995
0.057154566 0.057472564 0.83708543
-0.0067358026 0.062216502 0.83896202
-0.0024844098 0.062325969 0.83743703
0.0018074175 0.063376151 0.83588314
0.052750587 0.062384691 0.83822232
0.056955565 0.060863156 0.83875561
-0.0056201881 0.065589033 0.83933342
-0.0020974823 0.065932319 0.83873343
0.0022020061 0.067026906 0.83777779
0.0068798275 0.067598887 0.83659995
0.052046459 0.0676594 0.83840007
0.0037705158 0.070245117 0.83900017
0.0074171224 0.071245588 0.83852226
0.011256246 0.072740786 0.83718002
0.051928617 0.072065949 0.83840007
0.013146865 0.077314392 0.8382858
0.017811352 0.078648873 0.8370778
0.020916022 0.079356283 0.83633327
0.014727251 0.081189357 0.8392002
0.018370766 0.082194716 0.83883351
0.022493798 0.082538128 0.83703703
0.025604527 0.08327578 0.83663332
0.04900625 0.082492776 0.83657765
0.022981433 0.087143056 0.83854294
0.026974717 0.087377824 0.83679157
0.030772967 0.088111669 0.83575535
0.048290607 0.087275662 0.83767778
0.050765265 0.08906544 0.83986664
0.024118915 0.091340184 0.83923352
0.027413744 0.09182401 0.83830011
0.032640949 0.09226799 0.83702773
0.036458436 0.094769917 0.83506638
0.047503464 0.092455357 0.83755565
0.032382675 0.096553795 0.83899063
0.036370784 0.098170049 0.83756673
0.043511704 0.097977482 0.83592206
0.046367805 0.09746746 0.83823347
0.038123183 0.10216319 0.83745718
0.042607874 0.10243534 0.83785725
0.046044253 0.10151558 0.83946651
0.054227434 0.037738327 0.84499991
0.055737317 0.039263673 0.84400004
0.0085252859 0.044025782 0.84499991
0.012462577 0.044017099 0.84483325
0.017980903 0.044025782 0.84499997
0.022708155 0.04402462 0.84497768
0.027400233 0.043181986 0.84388894
0.032103281 0.043941271 0.84337801
0.03683516 0.043956321 0.84366685
0.042355802 0.043972813 0.84398329
0.047093354 0.04398584 0.84423316
0.053176809 0.043501828 0.84499997
0.055757612 0.0424187 0.84430742
-0.0056529236 0.047125474 0.84422225
-0.0022794495 0.04757943 0.84431809
0.0022185436 0.047112446 0.8440001
0.0067331707 0.046841536 0.84266663
0.011955815 0.045767862 0.8423602
0.017915819 0.04621486 0.84194452
0.022635251 0.045840938 0.8422668
0.026522405 0.045381788 0.84099972
0.032798443 0.045383595 0.84103334
0.037519664 0.045403376 0.84139985
0.042182341 0.04535481 0.84049988
0.048028253 0.046023488 0.84130669
0.052543793 0.046286803 0.84325558
0.055574439 0.046192542 0.84153354
-0.011611747 0.054233365 0.84239995
-0.0066891909 0.050689597 0.84256953
-0.0025003282 0.050194148 0.84300023
0.0022132918 0.050154451 0.8423335
0.0053416216 0.050015513 0.83999997
-0.011143235 0.058007494 0.84259725
-0.011146766 0.062731266 0.8428846
-0.008763859 0.063340649 0.84057409
0.052369032 0.064114176 0.84046668
0.057098925 0.063363187 0.84087205
-0.011515606 0.066917285 0.84131527
-0.0074030813 0.067542739 0.84177685
-0.0028096598 0.068240896 0.84122658
0.052354485 0.066440776 0.84023327
0.056911174 0.06708882 0.8409999
-0.0067047458 0.071751036 0.84447217
-0.0025030316 0.072196022 0.84354824
0.0020156805 0.07222344 0.84158331
0.0058680978 0.07298553 0.84059983
0.053207185 0.072787315 0.8413167
0.056314223 0.071854174 0.84321344
-0.0021119651 0.075830713 0.84471655
0.0022180306 0.076934904 0.84388894
0.0070689539 0.077353112 0.84222436
0.011308139 0.079173319 0.84099972
0.052487608 0.077577546 0.84235573
0.055763736 0.075409479 0.84440005
0.0032721693 0.080702595 0.84499997
0.0069445372 0.082485601 0.84447497
0.012214441 0.083227612 0.84258807
0.016850138 0.083970964 0.84099978
0.052381225 0.082993157 0.84343708
0.055794541 0.084094882 0.84486651
0.0085252859 0.086466081 0.84499991
0.012667709 0.087815806 0.84423029
0.017924173 0.087765351 0.84237796
0.021028578 0.088386051 0.84083319
0.051874947 0.087475359 0.84260005
0.055798937 0.086459257 0.84493321
0.018412288 0.092437997 0.84416199
0.022179279 0.092651665 0.84202862
0.025732052 0.093856581 0.84079975
0.051277038 0.092011698 0.84181654
0.023217367 0.096878104 0.84441108
0.027349949 0.097167529 0.84237039
0.030444801 0.097793922 0.8410331
0.048535831 0.097115293 0.84193319
0.028478742 0.10110771 0.84475547
0.03225176 0.10164727 0.84216666
0.03639365 0.10417648 0.84077322
0.043771021 0.10481736 0.84089994
0.047382906 0.1022615 0.84238333
0.032924347 0.10524116 0.84430003
0.037883483 0.10784683 0.84256679
0.043026332 0.10804511 0.84166664
0.046284668 0.10754 0.8438499
0.04290944 0.11207821 0.84453326
0.052773621 0.034676488 0.84700006
0.044210792 0.039513346 0.84936696
0.048560869 0.039112717 0.84925026
0.052574374 0.037824858 0.84695351
0.055803359 0.03616647 0.84500003
-0.005658132 0.044025782 0.84500003
-0.0019841075 0.043077681 0.84698719
0.0024532152 0.043019522 0.84732389
0.006965064 0.04280347 0.84676677
0.01250643 0.041804925 0.84780014
0.017713347 0.041938003 0.8472935
0.023176234 0.042191856 0.84765011
0.027532781 0.041026119 0.84797806
0.032275211 0.041810211 0.84791118
0.037003297 0.041792244 0.84754461
0.042519625 0.041778311 0.84725022
0.048248552 0.042090867 0.84675258
0.052440584 0.041971225 0.84584451
-0.0072340677 0.047955438 0.84500003
-0.0032965241 0.045630924 0.84561676
-0.01354582 0.064498141 0.84549999
-0.011205508 0.067785963 0.8473056
-0.010417544 0.070962742 0.84757143
-0.0083010411 0.073506385 0.84660006
0.058652077 0.072825238 0.84630239
-0.0067330189 0.076776072 0.84791929
-0.0028272658 0.078113362 0.84646672
0.054270219 0.078668781 0.84566653
0.056839626 0.077473916 0.84634668
-0.0056875949 0.080596112 0.84940022
-0.0019899595 0.081579603 0.84866697
0.0016999381 0.082470089 0.84700012
0.0069498997 0.084900893 0.84506649
0.054308709 0.081085682 0.84626663
0.056832362 0.082499668 0.84624803
0.0027581931 0.086317688 0.84868908
0.006738273 0.087557554 0.84686673
0.010103617 0.089631043 0.84519988
0.054294448 0.088147722 0.84604436
0.056848537 0.088507921 0.84648001
0.0077736126 0.090820052 0.84896696
0.012714814 0.092875913 0.84740621
0.016438615 0.093731776 0.84673345
0.053600099 0.093031637 0.84753346
0.057339858 0.093056723 0.84775734
0.01411405 0.096396565 0.84940022
0.018567478 0.097271003 0.84783357
0.021703618 0.098724633 0.84677792
0.049573828 0.099189423 0.84626675
0.052062869 0.096264169 0.84823358
0.056914717 0.096445426 0.84983039
0.023119953 0.10166689 0.84854698
0.026998794 0.10304591 0.84776688
0.030610109 0.10383026 0.84559995
0.049640205 0.10247675 0.84740019
0.028618932 0.10634243 0.84891146
0.032020051 0.10762592 0.84717149
0.048867729 0.10724007 0.84768349
0.033110805 0.11057362 0.84906697
0.03698916 0.11191373 0.84724772
0.042442035 0.11406769 0.84569997
0.047372807 0.11211786 0.84641343
0.038245626 0.11646228 0.84881693
0.042229775 0.11702685 0.84775352
0.047055203 0.11573112 0.84827805
0.041837465 0.12010043 0.84942245
0.045022603 0.12014442 0.84973353
0.048417587 0.034952372 0.85373884
0.0022429365 0.039698485 0.85334659
0.0070203426 0.039714929 0.85369998
0.013105125 0.03912802 0.85246658
0.01814211 0.038868424 0.85257775
0.022951849 0.039332848 0.85403341
0.02741004 0.039092511 0.85399354
0.032509398 0.039731983 0.85406667
0.037236292 0.038883414 0.85290003
0.041685019 0.038718387 0.85276663
0.047217797 0.037170317 0.8525905
0.0014425276 0.041141707 0.85036671
0.0062025548 0.041154608 0.85063338
0.019689916 0.041160248 0.85074991
0.02205582 0.041133638 0.85020012
-0.011000633 0.073958017 0.85179168
-0.011549085 0.07725665 0.85323602
-0.008352966 0.078722559 0.85191864
-0.010495011 0.082609884 0.85387403
-0.0073037311 0.082529411 0.85304642
-0.003581712 0.083377726 0.85091096
-0.011265539 0.087973878 0.852
-0.0073135747 0.086957224 0.85423374
-0.0025301871 0.087259941 0.85274076
0.0011790612 0.088128448 0.85093325
-0.0014722425 0.091148384 0.85451126
0.0024413927 0.091874778 0.85325003
0.0064766216 0.092462957 0.85196662
0.010172155 0.094987735 0.85093319
0.054556862 0.094898418 0.85013348
0.057738215 0.094915435 0.85028583
0.0079763038 0.09657193 0.85374004
0.012560209 0.098222621 0.85153323
0.017045543 0.099188171 0.85075545
0.053232189 0.098575965 0.85067618
0.056777056 0.09877459 0.85173339
0.0086234892 0.1001818 0.85473347
0.012757857 0.10217129 0.85408342
0.018132919 0.10305539 0.85218513
0.022468632 0.10407722 0.8508333
0.053054724 0.10296789 0.85146666
0.057266839 0.10274626 0.85338736
0.019234231 0.10697982 0.85400003
0.022885289 0.10773698 0.85160732
0.027091958 0.10814744 0.85068887
0.052632213 0.10740715 0.85318893
0.056461383 0.10657046 0.85496455
0.023887929 0.11240345 0.85336
0.027662691 0.1125404 0.85198879
0.03215785 0.11283205 0.8507809
0.035553038 0.11394683 0.85066658
0.049915798 0.11176269 0.8521049
0.024568206 0.11609961 0.85486692
0.028268486 0.11707785 0.85426682
0.032464489 0.11742035 0.85289997
0.036204245 0.11748253 0.85105991
0.047569662 0.1181934 0.85276783
0.033040848 0.12181803 0.85407782
0.037229925 0.12216173 0.85277772
0.041905522 0.1226694 0.85079986
0.046110347 0.12240205 0.85224426
0.034128908 0.12562133 0.85473347
0.03767813 0.12589599 0.85390002
0.042020485 0.1269749 0.85313332
0.045885671 0.1267837 0.8539933
0.042103149 0.032166574 0.85889584
0.046561647 0.033061303 0.85618353
0.0030534398 0.038289145 0.85733336
0.0070557892 0.037676357 0.85793304
0.011525124 0.037324473 0.85717344
0.017924616 0.036373969 0.85732013
0.022806192 0.03668296 0.85711437
0.027853709 0.036716502 0.85789335
0.03261533 0.037469767 0.85685557
0.037771791 0.036076393 0.85782671
0.042193394 0.035868149 0.85665578
0.045340486 0.035034038 0.85573369
-0.012131748 0.079723075 0.85700005
-0.012141184 0.082977183 0.85766673
-0.0089156535 0.084321566 0.8551333
-0.010514995 0.087540507 0.85550004
-0.0073290598 0.089182273 0.85598338
-0.0063715586 0.09207236 0.85620248
-0.0030723254 0.092928879 0.85626692
0.00065401493 0.093960993 0.8560003
-0.0057462594 0.096593022 0.85816109
-0.0025467754 0.097431585 0.85851079
0.0022518721 0.097254544 0.85695577
0.0058398233 0.097500496 0.85561693
0.0030574959 0.10142621 0.85853326
0.0068481131 0.10225169 0.85708344
0.010233515 0.10352298 0.856067
0.0081324773 0.10600882 0.85900003
0.011852034 0.1069155 0.85771865
0.017075896 0.10830422 0.85609543
0.054109383 0.10903753 0.85560012
0.056576394 0.1083812 0.85670584
0.013487309 0.11038919 0.8599335
0.017367333 0.11191564 0.85800743
0.02180611 0.11346544 0.8559835
0.052164823 0.1129753 0.857705
0.019090135 0.11512553 0.85946679
0.023050765 0.11809035 0.85777146
0.026732065 0.11891999 0.85608912
0.048508417 0.11934196 0.8553105
0.050747402 0.11752219 0.8594569
0.024678374 0.12221161 0.85869992
0.027839532 0.12283149 0.85744452
0.031511407 0.1236558 0.85580021
0.048539702 0.12260324 0.8558622
0.050322816 0.12305958 0.85905272
0.028694866 0.12706232 0.8591001
0.03242844 0.12778011 0.85720843
0.037059475 0.12837976 0.85616016
0.048153196 0.12780964 0.85607946
0.05032168 0.12705256 0.85903323
0.032699611 0.13105565 0.85908896
0.037875339 0.13134269 0.85834992
0.04242463 0.13217686 0.85728335
0.046560396 0.13213573 0.85720003
0.050378311 0.13119467 0.85999995
0.043135405 0.13591492 0.85950005
0.045522407 0.13666172 0.85916674
0.029682569 0.02896098 0.86451745
0.03282043 0.028885437 0.86226243
0.035964005 0.028826399 0.8605001
0.0028006101 0.032602709 0.86158341
0.0072972937 0.03231572 0.86283791
0.011393939 0.032668095 0.86332244
0.017904988 0.033039432 0.86305249
0.023183441 0.032909226 0.86265564
0.028232466 0.032331787 0.8633126
0.03281736 0.032089677 0.86217785
0.037575729 0.032034274 0.86067891
0.0022622859 0.03602951 0.86050934
0.0070822854 0.03565586 0.86115301
0.011895253 0.035241459 0.86080003
0.01670008 0.035217803 0.86022234
0.024715727 0.035208706 0.86000019
0.028725518 0.035208706 0.86000019
0.032735288 0.035208706 0.86000019
0.035943106 0.035208706 0.86000019
-0.0089663938 0.091200508 0.86000001
-0.0057585719 0.09919934 0.86000007
-0.0069858185 0.10196092 0.86305654
-0.0023567146 0.10246821 0.86225426
0.0016196866 0.10307747 0.86032021
0.0027258636 0.10724182 0.86218101
0.0065421783 0.10780977 0.86062235
0.0030777098 0.11093682 0.86420017
0.0072941361 0.11213269 0.86257082
0.011694883 0.11230712 0.86083341
0.015092262 0.11359721 0.86000019
0.0087210182 0.11578642 0.86440009
0.012124221 0.11698268 0.86284173
0.017192703 0.11723141 0.86084014
0.021507917 0.1199963 0.86000019
0.052900445 0.11705119 0.86187726
0.0135605 0.12063815 0.86460006
0.018038394 0.12184402 0.86288327
0.022807295 0.12296736 0.86064005
0.052080922 0.12262802 0.86163342
0.019198436 0.1254268 0.8643502
0.023171015 0.12726112 0.86225194
0.027299115 0.12871739 0.86054671
0.052119263 0.12800585 0.86224192
0.024030663 0.13103166 0.86420023
0.028545594 0.1326683 0.86263895
0.032795962 0.13384478 0.86161113
0.037226789 0.13375635 0.8600136
0.04075484 0.13439418 0.86000019
0.048806541 0.13368252 0.8605665
0.051391255 0.13334155 0.86354172
0.028598001 0.13612764 0.86423349
0.032851286 0.13808505 0.86306304
0.037607953 0.13781983 0.8614074
0.04213053 0.13805389 0.86001927
0.047669224 0.13793688 0.86071438
0.050626278 0.13827075 0.86423349
0.033698801 0.1422766 0.86415017
0.037657846 0.14281684 0.86255562
0.042398214 0.14252871 0.86081493
0.047274798 0.1427051 0.86188155
0.050636046 0.14151356 0.86440021
0.038516339 0.14623025 0.86376679
0.042713605 0.1471709 0.8625477
0.047156509 0.14757606 0.86340851
0.0184916 0.029111145 0.8689999
0.022882316 0.028408924 0.86871421
0.027343646 0.028238941 0.86705267
0.013045925 0.031161502 0.86608893
0.016440354 0.0310841 0.86768341
0.022488968 0.030653985 0.86691684
0.026506316 0.030625107 0.86610025
-0.0066073714 0.10472673 0.86602092
-0.0041796216 0.10462344 0.86516678
-0.0063576908 0.1072186 0.86880463
-0.0023727806 0.10799668 0.86801672
0.00066190981 0.108794 0.86633337
-0.0058250865 0.11086369 0.86993331
-0.0028104666 0.11205655 0.86932373
0.0020485595 0.11346623 0.86773342
0.0055126799 0.1145087 0.86690015
0.0034998655 0.11760601 0.86893326
0.0069294884 0.1179924 0.86731255
0.010340307 0.1190849 0.86500001
0.053959988 0.11922255 0.86599988
0.055791061 0.1188774 0.86936551
0.0074704671 0.12189307 0.8689599
0.011795116 0.12296036 0.86821252
0.015223296 0.12345923 0.86746681
0.053987741 0.12250672 0.86644554
0.055799585 0.12293843 0.86949825
0.013634222 0.1269539 0.86929995
0.016651988 0.12780578 0.86822087
0.020037085 0.12804599 0.86575019
0.053989768 0.12815326 0.86647797
0.017956976 0.1315335 0.86928886
0.022107961 0.13259177 0.8678292
0.026533863 0.13387536 0.86700016
0.05403002 0.13228209 0.86712402
0.024324121 0.13708356 0.86893332
0.027523344 0.13784997 0.86765325
0.052849524 0.13680112 0.86765009
0.02916472 0.1418325 0.86831987
0.032424495 0.14338325 0.86597794
0.051610567 0.14277729 0.86720848
0.033384275 0.14671592 0.86853999
0.037463959 0.14805163 0.86737514
0.041854851 0.14986187 0.86618352
0.049076881 0.14971481 0.86533356
0.051371235 0.14689866 0.86772233
0.039026577 0.15091152 0.86913323
0.042759687 0.15262793 0.86816669
0.047544289 0.15273622 0.86681432
0.050875586 0.15187721 0.86848903
0.043779235 0.15650915 0.86909324
0.047017265 0.15649709 0.86902654
0.016895495 0.029153578 0.87026674
0.020147789 0.027543144 0.87053353
-0.0082662515 0.10853121 0.87069452
-0.0074585997 0.11183073 0.87116349
-0.00095843704 0.11498861 0.87053353
-0.0066583958 0.11610186 0.8728137
-0.0027884624 0.1169358 0.87146264
0.0013150445 0.11859691 0.87086689
0.05774786 0.11875847 0.87444431
-0.0020492042 0.12138748 0.87384987
0.0025239659 0.12283246 0.87201899
0.0067550219 0.12432633 0.87071687
0.058541894 0.12196589 0.87411737
0.002706009 0.12647371 0.87436658
0.0073767155 0.12800619 0.87233335
0.011573584 0.12826219 0.87112391
0.056344971 0.12729326 0.87164444
0.0088205598 0.13174476 0.87426662
0.012388667 0.1322058 0.87301332
0.016386421 0.13356541 0.87198895
0.020158587 0.13449292 0.87100023
0.055916749 0.13211218 0.87132394
0.013720479 0.13507971 0.87479997
0.0181887 0.1377915 0.8739332
0.021337649 0.13809095 0.87179053
0.054321386 0.13867074 0.87180001
0.022080498 0.1425622 0.87363803
0.026198845 0.14286511 0.87123823
0.053443585 0.14254919 0.87073338
0.028640945 0.14667125 0.87212002
0.031553 0.14878727 0.87168348
0.052649125 0.14827067 0.87103343
0.033686969 0.15239918 0.87279993
0.037480358 0.15283436 0.87087792
0.052604806 0.15138361 0.87030011
0.034500293 0.1573565 0.87424994
0.038054697 0.15729426 0.87165189
0.041661374 0.15750308 0.87056684
0.04887699 0.15832154 0.87135571
0.051085155 0.15655825 0.87206662
0.038944867 0.1616651 0.87336653
0.042947773 0.16221982 0.87197781
0.047412686 0.16215487 0.87287623
0.044724349 0.16601732 0.87490004
-0.0091384239 0.11251579 0.87650001
0.058749139 0.11342151 0.87720245
0.062215433 0.11377925 0.87996638
-0.0081628803 0.11811067 0.87688744
0.058846362 0.11704516 0.8762331
0.062740788 0.11790469 0.87869269
-0.0065342458 0.12218931 0.8780483
-0.0036905694 0.12341407 0.8767001
0.062404942 0.12269405 0.87766498
-0.0065444559 0.12760916 0.87938577
-0.0026047742 0.12739924 0.87793714
0.0014869942 0.12802796 0.87665015
0.058900811 0.12759316 0.87702864
0.061721049 0.12711237 0.87877285
-0.0067087524 0.13088405 0.87941074
-0.0026066387 0.13240105 0.87862051
0.0023071927 0.13227664 0.87779278
0.0066598342 0.13256752 0.87611675
0.010467018 0.13357447 0.87560004
0.058486182 0.13112251 0.87735415
0.0039547752 0.13588263 0.87999976
0.0074636238 0.1369075 0.87906659
0.011929628 0.13743658 0.87815845
0.015920375 0.13800776 0.87616682
0.056203555 0.13523307 0.87579304
0.012700756 0.14181165 0.87954426
0.016831718 0.14224145 0.87757099
0.021898054 0.14497598 0.87560004
0.013802042 0.14570448 0.87999976
0.017073033 0.14725019 0.87945175
0.021715892 0.14742079 0.8776859
0.026392601 0.14825895 0.87575006
0.017904356 0.15060969 0.87996644
0.022231266 0.15170966 0.87956172
0.026679885 0.1521956 0.87848765
0.030896652 0.15320744 0.87610006
0.027474822 0.15659598 0.87987757
0.031534828 0.15767486 0.87764305
0.0513312 0.15975659 0.87626672
0.032165568 0.16165659 0.87950647
0.036888726 0.16339636 0.87705243
0.04973381 0.16395412 0.87691665
0.051511824 0.16277225 0.87934989
0.037744015 0.16690156 0.87955981
0.042426631 0.16770048 0.87802792
0.047811188 0.16718817 0.87762672
0.042509884 0.17020743 0.87973309
0.046612121 0.17020743 0.87973309
0.064679585 0.11460205 0.88000005
0.064679585 0.11623903 0.88000005
-0.009174915 0.12114993 0.88000005
0.064721242 0.12204717 0.88056672
0.063114107 0.12867129 0.8810572
-0.0064556836 0.13401021 0.88203615
0.059273984 0.13384733 0.88096648
0.062443137 0.13308881 0.88317651
-0.0022076515 0.13672687 0.88280296
0.0023191441 0.13789627 0.88239998
0.0064209541 0.13926205 0.88066649
0.058800194 0.13775644 0.88414162
0.0078111421 0.14238845 0.88311672
0.011078461 0.14368141 0.88097763
0.012192398 0.14773667 0.88235718
0.056749478 0.14641646 0.88429999
0.013849091 0.1511288 0.88300008
0.016890442 0.15309559 0.88215703
0.021221969 0.15414003 0.88143325
0.018267831 0.15684086 0.88433343
0.022280393 0.15743661 0.88267082
0.025875332 0.15848666 0.88128877
0.027664045 0.16186598 0.88242662
0.030796394 0.16335501 0.88102204
0.028732035 0.16626881 0.88490015
0.032484505 0.16686308 0.88223338
0.03572765 0.16828008 0.8810665
0.049961619 0.16880089 0.8809334
0.052133199 0.16713087 0.88292503
0.037429411 0.17182845 0.88245004
0.042213887 0.17277463 0.88089985
0.047217209 0.17260225 0.88081646
0.050114121 0.17260486 0.88362217
0.042082153 0.17695235 0.88305718
0.046583556 0.17722152 0.88307923
0.050179027 0.17611875 0.88476658
-0.0065051508 0.13836522 0.88893294
-0.0034586601 0.13862392 0.88706648
0.062209953 0.13793598 0.8868866
0.065360025 0.13813928 0.88925755
-0.0059542847 0.14227003 0.88922805
-0.0026333248 0.14201155 0.88760722
0.0020939074 0.14231183 0.88654262
0.0064566382 0.14413908 0.88546675
0.058501083 0.14255333 0.88584995
0.06195895 0.14207965 0.8880316
0.065316595 0.14052707 0.88866651
-0.0059491876 0.14710629 0.8884666
-0.0026363847 0.14718117 0.88891846
0.0023345083 0.14707378 0.88826656
0.0070562917 0.1473083 0.88683784
0.058156725 0.14725852 0.88689154
0.060362577 0.14553002 0.88893324
-0.0059556253 0.15057461 0.88942873
-0.0030523674 0.15096852 0.88931215
0.0028907054 0.15163906 0.88920003
0.0073079672 0.15209812 0.88865918
0.012007858 0.15259866 0.88608563
0.057675213 0.15172251 0.88839322
0.0084178038 0.15603788 0.88913339
0.012057618 0.15707049 0.88756645
0.016783025 0.15819062 0.88575006
0.020482602 0.15970249 0.88500017
0.055432558 0.15805645 0.88963354
0.012831603 0.16145645 0.88861108
0.017028272 0.16206074 0.88776648
0.022166938 0.162425 0.88637763
0.026271969 0.1638985 0.88543338
0.057108853 0.16224214 0.88990003
0.013953652 0.16550946 0.88966662
0.017814266 0.16651094 0.88912225
0.022198452 0.16678511 0.88764423
0.02713857 0.16826855 0.88676167
0.030955888 0.16914205 0.88557786
0.022569273 0.17104404 0.88918668
0.026963456 0.17243274 0.88879049
0.032330588 0.17271836 0.88661891
0.035931297 0.17418261 0.8860777
0.051942386 0.17238085 0.88669991
0.028332844 0.17598663 0.88964456
0.031963442 0.17711367 0.88872498
0.037293117 0.17767736 0.88667601
0.041129544 0.17952532 0.88533348
0.048541706 0.17945771 0.88500017
0.051332347 0.17766747 0.88757324
0.033854388 0.18117756 0.88940006
0.037137728 0.181841 0.88859993
0.042021658 0.18311195 0.88674796
0.046950504 0.18298204 0.88611853
0.051233698 0.1826937 0.88873333
0.038836412 0.18534108 0.88953334
0.042096585 0.18757017 0.88833326
0.047214724 0.18794976 0.8871997
0.05039075 0.18760553 0.88850009
0.042967614 0.19023392 0.88919997
0.047102489 0.19184214 0.88898659
0.050460711 0.19034798 0.88973361
0.062391128 0.14777762 0.89126354
-0.0059633581 0.15325563 0.89058352
-0.0018124984 0.15338787 0.89135015
0.0012348533 0.15366481 0.89135581
0.058891825 0.15428816 0.89176679
0.061917577 0.15166514 0.89341748
-0.0026509182 0.15634532 0.89404458
0.0029043586 0.15740575 0.89376694
0.0067730919 0.1580262 0.8910169
0.057150919 0.1573921 0.89055562
0.0076759709 0.16181102 0.89300025
0.011214036 0.16368288 0.89173359
0.056268789 0.1626948 0.89237356
0.012773512 0.16759607 0.89417529
0.016183948 0.16845495 0.8906557
0.053797577 0.168889 0.89003336
0.056281541 0.16859587 0.89433342
0.017897116 0.17228156 0.89331126
0.021880085 0.17373613 0.8915419
0.053950697 0.17269178 0.89256686
0.022551868 0.1776399 0.89344615
0.026737662 0.17806955 0.89178354
0.054006442 0.17785512 0.89348906
0.027773883 0.18168171 0.89391708
0.031811658 0.1827613 0.8919335
0.035575673 0.18398234 0.89096683
0.054009125 0.18284988 0.89353365
0.032772727 0.18665458 0.89384204
0.037294198 0.1875874 0.8923431
0.053077728 0.18748625 0.89186686
0.039040163 0.19130363 0.89420038
0.042590734 0.19276847 0.8917402
0.046348333 0.19381058 0.89043349
0.052272934 0.1925602 0.89231455
0.044036686 0.19709653 0.89406705
0.047528528 0.19711939 0.89255267
0.050649747 0.19687639 0.89306676
-0.0043262457 0.15493707 0.89551741
0.061614826 0.15402949 0.89508349
-0.0026562691 0.15829289 0.89565396
0.0015197626 0.15915188 0.89579993
0.059137233 0.15743011 0.89548349
0.060870707 0.15759408 0.89641672
-0.002451539 0.16166271 0.89701414
0.0021174056 0.16225739 0.89651436
0.0073632249 0.16407734 0.89540011
0.059246201 0.16189237 0.89713335
0.061007649 0.16212751 0.89843351
-0.0018294584 0.16568097 0.89958346
0.0027818261 0.16597781 0.89892524
0.0071708546 0.16717497 0.89749181
0.0115426 0.16830437 0.89573336
0.056911569 0.16770564 0.89550012
0.008513012 0.17119245 0.89923352
0.012192205 0.17217551 0.89745015
0.015731055 0.17343204 0.89640003
0.056712579 0.17266291 0.8967334
0.013263879 0.17563668 0.89915025
0.017204035 0.17709553 0.89700848
0.055846561 0.17674291 0.8962779
0.018679537 0.1815789 0.89751685
0.022174282 0.18220744 0.89620942
0.027406268 0.18381028 0.89551115
0.055941422 0.18205537 0.89780015
0.019124309 0.18558621 0.89873368
0.022666598 0.1868909 0.89797109
0.027219351 0.18694769 0.89624166
0.032422315 0.18884063 0.8956666
0.035750039 0.18988058 0.89533347
0.027482733 0.19128741 0.89802808
0.032262247 0.19211717 0.89702094
0.037131693 0.19278686 0.89645338
0.040756423 0.19319724 0.89526683
0.038093749 0.19659536 0.89811134
0.041909959 0.19755431 0.89614445
0.046614073 0.19991818 0.89553338
0.05254085 0.19772558 0.89691687
0.042540569 0.20207076 0.89769548
0.047521506 0.20272399 0.89688897
0.050929539 0.20046885 0.8980003
0.044264898 0.20647678 0.89870024
0.047291987 0.20635056 0.8988803
0.063020468 0.15963833 0.90326685
0.063055359 0.16224767 0.90376669
-0.0023396518 0.1685379 0.90233344
0.0020333922 0.16870882 0.9014535
0.05959034 0.16786937 0.90234452
0.061308701 0.16628568 0.90286672
0.0027962246 0.17188203 0.90359163
0.0070817596 0.17318499 0.90206021
0.05961236 0.17296936 0.90267783
0.061387919 0.17154557 0.90403336
0.0085543208 0.17706841 0.903611
0.012218205 0.17826636 0.90157169
0.058361769 0.17761931 0.90285003
0.01272299 0.18268988 0.9033047
0.016492696 0.18313977 0.90150011
0.057949543 0.18310885 0.90300006
0.017869812 0.18783739 0.90312672
0.020842887 0.18931526 0.90056688
0.058041524 0.18676321 0.90443349
0.022796495 0.19248034 0.90193814
0.027583471 0.19450402 0.90132254
0.022620825 0.19518973 0.90450001
0.027983427 0.19729838 0.90336668
0.032636747 0.19708039 0.90160018
0.036549482 0.19897763 0.90133351
0.033572186 0.20015994 0.90415001
0.037945438 0.20260665 0.90220493
0.040990103 0.20435448 0.90040028
0.051715579 0.20302856 0.9019556
0.038628038 0.2068707 0.90407503
0.042444956 0.20798005 0.90159464
0.048191678 0.20923929 0.90160024
0.051257547 0.20764445 0.90378338
0.043258794 0.21188968 0.90396667
0.04786532 0.21259008 0.90336674
0.051303871 0.21035585 0.90460008
0.046249405 0.21543579 0.90473336
0.064967737 0.1636605 0.90693367
0.065914184 0.16306564 0.90831691
0.062762409 0.16721386 0.90561676
0.065061666 0.16727562 0.90824461
-0.0026893786 0.17228866 0.90646678
0.0015370927 0.17361042 0.9060334
0.062558301 0.17198117 0.90632695
0.065051317 0.17231756 0.90810031
-0.0018482693 0.17752475 0.90881133
0.0023842258 0.17721923 0.90724838
0.0061820573 0.17734604 0.90574169
0.059855971 0.17873235 0.906367
0.06250973 0.17738056 0.90807796
0.066416509 0.17890644 0.90939283
0.0029530162 0.18199877 0.90864468
0.0074549001 0.18215553 0.90661877
0.059855234 0.18210231 0.90635586
0.062561013 0.18259823 0.90882212
0.066865765 0.18109006 0.90974069
0.0040851017 0.18601532 0.90900022
0.0076780198 0.18728235 0.90796697
0.012310163 0.18732062 0.90610844
0.015897777 0.18875131 0.90590006
0.059080664 0.18738186 0.90743351
0.060887773 0.18689145 0.90915
0.0091696475 0.19106007 0.90886688
0.012760186 0.19237782 0.90810031
0.017376842 0.19235013 0.90598345
0.058355261 0.19284816 0.90932232
0.017838299 0.19741979 0.9079836
0.022422137 0.19773166 0.90623349
0.026029123 0.19881819 0.90570009
0.019328589 0.20108595 0.90833366
0.023275381 0.20216322 0.90811139
0.027757647 0.20247748 0.90699291
0.032566033 0.20280693 0.90631443
0.054273605 0.20365208 0.90722245
0.024451958 0.20650305 0.90986657
0.027809026 0.20708011 0.9086836
0.033079166 0.20755139 0.90797114
0.03661425 0.20782423 0.9064002
0.053974882 0.20752753 0.90694475
0.034577593 0.21123952 0.9084003
0.038143963 0.21253486 0.9076128
0.041824739 0.21357691 0.90636677
0.052877884 0.21270871 0.9074614
0.03970379 0.21654707 0.90940017
0.042996321 0.2177435 0.90733361
0.048229102 0.21769729 0.9062627
0.051950354 0.21760564 0.90852147
0.067049943 0.17480168 0.91225004
0.066071637 0.17700465 0.91048658
-0.0015692996 0.18194211 0.91117769
0.0015453295 0.1839225 0.91119993
0.065809853 0.18355845 0.91078883
-0.0018588422 0.18623261 0.914217
0.0020570091 0.18702963 0.91229999
0.0057912092 0.18975142 0.9106999
0.062175788 0.18838271 0.91063321
0.0035376854 0.19094302 0.91370016
0.0071619302 0.19281344 0.91236001
0.010886608 0.19483362 0.91069996
0.061996814 0.19220822 0.91298217
0.0079410253 0.1959382 0.91387522
0.012616173 0.19789536 0.91310018
0.0159785 0.19987196 0.91049993
0.058088962 0.19837826 0.91402245
0.061157994 0.19536492 0.91318339
0.013481138 0.20062558 0.91393352
0.017366536 0.20295008 0.91215336
0.021063518 0.20317009 0.91009992
0.057322189 0.20171946 0.91311675
0.018165229 0.20611535 0.91377521
0.022338009 0.20738599 0.91268581
0.029557845 0.20999575 0.91033328
0.031245315 0.20992655 0.91003323
0.056765527 0.20676629 0.911026
0.023995938 0.21142153 0.91405582
0.027718008 0.21244307 0.91265845
0.032632556 0.21283305 0.91087997
0.0563691 0.21237856 0.91147387
0.028834842 0.21602091 0.9143337
-0.0010080541 0.18906914 0.91560024
0.00069911842 0.18895215 0.91503364
-0.0010082009 0.19080004 0.91573358
0.0020654374 0.19285393 0.91578019
0.0029830672 0.19725591 0.91803318
0.007189068 0.19865492 0.91582024
0.061167356 0.19858074 0.9175778
0.0035593852 0.20178449 0.91921109
0.00778948 0.20264113 0.91755706
0.012411441 0.2032391 0.91585737
0.058767762 0.20357971 0.91575003
0.0081294999 0.20630924 0.91905546
0.012674213 0.20732337 0.91723877
0.017427577 0.20875342 0.91528022
0.058724057 0.20598154 0.91506898
0.013263628 0.21131293 0.91851109
0.017796202 0.21232171 0.91671675
0.022320883 0.21340416 0.91526699
0.0024208275 0.20213297 0.92079991
0.004152263 0.20798104 0.92394429
0.006894636 0.20827499 0.9222067
0.0079391161 0.21203318 0.9236334
0.011579435 0.21355504 0.92081118
0.0015741577 0.20725633 0.92840004
