# .PCD v0.7 - Point Cloud Data file format
VERSION 0.7
FIELDS x y z
SIZE 4 4 4
TYPE F F F
COUNT 1 1 1
WIDTH 888
HEIGHT 1
VIEWPOINT 0 0 0 1 0 0 0
POINTS 888
DATA ascii
0.0098557668 0.059826303 0.82446682
0.013098462 0.05837569 0.82295829
0.017510796 0.058180332 0.82290363
0.022113314 0.057871036 0.82285994
0.027497733 0.05820534 0.82323891
0.032926489 0.057382751 0.82461345
0.009066374 0.062754989 0.8226555
0.012869743 0.062597595 0.82058495
0.017462686 0.062601335 0.82063687
0.022072004 0.062652081 0.82130361
0.027499085 0.062800072 0.82323903
0.0090688597 0.067367502 0.8229
0.012877699 0.067218579 0.82108855
0.017469736 0.067208819 0.82097006
0.022096666 0.067309991 0.82220006
0.025828954 0.067140959 0.82388008
0.0098573603 0.070573404 0.8246001
0.01310318 0.071795799 0.82321668
0.017506093 0.071938559 0.82265919
0.021624947 0.071519084 0.82371116
0.025246445 0.070601925 0.82493347
0.013707625 0.075205475 0.82493347
0.01676745 0.075126499 0.8240667
0.0099099586 0.05398687 0.82900035
0.012998678 0.053204045 0.82882243
0.01782129 0.052599758 0.82842511
0.022026705 0.05281052 0.82784754
0.02732959 0.053268768 0.82812393
0.033374589 0.053311586 0.8281067
0.037705924 0.052396853 0.8282668
0.042360201 0.052420955 0.82864451
0.045481119 0.05399989 0.82920015
0.0085171601 0.057465903 0.82731128
0.01258555 0.055783968 0.82706654
0.017590703 0.05537267 0.82666653
0.022193057 0.055316843 0.82583344
0.02757841 0.055305682 0.82566684
0.032956585 0.057697613 0.82537168
0.03760102 0.057629019 0.82595009
0.042284742 0.056944504 0.82716274
0.045467708 0.05706805 0.82895583
0.0068137934 0.062430765 0.82851702
0.032968938 0.062985837 0.82566673
0.037647311 0.063084699 0.82697016
0.042203486 0.062208295 0.82832128
0.0068002227 0.066152982 0.82686692
0.028795047 0.06782718 0.82583809
0.033034157 0.067727461 0.82730359
0.037527144 0.067638174 0.82856685
0.040877845 0.066398315 0.82993346
0.0089507382 0.072550833 0.82616007
0.011400779 0.073676929 0.82500017
0.023197616 0.073167361 0.8250224
0.027821016 0.072420575 0.82658172
0.0328965 0.072272874 0.8286919
0.036989212 0.070992738 0.82950026
0.0091209915 0.076989882 0.82761115
0.012744153 0.077333368 0.8265807
0.017809317 0.077333495 0.82658088
0.022223877 0.076928161 0.82694066
0.026668822 0.076597266 0.82812399
0.030004378 0.075564124 0.82886696
0.0099087637 0.080964006 0.82890028
0.013129949 0.082228847 0.8282122
0.017491071 0.082263395 0.82856375
0.022092592 0.081577659 0.82925868
0.025383152 0.08024127 0.8294003
0.01386917 0.049697947 0.83466643
0.017760528 0.049695302 0.83462209
0.020882672 0.049717795 0.83499974
0.034119621 0.049717795 0.83499974
0.037931141 0.049611937 0.83322221
0.042634245 0.048882294 0.83401102
0.047356535 0.049717795 0.83499974
0.0081421994 0.053204522 0.83285546
0.013035744 0.051037755 0.83119988
0.01612928 0.05101319 0.83079988
0.023110047 0.051029563 0.83106667
0.027033919 0.051122356 0.83257788
0.031917986 0.05158687 0.83175564
0.047387727 0.052447259 0.83210844
0.0037520933 0.058253735 0.83489978
0.0056752758 0.056862034 0.83158332
0.047940735 0.057251219 0.83161116
0.0037516432 0.062128723 0.83479983
0.0052927285 0.061944235 0.83231115
0.044030029 0.064937837 0.83099991
0.047015302 0.061755672 0.83237499
0.0059150532 0.067546465 0.83268011
0.039358437 0.069536231 0.83053327
0.042753316 0.068348989 0.83252496
0.046293929 0.065733433 0.83455539
0.0062199133 0.073060937 0.83196336
0.034731075 0.074212782 0.83099991
0.038122319 0.073243104 0.83251429
0.042210694 0.07274498 0.83441889
0.0064479415 0.076939501 0.83123982
0.027745914 0.078818619 0.83066666
0.032685623 0.077602871 0.83267879
0.037601661 0.076465987 0.83449984
0.041906036 0.076123245 0.83499974
0.0083908997 0.081632614 0.83179075
0.019220473 0.084978931 0.83046663
0.023878457 0.083474323 0.83086663
0.027235201 0.082313068 0.83279169
0.030733427 0.081268542 0.83466649
0.0099769002 0.08540187 0.83459979
0.012823544 0.087105729 0.83179998
0.01789627 0.088027522 0.83189172
0.022222433 0.087063894 0.83266002
0.02647621 0.086332478 0.83458644
0.0141248 0.09055797 0.83442211
0.017369077 0.091216765 0.83453315
0.022436857 0.090866625 0.83488309
0.0084667709 0.049967878 0.83920014
0.012253321 0.048572566 0.83822852
0.017828193 0.048326064 0.83780009
0.022806965 0.048905186 0.83706665
0.027402386 0.048726123 0.83705711
0.032055289 0.048138216 0.83757776
0.037668515 0.047404587 0.83727604
0.042836525 0.046152715 0.8379733
0.047304507 0.046945836 0.83753335
0.052267615 0.049165394 0.83883339
0.056345504 0.048706349 0.83899128
0.0031414286 0.05334454 0.83830673
0.0065686679 0.05200367 0.83679992
0.052148625 0.052946143 0.8369258
0.057183616 0.052984662 0.83752185
0.060029723 0.054572962 0.838
0.0025909098 0.057251234 0.83726662
0.052192178 0.057665024 0.83761477
0.056930687 0.057719037 0.83840019
0.06010614 0.057764787 0.8390668
0.0022030843 0.062365253 0.83797789
0.048929453 0.063717477 0.83526665
0.051629968 0.061791189 0.83864009
0.056991283 0.060901854 0.83928895
0.0026461568 0.067222655 0.83744329
0.00531025 0.069915779 0.8350665
0.047799494 0.067298666 0.83729345
0.002981469 0.071671091 0.83745003
0.0053115212 0.071486302 0.83526635
0.044319667 0.073923349 0.83646661
0.047004011 0.072235197 0.83794814
0.038407896 0.078779042 0.83681327
0.043029875 0.078343622 0.83738095
0.046630841 0.07771378 0.83874685
0.0084436983 0.084081754 0.83691305
0.033009604 0.082673922 0.83644986
0.037844587 0.082803987 0.83815348
0.042897481 0.081185058 0.83915567
0.0092323255 0.087288886 0.83781028
0.010013562 0.08883211 0.83766669
0.027930029 0.087895654 0.8361665
0.03190453 0.087325186 0.83814824
0.03559722 0.086397916 0.8392446
0.01213532 0.092751339 0.83724844
0.0177901 0.094102919 0.83603317
0.022471895 0.093601935 0.83618873
0.02700178 0.091746636 0.83759171
0.030376017 0.090548605 0.8391335
0.0080700917 0.096730858 0.83860004
0.012137289 0.09777163 0.83796197
0.017635684 0.098018713 0.83793342
0.022153778 0.096765645 0.83890015
0.025689205 0.095261693 0.83940017
0.013944039 0.10147925 0.83916688
0.017864026 0.10073432 0.83946669
0.022708712 0.044025782 0.84499997
0.027798675 0.043582458 0.8440333
0.032126721 0.043973684 0.84399986
0.0376205 0.043955449 0.8436501
0.043427024 0.043312114 0.84336013
0.047637075 0.042569071 0.84341669
0.052902326 0.042968351 0.84481496
0.055656604 0.043125935 0.84277785
0.0032684235 0.048166383 0.84411114
0.0069341785 0.047068525 0.84322226
0.012096659 0.046149965 0.84280938
0.017933881 0.046261262 0.84279984
0.022625932 0.046213616 0.84192228
0.02700476 0.046026386 0.84135997
0.03205917 0.045447737 0.84222239
0.037534516 0.045423161 0.84176677
0.042957313 0.04534582 0.84033322
0.049210615 0.045331433 0.84006661
0.052470203 0.046222866 0.84208888
0.05553519 0.046160281 0.84093899
-0.0015592412 0.053700924 0.84390479
0.0015412158 0.051731773 0.84252387
0.0061308495 0.050065134 0.84083313
-0.00092617649 0.057912376 0.84123188
0.00064274092 0.057913553 0.8412444
-0.0013212409 0.062687024 0.84229785
0.0006427755 0.062611178 0.8412897
0.053192116 0.063379578 0.84108323
0.057173308 0.063447252 0.84197778
-0.001321404 0.067797527 0.84251094
0.00064203225 0.066447586 0.84031665
0.049214523 0.068777189 0.84013313
0.052337997 0.06725654 0.84309995
0.057363987 0.066014484 0.84477776
-0.0013225232 0.071814992 0.84367681
0.0014259843 0.072728366 0.84064472
0.049251631 0.072739229 0.84076643
0.050993621 0.072204076 0.84364462
0.048964195 0.077942915 0.84121323
0.051019147 0.07616502 0.84406686
0.043017175 0.083759218 0.84148878
0.047618344 0.082936592 0.84306669
0.0079646548 0.087657213 0.84134072
0.038141146 0.088035233 0.84162956
0.043138463 0.087919883 0.84385943
0.047135711 0.086466081 0.84499991
0.0081019988 0.092814714 0.84199369
0.028868247 0.093856573 0.84079975
0.032225668 0.092559516 0.84144157
0.037376169 0.092389867 0.84298211
0.041864004 0.092712611 0.84462214
0.0069258823 0.097142637 0.84214616
0.023642473 0.098032661 0.84084415
0.027531615 0.097304344 0.84186661
0.032092225 0.097249918 0.84309649
0.036856011 0.097372539 0.84415561
0.040567204 0.096416138 0.84495544
0.012268679 0.10280426 0.84234679
0.017907137 0.10306761 0.84151101
0.022648331 0.10190926 0.84271121
0.027171206 0.10158497 0.84374303
0.032152835 0.10136174 0.84468883
0.036498144 0.10100583 0.84499991
0.0085202446 0.10840797 0.84450001
0.013428975 0.10654125 0.84370846
0.017946776 0.1074805 0.84338015
0.02217002 0.10630951 0.84446663
0.025860589 0.1053284 0.84499991
0.01430294 0.11056218 0.84495544
0.017586594 0.11161369 0.84498328
0.044107001 0.039420299 0.84736681
0.0483872 0.038798861 0.84758681
0.051958393 0.03859479 0.84655535
0.0032855452 0.043681901 0.8485114
0.0071930555 0.043011654 0.84717149
0.012229767 0.043073528 0.84691125
0.018029995 0.043358434 0.84733361
0.022792676 0.041820858 0.84812236
0.027187448 0.041610561 0.84705353
0.032265332 0.041797187 0.84764463
0.036997501 0.041785631 0.84741133
0.041966889 0.041491237 0.84674454
0.049503531 0.040885285 0.84506661
0.052169163 0.041440621 0.84571117
-0.00093494938 0.048193179 0.84920025
0.0016982221 0.046730012 0.84654456
-0.0025101493 0.051586851 0.84658343
-0.0025072498 0.058195803 0.84533352
-0.0025133463 0.063067064 0.84738898
-0.0025125602 0.066984728 0.84712386
0.054325812 0.069301099 0.84653342
0.057535555 0.068575434 0.84728819
-0.0025095565 0.072414406 0.84611118
0.053567577 0.072492175 0.84701115
0.056857843 0.072660737 0.84897804
0.053092629 0.077291444 0.84782237
0.049503531 0.084900893 0.84506649
0.051646907 0.081636444 0.84790015
0.048204307 0.088588238 0.84596187
0.051328078 0.08689446 0.84917802
0.044432223 0.093261041 0.84603328
0.04809818 0.093090244 0.84805948
0.043135438 0.098075062 0.84721488
0.047381528 0.096396565 0.84940028
0.0085433424 0.10161498 0.84678948
0.010121548 0.10396533 0.84670007
0.028231282 0.10378115 0.84519982
0.03220458 0.10388484 0.84604436
0.037280925 0.10333183 0.84666669
0.041978981 0.10198656 0.84825027
0.0085303336 0.10617669 0.84550005
0.010502035 0.10736465 0.84556824
0.023785703 0.10806792 0.84593326
0.027718149 0.10742332 0.84756678
0.032105323 0.10716477 0.84864193
0.037059005 0.1058049 0.84882259
0.011868809 0.11212868 0.84622592
0.019051032 0.11277664 0.84584445
0.022776127 0.11193994 0.84744459
0.025987074 0.11137226 0.84913373
0.013699966 0.11560477 0.84831691
0.018051313 0.11678525 0.84828913
0.021753503 0.11578999 0.84871149
0.0070246994 0.039739218 0.8542223
0.012749346 0.039386824 0.85348004
0.018172231 0.038594194 0.8540144
0.022945182 0.038924169 0.85378355
0.027699202 0.038892061 0.85308343
0.032481678 0.038904283 0.8533445
0.037215177 0.038860403 0.8524
0.04168297 0.038716599 0.85272664
0.046707466 0.037238374 0.85155833
-0.00094020931 0.042904031 0.85397786
0.0017098486 0.042271975 0.85191661
0.0062024924 0.041154608 0.85063326
0.013334945 0.041133642 0.8502
0.01809849 0.041150305 0.85054427
-0.0021297219 0.047153484 0.85182494
-0.0041268836 0.051658362 0.85424995
0.059486259 0.072972737 0.85261112
0.061175872 0.071500972 0.85400003
0.054595366 0.079140097 0.85073334
0.057654455 0.07746996 0.85194588
0.054024242 0.082717612 0.85172004
0.057147931 0.082553864 0.85330003
0.053969871 0.087324172 0.85337782
0.057027169 0.087057471 0.85388011
0.051966868 0.091666386 0.85315841
0.048284363 0.098465733 0.85134989
0.051635657 0.095359795 0.85426682
0.059621211 0.096980549 0.85454553
0.042691872 0.10445034 0.85064995
0.046753291 0.10307661 0.85237139
0.050037224 0.10170597 0.85417789
0.03397451 0.10922527 0.85086656
0.037141602 0.10841418 0.85071105
0.041994855 0.10786024 0.85257775
0.045791935 0.10700941 0.85423344
0.028093144 0.11266678 0.85123795
0.032457307 0.11263197 0.85267782
0.037269287 0.11196164 0.8536222
0.040468916 0.11121174 0.85396671
0.0086110467 0.11591399 0.85350007
0.011972713 0.11791267 0.85216248
0.023391398 0.11764523 0.85071105
0.027706819 0.11747249 0.8532815
0.03145507 0.11654779 0.8542667
0.013922374 0.12205479 0.85387784
0.018126665 0.1220322 0.8518666
0.022912947 0.12213257 0.8525666
0.026672617 0.12130249 0.85417777
0.018173061 0.12631281 0.85403341
0.022955986 0.12633575 0.85418892
-0.00094676676 0.033606324 0.8599335
0.012951327 0.033069592 0.8598423
0.017141769 0.032900583 0.85941684
0.04235547 0.033606324 0.8599335
0.047123123 0.033175778 0.85914528
-0.0063959719 0.038062386 0.85941982
-0.0025475735 0.037548225 0.85867119
0.00202436 0.038731176 0.85707623
0.0074592931 0.037931729 0.8582834
0.011645451 0.036490213 0.85724175
0.01702201 0.036049329 0.85623354
0.023051852 0.03591207 0.85772228
0.027471757 0.036340896 0.85841668
0.032670271 0.035936285 0.85829997
0.037423506 0.035889428 0.85717791
0.04220894 0.035880264 0.85695571
0.04654811 0.035440646 0.85594648
-0.0065553808 0.043171376 0.8592779
-0.0033417053 0.043059815 0.85706663
-0.0065532192 0.047950763 0.85898894
-0.0041405982 0.047844332 0.85708898
-0.0065552406 0.051160775 0.85923457
0.061297715 0.074031159 0.85570085
0.05966223 0.079549424 0.85513335
0.061390176 0.078128934 0.85699201
0.0038559046 0.084604234 0.85800004
0.059796926 0.082918361 0.85706425
0.059375737 0.088065892 0.85674554
0.054276146 0.092655517 0.85570687
0.058177963 0.092448726 0.85674828
0.06151972 0.094268322 0.85880005
0.053538326 0.097347707 0.85602534
0.0579632 0.097209051 0.85655349
0.052614089 0.10206896 0.85722226
0.056385051 0.10159977 0.85865337
0.04749148 0.10804501 0.85614467
0.050683506 0.10659558 0.85836673
0.037378173 0.11467609 0.85611135
0.042229585 0.11325101 0.85737145
0.047090873 0.11207458 0.85854435
0.050374407 0.11038919 0.8599335
0.0086267143 0.11851077 0.85505307
0.033113856 0.11837074 0.85595578
0.037428014 0.1180188 0.85725194
0.042096335 0.11738902 0.85931438
0.046352319 0.11515678 0.85970014
0.0086453483 0.12275106 0.85690016
0.011293371 0.12285302 0.85575575
0.028327016 0.12315718 0.85602242
0.032661896 0.12291774 0.85805184
0.037197243 0.12213973 0.85932004
0.0086389575 0.12664297 0.85626686
0.011848583 0.12761207 0.85741496
0.016614377 0.12816812 0.85581142
0.022996901 0.12894855 0.85571146
0.027819272 0.12751402 0.85676318
0.032166708 0.12732558 0.85907775
0.017803328 0.13160102 0.85817152
0.023048142 0.13162918 0.85761124
0.027883463 0.13100144 0.85873324
0.029690554 0.027360169 0.86475003
0.032534704 0.0282747 0.86321145
0.038077228 0.028505391 0.86290836
0.042118624 0.028518744 0.86330837
0.045757316 0.028930247 0.86359996
0.0014599423 0.033627175 0.86046684
0.0070879101 0.033684503 0.86193329
0.010282929 0.033616748 0.86020011
0.019918364 0.032032285 0.86062062
0.02292748 0.032527454 0.86164767
0.028246973 0.032573435 0.86287135
0.032841962 0.032112308 0.86280745
0.037612762 0.03206373 0.86150378
0.042441402 0.031870175 0.86168331
0.046826676 0.03124762 0.86105955
-0.010578498 0.038438015 0.86066675
-0.008970785 0.038427047 0.860421
0.0025839419 0.035873242 0.86059552
0.0067600035 0.035893999 0.86109334
0.028731111 0.035215527 0.86016667
-0.011288173 0.042865377 0.8623172
-0.0086545851 0.041971214 0.86089152
-0.011252041 0.048173882 0.86299533
-0.0089789042 0.048074026 0.86120003
-0.010606006 0.052182615 0.86290485
-0.007771994 0.052458934 0.86086917
0.00065885368 0.078615107 0.86233336
0.0015752401 0.082230695 0.86180967
0.061695397 0.08332362 0.86125237
0.002803385 0.088240288 0.86233336
0.061638921 0.088048048 0.86046392
0.0038845544 0.092468075 0.864375
0.0054820897 0.092224225 0.86208928
0.061698802 0.092139199 0.86130011
0.0038860787 0.096526049 0.86471432
0.057827301 0.10284565 0.86105335
0.060158752 0.10347038 0.86224997
0.053030156 0.10769232 0.86138666
0.056045711 0.10728844 0.86329347
0.048774395 0.11359721 0.86000019
0.052331034 0.11251207 0.86241257
0.055485245 0.11098817 0.86460018
0.043160714 0.11919641 0.86000019
0.047451589 0.11738176 0.86093342
0.05133931 0.11716089 0.86267227
0.037949517 0.12440053 0.86003351
0.042417169 0.12256204 0.86116672
0.047118187 0.12159356 0.86322391
0.033831056 0.12916204 0.86066675
0.037396543 0.12796573 0.86114174
0.042492565 0.12679248 0.86270005
0.012456766 0.13266923 0.86264449
0.017031102 0.13419488 0.86077338
0.023111822 0.13439418 0.86000019
0.027990187 0.13390891 0.86202222
0.032510288 0.13222508 0.86254007
0.038103208 0.13132983 0.86351681
0.040941231 0.13018754 0.8639335
0.013552657 0.13664228 0.86410022
0.017540902 0.13794014 0.86216116
0.02315622 0.13785671 0.861637
0.027500356 0.13761418 0.86347228
0.017974745 0.14240038 0.86367935
0.022287151 0.14275405 0.86356205
0.026466537 0.14157905 0.86480021
0.023641262 0.028419504 0.86763322
0.027749129 0.028644426 0.86712509
0.024077021 0.030616267 0.86585009
0.027310688 0.03062157 0.86600012
-0.012248535 0.048299901 0.86525005
-0.0028999941 0.078479931 0.86794007
-0.0021134857 0.082116254 0.86785716
-0.00095399632 0.085442394 0.86650008
0.00066227064 0.087086618 0.86680555
0.0018750087 0.091569245 0.8672812
0.0038985044 0.096838139 0.86747915
0.0039000961 0.1001029 0.86783338
0.058296338 0.10800049 0.86643344
0.060406435 0.10631057 0.86580002
0.057051558 0.11276519 0.86796671
0.054005682 0.11771274 0.86673349
0.055763334 0.11801138 0.86893344
0.048287842 0.12400521 0.86565006
0.051976137 0.1224306 0.86752862
0.044284713 0.12893273 0.86630017
0.047594082 0.12753007 0.86771107
0.051443141 0.12663406 0.86895543
0.010383342 0.13412237 0.86859995
0.034586754 0.13375182 0.86620015
0.037864778 0.13391654 0.86726683
0.042923167 0.13251853 0.86734593
0.047439225 0.13212483 0.86912382
0.012393893 0.13760501 0.86763334
0.029764377 0.13869765 0.86690015
0.03302668 0.13720281 0.86763716
0.037728857 0.13718379 0.86879998
0.042803179 0.13661237 0.86902213
0.012971027 0.14184016 0.86836672
0.015999779 0.1441471 0.8657335
0.024064029 0.1440919 0.8654002
0.028608028 0.14214452 0.86684293
0.033077642 0.14226446 0.86898512
0.036335975 0.14152387 0.86940002
0.013636313 0.14638117 0.86943334
0.016614802 0.14736906 0.8677668
0.022765659 0.14734349 0.867163
0.028193938 0.14699863 0.86830378
0.032013953 0.14611314 0.86944443
0.017957268 0.1509383 0.86928886
0.022456802 0.1514502 0.86913329
0.028230021 0.15042223 0.8694222
-0.0063740276 0.078861579 0.87095553
-0.0062574022 0.08249788 0.87370837
-0.0042078025 0.083456084 0.87100005
-0.0022618943 0.087274089 0.87191677
-0.0013693755 0.09220314 0.87328136
0.00066499773 0.093110412 0.87037504
0.0018829168 0.096829876 0.87107146
0.0014759917 0.10035282 0.87
0.059253469 0.11282712 0.87259984
0.058579225 0.11716096 0.87223989
0.054265313 0.1239475 0.87090015
0.057876922 0.12205384 0.87329161
0.053230722 0.12865016 0.87166661
0.056711037 0.12643567 0.87353981
0.048580565 0.1344775 0.87090027
0.052502833 0.13281488 0.87195009
0.05615053 0.13022262 0.87496668
0.010420267 0.13784336 0.87168902
0.039606187 0.13919362 0.87
0.042885557 0.13930391 0.87068909
0.047787771 0.13777256 0.87124467
0.05199331 0.13815427 0.87365538
0.010822317 0.14306116 0.87138337
0.038485594 0.14280404 0.87086684
0.042919107 0.14265539 0.87137055
0.047697987 0.14277124 0.87331653
0.011779599 0.14763916 0.8720867
0.033695161 0.1479912 0.87097788
0.037893564 0.14752127 0.87258327
0.042695779 0.14689557 0.87345326
0.046350732 0.14647084 0.87480003
0.013697826 0.15272808 0.87335545
0.016369333 0.15286942 0.87107795
0.021767512 0.15382966 0.87040013
0.027820008 0.15325508 0.87107623
0.03268756 0.15212303 0.87298888
0.036567234 0.15137574 0.87493336
0.017485872 0.15695269 0.87275559
0.021805353 0.15733799 0.87188894
0.026895039 0.15715334 0.87286657
0.030010428 0.15772952 0.87406653
-0.0042343731 0.088058919 0.87650001
-0.0025989478 0.093739934 0.87625003
-0.00096650014 0.096360184 0.87785721
0.062104687 0.11439259 0.87839174
0.062371142 0.11749876 0.87718534
0.062064305 0.12248248 0.87781668
0.059088163 0.12755094 0.87617511
0.061732437 0.12713459 0.87892842
0.057954259 0.13223842 0.87754291
0.054714609 0.1372263 0.87811118
0.056447856 0.13582088 0.87959981
0.052703321 0.14231983 0.87730676
0.044755019 0.14821656 0.87550008
0.04865247 0.14739467 0.87706679
0.052147321 0.14684778 0.87900007
0.012138028 0.15278441 0.87835002
0.034146056 0.15393379 0.8756001
0.038639605 0.15215266 0.87753344
0.042733148 0.15202682 0.87868881
0.047681209 0.15158077 0.87926656
0.012950078 0.1568006 0.87797499
0.015912961 0.15912272 0.87576675
0.028413845 0.1595439 0.87510002
0.031991601 0.15811761 0.87621683
0.036516055 0.15670621 0.87858331
0.040061422 0.15552634 0.87999976
0.013382358 0.16155535 0.8793999
0.017284226 0.16292204 0.87826681
0.021929823 0.1631318 0.8768779
0.02662445 0.16279598 0.87758583
0.032040421 0.16228905 0.87862861
0.035113815 0.16196473 0.87939984
0.013802042 0.16534807 0.87999976
0.01707487 0.16661981 0.87951094
0.021985384 0.16763265 0.87909991
0.026908973 0.16684498 0.87925702
0.031023182 0.16528544 0.87966651
0.022008099 0.17025901 0.87999976
-0.0059240595 0.095467135 0.88471431
-0.0026161503 0.096806057 0.88192272
-0.00097312569 0.10113199 0.88387507
0.0012236532 0.11668938 0.88341665
0.064679578 0.11951296 0.88000005
0.0039737136 0.12008532 0.8842144
0.064708136 0.12284168 0.88038826
0.066320792 0.12442387 0.88000005
0.063954726 0.12788904 0.88131589
0.066396162 0.12620409 0.88100004
0.059769515 0.13427618 0.88019973
0.062291354 0.13276422 0.88103104
0.0584222 0.13796309 0.88152486
0.062440526 0.13801216 0.8831501
0.06502258 0.13989456 0.88466674
0.054913312 0.14346109 0.88129985
0.05749448 0.1429276 0.88306665
0.060890079 0.14152151 0.88455009
0.054128408 0.14765939 0.88190001
0.055887468 0.14713845 0.88370013
0.010562075 0.15451047 0.88355172
0.048299022 0.15357909 0.88056654
0.052351005 0.15234503 0.88242662
0.01096243 0.15805793 0.88271683
0.038440581 0.15888439 0.88046652
0.041967176 0.15759012 0.88123739
0.046565548 0.157446 0.882725
0.050141208 0.15625095 0.88410014
0.0089150947 0.16110016 0.88363642
0.011195691 0.16269796 0.88160527
0.037697405 0.16249327 0.8822667
0.041478068 0.16156889 0.88395005
0.012178167 0.16722848 0.88128006
0.016269602 0.16868271 0.88031638
0.028609734 0.16883922 0.88113314
0.032155696 0.16779301 0.88178092
0.035777558 0.16632636 0.88228887
0.01385432 0.17090397 0.88333338
0.017128535 0.17234677 0.8822999
0.022050669 0.17243265 0.88169158
0.026483141 0.17199366 0.88329452
0.031171322 0.17100397 0.8838501
0.018815754 0.17601258 0.88423347
0.022112509 0.17599489 0.8841446
-0.0073281475 0.098040812 0.88814288
-0.0037270095 0.098284185 0.88538104
-0.0066180588 0.10224386 0.88926011
-0.0031035007 0.10254725 0.88697284
-0.0022205708 0.10616606 0.88816673
-0.0015319692 0.11246832 0.88901591
0.00067769986 0.11386368 0.88700002
-0.0016414754 0.11764775 0.88815725
0.00067737664 0.11875699 0.88657689
-0.00097941037 0.12081447 0.88958329
0.0026661784 0.12194051 0.88813609
0.0056404979 0.12376361 0.88700002
0.0056528756 0.1265164 0.88894641
0.0073132701 0.13400263 0.8892501
0.0073144101 0.13815981 0.88938898
0.065058388 0.13667877 0.88515395
0.0073146918 0.14064668 0.88942325
0.062188059 0.14289559 0.88541675
0.065086283 0.14167887 0.88553345
0.057227552 0.14823177 0.88531673
0.061892211 0.14687939 0.88708937
0.053501405 0.15478702 0.8851335
0.057175867 0.15214197 0.88770819
0.061629221 0.15096082 0.88926673
0.0089648431 0.15704007 0.88856745
0.048550859 0.15973258 0.8851667
0.051898565 0.15794939 0.88593882
0.055938926 0.15599501 0.8888889
0.0089529669 0.16178504 0.88739026
0.041963249 0.1639092 0.88549167
0.046973094 0.16245343 0.88653308
0.052228536 0.16211087 0.8880415
0.03757542 0.16864812 0.88586664
0.042048078 0.16754064 0.8872748
0.047078505 0.16695108 0.88852578
0.051258773 0.16624677 0.88918334
0.013062985 0.17215614 0.88554984
0.028216012 0.17415823 0.88595557
0.032327145 0.17363951 0.88650936
0.037070923 0.17243426 0.88697761
0.0418441 0.17196433 0.88881105
0.046309896 0.17047752 0.88968325
0.013928596 0.17512415 0.88806891
0.017206095 0.17779084 0.88626081
0.022161247 0.17885953 0.88611102
0.027144201 0.17820024 0.88693309
0.032135952 0.17753547 0.88773304
0.037136514 0.1768721 0.88854808
0.040481243 0.17700608 0.88922232
0.017526107 0.18182755 0.88853317
0.02198465 0.18302612 0.8873331
0.027189409 0.18262656 0.8883999
0.031941686 0.1814346 0.88892376
0.036342397 0.18117744 0.88940012
0.018508496 0.18652971 0.8892833
0.022466445 0.18732646 0.88885707
0.026796658 0.18567133 0.88913333
0.018922858 0.19024818 0.88926673
0.022236167 0.19021492 0.8891111
-0.0092843883 0.097747952 0.89050007
-0.0087303147 0.10271125 0.89044452
-0.0065321499 0.10684278 0.89266664
-0.0034741242 0.10858694 0.8910867
-0.0036472282 0.11325644 0.89261609
-0.0059901425 0.11650124 0.8945834
-0.0038942192 0.11741039 0.89200324
-0.0023157764 0.12259358 0.89289439
0.0012345217 0.12383231 0.89145249
0.0029009955 0.12731256 0.89259535
0.0056682057 0.12934582 0.89135724
0.0040209009 0.13316169 0.89471436
0.0056823995 0.13216254 0.89358926
0.0040103071 0.13778926 0.89235729
0.0060899756 0.13737959 0.89237845
0.0040100869 0.14193398 0.89230788
0.0067847297 0.1427889 0.89246923
0.0040218099 0.14650957 0.89491671
0.0073425723 0.14744459 0.89302546
0.0084446045 0.15377302 0.89198822
0.062502429 0.15350556 0.89107352
0.0073289713 0.1566695 0.89115942
0.057775572 0.15813579 0.89163351
0.061760098 0.15729594 0.89314467
0.056297056 0.16244237 0.89281368
0.06076093 0.16147095 0.89480019
0.052906703 0.1682287 0.89179355
0.055754479 0.16646443 0.89480031
0.043878242 0.17318761 0.89085013
0.047530927 0.17316771 0.8925764
0.051255476 0.17184876 0.8939448
0.013971864 0.17732522 0.8908276
0.043104067 0.17755871 0.89199466
0.046270918 0.17690311 0.89427823
0.015657935 0.18341415 0.89223349
0.033059791 0.18385157 0.89033353
0.037918724 0.18306988 0.89136028
0.041496694 0.18195558 0.89321697
0.016307231 0.18771765 0.89139587
0.027605996 0.18832998 0.89114684
0.032069024 0.18713661 0.8924526
0.036950625 0.18670356 0.89407521
0.014014378 0.19116209 0.89353853
0.017603168 0.19258624 0.89242792
0.022320619 0.19342782 0.89248365
0.026985237 0.19163099 0.89262027
0.030694839 0.19126083 0.89400035
-0.0076638311 0.10825533 0.89520007
-0.0065543912 0.11220666 0.89572519
-0.004330833 0.12341691 0.89646661
-0.0026623281 0.12656488 0.89711052
0.0015186548 0.12907641 0.89523953
-0.00099006691 0.13132995 0.89926285
0.002116678 0.13248666 0.89658451
0.0056918235 0.13487986 0.89507139
0.001640624 0.13733806 0.89715916
0.0020226636 0.14251028 0.89699155
0.0056913705 0.14319347 0.8950001
0.0029201042 0.14709647 0.89850634
0.0062574525 0.14787321 0.89645559
0.0073800082 0.151954 0.89758396
0.0057085175 0.15614775 0.8976965
0.063323356 0.15912202 0.89563334
0.066037171 0.15795609 0.89847106
0.058592658 0.16329356 0.89566678
0.063185133 0.16253373 0.89760572
0.058132749 0.16745557 0.89713907
0.062303845 0.1659902 0.89899194
0.052875694 0.17325784 0.89550006
0.057081524 0.17154539 0.89816135
0.048565309 0.17771558 0.89557785
0.052743468 0.17705315 0.8967917
0.043005735 0.18329997 0.8957333
0.047536474 0.18192589 0.89716679
0.052076172 0.18164219 0.89851695
0.032398351 0.18980984 0.89500022
0.038262334 0.18825017 0.89550006
0.04271996 0.18711306 0.89703345
0.046784554 0.18643633 0.89880025
0.01575071 0.19368348 0.89752001
0.027416356 0.19415267 0.89583331
0.033013884 0.19237381 0.89660007
0.03728174 0.19158778 0.89775258
0.041482221 0.19120198 0.89893359
0.017418852 0.19725662 0.89731812
0.022413423 0.19756941 0.89621115
0.027662588 0.19712545 0.89703339
0.03210206 0.19595689 0.89837527
0.019118279 0.20140557 0.89845026
0.022463901 0.20135796 0.89823914
0.026375726 0.20110065 0.89833355
-0.00295682 0.13255984 0.9019441
-0.0021971774 0.13766825 0.90243566
-0.001413137 0.14222428 0.90203601
0.0006890755 0.14429565 0.90188885
0.0015325388 0.14796066 0.90378988
0.00405664 0.15197676 0.90266669
0.0057292106 0.15336341 0.90095055
0.066268779 0.16270329 0.90162247
0.063219383 0.16867845 0.90129364
0.066260912 0.16771352 0.90151483
0.058929455 0.17372692 0.90081137
0.062734291 0.17266065 0.90216684
0.066352025 0.17214286 0.90275443
0.057846732 0.17774981 0.90138179
0.062020451 0.17781556 0.90341997
0.066514432 0.17677245 0.90496433
0.05392519 0.18390368 0.90141135
0.057630591 0.18215725 0.90327996
0.061365288 0.18156861 0.90369999
0.048414905 0.18841524 0.90106696
0.05230942 0.18749207 0.90253896
0.038510963 0.19450283 0.901317
0.043083802 0.19331864 0.9020468
0.047838911 0.19231956 0.90287215
0.052158929 0.19104671 0.90480006
0.015847486 0.19991288 0.90303463
0.032963678 0.19886319 0.90132028
0.03750794 0.1978986 0.90246254
0.041691154 0.19720805 0.90346664
0.047929689 0.19521126 0.90460002
0.017926406 0.20339589 0.90171689
0.02253069 0.20446795 0.90090042
0.027927373 0.20327373 0.90154684
0.032707475 0.20254363 0.90352774
0.039502956 0.20030384 0.90480006
0.018663643 0.20729935 0.90350014
0.022574112 0.20737541 0.9026112
0.027662074 0.20625965 0.90385556
-0.004372057 0.13469253 0.90500003
0.0023815469 0.15251416 0.90585905
0.064888127 0.17693977 0.90582228
0.067213349 0.17769261 0.90679973
0.059847157 0.18376343 0.90623355
0.063537009 0.18215777 0.90662932
0.065842696 0.18230215 0.90734494
0.054714281 0.18860547 0.90520006
0.058009382 0.1871278 0.90721703
0.061985094 0.1876408 0.908678
0.053669047 0.19282068 0.90654469
0.057337731 0.19250926 0.90932006
0.044194639 0.19758768 0.90585011
0.048003867 0.19740941 0.90600008
0.052993946 0.19747783 0.90825033
0.0158849 0.20206867 0.90516686
0.037852123 0.20302284 0.90566677
0.042939957 0.20227748 0.90610015
0.048050798 0.20245248 0.90688163
0.051576089 0.20301473 0.90940005
0.017587937 0.20898075 0.90593344
0.028140198 0.20849991 0.90567505
0.032794341 0.20729701 0.90593708
0.037887588 0.20743194 0.90652615
0.043034095 0.20778722 0.90807796
0.047588658 0.20739514 0.90882796
0.018630572 0.21235004 0.90736693
0.02265879 0.21237357 0.90602601
0.027745429 0.21250212 0.90657425
0.032864377 0.21280488 0.9078669
0.037734773 0.21250746 0.90865743
0.04138162 0.21137904 0.90900028
0.019344192 0.21646768 0.90906686
0.02292501 0.21774215 0.90820861
0.027556581 0.2174982 0.90832412
0.032070033 0.21653515 0.90935016
0.063492581 0.18961249 0.91003323
0.058424421 0.19476946 0.91039985
0.061876763 0.19240235 0.91121668
0.065352477 0.19347981 0.9123044
0.057225384 0.19836332 0.91291344
0.060907979 0.1960427 0.9137001
0.065504976 0.19563232 0.9144336
0.053360004 0.20250227 0.9109
0.055787276 0.20223917 0.9135446
0.049953163 0.20839387 0.91073328
0.052800603 0.20754838 0.9129734
0.055290554 0.20590596 0.91473365
0.016551824 0.21352232 0.91093343
0.043554004 0.21306729 0.91188002
0.04753533 0.2123646 0.91323346
0.050113171 0.21161136 0.91365016
0.017716506 0.21774048 0.91263342
0.042454168 0.21590278 0.9138335
0.06281592 0.19838476 0.91666681
0.058001082 0.20303276 0.91712505
0.061542999 0.20257854 0.91893321
0.05686288 0.20767637 0.91805333
0.04849131 0.21452332 0.91520029
0.052493334 0.21289878 0.91553348
0.055492021 0.21263361 0.9180665
0.064310044 0.20319997 0.92175007
0.059093997 0.20813629 0.92083341
0.061652072 0.20745273 0.92312658
