# .PCD v0.7 - Point Cloud Data file format
VERSION 0.7
FIELDS x y z
SIZE 4 4 4
TYPE F F F
COUNT 1 1 1
WIDTH 1050
HEIGHT 1
VIEWPOINT 0 0 0 1 0 0 0
POINTS 1050
DATA ascii
0.022936862 0.05832091 0.82486689
0.026476854 0.058631562 0.82492018
0.039088327 0.057551414 0.82483351
0.013781533 0.054012913 0.82940024
0.017946385 0.053360485 0.82885373
0.022270612 0.053195227 0.8286891
0.027140833 0.053406145 0.82797784
0.033067256 0.053931866 0.82815558
0.037688397 0.053914506 0.82788897
0.042353462 0.05395503 0.82851142
0.0099099586 0.057842121 0.82900035
0.012991751 0.057028692 0.82839274
0.017751826 0.057241388 0.82701319
0.021816622 0.057257354 0.8261416
0.02806912 0.057121135 0.82569087
0.032966264 0.057604749 0.82561666
0.037276588 0.057603113 0.82559335
0.042108096 0.057453558 0.82644838
0.045488428 0.05786537 0.82933342
0.0099136764 0.061721098 0.82931137
0.013136136 0.062230304 0.82861841
0.017465753 0.062558278 0.82739377
0.022221383 0.063077554 0.8268739
0.027583124 0.062997371 0.82581669
0.032979164 0.063007638 0.82594812
0.037624076 0.06304656 0.82645917
0.042452496 0.062812991 0.82743329
0.045517698 0.06021814 0.82986659
0.013782702 0.06636098 0.82946694
0.017834991 0.067678697 0.82906699
0.022265982 0.067828864 0.82854098
0.027441269 0.06763453 0.82787281
0.032754574 0.067944065 0.82806003
0.037714936 0.067821778 0.82845205
0.04200444 0.066729292 0.82925022
0.019197334 0.070989877 0.82946694
0.02272425 0.072284378 0.82914323
0.026918532 0.072495975 0.82904482
0.031759419 0.071938604 0.82928371
0.023997249 0.049717795 0.83499974
0.027111828 0.049717795 0.83499974
0.03256233 0.049717795 0.83499974
0.037234172 0.049717795 0.83499974
0.042667594 0.04969795 0.83466643
0.0021952558 0.054377582 0.83499974
0.0079644248 0.053622562 0.83361894
0.012821829 0.052169342 0.83164757
0.017291849 0.051400267 0.83081657
0.022359787 0.051085521 0.83197767
0.027398922 0.051467843 0.83191675
0.03242531 0.051829193 0.83150834
0.037834782 0.051803097 0.83108884
0.042493716 0.051814217 0.8312667
0.04708923 0.052934486 0.83369154
-0.00091931585 0.058260743 0.83499974
0.0021925073 0.057434991 0.83429611
0.007149314 0.05710236 0.83171332
0.047645766 0.057073932 0.83224761
-0.00091931585 0.061367273 0.83499974
0.0021930495 0.062105674 0.83448124
0.0071516349 0.062235408 0.83206666
0.011483696 0.064937837 0.83099991
0.046547938 0.062205244 0.83166665
0.0021952558 0.065250404 0.83499974
0.0078946678 0.067242116 0.83400553
0.012821259 0.06852489 0.83164757
0.016127983 0.06955298 0.8307333
0.042796452 0.068966106 0.83110666
0.046215426 0.065621257 0.83313322
0.013521113 0.072690852 0.8337999
0.017506072 0.072933361 0.83182496
0.020770978 0.073399052 0.83053339
0.033554152 0.073794 0.83063334
0.037851889 0.0727088 0.83145922
0.042590413 0.072854824 0.8331334
0.013874894 0.076123245 0.83499974
0.018136673 0.076426491 0.83406663
0.022385146 0.07749176 0.83299255
0.027027385 0.077436514 0.83239257
0.032184485 0.077206172 0.83325988
0.037600596 0.076464467 0.83448321
0.042676929 0.076109059 0.83484429
0.023997249 0.080783039 0.83499974
0.025554538 0.080783039 0.83499974
-0.010291708 0.049856748 0.83733326
-0.0087474473 0.049175628 0.83899999
0.013531933 0.049500301 0.83790004
0.017817855 0.049077187 0.83734447
0.022183759 0.048906423 0.83708
0.027584692 0.047919508 0.83751667
0.032151561 0.0478081 0.83784443
0.038127277 0.048049752 0.83754444
0.042830553 0.047549125 0.83785564
0.047510553 0.049099315 0.83771116
0.050716899 0.049959939 0.8390668
-0.019677185 0.054572962 0.83800006
-0.011429608 0.053296525 0.83893764
-0.0071700942 0.052982431 0.83751118
-0.0024823984 0.052938521 0.8368147
0.0021998025 0.052162562 0.83685559
0.0071897143 0.0516662 0.83637321
0.048956789 0.051316101 0.83573335
0.052208662 0.053005613 0.83787411
-0.021214718 0.057621799 0.83700001
-0.018644353 0.057720825 0.83844453
-0.011871485 0.057727199 0.83852601
-0.0071655312 0.057621319 0.8369925
-0.0029249776 0.057320334 0.83584756
0.052039832 0.057516951 0.83829999
-0.016571177 0.060880888 0.83900005
-0.012443868 0.062574215 0.83887595
-0.0071680704 0.062312782 0.83726668
-0.0029282651 0.062496264 0.8367523
0.048964601 0.062209006 0.83586663
0.050727647 0.062460408 0.83924454
-0.012403823 0.066114433 0.83939296
-0.0069599752 0.066682987 0.83905727
-0.0024859842 0.067025654 0.83776307
0.0021975904 0.067678615 0.83621097
0.0060933665 0.069186293 0.83563328
0.047712512 0.067877255 0.83730477
-0.00092379272 0.070250697 0.83906686
0.0023994106 0.071558595 0.83837509
0.0074817846 0.07294789 0.83694351
0.011541735 0.073811151 0.83519971
0.047670212 0.072711915 0.83799404
0.0076795053 0.07646361 0.83873343
0.012045415 0.078251854 0.83782673
0.017478075 0.078707971 0.83605325
0.034125127 0.079242453 0.83513308
0.038341977 0.078645103 0.83538646
0.042735055 0.078545533 0.83597761
0.047106266 0.077774987 0.83844763
0.01419048 0.081623644 0.8383112
0.018021949 0.082415953 0.83777499
0.022283591 0.08267308 0.83643317
0.027358592 0.082689419 0.83659995
0.032422632 0.082379453 0.83686662
0.037828848 0.082771942 0.83782673
0.042668406 0.082487725 0.83850002
0.019419519 0.085858956 0.83906686
0.022731123 0.087174624 0.83857512
0.027023949 0.087146983 0.83830839
0.031619247 0.08646594 0.83889353
0.037427958 0.08588624 0.83933342
0.027402168 0.043972522 0.84397793
0.032122862 0.043967891 0.84388894
0.036842797 0.043965578 0.84384459
0.042359978 0.043977156 0.8440668
0.047111385 0.044003204 0.84456646
-0.0064282226 0.048603438 0.84260875
-0.0025020081 0.048661884 0.84362239
0.0030091263 0.048735581 0.84489989
0.0069374908 0.047877267 0.84363341
0.012089116 0.047692537 0.84235245
0.018326916 0.046650942 0.84275001
0.022636309 0.046235334 0.84232217
0.027007293 0.046031423 0.84145337
0.032439455 0.045822047 0.8419168
0.037546836 0.045958295 0.84202224
0.042985301 0.045375794 0.84088868
0.047726933 0.046191663 0.84152222
0.052234121 0.048017092 0.84333336
-0.015576329 0.054289032 0.8416667
-0.012957003 0.051662352 0.84138101
-0.0064141322 0.050060622 0.84075761
-0.0024950958 0.050094903 0.84133321
0.0022158297 0.050187532 0.84288913
0.0069201128 0.050108135 0.84155554
0.010043045 0.050023451 0.84013313
0.053227633 0.050112769 0.84163332
0.05675593 0.053515982 0.84240955
0.06049658 0.054997388 0.84451729
-0.015662791 0.057560492 0.8406477
0.054026339 0.059522863 0.84186673
0.057226498 0.058018021 0.84273338
-0.015838739 0.062636487 0.84158337
0.053292122 0.062714726 0.8426556
0.056536734 0.062042858 0.84418333
-0.016099775 0.067337044 0.8416667
-0.011672256 0.067970157 0.84302431
-0.0079902923 0.068899974 0.8416332
0.051738556 0.067439452 0.84294444
-0.011953868 0.070702054 0.84445781
-0.0070273131 0.072016597 0.8437416
-0.0026941265 0.072249845 0.84189171
0.00064235053 0.073518075 0.84073317
0.051685169 0.072069727 0.84207791
-0.0056581334 0.075463049 0.84499991
-0.0022798288 0.07652346 0.84430474
0.00221433 0.076818593 0.8426075
0.0066961604 0.078733087 0.84154278
0.049323879 0.079111516 0.84199995
0.05156647 0.076512709 0.84270668
0.002745759 0.081203349 0.84475547
0.0071335044 0.082982421 0.84353346
0.011801521 0.083319694 0.84143704
0.016318254 0.084445477 0.8405332
0.044570465 0.084512442 0.84119982
0.046988633 0.083063595 0.84235555
0.0085252859 0.086466081 0.84499991
0.012656992 0.087741941 0.84352136
0.017714381 0.087893985 0.84173328
0.021031078 0.089178555 0.84093308
0.02884078 0.089079581 0.83999997
0.032385629 0.088743731 0.84051651
0.037514064 0.088430949 0.84125811
0.043070059 0.087781094 0.84252608
0.046325795 0.086425141 0.8445999
0.014041064 0.091181673 0.84499991
0.018476447 0.092081331 0.84363347
0.022632271 0.092447333 0.84220004
0.027322095 0.092366904 0.84146661
0.032061365 0.092456967 0.84228897
0.037589833 0.092530631 0.84296697
0.043148216 0.092650265 0.84405196
0.023747243 0.09637326 0.84457779
0.027604178 0.097170174 0.84410006
0.032130506 0.097367793 0.8441112
0.037165754 0.097202994 0.84404677
0.041355088 0.097464055 0.84495544
0.033740267 0.10061287 0.84499991
0.037205622 0.10123684 0.84495986
0.040831968 0.10061287 0.84499991
0.044202276 0.03950559 0.84920025
0.0030267332 0.044275865 0.84980011
0.0073752212 0.043820925 0.84865034
0.012519224 0.043426245 0.8486585
0.018054266 0.043573745 0.84845591
0.022780409 0.043376278 0.84768915
0.02751329 0.041784495 0.84738904
0.032249045 0.041776512 0.84723353
0.03695308 0.041735485 0.84638882
0.042483483 0.041741978 0.84651661
0.048071608 0.042321071 0.84760022
0.052867461 0.043416012 0.84845573
0.056124736 0.044279337 0.84986681
-0.0061856355 0.046663329 0.84532732
-0.0025138746 0.046523128 0.84756011
0.0020022334 0.046845727 0.8472954
0.0069608181 0.045675587 0.84644455
0.012478094 0.045646213 0.84590006
0.017196232 0.04560665 0.84516656
0.053131044 0.046063989 0.84635001
0.056935031 0.047953706 0.8477602
0.062402964 0.048578754 0.84903347
0.058111124 0.0513447 0.84646672
0.062276885 0.052026529 0.84731418
0.061505422 0.057561774 0.84756416
-0.016689681 0.062888138 0.84500003
0.057840545 0.0633545 0.84597975
0.060783438 0.061571825 0.84852183
-0.016298678 0.068010338 0.84516668
0.054325808 0.067726426 0.84653336
0.056744169 0.067785926 0.84727782
-0.015131632 0.07083118 0.84600008
-0.011996861 0.073311284 0.84737033
-0.0088232113 0.074001931 0.84626669
0.05435719 0.072493702 0.84702229
0.057101544 0.072108187 0.84867287
-0.010966794 0.076371163 0.84927154
-0.0072586383 0.077294119 0.84782875
-0.0033007774 0.078755602 0.84660012
0.053655218 0.077343367 0.84840012
-0.0056849164 0.080558158 0.84900033
-0.0025159919 0.082036585 0.84794098
0.0011737201 0.083003178 0.84708905
0.0053742658 0.084907599 0.84513319
0.049519151 0.082569167 0.84533322
0.051180333 0.081919141 0.84673339
-0.00093524304 0.085342959 0.84946686
0.0027567176 0.086270414 0.84822243
0.0069621806 0.087948315 0.84665561
0.010102821 0.089623973 0.84513319
0.04836705 0.088031545 0.8466149
0.051268976 0.086794041 0.84820032
0.0080373175 0.0916088 0.84895581
0.012180051 0.09331052 0.84719336
0.016943261 0.093875818 0.84566659
0.047873631 0.092840455 0.84758365
0.051345531 0.090083502 0.84946674
0.01363227 0.09698461 0.84901363
0.018038919 0.097791225 0.84777808
0.022223352 0.098170765 0.84652227
0.025874872 0.09909568 0.84546649
0.044199206 0.097910263 0.84609336
0.046545211 0.096305773 0.84860027
0.018864162 0.10112481 0.84930038
0.023210969 0.10148008 0.84896702
0.027533969 0.10176087 0.84801131
0.03204523 0.10263527 0.84708339
0.036536925 0.10347205 0.84588325
0.042842228 0.10278244 0.84732687
0.033115819 0.10585199 0.84920025
0.037278686 0.1069153 0.8486765
0.041370254 0.10719591 0.84911454
0.045026135 0.10592675 0.84980017
0.046863321 0.034979448 0.8544001
0.05401691 0.034968719 0.85413802
0.057976272 0.034954518 0.85379118
0.013395104 0.039731469 0.85405558
0.018181723 0.039750591 0.8544668
0.023748729 0.039731987 0.85406673
0.027738119 0.038947359 0.854289
0.03282284 0.039090242 0.85393333
0.037233636 0.038879503 0.85282224
0.041680269 0.038714059 0.85267335
0.046767857 0.038078852 0.8526668
0.052622572 0.038277052 0.85383642
0.057799228 0.03794726 0.8541168
0.06182652 0.038466685 0.85418671
-0.0021278663 0.043970469 0.85155803
0.0022410571 0.042558268 0.85236549
0.0066889846 0.041848797 0.85189998
0.012562314 0.041205 0.85167491
0.018120319 0.04159499 0.85155827
0.022867398 0.041168045 0.85091096
0.049862787 0.041182015 0.85120004
0.053017545 0.041166425 0.85087776
0.058108818 0.042646393 0.85280001
0.062653475 0.042827588 0.85244298
0.065868862 0.043644324 0.85289705
0.058559991 0.046696123 0.85069996
0.062556639 0.046560597 0.85111284
0.065954037 0.046083301 0.85400003
-0.015221062 0.073624335 0.85100001
0.057823095 0.074462689 0.8515358
-0.015238948 0.077674918 0.852
-0.012582122 0.078145623 0.85138673
-0.0088683879 0.079127692 0.85060006
0.054707676 0.078511581 0.85248339
0.056903426 0.076761477 0.85361117
-0.011883385 0.082566552 0.85342604
-0.0074906303 0.082593881 0.85166246
0.053052068 0.082373448 0.85142875
-0.011031762 0.086359836 0.85431522
-0.0071126032 0.087191842 0.85402924
-0.002724715 0.087334476 0.85154152
0.0011785071 0.088087283 0.85053331
0.053147197 0.087279946 0.85295564
-0.0015774837 0.09185122 0.85414666
0.0022399852 0.091983549 0.85241848
0.006469171 0.092617162 0.85096115
0.049800303 0.094898432 0.85013336
0.052520473 0.092372395 0.85309345
-0.013690011 0.096975386 0.85450006
0.0032020744 0.096640512 0.85434663
0.0068172459 0.097031847 0.85324585
0.012024712 0.098692067 0.85102767
0.048029691 0.098220967 0.85151654
0.051067095 0.096879043 0.85364455
0.0080870772 0.10064907 0.85420007
0.01265907 0.10261676 0.85333937
0.017897954 0.10345963 0.85179037
0.02254897 0.10384397 0.85086662
0.027613595 0.10442782 0.85046667
0.047398146 0.10278112 0.85254782
0.050058056 0.10015836 0.85453355
0.01870442 0.10751656 0.85405558
0.022889448 0.10775676 0.85176295
0.02763978 0.10769358 0.85126656
0.032162674 0.10810084 0.85091418
0.036332227 0.10915681 0.85033333
0.043495763 0.108434 0.85086656
0.046136566 0.10819407 0.8527233
0.023146544 0.11259462 0.85390836
0.027725488 0.11279137 0.85389632
0.032483485 0.11272379 0.85337776
0.037249453 0.1126993 0.85318881
0.042030204 0.11271597 0.85331494
0.045788988 0.11176934 0.85417795
0.031743988 0.11610413 0.85490018
0.03784211 0.11659328 0.85460019
0.041310374 0.11610417 0.85490036
0.039117556 0.03358027 0.85926682
0.04225339 0.033525568 0.85786653
0.046916049 0.033427931 0.85536814
0.0030461075 0.039790355 0.85532153
0.0070349947 0.039794523 0.85541135
0.011838164 0.038786799 0.85660022
0.017854661 0.037910998 0.85784191
0.02281506 0.037836399 0.85744774
0.027876424 0.036747616 0.85857773
0.032231875 0.037088521 0.85724998
0.037480928 0.035945095 0.8585
0.042202462 0.035875428 0.85683346
0.047451034 0.035551619 0.8554225
0.050665628 0.035568241 0.85582256
0.059690118 0.039800208 0.85553366
0.00065340346 0.041375544 0.85519999
0.059842296 0.073407449 0.8577143
0.057600919 0.07910838 0.85609537
-0.013707635 0.082775995 0.8556
0.054917645 0.082791544 0.85575581
0.057428468 0.082959332 0.85748476
-0.011582666 0.088633478 0.85580707
-0.0089239944 0.089177079 0.85593355
0.054976113 0.087660268 0.85666686
0.056314833 0.087878935 0.85879999
-0.011349652 0.09261822 0.85830873
-0.0073404643 0.092510462 0.85730386
-0.0037363437 0.092763938 0.85596681
0.055087369 0.092627667 0.85839993
-0.012145982 0.097375758 0.85800552
-0.0065566334 0.096741885 0.85948348
-0.0023452411 0.097149178 0.85778338
0.001053211 0.097561553 0.85615021
0.0529151 0.097502336 0.85563368
0.055074532 0.097394638 0.85819989
-0.00094654656 0.10076784 0.85973346
0.0024828445 0.10169421 0.85790491
0.0065101427 0.10249835 0.85636687
0.051950138 0.10214075 0.85615867
0.055111613 0.10225394 0.85877776
0.0081341891 0.10603061 0.85917783
0.011649331 0.10708711 0.85750008
0.016295446 0.1085854 0.85580027
0.048521999 0.10744007 0.85555029
0.051656209 0.10673881 0.85790837
0.012676656 0.11031643 0.85936671
0.017763223 0.11261275 0.85737336
0.021412881 0.114688 0.85620034
0.047287755 0.11342534 0.8562935
0.050327871 0.11188594 0.85913897
0.018294042 0.11622731 0.8597334
0.023244131 0.11785609 0.85751677
0.027817275 0.117948 0.8567335
0.032814078 0.11831165 0.85607642
0.037096612 0.11834631 0.85577816
0.042414006 0.11836588 0.85646683
0.046612382 0.11768705 0.85815245
0.024708064 0.12155838 0.85973346
0.028295325 0.12187111 0.85911673
0.032917868 0.12256552 0.85878098
0.037468232 0.12293979 0.8582074
0.042107232 0.12284504 0.85894179
0.039141834 0.126366 0.85980016
0.040751681 0.12638561 0.8599335
0.028075069 0.028965985 0.86466676
0.01919128 0.033765912 0.86401689
0.023213426 0.033113565 0.8637867
0.028200096 0.032296278 0.86235005
0.032768298 0.032842215 0.86088318
0.037227385 0.032650106 0.86002767
0.0087001678 0.03851245 0.8623333
0.011919379 0.036647398 0.86252779
0.017535441 0.035682783 0.86180001
0.023163782 0.035287868 0.86193341
0.027931081 0.035218716 0.86024451
0.032735288 0.035208706 0.86000019
0.061824568 0.072260275 0.86305559
0.061362717 0.077071264 0.86300188
0.061104998 0.081201598 0.86425483
0.058537066 0.08740963 0.86205006
0.060315721 0.085245162 0.86450011
-0.013778127 0.091200508 0.86000001
0.057925038 0.092684709 0.86318105
-0.010589388 0.097776987 0.86155277
-0.0080147637 0.098366432 0.86110675
-0.0041546603 0.099199317 0.86000019
0.057397977 0.0975428 0.8630417
-0.011420311 0.10122398 0.86362505
-0.007064688 0.10176001 0.86272001
-0.0027581702 0.10282224 0.86186254
0.0014591283 0.10401477 0.86013347
0.057828035 0.10281081 0.86345571
0.06028549 0.1028831 0.86406684
-0.00095212442 0.10618781 0.86480021
0.0024674328 0.10730441 0.8624543
0.0065427064 0.10781807 0.86068898
0.053640123 0.1089076 0.86086673
0.05681574 0.10781882 0.86336124
0.003345547 0.11144838 0.86401129
0.0072914739 0.1120908 0.86224997
0.011662346 0.11252736 0.86055249
0.015092262 0.11359721 0.86000019
0.052933604 0.11231363 0.86241674
0.055491664 0.11100101 0.86470014
0.0081826234 0.11631048 0.86431128
0.012121189 0.11695223 0.86261672
0.016707301 0.11756609 0.86060959
0.021507917 0.1199963 0.86000019
0.048814107 0.11769295 0.86069989
0.051355671 0.11719651 0.86293346
0.0135605 0.12063816 0.86460018
0.018029738 0.12178709 0.86248004
0.022804651 0.12263234 0.86053342
0.027935045 0.12404653 0.86035007
0.031933337 0.12479562 0.86000019
0.043986518 0.12486334 0.86046678
0.047484454 0.12226643 0.86150485
0.019996582 0.125376 0.8640002
0.023182157 0.12678522 0.86264813
0.027817002 0.12792495 0.86168003
0.032764044 0.1281088 0.86075568
0.037383594 0.12832296 0.86085004
0.042452727 0.1280112 0.86190003
0.046901364 0.12667644 0.86346674
0.024031835 0.1302378 0.86426675
0.028025098 0.13167605 0.8631556
0.032817412 0.1315235 0.8621555
0.037667532 0.13161503 0.8627556
0.042566404 0.13103279 0.86420852
0.015257228 0.029124547 0.86939996
0.023669127 0.028454687 0.86870658
0.026526721 0.029036334 0.86676681
0.0039056721 0.032346919 0.86907411
0.0076092454 0.032342207 0.8689428
0.012008936 0.032344386 0.86900735
0.016656289 0.032119509 0.86840826
0.022218816 0.031190237 0.86690563
0.026497142 0.030614497 0.86580008
0.0039063762 0.036394872 0.86923075
0.0069357548 0.036948223 0.86800706
0.010358238 0.035474818 0.86650014
0.015194634 0.035447527 0.86583346
0.063603349 0.069232397 0.86535728
0.063750751 0.072619513 0.86736274
0.06365253 0.077340849 0.86602622
0.062851936 0.082180128 0.86611116
0.061838489 0.087105773 0.86700559
0.060618848 0.092137873 0.86884451
0.0588562 0.099171475 0.86675012
0.060533162 0.096043095 0.86761677
-0.012279014 0.10326836 0.86730236
-0.007822209 0.10437111 0.86640847
0.060522355 0.1032863 0.86746156
-0.011897733 0.10550393 0.86910307
-0.0072078407 0.10784781 0.86891425
-0.0027767352 0.10836315 0.86772084
0.00066219002 0.10964556 0.86670017
0.058814637 0.10635208 0.86613798
-0.0074452418 0.11002082 0.86966681
-0.002253531 0.11219116 0.86893332
0.0017409213 0.11354238 0.86772782
0.0055069565 0.11438977 0.86600018
0.056990862 0.11270555 0.86790305
0.0035000155 0.11761089 0.86896664
0.0065952414 0.11836886 0.86761123
0.010342697 0.11911244 0.86520022
0.05400598 0.11771271 0.86673814
0.055812046 0.11811309 0.86969239
0.0074709654 0.12190243 0.86902666
0.01199481 0.12273056 0.8680191
0.015206041 0.12331921 0.86648345
0.052235588 0.12245564 0.86750424
0.013635267 0.1269637 0.86936665
0.017047537 0.12733448 0.86775839
0.020045187 0.12809798 0.86610013
0.049178958 0.12825084 0.86713326
0.051425248 0.12658881 0.86864448
0.017956587 0.13153021 0.86926669
0.022419579 0.13255331 0.86772227
0.028172912 0.13398513 0.86771125
0.032960076 0.13371062 0.86593342
0.037842575 0.13383932 0.86676675
0.043110233 0.13348013 0.86705017
0.047402963 0.13220076 0.86791253
0.024439102 0.1363674 0.86917764
0.028432386 0.13688655 0.86856186
0.033042602 0.1372719 0.86807418
0.03791393 0.13732311 0.86839998
0.042797044 0.13740088 0.86889625
0.046701774 0.13712347 0.86918658
0.029863942 0.1415886 0.86980003
0.033088394 0.14150377 0.86927778
0.037630249 0.14135122 0.86933339
0.042006284 0.14069875 0.86929995
0.013652517 0.029160278 0.87046683
0.01771652 0.029169209 0.8707335
0.020155501 0.029173676 0.87086684
0.0039113308 0.03401278 0.87033349
0.0055328174 0.034002353 0.87006676
0.062455755 0.092460014 0.8718667
-0.012651843 0.10788932 0.87074023
-0.01188043 0.11170615 0.87199432
-0.0076888143 0.11226831 0.87096202
-0.0025818972 0.11415245 0.87033355
-0.011549089 0.11536159 0.87335718
-0.0074791601 0.11655024 0.87356138
-0.0027895796 0.11698133 0.87180007
0.0014775753 0.11828171 0.87093353
0.056460246 0.11833617 0.87133247
-0.0016139563 0.12156705 0.87358654
0.0022909692 0.12245464 0.87180835
0.0067565423 0.12435474 0.87091684
0.01040008 0.12462832 0.87
0.054234151 0.12468564 0.87040013
0.056828592 0.12178621 0.87283331
0.0026217797 0.12643611 0.87354648
0.0073750173 0.12796941 0.87208337
0.011574654 0.12827334 0.87120014
0.015268931 0.12949336 0.87006676
0.053209912 0.12860151 0.87133336
0.056047127 0.12673438 0.87335539
0.0039293068 0.13012838 0.8743332
0.0071887155 0.13118578 0.87415546
0.012295092 0.1327115 0.87298089
0.016376801 0.13348489 0.87146682
0.02014933 0.13443117 0.87060016
0.049371798 0.13442086 0.87053353
0.052505422 0.13282301 0.87199992
0.05613555 0.1301879 0.87473327
0.013719434 0.13669661 0.87473333
0.017162675 0.13794276 0.87360406
0.021590577 0.13800801 0.87145013
0.026646435 0.13930391 0.87068909
0.049034745 0.13825738 0.87175
0.05154993 0.13765223 0.87304986
0.018602608 0.14230806 0.87421656
0.022071363 0.14250018 0.8732571
0.02699402 0.14282887 0.87144023
0.033126924 0.1440966 0.87028903
0.038423348 0.14377074 0.87076688
0.043122638 0.14302458 0.87080014
0.04763848 0.14259015 0.87221259
0.028354254 0.14662497 0.87329161
0.033039581 0.14757572 0.87277043
0.038085621 0.1476818 0.87232971
0.042784598 0.14755404 0.87277496
0.046835244 0.14682668 0.87368876
-0.01131653 0.11793128 0.87635493
-0.0074969432 0.11891344 0.87558568
-0.010790762 0.12249959 0.87793654
-0.0075106374 0.12240468 0.87725568
-0.0038214095 0.12256207 0.8754667
0.057795558 0.12374046 0.87516671
-0.010804472 0.12674309 0.8790518
-0.0073158131 0.12726739 0.87843764
-0.0026013395 0.12718028 0.87642974
0.0012125446 0.12806714 0.87506676
0.057958465 0.12735546 0.87763333
-0.0067114728 0.13093701 0.87976652
-0.0021377185 0.13211973 0.87830007
0.0021004025 0.13235585 0.8769626
0.0067885793 0.13308746 0.87507504
0.056829851 0.1321598 0.87703341
0.0034053482 0.13634594 0.87946653
0.0072242785 0.13728446 0.87848896
0.011650456 0.13727774 0.8769573
0.054180808 0.1373174 0.87609172
0.0088784089 0.14079358 0.87999976
0.012143536 0.14224166 0.8788296
0.016038748 0.14222042 0.87668008
0.052219428 0.14202003 0.87745839
0.013800997 0.14651193 0.87993312
0.017057277 0.1471172 0.87865561
0.021734469 0.14708394 0.87723768
0.025739295 0.14786942 0.87665576
0.049340166 0.14727673 0.87717509
0.051505968 0.14639817 0.87924981
0.017894424 0.15052983 0.87949991
0.02199081 0.15115152 0.87930661
0.027133182 0.15160234 0.87893814
0.031963333 0.15208688 0.87798899
0.037828386 0.1526937 0.87715727
0.043456409 0.1522928 0.8775335
0.047343329 0.15191957 0.87807232
0.032300502 0.15681596 0.87936181
0.0375195 0.156828 0.87812251
0.043299202 0.15699814 0.87907404
0.046582095 0.15619722 0.8791666
0.032675959 0.16043715 0.87999976
0.036760475 0.16117463 0.8795554
0.041368268 0.16106765 0.87986642
0.061680406 0.121708 0.88405973
-0.0091759562 0.12934946 0.88009989
0.060051329 0.12915143 0.88434994
-0.01083866 0.1312446 0.88183337
-0.0075513246 0.13291791 0.88204545
-0.0042538573 0.13350849 0.88053316
0.05829636 0.13384575 0.88274986
-0.0015215055 0.13691689 0.88314444
0.0017696471 0.13839918 0.88212222
0.056552678 0.1377138 0.88123322
0.0031481178 0.14144953 0.88410008
0.0072543658 0.14251515 0.88221103
0.054343313 0.14258119 0.88093323
0.055037923 0.14460772 0.88330007
0.0089278426 0.14651579 0.88490015
0.011710185 0.14781526 0.88142377
0.052875087 0.14801438 0.88156658
0.055087768 0.14638333 0.88410014
0.013309526 0.15178941 0.88365561
0.016881445 0.15301467 0.88169044
0.022029512 0.15362863 0.88084978
0.0261198 0.15394181 0.88029981
0.04995532 0.15239532 0.88082218
0.051656649 0.15256846 0.88182229
0.018261172 0.15678193 0.88400006
0.022089548 0.15774766 0.88326299
0.026977738 0.1574387 0.8815369
0.030218722 0.15800568 0.88013309
0.047877248 0.15763842 0.88036638
0.050560869 0.15750705 0.88422513
0.027707066 0.16211966 0.88381338
0.031686358 0.16288325 0.88184273
0.03681301 0.16385995 0.88079983
0.042713743 0.16283301 0.8805598
0.046750285 0.16250406 0.88232857
0.032835819 0.16615605 0.88430011
0.036932927 0.16603707 0.88366675
0.041866891 0.16641259 0.88347512
0.045209978 0.16617484 0.88440013
0.063559569 0.1138991 0.88727576
0.062074158 0.11733216 0.88671243
0.066144958 0.11655606 0.8886559
0.061871599 0.12703621 0.88679981
0.061262272 0.13242415 0.88753998
-0.0078083123 0.13730122 0.88784039
-0.0037310382 0.13797237 0.88641095
0.058559418 0.13774741 0.88673306
0.060751289 0.13679001 0.88854992
-0.0066185221 0.14195681 0.88933468
-0.0026342224 0.14206401 0.88793314
0.001915751 0.14303783 0.88629991
0.007278319 0.14488603 0.88500017
0.057903688 0.1422123 0.88680661
0.060374647 0.14225142 0.88911104
-0.0066129491 0.14680204 0.88862532
-0.0026364455 0.14717993 0.88891101
0.0023325982 0.14693552 0.88742936
0.0067376848 0.14730118 0.88632202
0.057102434 0.14740813 0.88655818
0.060401052 0.14645045 0.88950002
-0.0026382168 0.150566 0.88937783
0.0028897768 0.15160277 0.88898891
0.0072998297 0.15193713 0.88771838
0.011910604 0.15359239 0.88584006
0.053516179 0.15318333 0.88537788
0.05716823 0.15212137 0.88758725
0.060380686 0.1505359 0.88919997
0.0077857147 0.15689918 0.88910478
0.012021299 0.15724885 0.88707602
0.016781818 0.15817724 0.88567501
0.052779056 0.15838626 0.88684976
0.055947319 0.15601857 0.88902217
0.012833142 0.16147284 0.88869995
0.017033279 0.16210952 0.88803315
0.02217933 0.16251436 0.88686639
0.026566863 0.16374497 0.88608885
0.048543535 0.16464755 0.88503349
0.052008014 0.16213191 0.88778877
0.018369388 0.16598231 0.88924438
0.022216652 0.16692297 0.88837767
0.026903313 0.16709913 0.88680929
0.031852514 0.16867957 0.88644266
0.037038948 0.16899061 0.88622206
0.041989245 0.16912337 0.88605326
0.046968561 0.16793562 0.88645536
0.051228341 0.16614714 0.88865
0.023344107 0.17094047 0.8892222
0.027430777 0.17144762 0.88858086
0.032160912 0.1727218 0.88845545
0.037084859 0.17250128 0.88732201
0.04206657 0.1725684 0.88766646
0.047094114 0.17196774 0.88882858
0.032426652 0.17653653 0.88923806
0.037152145 0.17694837 0.8889333
0.041917048 0.17673346 0.88889158
0.046295129 0.17538661 0.88940001
0.040513612 0.18045808 0.88993347
0.067207806 0.11944992 0.89175016
0.063881256 0.12277046 0.89176679
0.066559918 0.12227798 0.89423352
0.064025335 0.12803541 0.89377791
0.06392663 0.13281576 0.89240026
0.063269608 0.13814613 0.8925069
-0.010969764 0.14113325 0.89250004
-0.008877092 0.14300846 0.89125115
0.062888205 0.14235255 0.89182013
-0.0092826495 0.14907159 0.89033335
0.061746769 0.14793278 0.89095855
-0.0066403463 0.15239568 0.89233285
-0.0026443212 0.15342593 0.89157248
0.0012346051 0.15359019 0.89092237
0.061350621 0.15254021 0.89124179
-0.002648677 0.15620197 0.8932249
0.0029015243 0.15724929 0.89287806
0.0056649796 0.15827265 0.89085019
0.057554383 0.15791467 0.89164031
0.060708117 0.15800527 0.89402229
0.0076726712 0.1617364 0.89258689
0.011217152 0.16372985 0.89198905
0.053856008 0.16410013 0.89100021
0.056300886 0.16245344 0.89287359
0.012757104 0.16656385 0.89310026
0.016748767 0.16801834 0.89126688
0.052640956 0.16792455 0.89150858
0.055735789 0.16724078 0.89450026
0.018444121 0.17164557 0.89288926
0.021744803 0.17306983 0.89166689
0.026409881 0.17386238 0.89006668
0.048858009 0.17399909 0.89076692
0.051077373 0.17240947 0.89325851
0.022670412 0.17679985 0.8931936
0.027294386 0.17753312 0.89186317
0.031422697 0.17901702 0.89100021
0.043842949 0.17884286 0.8901335
0.047495332 0.1780123 0.89189541
0.027369896 0.1813504 0.89433366
0.032314759 0.18185037 0.89270025
0.037290711 0.18259162 0.89225948
0.04229892 0.18265779 0.89258593
0.046268497 0.18188484 0.8942337
0.038214743 0.18635505 0.89440036
0.042385031 0.18635507 0.8944003
0.068156153 0.12394859 0.89548779
0.067529656 0.12752447 0.89603335
0.071060814 0.12786552 0.89842868
0.067419924 0.13213465 0.89678669
0.071170315 0.1322467 0.89981312
0.067588575 0.13681284 0.89682055
-0.0060094343 0.15694337 0.89746463
-0.0030777985 0.15881239 0.89623642
0.0015195078 0.15909296 0.89546669
0.059162546 0.15999699 0.89586675
-0.0024496126 0.16196065 0.89635813
0.0021165549 0.1621692 0.89602858
0.0073651187 0.16411412 0.89560008
0.05865116 0.16345531 0.8965556
0.060942009 0.16278791 0.89746678
-0.0026649097 0.1654731 0.8984549
0.0023611141 0.16610718 0.89826691
0.0071680532 0.16710562 0.89712095
0.01237366 0.16880105 0.89542228
0.054142095 0.16997053 0.89573342
0.057543099 0.16764615 0.89666677
0.0085047269 0.17102301 0.8983447
0.012187497 0.17210521 0.89708352
0.016967537 0.17326073 0.89551675
0.053640559 0.17292334 0.89664459
0.056626879 0.17174548 0.89804018
0.013254429 0.17550971 0.89850026
0.017417628 0.17692883 0.89721912
0.022397825 0.17938577 0.89560002
0.052765369 0.17712301 0.89714599
0.056047335 0.17570505 0.89950019
0.019108234 0.18208997 0.89797807
0.02218312 0.18228126 0.89657146
0.027410617 0.18328679 0.89566678
0.032405984 0.18486123 0.89522243
0.044105638 0.18491168 0.89546663
0.047879353 0.18330736 0.89576662
0.051599342 0.18175764 0.89798689
0.022469014 0.18636376 0.89845031
0.027439574 0.18681738 0.89661479
0.032432836 0.18751264 0.8959555
0.037025951 0.18791774 0.89590001
0.042452972 0.18765244 0.89582664
0.047726002 0.18706435 0.89680004
0.051039174 0.18583398 0.89993376
0.028333012 0.19137213 0.89842522
0.032501128 0.19124836 0.89784479
0.037735403 0.19188097 0.8978669
0.042334095 0.1918537 0.89774179
0.047603566 0.19137387 0.89843363
0.071204886 0.13231096 0.90025002
-0.0026750781 0.16861951 0.90187246
0.0023672997 0.16881117 0.90065861
0.059485417 0.16757326 0.90075588
0.061339628 0.16805124 0.90332222
-0.0018393067 0.17160565 0.90435004
0.0027932008 0.17169039 0.90258336
0.0070773214 0.17307258 0.90147352
0.059138194 0.1732305 0.90185851
0.061329078 0.17222163 0.90316665
0.0078561809 0.17660496 0.90410835
0.012224235 0.17835338 0.90200961
0.015804175 0.17926382 0.90056705
0.057620879 0.17791593 0.90222794
0.013611031 0.18211603 0.9036333
0.01683462 0.18253008 0.90180004
0.054078028 0.18324676 0.90161687
0.056888919 0.18218525 0.90397781
0.017956199 0.1865218 0.90326667
0.022530623 0.18939 0.9009226
0.052509654 0.1876231 0.90210009
0.01924702 0.19014212 0.90450001
0.022573875 0.19227071 0.9026444
0.026931509 0.19363911 0.90197355
0.032614235 0.1944273 0.90096706
0.035966977 0.19438413 0.90076703
0.044328921 0.19421868 0.90000027
0.047743365 0.19444887 0.90106696
0.052078675 0.19158895 0.90339172
0.028502436 0.19671988 0.90380001
0.032681245 0.19734991 0.90283328
0.037919201 0.19785228 0.90225011
0.042742331 0.19799335 0.90193719
0.047636494 0.19802159 0.90302497
0.042871755 0.20195709 0.90466666
0.065171897 0.16163632 0.90978342
-0.0018436686 0.17370625 0.90653348
0.0015360706 0.17351782 0.90555006
-0.0015655739 0.17640823 0.90886682
0.0023853902 0.17732354 0.90777802
0.00632837 0.17821656 0.90660018
0.05984496 0.17869949 0.90620017
0.061617289 0.1772518 0.90741134
0.0040845023 0.18176214 0.90886688
0.0074613011 0.18231143 0.9073928
0.011390286 0.18310057 0.90573341
0.059374258 0.18235433 0.90761137
0.06175461 0.18102887 0.90943342
0.0080392556 0.1871168 0.90887243
0.012530666 0.18725909 0.90682995
0.016460301 0.1881827 0.90586668
0.054768704 0.18879296 0.90610021
0.05723875 0.18710887 0.90774024
0.013119807 0.19212823 0.90858918
0.017385334 0.19244474 0.90642929
0.054411091 0.1928118 0.90716696
0.056674577 0.19205356 0.90956664
0.018114237 0.19742647 0.9081527
0.02267638 0.19736201 0.90674472
0.027303152 0.19844997 0.90594172
0.052332163 0.19758959 0.90778899
0.055004451 0.19637665 0.90999991
0.023412811 0.20226614 0.90908015
0.027776919 0.20261925 0.90763009
0.032811362 0.20235148 0.90642983
0.037616156 0.20269392 0.9058097
0.042931657 0.20392506 0.90593338
0.048253231 0.20276873 0.90614307
0.051576216 0.20301507 0.90940231
0.028258096 0.206843 0.9095
0.03313702 0.20745192 0.90872401
0.037932232 0.20767948 0.90760773
0.043013364 0.2076894 0.9076522
0.047581006 0.20736064 0.908678
0.03833944 0.21211025 0.90923339
0.042649552 0.2117826 0.90891683
0.046518642 0.21161164 0.90999991
0.067090362 0.14943729 0.91280019
0.066664182 0.15325341 0.91277528
0.071314491 0.15279052 0.91457587
0.066517964 0.15847696 0.91270572
0.066545777 0.16307347 0.91310018
-0.0021363993 0.17912968 0.91124439
0.063657701 0.17822428 0.91240007
0.065445282 0.17845927 0.91360015
-0.0018577131 0.18270028 0.91355848
0.0020555106 0.18283144 0.91167337
0.062290944 0.18362972 0.91228008
-0.0018591922 0.1862801 0.91445029
0.0023998376 0.18688771 0.91326201
0.006644655 0.18903534 0.91133332
0.058437254 0.18973057 0.91059995
0.062004134 0.18713363 0.91308337
0.0041099684 0.19055004 0.91453362
0.0075100944 0.19227546 0.91330022
0.011735417 0.19398952 0.91071659
0.0579562 0.1933974 0.91192228
0.060385391 0.19136968 0.91438359
0.0083723543 0.19562519 0.91440028
0.012954442 0.19733278 0.91285342
0.015973235 0.19811295 0.91019994
0.05692374 0.19756955 0.91355848
0.014329029 0.20055242 0.91360015
0.017715389 0.20230539 0.91256118
0.021956321 0.203583 0.91194999
0.053390265 0.20261706 0.91141665
0.0552563 0.20152763 0.91416693
0.019457679 0.20583092 0.91440034
0.02327772 0.20695961 0.91375023
0.027058434 0.20867224 0.91194999
0.049978774 0.20850064 0.91119999
0.052657407 0.20731479 0.9134419
0.028540103 0.21197559 0.91400027
0.032812994 0.21237247 0.91235834
0.036371596 0.21351536 0.9109
0.043990918 0.21339035 0.91036665
0.047930215 0.21265218 0.91264176
0.050558012 0.21211354 0.91398358
0.03393434 0.21591854 0.91390014
0.038510554 0.21645097 0.91327345
0.042911943 0.21631677 0.91270673
0.069033921 0.14910936 0.91600001
0.071584322 0.1490837 0.91584665
0.068966083 0.15321846 0.91510028
0.072406679 0.15497892 0.91544449
0.068448171 0.15730663 0.91577792
0.071369804 0.15747195 0.91674042
0.069123097 0.16295199 0.91718328
0.070788607 0.1611428 0.91660011
0.068046801 0.16623348 0.91803342
0.065760478 0.1741958 0.9180001
0.065760486 0.17675605 0.9180001
0.066163883 0.18223888 0.91764998
-0.0018636438 0.18918273 0.91615033
0.00069955125 0.18906914 0.91560018
0.063918166 0.18917927 0.91613358
0.065829739 0.18805438 0.91896653
-0.0010092041 0.19269627 0.91664457
0.0021950379 0.19288898 0.91655004
0.005819187 0.19407263 0.91510034
0.062583692 0.19285727 0.91741675
0.0027562114 0.19711179 0.91815317
0.007295046 0.19833234 0.91679996
0.01093941 0.198332 0.91511703
0.058788083 0.19853875 0.91606688
0.061291229 0.19770356 0.91772664
0.0041322894 0.20099251 0.91949999
0.0078944666 0.20227078 0.91831321
0.012669592 0.20268691 0.91684443
0.016059224 0.20428616 0.91510034
0.057510525 0.202768 0.91747332
0.061586302 0.20101058 0.91958326
0.013043885 0.2065517 0.91911995
0.017796656 0.20778002 0.91674447
0.022032488 0.20854197 0.9151004
0.053660706 0.20960662 0.91603333
0.056964587 0.20681863 0.91878873
0.017834259 0.21191096 0.91863316
0.023165945 0.21265428 0.91657627
0.026865209 0.21390904 0.91500038
0.052813977 0.21304123 0.91615003
0.055540372 0.21196473 0.91886657
0.069581561 0.16832539 0.92326677
0.071196645 0.16721728 0.92188346
0.068773262 0.17189032 0.92396665
0.068461753 0.1778409 0.92363882
0.069136508 0.18245435 0.9230628
0.072279572 0.18235514 0.92473787
0.067918465 0.18738052 0.92406666
0.066626482 0.19211783 0.92206669
0.06421122 0.19689505 0.92033339
0.066042259 0.19637981 0.92193353
0.0029949795 0.2022454 0.92131108
0.0058505586 0.20367607 0.9200334
0.062614657 0.20284545 0.92209172
0.0041531119 0.20630282 0.92413324
0.007836408 0.20729068 0.92305714
0.011593842 0.20867532 0.92195565
0.059123941 0.20824161 0.92130005
0.060997739 0.2079155 0.92365557
0.012962784 0.2126085 0.92258757
0.016157506 0.21409972 0.92070001
0.072430007 0.17238922 0.92664987
0.075130485 0.1743671 0.92800003
0.06972222 0.1755494 0.92513311
0.072126962 0.17637479 0.92645931
0.071504265 0.18430002 0.92586648
0.068939447 0.18695025 0.92619991
0.064546093 0.20308417 0.92513341
0.0033025076 0.20797141 0.92774999
0.0076081031 0.2099603 0.92509973
0.063515387 0.20691244 0.92686671
0.0012907078 0.20815861 0.93245572
