# .PCD v0.7 - Point Cloud Data file format
VERSION 0.7
FIELDS x y z
SIZE 4 4 4
TYPE F F F
COUNT 1 1 1
WIDTH 1003
HEIGHT 1
VIEWPOINT 0 0 0 1 0 0 0
POINTS 1003
DATA ascii
0.022164056 0.058311477 0.82473344
0.029858783 0.058319423 0.8248446
0.034463599 0.058302302 0.82460016
0.039083589 0.056777332 0.8247335
0.013311277 0.053370763 0.82901353
0.017621746 0.053159356 0.8281334
0.02225741 0.053163618 0.82820016
0.027178798 0.053586245 0.82758653
0.033574715 0.052890927 0.82795566
0.037660584 0.052334998 0.82728142
0.042135719 0.052574903 0.82801676
0.047025234 0.053996999 0.82915592
0.0099107549 0.057075534 0.82906705
0.01298263 0.056990054 0.8278296
0.017722232 0.057443276 0.82629681
0.02218622 0.05753069 0.82555765
0.027040256 0.057419278 0.82549751
0.032442998 0.057331629 0.82536304
0.037427731 0.057648029 0.82522434
0.042267807 0.056920767 0.82681483
0.046787538 0.056620721 0.82885748
0.050164845 0.055591464 0.8299334
0.0099107558 0.060160108 0.82906699
0.013335006 0.061822638 0.82837057
0.017452156 0.062811993 0.82741988
0.022208957 0.063042909 0.82641476
0.027560703 0.062944993 0.82513899
0.032959919 0.062969998 0.82545942
0.037626583 0.063050278 0.82651103
0.042026401 0.062096722 0.82814676
0.045488436 0.060179453 0.82933354
0.014564625 0.0663983 0.82993329
0.017829183 0.067657694 0.82880861
0.022232097 0.067725576 0.8272813
0.027623439 0.067702509 0.82700533
0.033028003 0.067715064 0.82715535
0.037694223 0.067784511 0.82799262
0.041372951 0.066878982 0.82951123
0.019186532 0.070949942 0.82900035
0.022467196 0.072285011 0.8288337
0.027661303 0.072418079 0.82814455
0.032903858 0.072289929 0.82889193
0.036974221 0.070964202 0.82916695
0.023058936 0.075600594 0.82926691
0.026926884 0.075602613 0.8292892
0.030009206 0.075576283 0.82900035
0.016210824 0.049717795 0.83499974
0.023997249 0.049717795 0.83499974
0.027111826 0.049717795 0.83499974
0.032542221 0.049689017 0.83451647
0.037910007 0.048809219 0.83276659
0.042052727 0.048550364 0.83276659
0.047308434 0.049667511 0.83415556
0.051971089 0.049663544 0.8340888
0.057595789 0.048314955 0.83222783
0.0093306843 0.052977454 0.83254659
0.012649518 0.051427253 0.83124989
0.01768256 0.051024109 0.83097768
0.022354579 0.051073235 0.83177775
0.027319804 0.051696397 0.83186674
0.031353809 0.05169595 0.83185339
0.043977045 0.050964065 0.83000004
0.047118094 0.05178519 0.83078885
0.052369941 0.052738007 0.8314181
0.05782624 0.052560367 0.83326662
0.061372124 0.052047707 0.8349998
0.0076289778 0.057366371 0.83329993
0.047854498 0.058693293 0.83013332
0.052573286 0.057228543 0.83128661
0.057414938 0.056903034 0.83406663
0.0086625759 0.062003653 0.83312219
0.012258084 0.064162329 0.83096659
0.044028264 0.064162396 0.83096659
0.047384661 0.062119905 0.83206671
0.051777422 0.061883677 0.83409154
0.0094604632 0.065754198 0.83482194
0.012856079 0.067732804 0.83210003
0.016131869 0.069569722 0.83093321
0.043080032 0.068674959 0.83257776
0.047028258 0.065847725 0.83469313
0.014020096 0.072654322 0.83439982
0.017500289 0.072911195 0.83157492
0.020769309 0.074165143 0.83046657
0.034725502 0.074200876 0.83086658
0.038106464 0.073213123 0.83217144
0.041679017 0.072582759 0.83357322
0.014653536 0.076123245 0.83499974
0.01826038 0.077047966 0.83378881
0.022149161 0.077883705 0.83245713
0.027022518 0.078195028 0.8322444
0.03238171 0.077278361 0.83255553
0.037983704 0.076062471 0.83433318
0.041127395 0.076123245 0.83499974
0.023214962 0.080770135 0.8348664
0.027110465 0.08077874 0.83495528
0.030226398 0.080783039 0.83499974
0.055435415 0.043735504 0.83942854
0.012884412 0.049386535 0.83817786
0.018123681 0.048906174 0.83708
0.022497764 0.04854485 0.83712214
0.027207324 0.04755415 0.83794451
0.032323372 0.047638811 0.83747619
0.037882134 0.046250939 0.83786672
0.043317918 0.046213761 0.83721107
0.047506511 0.047203001 0.83764756
0.052402917 0.047191028 0.83743805
0.056013811 0.04591069 0.83639115
0.0037706657 0.053859767 0.83903354
0.0064350734 0.052716009 0.83681899
0.062623419 0.053282887 0.83610839
0.0037707158 0.057762433 0.83904463
0.00532198 0.057615567 0.83691102
0.058708318 0.058710247 0.83586663
0.062280864 0.05760463 0.83674735
0.0037720145 0.060905084 0.83933347
0.0059463792 0.062604703 0.83700001
0.053637009 0.063758165 0.83579981
0.057389818 0.062136129 0.83678782
0.062038865 0.06259115 0.83800012
0.0076675601 0.067007259 0.83755565
0.047814123 0.068065226 0.83618325
0.052156772 0.066968359 0.83705181
0.056957714 0.067107216 0.83878541
0.062369227 0.066611916 0.83910418
0.008465426 0.070250697 0.83906686
0.011186454 0.072485656 0.8378334
0.043903511 0.073490784 0.83596647
0.047467854 0.072409891 0.83696103
0.052114692 0.072344154 0.83865458
0.055429146 0.070273019 0.83933342
0.013525678 0.077524975 0.83756661
0.016750738 0.078810953 0.83604431
0.034165338 0.079334155 0.8360998
0.038097546 0.078626856 0.83684438
0.043023307 0.078132205 0.83779174
0.047251929 0.077081934 0.8386668
0.050712865 0.076487914 0.83900017
0.014710285 0.081876203 0.83823347
0.017821431 0.082589537 0.83755559
0.022244019 0.082880937 0.83600944
0.027157307 0.083250411 0.83637768
0.032389522 0.082556687 0.83722967
0.036892913 0.082475305 0.83904463
0.042127237 0.081208706 0.83939999
0.018902067 0.086399771 0.83926678
0.02251289 0.087282479 0.83774078
0.027187802 0.087238915 0.83732581
0.031731568 0.087192349 0.83875006
0.035073776 0.085872605 0.83920014
0.023594931 0.09107136 0.83915567
0.026927507 0.091154255 0.83896029
0.030383257 0.090570182 0.83933347
0.027809033 0.043599825 0.84436667
0.032088201 0.043921586 0.84300023
0.037285116 0.043285642 0.84372389
0.043070614 0.043504834 0.84253329
0.04752909 0.043324374 0.84360009
0.052560713 0.04282891 0.84356362
0.0025337941 0.048067369 0.84421331
0.0069343811 0.047070332 0.84325194
0.012122466 0.046745025 0.84305334
0.017616974 0.046413489 0.84271985
0.022336725 0.046107523 0.84285337
0.027326515 0.045415368 0.84162217
0.032014772 0.045385387 0.84106636
0.035930529 0.045378193 0.84093308
0.047673762 0.045360211 0.84059989
0.051650137 0.045410573 0.84153324
-0.00092875934 0.053366125 0.84357792
0.0018990468 0.052179974 0.84216672
0.0069170562 0.050082996 0.84113312
-0.00093008089 0.058157284 0.84477764
0.0014286259 0.058016311 0.84272224
0.0022135281 0.062725566 0.84282857
0.00300337 0.067486502 0.84352225
0.0058680489 0.068297885 0.8406443
0.062820531 0.068806298 0.84048873
0.06651853 0.068848133 0.84100002
0.0037974806 0.070747465 0.84499991
0.0067331446 0.072325334 0.84277511
0.057339571 0.072217628 0.84151649
0.061972704 0.072163865 0.84316307
0.06556882 0.071835324 0.84391671
0.0074649719 0.076419003 0.84397793
0.011233527 0.078268029 0.84134996
0.048085377 0.079402119 0.8409332
0.053004067 0.07730709 0.84224439
0.057103306 0.076732785 0.8438251
0.062107094 0.076091796 0.84499991
0.065258972 0.076248989 0.84499991
0.012168998 0.083104938 0.84279275
0.038583376 0.083518058 0.84063977
0.043283395 0.083504401 0.84229517
0.047618303 0.082734339 0.84357148
0.052311279 0.080768131 0.84458667
0.05580334 0.080178641 0.84499991
0.013684051 0.087695129 0.84385729
0.017383507 0.088200055 0.84154439
0.033561904 0.089136139 0.84053326
0.03776022 0.087863855 0.84195751
0.041957878 0.08752799 0.84386677
0.014829034 0.091181673 0.84499991
0.018140428 0.092371702 0.84330016
0.022092612 0.092897929 0.84155554
0.027697042 0.09348236 0.84094977
0.032240059 0.092601903 0.84182501
0.036826327 0.092586197 0.8434667
0.040562991 0.091691226 0.84486657
0.018768873 0.09589722 0.84499991
0.0226856 0.096587203 0.84415561
0.027398501 0.097335421 0.84382969
0.032128919 0.097361661 0.84405935
0.036242701 0.096788846 0.84454668
0.032952301 0.10061287 0.84499991
0.04413148 0.039442014 0.84783357
0.048105013 0.039458036 0.84817809
0.051982906 0.038612854 0.84695137
0.0022315478 0.044233013 0.84897804
0.007195876 0.043031551 0.84756196
0.01249531 0.043340296 0.84697503
0.018050933 0.043406218 0.8482669
0.022787115 0.043388378 0.84792238
0.027226072 0.041670382 0.8482669
0.032244328 0.041770622 0.84711128
0.03698232 0.040982027 0.8470667
0.042356659 0.041615766 0.84623808
0.048367381 0.041317046 0.84586662
0.05111989 0.040917538 0.84573328
-0.0013308171 0.047778375 0.84885019
0.0018304599 0.046068206 0.84643328
0.019558381 0.045601256 0.84506661
-0.0027751408 0.051988542 0.84670001
-0.003038089 0.056986243 0.84681273
-0.0017252333 0.06308002 0.84757346
0.00064581411 0.064480357 0.84526658
-0.00093336432 0.067824833 0.84776044
0.0006466122 0.067708969 0.84631115
-0.00093384855 0.071015373 0.84820038
0.0022265429 0.072515301 0.84728587
0.003285272 0.076305054 0.84853345
0.0059162569 0.078323603 0.84760004
0.058983125 0.07864397 0.84539986
0.06220882 0.07834246 0.84638333
0.065373145 0.078744277 0.84647834
0.0077544358 0.081943013 0.84697789
0.010106804 0.084941082 0.84546655
0.047927462 0.084900893 0.84506649
0.05312708 0.083055183 0.84628332
0.057701323 0.082125083 0.84683341
0.062346831 0.082067057 0.84825957
0.065439366 0.081977159 0.84733582
0.008562508 0.086844683 0.84868914
0.010907974 0.088195659 0.84651673
0.044210561 0.088488981 0.84630662
0.048046701 0.087740324 0.84717786
0.052824348 0.086749703 0.84776312
0.057074118 0.086275101 0.84826684
0.060827263 0.085309483 0.84913367
0.012498593 0.092705034 0.84743345
0.016423082 0.09442959 0.84593326
0.042626698 0.093206227 0.8470763
0.04748961 0.092325769 0.84932411
0.052507959 0.090434194 0.84905034
0.014104583 0.097124122 0.84885025
0.017804671 0.098196767 0.84740013
0.022736257 0.099165998 0.84606665
0.03771545 0.098346233 0.84578323
0.041749772 0.097770512 0.84760755
0.045026135 0.096441962 0.84979999
0.019117111 0.10159173 0.84880036
0.022986263 0.10234939 0.84798354
0.027507793 0.1024524 0.84720016
0.031987324 0.10278972 0.84627622
0.03698599 0.10244406 0.84713346
0.041474853 0.10165708 0.84846687
0.02361973 0.10588107 0.8494336
0.027573684 0.10585476 0.84922248
0.032304395 0.1061825 0.84868366
0.037099157 0.10591844 0.84973353
0.0070238016 0.039732501 0.85407788
0.012599885 0.039736636 0.85416675
0.018175213 0.039735083 0.85413337
0.022957802 0.039742321 0.854289
0.028040189 0.039083913 0.8538
0.03246009 0.03887802 0.85278338
0.037190903 0.038835362 0.85184449
0.041648768 0.038686156 0.85204661
0.047202371 0.037383992 0.8523187
-0.0017361244 0.042880815 0.85351676
0.002239832 0.042015951 0.85207772
0.006205135 0.041172344 0.85099989
0.012550727 0.041161053 0.8507666
0.018112833 0.041182023 0.85119987
0.022869954 0.041172344 0.85099989
-0.0025240562 0.046712931 0.85099989
-0.0041111838 0.050670497 0.85099989
-0.0041111824 0.058585607 0.85100001
-0.0041111824 0.061751653 0.85100001
-0.0029192476 0.067644894 0.85046363
-0.0018930115 0.073272966 0.85242337
0.00064968527 0.074357547 0.85033333
0.0022416927 0.077771202 0.85308892
0.0038388269 0.081846252 0.85420007
0.0054189898 0.082445696 0.85216665
0.0063773603 0.086964145 0.85296667
0.058832526 0.088117085 0.85082215
0.062859051 0.087436147 0.852525
0.065834977 0.087231278 0.8524583
0.0079682935 0.091723338 0.85295331
0.010172951 0.094203666 0.85099989
0.048250139 0.093912989 0.85075551
0.053247932 0.093404949 0.85093319
0.057887547 0.091986999 0.85245556
0.061175857 0.091358542 0.85400003
0.0086187804 0.096949361 0.85426682
0.01203297 0.098242156 0.85170537
0.047429811 0.097201608 0.85183704
0.052784484 0.097460672 0.85352087
0.056928616 0.095859565 0.85400003
0.01361598 0.10232861 0.85369062
0.017587351 0.1034886 0.85141104
0.021271158 0.10443602 0.85053331
0.042299025 0.10406397 0.85072494
0.046599228 0.10198392 0.8531875
0.051302634 0.10073445 0.85402668
0.018363202 0.10779682 0.85365009
0.022641525 0.10810453 0.85094273
0.027629904 0.10844525 0.85095543
0.032382023 0.10857363 0.85071993
0.03715409 0.10845087 0.85099989
0.041807495 0.10769144 0.8528167
0.045291048 0.10654996 0.85480034
0.01977131 0.11125081 0.85426676
0.023111081 0.11242185 0.85259163
0.027478026 0.11225604 0.85327142
0.032251418 0.11225411 0.85325241
0.037680015 0.11160373 0.85392505
0.040470492 0.11121608 0.85400003
0.018697334 0.033202514 0.85983348
0.042330604 0.033587225 0.85944456
0.046430014 0.032579657 0.85820007
-0.0024013345 0.037603304 0.85825461
0.0020258049 0.038748592 0.85745949
0.0070658117 0.038368575 0.85911196
0.012390032 0.037254684 0.85802227
0.017439121 0.036683824 0.8571167
0.022842029 0.036895182 0.85740834
0.027435619 0.037088402 0.85724998
0.032982353 0.036085919 0.85806686
0.037419748 0.03588568 0.85708904
0.042191762 0.035865977 0.85661125
0.046977561 0.035064965 0.856489
-0.0068252333 0.043188855 0.8596223
-0.0041447836 0.043104742 0.85795546
-0.0068954327 0.047939193 0.85879046
-0.0041360897 0.047791976 0.85615587
-0.006285517 0.051671416 0.85886806
-0.00094327622 0.077311322 0.85676324
0.001188111 0.07926023 0.85773355
0.0022551282 0.08304213 0.85836011
0.0038487136 0.087632768 0.85640019
0.0054378551 0.089093722 0.85513365
0.0038621956 0.091136895 0.85940003
0.0058505032 0.092904896 0.85726678
0.063350968 0.092565253 0.85571462
0.06609989 0.092356741 0.85588914
0.0066484963 0.096878618 0.85716677
0.058657747 0.097675778 0.85598916
0.062824294 0.096899919 0.85784763
0.066891991 0.096979253 0.85922217
0.0082592843 0.1018007 0.85831678
0.010640553 0.10240756 0.85671675
0.048539959 0.10349879 0.85586703
0.053324427 0.1025812 0.85580027
0.058230486 0.10210463 0.85751861
0.061534047 0.10148091 0.85899997
0.012387905 0.10640765 0.85792226
0.015562023 0.10834803 0.85644466
0.043710474 0.10976443 0.85506684
0.047167722 0.10733484 0.85630018
0.051686868 0.10680364 0.85842502
0.056351013 0.1059185 0.85935009
0.013483126 0.11115474 0.85966682
0.017283831 0.1127748 0.85739338
0.02140788 0.11466121 0.8560003
0.028566331 0.1145585 0.85523355
0.033386692 0.11467907 0.8561337
0.037063058 0.11405659 0.85624027
0.042410105 0.11339778 0.85697508
0.046838943 0.11184296 0.85881114
0.018274132 0.11663409 0.85880005
0.023019008 0.11792544 0.85657048
0.027826859 0.11798748 0.85702229
0.032640141 0.11804935 0.85747409
0.037452519 0.11810035 0.85784441
0.042105954 0.11804945 0.85892498
0.046057474 0.1156196 0.85917789
0.02339484 0.12204286 0.85864002
0.027876511 0.12219078 0.85855561
0.032297749 0.12185678 0.85901666
0.037536263 0.12156152 0.85975569
0.029522894 0.12797524 0.8598668
0.019929456 0.028846502 0.86110002
0.033215836 0.028305903 0.86416018
0.037328154 0.028548935 0.86422515
0.041673973 0.028891174 0.86243331
0.0087246373 0.03379491 0.86475873
0.012311847 0.033283327 0.86191618
0.016900616 0.031416215 0.86019325
0.022962056 0.032277647 0.86185843
0.028015539 0.033076733 0.86283338
0.0328595 0.032129567 0.86327416
0.03761781 0.032068152 0.86162972
0.04240543 0.03124406 0.86096674
-0.01180481 0.038108326 0.86225736
-0.0071397093 0.037295241 0.86067623
-0.0041549825 0.036811341 0.86006677
0.0030718748 0.036108922 0.86240745
0.0074212984 0.036308147 0.86332417
0.010827876 0.035785478 0.86104774
0.024715727 0.035208706 0.86000019
0.027923556 0.035208706 0.86000019
0.031131383 0.035208706 0.86000019
-0.01220367 0.042508278 0.86202931
-0.0078989631 0.041617062 0.86018896
-0.012014368 0.047964767 0.86283797
-0.0089705633 0.04802978 0.86039996
-0.010611276 0.051404841 0.8633334
-0.0077896724 0.052991804 0.86300683
-0.00094999769 0.081873804 0.86286831
0.00065760571 0.084070265 0.86069995
-0.00095069321 0.085146569 0.86350024
0.0016214208 0.087871857 0.86187345
0.0030720138 0.093099102 0.8627668
0.0054721944 0.098460972 0.86053336
0.064011529 0.099199317 0.86000019
0.067486696 0.098132826 0.86000013
0.0061231996 0.10294865 0.86192
0.063708194 0.10269289 0.86054295
0.067257158 0.10245725 0.86048275
0.0078977523 0.1075265 0.8626278
0.010815972 0.10827309 0.86006671
0.05360274 0.10883169 0.8602668
0.057211298 0.10834129 0.86145335
0.062333681 0.10730211 0.86199993
0.067278273 0.1072473 0.86222857
0.0087099206 0.11162497 0.86330009
0.011442739 0.11239915 0.86132383
0.048798971 0.1128545 0.86043346
0.052084975 0.11221899 0.86169636
0.056992967 0.11238958 0.86300379
0.062123809 0.11206174 0.86401922
0.06622941 0.11151475 0.8645255
0.012126458 0.11701113 0.86305428
0.016930321 0.11820732 0.86028588
0.047770988 0.11749109 0.86117786
0.052181479 0.11724341 0.86328161
0.055988137 0.11627763 0.8640669
0.013551089 0.12055444 0.8640002
0.017454255 0.12210115 0.86231112
0.022716295 0.12442712 0.86021674
0.027923556 0.12479562 0.86000019
0.033056602 0.12415767 0.86001348
0.037554193 0.12401993 0.86016679
0.042389654 0.12248405 0.8606168
0.047330931 0.12200783 0.86290377
0.051165361 0.12112787 0.86426687
0.019574095 0.12645726 0.86315012
0.023340095 0.12795177 0.86105001
0.02774217 0.1280842 0.86059171
0.03276287 0.12810318 0.86071861
0.037822317 0.12804867 0.86170006
0.042689115 0.12697932 0.86260426
0.045764375 0.12533732 0.86373359
0.023199255 0.13169172 0.86325347
0.028340409 0.13228232 0.86291343
0.032445248 0.13204809 0.86295843
0.037304062 0.13135016 0.86365014
0.041475791 0.13071507 0.86387795
0.02332609 0.029075785 0.86794442
0.028195504 0.02868644 0.86839914
0.03137029 0.027418707 0.8666001
0.038602211 0.027389966 0.86569172
0.041015483 0.027383899 0.86550003
0.024914028 0.030653397 0.86690015
0.028126739 0.031033749 0.86627513
0.0055012791 0.035417803 0.86510724
-0.011456165 0.052389089 0.86633337
-0.0082377028 0.054892644 0.86769402
-0.010687069 0.055006891 0.86950016
-0.0090643987 0.056617819 0.86940002
-0.0025726298 0.082301646 0.86737657
-0.0017652013 0.086424567 0.8682667
0.00066411699 0.092179738 0.86922222
0.0033570903 0.096815109 0.86732227
0.0038960159 0.10241739 0.86692572
0.0055182059 0.10816724 0.867769
0.0076702759 0.11292578 0.86712223
0.061192669 0.11432371 0.86550015
0.065828331 0.11389527 0.86632234
0.0087656332 0.11799514 0.8688221
0.010350666 0.1192042 0.86586678
0.057801794 0.11829893 0.86709452
0.06196304 0.11745263 0.86821908
0.06627053 0.11715625 0.86859047
0.011997391 0.12276232 0.86824763
0.015213352 0.12418429 0.86690015
0.052924048 0.12307643 0.86666685
0.057153802 0.12259652 0.86849999
0.060680859 0.12135442 0.86973345
0.013636836 0.12778725 0.8694666
0.016635206 0.12767962 0.86736262
0.047780596 0.12768868 0.86742085
0.052511182 0.12687288 0.86874437
0.055767622 0.12610155 0.8689999
0.017840412 0.13222437 0.86886662
0.021038301 0.13292317 0.86709344
0.026491018 0.13365917 0.86560017
0.0337792 0.13375181 0.86620009
0.037852641 0.13387536 0.86700016
0.043241072 0.13279492 0.86696124
0.046038717 0.13255514 0.86891109
0.023159303 0.13697895 0.8684963
0.028167916 0.13718785 0.86754078
0.033035304 0.13724031 0.86787409
0.037930746 0.13738354 0.86878514
0.042803612 0.13742191 0.86902958
0.046085816 0.13592564 0.86980027
0.024985885 0.14071491 0.86939996
0.028426541 0.14210591 0.86925
0.032880321 0.14208663 0.86913329
0.036872573 0.14123984 0.86931109
-0.012317955 0.053429604 0.87015402
-0.011247047 0.056724291 0.87102222
-0.0090810806 0.058342244 0.87100005
-0.0058567808 0.079739474 0.87466669
-0.0042182696 0.079602741 0.87316674
-0.0074867057 0.081347927 0.87446666
-0.0042190156 0.082867526 0.87332106
-0.0020462011 0.088736713 0.87247783
-0.0015041729 0.091478191 0.87282211
0.0071678408 0.11755756 0.87156677
0.063179366 0.11986046 0.87063348
0.067259051 0.11989657 0.87089586
0.0081499163 0.12302855 0.87242669
0.010404064 0.12467608 0.87033343
0.05912219 0.12472384 0.87066686
0.062608391 0.12337661 0.87115854
0.067337118 0.12246752 0.87189692
0.070587769 0.12246692 0.87188882
0.0088067725 0.12747997 0.87289989
0.011229556 0.12807798 0.87144452
0.052633967 0.12959917 0.87077802
0.057761502 0.12829877 0.87156677
0.062297437 0.12782699 0.87289506
0.067254037 0.12654734 0.87346661
0.070740692 0.12679577 0.87377769
0.008824259 0.13017303 0.87463319
0.012597203 0.13254724 0.87241107
0.01568966 0.13326296 0.87090021
0.048573818 0.13283929 0.87077802
0.052703023 0.13301414 0.8719185
0.057355732 0.1322681 0.87342644
0.063467249 0.13016805 0.87459999
0.066744581 0.13019781 0.87479997
0.070809953 0.13017301 0.87463337
0.013705844 0.13656117 0.87386644
0.01693075 0.13791782 0.872163
0.020697964 0.1387995 0.87091136
0.048045825 0.1381316 0.87223321
0.052275643 0.13764013 0.87383318
0.017495008 0.14242052 0.87324435
0.021791743 0.14265694 0.87137783
0.025563717 0.14361964 0.8706668
0.034762446 0.14414813 0.87060016
0.038567256 0.14312875 0.87096691
0.042914823 0.14264075 0.87128168
0.046923768 0.14264748 0.87330663
0.022938831 0.14684182 0.87377769
0.027607657 0.14718395 0.87258887
0.032864057 0.14777945 0.87195003
0.038090121 0.14769657 0.87241852
0.042698223 0.14690208 0.87349319
0.033284053 0.1512873 0.87442213
-0.0083155176 0.079847358 0.87585008
-0.0071743205 0.083137736 0.87618035
-0.006705361 0.085858956 0.87901354
-0.0042432854 0.087428033 0.87834489
-0.0017855996 0.093834952 0.87716663
-0.00096750149 0.09646 0.8787666
0.005586022 0.11439801 0.87843341
0.0055955597 0.11704873 0.87993312
0.069228843 0.12863909 0.87526673
0.0088575566 0.13229726 0.8779335
0.010464627 0.13354397 0.87539995
0.059416417 0.13348293 0.87500006
0.062824368 0.13297291 0.87700015
0.06795086 0.13259928 0.87683821
0.070955612 0.1328865 0.87643278
0.011851728 0.13713033 0.87751108
0.054520752 0.13836595 0.87500006
0.05797445 0.13718502 0.8778519
0.063036636 0.13731113 0.87997466
0.067891903 0.13738088 0.8791073
0.070970073 0.13699089 0.87661117
0.012956011 0.14216451 0.87834996
0.016188677 0.14421889 0.8759501
0.049653478 0.142517 0.87550008
0.053272929 0.14230481 0.87795424
0.05789781 0.14219658 0.87981641
0.061397173 0.14079358 0.87999976
0.069597937 0.14078289 0.87993312
0.071163461 0.14063358 0.87900007
0.013798383 0.14648435 0.8797664
0.016807197 0.14744723 0.87784296
0.020799318 0.14761949 0.87517786
0.025984503 0.14988799 0.87575006
0.043174751 0.1492092 0.87655014
0.048176263 0.14706087 0.87831908
0.053191107 0.14570448 0.87999982
0.017617358 0.15159032 0.87932205
0.021961557 0.15193512 0.87815928
0.02685014 0.15261245 0.8773613
0.03226376 0.15323192 0.876239
0.038297061 0.15257686 0.87715578
0.043501273 0.152288 0.87902075
0.046587393 0.15048987 0.8792665
0.022007801 0.15634279 0.87998861
0.026896875 0.15696546 0.87888885
0.031573609 0.15698737 0.87787104
0.036706731 0.15685211 0.87825567
0.041492119 0.15693797 0.87988305
0.027743671 0.16038854 0.87973309
0.032367691 0.1613542 0.87904435
0.036212172 0.1614393 0.87951094
0.040061425 0.16043715 0.87999976
-0.007550694 0.087387785 0.88205004
-0.0059147738 0.091210231 0.8833276
-0.0042627677 0.091934659 0.88237768
-0.0020705701 0.096908845 0.88286656
-0.00097218284 0.10103467 0.88301855
0.00067461439 0.10349039 0.88296139
0.0023137813 0.10970154 0.88008326
0.0025923802 0.11297733 0.88223338
0.0031460351 0.11753574 0.88359177
0.0056089154 0.11978912 0.88203329
0.0039766454 0.12017393 0.88486677
0.005617606 0.12161805 0.88340008
0.0088881608 0.13439319 0.88096684
0.0089207795 0.13653114 0.8842001
0.010521214 0.13917769 0.88013303
0.063062236 0.13920932 0.88033319
0.010539276 0.14269698 0.88164443
0.059810266 0.14419846 0.88079989
0.063163444 0.1427128 0.88174289
0.067628741 0.14325099 0.88279998
0.012181289 0.14759943 0.88153994
0.049988084 0.14921543 0.88139987
0.053295746 0.1484502 0.88172221
0.057772316 0.14743145 0.88192856
0.061671775 0.14690425 0.88393348
0.013852227 0.15198554 0.88320005
0.016005849 0.153497 0.88087767
0.047701821 0.15286872 0.88166678
0.051316336 0.15154396 0.88302511
0.017680502 0.15705879 0.88247222
0.022044586 0.15906888 0.88148886
0.043409519 0.15904078 0.88133323
0.045747172 0.1571987 0.88203335
0.022508208 0.16149588 0.88355005
0.026742717 0.16282499 0.88152856
0.030765833 0.16319022 0.88013309
0.037929676 0.16340904 0.88131112
0.041829325 0.16256569 0.88266188
0.045220196 0.16127588 0.88460022
0.027024686 0.16592847 0.88308901
0.0319588 0.16670932 0.88286668
0.036597244 0.1666666 0.88351333
-0.00924695 0.089104682 0.88690913
-0.008075716 0.092742443 0.88788748
-0.010902164 0.097363763 0.88700002
-0.0073738983 0.097098537 0.88888454
-0.0038695582 0.097715862 0.88644987
-0.009264579 0.10249829 0.88860005
-0.0029652647 0.10211742 0.88815367
0.00067786081 0.10728687 0.88721085
-0.00097883248 0.112474 0.88905841
0.00067720469 0.11295642 0.88635176
-0.0018074232 0.11734655 0.88838261
0.00067715935 0.117071 0.88629246
-0.0015320178 0.12131423 0.88920146
0.0023339635 0.12225975 0.88805705
0.0056296885 0.12352644 0.8853001
0.0031675545 0.12576476 0.88948327
0.0056429002 0.12711948 0.88737768
0.0068854368 0.13170049 0.88766658
0.007710705 0.13743474 0.88738322
0.008551931 0.14177972 0.88874161
0.0089718988 0.14558458 0.88926673
0.010596524 0.14841859 0.88643324
0.061817992 0.14889902 0.88602215
0.066862412 0.14771897 0.88717765
0.070267633 0.14792214 0.8883999
0.012258996 0.1526792 0.88725013
0.051842801 0.15394057 0.88500017
0.056854755 0.15245567 0.88593334
0.062174793 0.15222225 0.88817483
0.06700483 0.15216862 0.88907409
0.071144074 0.15215576 0.88900006
0.013101818 0.15698317 0.88824993
0.016362302 0.15893909 0.88533342
0.048030499 0.15818308 0.88571101
0.052241154 0.15736894 0.88775218
0.056809332 0.15662982 0.88891423
0.061704598 0.15615293 0.88915998
0.068723999 0.15561478 0.88986677
0.013933265 0.1611369 0.88836658
0.016990012 0.16225173 0.88736182
0.022148067 0.16393229 0.88561666
0.043665633 0.16492656 0.88653314
0.047586694 0.16238965 0.88768882
0.051751167 0.16110271 0.88909328
0.017728588 0.1667693 0.88881904
0.022180326 0.16747135 0.88690805
0.027115911 0.16895272 0.88602215
0.032059819 0.16970362 0.88564444
0.03746542 0.1694583 0.88651651
0.042032901 0.16747846 0.88694429
0.046087444 0.16663156 0.8885867
0.018920021 0.17037214 0.88913333
0.022225717 0.17194556 0.88871425
0.027175844 0.17262936 0.8879776
0.032110333 0.1724471 0.88704419
0.037095737 0.17254896 0.88756639
0.04155238 0.17134891 0.88847762
0.045462165 0.17041044 0.88933343
0.023905503 0.17541291 0.88953334
0.027210765 0.17615892 0.88912225
0.032178916 0.1769499 0.88894069
0.037151523 0.17694391 0.88891101
0.040483262 0.17701502 0.88926667
-0.010963619 0.094594009 0.89200002
-0.010948869 0.096123815 0.89080012
-0.0084548462 0.099416807 0.89061081
-0.0070764762 0.10225173 0.89124852
-0.0034739834 0.10445459 0.89118791
-0.0059876232 0.10647185 0.89420712
-0.0026475789 0.10788386 0.89212811
-0.0034826261 0.11297817 0.89304614
-0.0059771971 0.11791155 0.89265007
-0.0043064239 0.11774675 0.89141423
0.00068070315 0.1243121 0.89093125
0.0026787093 0.12818387 0.89249784
0.0040188883 0.13226372 0.89426684
0.0056721875 0.13358563 0.89198351
0.0040124478 0.13786311 0.89283353
0.0056707393 0.13769756 0.89175576
0.0040158182 0.1421365 0.89358342
0.0063408241 0.1431371 0.8925668
0.0076726279 0.14745545 0.89258021
0.0090263812 0.15229365 0.89466685
0.010646332 0.15325847 0.89060014
0.070995331 0.15298182 0.89060014
0.011081206 0.1580992 0.89220858
0.058010321 0.15912776 0.89100021
0.062578849 0.15871048 0.89098358
0.066935301 0.15766151 0.89090854
0.071313478 0.15749119 0.8911168
0.0090294071 0.16316585 0.89496678
0.012054787 0.16271816 0.89251131
0.052602015 0.16366126 0.89086688
0.057231121 0.16258833 0.89179283
0.062013723 0.16219552 0.89223832
0.067301549 0.16197975 0.89301139
0.071529046 0.16212359 0.89380854
0.014012728 0.16704169 0.89343363
0.015627518 0.16814934 0.89050013
0.048442036 0.16778241 0.89075017
0.052274957 0.16767184 0.8923595
0.056547627 0.16717403 0.89414197
0.017597713 0.17261617 0.89217806
0.020613758 0.17397957 0.89066678
0.043332815 0.17349471 0.89101124
0.047319155 0.17250979 0.89306134
0.051575899 0.17143565 0.89468348
0.019015782 0.17705297 0.89363348
0.022091996 0.17770596 0.8916918
0.027253717 0.17892325 0.89053345
0.043082133 0.17746978 0.89155024
0.046133205 0.17760091 0.89430016
0.023475388 0.18188052 0.89421147
0.027321648 0.18269369 0.89275956
0.032278936 0.18247856 0.89170766
0.037273023 0.18249959 0.89181137
0.041985039 0.18173809 0.89296687
0.028209344 0.1863759 0.89450037
0.032364447 0.18628561 0.89406705
0.036531791 0.18627866 0.89403373
-0.0072521716 0.1087458 0.89581257
-0.0066699423 0.11304636 0.896227
0.0020208072 0.13306981 0.8963412
0.0016396313 0.13725235 0.89659315
-0.0009903285 0.14056695 0.89950007
0.0020224988 0.1424703 0.89673644
0.003029149 0.14733025 0.89788759
0.0065325219 0.14917567 0.89593339
0.0040418091 0.15058406 0.8993668
0.0070447689 0.15261264 0.89753354
0.0076545202 0.15742801 0.89705569
0.00737732 0.16143906 0.89727098
0.063323297 0.16495344 0.89563334
0.0090663219 0.16717751 0.89862567
0.011833217 0.16765983 0.89674455
0.057895865 0.16870503 0.89564997
0.062578984 0.16769387 0.89692235
0.067610517 0.16689561 0.89711124
0.071642861 0.16660008 0.89732009
0.013249442 0.17210571 0.89817512
0.015726959 0.17338689 0.89616668
0.047421034 0.17482598 0.89500004
0.052905198 0.17293818 0.89600003
0.057824004 0.17241628 0.89730972
0.062421132 0.17161334 0.89810026
0.067912385 0.17192747 0.89833778
0.071075253 0.17218854 0.89861131
0.016855475 0.17772627 0.897039
0.048733104 0.1771244 0.89609998
0.052580371 0.17699978 0.897578
0.057316799 0.17615101 0.89836025
0.018246945 0.18185571 0.89682502
0.021281967 0.18269537 0.89548898
0.042430852 0.18433325 0.8953557
0.047521867 0.18186794 0.89688587
0.051513825 0.18107249 0.8984558
0.019115798 0.18717587 0.89833355
0.022426322 0.18684244 0.8967334
0.026998179 0.18790027 0.89581668
0.032429595 0.18832725 0.89586669
0.037851766 0.18787245 0.89568335
0.042708911 0.18720481 0.89619046
0.046758011 0.18716472 0.89828354
0.022470683 0.19139135 0.89851689
0.027680468 0.19183086 0.89763343
0.032466426 0.19104294 0.89687794
0.037511695 0.19117999 0.89752239
0.042568643 0.19133838 0.89826697
0.045997206 0.19082789 0.89980024
-0.0016658064 0.13750103 0.90133655
-0.0018329939 0.14175797 0.90174997
0.0006890755 0.14429563 0.90188897
0.00068990851 0.14698997 0.90297925
0.0032120713 0.15187997 0.90210021
0.0057303738 0.15423244 0.90113372
0.0057268767 0.15665087 0.90058362
0.072944552 0.1692939 0.9010002
0.011619296 0.1727569 0.90156674
0.063691929 0.17429307 0.90085042
0.066178955 0.17420599 0.90040028
0.073688187 0.17247513 0.9018625
0.014144477 0.17783864 0.90183347
0.058233254 0.17890631 0.90087533
0.062888265 0.17774656 0.90136307
0.067965657 0.1778376 0.90182239
0.071986154 0.17695282 0.90302038
0.014175326 0.18158869 0.90379995
0.016372247 0.18270905 0.90103346
0.049380906 0.18423496 0.90030026
0.053364512 0.18334256 0.90140033
0.057692397 0.18275237 0.90227509
0.062580884 0.18184815 0.903
0.067249611 0.18152842 0.90349996
0.016963976 0.18641363 0.90274453
0.049460132 0.18788655 0.9017446
0.05234018 0.1876017 0.90306669
0.059712887 0.18503304 0.90419996
0.019217584 0.19237116 0.90311664
0.022563957 0.19470303 0.90224457
0.02587584 0.19429781 0.90036696
0.032595787 0.1943146 0.90044469
0.037650719 0.19440331 0.90085578
0.042717714 0.1945232 0.90141135
0.047527563 0.19303447 0.90228945
0.022596397 0.19666187 0.90353328
0.02761746 0.19726129 0.90242785
0.032664586 0.19724302 0.90234452
0.037714828 0.19725627 0.90240568
0.042776719 0.19730969 0.90265006
0.046763938 0.19728328 0.90381104
0.038628839 0.20014517 0.90408331
0.042864736 0.20023988 0.90451115
0.011960228 0.17817336 0.90637785
0.073403351 0.17879152 0.90666676
0.012963908 0.1827645 0.90755022
0.064042076 0.18367559 0.9058001
0.068275891 0.18314324 0.90594453
0.072087839 0.18240155 0.90784472
0.014238752 0.18746842 0.90784484
0.015902746 0.18796772 0.90618348
0.054756597 0.18875131 0.90590006
0.058142673 0.18793099 0.90600562
0.063015327 0.18692221 0.90622103
0.067197502 0.18767479 0.90767652
0.071419246 0.18796431 0.90907639
0.014258971 0.19449845 0.90913349
0.016758109 0.19231276 0.90680021
0.049693573 0.19382809 0.90600008
0.05333126 0.19252041 0.90678358
0.058061421 0.19236472 0.90804207
0.062193833 0.19297317 0.90877163
0.066823326 0.19281469 0.90916306
0.071921356 0.19284579 0.90931487
0.018461665 0.19750296 0.90739471
0.022661038 0.19891088 0.90612227
0.049306344 0.19775745 0.9066335
0.052763622 0.1976067 0.90898114
0.056697398 0.19692652 0.90993327
0.019327169 0.20107119 0.90826708
0.022939784 0.20213461 0.90761936
0.027733598 0.20230089 0.90620381
0.032807752 0.2023268 0.90631866
0.037617616 0.20270142 0.9058429
0.042927057 0.20306022 0.90583342
0.048046745 0.20243174 0.90678906
0.051598772 0.20141073 0.90979993
0.024446581 0.20645764 0.90966672
0.02781182 0.20693025 0.90876693
0.033132065 0.2074203 0.90858597
0.037923161 0.20763037 0.9073928
0.043003932 0.20764379 0.90745229
0.04711403 0.20751946 0.90838701
0.038847439 0.21142551 0.90920019
0.043072596 0.21135576 0.90890026
0.0092268167 0.17864162 0.91453356
0.0092204269 0.18021792 0.9139002
0.010905139 0.18243888 0.91225004
0.011758154 0.18673149 0.91250002
0.013454998 0.19176467 0.91222513
0.01375034 0.19700223 0.91290015
0.015973527 0.19727013 0.91021669
0.056739043 0.1987647 0.91059995
0.061915953 0.19761264 0.91179442
0.066751614 0.19766147 0.91398352
0.070598111 0.19726855 0.91413361
0.017369587 0.20230064 0.91228676
0.022775877 0.20499811 0.9106999
0.052817587 0.20287293 0.91129994
0.056896087 0.20214653 0.9131192
0.061189029 0.20056337 0.91365016
0.019026689 0.20706008 0.91419184
0.022266135 0.20778973 0.91303897
0.027849853 0.20822607 0.90999997
0.049920276 0.20656356 0.91013336
0.052138317 0.20694084 0.91329354
0.055296592 0.20592847 0.91483366
0.023294795 0.21136311 0.91441691
0.027951786 0.21239047 0.9133445
0.032818954 0.2124081 0.91250837
0.037669461 0.21322279 0.91145831
0.043172572 0.21354139 0.91101104
0.047671802 0.21255119 0.91257346
0.050139673 0.21172324 0.91413349
0.0066972766 0.17856345 0.91850817
0.0073361271 0.18298624 0.91819155
0.0077661867 0.18774076 0.91847324
0.010940406 0.18898655 0.91520029
0.0092728585 0.19235644 0.91909701
0.011393919 0.19327559 0.91737181
0.012093592 0.19774359 0.91633135
0.068191499 0.19940799 0.91615009
0.071662396 0.19870803 0.91684997
0.014369283 0.20111588 0.91616666
0.016094323 0.20473269 0.91710007
0.058766697 0.20442756 0.91573358
0.062478092 0.20337911 0.91648579
0.067474492 0.20237516 0.91801101
0.071833454 0.20089045 0.91903329
0.014426266 0.20704646 0.91979998
0.016956072 0.20823154 0.91748321
0.052780081 0.20950362 0.91558349
0.057493579 0.20748825 0.91721326
0.062001813 0.20735005 0.91811311
0.066706553 0.20520896 0.9192332
0.017572958 0.21221931 0.91785711
0.022546824 0.21384247 0.91520035
0.052362628 0.21295035 0.91722643
0.057257354 0.21197419 0.91890728
0.060685877 0.21027023 0.91893315
0.0041565574 0.17894612 0.92489994
0.0058692116 0.17685516 0.92296672
0.0041498672 0.18209462 0.92341131
0.0041512479 0.18644924 0.92371857
0.0067168321 0.19108753 0.92122698
0.009290318 0.19528735 0.92082751
0.014431497 0.20369825 0.92013335
0.072234623 0.20320882 0.92050004
0.014435677 0.20718175 0.92040008
0.064187974 0.20880283 0.92000002
0.067928992 0.20777442 0.92085731
0.07219433 0.20791309 0.92364448
0.014445958 0.21246941 0.92105561
0.074919984 0.20486416 0.92540002
0.01280526 0.20858465 0.92663342
0.074998245 0.20680141 0.92636657
