# .PCD v0.7 - Point Cloud Data file format
VERSION 0.7
FIELDS x y z
SIZE 4 4 4
TYPE F F F
COUNT 1 1 1
WIDTH 801
HEIGHT 1
VIEWPOINT 0 0 0 1 0 0 0
POINTS 801
DATA ascii
0.0099099586 0.05398687 0.82900035
0.013001633 0.053214297 0.82897812
0.017822424 0.052603565 0.82848346
0.022263926 0.052848291 0.82843822
0.026898937 0.053180303 0.82845575
0.03289026 0.05299468 0.82856685
0.037692573 0.052378383 0.82797045
0.041915059 0.052636951 0.82857162
0.047022257 0.053222712 0.8291114
0.052512009 0.052956983 0.82897812
0.057078652 0.053227652 0.8291837
-0.00091359019 0.058669731 0.82980025
0.0024890706 0.058007397 0.82916033
0.0075870361 0.057048321 0.82867807
0.012976331 0.056958701 0.82737762
0.017597351 0.056931827 0.82697749
0.022218518 0.056916416 0.8267554
0.027623251 0.056933384 0.82699972
0.033011749 0.056916993 0.82676274
0.037748255 0.057431217 0.82612115
0.042136356 0.057258658 0.82726657
0.047244046 0.056973409 0.82758665
0.052552391 0.056977864 0.82764858
0.057057559 0.057062615 0.82887816
-0.0070970915 0.060155258 0.82900006
-0.0040093283 0.061765578 0.82991678
0.0024010097 0.061276007 0.82925749
0.0079763988 0.061820645 0.82892257
0.01299243 0.06242542 0.8284058
0.017619917 0.062397342 0.82803345
0.022253668 0.062399309 0.82806128
0.027507065 0.062252782 0.82816452
0.032804165 0.062535912 0.82752293
0.037495814 0.062781855 0.82703316
0.042470131 0.062606327 0.82803649
0.046997208 0.061673198 0.82866693
0.05249637 0.061556276 0.82898217
0.05707645 0.061709393 0.82915586
0.01920196 0.066376977 0.82966685
0.022287225 0.066350311 0.8293336
0.026925251 0.066344976 0.82926697
0.0323321 0.067102879 0.82910037
0.03792198 0.067654312 0.828767
0.040840629 0.067880623 0.82917809
0.039330002 0.07102982 0.82993335
-0.0071313353 0.049598724 0.83300006
-0.0040242244 0.046499643 0.83300006
0.013874894 0.049717795 0.83499974
0.017767463 0.04971581 0.83496642
0.022439962 0.049717795 0.83499974
0.027104899 0.049704563 0.83477759
0.032534745 0.049678102 0.83433318
0.038222373 0.048965339 0.83278668
0.0425837 0.048823088 0.83299994
0.047690723 0.04927199 0.83403325
0.05197398 0.049666192 0.83413333
0.055818483 0.049626503 0.83346677
-0.0055768876 0.052688379 0.83286667
-0.0026658813 0.052907158 0.83326858
0.002384095 0.052876063 0.83279157
0.0074089793 0.052510962 0.83230299
0.013033827 0.05102684 0.83102208
0.016130572 0.051017281 0.83086658
0.022327255 0.051011134 0.83076668
0.026998648 0.051055491 0.83148879
0.031268269 0.051451467 0.83165002
0.044005305 0.051768854 0.83053333
0.047128368 0.051024109 0.83097768
0.052275717 0.051006366 0.83068889
0.058473933 0.052552179 0.83068895
-0.0061847297 0.057522088 0.83106154
-0.0026582067 0.057011519 0.83095312
0.0017969315 0.056034543 0.83078325
0.05952828 0.057208747 0.83100003
-0.006080383 0.062612571 0.83090836
-0.0023094614 0.062452413 0.83082616
0.0018747341 0.06431552 0.83094662
0.006444959 0.064535826 0.83079988
0.047109425 0.064910047 0.83064443
0.05237291 0.06459675 0.83058661
0.05858909 0.063999929 0.83086663
-0.0055668112 0.06805893 0.83136201
-0.002467145 0.067805998 0.83204919
0.0021884653 0.068149656 0.83245933
0.0076237754 0.068163805 0.83262223
0.01305171 0.068126865 0.83217037
0.017504144 0.068281479 0.83170003
0.022341505 0.068832256 0.83135551
0.026979955 0.068798147 0.83094436
0.032390714 0.069543213 0.83061659
0.036245961 0.069508314 0.83020002
0.043235306 0.067997791 0.83061099
0.047137052 0.068040639 0.83113319
0.052561317 0.068039238 0.83111662
0.057977881 0.068029061 0.83099252
-0.0021622025 0.072002545 0.83404446
0.0021950679 0.073003337 0.83484411
0.0080350759 0.072434254 0.83499968
0.012873785 0.072572939 0.83499968
0.017759249 0.072982989 0.83460724
0.022403197 0.072899848 0.83365184
0.027050555 0.072851606 0.83310384
0.032474395 0.072823353 0.83277225
0.037711166 0.073006153 0.83264154
0.042559464 0.07280191 0.83252597
0.047250006 0.072854549 0.83313346
0.052175939 0.072634429 0.83239347
0.057502188 0.072920851 0.83228493
0.017768109 0.076123245 0.83499974
0.022439962 0.076123245 0.83499974
0.027111826 0.076123245 0.83499974
0.031783685 0.076123245 0.83499974
0.038791455 0.076123245 0.83499974
0.042667761 0.076092854 0.83466643
0.047344819 0.076105013 0.83479977
0.051925961 0.075973354 0.83335561
0.056693278 0.076114133 0.8348999
-0.0055911718 0.04894118 0.83500004
-0.002485171 0.049912307 0.83826679
0.002988494 0.049963906 0.8391335
0.0072888294 0.049555689 0.83883339
0.012028194 0.048563741 0.83807623
0.017828278 0.048716325 0.8378334
0.022920996 0.047967177 0.83835006
0.027196491 0.047535997 0.83762223
0.032325696 0.047641687 0.83752388
0.037193865 0.047068994 0.83762664
0.042399697 0.046336479 0.83706665
0.04712962 0.047316156 0.83649331
0.051781233 0.047907915 0.83731663
0.0553241 0.047541544 0.83774269
-0.00091960939 0.05128745 0.83526635
0.00063998206 0.050651543 0.83763325
-0.005597868 0.071549051 0.83600003
-0.0028659776 0.074186131 0.83504999
0.006873149 0.074244156 0.83569986
0.013876002 0.074575916 0.83506638
-0.0019637898 0.076862574 0.83739811
0.0022023895 0.077141486 0.83761114
0.0072032688 0.077799961 0.83798677
0.012564617 0.078038611 0.83735758
0.017816743 0.078669496 0.8373
0.022494115 0.07864219 0.83701104
0.027188731 0.078675993 0.83736664
0.032549996 0.078029282 0.83691847
0.037524056 0.078459941 0.83713329
0.042814255 0.07869067 0.83752227
0.047486234 0.07866969 0.8373
0.05212152 0.078593679 0.8364889
0.057223927 0.078057274 0.83698219
0.0084728245 0.081247412 0.83979994
0.012849333 0.081505492 0.83924007
0.018240172 0.081542484 0.83881676
0.022342073 0.082499824 0.83862507
0.027249334 0.08119151 0.83922237
0.031164981 0.081199035 0.83930016
0.037687387 0.081202261 0.83933347
0.042906445 0.081202261 0.83933336
0.047904603 0.081808813 0.83914679
0.052281749 0.082737908 0.8390668
0.056971386 0.082730003 0.83899277
0.061732922 0.092194706 0.83990914
0.0085252859 0.044025782 0.84499991
0.012465127 0.044025782 0.84499991
0.022708712 0.044025782 0.84499997
0.027792603 0.043572903 0.84385014
0.032088201 0.043921586 0.84300023
0.037291434 0.043292586 0.84385729
0.043153189 0.043588564 0.84414995
0.047867715 0.043973684 0.84400004
0.05107557 0.044025782 0.84499991
-0.0024974793 0.048187487 0.84219646
0.0024403266 0.047491677 0.84277612
0.0067316326 0.046831414 0.84248328
0.012308977 0.046107527 0.84202868
0.017927723 0.046245236 0.84249997
0.022314057 0.04606045 0.84198678
0.027311279 0.045390185 0.84115547
0.032012399 0.045381788 0.84099984
0.037506618 0.045388982 0.84113324
0.043768384 0.045374595 0.84086657
0.047678795 0.045363802 0.84066653
0.05278302 0.046065412 0.84208012
0.055506181 0.045354817 0.8405
-0.002105667 0.079099335 0.84187603
0.0022100785 0.079763241 0.84062219
-0.0025038242 0.082710579 0.84409922
0.0022158406 0.083112687 0.84286678
0.0067225778 0.083153203 0.84129161
0.0120702 0.08382491 0.84102827
0.017575959 0.083838858 0.84071982
0.024162022 0.084465571 0.84073317
0.027306424 0.08370924 0.84098881
0.03224764 0.083404802 0.84129506
0.037413709 0.083448283 0.840985
0.043031309 0.083786786 0.84176666
0.047331184 0.084149808 0.84148324
-0.0025045918 0.086940415 0.8445192
0.0024447921 0.087521449 0.84434283
0.0069373688 0.087892957 0.84360015
0.012436482 0.087835245 0.84305024
0.017937403 0.087828815 0.84298539
0.022642523 0.087781191 0.84252608
0.027365183 0.087809205 0.84280026
0.032092825 0.087842219 0.84311879
0.037586216 0.087819479 0.84290028
0.043138545 0.087919489 0.84385931
0.047851417 0.087908015 0.84374082
0.052484676 0.087760411 0.84232605
0.057167087 0.087713592 0.84187412
0.060251113 0.087631881 0.84109038
0.0077373185 0.091181673 0.84499991
0.012464436 0.091176279 0.84494984
0.018768102 0.091178074 0.84496653
0.023022801 0.091806091 0.84495991
0.027201101 0.09226948 0.84467608
0.032388393 0.092301331 0.8449713
0.036887601 0.092742324 0.84489614
0.041924562 0.092573322 0.84478652
0.04823887 0.091810405 0.84499991
0.052618317 0.092696488 0.84447402
0.057268832 0.092575878 0.84337789
0.060347307 0.092471242 0.84243339
0.036892127 0.09589722 0.84499997
0.04161993 0.09589722 0.84499997
0.054227434 0.09589722 0.84499991
0.057753533 0.096258037 0.84471667
0.060395051 0.09646605 0.84310019
0.043379914 0.039477684 0.84860039
0.045798473 0.039516445 0.8494336
0.054526914 0.037946746 0.84966683
0.056077287 0.037923593 0.84914827
-0.0025146569 0.044195112 0.84824997
0.0022277881 0.044165999 0.84769154
0.0069691315 0.042832706 0.84734458
0.012509104 0.041813917 0.84798354
0.01824286 0.04298633 0.84667623
0.022791183 0.04181819 0.84806687
0.027199987 0.041630261 0.84745347
0.032238755 0.04176281 0.84695572
0.036994126 0.040994935 0.84733361
0.04237175 0.041629549 0.84651428
0.048036009 0.041763585 0.8469556
0.052969132 0.042352848 0.84693807
0.055869397 0.042502299 0.84600008
-0.005658132 0.045597646 0.84500003
-0.0021140352 0.04603108 0.84575009
0.0014340434 0.045621723 0.84544587
-0.0040838066 0.084927708 0.8453334
-0.0025101835 0.088687144 0.84618479
0.00143383 0.089627504 0.84516656
-0.0023163699 0.093032792 0.84753585
0.0022251611 0.092916928 0.84647667
0.0067339293 0.093346164 0.84629536
0.012482753 0.093666211 0.8461417
0.017781952 0.093342282 0.84625715
0.022347525 0.094070077 0.84623331
0.028240314 0.09437748 0.84546661
0.031382643 0.09434399 0.8451665
0.04486011 0.093724281 0.84666669
0.047618356 0.094107173 0.84656674
-0.001462656 0.096909679 0.84927773
0.0022297502 0.097065069 0.84833354
0.0069734911 0.097819 0.84802246
0.012301384 0.097729489 0.84849113
0.018385859 0.096998662 0.84913367
0.022800652 0.097077899 0.84844476
0.027535345 0.097821541 0.84804463
0.032248989 0.09772817 0.84723711
0.036972094 0.098468281 0.84683341
0.042780209 0.098241597 0.84714085
0.048111014 0.097851411 0.84830403
0.052570753 0.097882777 0.84687501
0.057126381 0.098521188 0.84593326
0.0085716993 0.10116053 0.84960008
0.032635033 0.10172725 0.84905368
0.037034899 0.10258272 0.84828168
0.041946929 0.10220497 0.84805948
0.048169982 0.10112878 0.84933358
0.053179521 0.10165063 0.84841359
0.057559088 0.10250679 0.84765202
0.060602799 0.10230564 0.84600008
-0.0020005191 0.039174151 0.8534584
0.0038361303 0.039710272 0.85359997
0.0070194677 0.039704587 0.85347772
0.012744637 0.039373931 0.85320663
0.018484876 0.039080713 0.85373342
0.022928059 0.038895261 0.85315561
0.027675129 0.038858231 0.85235
0.032443244 0.038857426 0.85233331
0.037195694 0.038839452 0.85194445
0.04166913 0.038703725 0.85244668
0.047734357 0.038724292 0.85288012
0.052693769 0.038250223 0.8520667
0.056311034 0.038082704 0.8526876
-0.0025261203 0.042016402 0.85207772
0.0022380974 0.042001646 0.85178709
0.0062003615 0.041141704 0.85036683
0.01730771 0.041154608 0.85063326
-0.0019961873 0.099275775 0.85150003
0.0022348862 0.099656977 0.85025555
0.01493199 0.099728614 0.85086656
0.017707558 0.099323459 0.85078323
0.022864843 0.099723406 0.85082215
-0.0017327018 0.10225916 0.85215831
0.0024390635 0.10285608 0.85217452
0.0068087121 0.10323526 0.85203326
0.012567882 0.10302802 0.85195822
0.018125392 0.10300851 0.85179996
0.022883931 0.10297575 0.85153323
0.027629344 0.10290283 0.85093695
0.031987555 0.10407105 0.85078323
0.043482136 0.1044442 0.8506
0.04715636 0.10364623 0.8514666
0.052107979 0.10425128 0.85160667
0.0038415228 0.10654999 0.85480022
0.0074231699 0.10687861 0.85425013
0.012601497 0.10727517 0.85424179
0.018173277 0.10725022 0.8540445
0.023149174 0.10783828 0.8539834
0.027713481 0.10798071 0.85353339
0.032429073 0.10778412 0.85197771
0.037156831 0.10766825 0.85106659
0.041915309 0.10765893 0.8509962
0.046820983 0.10799019 0.85361487
0.052619863 0.10786898 0.85379404
0.057926264 0.10712586 0.85304505
0.029330609 0.11125081 0.85426682
0.032507703 0.11121897 0.85402226
0.037278995 0.11119872 0.85386664
0.042050373 0.11197571 0.85373336
0.043928597 0.033582885 0.8593334
0.04551005 0.03356725 0.85893339
0.052698486 0.033555128 0.85862315
0.05503602 0.033515152 0.85760003
-0.00094133499 0.038184937 0.85500002
0.0019870494 0.03853941 0.85702688
0.0070607718 0.038332816 0.85831124
0.012263446 0.037140157 0.85845006
0.017324511 0.036908474 0.85704762
0.023038285 0.035892915 0.85726684
0.02784171 0.035900839 0.85745567
0.032654744 0.0359185 0.857889
0.037426431 0.035891742 0.85723346
0.042210922 0.035882082 0.85700005
0.047001589 0.035878383 0.85691118
0.052035835 0.035596315 0.85650021
0.056463748 0.035004012 0.85500002
-0.00094344583 0.10681497 0.85691714
0.002022658 0.10762879 0.85615075
0.0067196838 0.10923547 0.85590696
0.011825201 0.1098443 0.85568911
0.017415162 0.10987355 0.85591698
0.02140788 0.10988425 0.8560003
0.050128352 0.10985001 0.85573363
0.058117654 0.10986733 0.85586858
0.0020559698 0.1119938 0.85843337
0.0070502236 0.11244833 0.85733336
0.011616225 0.11276294 0.85712391
0.017440954 0.11322796 0.85719448
0.023022057 0.11315925 0.85667425
0.027615866 0.11335747 0.85666674
0.032608256 0.11395443 0.8566668
0.037403032 0.11396062 0.85671121
0.042158108 0.11465228 0.85593367
0.046942774 0.11304867 0.85584474
0.052335083 0.11295586 0.8562367
0.057309594 0.11302864 0.85741907
0.0038645924 0.11518803 0.8599335
0.0078704217 0.11513893 0.85956669
0.011876314 0.11565578 0.85944456
0.017491046 0.11674695 0.85963345
0.023494201 0.11710609 0.85933346
0.028303673 0.11711288 0.85938346
0.032698575 0.11746523 0.85903341
0.037496384 0.11743913 0.85884446
0.042272598 0.11815686 0.85825181
0.046868175 0.11775625 0.85865718
0.051906712 0.11726616 0.85874671
0.056727838 0.11612844 0.85899991
0.029678544 0.028957052 0.86440021
0.032817882 0.028482296 0.86218631
0.038031884 0.028472433 0.86189997
0.042386923 0.028829008 0.86057788
0.046562999 0.028930252 0.86360013
0.0022659337 0.033679102 0.86179537
0.0074206828 0.033087857 0.86309814
0.011521991 0.033321068 0.86290002
0.017553629 0.032914363 0.86277175
0.023165761 0.033044092 0.86198682
0.028225616 0.032323204 0.86309177
0.032813795 0.032085884 0.86208141
0.037560984 0.03202102 0.86032605
0.042158663 0.031809513 0.86000854
0.047504656 0.031897373 0.8624084
0.051591147 0.031830873 0.86241657
-0.00094683992 0.036808476 0.86000001
0.0022627728 0.035878025 0.8607111
0.0070902868 0.036094412 0.86205786
0.011099819 0.036066845 0.86140007
0.016700553 0.035218716 0.86024469
-0.00094784424 0.11211702 0.86091214
0.060141306 0.11386141 0.86200005
-0.00094884698 0.11704423 0.86182302
0.0020611961 0.11705022 0.8603918
0.0068437043 0.11725645 0.86001921
0.012205598 0.11776029 0.86002684
0.017498134 0.11839653 0.86000019
0.023111822 0.11919641 0.86000019
0.027923556 0.11892978 0.86000019
0.032735288 0.1199963 0.86000019
0.037547018 0.1199963 0.86000019
0.051982202 0.11839653 0.86000019
0.057139911 0.11844777 0.8603735
0.060975228 0.11712488 0.86241865
-0.0013516324 0.12233847 0.86240631
0.0022668617 0.12189322 0.86209083
0.0070916605 0.1219235 0.86230379
0.011917494 0.12193758 0.86240745
0.017524816 0.12178722 0.86134452
0.02290844 0.12219068 0.86096197
0.027773142 0.12201623 0.86154997
0.032792952 0.12261302 0.8615222
0.037805408 0.12283583 0.86067629
0.042364392 0.12321199 0.86011124
0.047250833 0.12233693 0.86145914
0.052059963 0.12177939 0.86128891
0.056867279 0.1219538 0.86110848
0.060917813 0.12182475 0.86161524
-0.0017544732 0.12687957 0.86329377
0.0022731144 0.1254586 0.86456925
0.0071097198 0.12544855 0.86450016
0.013552657 0.12539051 0.86410016
0.018376481 0.12652533 0.86361253
0.02320499 0.12690577 0.8634668
0.028046826 0.12695386 0.86379641
0.032821979 0.12673216 0.86228877
0.037433699 0.12689102 0.86200827
0.042454582 0.12748286 0.86194438
0.047563385 0.1271098 0.86349189
0.052188907 0.12689954 0.86342239
0.056975782 0.12680157 0.86275566
0.060992267 0.1267885 0.86266667
-0.0025647334 0.13191383 0.86471432
0.033704743 0.13024282 0.86430019
0.037730027 0.13062997 0.86420012
0.042862188 0.13079229 0.86368018
0.045764383 0.13015743 0.86373347
0.053847846 0.13022773 0.86420017
0.055504497 0.13033324 0.86490017
0.061907563 0.13022994 0.86421436
0.024932234 0.029062014 0.86753339
0.027066015 0.028499648 0.86681128
0.04907687 0.028988311 0.86533332
0.023820341 0.031169465 0.86632234
0.026503261 0.030621568 0.86600012
-0.002567031 0.11351754 0.86548895
-0.0025687057 0.11761882 0.86605358
-0.0025686878 0.12164528 0.86604762
-0.0017621764 0.12730882 0.866225
0.0022777079 0.12809873 0.86610693
0.0071285311 0.12759441 0.8667835
0.011772757 0.12755622 0.866521
0.016005129 0.12808667 0.86602515
-0.0016013433 0.13224196 0.86685103
0.0022833007 0.13246401 0.86831081
0.0071463147 0.13209717 0.86894274
0.012212719 0.13237976 0.86909163
0.016859537 0.13228127 0.8684417
0.022507368 0.13235925 0.8676222
0.028170854 0.1323583 0.86761498
0.032787513 0.13279282 0.86744297
0.037886135 0.1333514 0.86778003
0.04231637 0.13352691 0.8673501
0.047760591 0.13247758 0.86707509
0.052230924 0.13253579 0.8674584
0.057493497 0.132548 0.8675375
0.060934164 0.13235091 0.86756754
-0.0017599794 0.13525367 0.86550003
0.0014755914 0.13590789 0.8696866
0.024179831 0.13588917 0.86956668
0.033903614 0.13586313 0.86939991
0.038270578 0.13647041 0.86914653
0.042802438 0.13741978 0.86901474
0.047707751 0.13592565 0.86980009
0.052542344 0.13584229 0.86926657
0.065491781 0.13741714 0.86900002
0.044450007 0.14073649 0.86953336
0.063936993 0.14241345 0.86989665
0.0071601002 0.13443631 0.87063348
0.01041044 0.13447234 0.87086684
0.016892906 0.13435911 0.8701334
0.063174829 0.13442603 0.87056679
-0.0015011599 0.13838014 0.87166673
0.002523649 0.13829812 0.87163347
0.0071683656 0.13783301 0.87162232
0.012042716 0.13780928 0.87147421
0.016909502 0.13773124 0.87098545
0.021577859 0.13792294 0.8709169
0.027686147 0.13786203 0.87087899
0.03292574 0.13821317 0.87110502
0.03761838 0.13893808 0.87093359
0.047753848 0.13813765 0.87062877
0.052628495 0.13788755 0.87069184
0.057515435 0.13772181 0.87092614
0.062375922 0.13769466 0.87075496
0.0022982534 0.1414174 0.87374043
0.0075139739 0.14211471 0.8740266
0.012276905 0.14282852 0.87366652
0.016943442 0.14287855 0.87273318
0.021813085 0.14279291 0.8722074
0.027523013 0.14287561 0.87271661
0.033220626 0.14288166 0.87275541
0.038038272 0.14263685 0.87125945
0.042693768 0.14278445 0.87092525
0.047819342 0.142731 0.87182963
0.05268522 0.14269823 0.87162971
0.057532337 0.14262466 0.87118542
0.062187988 0.14258851 0.87096572
0.01698075 0.14644851 0.87466669
0.022181749 0.14696996 0.87389314
0.027015513 0.14685883 0.87387758
0.032448407 0.14672683 0.87389988
0.038440891 0.146824 0.87302655
0.042990461 0.14776669 0.87282968
0.047885027 0.14698537 0.87302202
0.052782834 0.14702274 0.87324423
0.057671376 0.14784428 0.87329608
0.061980955 0.14734848 0.87173808
0.059411891 0.15137573 0.87493336
0.060945991 0.15113351 0.87353313
0.0031210794 0.14343786 0.87615395
0.0071990774 0.14440529 0.87543339
0.010459843 0.14487666 0.87500006
0.0035366998 0.1474182 0.87801987
0.0069850353 0.14744386 0.87782395
0.012108619 0.14752688 0.8762334
0.017404309 0.14861143 0.87542504
0.021484546 0.14941686 0.87537503
0.026785901 0.14925887 0.87524444
0.032500751 0.14858703 0.87528342
0.03821101 0.14897999 0.87520009
0.048006672 0.14980143 0.87524444
0.052898888 0.14978813 0.87516671
0.0039506783 0.15209509 0.87908888
0.0074328505 0.15185858 0.87889999
0.012137805 0.15196329 0.87832612
0.01684422 0.15214095 0.87817091
0.021962678 0.15275599 0.87818903
0.027102258 0.1523618 0.8779335
0.031978969 0.15207079 0.87776679
0.037304785 0.15211396 0.87833637
0.043199655 0.1525643 0.87708348
0.048153833 0.15270875 0.87791681
0.053072851 0.15273003 0.87803906
0.057669908 0.15292755 0.87823331
0.06105528 0.15303244 0.87510008
0.0083313389 0.15661757 0.87999982
0.012160369 0.15633887 0.87996644
0.017082697 0.15632905 0.87991077
0.021999657 0.15628584 0.87966639
0.026915377 0.15625039 0.87946653
0.03182999 0.15657084 0.87929517
0.036777779 0.15715797 0.87997007
0.042483781 0.15702128 0.87919992
0.047834642 0.15586007 0.87957478
0.053189803 0.15552239 0.87997752
0.058087576 0.15545562 0.87959981
0.061847638 0.1563748 0.87863332
0.043343838 0.16043715 0.87999982
0.0023243895 0.15296507 0.88411826
0.0055968314 0.15391265 0.88013309
0.0035483409 0.15732974 0.88092881
0.0066958568 0.15757297 0.88076091
0.012168556 0.15889242 0.88051087
0.017105892 0.15899669 0.88108873
0.022040578 0.15903276 0.88128877
0.026945984 0.1588884 0.88048863
0.031857766 0.15881221 0.88006634
0.048324872 0.15817061 0.88104993
0.052813631 0.15837289 0.88152373
0.058246087 0.1583388 0.88198894
0.062359169 0.15916111 0.88200003
0.0072700158 0.16118269 0.88408893
0.012199532 0.16093557 0.88273335
0.017148439 0.16103281 0.88326675
0.022086732 0.16101457 0.88316673
0.027429782 0.16136074 0.88280839
0.031965576 0.1618152 0.88304442
0.036865797 0.16198954 0.88207608
0.041792318 0.16269647 0.88188881
0.046415545 0.16215792 0.88223332
0.052494194 0.16081555 0.88207501
0.058298159 0.16094773 0.88280004
0.062687591 0.16240478 0.88277787
0.065002963 0.16452973 0.88440013
0.045235533 0.16626881 0.88490015
0.0023280871 0.15815002 0.88552463
0.003977864 0.16137396 0.88513792
0.007294117 0.16336752 0.88702202
0.012242113 0.16357306 0.88590002
0.016789975 0.16360998 0.88609999
0.02216276 0.16321196 0.88617772
0.027109111 0.16396651 0.8858
0.032061983 0.16477363 0.88571119
0.036990084 0.16465065 0.88505018
0.040289041 0.16464137 0.88500017
0.048006076 0.16414219 0.88526678
0.051866468 0.16389467 0.8854112
0.056811165 0.16370317 0.88526678
0.060095463 0.16464137 0.88500017
0.0075155115 0.16678229 0.88872916
0.01226495 0.16698153 0.88759142
0.017428497 0.16688225 0.8870663
0.022183917 0.16666898 0.88702935
0.026909024 0.1671312 0.88698059
0.032107543 0.16748212 0.88696629
0.037066031 0.16746332 0.88686639
0.042214844 0.16800451 0.88645399
0.047012433 0.16809136 0.88727754
0.051987469 0.16757913 0.88747758
0.056938313 0.16718194 0.88724738
0.061835676 0.16735472 0.8862887
0.065748386 0.16776867 0.8870222
0.0084198974 0.17097048 0.88937777
0.012522479 0.17153534 0.88903809
0.017258478 0.1719895 0.88894081
0.021998253 0.17154466 0.88908571
0.027409783 0.17176546 0.88884997
0.032174442 0.17196505 0.88881481
0.037130672 0.17188816 0.88841462
0.041872431 0.17239039 0.88857132
0.047099084 0.17165442 0.88892001
0.052323252 0.17155923 0.88916194
0.057048652 0.17199326 0.88896298
0.061992064 0.17191057 0.88853329
0.066132978 0.17190297 0.88849431
0.033859458 0.17541291 0.88953334
0.037162427 0.17616993 0.8891778
0.04180577 0.17600369 0.88917333
0.045479201 0.17543919 0.88966674
0.058709111 0.17530774 0.889
0.060425945 0.17547864 0.88986671
0.0040064547 0.16419221 0.89149994
0.0040168385 0.16877475 0.89381051
0.005663814 0.16900907 0.8906669
0.0040131579 0.17360356 0.89299166
0.006776372 0.17303179 0.89147252
0.011475714 0.1739535 0.89053345
0.02309414 0.17389491 0.89023364
0.025579819 0.17386237 0.89006692
0.047731172 0.17337556 0.89040023
0.051345889 0.17398606 0.89070022
0.0081819817 0.17704803 0.89360869
0.01254211 0.17746696 0.89257532
0.01730541 0.17743424 0.89136696
0.022303225 0.17751765 0.89178538
0.027299589 0.17756574 0.89202625
0.032045949 0.17756939 0.89100856
0.037237186 0.17901032 0.89096689
0.042619623 0.17851931 0.89058352
0.04745727 0.17771828 0.89175439
0.052245662 0.17753591 0.89187801
0.05697773 0.17758717 0.89110017
0.062415566 0.17768924 0.8916086
0.066113867 0.17644925 0.89197797
0.017364332 0.1813684 0.89442235
0.022363914 0.18132783 0.8942225
0.02737231 0.1813639 0.8944003
0.031949341 0.18172427 0.89412534
0.037360415 0.18210006 0.89392805
0.042337604 0.18234749 0.89339077
0.045710936 0.18215519 0.89420033
0.058469623 0.18179448 0.89378923
0.061548494 0.18130645 0.89411706
0.065760046 0.19224265 0.89470011
0.0040259305 0.17748854 0.89583337
0.0069493917 0.1787284 0.89578331
0.010700523 0.17984746 0.89513361
0.0071354345 0.18231405 0.8967334
0.01237967 0.18249238 0.89585549
0.017385764 0.18325496 0.89551109
0.022399686 0.18328224 0.89564443
0.027418675 0.18333681 0.89591104
0.03324043 0.1831913 0.89520007
0.040774629 0.184953 0.89566666
0.047782268 0.18292268 0.89551336
0.052480701 0.18249923 0.89588886
0.056356888 0.18270449 0.89553332
0.062902354 0.18285327 0.89558333
0.065889873 0.18178292 0.89646667
0.0073878583 0.18634291 0.89835024
0.012408273 0.18709686 0.89795578
0.017411729 0.18687181 0.89687413
0.022422977 0.18681146 0.89658523
0.02742823 0.18673681 0.89622962
0.032447599 0.18676327 0.89635551
0.037461724 0.18676017 0.89634067
0.042699583 0.18716474 0.89599997
0.047736228 0.18710214 0.89698344
0.052601885 0.18709613 0.89795578
0.05759434 0.18699655 0.89747429
0.062607072 0.18696907 0.89734089
0.065997705 0.18792641 0.8979336
0.014100034 0.191495 0.89900017
0.017440187 0.19135611 0.8983503
0.022458257 0.19128133 0.8980003
0.027481569 0.19127423 0.89796692
0.032506946 0.19128133 0.8980003
0.037545625 0.19135265 0.89833361
0.042555872 0.19128256 0.89800578
0.04732034 0.19163907 0.89836693
0.050935216 0.19046727 0.89810026
0.05847086 0.19129738 0.89807528
0.062662378 0.19214697 0.89814103
0.067153759 0.19221492 0.8984558
0.064334966 0.19547923 0.8981002
0.0659789 0.19705951 0.8976779
0.0082472172 0.1893433 0.90070033
0.0082547106 0.19203058 0.90151697
0.01217933 0.19288237 0.90157241
0.017508032 0.1946215 0.90186691
0.022537351 0.19446807 0.90115595
0.027571296 0.1944129 0.90090036
0.032640338 0.19457833 0.90166694
0.037728235 0.19480371 0.90271109
0.042713601 0.19450881 0.90134478
0.048272621 0.19376832 0.9005003
0.052975617 0.19291472 0.9007504
0.057140309 0.19339916 0.90086031
0.014172188 0.19667634 0.90359992
0.017958045 0.19702801 0.9032833
0.022591503 0.19745798 0.90332776
0.027624851 0.19730973 0.90265006
0.03269596 0.19743331 0.9032166
0.03776516 0.19709694 0.90359998
0.043037921 0.197771 0.90311432
0.047593605 0.1978464 0.90222514
0.052858368 0.19724023 0.90233344
0.05814768 0.19760346 0.90234762
0.062697858 0.1981432 0.90166688
0.048745383 0.200986 0.90408337
0.052944839 0.20008491 0.90381104
0.057988048 0.20003818 0.90359992
0.064674005 0.20154779 0.9028334
0.0082950024 0.19718094 0.90591687
0.011954322 0.19771837 0.90580565
0.016741471 0.19885111 0.90585005
0.037846565 0.19878528 0.90555012
0.0083139427 0.20184962 0.90796703
0.012794419 0.20229581 0.90834314
0.017621752 0.20263457 0.9076966
0.02267668 0.20242442 0.90675575
0.027727395 0.20225438 0.90599644
0.032808349 0.20232983 0.90633351
0.037873045 0.20229639 0.90618539
0.042715207 0.20242658 0.90582514
0.048011255 0.20329463 0.90612686
0.053130049 0.20331746 0.90697795
0.057933658 0.20285337 0.90651929
0.062864505 0.20323916 0.90588015
0.01893397 0.20774028 0.90972495
0.022735184 0.20801814 0.90908909
0.027809259 0.20792386 0.90867424
0.032888152 0.2076802 0.90853363
0.037946705 0.2077571 0.90794849
0.043004245 0.20764729 0.90746701
0.048095152 0.20770347 0.90771133
0.053010624 0.20753255 0.90907633
0.057762727 0.20797816 0.90891129
0.062010478 0.2080086 0.90904456
0.065122947 0.20632903 0.90910023
0.03802583 0.21157287 0.90983325
0.04306804 0.2113377 0.90882236
0.047327526 0.21143335 0.90923333
0.05839875 0.21161164 0.90999991
0.06009591 0.21161164 0.90999991
0.012578163 0.20488556 0.91019988
0.0087885382 0.2068575 0.91329181
0.012363919 0.20755397 0.91235721
0.016825579 0.20831947 0.91040826
0.032952201 0.20998806 0.9102999
0.053313144 0.20994191 0.91009992
0.065512151 0.2092634 0.91453338
0.013310234 0.21183726 0.91389352
0.017479902 0.21277401 0.91290957
0.022795206 0.21280597 0.91148895
0.027912021 0.21293361 0.91203332
0.033028923 0.21302794 0.91243893
0.038134586 0.2138747 0.91243339
0.043199826 0.21367937 0.91159993
0.048283447 0.2130418 0.91128892
0.052045345 0.21302076 0.91168004
0.056460969 0.21300188 0.91159999
0.062265746 0.21240008 0.9119333
0.018599845 0.21598154 0.91416693
0.027546624 0.21637154 0.91401684
0.043271597 0.21573478 0.91312236
0.0075373775 0.20800851 0.91650021
0.0082339467 0.21210618 0.91799992
0.011794245 0.21368387 0.9152503
