# .PCD v0.7 - Point Cloud Data file format
VERSION 0.7
FIELDS x y z
SIZE 4 4 4
TYPE F F F
COUNT 1 1 1
WIDTH 1194
HEIGHT 1
VIEWPOINT 0 0 0 1 0 0 0
POINTS 1194
DATA ascii
0.038821351 0.059444148 0.81920022
0.041121487 0.059456244 0.81936681
0.038812924 0.062478285 0.81902242
0.041889671 0.062510647 0.81944454
0.038843468 0.065576956 0.8196668
0.040385302 0.065598287 0.81993335
0.03901409 0.053613491 0.82326674
0.041374061 0.053687282 0.82440019
0.028152723 0.057844639 0.82404846
0.032852605 0.057406753 0.82278317
0.037258096 0.057108413 0.82149082
0.042151757 0.056863714 0.82157314
0.045639087 0.05791482 0.82274437
0.029437853 0.062462468 0.82383329
0.032820374 0.062705241 0.8219924
0.036604863 0.062620848 0.8208887
0.044989903 0.062571503 0.82024431
0.046665877 0.062768243 0.82282227
0.033401277 0.066921614 0.82370001
0.037213638 0.067457616 0.82167482
0.042150408 0.067386404 0.82080805
0.045482859 0.066929683 0.82223326
0.037780769 0.071065322 0.8231867
0.042059854 0.071182445 0.8227666
0.045217853 0.070556283 0.82440019
0.013780581 0.053236928 0.8293336
0.017635822 0.052871939 0.82880026
0.022254219 0.053156715 0.828089
0.027321115 0.053252432 0.82786685
0.032868344 0.052766934 0.8280251
0.03744936 0.052115165 0.82685834
0.042526882 0.051915277 0.8276096
0.046451151 0.052900154 0.82810014
0.013197123 0.05727262 0.82912534
0.017609863 0.056975059 0.82760739
0.022370642 0.057219632 0.82669324
0.026188936 0.056834232 0.82556021
0.047806006 0.056597918 0.82659996
0.014039692 0.060698867 0.82940024
0.017853495 0.061231937 0.82865745
0.02224843 0.062385537 0.8278867
0.026629433 0.06321054 0.82609999
0.048399292 0.062258031 0.8262167
0.023318617 0.06686455 0.8293336
0.027654186 0.06778229 0.82797223
0.031948999 0.068633586 0.8258667
0.046866901 0.068418063 0.82636666
0.027687268 0.072100811 0.82893372
0.032477617 0.072500713 0.82748502
0.037221126 0.073389851 0.82608336
0.042200845 0.07372456 0.82553345
0.046308205 0.072658978 0.82738674
0.032328974 0.075577803 0.82901704
0.037909098 0.076878794 0.82848358
0.042328935 0.077030927 0.82804465
0.046234492 0.077103794 0.8288334
0.043187417 0.08027029 0.82970017
0.045521364 0.080292851 0.82993335
0.013873724 0.049713828 0.8349331
0.01775798 0.049687359 0.83448881
0.022433868 0.049704563 0.83477753
0.027083686 0.049666185 0.83413333
0.032504875 0.049632456 0.83356667
0.03789698 0.049177967 0.83245003
0.042271893 0.048978318 0.83301324
0.047333378 0.049692657 0.83457762
0.0082124136 0.053309545 0.83348322
0.012411421 0.051944267 0.83086669
0.017667536 0.050982475 0.83030009
0.022328055 0.051013183 0.83080006
0.027006006 0.0510705 0.83173341
0.031654686 0.051063683 0.8316223
0.048245329 0.051628564 0.83242232
0.051241696 0.054368906 0.83486652
0.0080932807 0.057209991 0.83327311
0.011470795 0.055600412 0.83006686
0.051036619 0.057108093 0.83405316
0.0089345844 0.061571073 0.83424425
0.012532704 0.062444214 0.83208877
0.017674141 0.06413424 0.83060002
0.020759309 0.064864904 0.83006686
0.050454974 0.060571279 0.83473313
0.014018312 0.066436544 0.83427989
0.017575951 0.067909889 0.83330661
0.021828251 0.06858699 0.8315112
0.048825298 0.068234563 0.83348888
0.018931832 0.072612718 0.83481646
0.022377841 0.072821699 0.83276284
0.025428034 0.073427998 0.83086658
0.048714641 0.072718084 0.83160001
0.050430793 0.074510433 0.83433324
0.02272852 0.076670244 0.83418655
0.027221845 0.077244639 0.83241665
0.032418922 0.078108765 0.83132499
0.036272153 0.07883127 0.83079988
0.048753694 0.077424057 0.83226681
0.050454974 0.076098941 0.83473325
0.033014275 0.081056282 0.83461314
0.037911046 0.082119189 0.83278519
0.042304244 0.082473136 0.83189529
0.046603303 0.082417473 0.8326667
0.038772877 0.08540187 0.83459979
0.042213667 0.086721256 0.83448547
0.0076812743 0.049952 0.83893347
0.011840418 0.048860744 0.83806676
0.018221674 0.047942303 0.83791667
0.022520833 0.047558572 0.83802223
0.027411031 0.047185037 0.83733326
0.032300241 0.047604185 0.83686668
0.037600804 0.047263149 0.83740002
0.04316948 0.047103867 0.83686662
0.047488902 0.047184926 0.83733326
0.051943921 0.049310781 0.83865339
-0.0060124975 0.052715667 0.83945006
-0.0024870024 0.053023469 0.83814824
0.0021981848 0.052911565 0.83639258
0.0064865723 0.051733192 0.8362
0.052335601 0.052464809 0.83635235
0.055763032 0.053433061 0.83846682
-0.0022922438 0.057517447 0.8383168
0.0021980219 0.057579331 0.83637768
0.00531025 0.058265395 0.83506638
0.053260438 0.057941649 0.83599991
0.056149542 0.057718258 0.83840013
-0.0013153336 0.062055256 0.83905011
0.002200712 0.062312707 0.83725929
0.0063572614 0.062757879 0.83627772
0.052394949 0.062542148 0.83772504
0.056178246 0.0608688 0.83883357
-0.00092467346 0.065630712 0.83986676
0.0025195016 0.066211753 0.83930683
0.0072013163 0.066870876 0.83777344
0.011298078 0.067438312 0.83644432
0.051968146 0.066814438 0.8390401
0.008468789 0.070278607 0.83940017
0.012879609 0.071972437 0.83791113
0.016860891 0.073447354 0.83635986
0.051833577 0.072510444 0.83814752
0.01470034 0.07636638 0.83766669
0.018046234 0.077475332 0.83760959
0.022104861 0.079038188 0.83708334
0.025566781 0.07926774 0.83539999
0.05211651 0.077029064 0.83640134
0.023060529 0.082181774 0.83870006
0.027183764 0.082558662 0.83724451
0.032253753 0.083291434 0.83567607
0.049011458 0.082502298 0.83666664
0.027570596 0.086527564 0.83949339
0.032883093 0.087145612 0.83778787
0.037821252 0.087513074 0.83569515
0.044266678 0.087821826 0.8354665
0.047499001 0.087254427 0.83747405
0.033511326 0.090562984 0.83926684
0.037766621 0.092295103 0.83754867
0.042746056 0.092565715 0.83619446
0.047323935 0.09216395 0.83785009
0.039349198 0.097901098 0.8386001
0.042861853 0.098274253 0.83845198
0.046000354 0.09517847 0.83866686
0.039807044 0.10158007 0.83999991
0.041360546 0.10154781 0.8397333
0.0069493516 0.044025782 0.84499997
0.01167716 0.044025782 0.84499991
0.022697195 0.044003788 0.84457785
0.027372399 0.043923903 0.84304458
0.032101382 0.043938953 0.84333348
0.03685407 0.04397947 0.84411114
0.042377289 0.043994524 0.84439993
0.04754746 0.043340847 0.84392005
-0.0021075476 0.048236638 0.84305871
0.0024141145 0.047281887 0.84352303
0.0069239233 0.046999745 0.84198517
0.012419919 0.046215057 0.84195006
0.017605145 0.046065368 0.84208012
0.022623658 0.045427363 0.84184438
0.026501628 0.045345828 0.8403334
0.03200452 0.045369808 0.8407777
0.037548058 0.045437548 0.84203339
0.042986561 0.045376997 0.84091097
0.047666825 0.045353014 0.8404665
0.052499011 0.046770196 0.84255546
0.055666883 0.048622146 0.84293342
-0.010761943 0.053366948 0.84357512
-0.0076521956 0.052561976 0.84146076
-0.0024946176 0.050063472 0.84080529
0.0022102727 0.050064474 0.84082204
0.0053433185 0.05003139 0.84026647
0.056584198 0.051638201 0.84100008
-0.011425153 0.057068866 0.84417278
-0.007209586 0.057960417 0.84191108
-0.0040583643 0.059395611 0.84006667
0.058758322 0.057980124 0.84217787
-0.0070257667 0.062777251 0.84349948
-0.0034371386 0.062926896 0.84130651
0.056815259 0.062926151 0.84130657
-0.0062806085 0.067200407 0.84388018
-0.0026958918 0.067592561 0.84240842
0.0018177563 0.06843666 0.84074986
0.052756004 0.067625016 0.84038329
0.056499492 0.067494005 0.84362221
-0.0019799948 0.07174293 0.84437776
0.0022151596 0.072132483 0.84280753
0.0067239273 0.072215572 0.84149158
0.010830861 0.073497675 0.84049982
0.0539365 0.071931705 0.84046668
0.055759311 0.070691638 0.84433329
0.0026134802 0.075805381 0.84443319
0.0071341889 0.076709867 0.84357506
0.012203827 0.077601343 0.84183025
0.017104581 0.079767451 0.84066641
0.050801225 0.079747967 0.84046167
0.0077373185 0.080178641 0.84499991
0.012665623 0.082376815 0.84409088
0.017913846 0.083017372 0.8418963
0.021541297 0.083915703 0.84044433
0.050929457 0.083082885 0.84258276
0.014829034 0.086466081 0.84499991
0.018411398 0.087722175 0.8441143
0.022640105 0.087775998 0.84247416
0.026924154 0.088828005 0.84131652
0.030409805 0.089086652 0.84006661
0.050953329 0.087826967 0.84297782
0.023210021 0.092137687 0.84415561
0.027358167 0.092491671 0.8426075
0.031821549 0.09252806 0.84115815
0.035121154 0.093804471 0.84033316
0.049210612 0.090649314 0.84006667
0.05099228 0.092602454 0.84362221
0.024284655 0.09589722 0.84499991
0.027719006 0.09641514 0.84402668
0.032085445 0.097232208 0.84294099
0.036277115 0.097252592 0.84118068
0.047467556 0.097071953 0.8415556
0.03244267 0.10112987 0.84406674
0.037097692 0.10204375 0.84253341
0.043323968 0.1026842 0.84135991
0.047003593 0.10189813 0.84262222
0.038735248 0.10582868 0.84397334
0.042828918 0.10712884 0.84341836
0.046720702 0.10645939 0.84461653
0.043190941 0.11003099 0.84489989
0.003817705 0.039519541 0.84950006
0.044994343 0.03950559 0.84920031
0.047366716 0.03950249 0.84913361
-0.0017272498 0.044247381 0.84925324
0.002424991 0.042776302 0.84752792
0.006966053 0.041769657 0.84708279
0.012645979 0.04221477 0.84653986
0.01803015 0.042567547 0.8473112
0.022794068 0.041822556 0.84815568
0.027500972 0.041765269 0.84700006
0.031942844 0.041947167 0.84749347
0.037009567 0.041799296 0.84768897
0.042521574 0.041780204 0.84729183
0.048419975 0.041361727 0.84678352
0.052810073 0.04277673 0.84754181
0.056041081 0.043423623 0.84860039
-0.005658132 0.04874137 0.84500003
-0.0028273191 0.046312608 0.84658289
0.00064576312 0.04560845 0.84519982
0.054240268 0.045608453 0.84519988
0.056888349 0.046968468 0.84706676
0.05861659 0.052051287 0.84767777
-0.011970282 0.058211137 0.84555143
0.059004068 0.055074397 0.84570009
0.060788527 0.059998415 0.84859264
-0.011200462 0.063035406 0.84696859
-0.0088127833 0.062907979 0.84526658
0.059085906 0.063815668 0.84687304
0.060725607 0.061513238 0.8477143
-0.010820042 0.067457959 0.8481077
-0.0084217694 0.068042368 0.84556353
0.059223834 0.06791164 0.84885001
-0.0072568599 0.072530642 0.84746319
-0.003559849 0.073421247 0.84562212
0.056896545 0.072823681 0.84719688
-0.0062106475 0.076315999 0.84865707
-0.002316704 0.077061109 0.84743345
0.0019094183 0.078107908 0.84640008
0.0053772326 0.078662589 0.84560007
0.05601614 0.075750813 0.84822226
-0.00093524309 0.080602437 0.84946692
0.0027588571 0.081587352 0.84874469
0.0067411312 0.082419865 0.84725732
0.010903274 0.084217675 0.84610009
0.05288209 0.082109004 0.848701
0.0080390275 0.085836373 0.84913355
0.012344781 0.087840065 0.84763354
0.016448969 0.089062765 0.84726691
0.052894484 0.0884443 0.8489002
0.013328379 0.090909235 0.84980005
0.018560568 0.092505835 0.84752244
0.021679839 0.09389811 0.84586662
0.052819196 0.092258997 0.84769183
0.0236011 0.097904168 0.84876686
0.027085101 0.098808005 0.84636664
0.049530864 0.09831737 0.84553325
0.052104145 0.097132057 0.84891689
0.027865658 0.10166194 0.84850681
0.031844929 0.10361074 0.84701681
0.049618077 0.10243075 0.84702229
0.033357084 0.10630663 0.8486225
0.036425568 0.10760143 0.84638882
0.048532743 0.10707927 0.8464334
0.037676536 0.1114466 0.84849346
0.042220641 0.1123443 0.8465333
0.04721728 0.11180985 0.84645557
0.042936776 0.11595137 0.84879071
0.046559829 0.11528472 0.84886688
0.047669206 0.034986272 0.85456669
0.052434787 0.034975354 0.85430008
0.058018252 0.034979451 0.85439998
0.0030376241 0.038864799 0.85250002
0.0070019085 0.039606426 0.85136771
0.012566076 0.039629258 0.85185838
0.017899984 0.038920563 0.85371119
0.022928968 0.038895912 0.85316664
0.027707249 0.038903449 0.85333347
0.032831717 0.039100237 0.85416019
0.037251163 0.038898651 0.85323334
0.041978329 0.038854849 0.8522833
0.047566622 0.037686091 0.85275
0.052875012 0.037966918 0.85370338
0.057806201 0.037951365 0.85421681
0.063024797 0.037703309 0.85438621
0.065979794 0.038949467 0.85433334
-0.002924758 0.043208804 0.85212499
0.00065019453 0.041172344 0.85100001
0.033942565 0.041127194 0.8500666
0.052971348 0.04113042 0.8501333
0.058316592 0.042582877 0.85209996
0.062763423 0.042902298 0.85392976
0.06709636 0.043136116 0.85405958
0.059381604 0.047510657 0.85111099
0.062538408 0.04744947 0.85356671
0.06798555 0.047302827 0.85451669
0.059445951 0.050732017 0.85203332
0.061955336 0.052422803 0.8537612
0.060994208 0.057033762 0.85146409
-0.01527472 0.063557953 0.85400003
-0.013657968 0.062654801 0.85250002
-0.01527472 0.069912374 0.85400003
-0.013140476 0.067998074 0.85325003
0.059306405 0.068006411 0.85003346
-0.011613434 0.072723471 0.85237408
0.059450589 0.071341887 0.85210013
-0.010490537 0.077812098 0.85351014
-0.007823403 0.078194194 0.85190767
-0.0041082851 0.079109088 0.85039997
0.054630797 0.079191491 0.85128576
0.056385033 0.078632876 0.8538081
-0.010502704 0.08187481 0.85450006
-0.0067798439 0.082083382 0.85390931
-0.002724326 0.082568631 0.85139996
0.0011790007 0.083366901 0.85079998
0.054332189 0.082506828 0.85281044
0.056463741 0.081127502 0.85499996
-0.001737237 0.086614877 0.85421681
0.0022408306 0.087271318 0.85285556
0.0064710523 0.08763162 0.8512277
0.053138092 0.086472496 0.85280967
0.0030430793 0.090610206 0.85443354
0.0072476412 0.091668434 0.85370964
0.011965138 0.092483602 0.8515541
0.017044635 0.094435543 0.85071105
0.012807842 0.096726179 0.85356975
0.018350655 0.097797349 0.85176659
0.02167153 0.098520651 0.85068333
0.053491171 0.098678768 0.85206681
0.014191659 0.10010364 0.85406673
0.018175112 0.10223027 0.85413337
0.022900401 0.10305341 0.85217404
0.027229521 0.1040792 0.85084987
0.052150398 0.10274673 0.85225999
0.023408096 0.10782482 0.85410011
0.027684411 0.10787164 0.85266662
0.031853151 0.10815194 0.85072213
0.049897939 0.10855359 0.85179996
0.051658824 0.10732637 0.85465014
0.024554791 0.11126818 0.8544001
0.027963432 0.11237992 0.85421908
0.032467294 0.11266974 0.85296667
0.036365107 0.11321582 0.8511166
0.049981903 0.11111622 0.8532334
0.050007287 0.11276064 0.85366666
0.032834016 0.11664829 0.85422671
0.037209209 0.11733793 0.85230374
0.041498438 0.11828704 0.85058331
0.047257412 0.11781192 0.85191107
0.037816416 0.12180924 0.85401678
0.041958403 0.12203426 0.85188144
0.04659133 0.12200116 0.85304165
0.042390548 0.12617576 0.85418004
0.045787554 0.1260643 0.85414457
0.038734812 0.032396428 0.85966676
0.04226638 0.032737412 0.85813326
0.046553269 0.033055853 0.85603988
0.051759303 0.033464033 0.85629201
0.0070506348 0.038281705 0.85716671
0.012241825 0.037873946 0.85698342
0.017791679 0.036475055 0.85757142
0.023048351 0.035907395 0.85761118
0.027555427 0.03610592 0.85853338
0.032644074 0.036702264 0.85755998
0.037458301 0.035923589 0.85798883
0.04219212 0.035866745 0.85662246
0.045361686 0.035050411 0.85613364
0.052514032 0.035028577 0.8556003
0.059704073 0.039809514 0.85573363
0.062115494 0.037429929 0.85596681
0.067652218 0.03979091 0.85533339
0.064466819 0.049341273 0.85540015
0.067358091 0.048082858 0.85565358
0.064620905 0.052650124 0.85744447
0.067317598 0.052388053 0.85687929
0.063883975 0.055892788 0.85826683
0.066358827 0.055956267 0.85924137
0.06223613 0.063027442 0.85761267
0.058133028 0.076454319 0.85610002
-0.010523872 0.084428936 0.85622227
-0.0083940225 0.083885871 0.85609454
0.057145197 0.083997168 0.85722381
-0.01055406 0.087067932 0.8586784
-0.007146291 0.087598436 0.8580035
-0.0031807758 0.088306479 0.85674685
0.054949749 0.087616839 0.85625571
0.056707349 0.087867327 0.85868889
-0.0062917452 0.091712482 0.8598001
-0.0023476395 0.092464596 0.85873342
0.0020229968 0.092881046 0.85652393
0.0062389378 0.093928054 0.85570025
0.054991107 0.092465781 0.85690016
0.055085234 0.092623651 0.85836685
-0.0017486231 0.095988631 0.85990012
0.0024581631 0.097283266 0.85896683
0.0070449095 0.0972341 0.85677046
0.010225546 0.098668739 0.85540032
0.054976117 0.095627733 0.8566668
0.056575999 0.098021403 0.85670006
0.007466665 0.10111281 0.85926664
0.011648128 0.10229547 0.85745007
0.015023825 0.10273109 0.85610032
0.054925859 0.10111324 0.85588342
0.055864781 0.10216303 0.85803342
0.012678625 0.10553704 0.85950005
0.017448764 0.10690719 0.85766017
0.02140788 0.10829187 0.8560003
0.052996475 0.1076145 0.85694194
0.019354654 0.11084811 0.85935563
0.022806881 0.11254374 0.85720015
0.02699209 0.11464781 0.85590029
0.051249292 0.11316029 0.85668898
0.02429226 0.11748822 0.8592
0.027840257 0.11804973 0.85747415
0.032170087 0.11898914 0.85563362
0.050865173 0.11707659 0.85737342
0.028210271 0.1220922 0.85898668
0.0326261 0.1227895 0.85715568
0.036303256 0.12366835 0.85588926
0.048494596 0.12407971 0.85506696
0.05062104 0.12280935 0.85730016
0.032923855 0.12738474 0.85896194
0.037440654 0.12763864 0.85759258
0.041777492 0.12864193 0.85631686
0.047467709 0.12788741 0.8557114
0.050215572 0.12758146 0.85722238
0.039129689 0.13112344 0.85953343
0.042818408 0.13203192 0.85850006
0.046825062 0.13201092 0.85786676
0.050214268 0.13076752 0.85720026
0.032780115 0.028850129 0.86120844
0.03594311 0.028809648 0.86000001
0.0071072131 0.032162838 0.86412841
0.012266486 0.032812003 0.8642807
0.017213579 0.033038907 0.86303908
0.022769542 0.03329441 0.86223406
0.028232707 0.032557119 0.86243337
0.032810967 0.032083243 0.86199468
0.036605634 0.031707399 0.8604995
0.042358752 0.030409412 0.86000001
0.0081789829 0.03644212 0.86396688
0.011592968 0.03594055 0.86222678
0.015905524 0.035234638 0.86063331
0.029527472 0.035208706 0.86000019
0.031933337 0.035208706 0.86000019
0.063324705 0.058512233 0.86156607
0.066597715 0.056963537 0.86237097
0.063426428 0.062619999 0.86295015
0.061686087 0.067291692 0.86112231
0.061939981 0.070785597 0.86466682
0.058442339 0.078462124 0.86065507
0.060245965 0.075508915 0.8635
-0.012174215 0.081601918 0.86000001
0.058414832 0.080025405 0.86025006
-0.010575648 0.089646056 0.86043489
-0.0089726476 0.089663289 0.86060011
0.058579694 0.088276424 0.86267775
0.060331997 0.086876743 0.86473358
-0.010591933 0.092990898 0.86175972
-0.0079074008 0.093449838 0.8610695
-0.0041553047 0.094414644 0.86013341
0.057653062 0.093472362 0.86323994
-0.010587456 0.096956477 0.86139554
-0.0073745102 0.097756311 0.86137998
-0.0027815942 0.098116562 0.86052376
0.00065732544 0.099237777 0.86033344
0.058227491 0.09758538 0.86341619
-0.006585937 0.1011887 0.86332393
-0.0025566805 0.10104654 0.86211109
0.0024656609 0.10240885 0.86176258
0.0067544901 0.10340538 0.86038685
0.056919411 0.10342722 0.86190009
0.0030760611 0.10606912 0.86383343
0.0070952009 0.10755481 0.86285186
0.011671196 0.1078072 0.86120975
0.015092262 0.10879795 0.86000019
0.055345125 0.10669783 0.86241668
0.0081783384 0.11142834 0.86385566
0.011918839 0.11232904 0.86254072
0.016886782 0.11244324 0.86068898
0.053748488 0.1123383 0.86260575
0.013016906 0.11629691 0.86421132
0.017543266 0.11710841 0.86228889
0.022156173 0.11715331 0.86026686
0.051994301 0.11842407 0.86019993
0.01869444 0.12111797 0.86343336
0.022945719 0.12198537 0.86133343
0.027532965 0.12444406 0.86033344
0.052022502 0.12222353 0.86066657
0.024405567 0.12646815 0.86322504
0.028165512 0.12798662 0.86128336
0.031956315 0.12969029 0.86063337
0.052485775 0.12824494 0.86167777
0.02801167 0.13107501 0.86272222
0.033045847 0.13266879 0.86214763
0.037398562 0.13318096 0.86120003
0.041305274 0.13391289 0.8603335
0.047976218 0.1344046 0.86006683
0.051812783 0.13277529 0.86160994
0.033692501 0.13582018 0.86398351
0.037878219 0.13787247 0.86299169
0.042418249 0.13779026 0.86122233
0.047228783 0.13776308 0.86105192
0.05093557 0.13761535 0.86264169
0.038787279 0.14195286 0.86381131
0.042482495 0.14281166 0.86252594
0.047309697 0.1428117 0.86252594
0.050611958 0.14305377 0.86398911
0.042952247 0.14665216 0.86388344
0.047360957 0.14617947 0.86346692
0.050669253 0.14643338 0.86496693
0.02415715 0.029103331 0.86876661
0.027330801 0.029032424 0.8666501
0.0079278592 0.033838209 0.86586678
0.010341103 0.033806946 0.86506689
0.024093725 0.03144329 0.86647511
0.027304733 0.030615086 0.86581683
0.0063190684 0.036289014 0.8666867
0.067031048 0.058943667 0.86792594
0.06588354 0.063448653 0.86881679
0.06373062 0.067759164 0.86708897
0.06591247 0.067923144 0.86920005
0.063433245 0.072718874 0.86854172
0.066605069 0.071714111 0.86942226
0.062195495 0.078341842 0.8681916
0.061604392 0.087156177 0.86751127
0.058739636 0.091734298 0.86503339
0.060601 0.09211155 0.8685891
0.06060876 0.095355019 0.86870009
-0.0074219126 0.10270461 0.86707503
-0.0025708277 0.10399082 0.86659455
0.00066150236 0.10470001 0.86579996
0.058904529 0.10248084 0.86746156
-0.010680924 0.10993651 0.86900002
-0.006359736 0.10563502 0.86907315
-0.0023464945 0.10787137 0.86910468
0.0020480019 0.10859925 0.86753815
0.056830522 0.10843388 0.86666834
-0.010656342 0.11129629 0.86700004
-0.0019307565 0.11196045 0.86965322
0.0025144669 0.11266596 0.86867619
0.0065917405 0.11346203 0.86711121
0.055766463 0.11316848 0.86898214
0.0039071371 0.11645615 0.86939996
0.0073461235 0.11777443 0.86868328
0.011440478 0.11827224 0.86690015
0.053943008 0.11757498 0.8657276
0.055808872 0.11810607 0.86964297
0.0087728072 0.12132648 0.8695333
0.012548433 0.12232718 0.86897773
0.016296219 0.12315699 0.86723346
0.020021267 0.12392161 0.86506671
0.053955425 0.12243336 0.86592692
0.055779833 0.12289586 0.86919051
0.018080398 0.12727284 0.86871666
0.021472329 0.1275841 0.86671263
0.053940214 0.12642503 0.86568254
0.023126721 0.13183036 0.86813331
0.027762175 0.13354982 0.86750001
0.024980137 0.13583186 0.86919993
0.028429776 0.136876 0.86849529
0.032434031 0.13751872 0.86623907
0.053249385 0.13718222 0.86754286
0.029857075 0.14074732 0.86959994
0.033059712 0.14219287 0.8685444
0.037159812 0.14273266 0.86594689
0.052453697 0.1420721 0.86780006
0.033903368 0.14556666 0.86940002
0.037901212 0.14696817 0.86811912
0.04270516 0.14893554 0.86704445
0.04749874 0.14861931 0.86598343
0.051675744 0.14699942 0.86831665
0.04306322 0.15193503 0.86882216
0.047617592 0.15202005 0.86814994
0.050921127 0.15120396 0.86926675
0.044446599 0.15528208 0.8694666
0.046888206 0.15531184 0.86963344
0.068819471 0.059899893 0.87009102
0.070515789 0.058342244 0.87100005
0.068210617 0.06284976 0.87060243
0.070580035 0.063259102 0.87179369
0.06819991 0.068022057 0.87046689
0.070508376 0.068056114 0.87090856
0.062322021 0.074458949 0.87
0.067533396 0.073460445 0.8709445
0.070506528 0.072915815 0.87088555
0.062767379 0.077339545 0.87055016
0.067142762 0.077445164 0.87238687
0.070677713 0.077151619 0.87300003
0.062904671 0.087246276 0.87246799
0.062548868 0.092597909 0.87316686
0.060701795 0.097119808 0.87003314
-0.0090862941 0.10376815 0.87150002
0.060946349 0.10401087 0.87353826
-0.0079992255 0.10749266 0.87102956
0.059160244 0.10535634 0.87122726
-0.0074623576 0.11188213 0.87156254
-0.004204582 0.11172384 0.87033337
0.0022872721 0.11491816 0.87
0.057542831 0.11266503 0.87133998
-0.010730089 0.1153144 0.87300003
-0.0074676722 0.11521896 0.87227726
-0.0025884402 0.11687317 0.87250006
0.0020578585 0.11762471 0.87120968
0.0055332417 0.11979161 0.8701334
0.057688832 0.11701256 0.87355071
-0.00096243713 0.12116051 0.87416649
0.0020907326 0.12201831 0.87303323
0.0071650371 0.12318037 0.87120014
0.01095271 0.12422228 0.87093353
0.057697803 0.12109311 0.87368631
0.0039281081 0.12521091 0.87406647
0.0075138239 0.12715194 0.87399328
0.012287915 0.12776427 0.87246662
0.015934831 0.12833628 0.87100011
0.056047224 0.1275465 0.8733573
0.01316699 0.13172834 0.87415552
0.017162779 0.13258131 0.87212384
0.02137249 0.13406231 0.87083352
0.054255612 0.13364348 0.87074447
0.056117363 0.13014573 0.87445009
0.017788809 0.13581543 0.87429988
0.022022381 0.1377648 0.87247497
0.026240937 0.13890088 0.87070018
0.054389916 0.13884631 0.87290001
0.023496117 0.14232183 0.87429988
0.027278773 0.14291899 0.87207884
0.054510374 0.14159432 0.87483335
0.028366065 0.1462829 0.87367773
0.03257408 0.14799996 0.87182087
0.036400046 0.1490636 0.87093359
0.052690424 0.14838743 0.87171662
0.034497585 0.15246487 0.87417507
0.038064297 0.15247066 0.87188148
0.041252416 0.15303814 0.87050015
0.051910255 0.1525321 0.87224996
0.038589291 0.15734753 0.87323326
0.042707864 0.15742001 0.87122512
0.048012726 0.15766032 0.87111437
0.051156763 0.15759082 0.87328887
0.043331183 0.16146167 0.87314653
0.047583099 0.16151851 0.87345314
0.059450381 0.083886728 0.87550008
0.069423445 0.080018498 0.87772733
0.064552203 0.089870147 0.87826669
0.064521171 0.093093507 0.87784433
0.063177437 0.098020367 0.8781082
0.061789457 0.10288429 0.87778372
0.059526771 0.1084557 0.87662506
0.061264336 0.10782218 0.8780961
-0.010754671 0.11395091 0.87500006
0.059509788 0.11249953 0.87637514
0.061373904 0.11128595 0.87966651
-0.010791544 0.11760809 0.87800002
-0.0071829585 0.11813247 0.87704194
0.059594691 0.11755731 0.87762529
-0.006707794 0.12186681 0.87926608
-0.0030685731 0.12257782 0.87682384
0.058991205 0.12233218 0.87675136
-0.0058924914 0.1260609 0.87999976
-0.0026069111 0.12749675 0.87861115
0.0020998798 0.12743357 0.8767668
0.005568428 0.12788391 0.87566668
0.058017895 0.12666857 0.87853336
-0.0021399457 0.13228087 0.87937129
0.0023094208 0.13240306 0.8786298
0.0072148871 0.13221139 0.87735575
0.011131357 0.13240954 0.87650681
0.056216832 0.13200594 0.87600011
0.0075630955 0.13649626 0.8797332
0.012137655 0.13727336 0.87841868
0.016470386 0.1375127 0.87647229
0.02025193 0.13999897 0.87503332
0.056435026 0.13906173 0.87939996
0.01324835 0.14127164 0.87957764
0.017048767 0.14214315 0.87821865
0.021587472 0.14313169 0.87627345
0.054657843 0.14360914 0.87719995
0.017624438 0.14674042 0.87966651
0.021761006 0.14726493 0.87832105
0.02641046 0.14795452 0.87635845
0.030059639 0.14984517 0.87550008
0.054669265 0.14608786 0.87738335
0.021997472 0.15054692 0.87959987
0.027095087 0.1518176 0.87866253
0.031737249 0.15305211 0.87676674
0.053130668 0.15371445 0.87899989
0.028572934 0.15552633 0.87999976
0.032504633 0.15696877 0.87789631
0.036079701 0.15922405 0.87632227
0.053179011 0.15712753 0.87979996
0.032664541 0.16038246 0.87969983
0.037486002 0.16241191 0.87740004
0.042727411 0.1641504 0.87579173
0.048457447 0.16419107 0.87600839
0.052240543 0.16207741 0.87779999
0.03918105 0.16509756 0.87866676
0.042827152 0.16750388 0.87903804
0.048186678 0.16752231 0.87852222
0.051465929 0.16589627 0.87856668
0.044985052 0.17025901 0.87999976
0.048263825 0.17024611 0.87993306
0.067301869 0.088620208 0.88208705
0.067642629 0.091652744 0.88194281
0.064750642 0.099979021 0.88096678
0.067292832 0.096811414 0.88198113
0.063740827 0.1022991 0.88213605
0.067304164 0.10011128 0.88213211
0.063144691 0.10823715 0.88148421
0.065044537 0.10701767 0.88496554
0.062352151 0.11320782 0.8818922
-0.009174915 0.11951296 0.88000005
0.062074646 0.11756111 0.88379586
-0.0082065547 0.12366998 0.88162631
0.059887215 0.12469726 0.88193333
0.061585493 0.1223419 0.88269949
-0.0072701294 0.12785178 0.88106531
0.059354205 0.12800778 0.88214445
0.061149288 0.12722765 0.88432235
-0.006730895 0.132957 0.88229746
-0.0042540003 0.13351288 0.88056272
0.057495061 0.13307354 0.88308501
-0.0017956068 0.1363124 0.88278335
0.0027889705 0.13763875 0.88225228
0.0068323025 0.13886316 0.88073307
0.056605205 0.1370201 0.88205165
0.0078136586 0.14242944 0.88337231
0.011624224 0.14311281 0.88083863
0.056546975 0.14261661 0.88114434
0.0127399 0.14717522 0.88227224
0.015999725 0.14852278 0.88053304
0.054990157 0.1494073 0.88253337
0.056677818 0.14705347 0.88318336
0.013875755 0.1514198 0.88470012
0.017338831 0.15249009 0.88254994
0.022038065 0.15328412 0.88122201
0.025292424 0.153901 0.88006645
0.055006776 0.15109459 0.88280004
0.022101196 0.15700972 0.88373899
0.026776228 0.15766734 0.8816666
0.030221011 0.15883626 0.88019973
0.053313013 0.15752301 0.88201672
0.028150663 0.16170296 0.88393348
0.031675879 0.16283283 0.88157141
0.053195119 0.16208644 0.88006657
0.032807007 0.16683483 0.88353342
0.036656313 0.1675728 0.88200825
0.040091764 0.16874981 0.88066655
0.052877985 0.16770156 0.88160831
0.0381933 0.17231534 0.88425016
0.041782547 0.17222805 0.88169628
0.047077686 0.17225266 0.8807748
0.051011205 0.1726217 0.88203335
0.042428315 0.17700928 0.88373345
0.046772249 0.17736281 0.88276303
0.050778359 0.17722185 0.88370007
0.047666825 0.1809164 0.88408339
0.050173346 0.18103579 0.88466674
0.067145705 0.10325034 0.88653839
0.066849031 0.10671159 0.8869856
0.065173656 0.11218055 0.88672227
0.063603088 0.11810687 0.88788331
0.065390095 0.11668835 0.8896668
0.063649647 0.12232441 0.88853329
0.063073337 0.12723051 0.88817769
0.058548413 0.1335983 0.88656646
0.062126216 0.13228816 0.88745826
-0.0064986073 0.13769354 0.88815469
-0.0030443978 0.13816629 0.88677466
0.00067632465 0.1383322 0.8852002
0.058632065 0.13709246 0.8878333
0.061483406 0.13688201 0.88800001
-0.0059571466 0.14233798 0.88965565
-0.0026351828 0.14208634 0.88807768
0.0020935324 0.14228889 0.88639987
0.0056315958 0.14333691 0.88560009
0.05851154 0.14257753 0.8860082
0.061095845 0.14199913 0.88753319
-0.0059523117 0.14718381 0.88893336
-0.0026372047 0.14720279 0.88904816
0.0023342709 0.1470228 0.88795537
0.0070862211 0.14704256 0.88683307
0.011405254 0.14901012 0.88505018
0.057930369 0.14826988 0.8855443
0.060293164 0.1470156 0.88791102
-0.0018087535 0.1505726 0.88941669
0.0025747318 0.15172587 0.88924772
0.007306071 0.15206029 0.88843697
0.011699528 0.15228359 0.88653308
0.015542697 0.15488029 0.88566673
0.057474017 0.15236251 0.88698882
0.06092393 0.15106267 0.88905549
0.0081415363 0.15631656 0.88915002
0.01226895 0.15692371 0.88790351
0.01719857 0.15739638 0.88591665
0.022161625 0.15991102 0.88615555
0.056015451 0.15666887 0.88834
0.012695208 0.16078961 0.88873327
0.017244838 0.16194837 0.88828135
0.022194212 0.16262437 0.88746643
0.026705004 0.16319783 0.88609993
0.056222495 0.16125122 0.88900006
0.018918602 0.16539784 0.88906664
0.022429649 0.16675772 0.88859993
0.026939396 0.16687292 0.88701636
0.031414103 0.16879864 0.88607979
0.055418011 0.16711435 0.88940024
0.023073848 0.17043602 0.88946664
0.027200788 0.17113747 0.88881105
0.032128368 0.17254908 0.88756639
0.036063019 0.1735169 0.88660651
0.053609531 0.17324914 0.88692206
0.032416519 0.17648341 0.88897139
0.037318628 0.17779948 0.88728553
0.040878158 0.1790802 0.88584447
0.05308187 0.17827187 0.88729995
0.037987016 0.18193656 0.88906658
0.042228319 0.18290514 0.88674563
0.046697196 0.1833867 0.88580006
0.052174773 0.18277252 0.88710827
0.042117283 0.18710834 0.8887555
0.04701085 0.1873448 0.8872664
0.051210202 0.18757001 0.8883332
0.043793693 0.19021967 0.88913333
0.04765648 0.1912965 0.88901109
0.050985675 0.19079514 0.88924438
0.068040282 0.10949825 0.89176059
0.06812235 0.11295179 0.89283663
0.067738727 0.11812431 0.89248115
0.067261308 0.12286357 0.89245045
0.063802451 0.12924564 0.89066672
0.067144729 0.12781435 0.8936851
0.06614323 0.13350661 0.89424193
0.063901551 0.13857327 0.89205027
0.066569045 0.13643734 0.89436698
0.063844241 0.141765 0.89125013
-0.0076492778 0.14627764 0.89350009
0.062120449 0.14742112 0.89036679
-0.0059898081 0.15143885 0.89453346
-0.0028795931 0.15294729 0.89085406
0.0015116332 0.15417284 0.89110017
0.061376262 0.15343288 0.89161688
-0.0018179705 0.15634339 0.89403355
0.0029038526 0.15736094 0.8935113
0.0066636205 0.15816939 0.89120018
0.058501057 0.15808584 0.89213353
0.060679447 0.1579306 0.89360023
0.0076779732 0.1618441 0.89318037
0.011996576 0.16367526 0.89229357
0.057289276 0.16330229 0.89268899
0.013185045 0.16628769 0.89385021
0.017104151 0.16776758 0.89176685
0.020606043 0.16894589 0.89033341
0.056368459 0.16705838 0.89130843
0.019015782 0.17206609 0.8936336
0.022082457 0.17315862 0.89252883
0.027265802 0.17403381 0.89094466
0.055584166 0.17259444 0.8920669
0.022776747 0.17672779 0.89409196
0.027317001 0.17768317 0.89261883
0.031410754 0.17895004 0.89066684
0.055609781 0.17765395 0.89247799
0.02902968 0.18129632 0.89406711
0.032516059 0.18243787 0.89252526
0.035995305 0.18276276 0.89107519
0.05570256 0.18127598 0.89396679
0.033206679 0.18633422 0.89430034
0.037557457 0.18724211 0.89295739
0.040591016 0.18909593 0.89163345
0.053832505 0.18722282 0.89061135
0.042584274 0.19265836 0.89276695
0.046076398 0.19327794 0.89052242
0.052795414 0.19299752 0.89177799
0.044051465 0.19716255 0.89436698
0.047298983 0.19763063 0.89271861
0.051771224 0.19719248 0.8932445
0.07150507 0.10791529 0.8969872
0.070996545 0.11188706 0.89761609
0.071365975 0.11723256 0.89699316
0.071381807 0.12142923 0.89718747
0.070905186 0.12675159 0.89646083
0.068577744 0.13211212 0.89662665
0.07108359 0.13208765 0.89871681
0.068139836 0.13680285 0.8967557
0.064360023 0.14625365 0.89845014
-0.0060210554 0.15390155 0.89920008
-0.0030817084 0.15816239 0.89727724
0.0015198502 0.15915784 0.89583325
0.062669285 0.155407 0.89823347
-0.0018252664 0.1619399 0.8973946
0.0021172406 0.16224372 0.89643818
0.0056973048 0.16334209 0.89593327
0.059129529 0.16323879 0.89536667
0.060796008 0.16239716 0.89531684
0.0027825874 0.16603774 0.89925021
0.0075902017 0.16677073 0.89756262
0.01196395 0.16794407 0.89603341
0.058374196 0.16762266 0.89656687
0.0090690898 0.17057142 0.89890009
0.012616001 0.17183279 0.89784187
0.017061267 0.17303169 0.89605331
0.058133081 0.17190504 0.89714456
0.017214442 0.1772044 0.89755845
0.022400264 0.17912498 0.89568335
0.057673581 0.17554878 0.89870036
0.019103976 0.18204945 0.89777797
0.022188475 0.18232584 0.89679056
0.027077651 0.18262592 0.8956933
0.030733751 0.18484284 0.89513344
0.056032814 0.18402353 0.89926684
0.022710294 0.1867355 0.89851445
0.027436247 0.18679407 0.89650369
0.032002121 0.18785477 0.89560002
0.03742262 0.18989471 0.89540011
0.028322522 0.19129914 0.89808357
0.032685813 0.19173183 0.89717102
0.037230909 0.19228104 0.89653814
0.040789805 0.19335552 0.89599997
0.038097959 0.19661723 0.89821142
0.041918159 0.19759341 0.89632231
0.054271046 0.19876887 0.89786679
0.042528961 0.20201695 0.8974573
0.047470961 0.20251028 0.89594442
0.05149534 0.20216978 0.89813352
0.04371975 0.20626408 0.89898902
0.047586475 0.20634247 0.89811689
0.072944574 0.11733688 0.90100002
0.072944574 0.12236499 0.90100002
0.071185097 0.13227424 0.90000004
0.068044111 0.13941355 0.90286672
0.071434565 0.13609782 0.90315396
0.066283502 0.14260839 0.90182233
0.064611942 0.14934155 0.90196681
0.064564183 0.1509078 0.90130025
0.062836744 0.15833552 0.90063334
0.063046053 0.16138406 0.90363342
-0.0021169384 0.16736285 0.90263271
0.0020344676 0.16879854 0.90193349
0.0057278299 0.1692438 0.90073371
0.059509262 0.16847777 0.90111685
0.061361518 0.16811161 0.90364456
-0.002683924 0.1700267 0.90490001
0.004058287 0.17135583 0.90303326
0.0074222344 0.17295781 0.90262383
0.010768261 0.1742834 0.90080035
0.059603918 0.17378354 0.9025501
0.06127023 0.17121667 0.9023
0.0091197034 0.17740934 0.90391666
0.012462866 0.17785631 0.90191871
0.058473308 0.17794822 0.90240008
0.013615948 0.18218325 0.90396667
0.016835863 0.18254356 0.90186673
0.057883222 0.18122035 0.90196687
0.017948668 0.1864478 0.90290833
0.021699693 0.18946593 0.90128374
0.056311134 0.18829983 0.90373343
0.01923638 0.19003703 0.90399998
0.02256952 0.19223754 0.90248901
0.026912566 0.19350187 0.90133351
0.030920291 0.19434099 0.900567
0.05633397 0.19089895 0.90410036
0.024318468 0.19527598 0.90490001
0.028081749 0.19714761 0.90383333
0.032894734 0.19754532 0.90208101
0.036546316 0.19896036 0.90125579
0.03272415 0.20012674 0.90399998
0.038264599 0.2025156 0.90215564
0.040985551 0.20433177 0.9003002
0.053755857 0.2033217 0.90325844
0.038606763 0.20591693 0.90358329
0.042417176 0.20845361 0.90219337
0.047754157 0.20958336 0.90127808
0.052618854 0.20719099 0.90233332
0.044504598 0.21179636 0.90356666
0.047532599 0.21244733 0.90347326
0.052123971 0.21110421 0.90420002
0.069932677 0.1398228 0.90551758
0.071609721 0.1381157 0.90536851
0.068341821 0.14255427 0.90681696
0.071196273 0.14234488 0.90870875
0.067295954 0.14694725 0.9079113
0.064931922 0.15345342 0.90643346
0.066787779 0.15129952 0.90868354
0.065013908 0.15702362 0.90757799
0.063148372 0.16332965 0.90510023
0.065026246 0.16127515 0.90775025
-0.0043954062 0.1692612 0.90983337
0.063290238 0.16622882 0.90713352
-0.002350467 0.17238635 0.90668029
0.0020429564 0.17288294 0.90575343
0.061498825 0.17354017 0.90566677
-0.0018479149 0.17663449 0.90858364
0.0023852973 0.17730251 0.90767437
0.0064389082 0.17736706 0.90628016
0.059862565 0.17875208 0.90646678
0.062093735 0.17740151 0.90818357
-0.0026986541 0.18450019 0.90986663
0.0032378302 0.18267883 0.90922236
0.0074609807 0.18230134 0.90734482
0.011393201 0.18314755 0.90596676
0.059043553 0.18220446 0.90686691
0.060602207 0.18265653 0.9091112
-0.0026976655 0.1861245 0.90953332
0.0040891455 0.18619952 0.90989995
0.0080358861 0.18702985 0.90845037
0.012535219 0.18732482 0.90714848
0.016462313 0.18820576 0.9059779
0.058315333 0.18764581 0.90870005
0.013232959 0.19201903 0.90860689
0.017388288 0.19247749 0.90658355
0.05643158 0.19375677 0.90566701
0.017846471 0.19751197 0.90840858
0.022458486 0.19751528 0.90648359
0.026873499 0.19881819 0.90570009
0.056626823 0.19780822 0.9088003
0.019342775 0.2012336 0.9090001
0.02295764 0.20229106 0.90832406
0.027754122 0.20245256 0.90688175
0.032562148 0.20278238 0.90620488
0.036163975 0.20387252 0.90570009
0.056666277 0.20132951 0.90943348
0.024450164 0.20648791 0.90979993
0.027811566 0.2070992 0.90876693
0.032877699 0.2078287 0.90825963
0.037303727 0.20788419 0.90605015
0.054760624 0.20898846 0.90596676
0.056683928 0.20731531 0.90971673
0.034623284 0.21151863 0.90959996
0.038164206 0.21264701 0.9080919
0.042375844 0.21295516 0.90611124
0.049649697 0.21386315 0.90520006
0.053688824 0.21313207 0.90686685
0.043512292 0.21765946 0.90799081
0.048064552 0.21769953 0.90714848
0.052178144 0.21758147 0.90806693
0.073895834 0.14433548 0.91275012
0.06869477 0.14837736 0.91149998
0.072233148 0.1478097 0.91323215
0.068360798 0.15324013 0.91270018
0.071800068 0.15277943 0.91392887
0.067905784 0.15783976 0.91230011
0.066618219 0.16332963 0.91215014
0.063606545 0.1696023 0.91166669
0.065432541 0.16823018 0.91342241
0.063570879 0.17289655 0.91115564
0.065439314 0.17249539 0.91351682
-0.0018510316 0.17948836 0.9102
0.06353794 0.1778889 0.91068333
0.06540072 0.17663789 0.91297787
-0.0016847629 0.18287329 0.91188002
0.00069607067 0.18304485 0.91104442
0.062730856 0.18309182 0.91128331
0.065402307 0.18004042 0.91300005
-0.0010037053 0.18740609 0.91165006
0.0020564538 0.18761361 0.91183341
0.0066357916 0.18877296 0.9100666
0.061969485 0.18703313 0.91258901
-0.0010050959 0.19106168 0.91291326
0.002829975 0.19094045 0.91436517
0.0075055473 0.19215071 0.91270566
0.012024894 0.19381048 0.91120005
0.058418006 0.19305454 0.91029996
0.061211843 0.19213553 0.91398358
0.0083690276 0.19554675 0.91403353
0.013042016 0.19702241 0.91299176
0.058490735 0.1983809 0.9114334
0.061205804 0.19721912 0.91390014
0.014335301 0.2006402 0.91400021
0.017359355 0.20217781 0.91173333
0.022765871 0.20490807 0.91029996
0.057618354 0.20338523 0.91106665
0.06122588 0.20068413 0.91420013
0.018882914 0.20633309 0.91411132
0.022267304 0.20780928 0.9131279
0.029550271 0.20994192 0.91009992
0.058552057 0.20707697 0.91238898
0.023717459 0.21090695 0.91428363
0.027729772 0.21253435 0.91305012
0.032634456 0.21284425 0.91092664
0.056855302 0.21218707 0.91246676
0.074108705 0.1532651 0.91537946
0.072091408 0.15707839 0.91577178
0.069069088 0.16282479 0.91646671
0.071538389 0.16180448 0.91744328
0.068369336 0.16746429 0.91854155
0.071025461 0.16595832 0.91966665
0.067560762 0.17185883 0.91919988
0.06757547 0.17873681 0.91939998
0.066328354 0.18272185 0.91794443
-0.0027154617 0.1890554 0.9155333
0.063850716 0.18897967 0.91516691
0.06579233 0.18794793 0.9184444
-0.0010105065 0.19465114 0.91782773
0.0020661291 0.19351038 0.9156602
0.0058185509 0.19405141 0.91500038
0.064048402 0.19298029 0.9179998
0.003439724 0.19771092 0.9177599
0.007291886 0.19825192 0.91642869
0.011506843 0.19859032 0.91500038
0.062719114 0.19752489 0.91730005
0.0041300426 0.20173791 0.91899973
0.0078913588 0.20219135 0.91795313
0.012452606 0.20313963 0.91664171
0.016057467 0.20426384 0.91500038
0.062317666 0.20201665 0.91768891
0.0084182099 0.20524988 0.91941649
0.013035225 0.20744629 0.91853982
0.017434267 0.20815413 0.91564023
0.06070349 0.20520152 0.91920006
0.014412673 0.2111253 0.91893327
0.017577363 0.21226384 0.91804749
0.022902604 0.21296044 0.91580027
0.058912154 0.21176425 0.91799992
0.072930634 0.16467653 0.92206913
0.069433346 0.16968063 0.92130011
0.07208699 0.16814391 0.9222697
0.068843715 0.17306691 0.92107791
0.072203025 0.17270933 0.92374998
0.06905739 0.17667183 0.92201245
0.071331792 0.17612389 0.9236334
0.069142386 0.18247271 0.92314994
0.07178887 0.1822046 0.92396837
0.067904994 0.18734151 0.92388332
0.066591717 0.19201846 0.9215889
0.00070411002 0.19715841 0.92156696
0.066033505 0.1972128 0.9218111
0.002993295 0.20213066 0.92078894
0.00585077 0.20368348 0.92006665
0.064385623 0.20257929 0.92283344
0.0041527376 0.20714456 0.92405003
0.0075878114 0.2079972 0.92275006
0.011004955 0.208939 0.92060006
0.061490774 0.20763974 0.92243332
0.075080223 0.16907518 0.92737919
0.074055567 0.17215368 0.92538095
0.075072542 0.17164508 0.92728436
0.072687797 0.17749055 0.92627972
0.073224358 0.18428327 0.92578256
0.06938757 0.18785603 0.92641652
0.072556652 0.18737064 0.92827731
0.068663441 0.1930155 0.92636651
0.071191408 0.19189882 0.92930013
0.068175703 0.19758053 0.92756665
0.066500708 0.20292449 0.9283334
0.0020066728 0.20677175 0.92816663
0.0058827796 0.2099603 0.92509973
0.075292408 0.18858275 0.93000019
0.072810784 0.19235891 0.93153346
0.070822455 0.19650848 0.93203354
0.068556666 0.20215428 0.93274999
0.00071071868 0.20852602 0.93021685
0.072449058 0.19895045 0.9381001
0.00071455183 0.20530137 0.93523335
0.074497849 0.19712549 0.94188356
