# .PCD v0.7 - Point Cloud Data file format
VERSION 0.7
FIELDS x y z
SIZE 4 4 4
TYPE F F F
COUNT 1 1 1
WIDTH 1010
HEIGHT 1
VIEWPOINT 0 0 0 1 0 0 0
POINTS 1010
DATA ascii
0.013828011 0.058491498 0.8229599
0.017486829 0.058101758 0.82178503
0.022094242 0.05781921 0.82212651
0.027513215 0.058236074 0.82368344
0.032552492 0.059472959 0.82488346
0.013098673 0.062592998 0.82303333
0.017470058 0.062628619 0.82099223
0.022067348 0.06263864 0.82112563
0.027492052 0.062786154 0.82305551
0.032939021 0.06139471 0.82493347
0.014077397 0.06708058 0.82408345
0.017487368 0.067279369 0.82182199
0.022099633 0.067318611 0.82230353
0.025959073 0.066619828 0.82313335
0.017844219 0.071148351 0.82414675
0.02059257 0.070470691 0.82340014
0.012991878 0.053175945 0.82838911
0.017617527 0.05237684 0.82794821
0.022051662 0.052555379 0.82772493
0.027326839 0.053263042 0.8280381
0.033372026 0.053307295 0.82803994
0.037707951 0.052399706 0.8283112
0.042170309 0.05261841 0.82871687
0.047022264 0.05322203 0.82910013
0.0098985368 0.057004046 0.82804459
0.012294143 0.056860633 0.82596195
0.017560275 0.055277392 0.82524461
0.022174928 0.055269949 0.8251335
0.027593549 0.055333596 0.8260833
0.033161975 0.056650788 0.8257001
0.037597504 0.057622701 0.82587224
0.042283963 0.056943927 0.82715541
0.04698227 0.057029214 0.82839268
0.050124552 0.057089422 0.82926691
0.0098894397 0.062339667 0.82728314
0.011400779 0.064468972 0.82500017
0.032950018 0.063717268 0.82520014
0.037624735 0.063046291 0.82645917
0.042316154 0.062378157 0.82778329
0.047029015 0.061520893 0.82921678
0.0099001313 0.067799143 0.82817793
0.012031321 0.067933373 0.82606667
0.028345518 0.067968607 0.82555842
0.033018146 0.067694612 0.82690352
0.037691552 0.067779638 0.82793343
0.041618392 0.067116521 0.82926691
0.0099123493 0.072509773 0.82920027
0.01297419 0.072344348 0.82730371
0.017178373 0.073326007 0.82536674
0.02239041 0.072420523 0.825975
0.0274095 0.072167084 0.82687259
0.032572322 0.072461538 0.82864469
0.037449908 0.071603842 0.82942688
0.0099171298 0.075630978 0.82960021
0.013510618 0.07656803 0.82860023
0.017613214 0.077001311 0.82772607
0.022251841 0.077025883 0.82799268
0.026392883 0.076578148 0.82871133
0.030009206 0.075576283 0.82900035
0.014550583 0.080215469 0.82913363
0.017642502 0.080597892 0.82910037
0.021900868 0.08061894 0.82931697
0.013874894 0.049717795 0.83499974
0.017759575 0.049695302 0.83462209
0.02242277 0.049679425 0.83435541
0.027109787 0.049713824 0.83493304
0.032821879 0.049717795 0.83499974
0.037949186 0.049635757 0.83362222
0.042600799 0.048843805 0.83335549
0.046911418 0.049270935 0.83401662
0.052013237 0.04970324 0.83475536
0.058739077 0.049168419 0.83446646
0.062516257 0.048707433 0.83365327
0.0093365926 0.053014047 0.83311987
0.013028757 0.0510091 0.8307333
0.02388229 0.051025473 0.83099991
0.027019948 0.051095065 0.83213329
0.031927384 0.051601451 0.83198887
0.043977045 0.050964061 0.8300001
0.047125425 0.051020008 0.83091116
0.052559581 0.052576449 0.83108884
0.058043845 0.052629545 0.83192605
0.062758699 0.052681137 0.83273554
0.065767139 0.053376257 0.83150005
0.0077815638 0.057651989 0.83294666
0.052760124 0.057202723 0.83090901
0.058105901 0.057334304 0.83280736
0.062654041 0.057217818 0.83393329
0.066338472 0.056257997 0.83218104
0.0080214944 0.06165411 0.83361667
0.047118749 0.064407475 0.8308
0.052146204 0.061759401 0.8319
0.05705243 0.061909348 0.83444977
0.061372127 0.060590629 0.83499974
0.0084190192 0.066760391 0.83446652
0.043110032 0.068664111 0.83118665
0.047031756 0.067323692 0.8331809
0.05202033 0.065239988 0.83486646
0.034731075 0.074212782 0.83099991
0.038309556 0.074003235 0.83298331
0.042615045 0.072898 0.83362216
0.045799252 0.072240099 0.83499974
0.0099617578 0.078297488 0.83333319
0.012002941 0.078353941 0.83119994
0.028006775 0.078312226 0.83075547
0.032689393 0.077610984 0.83276963
0.037600901 0.076464467 0.83448321
0.042684674 0.076123245 0.83499974
0.009974909 0.08150427 0.83443326
0.012849442 0.082203649 0.83169168
0.017677845 0.082847074 0.83077323
0.022652265 0.082902834 0.83133328
0.027069842 0.082207963 0.83368134
0.031767596 0.080740035 0.83455539
0.013522946 0.086663522 0.83392382
0.017721321 0.086771198 0.83282971
0.022407679 0.086867698 0.83375543
0.026073635 0.085960545 0.83499974
0.017768111 0.090102591 0.83499974
0.021661317 0.090102598 0.83499974
0.012622452 0.048600394 0.83805561
0.01814343 0.047709197 0.83793336
0.02251037 0.047537114 0.83764452
0.02721785 0.046792164 0.83826667
0.032100476 0.048083361 0.83747625
0.037808865 0.047680173 0.83742666
0.043145258 0.046148121 0.83789337
0.047735471 0.046986233 0.83710003
0.051786922 0.047912903 0.83740002
0.057512436 0.047744446 0.836748
0.062142126 0.046721 0.83701313
0.006628349 0.052994888 0.83771116
0.0057120835 0.057232969 0.83700001
0.064503819 0.059053071 0.83522201
0.0059500001 0.062647574 0.83757335
0.059426818 0.063318931 0.83684444
0.063260823 0.062473495 0.8368082
0.06674587 0.062529683 0.83598977
0.0068994612 0.066338435 0.83893347
0.047897354 0.069423951 0.83537769
0.052128557 0.067710109 0.83659989
0.05717507 0.066839471 0.83738661
0.062425416 0.067099459 0.83868676
0.067041293 0.065464005 0.83773333
0.0084440727 0.072409347 0.83695
0.047845341 0.073305763 0.83576185
0.052210525 0.072494112 0.83791667
0.056625221 0.071980633 0.83901501
0.060158677 0.07031209 0.83979994
0.0084526474 0.077938385 0.83780003
0.038408499 0.078780286 0.83682662
0.042789277 0.078645237 0.83704442
0.047489837 0.077895492 0.83734077
0.051227745 0.076997936 0.83888912
0.0084630735 0.081933305 0.83883333
0.010011967 0.084144071 0.83753318
0.032891937 0.083029069 0.83676285
0.038163058 0.082661703 0.83828902
0.042870093 0.081133462 0.83862239
0.047623765 0.081238806 0.83971113
0.011579507 0.087301701 0.8379333
0.027684161 0.087683268 0.83661103
0.031902257 0.087320663 0.83810383
0.035583284 0.086363316 0.83891129
0.014299002 0.091491476 0.83703327
0.017796418 0.092583157 0.83635545
0.022703055 0.09226428 0.83648574
0.027023626 0.091821298 0.83827507
0.030371191 0.090534218 0.83900017
0.017850494 0.09520369 0.83888906
0.02253942 0.095178463 0.83866686
0.01167716 0.044025782 0.84499991
0.018768873 0.044025782 0.84499991
0.022706797 0.044022311 0.84493327
0.027372262 0.043922741 0.84302253
0.032138336 0.043988734 0.84428889
0.037654422 0.043472305 0.84443331
0.042962715 0.042570546 0.8438741
0.047607113 0.042819861 0.84338105
0.052254494 0.043630213 0.84494996
0.057657827 0.043369446 0.8444683
0.060387895 0.043921579 0.84300011
0.0032721693 0.048217412 0.84499997
0.0069356859 0.047080003 0.84342235
0.011831665 0.046409611 0.84193337
0.017521285 0.045818392 0.84185004
0.022601271 0.045382991 0.84102207
0.03243101 0.045809455 0.84168339
0.037539609 0.045949802 0.84186673
0.041413069 0.045370996 0.84079975
0.047678046 0.045363806 0.84066653
0.052803248 0.046082951 0.84239995
0.056101829 0.045935433 0.84159994
0.003002211 0.052555893 0.84319162
0.0065323203 0.050534055 0.8421334
0.0033962324 0.057669278 0.84338331
0.0061364328 0.067333564 0.84163332
0.064950079 0.068848133 0.84099972
0.067364872 0.06812989 0.84177387
0.0069356449 0.072176039 0.84333348
0.05863893 0.073494762 0.8404665
0.062396865 0.0720478 0.84181476
0.067524716 0.072214112 0.84376705
0.052741926 0.078586951 0.8414132
0.057403665 0.077000834 0.84245831
0.061828647 0.076520145 0.84426671
0.065990999 0.076184988 0.84428334
0.0084792171 0.084435418 0.8404333
0.043000236 0.083726339 0.84115547
0.047774538 0.083847053 0.8423667
0.052608415 0.081944898 0.84430003
0.056328654 0.080702595 0.84499997
0.010855339 0.089346468 0.84251666
0.038135998 0.088022806 0.84151101
0.043136574 0.087916158 0.8438223
0.047517467 0.086836867 0.84478331
0.012425466 0.092467487 0.84239995
0.028877404 0.093886346 0.84106642
0.032229442 0.092570573 0.84154159
0.037122615 0.092384525 0.8430602
0.041298326 0.092424616 0.84486657
0.014016557 0.097302377 0.84354454
0.017900022 0.097817533 0.84123319
0.022611471 0.097831838 0.8413555
0.027342178 0.097132832 0.84207416
0.032108329 0.09729787 0.84351134
0.036420427 0.097187147 0.84449518
0.017946221 0.10199037 0.8433854
0.022668246 0.10200202 0.84348172
0.027172642 0.10159077 0.84379059
0.032152861 0.10136173 0.84468883
0.035841499 0.10113681 0.84499997
0.018767845 0.10689468 0.84495544
0.022509813 0.10669439 0.84492493
0.025860589 0.1053284 0.84499991
0.01903153 0.11056796 0.84499997
0.021132769 0.11082995 0.84499991
0.038683545 0.039530404 0.84973353
0.043331962 0.039435294 0.84768897
0.048312765 0.038316071 0.84787625
0.052788034 0.037836097 0.84719801
0.05583778 0.037762444 0.84552139
0.0032876178 0.043707203 0.84900028
0.0071956837 0.043030705 0.84754306
0.012658732 0.042259511 0.8474468
0.017808734 0.0421266 0.84748584
0.02239297 0.042208724 0.84798342
0.02752761 0.041805852 0.84782243
0.032276127 0.041812092 0.84794468
0.03658529 0.041372828 0.84701669
0.040930189 0.040980414 0.84703338
0.048738554 0.040904626 0.84546673
0.0530499 0.041575648 0.84633332
0.05637582 0.041440498 0.84571105
0.060531165 0.042453922 0.84500003
-0.00093461922 0.048176497 0.84890032
0.0016994324 0.046754777 0.84698898
-0.0013303868 0.051702328 0.84845936
0.00064656121 0.051961478 0.84624451
0.001176173 0.056818157 0.84821111
0.0030210267 0.062886991 0.84852791
0.003815158 0.066339254 0.84893376
0.0053857118 0.068547808 0.84693348
0.0053977235 0.072646268 0.84882253
0.005397582 0.075802378 0.84880024
0.063043907 0.078792818 0.84700006
0.067425348 0.078441888 0.84746206
0.052673787 0.084145062 0.84536648
0.057977561 0.082377575 0.84605551
0.06231435 0.082022801 0.84780759
0.066623971 0.081821226 0.84804857
0.048304543 0.089102328 0.84614676
0.052985892 0.086887829 0.84719169
0.057389222 0.08658208 0.84805018
0.060817715 0.08529608 0.84900033
0.010524128 0.093412444 0.84741676
0.04378584 0.093413949 0.84623331
0.048113976 0.093121365 0.84834087
0.051855873 0.090579778 0.84917802
0.010917638 0.097735025 0.84730005
0.03848172 0.098289959 0.84529996
0.042311653 0.09759564 0.84733355
0.04659168 0.097455062 0.84944469
0.01373471 0.10220408 0.84701908
0.028231222 0.10378115 0.84519988
0.032199379 0.10386846 0.84591109
0.037482738 0.10288783 0.84646678
0.041250851 0.10204628 0.84820026
0.014257702 0.10703224 0.84853363
0.016440339 0.1071311 0.84682226
0.024309555 0.1085834 0.84586662
0.027696587 0.10733972 0.84690845
0.032081753 0.10708582 0.84801686
0.037702791 0.10678051 0.84904033
0.014892789 0.11130684 0.84863359
0.017497681 0.11241466 0.84706682
0.023219123 0.11212909 0.8471716
0.026511805 0.1110943 0.84902245
0.01885042 0.11604989 0.8486836
0.021867154 0.11657059 0.84902686
0.048386842 0.034928951 0.85316676
0.0086160908 0.039728884 0.85400003
0.013057877 0.039356403 0.85282671
0.018163489 0.038916375 0.85361677
0.022953896 0.038939234 0.85411114
0.027730584 0.038936973 0.85406113
0.032468598 0.038888838 0.85301661
0.036870457 0.038674273 0.85177994
0.04156296 0.038442753 0.85191667
0.04637555 0.036893681 0.85275006
-0.00094030728 0.043703746 0.85406673
0.0019221848 0.042499833 0.85223991
0.006205135 0.041172344 0.85099989
0.023649331 0.041148156 0.85049999
-0.0021294253 0.047147714 0.85172498
-0.0030585818 0.052322436 0.85214734
-0.0014704401 0.056091338 0.85318393
0.00065233378 0.058778357 0.8538
-0.00094096776 0.063607574 0.85466683
0.0010481516 0.061904699 0.85310841
-0.00094115129 0.067595467 0.8548336
0.0020402856 0.068000793 0.85244995
-0.00094118796 0.071573533 0.85486692
0.0026948166 0.072768092 0.85289532
0.0038358304 0.077020124 0.85353339
0.059373852 0.088663079 0.85099989
0.062813938 0.087372169 0.85190415
0.067275204 0.087492272 0.85307497
0.070483729 0.087871552 0.85100001
0.0085980417 0.091962002 0.85221118
0.053237472 0.09270864 0.85076666
0.057915576 0.092032313 0.85287404
0.062148076 0.091541931 0.85422671
0.067777343 0.09170308 0.85403854
0.070732199 0.092152834 0.85399997
0.0082040774 0.097161323 0.85264486
0.048508588 0.098649658 0.85130942
0.053368535 0.097039342 0.85330838
0.05720878 0.096148923 0.85421675
0.0086119799 0.1000481 0.85359263
0.011242997 0.10303051 0.85201102
0.042971313 0.10396034 0.85095549
0.04706781 0.10291219 0.85231334
0.051634256 0.10197898 0.85424453
0.012175335 0.10822603 0.85234165
0.033945221 0.10913113 0.85013354
0.036341526 0.10839372 0.85055
0.041985769 0.10783641 0.85239249
0.046052277 0.10726146 0.85413337
0.013103936 0.11260436 0.85248333
0.028164877 0.11295295 0.85112214
0.032245342 0.11238985 0.85234582
0.037237827 0.11186896 0.85291106
0.041249737 0.11116831 0.8536334
0.014580585 0.11711267 0.85355008
0.017473388 0.11779296 0.8510133
0.024051769 0.11751229 0.8506999
0.027497629 0.11722978 0.85296249
0.030928664 0.1160362 0.85440004
0.018673563 0.12161984 0.85268331
0.022903604 0.12208568 0.85223699
0.026671255 0.12129613 0.85413337
0.022960795 0.1263639 0.85437793
0.03871524 0.032379679 0.85923338
0.04206581 0.032138165 0.85811657
0.045942616 0.032961428 0.85704452
-0.010570305 0.038408242 0.85999995
-0.007086914 0.038365502 0.85903311
-0.0027770808 0.038822729 0.8590712
0.0025756275 0.039280914 0.85812008
0.0067333914 0.038936246 0.85757339
0.012162728 0.0376385 0.85706675
0.017979806 0.036168028 0.85747784
0.022729257 0.03606949 0.85766679
0.027857175 0.036720984 0.85795546
0.032956809 0.036058493 0.85741359
0.037405938 0.035872739 0.85677791
0.042164013 0.03584278 0.85604471
0.046125419 0.035024483 0.85550022
-0.010570305 0.040008008 0.85999995
-0.0071568899 0.042772934 0.8593061
-0.0029989812 0.042824648 0.85692388
0.00065365818 0.041391671 0.8555336
-0.0061514033 0.04754021 0.85879493
-0.004134933 0.047778416 0.85591632
-0.0057508214 0.05273518 0.85884243
-0.0041323048 0.053317487 0.85537225
-0.003077158 0.057958249 0.85732716
-0.0022793587 0.061713722 0.85780567
-0.0019061811 0.067356765 0.85788023
0.00065330148 0.0684091 0.85506696
-0.0017455961 0.072614491 0.85780013
0.00065493176 0.074161045 0.85720003
0.0022552197 0.077697098 0.85810018
0.0062485752 0.08930558 0.85716677
0.0070510567 0.092515983 0.85736674
0.063689083 0.093128845 0.85566694
0.066883542 0.093928054 0.85570025
0.0065167286 0.097306408 0.8573975
0.058758289 0.097772427 0.85590696
0.062978677 0.097243518 0.85685205
0.06776268 0.097229846 0.8567332
0.0081212111 0.10214142 0.85783887
0.010228734 0.10347462 0.85566682
0.053968906 0.10254673 0.85589361
0.0582073 0.10206359 0.85717785
0.062924616 0.10206181 0.85884166
0.067861937 0.10196254 0.8580035
0.0086672073 0.10548382 0.85906667
0.010236704 0.10674153 0.85633343
0.047574349 0.10889254 0.85571557
0.052347802 0.10685424 0.85722971
0.056672316 0.10590401 0.85815549
0.069612786 0.10557953 0.85984612
0.0086735971 0.11035918 0.85970008
0.010651561 0.11248428 0.85761666
0.034152862 0.1145719 0.85533351
0.037400205 0.11474457 0.8566224
0.042440813 0.11366122 0.85702854
0.046840217 0.11308378 0.8576166
0.05113415 0.11109647 0.85921681
0.011860727 0.11772051 0.8584097
0.029360373 0.11931727 0.85513359
0.032800693 0.11810774 0.8564502
0.037472323 0.11815985 0.8582741
0.042106006 0.11787318 0.85951436
0.047135305 0.11617623 0.85935563
0.013462218 0.12215907 0.85833323
0.016096508 0.12324045 0.85660011
0.028343467 0.12322763 0.85651129
0.032462206 0.12257241 0.8588286
0.036736637 0.12156781 0.8598001
0.018063206 0.12723985 0.85730386
0.023004929 0.12899543 0.85602254
0.027843803 0.12762435 0.85750371
0.031104833 0.12708673 0.85926676
0.019075476 0.1310167 0.85883331
0.023034289 0.13075738 0.85713339
0.027898701 0.1310726 0.8592
0.0038836175 0.028949236 0.8641668
0.02969571 0.028973801 0.86490017
0.032817438 0.02888307 0.8621915
0.036760122 0.028821614 0.86035717
-0.00095006934 0.033723582 0.8629334
0.0017349407 0.033234801 0.86414462
0.0076475162 0.031642452 0.86455017
0.011405054 0.032700866 0.86419266
0.017551623 0.032908976 0.86264241
0.023175852 0.033057891 0.86235344
0.028250236 0.032577705 0.86298102
0.032798462 0.032070845 0.86167413
0.036588009 0.031692076 0.86008012
-0.0073624835 0.038408242 0.86000001
-0.0022319481 0.03588254 0.86082679
0.0020369128 0.036423963 0.86174285
0.007096129 0.036130261 0.86292785
0.011500577 0.035662875 0.86131668
0.015896562 0.035214163 0.86013353
0.024715727 0.035208706 0.86000019
0.027923556 0.035208706 0.86000019
0.031131383 0.035208706 0.86000019
-0.0081653083 0.043211721 0.86008334
-0.0079083517 0.049140643 0.86116672
-0.0073713497 0.052069314 0.86103576
-0.0057672448 0.057691943 0.86129522
-0.0057831248 0.061868124 0.86366665
-0.0041595129 0.063278049 0.86100429
-0.0057843332 0.067503877 0.86384726
-0.0041630808 0.067339748 0.86174279
-0.0057753124 0.071409956 0.86250007
-0.003760796 0.072537154 0.86158156
-0.0025617867 0.076281488 0.86315626
0.0022628224 0.078466192 0.86069995
0.0038779245 0.081877075 0.86290002
0.0054957224 0.08361125 0.86423343
0.0038770256 0.089079201 0.86270005
0.0060136882 0.087089203 0.8615334
0.0054857689 0.093087934 0.86266786
0.005470464 0.096829139 0.86026132
0.0070854323 0.10338457 0.8615464
0.064818524 0.10400672 0.86006677
0.068021305 0.10399865 0.86000019
0.0086824354 0.10807039 0.8605758
0.057174373 0.10827102 0.86089343
0.062014975 0.10719188 0.86122674
0.067141652 0.10768318 0.86245441
0.0086870492 0.11213204 0.86103338
0.052702509 0.1128056 0.86127996
0.05696626 0.11233687 0.86260009
0.06186232 0.11226372 0.86357927
0.067838751 0.1115097 0.86448509
0.010286116 0.11846077 0.86046678
0.042358752 0.1199963 0.86000019
0.047581855 0.11802182 0.86018348
0.051922284 0.11690999 0.8623085
0.056255721 0.11573954 0.86405015
0.0087136198 0.12291671 0.86366677
0.011362446 0.12254085 0.86102229
0.033537239 0.12479562 0.86000019
0.037782062 0.12367229 0.86013347
0.042396486 0.12250262 0.86075014
0.047259938 0.12182583 0.86162227
0.051370706 0.12204971 0.86320019
0.0080684014 0.12661076 0.86365348
0.011912764 0.12723492 0.86207402
0.01563275 0.12911183 0.8603335
0.033210032 0.12828679 0.86041915
0.037609383 0.12820762 0.8614223
0.042672139 0.12692937 0.86226672
0.047140248 0.12647176 0.86363822
0.050667301 0.12551145 0.86493361
0.011612089 0.13110755 0.86364001
0.017207438 0.13335875 0.8615734
0.023111822 0.13359429 0.86000019
0.027993022 0.13392422 0.86212224
0.032517992 0.1322569 0.86274672
0.037696846 0.13171673 0.86342233
0.041478362 0.13072343 0.86393356
0.017777562 0.13793191 0.86302429
0.023160595 0.13788351 0.86180735
0.027575612 0.13791434 0.86343342
0.019190893 0.14144807 0.8640002
0.022983929 0.14256233 0.86379063
0.026448173 0.14148082 0.86420023
0.024411166 0.028545922 0.8682
0.027626999 0.028521314 0.86746675
0.0038893847 0.033016965 0.86545014
0.0060443096 0.033301651 0.86586684
0.013060707 0.031196961 0.86709881
0.023305761 0.031067789 0.86721671
0.0273115 0.030623335 0.86605012
-0.005792053 0.064376615 0.86500001
-0.0025754177 0.078602619 0.86809999
0.00066206261 0.078998007 0.86653322
0.0026827028 0.082669273 0.86699176
0.0038913323 0.086186662 0.86588347
0.005504413 0.085353635 0.86560017
0.0033558609 0.091933928 0.86693341
0.061978195 0.11428408 0.86520016
0.066387728 0.1133941 0.86659461
0.0087300986 0.1191262 0.86530018
0.053941306 0.11918125 0.86570007
0.057505727 0.11824455 0.86726195
0.061575793 0.11732291 0.86862671
0.066563539 0.11692697 0.86888891
0.0087300986 0.12073583 0.86530018
0.054023731 0.12258911 0.86702317
0.057119388 0.12232523 0.86841911
0.048321031 0.12892529 0.86625016
0.052455772 0.12754636 0.86782533
0.055780463 0.12613057 0.86919993
0.0087465774 0.13063963 0.86693352
0.013568343 0.13358195 0.86510015
0.034586754 0.13375182 0.86620021
0.037859723 0.13389938 0.86715573
0.043258924 0.13285387 0.86733896
0.047623191 0.13245305 0.86824071
0.051743638 0.13183016 0.86946678
0.013626032 0.13738243 0.86877775
0.029750643 0.13863367 0.86650014
0.033023324 0.13718878 0.86754817
0.03773633 0.13721116 0.86897492
0.042802047 0.13660885 0.8689999
0.046071686 0.13588397 0.86953336
0.01630195 0.14256074 0.86750555
0.021642964 0.14409199 0.8654002
0.028686868 0.14245971 0.86689454
0.033078983 0.14227054 0.86902213
0.036877677 0.14125752 0.86942226
0.017833825 0.14671688 0.86854666
0.022506107 0.14719851 0.86757344
0.028197864 0.14702037 0.86842966
0.032018095 0.14613186 0.86955553
0.022546431 0.15037222 0.86913329
0.026605275 0.15040685 0.86933327
-0.0042102174 0.079450794 0.87150002
-0.0023871551 0.082629904 0.87297392
0.00066554319 0.082654066 0.87108904
-0.0017766077 0.086134285 0.87351656
0.0014775755 0.087549299 0.87142229
0.0022961232 0.093429856 0.87336659
0.002299811 0.09602122 0.87476921
0.0039319582 0.10580325 0.87492317
0.06319385 0.11907817 0.87083352
0.06726291 0.11925559 0.87094688
0.070515789 0.11991091 0.87100011
0.058303989 0.1247095 0.87056684
0.062402446 0.12316848 0.87111872
0.067102015 0.12301865 0.87149179
0.070661522 0.12259387 0.87279999
0.05425493 0.12959255 0.87073356
0.057777695 0.1283343 0.87180835
0.062536217 0.12749238 0.87298864
0.067439534 0.12698677 0.87323308
0.071556479 0.12679707 0.87378573
0.053342879 0.13363591 0.87174666
0.057362951 0.1322844 0.87353325
0.062655151 0.13017467 0.87464434
0.071595266 0.13011843 0.87426674
0.012064862 0.13805954 0.87305546
0.039612256 0.13921498 0.87013346
0.042866912 0.13924341 0.87031126
0.047976002 0.13793339 0.8709836
0.052550193 0.13780646 0.87274164
0.012870967 0.14285867 0.87261671
0.038567379 0.14312869 0.87096691
0.042916637 0.14264682 0.87131864
0.047671095 0.14269091 0.87282485
0.051182799 0.14141627 0.87373334
0.013285782 0.14740026 0.87307495
0.015683468 0.14778662 0.87056684
0.033701528 0.14801981 0.87114459
0.037855245 0.1472244 0.87237149
0.042696558 0.14689793 0.87346661
0.046347201 0.14645965 0.87473327
0.016925316 0.15246756 0.8718667
0.021775879 0.15307699 0.87072247
0.027799297 0.15266939 0.87116683
0.032695867 0.15215938 0.87319994
0.018179223 0.15721327 0.87344986
0.021806875 0.15735121 0.87196302
0.026913784 0.15688047 0.87273324
0.030012719 0.15774155 0.87413317
-0.0058595706 0.079777457 0.87508339
-0.0058835056 0.082555376 0.87865794
-0.0042311521 0.084733501 0.87583339
-0.0021953396 0.088160127 0.87751669
-0.00096834538 0.091635875 0.87953317
0.00067069614 0.092276908 0.87783325
0.0023049489 0.098682791 0.87672353
0.0023062865 0.10281762 0.87723231
0.0034038397 0.10792639 0.87895584
0.0061260103 0.11265057 0.87754458
0.0072248587 0.11604092 0.87849987
0.069207758 0.1285999 0.87500006
0.059491113 0.13365075 0.87610012
0.06290096 0.1331362 0.87807792
0.067739457 0.13217682 0.87711853
0.071012333 0.13299343 0.87713349
0.05794847 0.13712212 0.8774519
0.062491301 0.13697395 0.8799997
0.067961998 0.13670112 0.8799997
0.071176961 0.13657247 0.8791666
0.049630795 0.1448932 0.87510008
0.053534374 0.14243019 0.87663895
0.057889193 0.14217517 0.87968308
0.061397173 0.14079358 0.87999976
0.012106011 0.14830685 0.87603343
0.03820337 0.14976531 0.87503338
0.044790801 0.14833507 0.87620008
0.048440322 0.14784646 0.87716675
0.052880306 0.14665945 0.87871414
0.05811476 0.14570448 0.87999976
0.013343219 0.15252616 0.87687504
0.033306245 0.1546426 0.87500006
0.037836235 0.15225616 0.87732399
0.042951744 0.15218939 0.87868327
0.048034422 0.15195739 0.87947482
0.013791585 0.15704416 0.87933332
0.016198106 0.15816066 0.87645012
0.027594652 0.15952565 0.87500006
0.0319709 0.15801498 0.87565011
0.036721092 0.15691218 0.87859273
0.041373171 0.15617636 0.87997305
0.017480507 0.16194254 0.87928325
0.0221407 0.16297568 0.87713766
0.026630029 0.16283037 0.87777156
0.032044936 0.162312 0.87875235
0.035526056 0.16156462 0.87944984
0.018722834 0.16532302 0.87986642
0.021752398 0.16729055 0.87914288
0.026914421 0.16687925 0.87943798
0.031032462 0.16533554 0.87993312
0.023649314 0.17025901 0.87999976
-0.0058998829 0.086063847 0.88110375
-0.0042686728 0.08877223 0.88360006
-0.0026194178 0.091971688 0.88275325
0.00067237701 0.094961993 0.8800332
-0.00097179989 0.096069023 0.88267064
0.00067435147 0.097704493 0.88261747
0.00067385542 0.10173082 0.88196832
0.0013303098 0.10758047 0.88149816
0.0023172374 0.11187249 0.8821438
0.0055972557 0.11462811 0.88019973
0.0039713518 0.1167266 0.88368893
0.0056054522 0.11807656 0.8814888
0.064168125 0.13868822 0.88048869
0.068046995 0.13933231 0.88111091
0.071249843 0.13916713 0.88006645
0.059774045 0.14411116 0.88026637
0.06336458 0.14290658 0.88167495
0.068110496 0.14274246 0.88192588
0.071395658 0.14273439 0.88186789
0.054079864 0.14916465 0.88109994
0.05798912 0.14761783 0.88164759
0.061890628 0.14786829 0.88313895
0.067449324 0.14637643 0.88405842
0.049916234 0.15391265 0.88013303
0.052779444 0.15218249 0.88094759
0.056300551 0.15248805 0.88373345
0.013015328 0.15841383 0.88241661
0.042161155 0.1585696 0.88099158
0.046755586 0.1575976 0.88242221
0.051344939 0.15656058 0.88352507
0.013826611 0.16072284 0.88156658
0.016032597 0.16360421 0.88236666
0.037859071 0.16281161 0.88221282
0.041539527 0.16173367 0.8835001
0.045235533 0.16133057 0.88490015
0.017126484 0.16740848 0.88222843
0.028616233 0.16887757 0.88133323
0.031927016 0.16763251 0.88196665
0.036052085 0.16577709 0.88228333
0.018796839 0.17255051 0.88334447
0.021837998 0.17237529 0.88139993
0.026539253 0.17215626 0.88252383
0.030337753 0.17095558 0.88360012
0.018825684 0.17610545 0.88470012
0.021759566 0.17647015 0.88322675
-0.0071792328 0.087858237 0.88680798
-0.0059487205 0.091734335 0.88839722
-0.0042861449 0.093261994 0.88721657
-0.0026329665 0.096994869 0.88739967
-0.0009779688 0.10163471 0.88827384
0.00067959575 0.11418225 0.88948166
0.001669614 0.11689179 0.88744086
0.003989228 0.12055417 0.88766658
0.063425221 0.1498926 0.88540006
0.066754974 0.1483051 0.8857556
0.070022434 0.14822882 0.88529998
0.057634965 0.1531578 0.88523346
0.061875019 0.15261041 0.88683319
0.066915385 0.1519668 0.88788867
0.070902497 0.15232328 0.88804185
0.012237754 0.15980476 0.88556683
0.051882192 0.15899915 0.88566661
0.056999978 0.15697643 0.88819987
0.062034633 0.15631364 0.88913327
0.067422584 0.15589729 0.88911664
0.071144074 0.15546319 0.88900006
0.013077643 0.16328529 0.88657504
0.041976359 0.1642345 0.88576669
0.047308911 0.16263774 0.88663977
0.052256193 0.16237022 0.88800949
0.055397253 0.16043632 0.8890667
0.012549167 0.16717391 0.88825434
0.015545621 0.16973981 0.88583332
0.033689428 0.1695929 0.88506687
0.037263148 0.1685807 0.88592374
0.042043854 0.16752468 0.88719147
0.04707469 0.16693686 0.88845176
0.051261764 0.16625595 0.88923347
0.013942071 0.17116034 0.88892806
0.016545787 0.17280364 0.88633317
0.028754767 0.17381409 0.88560003
0.032292649 0.17334482 0.88635814
0.036866162 0.17306367 0.88703299
0.042109199 0.1719178 0.88857132
0.046291787 0.17041045 0.88933337
0.016972868 0.17739546 0.88644749
0.022557061 0.17913741 0.88545012
0.027132532 0.17812166 0.88654053
0.031893678 0.17785661 0.88757116
0.037367608 0.1773186 0.88841903
0.041137494 0.17664395 0.8890667
0.01704243 0.1820389 0.88855821
0.022180753 0.18314359 0.88690346
0.026928412 0.18281588 0.88759977
0.032175947 0.18189146 0.88884753
0.0368241 0.18093303 0.88901341
0.013955317 0.18870126 0.88977265
0.017261991 0.18691806 0.88916302
0.022212977 0.18753999 0.88818866
0.027212223 0.18664081 0.88915557
0.030530035 0.18527161 0.88920003
0.01809595 0.19027671 0.88940001
0.022236936 0.19104922 0.88914442
0.026382256 0.19021967 0.88913333
-0.0092791757 0.089415208 0.88999999
-0.010963619 0.091275431 0.89200002
-0.0081169158 0.093221985 0.8924731
-0.010982055 0.096415177 0.89350003
-0.0072324537 0.096821778 0.8934139
-0.0037515936 0.098941527 0.89129895
-0.0026494029 0.10298546 0.89283001
-0.00098324474 0.10799766 0.89306593
-0.00098309282 0.11296526 0.89292789
-0.0016509602 0.11766567 0.89331245
0.00068228407 0.11961734 0.89300019
0.0026227839 0.12287974 0.89256138
0.0031841807 0.12641984 0.894117
0.0073527903 0.13805327 0.89405578
0.0084573375 0.14292161 0.89330012
0.0090245306 0.14727071 0.89448339
0.01068578 0.15465723 0.89390045
0.010662667 0.1576402 0.89196688
0.058810376 0.15904443 0.89053345
0.062161606 0.15911983 0.89095575
0.066791661 0.15840355 0.89065349
0.07127431 0.15823343 0.8906287
0.0090005184 0.16264182 0.89210325
0.010649785 0.16242215 0.89088911
0.057426438 0.16275951 0.89159602
0.062037732 0.16225883 0.89258593
0.067503661 0.16258955 0.89293361
0.071248338 0.16236457 0.89238679
0.010665202 0.16597676 0.89217865
0.052881468 0.16814928 0.89137352
0.056377709 0.16766426 0.89409363
0.013150671 0.17247894 0.89147419
0.043859363 0.17394048 0.89046681
0.047517028 0.17311417 0.89230025
0.052038305 0.17197397 0.8940202
0.01398012 0.17826 0.8913542
0.043486651 0.17784122 0.89133352
0.046087254 0.17742434 0.8934086
0.033892445 0.18386532 0.89039999
0.03767151 0.18365587 0.89139187
0.041291498 0.18228671 0.89239359
0.013988203 0.18748693 0.89186949
0.028082799 0.18884847 0.89046681
0.032514229 0.18781371 0.89242935
0.037007205 0.18681617 0.89342034
0.014000478 0.19097245 0.89265215
0.017311035 0.1927052 0.89170235
0.022280024 0.19390488 0.89086682
0.027315551 0.19288497 0.8925336
0.031512029 0.19115743 0.89351702
0.019017203 0.19618405 0.89370018
0.022758327 0.19651586 0.89331686
0.026541587 0.19635968 0.89450026
-0.0076683457 0.098875485 0.89571434
-0.0078877034 0.10199812 0.89691824
-0.0043239775 0.10324201 0.89504766
-0.0064346483 0.10654871 0.89836127
-0.0031378218 0.10771271 0.89662659
-0.0064341556 0.11240374 0.89841068
-0.0034957044 0.11258089 0.8965013
-0.0065710484 0.11639621 0.898058
-0.0039138296 0.11759636 0.89659822
-0.0028985043 0.12222113 0.89643019
0.00068442337 0.12332516 0.89579993
-0.0021059581 0.12644185 0.89820534
0.0016872626 0.12743746 0.89659339
0.0031989871 0.13203411 0.89836138
0.0056956098 0.13330343 0.89566678
0.0033679442 0.13744298 0.89876688
0.0057006967 0.13675769 0.89646667
0.003363634 0.14160629 0.89760005
0.0061177905 0.14216453 0.8963834
0.0040409099 0.14636916 0.89916688
0.0067123561 0.14663479 0.89772016
0.0086353188 0.15151876 0.89747512
0.0080046812 0.15753303 0.89726263
0.0068228305 0.16086335 0.8976078
0.063327886 0.16496572 0.89569998
0.065816388 0.16492273 0.89546674
0.072458819 0.16483679 0.89500004
0.05859841 0.16830862 0.89575559
0.062545761 0.16760655 0.89645559
0.067567363 0.16762327 0.89654452
0.07151901 0.1680162 0.89715558
0.052483622 0.17417485 0.89593339
0.057825256 0.17242098 0.89733356
0.062643319 0.17204399 0.89785576
0.067667119 0.17204589 0.89786679
0.071009345 0.17202871 0.89777803
0.048292547 0.17829192 0.89568341
0.052727915 0.17700201 0.89653343
0.05709447 0.17660184 0.89838356
0.062718928 0.17559434 0.89893359
0.067813002 0.17576365 0.89980024
0.043562979 0.18330526 0.89575553
0.04775203 0.18231216 0.89672387
0.052620739 0.18214779 0.89826322
0.03911294 0.18832725 0.89586663
0.042708796 0.18720289 0.89618099
0.047374494 0.18691126 0.89807105
0.05155183 0.18622209 0.89911133
0.015717452 0.19494051 0.89562511
0.02906864 0.19486251 0.89526683
0.032866329 0.19301791 0.89636672
0.037283808 0.19171138 0.89707512
0.042217065 0.19109741 0.89792025
0.047648862 0.19072177 0.89930022
0.017393617 0.19751212 0.89595342
0.021551084 0.19815639 0.89510006
0.027846413 0.19798695 0.89621669
0.032265443 0.19663239 0.89791453
0.019115089 0.20220859 0.89830017
0.022440897 0.20199084 0.89733344
0.02690541 0.20143853 0.89735579
-0.0085478565 0.10720626 0.90037507
-0.0026751875 0.12920587 0.90195447
-0.0015557631 0.13155971 0.90275377
0.00068897358 0.13253273 0.90175587
-0.00099542586 0.13792656 0.90412992
0.0011088499 0.13712651 0.90163338
-0.0009953836 0.14212608 0.90409142
0.001108899 0.14299566 0.9016161
0.0027913628 0.14809024 0.90200841
0.0057238033 0.1490325 0.90010017
0.0040635308 0.15139335 0.90420002
0.0064081489 0.15304175 0.9020201
0.0057320693 0.15679277 0.90140021
0.07291422 0.1708988 0.90062505
0.058917586 0.17871875 0.90063363
0.062871613 0.17853762 0.90112811
0.067715429 0.17781055 0.90168577
0.071401283 0.17717761 0.90273345
0.057874236 0.18286861 0.901815
0.063010231 0.18228978 0.90310556
0.067244582 0.18151504 0.90343332
0.049391873 0.18930125 0.9005003
0.053172071 0.18826196 0.90194017
0.057146095 0.18659112 0.90359998
0.061439976 0.18515582 0.90480006
0.039323945 0.19436973 0.90070033
0.043128692 0.19406253 0.90121692
0.047526803 0.19287267 0.90152878
0.052574076 0.19188772 0.9032135
0.015823692 0.19961274 0.90167862
0.033446684 0.19940712 0.90075028
0.037478194 0.19774163 0.90174598
0.042452987 0.19720347 0.90293342
0.048731431 0.19588244 0.90381664
0.017496044 0.20286065 0.90120012
0.028696239 0.20394255 0.90104467
0.032451279 0.20288981 0.90226257
0.037377521 0.20189735 0.90439999
0.018633574 0.20696287 0.90203333
0.022785217 0.20747125 0.90146214
0.027286286 0.20719242 0.90254676
0.034394883 0.20508078 0.90359992
0.022607021 0.21104582 0.90394998
0.025978815 0.2110461 0.90394998
-0.0026884133 0.13490297 0.90641397
-0.0026888724 0.13829824 0.90656859
-0.0026858174 0.14151059 0.9055385
0.00069189339 0.14657022 0.90557706
0.0032279012 0.15260169 0.90638351
0.0040778369 0.15614595 0.90738356
0.068289541 0.18261725 0.90612239
0.07110253 0.18267305 0.90751362
0.058581918 0.18840462 0.90625846
0.062972791 0.18721765 0.90662795
0.066933967 0.18766823 0.90779203
0.071002431 0.18758254 0.90840024
0.054766692 0.19299993 0.90606683
0.058045816 0.1923119 0.90779209
0.062226456 0.19307433 0.90924776
0.066839352 0.19286178 0.90938526
0.070994429 0.19263066 0.90830034
0.044589974 0.19873039 0.90530002
0.04798096 0.19811375 0.90556002
0.053153832 0.19749461 0.90735573
0.057260375 0.19691692 0.9098888
0.038986418 0.2033484 0.90586668
0.042934146 0.20225114 0.9059816
0.048043802 0.20242383 0.90675193
0.051972046 0.20248224 0.90890849
0.017574996 0.20882697 0.90526676
0.029410649 0.20895 0.90580004
0.032790817 0.20811529 0.90583342
0.037876487 0.20736971 0.9062556
0.043014161 0.2076927 0.90766704
0.047931541 0.20769976 0.90862101
0.018461255 0.21268959 0.90737247
0.022228738 0.21356227 0.90570843
0.028204352 0.21256199 0.90580475
0.032818966 0.21250993 0.90660751
0.037952881 0.21285373 0.9080745
0.042723529 0.21198437 0.90869349
0.046510123 0.21157287 0.90983325
0.019339228 0.21725769 0.90883356
0.022690821 0.217742 0.90732616
0.027775152 0.21779159 0.90753353
0.032891717 0.21720318 0.90860581
0.073673211 0.18283442 0.91000003
0.058437254 0.1982 0.91059995
0.061940279 0.19769108 0.91215557
0.067105524 0.19787611 0.91301125
0.07099665 0.19736516 0.9119556
0.053352192 0.20331885 0.91076666
0.056874245 0.20206474 0.91275251
0.062070735 0.20108403 0.91408348
0.066379644 0.20080118 0.91473365
0.052774299 0.20744355 0.91251338
0.055207949 0.20559835 0.91336691
0.01602062 0.2139841 0.91289997
0.044865798 0.21351534 0.91089994
0.048338287 0.212578 0.91232508
0.051825427 0.21215245 0.91378689
0.01715765 0.21741658 0.91305566
0.072434798 0.19933182 0.91580015
0.05872605 0.20428616 0.91510034
0.062207788 0.20382848 0.9161002
0.067624919 0.20343728 0.91674775
0.071754836 0.20237648 0.91801655
0.05712036 0.20805505 0.91670465
0.062324744 0.20745635 0.91782767
0.06720081 0.20754154 0.91895992
0.071025461 0.20530568 0.91966665
0.052462529 0.21390904 0.91500038
0.057173036 0.21250945 0.91753328
0.061734118 0.21136372 0.91922653
0.065894224 0.21048373 0.91986662
0.074604258 0.20400077 0.92150003
0.069350444 0.20884822 0.92020005
0.073171653 0.20784408 0.92238337
