# .PCD v0.7 - Point Cloud Data file format
VERSION 0.7
FIELDS x y z
SIZE 4 4 4
TYPE F F F
COUNT 1 1 1
WIDTH 357
HEIGHT 1
VIEWPOINT 0 0 0 1 0 0 0
POINTS 357
DATA ascii
-0.022848615 -0.024276955 0.18087849
-0.01933389 -0.028072886 0.18090543
-0.015669122 -0.030916298 0.18030471
-0.023693817 -0.02595846 0.17722625
-0.020307558 -0.029081807 0.17687353
-0.018325299 -0.031152321 0.1771566
-0.027450031 -0.010249647 0.18297428
-0.025534716 -0.012718098 0.18305987
-0.02237164 -0.016109526 0.18292394
-0.019028326 -0.020415055 0.18307188
-0.014712393 -0.024204828 0.18327373
-0.011158497 -0.026813876 0.18372375
-0.030157648 -0.010868682 0.18066081
-0.027534772 -0.014565123 0.18113798
-0.025024125 -0.018779933 0.18099415
-0.021286806 -0.02193209 0.18259299
-0.017306548 -0.026236963 0.18279949
-0.01376036 -0.029209957 0.18231082
-0.011117593 -0.031727295 0.17973986
-0.031587057 -0.012200564 0.17645979
-0.029477185 -0.016154785 0.17636245
-0.026943274 -0.019930677 0.17615041
-0.025149222 -0.023978911 0.1758672
-0.021383386 -0.028630171 0.17487463
-0.016369646 -0.031926177 0.17535725
-0.012334958 -0.032920729 0.17458412
-0.030036155 -0.017076347 0.17123744
-0.027723521 -0.02056901 0.17095733
-0.024665033 -0.025164932 0.17138603
-0.020909632 -0.02903118 0.17116353
-0.017337263 -0.031989891 0.17064849
-0.013245319 -0.033060163 0.17030454
-0.02819863 -0.022054825 0.1666885
-0.025691275 -0.025871938 0.16670027
-0.022056593 -0.029872287 0.166596
-0.017656654 -0.032060951 0.1662567
-0.026351178 -0.026319232 0.16354591
-0.023514993 -0.028900936 0.16261932
-0.0087408144 -0.019121794 0.18312806
-0.023265341 -0.010523194 0.18382177
-0.019672003 -0.013487451 0.18330979
-0.015838146 -0.016210316 0.18258655
-0.012637761 -0.019971339 0.18288267
-0.031959102 -0.010770381 0.17350909
-0.031819284 -0.011447992 0.16974723
-0.030692749 -0.01538918 0.16901544
-0.010667982 -0.032647684 0.16794661
-0.03152208 -0.012054555 0.16407821
-0.030166954 -0.016021857 0.16472542
-0.028807767 -0.019618623 0.16512302
-0.01703712 -0.031294949 0.16285914
-0.013005219 -0.032843728 0.1633518
-0.030268282 -0.015862282 0.16100901
-0.028154869 -0.02056402 0.16035181
-0.025966128 -0.02463858 0.15985578
-0.021489613 -0.028662017 0.15957099
-0.017266667 -0.030485295 0.1596669
-0.012819647 -0.03247254 0.1594016
-0.027285552 -0.021356799 0.15631372
-0.02510798 -0.023577193 0.15617722
-0.022396512 -0.026889253 0.15578097
-0.018473782 -0.0057251668 0.18310282
-0.015267927 -0.0091546532 0.18314242
-0.011639483 -0.012191188 0.18355894
-0.0084312437 -0.015599288 0.18340585
-0.032008305 -0.010811622 0.15864357
-0.029970637 -0.015346071 0.15784949
-0.028560776 -0.018317815 0.15749684
-0.015595686 -0.030702207 0.15724939
-0.011374969 -0.03233511 0.15622535
-0.031763162 -0.012424177 0.15375292
-0.030029105 -0.015434276 0.15378672
-0.028058898 -0.019491849 0.15379366
-0.025354642 -0.023652699 0.15354085
-0.021128118 -0.027969843 0.15351292
-0.01685044 -0.030605566 0.15318745
-0.012988841 -0.032262459 0.15194517
-0.029774075 -0.01680704 0.14998016
-0.028349997 -0.020009799 0.14902401
-0.025881233 -0.023898326 0.14924449
-0.022115348 -0.027558085 0.14910024
-0.017960873 -0.030676676 0.14817476
-0.026107324 -0.023862232 0.14511999
-0.022680474 -0.027090907 0.14525902
-0.019723479 -0.02965636 0.14487386
-0.0058529098 -0.0066057825 0.18414336
-0.011586896 -0.0055772373 0.18365976
-0.0079697333 -0.0086593898 0.18410102
-0.0045341742 -0.012401694 0.18351585
-0.030101132 -0.013872355 0.15072981
-0.031765502 -0.010308427 0.14651066
-0.030346051 -0.014696621 0.14722306
-0.029224062 -0.018234719 0.14657187
-0.015681978 -0.03124382 0.14537266
-0.012346726 -0.031342361 0.14557728
-0.03039803 -0.015318906 0.14236778
-0.02837747 -0.019355437 0.14286071
-0.025848541 -0.023432251 0.14224595
-0.022330701 -0.026566472 0.14201254
-0.017556101 -0.030016735 0.141644
-0.013040267 -0.031539217 0.14073467
-0.030054891 -0.016300149 0.13856772
-0.028071489 -0.019314378 0.13841993
-0.025800023 -0.023389477 0.13789186
-0.0227484 -0.026709663 0.13756198
-0.018838283 -0.029911038 0.13715193
-0.015590577 -0.031393636 0.13592863
-0.022880688 -0.027150402 0.13355353
-0.019765424 -0.030123381 0.13279146
-0.017118234 -0.031975258 0.13319233
-0.0025618048 -0.0039441516 0.18387792
-0.030747078 -0.012650684 0.14012909
-0.0098091988 -0.031133771 0.13849306
-0.031498659 -0.0097740591 0.1363638
-0.030327065 -0.014156147 0.13583028
-0.028474426 -0.018536588 0.13570875
-0.026656291 -0.021593589 0.13538516
-0.013664916 -0.032272369 0.13493392
-0.010328483 -0.032007776 0.13152474
-0.029931607 -0.014951497 0.13152325
-0.027962036 -0.018445855 0.13104734
-0.025606271 -0.022525935 0.13143647
-0.023244204 -0.026355639 0.13080192
-0.019841662 -0.030040735 0.12992841
-0.015244085 -0.032233752 0.13040462
-0.011360941 -0.032883305 0.12959862
-0.027506033 -0.019696077 0.12730515
-0.025288798 -0.021953352 0.12716758
-0.022752345 -0.026086161 0.12677079
-0.019572688 -0.029569527 0.12596741
-0.016303262 -0.031569827 0.12618726
0.0022667893 0.00076390599 0.18352172
-0.0013893566 -0.0011317836 0.1836254
-0.030257951 -0.011636012 0.13273081
-0.030182697 -0.012769573 0.12872827
-0.028590214 -0.016377689 0.12826717
-0.013004718 -0.032140546 0.12725046
-0.029583395 -0.013950842 0.12419745
-0.028670266 -0.018190367 0.12506071
-0.025408428 -0.021892894 0.12431425
-0.022546407 -0.025704065 0.12359363
-0.019359209 -0.029234845 0.12353075
-0.01448036 -0.031890195 0.1234307
-0.011114348 -0.032311998 0.12245905
-0.029790759 -0.01479386 0.12044334
-0.029083528 -0.018835835 0.12027001
-0.026105365 -0.022305854 0.12005109
-0.022728628 -0.025660168 0.11980343
-0.019376166 -0.029037498 0.11957973
-0.015357159 -0.03112559 0.11866087
-0.028890491 -0.01955807 0.1157344
-0.026250869 -0.02214602 0.11519992
-0.023234708 -0.025537204 0.11475056
-0.019806862 -0.029147882 0.11404127
-0.01695868 -0.030849166 0.11426711
0.0043015252 0.0037144683 0.18395817
-0.030085973 -0.010032848 0.12322015
-0.030103792 -0.01156511 0.11811757
-0.029401414 -0.016424935 0.11711609
-0.01285167 -0.031456135 0.11620671
-0.0097028473 -0.031806324 0.11660719
-0.030077949 -0.012934759 0.11387199
-0.029356893 -0.0176054 0.11310405
-0.026217276 -0.021924283 0.11214864
-0.022700051 -0.026304679 0.11231786
-0.014673194 -0.031399298 0.11202049
-0.010479359 -0.031960838 0.11222398
-0.028957563 -0.018418189 0.10870403
-0.026191432 -0.021646671 0.10807961
-0.023319697 -0.025565084 0.10838777
-0.019992746 -0.029009202 0.10821253
-0.0164022 -0.030855969 0.10750812
-0.025247244 -0.022722527 0.10414487
-0.023229327 -0.025648793 0.10365999
-0.019902073 -0.028699314 0.10408103
0.0041055176 0.009772175 0.18433097
-0.030665403 -0.010553788 0.11193544
-0.030603375 -0.011700592 0.10767627
-0.029290859 -0.016723046 0.10642856
-0.013908902 -0.031212419 0.10590452
-0.030089542 -0.013168798 0.10349631
-0.02936691 -0.01720055 0.10236222
-0.02680856 -0.021605356 0.10225034
-0.02382024 -0.025063781 0.10103887
-0.01975286 -0.028383983 0.1008808
-0.015231896 -0.030770799 0.10149449
-0.011058588 -0.031303212 0.10238993
-0.02944812 -0.01748728 0.09865278
-0.026344769 -0.021587914 0.097472787
-0.023183459 -0.02477763 0.097068429
-0.019836284 -0.027801542 0.096873641
-0.015933173 -0.030128866 0.097610056
-0.030081578 -0.0091342907 0.10019785
-0.03016974 -0.010603203 0.095485389
-0.028977977 -0.014544795 0.095410287
-0.026732614 -0.019127283 0.09527719
-0.017204382 -0.027825227 0.094201267
-0.013584116 -0.029597608 0.094359815
-0.010452844 -0.030317321 0.093611896
-0.028207559 -0.01603727 0.090823948
-0.025584133 -0.020001136 0.091062427
-0.02215934 -0.0234304 0.090826869
-0.018443136 -0.026562955 0.09027648
-0.014551705 -0.029527832 0.08954227
-0.011625865 -0.031231329 0.089729428
-0.025808102 -0.020392682 0.086573303
-0.022906596 -0.023836281 0.085439384
-0.019286541 -0.026687328 0.086006224
-0.016549589 -0.029027339 0.086420238
-0.030317154 -0.009199894 0.0886361
-0.029395152 -0.012823173 0.089136541
-0.030515192 -0.010724737 0.084183156
-0.029197864 -0.013996838 0.084072053
-0.026902154 -0.01859132 0.084217489
-0.01879634 -0.027077049 0.083201587
-0.015022239 -0.029958906 0.083746731
-0.011235447 -0.031435966 0.082967699
-0.028273564 -0.015108185 0.080055416
-0.026219999 -0.019349255 0.079766095
-0.02371907 -0.023829063 0.079647303
-0.019853301 -0.0273172 0.079388618
-0.016012978 -0.030088259 0.078826904
-0.012649408 -0.031651825 0.078431129
-0.023630179 -0.023943327 0.075291038
-0.02034566 -0.026431441 0.07516098
-0.028674398 -0.012599418 0.077782512
-0.026503136 -0.016587716 0.076734781
-0.030030876 -0.0095413858 0.07414335
-0.028400829 -0.012825109 0.073423266
-0.026079651 -0.01674711 0.072924614
-0.023584278 -0.022433167 0.072368205
-0.018859901 -0.025971113 0.072008193
-0.014320519 -0.028762834 0.072246015
-0.011715843 -0.030479643 0.072189987
-0.02823294 -0.014367742 0.069443524
-0.026735183 -0.01771988 0.068514287
-0.024619738 -0.021910971 0.068615317
-0.019961027 -0.026139028 0.068244457
-0.015492182 -0.028670888 0.067624092
-0.012051229 -0.030561259 0.067308605
-0.026544657 -0.019310439 0.064868867
-0.024793766 -0.02245757 0.064015269
-0.021706119 -0.025676718 0.063541949
-0.017792149 -0.027929511 0.064197063
-0.029157931 -0.011909618 0.07076031
-0.0294048 -0.012761768 0.066982448
-0.027964685 -0.016187508 0.066127121
-0.01375009 -0.029837593 0.06588155
-0.0097930701 -0.029819239 0.064553797
-0.028861808 -0.013412911 0.063134909
-0.02730011 -0.017278694 0.061920881
-0.025485873 -0.021494292 0.061267436
-0.020325199 -0.026769437 0.060974538
-0.017030634 -0.028517213 0.061399817
-0.013021433 -0.029695245 0.06159097
-0.02662788 -0.017809566 0.057916522
-0.024441626 -0.021403607 0.057481229
-0.021443443 -0.024934022 0.057768762
-0.017182088 -0.027538668 0.056901395
-0.028539678 -0.011726911 0.059976816
-0.010269732 -0.028889835 0.05772078
-0.029075094 -0.011685206 0.055855393
-0.026864996 -0.016349513 0.054600537
-0.02384311 -0.020593323 0.053563535
-0.020276731 -0.024641778 0.054100513
-0.016076893 -0.02732922 0.053310454
-0.011102004 -0.029050121 0.054213047
-0.029181579 -0.01253461 0.051065981
-0.027042372 -0.016573712 0.050202787
-0.024095604 -0.020662662 0.050621808
-0.020702858 -0.024279125 0.05051136
-0.016531497 -0.02710929 0.049498737
-0.012642724 -0.028801033 0.05048573
-0.027605867 -0.017203564 0.046245933
-0.024671804 -0.020937491 0.045883417
-0.021361759 -0.02465223 0.045878828
-0.017620739 -0.027180774 0.04566133
-0.02544998 -0.021485087 0.042456567
-0.02194833 -0.025010763 0.042231619
-0.0088674864 -0.029081285 0.051136315
-0.029677715 -0.010494635 0.048164546
-0.010507817 -0.02861736 0.047269106
-0.029598042 -0.012002748 0.044285834
-0.028328255 -0.016239088 0.043455899
-0.016051289 -0.027840693 0.042951226
-0.012287054 -0.028454199 0.042370558
-0.029364895 -0.012354245 0.039842606
-0.027723957 -0.016847512 0.039453089
-0.025317788 -0.021153325 0.039021313
-0.021725649 -0.024602419 0.038697839
-0.01730625 -0.026616327 0.038423181
-0.027104344 -0.018014785 0.035208821
-0.024904266 -0.020529864 0.035235524
-0.021293759 -0.023978954 0.034900308
-0.029955121 -0.0094794892 0.040743351
-0.029858064 -0.010942358 0.037776172
-0.028415158 -0.014699124 0.036305845
-0.01425414 -0.026566856 0.036195576
-0.010911839 -0.028037328 0.036704421
-0.030149337 -0.011525885 0.033489704
-0.02807577 -0.016052315 0.033442795
-0.024662243 -0.020148287 0.032741249
-0.020942077 -0.023497645 0.032281101
-0.016679695 -0.026723467 0.032933772
-0.013064137 -0.028700609 0.032380462
-0.029860869 -0.013291683 0.028954923
-0.028019814 -0.016461123 0.028775573
-0.025150882 -0.020108173 0.029020607
-0.020946866 -0.023319462 0.028979301
-0.017025728 -0.026482718 0.028286934
-0.013666194 -0.029034382 0.027602911
-0.0090379305 -0.028241634 0.029602408
-0.029914645 -0.01041862 0.026291668
-0.028248399 -0.013804965 0.025002778
-0.022577552 -0.020006781 0.024920642
-0.019912655 -0.022077324 0.024403155
-0.016218919 -0.025498621 0.023998916
-0.011289604 -0.028365608 0.024111986
-0.029380362 -0.010029718 0.022499859
-0.027178008 -0.014899885 0.021709621
-0.023973729 -0.018841397 0.021914184
-0.020056671 -0.022039434 0.021239579
-0.016159106 -0.025267117 0.02059406
-0.012717224 -0.027767945 0.019824445
-0.023382073 -0.018027877 0.017826498
-0.019345747 -0.022330996 0.017707527
-0.016346013 -0.025283188 0.01747793
-0.029022822 -0.0089866351 0.019295871
-0.0087649059 -0.027458292 0.018209934
-0.028638542 -0.0095797097 0.014897346
-0.026793132 -0.014139464 0.015610278
-0.023484008 -0.017961599 0.015061915
-0.020056913 -0.021349585 0.014808834
-0.016350798 -0.025114706 0.014127553
-0.012084647 -0.028060481 0.014164746
-0.028430924 -0.010656651 0.010291278
-0.026945349 -0.013941307 0.010142684
-0.023644261 -0.018150996 0.0099814534
-0.020774974 -0.02209048 0.0097874403
-0.016995322 -0.025476392 0.009304285
-0.013149962 -0.028040241 0.009028554
-0.023127705 -0.019401163 0.0053701997
-0.021136265 -0.022210333 0.0057170987
-0.017592482 -0.025846671 0.005533874
-0.024177836 -0.016962457 0.0068206787
-0.011545312 -0.028343901 0.0063380003
-0.027271505 -0.0091202725 0.0042496324
-0.026398731 -0.013003007 0.0037504435
-0.023710044 -0.016991165 0.0030148625
-0.020815875 -0.021756571 0.0030435324
-0.017241245 -0.025374953 0.0028297901
-0.012985693 -0.027170055 0.0021947026
-0.010326553 -0.02817139 0.0021419525
-0.025407657 -0.014143448 -0.00063985586
-0.023333993 -0.016899724 -0.00037461519
-0.020014312 -0.020776588 -0.00082015991
-0.016903063 -0.02438416 -0.0010662675
