# .PCD v0.7 - Point Cloud Data file format
VERSION 0.7
FIELDS x y z
SIZE 4 4 4
TYPE F F F
COUNT 1 1 1
WIDTH 411
HEIGHT 1
VIEWPOINT 0 0 0 1 0 0 0
POINTS 411
DATA ascii
-0.021630503 0.032222982 0.18188614
-0.024913322 0.03047449 0.182551
-0.02873346 0.028483042 0.18263367
-0.021420192 0.034072533 0.17936236
-0.024943758 0.032618959 0.17917231
-0.029887823 0.03061332 0.1789259
-0.02265382 0.035516307 0.17597556
-0.025565594 0.034669563 0.17513248
-0.03000298 0.032613218 0.17493555
-0.027221162 0.03504502 0.17207429
-0.029354975 0.034217168 0.17199212
-0.023466205 0.025330855 0.18471014
-0.026515909 0.024163753 0.18447909
-0.0096645821 0.032238308 0.1813693
-0.014165585 0.031418372 0.18226776
-0.019010682 0.029970048 0.1829688
-0.022578493 0.028163312 0.1832301
-0.029839719 0.025733542 0.18317571
-0.010511637 0.03384982 0.17707273
-0.01494051 0.034444075 0.17830977
-0.018759841 0.033653274 0.17858154
-0.015639009 0.035145901 0.17411733
-0.020348068 0.035216037 0.17416379
-0.032169778 0.028636239 0.17228183
-0.017340755 0.035209071 0.17017424
-0.020818608 0.035759382 0.16939786
-0.025273915 0.035033472 0.1696254
-0.030040473 0.033781804 0.16858685
-0.032022636 0.030788848 0.16857913
-0.02592659 0.034448225 0.1659717
-0.028595895 0.033049792 0.16381034
-0.032126322 0.031380605 0.1653187
0.0013922155 0.029667018 0.18373975
-0.0020525223 0.02851435 0.18401498
-0.0061426945 0.027109239 0.18377969
-0.011836707 0.025992114 0.18347809
-0.01702846 0.022980077 0.18388811
-0.02080223 0.021824539 0.18503985
0.001679631 0.032062501 0.18087792
-0.0031014094 0.031421281 0.18141741
-0.0071589313 0.030662593 0.18129459
-0.011185206 0.028574858 0.18308339
0.00078247394 0.033925839 0.17651165
-0.0036792159 0.03349283 0.17641634
-0.0076480713 0.033057638 0.17602426
-0.0042592203 0.034233283 0.1712012
-0.0086770467 0.034131475 0.17141294
-0.013404637 0.034545548 0.17124891
-0.0092208516 0.034882668 0.1667527
-0.01440967 0.034972984 0.16743663
-0.010549115 0.035623375 0.16354656
-0.014926057 0.035183862 0.16301972
-0.019764533 0.034647621 0.16280633
-0.024352577 0.033457316 0.162664
-0.029424381 0.032158691 0.16204178
-0.032292876 0.028615959 0.1621438
-0.02012505 0.034131069 0.15859222
-0.024570428 0.033610366 0.15713251
-0.028609518 0.032002483 0.15695351
-0.03102155 0.029209204 0.15727547
0.00058842218 0.022024265 0.18422109
-0.0092808511 0.01744112 0.18338364
-0.013139958 0.016599393 0.18361515
-0.018565774 0.015407486 0.18484581
-0.00091277901 0.025621187 0.18480566
-0.0054242406 0.023441834 0.18391931
-0.0092554474 0.021628059 0.1831196
-0.013313416 0.02007474 0.18315181
0.002232994 0.033750605 0.17358103
0.001775831 0.033391628 0.16947314
-0.0023109335 0.03388688 0.16876113
0.00075963605 0.033526316 0.16407424
-0.0030694501 0.033581469 0.16442442
-0.0066123968 0.034028109 0.16450369
-0.00298071 0.033830028 0.16086179
-0.007962672 0.033793323 0.16001096
-0.011965331 0.034063544 0.15977725
-0.012874927 0.032901298 0.15516266
-0.017749697 0.033203956 0.15541744
-0.031353064 0.02703842 0.15456867
-0.014215929 0.033650212 0.1519323
-0.018731927 0.032956325 0.15099207
-0.024121005 0.033934265 0.15086898
-0.028702645 0.032050487 0.15062961
-0.030527122 0.028567819 0.15025681
-0.02057006 0.033303779 0.14745784
-0.024251604 0.033912428 0.14513826
-0.028561752 0.03267923 0.14503157
-0.030604523 0.029100396 0.14688236
-0.025568811 0.035135839 0.14036477
-0.02735332 0.034366865 0.14024848
0.0018374012 0.018993959 0.18403187
-0.0025240062 0.01731934 0.18364215
-0.0067703272 0.015258458 0.1840668
-0.011101791 0.012938634 0.18405038
0.0023684725 0.03346885 0.15846947
-0.0025448101 0.033196785 0.15758437
-0.0057677599 0.032886047 0.15712643
0.00072715338 0.03387234 0.15453345
-0.0028893091 0.033182152 0.1536032
-0.007389891 0.033144321 0.15389985
-0.010494808 0.032572668 0.15325457
-0.0079085138 0.033838078 0.14910811
-0.012258229 0.033766158 0.14948693
-0.016230009 0.033426467 0.1491015
-0.0092721842 0.034741405 0.14502019
-0.012709388 0.034405015 0.14483663
-0.01803962 0.033557992 0.14473215
-0.022620104 0.034751955 0.1432243
-0.031492479 0.027350284 0.14343095
-0.017659068 0.034036584 0.14005092
-0.022072112 0.034331914 0.13905972
-0.029208336 0.032737531 0.13957649
-0.030889664 0.029531509 0.13876736
-0.024271276 0.035538975 0.13549113
-0.028270151 0.033571362 0.13479537
-0.030690022 0.030511037 0.13464266
0.00071063288 0.0092422161 0.18405718
-0.0038824636 0.0078761401 0.18503097
-0.00048965635 0.012260559 0.18373796
-0.0044647078 0.011528934 0.18450615
-0.010205753 0.0090236925 0.18411386
-0.00092860404 0.032858312 0.15111104
-0.0019207196 0.033054717 0.14705798
-0.0054314202 0.033343941 0.14705291
-0.0023448942 0.033556882 0.14207575
-0.0066274544 0.033869937 0.1426664
-0.010511469 0.03399479 0.14197153
-0.0072698127 0.033474319 0.13776258
-0.011863222 0.033603258 0.13822106
-0.015288214 0.033733215 0.13811389
-0.012548236 0.033039909 0.13356259
-0.017052053 0.033862218 0.13408023
-0.021720808 0.034486782 0.13226178
-0.028524855 0.031762067 0.13119724
-0.030926822 0.027990714 0.13253367
-0.017365366 0.033523019 0.12987235
-0.02292124 0.034130838 0.12809762
-0.028000653 0.032908291 0.12803936
-0.030099444 0.029647991 0.12726218
-0.02737603 0.032494508 0.12314695
-0.0021732692 0.0035791851 0.18499708
0.00024967361 0.03286941 0.13984478
0.0030122465 0.032866485 0.13638288
-0.0017783921 0.032755416 0.13608414
-0.0052499422 0.033019438 0.13511375
-0.0062916121 0.032381769 0.13160652
-0.010330392 0.03209839 0.13052779
-0.014561633 0.032758638 0.13064107
-0.011841921 0.032039776 0.12699029
-0.015789397 0.032668527 0.12647584
-0.016485939 0.032060917 0.12292376
-0.020908434 0.03259014 0.12236828
-0.026785012 0.03264983 0.12087446
-0.030768361 0.029247433 0.12196079
-0.02210037 0.032904096 0.11755043
-0.02622937 0.03243586 0.11731577
-0.030277353 0.029522816 0.11792147
-0.025668692 0.032652229 0.11384803
-0.028478066 0.031165518 0.1134727
0.00046138925 -0.002054868 0.1838764
0.00044727698 0.031892493 0.13311246
-0.00054784492 0.032075584 0.12897024
-0.0051704142 0.031906322 0.12844771
-0.0014191903 0.031971306 0.12459558
-0.0057677673 0.032783914 0.12483668
-0.01002515 0.03204212 0.12465617
-0.00667453 0.03310509 0.1198439
-0.010667892 0.032771427 0.120143
-0.015281831 0.03209297 0.12018603
-0.018591143 0.031348914 0.11905557
-0.0072438554 0.03330965 0.11584026
-0.01099609 0.032771155 0.11504036
-0.015402389 0.0323609 0.11513126
-0.019529097 0.032381676 0.1157189
-0.029406041 0.026850332 0.11361051
-0.016096715 0.03318768 0.11067104
-0.020471791 0.032727323 0.11072993
-0.025569625 0.032690682 0.11093426
-0.02884591 0.029754581 0.11023885
-0.017373789 0.033959784 0.10694921
-0.020977817 0.033348098 0.10688758
-0.025395026 0.032734748 0.10603905
-0.028589573 0.03043424 0.10557187
0.0018448017 -0.0064233476 0.1841068
0.001161959 0.031750981 0.12257263
0.0011126464 0.031747133 0.11847627
-0.0039293077 0.032313634 0.11779898
-0.00036304165 0.031357236 0.11486077
-0.0050389264 0.032492075 0.11281168
-0.0091589764 0.032758251 0.11265296
-0.029472105 0.0249695 0.11134696
-0.0067522763 0.032977402 0.10864937
-0.010206443 0.033012755 0.10850549
-0.014302824 0.033249773 0.10833406
-0.029744487 0.02599615 0.10821438
-0.010954367 0.033271983 0.10395074
-0.015185344 0.033633959 0.10398585
-0.019906523 0.032913983 0.10367447
-0.03002793 0.028337497 0.10355163
-0.015181454 0.033510793 0.10020113
-0.020242881 0.032186855 0.09998697
-0.024928395 0.031620234 0.099482596
-0.028745323 0.030034438 0.099310994
-0.03106568 0.02586263 0.09859401
-0.025265388 0.031264782 0.095106304
-0.02768172 0.030926928 0.09446305
0.0057195639 -0.0075508626 0.18463039
0.0020436789 -0.0091348179 0.18439084
0.0016003316 0.03196514 0.11247402
-0.0030523827 0.032186031 0.11017728
0.00095375534 0.032091897 0.10740137
-0.0044140979 0.032509599 0.10718298
-5.4697506e-05 0.032087404 0.10348767
-0.0047364393 0.033026524 0.10262275
-0.0093611991 0.033418741 0.10189641
-0.00531501 0.032841388 0.098335207
-0.010265341 0.03304765 0.09735924
-0.014709587 0.032723483 0.096553206
-0.019358078 0.032209162 0.09711796
-0.022685502 0.031115672 0.096352041
-0.029756103 0.02715978 0.096231103
-0.010193506 0.033322759 0.093560398
-0.014801766 0.033465683 0.092133701
-0.019746348 0.03278891 0.09286207
-0.024445035 0.032217477 0.093038976
-0.029245764 0.029421216 0.092484057
-0.030683495 0.025593523 0.090357721
-0.015750209 0.034164298 0.087881505
-0.020051941 0.034119219 0.087919593
-0.025010297 0.033506423 0.088709056
-0.029105324 0.030808087 0.087760627
-0.031077895 0.026927756 0.087423861
-0.020856468 0.034361389 0.084293425
-0.025291145 0.034103956 0.083788097
-0.029097358 0.031845123 0.08276099
-0.00066050328 0.031826146 0.10047305
0.0020911573 0.031403482 0.095862031
-0.0024075434 0.031409916 0.09536916
-0.0069529875 0.030906217 0.094364822
-0.0046457695 0.031690545 0.090762794
-0.0081642913 0.031796984 0.090499222
-0.0099692494 0.032423075 0.086581469
-0.014049698 0.033709716 0.086123347
-0.014429496 0.032796077 0.081926584
-0.018790657 0.032721099 0.081054986
-0.023512676 0.032759804 0.079759657
-0.030431617 0.030519169 0.079857647
-0.031250387 0.026426893 0.081075907
-0.019959159 0.031997025 0.077616692
-0.023980845 0.032073237 0.076337397
-0.028888917 0.031312559 0.076592505
-0.031196356 0.028269127 0.076361835
-0.025104322 0.032691352 0.072423577
-0.028096028 0.031460021 0.072272182
0.0003055986 0.030509494 0.092319906
0.0027552778 0.030441357 0.088153601
-0.00097605214 0.031044934 0.08871001
-0.0015821122 0.031304341 0.08385998
-0.0062989844 0.031731948 0.084476411
-0.0087329568 0.031789821 0.080564857
-0.011858471 0.031948272 0.078733385
-0.013895159 0.031852257 0.074900806
-0.018153299 0.032086592 0.075195372
-0.014782001 0.032621939 0.069805682
-0.019005753 0.033264965 0.070870519
-0.022747677 0.03280171 0.070981801
-0.029179782 0.029692609 0.069458961
-0.030693997 0.027452447 0.070544958
-0.019782808 0.033526771 0.066162646
-0.024049606 0.033306554 0.066088557
-0.027796963 0.03079571 0.065456271
-0.025107391 0.031993508 0.061264277
-0.0010128152 0.030904353 0.080822766
-0.00040161517 0.030419331 0.07769984
-0.0055303569 0.030498596 0.077593386
-0.00076336041 0.030663293 0.073010743
-0.0053112898 0.029984439 0.072822511
-0.010211732 0.030685037 0.072803199
-0.0061268662 0.030556671 0.06824708
-0.010835488 0.031227373 0.068106055
-0.029786874 0.025451306 0.06573838
-0.011265201 0.031296279 0.063686252
-0.016755337 0.032180227 0.063027084
-0.028658714 0.027467623 0.061832607
-0.029213261 0.024285367 0.061622024
-0.017083658 0.03142979 0.058710396
-0.02206099 0.031166291 0.058448076
-0.02707677 0.029127268 0.058766186
-0.021844391 0.030908721 0.05543375
-0.025605025 0.02928824 0.055188715
0.00052773487 0.0306697 0.070050776
-0.00043401774 0.030758746 0.066503108
-0.004392745 0.030919101 0.066014111
-0.0060727699 0.030836819 0.062396824
-0.0096765039 0.031397056 0.061559737
-0.0067327889 0.030436721 0.057293117
-0.011254546 0.031354241 0.057800472
-0.014860816 0.031648204 0.056908309
-0.028031323 0.026368089 0.055662096
-0.0163924 0.031480763 0.053031743
-0.021490276 0.031258363 0.052642345
-0.026084393 0.029270325 0.052534461
-0.027688669 0.025885962 0.05103898
-0.021137891 0.031482585 0.047957242
-0.025293369 0.029808942 0.047441006
-0.027804568 0.026540464 0.047403157
0.001774257 0.03063629 0.063519657
0.00037046522 0.030105852 0.060374081
-0.0039502284 0.029907051 0.059275925
0.00021409709 0.031059846 0.055937767
-0.0048504295 0.030486492 0.054751933
-0.008914331 0.030320575 0.054311872
-0.00013598893 0.03161367 0.051440418
-0.0045045917 0.030824386 0.050141811
-0.01027832 0.030568553 0.050591469
-0.013984343 0.030242877 0.049341917
-0.0059307138 0.031213658 0.046529412
-0.009759401 0.031025428 0.045752943
-0.01549122 0.030812571 0.045902371
-0.019766724 0.031207968 0.044677973
-0.026677296 0.028515641 0.044451535
-0.028023668 0.024545599 0.044650257
-0.011801208 0.031583093 0.041744649
-0.015202728 0.031226257 0.041340888
-0.020549783 0.031353027 0.040801585
-0.025286209 0.029849909 0.040917695
-0.028192671 0.025938356 0.039685369
-0.01689356 0.031397693 0.037718832
-0.020640042 0.032079831 0.036126316
-0.025809377 0.031135837 0.036019742
-0.028185878 0.028686244 0.035521209
-0.021481607 0.032252014 0.03332144
-0.025574319 0.031518809 0.031758964
-0.028166451 0.028917581 0.032522261
0.0010068426 0.031225957 0.048003435
0.00056555774 0.031210719 0.04363054
-0.0039542606 0.031080211 0.043784559
-0.004603392 0.030605529 0.039538741
-0.0091976468 0.031084828 0.039280415
-0.013179271 0.030924154 0.0384354
-0.0099010468 0.03094708 0.034897447
-0.014736767 0.030781593 0.034511387
-0.029370528 0.024881318 0.033881605
-0.01615447 0.030294426 0.030261576
-0.020533979 0.031521704 0.029917359
-0.024612468 0.031553999 0.029390275
-0.029165847 0.027143758 0.029252112
-0.021585129 0.031055529 0.024925888
-0.025357068 0.030896291 0.025409698
-0.027992073 0.029142389 0.025195301
0.0013166312 0.031224858 0.038331866
-0.0039628451 0.030443111 0.03693676
0.00087871123 0.031748168 0.033350348
-0.0039510648 0.031356953 0.033842146
-0.0091978395 0.030619914 0.032135367
-0.01251699 0.030043328 0.031177819
-0.0041223299 0.031794913 0.029165328
-0.0089960154 0.031087896 0.028623164
-0.013765241 0.029921571 0.028009713
-0.017589606 0.029623717 0.027990162
-0.014551771 0.029945131 0.023819268
-0.018919997 0.030443929 0.023672462
-0.023788009 0.030146357 0.021597922
-0.028399728 0.025705172 0.022523224
-0.019540556 0.031005006 0.018928885
-0.02449931 0.029978113 0.018435717
-0.026895415 0.026720922 0.019694626
-0.02135331 0.031520389 0.014474213
-0.024043372 0.030123485 0.014319777
0.0014746524 0.031063925 0.0265553
-0.00342404 0.030582936 0.024777412
0.0022217836 0.030316181 0.022975147
-0.0034104018 0.030059882 0.021331668
-0.0083083268 0.029533921 0.022076726
-0.012257291 0.029062133 0.020298183
-0.0086354259 0.028524825 0.018109977
-0.013711659 0.029461188 0.016609907
-0.017420746 0.030493071 0.015738368
-0.026486859 0.024412237 0.015533149
-0.014225394 0.029632326 0.011935294
-0.018807551 0.03060928 0.011897624
-0.024247583 0.028906066 0.010443151
-0.026019439 0.025227455 0.010636866
-0.01920449 0.030166864 0.007291019
-0.023749061 0.029144173 0.0066815019
-0.026130289 0.025786955 0.0078627467
-0.022148505 0.029981984 0.0036297441
0.0027026311 0.030163229 0.019933522
-0.00095407572 0.02965753 0.019012511
0.0020122183 0.030336795 0.015097618
-0.0025595082 0.029602276 0.015079439
-0.0072673308 0.028394291 0.01482141
0.00099206157 0.030439066 0.010380805
-0.0026086261 0.03031973 0.010228872
-0.0077720759 0.029020824 0.0098343492
-0.011639396 0.029003108 0.01012212
-0.0094943363 0.029759493 0.006295979
-0.013237884 0.029567499 0.0053130984
-0.017223211 0.029581673 0.0047620535
-0.026825633 0.023947075 0.0043510795
-0.014552043 0.029343991 0.00084668398
-0.018510353 0.030236967 0.00056904554
-0.023702474 0.029004443 0.00080096722
-0.026254419 0.025688507 -0.00040340424
-0.0039961729 0.029634023 0.0067813993
-0.0056460449 0.029175717 0.0068826675
0.0023011174 0.02950434 0.0041069388
-0.0017759707 0.029613798 0.0036427379
-0.007001847 0.029270057 0.0038425922
-0.0026660506 0.029457757 -0.00036209822
