# .PCD v0.7 - Point Cloud Data file format
VERSION 0.7
FIELDS x y z
SIZE 4 4 4
TYPE F F F
COUNT 1 1 1
WIDTH 343
HEIGHT 1
VIEWPOINT 0 0 0 1 0 0 0
POINTS 343
DATA ascii
-0.027174031 -0.007725318 0.18091968
-0.026059769 -0.010526596 0.18040964
-0.02142895 -0.020336229 0.18064797
-0.02549462 0.001435359 0.18312627
-0.024204891 -0.0019355854 0.183709
-0.022789234 -0.0053667631 0.18367362
-0.021709209 -0.0094471201 0.18353164
-0.019785363 -0.01410905 0.18263116
-0.018396471 -0.017823793 0.18249583
-0.027624682 0.001375136 0.18099245
-0.027040305 -0.0028336486 0.18116996
-0.026266942 -0.0063095577 0.18132314
-0.024405546 -0.011351259 0.18128163
-0.022986308 -0.015280378 0.18059826
-0.021542223 -0.018674593 0.18035319
-0.019262765 -0.022178601 0.17979392
-0.029444233 0.00071827509 0.17629832
-0.028944315 -0.003116121 0.17632714
-0.02789202 -0.0070814723 0.17583048
-0.026769228 -0.011624735 0.1760782
-0.024856236 -0.01582377 0.17568499
-0.02294869 -0.019313965 0.17513278
-0.020556008 -0.022767307 0.17459166
-0.030250778 -6.233342e-06 0.1722239
-0.029665001 -0.003474914 0.17100996
-0.028583253 -0.0071434299 0.17086053
-0.02721283 -0.011401666 0.17103684
-0.025406053 -0.015553205 0.17035884
-0.023410516 -0.019310433 0.16998571
-0.020986766 -0.022295155 0.17031574
-0.030217625 -0.0048089609 0.16782528
-0.02974849 -0.007837574 0.16662729
-0.028478002 -0.011189966 0.16623676
-0.026458599 -0.014851015 0.16632584
-0.016531378 -0.0042840247 0.18366271
-0.015476796 -0.0067313504 0.18347666
-0.013631293 -0.011014166 0.18315107
-0.022320246 -0.00055848155 0.18455029
-0.019686911 -0.004130356 0.18397832
-0.018171076 -0.0081547694 0.18336937
-0.016889382 -0.012278365 0.18294317
-0.015334863 -0.016660642 0.18284038
-0.029426061 0.0024613505 0.1728929
-0.029924741 0.0011937153 0.16935033
-0.029830961 -0.0018201135 0.16867784
-0.020317409 -0.022585839 0.16742572
-0.029834276 0.00084208045 0.16462821
-0.029931514 -0.0029524453 0.16510588
-0.029891528 -0.0059880647 0.16510856
-0.025648383 -0.016047277 0.1639502
-0.023205753 -0.019030454 0.16426024
-0.020511771 -0.022233155 0.1630609
-0.030227806 0.00054321624 0.16102076
-0.029541632 -0.003141277 0.16093826
-0.029252848 -0.0069508394 0.16025198
-0.028070381 -0.010784813 0.16030559
-0.025640788 -0.014531123 0.15979221
-0.022680921 -0.018306034 0.15954608
-0.02057665 -0.022136729 0.1593858
-0.028612673 -0.0079623368 0.15631372
-0.028085409 -0.0091860089 0.15622067
-0.016769093 0.001400792 0.18349263
-0.015405498 -0.0020945398 0.18350658
-0.012894023 -0.0060812561 0.18384734
-0.011079958 -0.0095512327 0.18351841
-0.029981732 0.002714538 0.16310155
-0.029739454 0.0026370743 0.15792596
-0.029291691 -0.002255585 0.15803432
-0.024493074 -0.015695237 0.15700227
-0.02265949 -0.018856551 0.15715703
-0.02072854 -0.022106737 0.15670413
-0.029992785 0.00070796441 0.15460145
-0.029370721 -0.0025687655 0.15392733
-0.0289465 -0.0063790181 0.15407771
-0.027120298 -0.010315121 0.1536817
-0.025102552 -0.014171893 0.1535266
-0.022767287 -0.018157875 0.15240636
-0.020557158 -0.021710655 0.15205067
-0.02935197 -0.0036595049 0.15020487
-0.029079083 -0.006575455 0.14908016
-0.027797431 -0.010031033 0.14897352
-0.025575995 -0.013373204 0.14902329
-0.023082629 -0.017727528 0.14897966
-0.0069968193 -0.0033943537 0.18429303
-0.010624239 -0.00044947909 0.18336463
-0.0096597942 -0.004139055 0.1836918
-0.0074217324 -0.0082337447 0.18333361
-0.028848357 -0.00058412086 0.15094462
-0.018852018 -0.022577476 0.1488843
-0.029324016 0.0028626155 0.14685526
-0.02889502 -0.0017038388 0.14726058
-0.028819509 -0.004719222 0.14630806
-0.026775613 -0.011143922 0.1463677
-0.02509114 -0.013723633 0.14620858
-0.022725223 -0.017478034 0.14582866
-0.019723143 -0.021359388 0.14547229
-0.029180765 0.0018428508 0.14304867
-0.02896443 -0.0021879021 0.1426346
-0.028681146 -0.0059573464 0.14273855
-0.027564112 -0.0098685902 0.14287427
-0.025431411 -0.013338976 0.14212495
-0.023123918 -0.017473916 0.14141083
-0.02054555 -0.021507047 0.14046299
-0.028202342 -0.0065342733 0.13809693
-0.027533472 -0.0098127965 0.13738972
-0.026070135 -0.013389253 0.13694012
-0.024345249 -0.017346961 0.13681471
-0.022406192 -0.020377757 0.13590705
-0.026178595 -0.014752824 0.13356891
-0.025275342 -0.017562535 0.13283142
-0.023777407 -0.020325243 0.13314527
-0.0037726874 -0.0021265391 0.18460771
-0.02878939 -0.00054238364 0.14018977
-0.02882777 0.0027666474 0.13607588
-0.028495394 -0.0011884673 0.13568383
-0.02808604 -0.0049249087 0.1356906
-0.027932243 -0.0082429005 0.13515493
-0.020837596 -0.022299763 0.13480896
-0.028470125 -0.0017424989 0.13198346
-0.027364774 -0.0053072623 0.1315679
-0.026664574 -0.0090444461 0.13151214
-0.026112476 -0.012990923 0.13090941
-0.025738837 -0.017005075 0.13046911
-0.022347283 -0.021414049 0.13002029
-0.025551565 -0.013532847 0.12701756
-0.024914229 -0.017098097 0.1260792
-0.02333807 -0.020205589 0.12538162
-0.021137185 -0.022707671 0.12595797
0.0021311131 0.0002497934 0.18384558
-0.028000414 -0.0004596673 0.12881416
-0.027207553 -0.0044565927 0.12863255
-0.025993606 -0.008633838 0.12800419
-0.027754072 -0.00084585231 0.12412858
-0.028000265 -0.0048994259 0.12474579
-0.026707157 -0.0087840986 0.12475118
-0.025575366 -0.012499468 0.12428826
-0.024971977 -0.016087435 0.12338284
-0.021900272 -0.021459375 0.12334034
-0.01964155 -0.022909433 0.12252021
-0.028325733 -0.0049849241 0.11946189
-0.026860092 -0.008610067 0.11902082
-0.025577804 -0.012507341 0.11904007
-0.024083989 -0.016310111 0.11886579
-0.022385353 -0.020028088 0.11850619
-0.020153668 -0.022592247 0.11870903
-0.02610046 -0.011837358 0.11539191
-0.024431329 -0.016783368 0.11473817
-0.022861274 -0.01935425 0.11482036
0.0059699123 0.0017796338 0.18375602
-0.027790828 0.0014810767 0.12251061
-0.027783044 0.00035633147 0.11813718
-0.028157543 -0.0031340872 0.11664408
-0.027393086 0.0002695825 0.11381292
-0.027868189 -0.0045251348 0.11312622
-0.026891824 -0.0083811264 0.11314064
-0.025791274 -0.012561633 0.11283118
-0.024558919 -0.016026631 0.11268514
-0.022294605 -0.019985907 0.11202627
-0.019454923 -0.022662837 0.11157995
-0.027294582 -0.0054015573 0.1087364
-0.026623894 -0.0084555112 0.10853696
-0.025558671 -0.012277848 0.10780746
-0.024556231 -0.016081983 0.10747606
-0.022445835 -0.01947996 0.10693675
-0.024231477 -0.01729095 0.10361028
-0.023602746 -0.018515399 0.10343415
0.0077242749 0.002453295 0.18431455
-0.027851097 0.0016393913 0.11231685
-0.027588028 -0.0026163333 0.11017728
-0.027764205 0.00070148334 0.1076417
-0.027809016 -0.0037760502 0.10752827
-0.026747456 -0.0080337105 0.10606301
-0.025924537 -0.011376544 0.10532933
-0.021550331 -0.020705633 0.10433012
-0.027453115 -0.00078048278 0.10364944
-0.027848313 -0.0038849097 0.10285467
-0.02738511 -0.0079728356 0.10202986
-0.026414463 -0.012178824 0.10200739
-0.024869055 -0.015803769 0.10149848
-0.022312479 -0.019412607 0.10097611
-0.019214412 -0.022246741 0.10114831
-0.027795089 -0.0044412785 0.099002719
-0.027763121 -0.0081063695 0.098020792
-0.026765965 -0.012175308 0.098339379
-0.024748467 -0.015804384 0.097686708
-0.02186849 -0.019117951 0.097223043
-0.02664008 0.0025124522 0.10033315
-0.027057443 -0.00046623591 0.10026211
-0.02693131 0.0017859852 0.095875382
-0.026875492 -0.0023382618 0.095434666
-0.025491856 -0.0070321159 0.093835652
-0.024981529 -0.011332472 0.094627857
-0.022807807 -0.014916437 0.093830764
-0.02069045 -0.018921973 0.093698978
-0.018149029 -0.0218665 0.09416312
-0.026678598 -0.0039091418 0.09127152
-0.02594999 -0.0073062452 0.090865612
-0.024872769 -0.011131118 0.090480447
-0.023020219 -0.014860215 0.089991033
-0.021057306 -0.018546958 0.089397371
-0.01942851 -0.021489019 0.089271724
-0.026446134 -0.0085900147 0.086057961
-0.02567897 -0.011281448 0.086185753
-0.024043726 -0.014814349 0.086022556
-0.022331221 -0.018186389 0.086351335
-0.026404064 0.0001479676 0.092563033
-0.026725112 -0.0011349162 0.088928103
-0.026038276 -0.0055056051 0.087843239
-0.027514942 0.0015926836 0.084019363
-0.027072117 -0.0014639925 0.084094405
-0.026777167 -0.0059547559 0.084365785
-0.025981871 -0.011293796 0.083424985
-0.02373467 -0.01526343 0.083170652
-0.021830564 -0.018856931 0.083531201
-0.019165473 -0.021900032 0.082979262
-0.026525287 -0.0068781832 0.080071449
-0.025665486 -0.010839798 0.079199791
-0.024299961 -0.014958977 0.079012334
-0.022354379 -0.018493079 0.07863462
-0.020074312 -0.021296194 0.07860297
-0.026243346 -0.00046299025 0.078206241
-0.02559128 -0.0038898448 0.077549279
-0.026321877 -0.0004812656 0.073636472
-0.025008295 -0.004693727 0.073105752
-0.024211155 -0.0088514462 0.072837174
-0.02303079 -0.01379911 0.072343946
-0.02071166 -0.018053055 0.072183669
-0.018881559 -0.020889957 0.072026551
-0.024996195 -0.0092352303 0.068007827
-0.02408232 -0.013735779 0.068268478
-0.021540027 -0.017991677 0.067325771
-0.020053588 -0.020446677 0.067791224
-0.025840551 -0.0097540375 0.064497232
-0.025048621 -0.013193612 0.063813031
-0.023233935 -0.016701669 0.063485622
-0.026215501 -0.00030912552 0.070727289
-0.025328957 -0.0037369467 0.070465982
-0.026144752 -6.8609603e-05 0.065962017
-0.025551345 -0.0044276235 0.066754103
-0.025635667 -0.0074924855 0.066721857
-0.019354081 -0.021249507 0.065880537
-0.025566105 -0.00482347 0.06151849
-0.025865037 -0.0086738924 0.061535716
-0.025223102 -0.013152993 0.060860336
-0.022990176 -0.017745135 0.061524808
-0.020284394 -0.020309605 0.060741067
-0.025066091 -0.0091750259 0.057429552
-0.024066262 -0.012583829 0.057587564
-0.022672931 -0.016566813 0.057052374
-0.020815151 -0.018868309 0.056626737
-0.025500886 0.00045428146 0.060064733
-0.025026321 -0.0033888654 0.059085071
-0.018658841 -0.021103367 0.057474196
-0.026168043 0.00038853008 0.055470228
-0.025723577 -0.0038189068 0.055773139
-0.024913415 -0.0080127306 0.054258585
-0.023429414 -0.012195792 0.053778708
-0.021920467 -0.016155513 0.053445518
-0.019497328 -0.019798271 0.05400455
-0.026770448 -0.00070171338 0.05146867
-0.026023112 -0.004179012 0.05107981
-0.025002895 -0.0080869477 0.049734473
-0.024026012 -0.012294108 0.050167739
-0.022129502 -0.016105836 0.049649
-0.019397948 -0.019611787 0.049330652
-0.025860645 -0.0084959837 0.045991957
-0.024629481 -0.012355812 0.045490503
-0.022961121 -0.016087873 0.045414686
-0.020606823 -0.019205172 0.046099663
-0.024171473 -0.015091351 0.041729271
-0.026466213 0.0010883529 0.048539281
-0.026290547 -0.0031853262 0.048315763
-0.01826353 -0.020615496 0.046524942
-0.026558042 0.00040996354 0.044481874
-0.026188537 -0.0037377211 0.044186056
-0.025958702 -0.0074346033 0.043039083
-0.022279056 -0.017451899 0.042858243
-0.019513015 -0.019657336 0.042542279
-0.025956048 -0.0034552575 0.039658546
-0.025594521 -0.0079247793 0.039691508
-0.024499847 -0.012064139 0.038949072
-0.022606302 -0.015902352 0.038438082
-0.019833416 -0.018400531 0.038106084
-0.024184711 -0.012547917 0.034573376
-0.022772742 -0.01582481 0.034324229
-0.026008397 0.0010911683 0.041089356
-0.026542017 0.0012291707 0.038096011
-0.025782498 -0.0032881643 0.037324131
-0.025007684 -0.0075425669 0.035848677
-0.020898692 -0.016663257 0.034990489
-0.018791627 -0.019342158 0.036036253
-0.026746482 0.0011248346 0.033600748
-0.026496626 -0.0034243395 0.033768117
-0.025527764 -0.0076420447 0.033167899
-0.024168141 -0.011316964 0.032563031
-0.022277672 -0.015573502 0.032506943
-0.019597091 -0.019334467 0.032251656
-0.026725901 -0.004083972 0.028853059
-0.025663905 -0.0075309854 0.028986156
-0.024122484 -0.011711692 0.028106093
-0.022640536 -0.015362185 0.027914226
-0.020195996 -0.019223623 0.027696431
-0.02620974 0.0015125005 0.029769659
-0.026136544 0.0016906457 0.026420832
-0.025652518 -0.0021109888 0.025271475
-0.024724126 -0.0069930335 0.024711668
-0.023709085 -0.0096866665 0.024643481
-0.021338429 -0.016483968 0.024650395
-0.019541565 -0.018851463 0.023741901
-0.025068197 -0.0031232894 0.021606028
-0.024560228 -0.0067920843 0.021256626
-0.023381395 -0.011154771 0.020775795
-0.022017404 -0.015061855 0.020510733
-0.019626506 -0.018561356 0.019681692
-0.021646239 -0.014755858 0.015729189
-0.02527437 0.0023247749 0.020003259
-0.024680706 -0.0016976264 0.019146919
-0.025333203 0.0019158414 0.014542997
-0.024985703 -0.0020210571 0.014653683
-0.023998793 -0.0063309241 0.015153408
-0.0229297 -0.010346169 0.014856637
-0.021524061 -0.014628957 0.013397038
-0.019128941 -0.018606175 0.013998568
-0.025185123 -0.0022984478 0.010026634
-0.024301292 -0.0064535812 0.0095642209
-0.023530491 -0.010607123 0.0096026659
-0.021783436 -0.014586575 0.0092694163
-0.019406661 -0.017807135 0.0088034272
-0.024002647 -0.010929365 0.0049126744
-0.022632593 -0.014379016 0.0050926208
-0.020514522 -0.017050978 0.0045024157
-0.024625178 -0.00078514684 0.007335186
-0.017311389 -0.019015856 0.0064699054
-0.024004394 -0.0016817483 0.0033738017
-0.023836184 -0.0056138118 0.003541708
-0.024074271 -0.0090139601 0.0030091405
-0.021810992 -0.01515753 0.0029149652
-0.018632339 -0.017434452 0.002259016
-0.016614402 -0.019004367 0.0019449592
-0.023779934 -0.0064194039 -0.00037258863
-0.022866573 -0.010279624 -0.00081986189
-0.02171218 -0.01390431 -0.00069797039
-0.024638636 -0.00027324725 0.0013011694
