# .PCD v0.7 - Point Cloud Data file format
VERSION 0.7
FIELDS x y z
SIZE 4 4 4
TYPE F F F
COUNT 1 1 1
WIDTH 357
HEIGHT 1
VIEWPOINT 0 0 0 1 0 0 0
POINTS 357
DATA ascii
-0.019584527 -0.02080882 0.18087849
-0.016571905 -0.024062473 0.18090543
-0.013430675 -0.026499685 0.18030471
-0.020308984 -0.022250107 0.17722625
-0.01740648 -0.024927262 0.17687353
-0.0157074 -0.026701989 0.1771566
-0.023528598 -0.0087854117 0.18297428
-0.0218869 -0.010901229 0.18305987
-0.019175693 -0.013808167 0.18292394
-0.016309993 -0.01749862 0.18307188
-0.012610625 -0.020746995 0.18327373
-0.0095644277 -0.022983322 0.18372375
-0.025849411 -0.0093160132 0.18066081
-0.023601232 -0.012484392 0.18113798
-0.021449253 -0.016097087 0.18099415
-0.018245831 -0.018798934 0.18259299
-0.014834185 -0.022488825 0.18279949
-0.011794595 -0.025037106 0.18231082
-0.0095293671 -0.027194824 0.17973986
-0.02707462 -0.010457627 0.17645979
-0.025266157 -0.013846958 0.17636245
-0.023094237 -0.017083438 0.17615041
-0.021556478 -0.020553354 0.1758672
-0.018328618 -0.024540147 0.17487463
-0.014031125 -0.027365293 0.17535725
-0.01057282 -0.028217768 0.17458412
-0.025745276 -0.01463687 0.17123744
-0.02376302 -0.017630581 0.17095733
-0.021141458 -0.021569941 0.17138603
-0.017922541 -0.02488387 0.17116353
-0.014860513 -0.027419906 0.17064849
-0.01135313 -0.028337281 0.17030454
-0.024170255 -0.018904136 0.1666885
-0.022021091 -0.022175947 0.16670027
-0.018905653 -0.025604818 0.166596
-0.015134277 -0.027480815 0.1662567
-0.022586724 -0.022559341 0.16354591
-0.020155709 -0.024772231 0.16261932
-0.0074921264 -0.016390109 0.18312806
-0.019941721 -0.0090198815 0.18382177
-0.016861716 -0.011560672 0.18330979
-0.013575554 -0.013894557 0.18258655
-0.010832367 -0.01711829 0.18288267
-0.027393516 -0.0092317555 0.17350909
-0.02727367 -0.0098125646 0.16974723
-0.026308071 -0.013190726 0.16901544
-0.0091439839 -0.027983731 0.16794661
-0.027018927 -0.010332474 0.16407821
-0.025857389 -0.013733022 0.16472542
-0.024692371 -0.016815962 0.16512302
-0.014603246 -0.026824242 0.16285914
-0.011147331 -0.028151765 0.1633518
-0.025944242 -0.013596242 0.16100901
-0.024132743 -0.017626304 0.16035181
-0.022256684 -0.021118782 0.15985578
-0.018419668 -0.024567444 0.15957099
-0.014799999 -0.026130252 0.1596669
-0.010988269 -0.027833607 0.1594016
-0.023387617 -0.018305827 0.15631372
-0.021521125 -0.020209022 0.15617722
-0.019197011 -0.023047931 0.15578097
-0.015834669 -0.0049072863 0.18310282
-0.013086794 -0.0078468462 0.18314242
-0.0099766999 -0.010449589 0.18355894
-0.0072267801 -0.013370818 0.18340585
-0.027435694 -0.0092671048 0.15864357
-0.025689118 -0.013153777 0.15784949
-0.024480663 -0.015700983 0.15749684
-0.013367731 -0.026316179 0.15724939
-0.0097499732 -0.02771581 0.15622535
-0.027225569 -0.010649295 0.15375292
-0.025739234 -0.013229379 0.15378672
-0.024050483 -0.016707299 0.15379366
-0.02173255 -0.020273743 0.15354085
-0.018109815 -0.02397415 0.15351292
-0.014443233 -0.026233343 0.15318745
-0.011133293 -0.027653541 0.15194517
-0.025520634 -0.014406036 0.14998016
-0.024299998 -0.017151257 0.14902401
-0.022183914 -0.02048428 0.14924449
-0.018956011 -0.023621216 0.14910024
-0.015395034 -0.026294293 0.14817476
-0.022377707 -0.020453341 0.14511999
-0.019440407 -0.023220779 0.14525902
-0.016905839 -0.025419738 0.14487386
-0.00501678 -0.005662099 0.18414336
-0.0099316258 -0.004780489 0.18365976
-0.0068312003 -0.0074223345 0.18410102
-0.0038864354 -0.010630025 0.18351585
-0.025800971 -0.011890591 0.15072981
-0.027227575 -0.0088357935 0.14651066
-0.026010899 -0.012597104 0.14722306
-0.025049197 -0.015629759 0.14657187
-0.013441695 -0.026780415 0.14537266
-0.010582909 -0.026864883 0.14557728
-0.026055453 -0.013130492 0.14236778
-0.024323545 -0.016590375 0.14286071
-0.022155894 -0.020084785 0.14224595
-0.019140599 -0.022771262 0.14201254
-0.015048087 -0.02572863 0.141644
-0.01117737 -0.027033616 0.14073467
-0.025761334 -0.013971556 0.13856772
-0.024061274 -0.016555183 0.13841993
-0.022114305 -0.020048127 0.13789186
-0.019498628 -0.022893997 0.13756198
-0.016147101 -0.025638033 0.13715193
-0.013363352 -0.02690883 0.13592863
-0.019612018 -0.023271773 0.13355353
-0.016941791 -0.025820043 0.13279146
-0.014672773 -0.027407363 0.13319233
-0.0021958326 -0.0033807014 0.18387792
-0.026354639 -0.010843445 0.14012909
-0.0084078861 -0.026686087 0.13849306
-0.026998851 -0.0083777672 0.1363638
-0.025994629 -0.01213384 0.13583028
-0.024406651 -0.015888505 0.13570875
-0.022848248 -0.01850879 0.13538516
-0.011712787 -0.027662029 0.13493392
-0.0088529866 -0.027435238 0.13152474
-0.025655663 -0.01281557 0.13152325
-0.02396746 -0.015810734 0.13104734
-0.021948233 -0.019307945 0.13143647
-0.019923605 -0.02259055 0.13080192
-0.017007137 -0.025749203 0.12992841
-0.01306636 -0.02762893 0.13040462
-0.0097379507 -0.028185692 0.12959862
-0.023576599 -0.016882351 0.12730515
-0.021676114 -0.018817158 0.12716758
-0.01950201 -0.022359565 0.12677079
-0.016776588 -0.025345311 0.12596741
-0.013974225 -0.027059853 0.12618726
0.0019429623 0.00065477652 0.18352172
-0.0011908771 -0.00097010017 0.1836254
-0.025935385 -0.0099737253 0.13273081
-0.025870884 -0.010945349 0.12872827
-0.024505896 -0.014038021 0.12826717
-0.011146901 -0.02754904 0.12725046
-0.025357194 -0.011957864 0.12419745
-0.024574514 -0.015591742 0.12506071
-0.021778654 -0.018765338 0.12431425
-0.019325491 -0.022032056 0.12359363
-0.016593607 -0.025058437 0.12353075
-0.012411738 -0.027334452 0.1234307
-0.0095265843 -0.027695999 0.12245905
-0.025534935 -0.012680451 0.12044334
-0.024928737 -0.016145004 0.12027001
-0.022376027 -0.019119304 0.12005109
-0.019481681 -0.021994431 0.11980343
-0.016608141 -0.024889285 0.11957973
-0.013163281 -0.026679076 0.11866087
-0.024763275 -0.01676406 0.1157344
-0.022500746 -0.018982302 0.11519992
-0.019915463 -0.021889031 0.11475056
-0.01697731 -0.024983898 0.11404127
-0.014536012 -0.026442142 0.11426711
0.0036870216 0.0031838301 0.18395817
-0.025787976 -0.0085995849 0.12322015
-0.025803249 -0.0099129518 0.11811757
-0.025201213 -0.014078515 0.11711609
-0.011015718 -0.026962401 0.11620671
-0.0083167274 -0.027262561 0.11660719
-0.025781101 -0.011086936 0.11387199
-0.025163051 -0.015090343 0.11310405
-0.022471953 -0.018792244 0.11214864
-0.019457186 -0.022546869 0.11231786
-0.012577021 -0.026913686 0.11202049
-0.0089823063 -0.027395003 0.11222398
-0.024820769 -0.01578702 0.10870403
-0.022449801 -0.018554291 0.10807961
-0.019988311 -0.021912927 0.10838777
-0.017136639 -0.024865031 0.10821253
-0.014059028 -0.026447972 0.10750812
-0.021640494 -0.019476453 0.10414487
-0.019910851 -0.02198468 0.10365999
-0.017058918 -0.024599411 0.10408103
0.0035190159 0.0083761504 0.18433097
-0.026284631 -0.0090461038 0.11193544
-0.026231466 -0.010029078 0.10767627
-0.025106451 -0.014334038 0.10642856
-0.011921916 -0.026753504 0.10590452
-0.025791038 -0.011287542 0.10349631
-0.025171636 -0.014743328 0.10236222
-0.022978764 -0.018518876 0.10225034
-0.020417349 -0.021483243 0.10103887
-0.016931023 -0.02432913 0.1008808
-0.013055911 -0.026374971 0.10149449
-0.0094787888 -0.026831325 0.10238993
-0.025241245 -0.014989099 0.09865278
-0.022581231 -0.018503927 0.097472787
-0.019871539 -0.021237969 0.097068429
-0.017002529 -0.02382989 0.096873641
-0.013657007 -0.025824742 0.097610056
-0.025784209 -0.0078293923 0.10019785
-0.025859777 -0.0090884604 0.095485389
-0.024838265 -0.012466967 0.095410287
-0.022913668 -0.016394816 0.09527719
-0.014746615 -0.023850195 0.094201267
-0.011643527 -0.025369378 0.094359815
-0.0089595811 -0.025986277 0.093611896
-0.024177911 -0.013746233 0.090823948
-0.021929258 -0.017143831 0.091062427
-0.018993719 -0.0200832 0.090826869
-0.015808402 -0.022768248 0.09027648
-0.01247289 -0.02530957 0.08954227
-0.0099650277 -0.026769709 0.089729428
-0.022121228 -0.017479442 0.086573303
-0.019634224 -0.020431099 0.085439384
-0.01653132 -0.022874851 0.086006224
-0.014185362 -0.024880577 0.086420238
-0.025986133 -0.0078856237 0.0886361
-0.025195846 -0.01099129 0.089136541
-0.026155878 -0.0091926325 0.084183156
-0.025026739 -0.011997288 0.084072053
-0.02305899 -0.015935417 0.084217489
-0.016111149 -0.023208899 0.083201587
-0.012876203 -0.025679061 0.083746731
-0.009630383 -0.026945112 0.082967699
-0.024234481 -0.012949873 0.080055416
-0.022474285 -0.016585076 0.079766095
-0.020330632 -0.020424912 0.079647303
-0.017017115 -0.023414742 0.079388618
-0.013725409 -0.025789935 0.078826904
-0.010842348 -0.027130134 0.078431129
-0.020254441 -0.020522851 0.075291038
-0.017439136 -0.022655521 0.07516098
-0.024578055 -0.010799501 0.077782512
-0.022716973 -0.014218042 0.076734781
-0.02574075 -0.0081783319 0.07414335
-0.024343569 -0.01099295 0.073423266
-0.022353988 -0.014354665 0.072924614
-0.020215096 -0.019228429 0.072368205
-0.016165629 -0.022260953 0.072008193
-0.012274729 -0.024653858 0.072246015
-0.010042151 -0.026125409 0.072189987
-0.024199661 -0.012315209 0.069443524
-0.02291587 -0.015188468 0.068514287
-0.021102635 -0.018780833 0.068615317
-0.017109454 -0.022404881 0.068244457
-0.013279013 -0.024575047 0.067624092
-0.010329625 -0.026195366 0.067308605
-0.022752564 -0.016551806 0.064868867
-0.0212518 -0.019249346 0.064015269
-0.018605245 -0.022008615 0.063541949
-0.015250415 -0.023939582 0.064197063
-0.024992511 -0.010208244 0.07076031
-0.025204115 -0.010938658 0.066982448
-0.023969732 -0.013875007 0.066127121
-0.01178579 -0.025575079 0.06588155
-0.0083940597 -0.025559347 0.064553797
-0.024738692 -0.01149678 0.063134909
-0.023400094 -0.014810309 0.061920881
-0.021845035 -0.018423678 0.061267436
-0.017421601 -0.022945233 0.060974538
-0.014597686 -0.024443325 0.061399817
-0.011161228 -0.025453066 0.06159097
-0.022823896 -0.015265343 0.057916522
-0.020949963 -0.018345948 0.057481229
-0.018380094 -0.021372017 0.057768762
-0.014727505 -0.023604574 0.056901395
-0.024462583 -0.010051638 0.059976816
-0.0088026281 -0.024762716 0.05772078
-0.024921509 -0.01001589 0.055855393
-0.023027141 -0.01401387 0.054600537
-0.020436952 -0.01765142 0.053563535
-0.017380057 -0.021121524 0.054100513
-0.013780195 -0.023425044 0.053310454
-0.0095160026 -0.024900103 0.054213047
-0.025012782 -0.010743951 0.051065981
-0.023179177 -0.014206039 0.050202787
-0.020653374 -0.017710853 0.050621808
-0.017745307 -0.020810679 0.05051136
-0.014169854 -0.023236534 0.049498737
-0.01083662 -0.024686601 0.05048573
-0.023662172 -0.014745912 0.046245933
-0.02114726 -0.017946422 0.045883417
-0.018310079 -0.021130482 0.045878828
-0.015103491 -0.023297805 0.04566133
-0.021814268 -0.018415788 0.042456567
-0.018812856 -0.021437796 0.042231619
-0.0076007014 -0.024926817 0.051136315
-0.02543804 -0.0089954007 0.048164546
-0.0090067005 -0.024529165 0.047269106
-0.025369752 -0.010288071 0.044285834
-0.02428136 -0.013919217 0.043455899
-0.01375825 -0.023863452 0.042951226
-0.010531761 -0.024389312 0.042370558
-0.025169909 -0.010589353 0.039842606
-0.023763392 -0.014440725 0.039453089
-0.021700962 -0.018131422 0.039021313
-0.018621985 -0.021087788 0.038697839
-0.014833931 -0.022813996 0.038423181
-0.023232294 -0.015441243 0.035208821
-0.021346515 -0.017597027 0.035235524
-0.018251795 -0.02055339 0.034900308
-0.025675818 -0.0081252763 0.040743351
-0.025592627 -0.0093791625 0.037776172
-0.024355853 -0.01259925 0.036305845
-0.012217835 -0.022771589 0.036195576
-0.0093530044 -0.024031997 0.036704421
-0.025842287 -0.0098793302 0.033489704
-0.024064945 -0.013759127 0.033442795
-0.021139065 -0.017269962 0.032741249
-0.01795035 -0.020140838 0.032281101
-0.014296882 -0.022905827 0.032933772
-0.011197831 -0.024600523 0.032380462
-0.025595032 -0.01139287 0.028954923
-0.024016984 -0.014109534 0.028775573
-0.021557899 -0.017235577 0.029020607
-0.017954458 -0.019988112 0.028979301
-0.014593482 -0.022699473 0.028286934
-0.011713879 -0.024886614 0.027602911
-0.007746798 -0.024207115 0.029602408
-0.025641125 -0.0089302454 0.026291668
-0.024212915 -0.011832826 0.025002778
-0.019352186 -0.017148668 0.024920642
-0.017067989 -0.01892342 0.024403155
-0.013901932 -0.021855962 0.023998916
-0.0096768038 -0.024313379 0.024111986
-0.025183167 -0.0085968999 0.022499859
-0.023295436 -0.01277133 0.021709621
-0.020548912 -0.016149769 0.021914184
-0.017191431 -0.018890943 0.021239579
-0.013850663 -0.02165753 0.02059406
-0.010900476 -0.023801096 0.019824445
-0.020041777 -0.015452465 0.017826498
-0.01658207 -0.019140853 0.017707527
-0.01401087 -0.021671303 0.01747793
-0.024876703 -0.0077028293 0.019295871
-0.0075127762 -0.023535676 0.018209934
-0.024547324 -0.0082111806 0.014897346
-0.022965541 -0.012119541 0.015610278
-0.020129152 -0.015395658 0.015061915
-0.017191639 -0.018299645 0.014808834
-0.01401497 -0.021526892 0.014127553
-0.010358269 -0.024051843 0.014164746
-0.024369363 -0.0091342721 0.010291278
-0.023096014 -0.011949692 0.010142684
-0.020266511 -0.015557997 0.0099814534
-0.017807119 -0.018934695 0.0097874403
-0.01456742 -0.02183691 0.009304285
-0.011271395 -0.024034493 0.009028554
-0.019823747 -0.016629567 0.0053701997
-0.0181168 -0.019037429 0.0057170987
-0.01507927 -0.02215429 0.005533874
-0.020723861 -0.01453925 0.0068206787
-0.0098959804 -0.024294771 0.0063380003
-0.023375574 -0.0078173783 0.0042496324
-0.022627484 -0.011145435 0.0037504435
-0.020322895 -0.014563857 0.0030148625
-0.017842179 -0.01864849 0.0030435324
-0.01477821 -0.02174996 0.0028297901
-0.011130596 -0.023288621 0.0021947026
-0.0088513317 -0.024146907 0.0021419525
-0.021777991 -0.012122955 -0.00063985586
-0.020000568 -0.014485478 -0.00037461519
-0.017155124 -0.017808504 -0.00082015991
-0.014488339 -0.020900708 -0.0010662675
