# .PCD v0.7 - Point Cloud Data file format
VERSION 0.7
FIELDS x y z
SIZE 4 4 4
TYPE F F F
COUNT 1 1 1
WIDTH 384
HEIGHT 1
VIEWPOINT 0 0 0 1 0 0 0
POINTS 384
DATA ascii
0.021411508 -0.024559949 0.18059978
0.022581352 -0.02193835 0.18207207
0.023860674 -0.018372253 0.1819385
0.024967534 -0.014758315 0.18122301
0.026083536 -0.011292005 0.17980817
0.022814028 -0.025258515 0.17813885
0.024922568 -0.023242231 0.17885688
0.026121883 -0.01948534 0.17837816
0.026480963 -0.015801778 0.17736539
0.023657123 -0.025749933 0.17523545
0.025446374 -0.023655135 0.17481068
0.026625894 -0.019885276 0.17431197
0.027150661 -0.016785234 0.17390668
0.017147403 -0.019800253 0.18346635
0.018427946 -0.016000645 0.18393877
0.020211505 -0.012437703 0.18390852
0.021752061 -0.0085595967 0.18331409
0.023490816 -0.0032967799 0.18329364
0.024889067 -3.8987026e-05 0.18371943
0.018895349 -0.020918623 0.18271011
0.020785294 -0.017028611 0.18309391
0.022721877 -0.013203571 0.18262485
0.025120739 -0.0093470821 0.18112439
0.025916236 -0.004947817 0.18058667
0.027284665 -0.0012300108 0.18023506
0.026414802 -0.01395948 0.17669523
0.026789958 -0.010563928 0.17579073
0.027309407 -0.0057574683 0.17541319
0.028087014 -0.001911371 0.17487347
0.028207894 0.0015792036 0.17565224
0.022334434 -0.026213298 0.17231423
0.025023088 -0.023627434 0.17178249
0.026468504 -0.019949913 0.17149451
0.02702108 -0.015400036 0.17151999
0.027371965 -0.011437347 0.17118791
0.027883582 -0.007297019 0.17015812
0.023528468 -0.026063062 0.16794693
0.025114842 -0.023836743 0.16825837
0.026577786 -0.020158421 0.16798198
0.02772248 -0.016356094 0.16744512
0.028253371 -0.012304739 0.16640341
0.028646724 -0.0095766941 0.16664547
0.023897979 -0.0263808 0.16463545
0.025683377 -0.024313197 0.16330147
0.026983574 -0.020730611 0.16317666
0.028005902 -0.016682478 0.16276342
0.028658079 -0.013591379 0.1628353
0.026102016 -0.024646232 0.16001993
0.027199633 -0.022231044 0.15993407
0.014718615 -0.0086601498 0.18366265
0.015794126 -0.0062201032 0.1835466
0.017663959 -0.001947701 0.18333492
0.020474657 0.0019460963 0.18430603
0.015823865 -0.014876924 0.18460697
0.017295122 -0.011177741 0.18432906
0.018626545 -0.0070870775 0.18337822
0.020164108 -0.0040680924 0.18309575
0.02851172 -0.00062971748 0.17173237
0.0281398 0.0026968494 0.17296636
0.027881753 -0.0053251823 0.16802722
0.028003177 -0.0019822763 0.16818386
0.027863113 0.0022729132 0.16765201
0.028080137 -0.0068151518 0.16419706
0.02775065 -0.0023223823 0.1637089
0.027935887 0.00079969782 0.16349509
0.026552631 -0.019065149 0.16021889
0.027711134 -0.016669843 0.16018182
0.027603075 -0.011822207 0.15963864
0.027623389 -0.008438373 0.15970349
0.022752915 -0.026735354 0.15780246
0.025509022 -0.024558168 0.15679544
0.026661264 -0.020526687 0.15687186
0.027504826 -0.016749788 0.15635881
0.027195912 -0.013395403 0.15542269
0.025461663 -0.023892313 0.15224469
0.026556838 -0.020908281 0.15158248
0.027368786 -0.01723549 0.15224808
0.010814069 -0.012827443 0.18345189
0.011844127 -0.0088982861 0.18342614
0.012885446 -0.0049467543 0.1840077
0.014676139 -0.0009376402 0.18370098
0.027251575 -0.0015544733 0.16060302
0.028071631 0.0023009107 0.16098398
0.027114455 -0.0060655153 0.1575318
0.026832903 -0.0023732558 0.1564157
0.028331913 0.0022421414 0.15723401
0.026871342 -0.011365392 0.15363902
0.026658999 -0.0079805218 0.15290084
0.026566897 -0.0048122848 0.15335524
0.022543751 -0.025101056 0.15023777
0.027375747 -0.016703349 0.14954039
0.027141619 -0.012717447 0.14930752
0.026877195 -0.0087648937 0.14935371
0.024584342 -0.023990564 0.14565945
0.026374053 -0.021094846 0.14590007
0.027315252 -0.017342826 0.14576042
0.027182844 -0.013438031 0.14560521
0.0071810014 -0.0024804331 0.18416631
0.0076307049 -0.0073965527 0.18348768
0.0097442381 -0.0035799399 0.18430901
0.011202805 0.00017605023 0.18400458
0.026829217 -0.00050455891 0.15389219
0.027100112 0.0020249048 0.15393975
0.026485272 -0.0063662748 0.15010166
0.026412077 -0.0024490836 0.1503686
0.026698396 0.0023369761 0.14904708
0.026548306 -0.010947742 0.14614141
0.026579928 -0.0078086923 0.14638531
0.026981706 -0.0035089948 0.14586142
0.026948404 0.00030077808 0.14466748
0.026164815 -0.016076669 0.14205483
0.026523709 -0.012349906 0.14231557
0.026994137 -0.0083807074 0.14176255
0.027339764 -0.0043480718 0.14109874
0.022673273 -0.024981271 0.1389724
0.024655046 -0.020698959 0.13885269
0.025503065 -0.016703567 0.13801488
0.026281442 -0.012671247 0.13711217
0.027291672 -0.0089667225 0.1376389
0.027881071 -0.0059780586 0.13774085
0.023441613 -0.024312252 0.13421679
0.025253735 -0.021185793 0.1337637
0.026006365 -0.017328313 0.13344532
0.026799174 -0.014520091 0.13340545
0.025666006 -0.021516036 0.13037184
0.0038651018 -0.00075716717 0.18410012
0.027758038 -0.0036718943 0.13871652
0.026954688 0.00083928928 0.13879156
0.027514022 -0.0085013472 0.13506222
0.027736962 -0.004356117 0.13490373
0.027328003 -0.00083381031 0.13394573
0.021984389 -0.026230391 0.13257816
0.026502321 -0.016696626 0.13112301
0.0268164 -0.012712382 0.13152537
0.027240375 -0.0089206155 0.13071612
0.027618069 -0.0046542292 0.13038611
0.023138516 -0.024984453 0.12786198
0.025948217 -0.02175336 0.12779602
0.026371494 -0.017534198 0.12750259
0.026583862 -0.013718614 0.12688658
0.026895996 -0.0096613746 0.12689865
0.023737699 -0.025138069 0.12375021
0.026134789 -0.022042822 0.12323684
0.026438642 -0.018266169 0.12269518
0.026355008 -0.021577377 0.11936724
-0.0016341421 0.0013104766 0.18388259
0.0014659908 -0.0015046925 0.18394732
0.026313966 0.0020590471 0.13560385
0.02701316 0.0012535984 0.13209695
0.027429448 -0.004681454 0.12737748
0.027412936 -0.00019554421 0.12763649
0.026115024 -0.012154779 0.12403184
0.026823862 -0.0087876515 0.1240437
0.02718094 -0.0047194934 0.12335002
0.027218439 -0.0014028372 0.12263268
0.021569289 -0.025918588 0.1206072
0.026218468 -0.016810775 0.12005103
0.026021324 -0.013273999 0.11986595
0.026177166 -0.0091884956 0.11961889
0.027349317 -0.0049289758 0.11968321
0.022635378 -0.024836857 0.1164757
0.025604891 -0.022339121 0.11659044
0.026398782 -0.018044792 0.11612564
0.02586209 -0.014374144 0.1156286
0.02533943 -0.021927584 0.11211473
0.026683878 -0.018592624 0.11126411
-0.0050679138 0.0027991035 0.18406206
0.027160555 0.00058720168 0.12097895
0.025698846 -0.0084356256 0.11635214
0.02624787 -0.0045833327 0.115807
0.02692613 -0.0003532283 0.11668199
0.025879437 -0.012994817 0.11317003
0.025803102 -0.0090141911 0.11225623
0.026002111 -0.0048513035 0.11139393
0.026459638 -0.00025841687 0.11336726
0.027286552 0.0023696721 0.11300474
0.023744477 -0.023169078 0.10934669
0.026659053 -0.017751399 0.10840803
0.026089469 -0.013779273 0.10840827
0.025854217 -0.01019659 0.10817057
0.02431814 -0.02257688 0.10490638
0.026793772 -0.018704329 0.10495096
0.026747284 -0.014453256 0.10352302
0.024917167 -0.021827063 0.10074526
0.026665781 -0.019214382 0.10061234
-0.0085718287 0.00058107404 0.18447495
-0.0071965563 0.003727722 0.1843144
0.026429283 -0.0049059419 0.10921913
0.026802886 -0.00050110836 0.11078018
0.026415911 -0.0090203686 0.10618842
0.02675957 -0.0049203923 0.10694987
0.027106185 -0.00079392176 0.10620725
0.022960711 -0.023932481 0.10200197
0.026862586 -0.012930369 0.10080409
0.027275296 -0.010060141 0.10199404
0.027401956 -0.0055890339 0.10234916
0.027776856 -0.0021567214 0.101717
0.023654958 -0.023221649 0.097913742
0.026401348 -0.018566735 0.097478688
0.026594277 -0.014636409 0.097538114
0.027292293 -0.010219093 0.098109961
0.027268663 -0.00600495 0.097649097
0.024431685 -0.023024347 0.093082726
0.026614515 -0.019148046 0.093103886
0.026613714 -0.015002279 0.09347111
0.024703402 -0.023021597 0.08910352
0.026224755 -0.02064798 0.089390039
0.026669528 0.00029302668 0.099022448
0.025549738 -0.009597959 0.094505906
0.026182231 -0.0049873199 0.093709528
0.026631286 -0.00099922623 0.094011962
0.026737373 0.0025070375 0.094069898
0.022269847 -0.024874646 0.091883779
0.025670184 -0.01332711 0.090730667
0.025389763 -0.0096888635 0.090414822
0.026125351 -0.0056790784 0.089681387
0.027025016 -0.0023237183 0.090170562
0.022330169 -0.024133194 0.086961985
0.025541799 -0.019274659 0.086691916
0.025727488 -0.014530079 0.086569667
0.025981616 -0.010409948 0.086354434
0.023483917 -0.023882765 0.082714617
0.02557398 -0.019923359 0.082548022
0.025891753 -0.015780017 0.082500458
0.024590218 -0.023436498 0.079109967
0.025793027 -0.020947315 0.078591347
0.026554819 -0.0042486819 0.087203622
0.027088659 -0.00091526937 0.087661862
0.026077989 -0.0098805055 0.083502948
0.026701875 -0.0059541576 0.083964527
0.027571399 -0.0017988496 0.083020866
0.027539399 0.0024842666 0.082517445
0.022071276 -0.025320534 0.080838501
0.026301824 -0.014532886 0.080316424
0.026550353 -0.010618116 0.079629242
0.027006421 -0.0062609119 0.079276979
0.027580455 -0.0029702373 0.078770518
0.023295123 -0.024726387 0.076281726
0.025801146 -0.021070965 0.075910628
0.026664304 -0.016137745 0.075850904
0.026407689 -0.011112202 0.075143695
0.023753237 -0.024454795 0.071373165
0.02644188 -0.021528386 0.071742713
0.026920499 -0.017413788 0.070723891
0.026944833 -0.014211963 0.070210934
0.02612688 -0.0075213485 0.076017201
0.027234551 -0.00083353277 0.0769611
0.026352637 -0.011328144 0.072297812
0.025293423 -0.0061356816 0.072483242
0.02589847 -0.0019554966 0.07155633
0.026920069 0.0017880909 0.071301639
0.021414982 -0.024906278 0.067902446
0.026732238 -0.015752392 0.067590415
0.026303338 -0.012179699 0.068237841
0.02578832 -0.007865564 0.067956507
0.021886554 -0.024197556 0.064511836
0.025088212 -0.021285418 0.064365208
0.025734261 -0.017224666 0.063832998
0.026298318 -0.012478447 0.063575745
0.026527382 -0.0091716545 0.064048111
0.02273212 -0.023484539 0.061219513
0.024981793 -0.02147131 0.059196174
0.026082812 -0.017327316 0.059798181
0.026152421 -0.014271447 0.060320854
0.025621001 -0.021098556 0.056481361
0.026271801 -0.0064434754 0.065468848
0.026189107 -0.0032995162 0.066180646
0.02645742 0.00097875111 0.064926624
0.026090916 -0.0077482155 0.061312139
0.025763933 -0.003666738 0.061333001
0.021375367 -0.024774561 0.058270276
0.026274376 -0.016748294 0.05730778
0.025953189 -0.012763764 0.05745858
0.025917813 -0.0088801011 0.057902813
0.022972161 -0.023950897 0.053317428
0.024938764 -0.021922834 0.053567946
0.025414424 -0.01776118 0.053132236
0.025704971 -0.014345333 0.053747058
0.023214335 -0.024230542 0.049470007
0.024574818 -0.02206574 0.048902929
0.024985265 -0.018863881 0.048752189
0.024921503 -0.006119607 0.058002114
0.025260864 -0.0031686649 0.058116078
0.025716826 0.0013055056 0.058744788
0.024959356 -0.010934891 0.05377835
0.025086984 -0.0076665892 0.054022789
0.025339095 -0.0031103687 0.054441571
0.025883337 0.0010674745 0.053777277
0.024533909 -0.015530301 0.050104797
0.024966106 -0.012440271 0.049971521
0.025570804 -0.0082501173 0.050053179
0.025780223 -0.0038897404 0.049727857
0.026233781 -0.00075348094 0.050647259
0.022030719 -0.025378395 0.047180057
0.024480002 -0.021475201 0.045743465
0.025125217 -0.017312458 0.04586333
0.025491182 -0.013032335 0.045693934
0.026143255 -0.0086748023 0.045480967
0.026841803 -0.0058587873 0.045955658
0.022121917 -0.025370359 0.042700827
0.024945099 -0.022235435 0.041740358
0.025767546 -0.017956939 0.041700661
0.026186859 -0.01370756 0.041925013
0.026930766 -0.0099117234 0.042476714
0.02340344 -0.025228396 0.03796041
0.025394935 -0.022636525 0.037028968
0.02627831 -0.018795419 0.037529707
0.026437411 -0.015304151 0.037995696
0.024796585 -0.025583398 0.03458184
0.026152078 -0.023060968 0.034706473
0.027198788 -0.019664342 0.034179926
0.025811469 -0.0022561857 0.04671514
0.025488183 0.0010297261 0.047170937
0.026294373 -0.0037066219 0.043226302
0.025113717 -3.545545e-06 0.042362809
0.026172088 -0.012826983 0.03882426
0.026612727 -0.008900064 0.03905493
0.026322007 -0.0051011136 0.038856089
0.026282338 -0.01689662 0.035359859
0.025861289 -0.013634729 0.03465277
0.025945982 -0.008985512 0.034871161
0.023178687 -0.026344664 0.031334996
0.025554189 -0.022975914 0.030946016
0.02596903 -0.01853467 0.030110776
0.026153667 -0.014682435 0.031106412
0.023239128 -0.025296122 0.026664913
0.024828793 -0.022843968 0.0270347
0.025432998 -0.020020746 0.026354849
0.025192136 0.0013368418 0.040458918
0.025403086 -0.0034757406 0.036305845
0.025774902 0.00075415801 0.036701083
0.024976684 -0.011835064 0.030969858
0.025532477 -0.0088984231 0.032339573
0.026040582 -0.0042153308 0.032655358
0.026195262 7.3760748e-07 0.031529725
0.02526824 -0.016808162 0.026956797
0.025191087 -0.013217074 0.028013527
0.02525718 -0.0091439802 0.028536618
0.025727689 -0.005477367 0.028198302
0.02432297 -0.022747587 0.024392664
0.025561599 -0.018287657 0.024431527
0.025176855 -0.013966879 0.023765624
0.022559533 -0.025239311 0.021729171
0.024069045 -0.02259537 0.020406187
0.025367379 -0.018927565 0.019984782
0.026101971 0.001713722 0.028310001
0.024266725 -0.0078531131 0.024338305
0.024986336 -0.0036971262 0.024624348
0.02589833 0.00012295041 0.025128126
0.024741733 -0.012155299 0.020162761
0.02437298 -0.0090134675 0.020892918
0.024434563 -0.0051771509 0.020456433
0.024909586 -0.00037087221 0.020607173
0.022581149 -0.023144523 0.016511321
0.024706671 -0.017800245 0.016109765
0.024802143 -0.014075164 0.0169999
0.024306174 -0.0092899613 0.015920579
0.020237263 -0.024625687 0.013929188
0.023442417 -0.022643384 0.013360858
0.024493918 -0.018863114 0.012660861
0.024541343 -0.014349002 0.012267888
0.023301575 -0.022964573 0.0098497868
0.024607504 -0.019378697 0.0087413192
0.024207029 -0.0030296864 0.018600762
0.025121385 0.0005256189 0.018605888
0.024398955 -0.007483949 0.014564157
0.025021316 -0.0045783115 0.014947355
0.026157452 -0.00035448093 0.014135182
0.024498165 -0.012966811 0.010166347
0.025026878 -0.0094926432 0.010574579
0.025822315 -0.005131444 0.0093844533
0.026475217 -0.00090207439 0.0087464452
0.022386001 -0.023052257 0.006270051
0.024402743 -0.018233342 0.0064387918
0.024754271 -0.014301144 0.0058920979
0.025339426 -0.010044955 0.0048176646
0.026155721 -0.0058301785 0.0050755143
0.023069642 -0.023025343 0.0019038916
0.024705425 -0.019204112 0.0014505982
0.024828041 -0.015324444 0.00092744827
0.026492156 -0.00077600032 0.0058913231
0.026089739 -0.0046838024 0.0028583407
0.025781646 -0.00088033732 0.0026423931
0.024481809 -0.012850498 -0.00050544739
