# .PCD v0.7 - Point Cloud Data file format
VERSION 0.7
FIELDS x y z
SIZE 4 4 4
TYPE F F F
COUNT 1 1 1
WIDTH 332
HEIGHT 1
VIEWPOINT 0 0 0 1 0 0 0
POINTS 332
DATA ascii
0.02300993 -0.011703499 0.18407455
0.023078136 -0.0075378702 0.18455696
0.02315753 -0.0037461207 0.18409747
0.023222463 0.00020554764 0.18352008
0.022990823 0.0053347326 0.18327332
0.023133874 0.0094883153 0.18380958
0.025734544 -0.011817041 0.18153265
0.025969965 -0.0078486362 0.18146852
0.026075516 -0.0038867609 0.1813105
0.025832279 0.00072794786 0.18085775
0.025939414 0.0053468538 0.1806618
0.026574867 0.0094011305 0.18022799
0.025586436 0.013122169 0.17957887
0.027169347 -0.012054658 0.17623514
0.02738326 -0.0080816401 0.17615864
0.027306881 -0.0041183918 0.17586699
0.027105894 0.00037821024 0.17563358
0.027641058 0.0049212053 0.1753698
0.028053761 0.0089423964 0.17510343
0.027164442 0.013170027 0.17448872
0.027740173 -0.0069419933 0.17179203
0.027943816 -0.0042898073 0.17178801
0.027935795 -0.00031932216 0.171547
0.028302822 0.0042822952 0.17063516
0.02871006 0.0090544522 0.1699726
0.028455684 0.011528189 0.16940561
0.02917753 0.010085312 0.16636801
0.017012255 -0.0076968693 0.18405229
0.016931279 -0.0037006622 0.18375576
0.017037239 0.00029857372 0.18359324
0.017296467 0.0049604783 0.1835013
0.02065628 -0.0090057654 0.1849333
0.020654185 -0.0037006172 0.18461555
0.020069974 0.00026897853 0.18395767
0.020056589 0.0039005205 0.18327814
0.026631219 -0.012359915 0.16944098
0.026995234 -0.0085404525 0.16926017
0.027419738 -0.0044116802 0.16864842
0.02766037 -0.00042769298 0.16859481
0.028143935 0.0041833888 0.16776985
0.028397851 0.0074975453 0.16776627
0.027391486 0.013522358 0.16848522
0.026294691 -0.012786026 0.16420618
0.026697841 -0.0086088777 0.16373801
0.027329819 -0.0045992974 0.16398329
0.027668033 -0.00060236704 0.16400599
0.027841382 0.0040505379 0.16386285
0.027950661 0.008528078 0.16345057
0.027896609 0.012688003 0.16339517
0.027671814 -0.0087388037 0.16078818
0.027615206 -0.0047419094 0.16050911
0.027558599 -0.00074500788 0.16023001
0.027501993 0.0032518907 0.15995091
0.02741708 0.0092472229 0.15953231
0.027609639 0.012576317 0.15948433
0.014441013 -0.007705309 0.18357965
0.013685857 -0.0033368126 0.18369186
0.01400951 0.00036334415 0.1841585
0.01406438 0.0047507724 0.18380532
0.027042594 -0.012009909 0.16235155
0.026728392 -0.013348196 0.15830344
0.026963558 -0.0088777374 0.15746135
0.027114119 -0.00486498 0.15734196
0.026802216 -0.00086233224 0.15686443
0.026814222 0.0037654841 0.15732434
0.026765892 0.0079964614 0.15654701
0.026501298 0.012499711 0.15584484
0.026705401 -0.013306907 0.15434855
0.026974849 -0.0086816149 0.1541931
0.02745734 -0.0052034012 0.15319544
0.026417255 -0.00097432884 0.15377307
0.026314106 0.0023726018 0.15349594
0.026211211 0.0079514068 0.15308779
0.026148064 0.012416451 0.15277606
0.0070694345 -0.0035946723 0.18404561
0.0076932907 0.00081264583 0.18468162
0.010174053 -0.0039075692 0.18369567
0.010470374 0.00042307423 0.18437836
0.010527594 0.0044507594 0.18417811
0.026474221 -0.0094067184 0.15131572
0.026637912 -0.0037973442 0.15036428
0.026100652 -0.0010863063 0.15072203
0.025686214 0.0031423671 0.15055075
0.025875449 0.0075711617 0.15034977
0.025353823 0.012336585 0.14934838
0.026392784 -0.014042451 0.14700797
0.026372502 -0.0093337558 0.14671552
0.026643226 -0.0052905218 0.14669248
0.026390178 -0.0012608191 0.14625669
0.026105609 0.0027714032 0.14579535
0.026194913 0.0074796537 0.14559001
0.025443587 0.012192464 0.14471903
0.026220765 -0.0088241631 0.14278516
0.026428292 -0.0052086879 0.14198124
0.026779635 -0.0016424272 0.14145723
0.026506612 0.0027838962 0.14098039
0.026687317 0.006618314 0.14035875
0.026640723 0.010938049 0.14025819
0.027885318 0.0064941659 0.13753211
0.027827995 0.010538924 0.13724971
0.0041920119 0.0002567179 0.1847319
0.026133249 -0.009798144 0.14033154
0.026390433 -0.0059200414 0.13942927
0.027022669 -0.00086402136 0.13916737
0.027197752 0.0018361042 0.13915032
0.025650296 0.013338604 0.13818496
0.025432043 -0.0095258756 0.13572305
0.025931086 -0.0057280306 0.1357137
0.026476929 -0.0016927617 0.13496447
0.026992116 0.0023716998 0.13514501
0.027539389 0.006397319 0.13440123
0.027145028 0.011364547 0.13410917
0.027233057 0.0024809903 0.13074654
0.028109143 0.0062383502 0.13009381
0.028064694 0.010463356 0.13023749
0.025269167 -0.012648775 0.13271067
0.025134597 -0.010255323 0.13294077
0.025204489 -0.005860257 0.13226223
0.025852356 -0.010078587 0.12919319
0.025982942 -0.0059969476 0.12906325
0.026346445 -0.0019134756 0.12912452
0.026882529 0.0017743782 0.12790805
0.027032631 0.011599961 0.12697911
0.02587218 -0.010283078 0.12439999
0.026096003 -0.0060471287 0.12361377
0.026438305 -0.0021321841 0.12342745
0.027477009 0.0019640776 0.1240508
0.02806122 0.0060451129 0.12429905
0.028052995 0.010118932 0.12405613
0.027187739 -0.00090319122 0.12010688
0.027321083 0.0018246744 0.12006015
0.027372684 0.0059128576 0.11986619
0.027729955 0.0099689038 0.11895984
-0.0056909835 0.00068320154 0.18503153
0.02552804 -0.011100345 0.12125474
0.025421057 -0.0076877959 0.12096763
0.025919795 -0.011255059 0.11769897
0.026217394 -0.006459448 0.11767083
0.026247587 -0.0025368768 0.11722547
0.026428649 0.0017107013 0.11640167
0.026339497 0.0058109686 0.11608893
0.027149217 0.0098788766 0.11556172
0.026509576 0.014038616 0.11672956
0.025500247 -0.011435936 0.11345047
0.025799479 -0.0063037905 0.11291683
0.025706138 -0.002191172 0.11260003
0.026059985 0.001567085 0.11219198
0.026134014 0.0056793485 0.11201721
0.026814325 0.0097578708 0.11137891
0.026290298 0.01369118 0.11126631
0.025890522 -0.011507701 0.11182523
0.026146173 -0.006736584 0.11078566
0.025979979 -0.0026095042 0.11073297
0.02635319 0.001465003 0.10950661
0.026294896 0.0055815629 0.10921913
0.026246412 -0.011665411 0.10820603
0.026633468 -0.0070621609 0.10770923
0.02605968 -0.0029138853 0.10729557
0.02626133 0.0013581298 0.10648334
0.026929839 0.0056671002 0.10638577
0.027453713 0.0095722843 0.10604817
0.026022026 0.01374031 0.10589242
0.026439633 -0.011202638 0.10291678
0.026645167 -0.0070816451 0.10236198
0.026356919 -0.0029527103 0.10187531
0.027348416 0.0011938253 0.10249454
0.027568715 0.0051427828 0.10221118
0.027795656 0.0094171669 0.10142028
0.026413577 0.013748682 0.1007154
0.027238471 0.0017405441 0.098404765
0.027421935 0.0051725009 0.097870529
0.027818237 0.0095749125 0.097665668
0.02748595 0.012080993 0.098026156
0.02527729 -0.013377012 0.10054868
0.025138328 -0.012895635 0.095667839
0.025720596 -0.0080382936 0.095647395
0.025657041 -0.0031927407 0.095313311
0.02590687 0.00074578932 0.09473592
0.025816441 0.0050740251 0.093780935
0.026158588 0.0088722631 0.093564093
0.025875859 0.013580897 0.094292104
0.025659442 -0.0068143937 0.091524959
0.025657091 0.0015113972 0.091045499
0.026041338 0.0052323299 0.090369165
0.026470134 0.0090766056 0.089324653
0.025212714 0.01330479 0.089977503
0.027400272 0.010337292 0.086062253
0.024700437 -0.013007957 0.093040645
0.025420904 -0.013156417 0.089670002
0.025493655 -0.0091676842 0.089254618
0.025423663 -0.0039381622 0.088961184
0.025331549 0.00052272691 0.088232696
0.025697503 0.0045147911 0.087394834
0.025481088 0.013228132 0.087637484
0.026182704 -0.01339124 0.084314167
0.026486278 -0.0092034386 0.084345996
0.02606586 -0.0043394477 0.083692491
0.025969915 0.00053342071 0.083328545
0.026942763 0.0047168131 0.083960116
0.02719857 0.008705535 0.0837093
0.026431561 0.0130612 0.083024681
0.026165843 -0.013567457 0.080259264
0.026898215 -0.0091114789 0.079853475
0.026806507 -0.004971141 0.079669833
0.026670406 -0.00031873147 0.079451025
0.027296918 0.0048345905 0.079418421
0.027772002 0.0086965533 0.078409374
0.027251193 0.012908091 0.078714311
0.026462879 -0.013316803 0.077972949
0.026777131 -0.0098560685 0.077043653
0.026747601 -0.0053098402 0.076927543
0.026377048 -0.00039550013 0.077159226
0.026529858 0.0044771857 0.076511383
0.02671 0.012823693 0.075182199
0.025996277 -0.0096767209 0.072751462
0.025967564 -0.0052552288 0.07291168
0.025916679 -0.0010657905 0.072954953
0.025439296 0.0034690427 0.072330832
0.026496649 0.0085381428 0.072171748
0.025865488 0.012741844 0.071356535
0.026307821 -0.0098357443 0.06894654
0.026384966 -0.0056218579 0.068778098
0.026584523 -0.0014239422 0.068283081
0.026252184 0.0027623572 0.067153037
0.026709642 0.0076762121 0.067294896
0.025891747 0.012286744 0.067821205
0.027476959 0.0082494477 0.06385988
0.026193023 -0.0099655762 0.06576246
0.026679704 -0.0057353023 0.065972984
0.026908381 -0.001515431 0.065945327
0.025706189 0.012563647 0.065063655
0.025575452 -0.010069664 0.063131392
0.025921533 -0.0054997075 0.062676013
0.025872078 -0.0016453585 0.06189388
0.026614871 0.002573766 0.061903298
0.026982717 0.0067671859 0.061074793
0.026448471 0.010731711 0.061110616
0.026111228 0.0094671706 0.056307256
0.024188671 -0.010196164 0.059775591
0.024719443 -0.0059810267 0.058993578
0.02505311 -0.0017724474 0.058028936
0.025443027 0.0024715515 0.058153808
0.0254371 0.0052960068 0.057988405
0.024940202 0.011908527 0.05784148
0.024943726 -0.010344052 0.056330144
0.02511033 -0.0063181277 0.055663943
0.025200145 -0.0018839954 0.055051148
0.025207911 0.0023623439 0.054818511
0.025676098 0.0067603141 0.054228544
0.025030885 0.010832661 0.053478003
0.025365114 -0.010766795 0.051081359
0.025566969 -0.0061375848 0.050674617
0.025616579 -0.0020679373 0.050230801
0.025827732 0.0021892234 0.050190687
0.025855117 0.0062206569 0.049391568
0.025230544 0.010709069 0.049563169
0.026448319 -0.00078735489 0.046756625
0.026983228 0.0020209562 0.046060205
0.026863065 0.00600017 0.04593122
0.026217341 0.0091479588 0.045976579
0.025435464 -0.009961904 0.048406661
0.025518129 -0.0078282477 0.048365295
0.02480093 0.011130399 0.04731375
0.025738427 -0.010835466 0.044534445
0.02551537 -0.0065712356 0.044080317
0.026228223 -0.0024752882 0.044272363
0.02677984 0.0019105833 0.042713344
0.026805639 0.0065481197 0.043004453
0.025538258 0.010677649 0.042869747
0.02543802 -0.011018696 0.040029764
0.025257571 -0.0067415014 0.039615154
0.025555627 -0.0028303601 0.039153874
0.025791202 0.0017910111 0.038592637
0.026236909 0.0060580894 0.038330257
0.025506582 0.0089234421 0.037917078
0.025154011 -0.0111147 0.037638009
0.02491384 -0.0068322606 0.037164688
0.025321636 -0.0018210894 0.037279546
0.025590625 0.0045388928 0.035058975
0.024800012 0.010619515 0.036499918
0.025870852 -0.011266716 0.034086943
0.026048694 -0.0069692563 0.03402096
0.025903497 -0.0026804851 0.033638597
0.025852663 0.0016098694 0.033348799
0.026210342 0.0060869101 0.032840014
0.025380902 0.010364098 0.032131493
0.026609914 -0.011462091 0.029483855
0.026571343 -0.0071630729 0.029205739
0.026488118 -0.0028651729 0.028883576
0.026204109 0.0014311273 0.02836293
0.026362743 0.005731706 0.028279603
0.026176367 0.0097811939 0.027511239
0.025859918 0.012929318 0.028452337
0.025514092 -0.011630022 0.025188863
0.025623884 -0.0073122694 0.025056958
0.025050249 -0.003008802 0.024247825
0.024290852 0.001298765 0.023254216
0.025143437 0.0056231054 0.023858845
0.025414519 0.01043761 0.024576008
0.025082333 -0.011777257 0.021531522
0.025473373 -0.007441638 0.021680236
0.025033901 -0.0031277803 0.021001995
0.024546709 0.0012089621 0.020814896
0.025122438 0.0057102833 0.020134985
0.025769591 0.0096357958 0.020214796
0.025621943 0.010432632 0.016507685
0.023755381 0.0011440878 0.018406093
0.02450078 -0.012019652 0.015541255
0.024944441 -0.0076654716 0.015746534
0.024658749 -0.0033333029 0.01521796
0.024695788 0.0010061568 0.015014529
0.024961965 0.005156171 0.014780164
0.025021026 0.0096423384 0.013557613
0.025000436 -0.012271463 0.0095153451
0.025214247 -0.0079122903 0.0094904304
0.025160346 -0.0035526566 0.009467721
0.025572233 0.00079242146 0.0093731284
0.025830338 0.0051403809 0.0093942285
0.025606768 0.0094850613 0.0089256763
0.025691221 0.00064398674 0.005122304
0.026298676 0.005002222 0.0055037737
0.02597528 0.0086282296 0.0049717426
0.024758885 -0.0036503992 0.0066010356
0.025123715 -0.012492519 0.0041675568
0.024702072 -0.0081389481 0.0034933686
0.024371777 -0.0037791547 0.0029138327
0.024656756 0.00055568136 0.0018659234
0.025145991 0.004925862 0.0021274686
0.025061386 0.0093110083 0.0025314689
0.02471178 0.012516619 0.0021411777
0.024598923 -0.0086562224 -0.00044471025
0.024826527 0.0048531774 -0.00040262938
