# .PCD v0.7 - Point Cloud Data file format
VERSION 0.7
FIELDS x y z
SIZE 4 4 4
TYPE F F F
COUNT 1 1 1
WIDTH 384
HEIGHT 1
VIEWPOINT 0 0 0 1 0 0 0
POINTS 384
DATA ascii
0.024980091 -0.028653271 0.18059978
0.026344912 -0.025594743 0.18207207
0.027837452 -0.021434296 0.1819385
0.029128792 -0.017218035 0.18122301
0.030430792 -0.013174005 0.17980817
0.026616365 -0.029468266 0.17813885
0.029076334 -0.027115937 0.17885688
0.030475529 -0.022732895 0.17837816
0.030894456 -0.018435407 0.17736539
0.027599972 -0.03004159 0.17523545
0.029687438 -0.027597656 0.17481068
0.031063544 -0.023199487 0.17431197
0.031675771 -0.019582774 0.17390668
0.020005303 -0.023100294 0.18346635
0.021499269 -0.018667419 0.18393877
0.023580087 -0.014510653 0.18390852
0.025377406 -0.0099861957 0.18331409
0.027405951 -0.0038462426 0.18329364
0.029037245 -4.5484863e-05 0.18371943
0.022044573 -0.024405058 0.18271011
0.024249511 -0.019866714 0.18309391
0.026508858 -0.015404165 0.18262485
0.029307529 -0.010904929 0.18112439
0.030235607 -0.0057724533 0.18058667
0.031832106 -0.0014350126 0.18023506
0.03081727 -0.01628606 0.17669523
0.031254951 -0.012324583 0.17579073
0.031860974 -0.0067170467 0.17541319
0.032768186 -0.0022299336 0.17487347
0.032909207 0.0018424047 0.17565224
0.026056837 -0.03058218 0.17231423
0.029193603 -0.027565338 0.17178249
0.030879922 -0.023274899 0.17149451
0.031524595 -0.01796671 0.17151999
0.03193396 -0.013343572 0.17118791
0.032530848 -0.0085131899 0.17015812
0.02744988 -0.030406903 0.16794693
0.029300645 -0.027809534 0.16825837
0.031007418 -0.023518156 0.16798198
0.032342892 -0.019082109 0.16744512
0.032962263 -0.014355529 0.16640341
0.033421181 -0.01117281 0.16664547
0.027880974 -0.0307776 0.16463545
0.029963939 -0.028365394 0.16330147
0.031480834 -0.02418571 0.16317666
0.032673553 -0.019462891 0.16276342
0.033434425 -0.015856609 0.1628353
0.03045235 -0.028753936 0.16001993
0.031732906 -0.025936218 0.15993407
0.017171718 -0.010103509 0.18366265
0.018426482 -0.0072567877 0.1835466
0.020607954 -0.0022723186 0.18333492
0.023887102 0.0022704462 0.18430603
0.018461173 -0.017356411 0.18460697
0.02017764 -0.013040697 0.18432906
0.021730971 -0.0082682567 0.18337822
0.023524791 -0.0047461079 0.18309575
0.033263672 -0.00073467009 0.17173237
0.032829765 0.0031463243 0.17296636
0.03252871 -0.0062127132 0.16802722
0.032670371 -0.0023126556 0.16818386
0.032506965 0.0026517315 0.16765201
0.032760158 -0.00795101 0.16419706
0.03237576 -0.0027094455 0.1637089
0.032591868 0.00093298126 0.16349509
0.030978065 -0.022242673 0.16021889
0.03232966 -0.019448152 0.16018182
0.032203585 -0.013792574 0.15963864
0.032227285 -0.0098447669 0.15970349
0.026545066 -0.031191245 0.15780246
0.029760528 -0.028651197 0.15679544
0.031104807 -0.023947801 0.15687186
0.032088961 -0.01954142 0.15635881
0.031728562 -0.015627969 0.15542269
0.029705271 -0.027874365 0.15224469
0.030982979 -0.024392996 0.15158248
0.031930249 -0.02010807 0.15224808
0.012616414 -0.01496535 0.18345189
0.013818149 -0.010381334 0.18342614
0.01503302 -0.0057712132 0.1840077
0.017122161 -0.0010939138 0.18370098
0.031793505 -0.0018135505 0.16060302
0.032750234 0.0026843958 0.16098398
0.03163353 -0.0070764353 0.1575318
0.031305056 -0.0027687987 0.1564157
0.033053897 0.0026158327 0.15723401
0.031349897 -0.013259623 0.15363902
0.031102166 -0.0093106087 0.15290084
0.03099471 -0.0056143319 0.15335524
0.026301039 -0.029284567 0.15023777
0.031938374 -0.019487239 0.14954039
0.031665221 -0.014837021 0.14930752
0.031356726 -0.010225709 0.14935371
0.028681735 -0.027988989 0.14565945
0.030769728 -0.024610652 0.14590007
0.031867795 -0.020233298 0.14576042
0.031713318 -0.015677702 0.14560521
0.0083778352 -0.0028938386 0.18416631
0.0089024873 -0.0086293109 0.18348768
0.011368277 -0.0041765966 0.18430901
0.013069937 0.00020539202 0.18400458
0.031300753 -0.00058865175 0.15389219
0.0316168 0.0023623873 0.15393975
0.030899484 -0.0074273199 0.15010166
0.030814093 -0.0028572641 0.1503686
0.031148128 0.0027264711 0.14904708
0.030973023 -0.012772365 0.14614141
0.031009912 -0.0091101406 0.14638531
0.031478655 -0.0040938263 0.14586142
0.031439804 0.00035090744 0.14466748
0.030525617 -0.018756114 0.14205483
0.030944325 -0.014408223 0.14231557
0.031493157 -0.0097774919 0.14176255
0.03189639 -0.0050727502 0.14109874
0.02645215 -0.029144816 0.1389724
0.02876422 -0.024148785 0.13885269
0.029753579 -0.019487495 0.13801488
0.030661684 -0.014783122 0.13711217
0.031840287 -0.010461176 0.1376389
0.032527916 -0.0069744019 0.13774085
0.027348544 -0.028364293 0.13421679
0.029462693 -0.024716757 0.1337637
0.030340757 -0.020216364 0.13344532
0.031265702 -0.016940106 0.13340545
0.029943677 -0.025102042 0.13037184
0.0045092851 -0.00088336167 0.18410012
0.032384377 -0.0042838771 0.13871652
0.031447139 0.00097917113 0.13879156
0.03209969 -0.009918239 0.13506222
0.032359786 -0.0050821374 0.13490373
0.03188267 -0.00097277854 0.13394573
0.025648452 -0.030602124 0.13257816
0.030919373 -0.019479398 0.13112301
0.0312858 -0.014831113 0.13152537
0.031780437 -0.010407384 0.13071612
0.032221083 -0.0054299338 0.13038611
0.026994934 -0.029148526 0.12786198
0.03027292 -0.02537892 0.12779602
0.030766742 -0.020456564 0.12750259
0.031014506 -0.016005049 0.12688658
0.03137866 -0.011271604 0.12689865
0.027693983 -0.029327746 0.12375021
0.030490585 -0.025716625 0.12323684
0.030845081 -0.021310531 0.12269518
0.030747509 -0.025173608 0.11936724
-0.0019064989 0.0015288893 0.18388259
0.0017103225 -0.0017554746 0.18394732
0.030699629 0.0024022218 0.13560385
0.031515356 0.0014625322 0.13209695
0.032001022 -0.005461697 0.12737748
0.031981759 -0.00022813492 0.12763649
0.030467529 -0.014180576 0.12403184
0.031294502 -0.010252259 0.1240437
0.031711094 -0.005506075 0.12335002
0.031754848 -0.0016366448 0.12263268
0.025164168 -0.030238353 0.1206072
0.030588211 -0.019612571 0.12005103
0.030358214 -0.015486333 0.11986595
0.030540027 -0.010719911 0.11961889
0.03190754 -0.0057504713 0.11968321
0.02640794 -0.028976332 0.1164757
0.029872371 -0.026062306 0.11659044
0.030798577 -0.021052258 0.11612564
0.030172436 -0.016769834 0.1156286
0.029562669 -0.025582181 0.11211473
0.031131191 -0.021691393 0.11126411
-0.0059125666 0.0032656211 0.18406206
0.031687312 0.00068506692 0.12097895
0.029981986 -0.0098415641 0.11635214
0.030622516 -0.0053472207 0.115807
0.03141382 -0.00041210093 0.11668199
0.030192677 -0.015160619 0.11317003
0.030103616 -0.010516557 0.11225623
0.030335797 -0.0056598531 0.11139393
0.030869577 -0.00030148588 0.11336726
0.031834308 0.002764618 0.11300474
0.02770189 -0.027030591 0.10934669
0.031102231 -0.020709965 0.10840803
0.030437712 -0.01607582 0.10840827
0.030163251 -0.011896021 0.10817057
0.028371163 -0.026339691 0.10490638
0.031259399 -0.021821717 0.10495096
0.031205166 -0.016862132 0.10352302
0.029070023 -0.025464905 0.10074526
0.031110078 -0.02241678 0.10061234
-0.010000467 0.00067791995 0.18447495
-0.008395982 0.0043490087 0.1843144
0.030834161 -0.0057235989 0.10921913
0.031270035 -0.00058462657 0.11078018
0.030818561 -0.010523763 0.10618842
0.031219497 -0.0057404572 0.10694987
0.031623885 -0.00092624128 0.10620725
0.026787497 -0.027921228 0.10200197
0.031339683 -0.01508543 0.10080409
0.031821176 -0.011736832 0.10199404
0.031968951 -0.0065205395 0.10234916
0.03240633 -0.0025161756 0.101717
0.027597453 -0.027091924 0.097913742
0.030801574 -0.02166119 0.097478688
0.031026658 -0.017075811 0.097538114
0.03184101 -0.011922276 0.098109961
0.031813443 -0.0070057749 0.097649097
0.02850363 -0.026861738 0.093082726
0.031050263 -0.022339385 0.093103886
0.031049334 -0.017502658 0.09347111
0.028820636 -0.026858531 0.08910352
0.030595548 -0.02408931 0.089390039
0.031114448 0.0003418643 0.099022448
0.029808028 -0.011197619 0.094505906
0.030545935 -0.0058185402 0.093709528
0.031069836 -0.0011657635 0.094011962
0.031193599 0.0029248763 0.094069898
0.02598149 -0.029020419 0.091883779
0.029948547 -0.015548295 0.090730667
0.029621391 -0.011303674 0.090414822
0.030479576 -0.0066255913 0.089681387
0.031529184 -0.0027110055 0.090170562
0.026051862 -0.028155392 0.086961985
0.029798765 -0.0224871 0.086691916
0.030015402 -0.01695176 0.086569667
0.030311884 -0.01214494 0.086354434
0.027397905 -0.027863227 0.082714617
0.02983631 -0.023243919 0.082548022
0.030207042 -0.018410018 0.082500458
0.028688584 -0.027342578 0.079109967
0.030091867 -0.024438538 0.078591347
0.030980622 -0.0049567954 0.087203622
0.031603433 -0.0010678144 0.087661862
0.030424319 -0.011527256 0.083502948
0.031152187 -0.0069465176 0.083964527
0.03216663 -0.0020986572 0.083020866
0.032129299 0.0028983103 0.082517445
0.025749821 -0.029540623 0.080838501
0.03068546 -0.016955033 0.080316424
0.030975411 -0.012387802 0.079629242
0.031507492 -0.0073043979 0.079276979
0.032177199 -0.0034652771 0.078770518
0.027177643 -0.02884745 0.076281726
0.030101338 -0.024582792 0.075910628
0.031108355 -0.018827369 0.075850904
0.030808968 -0.012964236 0.075143695
0.027712112 -0.028530594 0.071373165
0.030848863 -0.025116451 0.071742713
0.031407248 -0.020316087 0.070723891
0.031435639 -0.016580625 0.070210934
0.030481357 -0.0087749064 0.076017201
0.031773642 -0.0009724563 0.0769611
0.030744743 -0.013216168 0.072297812
0.029508993 -0.0071582948 0.072483242
0.030214882 -0.0022814125 0.07155633
0.031406745 0.0020861058 0.071301639
0.024984144 -0.029057324 0.067902446
0.031187609 -0.01837779 0.067590415
0.030687226 -0.014209649 0.068237841
0.030086374 -0.0091764908 0.067956507
0.025534311 -0.028230481 0.064511836
0.02926958 -0.024832986 0.064365208
0.030023301 -0.020095441 0.063832998
0.030681374 -0.014558188 0.063575745
0.030948613 -0.010700264 0.064048111
0.026520807 -0.027398627 0.061219513
0.029145425 -0.025049862 0.059196174
0.03042995 -0.020215202 0.059798181
0.030511159 -0.016650021 0.060320854
0.029891169 -0.024614982 0.056481361
0.030650435 -0.007517389 0.065468848
0.030553957 -0.0038494361 0.066180646
0.030866992 0.001141876 0.064926624
0.030439403 -0.0090395836 0.061312139
0.03005792 -0.0042778607 0.061333001
0.02493793 -0.028903654 0.058270276
0.030653438 -0.019539677 0.05730778
0.03027872 -0.014891057 0.05745858
0.030237447 -0.010360118 0.057902813
0.026800852 -0.027942713 0.053317428
0.029095227 -0.025576642 0.053567946
0.029650161 -0.020721378 0.053132236
0.029989133 -0.016736221 0.053747058
0.027083388 -0.028268967 0.049470007
0.028670622 -0.025743365 0.048902929
0.029149475 -0.02200786 0.048752189
0.029075088 -0.0071395412 0.058002114
0.029471006 -0.0036967765 0.058116078
0.030002965 0.0015230887 0.058744788
0.029119248 -0.012757372 0.05377835
0.029268147 -0.008944354 0.054022789
0.029562276 -0.0036287634 0.054441571
0.030197226 0.0012453878 0.053777277
0.028622892 -0.018118685 0.050104797
0.029127123 -0.014513648 0.049971521
0.029832603 -0.0096251359 0.050053179
0.030076928 -0.0045380299 0.049727857
0.03060608 -0.00087906234 0.050647259
0.025702503 -0.029608129 0.047180057
0.028560001 -0.025054401 0.045743465
0.029312752 -0.020197866 0.04586333
0.029739711 -0.015204391 0.045693934
0.030500464 -0.010120601 0.045480967
0.031315435 -0.0068352516 0.045955658
0.025808904 -0.029598752 0.042700827
0.02910261 -0.025941338 0.041740358
0.030062135 -0.020949762 0.041700661
0.030551333 -0.015992153 0.041925013
0.031419225 -0.011563676 0.042476714
0.02730401 -0.029433127 0.03796041
0.029627424 -0.02640928 0.037028968
0.030658031 -0.02192799 0.037529707
0.030843647 -0.017854843 0.037995696
0.028929347 -0.029847294 0.03458184
0.030510755 -0.026904462 0.034706473
0.031731918 -0.022941731 0.034179926
0.03011338 -0.0026322175 0.04671514
0.029736213 0.0012013474 0.047170937
0.030676771 -0.0043243919 0.043226302
0.029299336 -4.1369349e-06 0.042362809
0.030534102 -0.014964814 0.03882426
0.031048182 -0.010383409 0.03905493
0.030709008 -0.0059512998 0.038856089
0.030662725 -0.019712724 0.035359859
0.030171501 -0.015907183 0.03465277
0.030270314 -0.010483097 0.034871161
0.0270418 -0.030735441 0.031334996
0.029813219 -0.026805233 0.030946016
0.030297201 -0.021623781 0.030110776
0.030512612 -0.017129507 0.031106412
0.027112316 -0.029512141 0.026664913
0.028966922 -0.026651297 0.0270347
0.029671831 -0.023357537 0.026354849
0.029390823 0.0015596487 0.040458918
0.029636934 -0.0040550311 0.036305845
0.03007072 0.0008798521 0.036701083
0.029139463 -0.013807573 0.030969858
0.029787887 -0.010381493 0.032339573
0.030380681 -0.0049178866 0.032655358
0.030561138 8.6054206e-07 0.031529725
0.029479614 -0.019609522 0.026956797
0.029389599 -0.015419919 0.028013527
0.029466707 -0.010667976 0.028536618
0.03001564 -0.006390261 0.028198302
0.028376795 -0.026538851 0.024392664
0.029821865 -0.0213356 0.024431527
0.029372996 -0.016294692 0.023765624
0.026319452 -0.029445864 0.021729171
0.028080549 -0.026361264 0.020406187
0.029595274 -0.022082159 0.019984782
0.0304523 0.0019993428 0.028310001
0.028311178 -0.0091619641 0.024338305
0.029150726 -0.0043133148 0.024624348
0.030214716 0.0001434423 0.025128126
0.028865356 -0.014181182 0.020162761
0.028435143 -0.010515712 0.020892918
0.028506991 -0.0060400087 0.020456433
0.029061183 -0.00043268315 0.020607173
0.026344672 -0.027001943 0.016511321
0.028824449 -0.020766955 0.016109765
0.028935833 -0.016421024 0.0169999
0.028357202 -0.010838289 0.015920579
0.023610141 -0.028729968 0.013929188
0.027349483 -0.02641728 0.013360858
0.028576236 -0.022006966 0.012660861
0.028631564 -0.016740503 0.012267888
0.027185172 -0.026792001 0.0098497868
0.028708756 -0.022608481 0.0087413192
0.028241534 -0.0035346341 0.018600762
0.029308282 0.00061322097 0.018605888
0.028465448 -0.0087312739 0.014564157
0.029191535 -0.0053413636 0.014947355
0.030517027 -0.00041356124 0.014135182
0.028581191 -0.015127947 0.010166347
0.029198024 -0.011074751 0.010574579
0.030126031 -0.0059866845 0.0093844533
0.030887753 -0.0010524197 0.0087464452
0.026117001 -0.026894297 0.006270051
0.028469868 -0.021272233 0.0064387918
0.028879981 -0.016684668 0.0058920979
0.029562665 -0.011719113 0.0048176646
0.030515008 -0.0068018753 0.0050755143
0.026914582 -0.026862901 0.0019038916
0.028822994 -0.022404797 0.0014505982
0.028966049 -0.017878518 0.00092744827
0.030907517 -0.00090533309 0.0058913231
0.030438032 -0.0054644356 0.0028583407
0.030078586 -0.0010270597 0.0026423931
0.02856211 -0.014992247 -0.00050544739
