# .PCD v0.7 - Point Cloud Data file format
VERSION 0.7
FIELDS x y z
SIZE 4 4 4
TYPE F F F
COUNT 1 1 1
WIDTH 419
HEIGHT 1
VIEWPOINT 0 0 0 1 0 0 0
POINTS 419
DATA ascii
0.027950399 -0.028892633 0.17886722
0.02710175 -0.031874672 0.17575571
0.02909537 -0.030165121 0.1757535
0.029972084 -0.030634157 0.17273167
0.018253351 -0.02982912 0.18073159
0.021414801 -0.027824096 0.1822696
0.025406098 -0.023892818 0.18252775
0.028147031 -0.01935466 0.18185115
0.030491207 -0.017414417 0.18097156
0.0191561 -0.031090023 0.17784938
0.023602527 -0.030278426 0.17893875
0.027777405 -0.026257718 0.1791155
0.029757306 -0.021313041 0.17712516
0.031001188 -0.018124167 0.17790374
0.02073339 -0.032134183 0.17320096
0.02436262 -0.032420646 0.17487139
0.030088671 -0.02711362 0.17466727
0.03013631 -0.023275465 0.17315972
0.025635902 -0.032659933 0.17030108
0.030328784 -0.03023573 0.16995826
0.03035517 -0.024640903 0.16900533
0.027247988 -0.032597922 0.16708255
0.02993305 -0.029950708 0.16553766
0.026039155 -0.0079945084 0.18553627
0.0099388277 -0.028217472 0.18321437
0.0128766 -0.025623787 0.18407401
0.016073259 -0.022501139 0.18455866
0.020609975 -0.019162066 0.18412051
0.024104943 -0.014727222 0.18410161
0.027446497 -0.011794326 0.18427935
0.011348166 -0.030670304 0.18096781
0.015286955 -0.028704155 0.18179291
0.018290736 -0.024586517 0.1830537
0.021471858 -0.022316948 0.1832605
0.030308172 -0.014267851 0.18058807
0.030900398 -0.010094238 0.17942876
0.012780726 -0.032650542 0.17650867
0.016704801 -0.031679947 0.17630002
0.030997977 -0.015784688 0.17471868
0.030980002 -0.011508907 0.17559415
0.014337013 -0.033267599 0.17143193
0.017765665 -0.032498918 0.17213041
0.030629976 -0.020895557 0.17137364
0.031243872 -0.016848799 0.17032301
0.019227825 -0.032918867 0.16769552
0.022746859 -0.032417715 0.16688833
0.030811738 -0.022380788 0.16689718
0.031372011 -0.018406114 0.16664231
0.020554829 -0.033330929 0.16395414
0.023966737 -0.031979073 0.16329005
0.029172726 -0.028685033 0.16264352
0.030769398 -0.023945892 0.16302806
0.02463619 -0.031191863 0.15911189
0.02800899 -0.02957844 0.15761015
0.029037669 -0.026102714 0.15906525
0.029621676 -0.029276941 0.1535365
0.0076641305 -0.02036445 0.18403482
0.011201521 -0.017296912 0.18400049
0.015116213 -0.014603384 0.18429297
0.018887175 -0.010697046 0.18395641
0.022891747 -0.0074021425 0.18509248
0.010633691 -0.023309104 0.18479401
0.015165544 -0.019082226 0.18461078
0.017647045 -0.017182013 0.18470645
0.01991451 -0.013992967 0.18410659
0.010897275 -0.033199959 0.17325294
0.011194997 -0.033248432 0.16927221
0.031529255 -0.014786253 0.16736248
0.030964172 -0.0099041928 0.16757667
0.013720516 -0.033320677 0.16531494
0.017125282 -0.033461303 0.16499987
0.030895699 -0.015840352 0.16331908
0.031261321 -0.011707728 0.16326433
0.013668433 -0.033222884 0.1609295
0.017513048 -0.032708209 0.16047895
0.029966444 -0.021086708 0.1593942
0.03022478 -0.017004726 0.15942413
0.018390339 -0.032410014 0.15638128
0.022810211 -0.031704124 0.15672126
0.029068803 -0.022698482 0.1553252
0.030025018 -0.018368328 0.15556949
0.019510036 -0.032336488 0.1524905
0.023525741 -0.031807844 0.15175861
0.027967773 -0.030224126 0.15119618
0.029717179 -0.024850009 0.15112829
0.023080871 -0.031814136 0.14820206
0.027713479 -0.029924696 0.14742798
0.029412718 -0.026103446 0.14713943
0.0056259064 -0.018303979 0.18407834
0.0091736484 -0.015226595 0.18404242
0.011770301 -0.011184474 0.1839079
0.01555004 -0.007712407 0.18383068
0.031484917 -0.00956982 0.16106111
0.010927439 -0.033026412 0.15841112
0.03017997 -0.015071079 0.15675792
0.031498373 -0.011083177 0.15648067
0.013511243 -0.033347283 0.15456665
0.016147358 -0.0325583 0.15361094
0.030561171 -0.016541302 0.15277776
0.031191153 -0.011808662 0.15274826
0.013823239 -0.033401713 0.15052277
0.017284073 -0.032501806 0.14971831
0.03069252 -0.021691965 0.14916924
0.031122774 -0.018285722 0.14880812
0.018634684 -0.031947769 0.14533842
0.022229116 -0.031466894 0.145226
0.027090747 -0.029495694 0.14411029
0.030076886 -0.024684766 0.14482349
0.031301811 -0.020938449 0.14389202
0.022863872 -0.030574452 0.14118922
0.026928069 -0.029629378 0.13939634
0.030052159 -0.025896434 0.13923141
0.031408899 -0.022179976 0.14066342
0.027462944 -0.029293012 0.1356796
0.028861189 -0.027381251 0.13530764
0.0028665322 -0.0087974388 0.18404561
0.0070170593 -0.005676223 0.18468162
0.0055844439 -0.01159343 0.18366519
0.0089236926 -0.0082556158 0.18388128
0.012194108 -0.0048526064 0.18403941
0.030570954 -0.010176537 0.14945948
0.010660391 -0.032726921 0.14689314
0.015043758 -0.032665882 0.14692813
0.031125896 -0.015513723 0.1461738
0.030338738 -0.011535249 0.14509362
0.012521199 -0.032581743 0.14387026
0.015950723 -0.032263167 0.14308271
0.030833194 -0.016578892 0.14187989
0.030915909 -0.013275735 0.14114526
0.016940804 -0.031870723 0.13791177
0.020761184 -0.030852519 0.13848576
0.031137645 -0.019808032 0.13740066
0.03086663 -0.015703868 0.13764963
0.017977536 -0.032089125 0.13374352
0.021777259 -0.031143418 0.13427734
0.026546283 -0.029629903 0.13321841
0.029965153 -0.026124546 0.13301045
0.031182928 -0.021132184 0.13329166
0.022917341 -0.031802502 0.12919605
0.026599636 -0.030209849 0.12853307
0.030081954 -0.026833571 0.12796289
0.031320497 -0.022957731 0.12884584
0.023643769 -0.032420978 0.12540093
0.026688185 -0.030337512 0.12442878
0.029885782 -0.026865201 0.12405482
0.031682581 -0.024110828 0.12532851
0.0043016933 -0.0038617302 0.18526125
0.030244412 -0.0099984091 0.13882494
0.01076014 -0.031978704 0.13563043
0.013480519 -0.031855077 0.13632706
0.030943228 -0.013376964 0.13431975
0.015651874 -0.032488003 0.13192797
0.01968467 -0.031730272 0.13147709
0.031709187 -0.019281419 0.13040259
0.031325873 -0.014954653 0.13010558
0.01799432 -0.032554585 0.12729862
0.019969394 -0.032253418 0.12805992
0.031675771 -0.020365218 0.12675554
0.031661682 -0.017209271 0.12543455
0.017737348 -0.032570057 0.12333679
0.021638514 -0.032504424 0.12283149
0.027047426 -0.03041213 0.12194735
0.0295988 -0.027275337 0.1217379
0.031347208 -0.022090781 0.12253621
0.022918187 -0.03230295 0.11830848
0.02645012 -0.030811347 0.11824226
0.029858127 -0.026913591 0.11804485
0.030818291 -0.023636363 0.11791515
0.02681542 -0.030535651 0.11446077
0.029726842 -0.027273314 0.1145485
0.012685177 -0.031640075 0.12818432
0.031390503 -0.01219726 0.1274336
0.013643811 -0.031141851 0.1249879
0.031352788 -0.013529644 0.12331054
0.031294156 -0.0099845519 0.12331322
0.015247705 -0.031078506 0.11941499
0.019515172 -0.032331016 0.12018377
0.031021331 -0.019929066 0.11953235
0.031470422 -0.015702184 0.11901212
0.020147009 -0.03267201 0.11630964
0.03123316 -0.021251468 0.11555737
0.031448115 -0.017609639 0.11393708
0.022144329 -0.032184139 0.11164892
0.025926284 -0.030830093 0.11156684
0.029554725 -0.027275749 0.1115495
0.031270105 -0.022496883 0.11094552
0.022886528 -0.032106508 0.10708159
0.026260855 -0.031002382 0.10713828
0.0298589 -0.027857753 0.10714138
0.031328253 -0.024033068 0.10702544
0.026796266 -0.030654438 0.10328555
0.02903324 -0.028391924 0.10311538
-0.0045605656 0.0052175876 0.18470094
0.0099409539 -0.030430583 0.12239224
0.010804047 -0.030484017 0.11796468
0.031283133 -0.01267687 0.11602956
0.03189278 -0.0098395115 0.11574781
0.014527995 -0.031161211 0.11327058
0.031275876 -0.014049099 0.11189705
0.031738602 -0.0098734861 0.11178589
0.015475876 -0.031284872 0.1088962
0.017652698 -0.031209238 0.10892695
0.03158791 -0.020414472 0.10774285
0.031515177 -0.016856592 0.10768735
0.019868799 -0.03186553 0.10448319
0.030821213 -0.021398732 0.10333467
0.031253096 -0.0179842 0.10327262
0.021693442 -0.031407457 0.099204004
0.025305588 -0.030796081 0.10009176
0.028717179 -0.026800252 0.09952265
0.030137632 -0.023187149 0.10006207
0.025410794 -0.030265447 0.095956147
0.028166503 -0.027743228 0.095203757
-0.0081737777 0.0047873054 0.18463039
-0.0048259087 0.0082314378 0.18434292
-0.0037099277 0.0093794502 0.18424714
0.009655619 -0.030844552 0.11272436
0.01142874 -0.030960958 0.10734791
0.031139495 -0.013027282 0.10636377
0.031033184 -0.0094443103 0.10531223
0.014147497 -0.030882448 0.10359424
0.01747879 -0.031563956 0.10116267
0.031101897 -0.014936454 0.10106832
0.014904991 -0.031341985 0.099767387
0.017635524 -0.031195309 0.097727656
0.030232299 -0.021138892 0.096969366
0.030873489 -0.017040312 0.096022129
0.020008456 -0.030837081 0.093403697
0.02469673 -0.030743234 0.09318912
0.029039569 -0.026687585 0.093251944
0.030346351 -0.022293715 0.092384458
0.031085612 -0.018445531 0.09155041
0.025275484 -0.030856531 0.089011729
0.029155003 -0.028208544 0.089206278
0.030842464 -0.024244141 0.087772071
0.025945444 -0.030593626 0.084279358
0.029432977 -0.028829815 0.083706439
0.031160628 -0.025965882 0.083927333
0.029451335 -0.029081954 0.079843283
0.010838858 -0.030729566 0.095818639
0.013632926 -0.03041137 0.094629586
0.030261382 -0.012692659 0.094849706
0.030412903 -0.0096085649 0.09358269
0.015144227 -0.030253744 0.091294229
0.030827653 -0.014711678 0.090285778
0.030985329 -0.011376805 0.089464068
0.018006027 -0.030106202 0.086920917
0.031003375 -0.021009546 0.085980356
0.031223428 -0.016835023 0.085938573
0.01935567 -0.030134678 0.082302511
0.022944905 -0.030128431 0.081926942
0.030958274 -0.023084858 0.081536114
0.03148894 -0.018495031 0.081145585
0.024974786 -0.030421935 0.077293038
0.029555492 -0.029359564 0.077033997
0.030186139 -0.023560278 0.077478647
0.026628692 -0.031260423 0.072572172
0.029162159 -0.029212995 0.072687447
0.030536709 -0.025918825 0.073481023
0.0093091056 -0.030419946 0.088749707
0.013092606 -0.030305665 0.088285744
0.011106953 -0.030872658 0.084583223
0.013977161 -0.030543482 0.084435821
0.031653091 -0.014804788 0.08271873
0.032319352 -0.011040481 0.083151937
0.015747119 -0.030592244 0.0799945
0.01917677 -0.030157547 0.079191089
0.03140834 -0.015363617 0.078367233
0.032192644 -0.012408585 0.078907192
0.017133174 -0.030652499 0.07537657
0.020222686 -0.030292418 0.075753152
0.030052036 -0.021804772 0.074852407
0.030503072 -0.018167686 0.074466765
0.02220507 -0.030655928 0.071578622
0.030329879 -0.022860371 0.070244193
0.030472195 -0.01895274 0.070329249
0.025449974 -0.030309377 0.068322957
0.028459316 -0.028825922 0.066987038
0.029909726 -0.024768222 0.065729797
0.01308669 -0.031044347 0.077584028
0.031654838 -0.009799201 0.075758159
0.0098013263 -0.03093824 0.073273718
0.01390723 -0.03033811 0.072904289
0.029976327 -0.014787082 0.071692705
0.031036152 -0.010338904 0.071671128
0.014265158 -0.030500613 0.069022417
0.019734571 -0.030277299 0.068348825
0.030099845 -0.016003495 0.067214131
0.030767223 -0.012259314 0.067539334
0.015769826 -0.02995866 0.065036476
0.020192852 -0.029514296 0.064173996
0.024305431 -0.029392688 0.064088762
0.029885452 -0.021706756 0.06295079
0.030017883 -0.018055908 0.063401401
0.02070085 -0.029854633 0.060034335
0.025803935 -0.02809792 0.059417009
0.028633188 -0.024796791 0.058479011
0.029867448 -0.020540603 0.058628619
0.025560776 -0.028460776 0.054494202
0.029058961 -0.025151243 0.054192722
0.030147901 -0.0218093 0.055409133
0.026843375 -0.028898614 0.051030099
0.028809195 -0.027001912 0.050938666
0.013273046 -0.030848552 0.066309214
0.030872827 -0.010692226 0.065122545
0.013474711 -0.029808164 0.061664343
0.017782839 -0.029873865 0.061928868
0.02973485 -0.015458036 0.061692715
0.029849112 -0.011619594 0.060834646
0.014538452 -0.029196151 0.057716429
0.018939551 -0.029931996 0.057616532
0.029797507 -0.017561978 0.056372821
0.020228332 -0.029924309 0.053202629
0.023713747 -0.029447166 0.053469658
0.030310797 -0.020153901 0.052410007
0.021169839 -0.030276543 0.048767149
0.024941303 -0.029465895 0.048249245
0.029651644 -0.025649318 0.048481107
0.030673614 -0.0219313 0.048834562
0.025937131 -0.02903256 0.043784738
0.028963685 -0.026694432 0.043468177
0.010764186 -0.029966023 0.059282243
0.029088711 -0.010953913 0.057959616
0.012986417 -0.030135456 0.055371165
0.029142231 -0.010898371 0.05422467
0.013309872 -0.030783569 0.050718606
0.017592883 -0.030420216 0.050732493
0.029754467 -0.01694677 0.049098432
0.028807234 -0.012888306 0.049765408
0.014086069 -0.031373858 0.046679497
0.019060191 -0.030673597 0.045758009
0.030006571 -0.019354133 0.045062184
0.029212039 -0.014118799 0.046019793
0.015853338 -0.031519298 0.043111205
0.019997306 -0.030793693 0.041342199
0.024034396 -0.029369283 0.041044414
0.029889878 -0.024713807 0.04139787
0.029499898 -0.020347347 0.040560782
0.020709518 -0.030888677 0.038028717
0.025166972 -0.029264839 0.036939979
0.028690606 -0.026414122 0.036785245
0.029907929 -0.021810217 0.03642267
0.024092875 -0.029867396 0.033992827
0.029415634 -0.024653208 0.03370136
0.028653838 -0.0096019292 0.046733916
0.011942018 -0.031452797 0.043726802
0.029084507 -0.012133509 0.042623937
0.013353313 -0.031203408 0.039417446
0.028809754 -0.016546575 0.037805915
0.028560571 -0.01383806 0.038102031
0.014438452 -0.030596128 0.035398543
0.018751927 -0.0307208 0.035342097
0.029384125 -0.018563814 0.034089148
0.019932654 -0.030138813 0.031101823
0.023681752 -0.028512649 0.029708982
0.027785726 -0.025552373 0.030159414
0.02913972 -0.021211855 0.02966094
0.024015957 -0.027866473 0.026283622
0.02707912 -0.025071114 0.025712729
0.028769758 -0.0090593146 0.040557086
0.010253548 -0.030961178 0.037549436
0.028874921 -0.011002993 0.036514699
0.011583028 -0.03101184 0.033351779
0.016090464 -0.030137632 0.031776369
0.029403389 -0.012302264 0.032029927
0.013448913 -0.03096864 0.029101193
0.017540164 -0.030059051 0.028272569
0.029046707 -0.017919548 0.028162658
0.029528271 -0.014215015 0.027157664
0.018056978 -0.030242465 0.024394393
0.022447102 -0.028185591 0.02398169
0.027323585 -0.024662782 0.023269117
0.029620089 -0.02022741 0.023991287
0.030595679 -0.015606958 0.022207618
0.019378113 -0.030487763 0.019281805
0.023276266 -0.028691892 0.019945323
0.027273508 -0.025897523 0.020184696
0.030166075 -0.021410372 0.019228518
0.030878212 -0.017345201 0.018096387
0.023898656 -0.028997494 0.015647829
0.027981842 -0.026644772 0.014877379
0.030319573 -0.022650668 0.014362514
0.028415725 -0.026139997 0.010466218
0.010239488 -0.031123092 0.02641803
0.029530745 -0.010651723 0.024903059
0.012119691 -0.030736152 0.022034705
0.015395345 -0.030161774 0.020664632
0.030930243 -0.012377243 0.020334661
0.01348599 -0.030808322 0.01781863
0.016444065 -0.030657228 0.017262936
0.031264342 -0.015013652 0.015733778
0.017757237 -0.030053642 0.01329571
0.022613132 -0.028980343 0.01195693
0.03061256 -0.020696254 0.011089325
0.031407829 -0.017012915 0.011687696
0.019087089 -0.029911065 0.008533597
0.023030721 -0.029161323 0.0081837773
0.027053827 -0.026657609 0.0083696246
0.029680042 -0.022017872 0.0076322556
0.030943397 -0.017902184 0.0087303519
0.02378699 -0.028914018 0.0051932335
0.026893107 -0.026068369 0.0051577091
0.010143938 -0.030370984 0.015610695
0.012633989 -0.030428963 0.010551333
0.015329828 -0.029969942 0.010371327
0.030664835 -0.012631525 0.0094922185
0.0297678 -0.0092152515 0.0089385509
0.01278872 -0.030927084 0.0054926276
0.016404601 -0.030442884 0.0058956742
0.029945398 -0.019507268 0.0048260093
0.030454654 -0.01553211 0.0047034621
0.018227981 -0.030470593 0.001159668
0.022151083 -0.0290103 0.0014632344
0.026184618 -0.025561679 0.0011116862
0.028925356 -0.021098401 0.00088304281
0.030388834 -0.017163685 -0.00030165911
0.030173622 -0.012452099 0.0025145411
0.011276203 -0.029721048 0.00050479174
0.014704217 -0.030824747 -4.3332577e-05
