# .PCD v0.7 - Point Cloud Data file format
VERSION 0.7
FIELDS x y z
SIZE 4 4 4
TYPE F F F
COUNT 1 1 1
WIDTH 336
HEIGHT 1
VIEWPOINT 0 0 0 1 0 0 0
POINTS 336
DATA ascii
0.012314502 -0.033171117 0.18037105
0.013847601 -0.033299923 0.18037477
-0.01263874 -0.026894867 0.18375146
-0.0087763779 -0.027112067 0.18438095
-0.004544802 -0.027290463 0.18456727
0.0005787164 -0.026980758 0.18415931
0.0058894493 -0.026697755 0.18405801
0.011068475 -0.027589023 0.18418226
-0.013806721 -0.029438436 0.1811659
-0.0091544017 -0.030398726 0.18153188
-0.0045546647 -0.03156209 0.18112314
0.00082646124 -0.031568587 0.18085253
0.0062062852 -0.031452417 0.18050522
0.010317028 -0.031899393 0.180879
0.015951678 -0.031479418 0.18032885
-0.013690539 -0.031502068 0.17680171
-0.0094172396 -0.03237021 0.1764282
-0.004830122 -0.032736838 0.17551842
0.00056572445 -0.033014238 0.17542237
0.0059545375 -0.03311044 0.17520952
0.010571219 -0.033565462 0.17526475
0.015190002 -0.03300488 0.17467195
-0.0092603303 -0.03311038 0.17187428
-0.0050726123 -0.033473015 0.17052233
-0.00012351945 -0.033523858 0.17048758
0.0051664561 -0.033874214 0.17009574
0.010360513 -0.034623444 0.17048272
0.014991675 -0.033464074 0.16949886
-0.0036755633 -0.034651816 0.16754809
-0.0011245329 -0.03493309 0.16698971
0.0053091329 -0.03501004 0.16671467
0.010185003 -0.035006106 0.16615903
0.013274536 -0.034579217 0.16572392
-0.0089804828 -0.0198192 0.18403482
-0.0042969752 -0.020834208 0.18441999
0.00076866709 -0.020793021 0.18459117
0.0058264453 -0.020317852 0.18449569
-0.0097261127 -0.02437222 0.18506226
-0.0027655736 -0.024444163 0.18475106
-0.014970776 -0.030552387 0.17372471
-0.014399424 -0.030744553 0.16984379
-0.010086883 -0.032814384 0.16924953
-0.013932817 -0.031040609 0.16386503
-0.0099981651 -0.032790959 0.1648111
-0.0055221338 -0.034130454 0.16523123
-0.00043613836 -0.034735322 0.16498676
0.0041737501 -0.034380734 0.16390681
0.010079816 -0.033783972 0.16260171
0.015226632 -0.033558488 0.16377401
-0.013303973 -0.032327831 0.16097423
-0.0098165162 -0.032769024 0.16062546
-0.0055480767 -0.033525527 0.16044527
-0.00088285469 -0.033981144 0.1605109
0.0045422502 -0.03332895 0.15980607
0.010181352 -0.033213258 0.15904734
0.014945928 -0.033652425 0.15967923
-0.0089856703 -0.01700455 0.18367547
-0.0042797942 -0.017272532 0.18405408
0.00012183003 -0.016465247 0.1844306
0.0059186202 -0.016104043 0.18464178
-0.015252629 -0.030383885 0.15854931
-0.010670064 -0.031741858 0.15747991
-0.0056996476 -0.032567918 0.15703326
-0.0010247547 -0.032799423 0.1569514
0.0044239704 -0.03285718 0.15671501
0.0090901703 -0.032860935 0.15648216
0.014168587 -0.032187164 0.15624297
-0.013628671 -0.031182885 0.15464479
-0.01032606 -0.031932652 0.15364316
-0.005871715 -0.032713056 0.15340686
-0.001197923 -0.03226316 0.15286985
0.0038054958 -0.032490194 0.15295696
0.0091519207 -0.032898843 0.15260568
0.014204424 -0.032062888 0.15249485
-0.0013557579 -0.032827139 0.14951247
0.003330715 -0.032612562 0.14913189
0.0088019297 -0.033072352 0.14916739
0.012708217 -0.03262794 0.14867073
0.00053118356 -0.0087713599 0.1841203
-0.0042588096 -0.011651993 0.18336487
0.00048227049 -0.011377931 0.18386996
0.0051926058 -0.012339354 0.18421286
-0.011478677 -0.030982673 0.15065512
0.015132785 -0.030800462 0.14919344
-0.015421178 -0.029922009 0.146606
-0.01087524 -0.031255066 0.14704543
-0.006144572 -0.032342315 0.14754474
-0.0014591347 -0.032186031 0.14696807
0.0032074004 -0.032017171 0.14591315
0.0086925216 -0.032755792 0.14613995
0.014402829 -0.03104496 0.14539734
-0.014776444 -0.030873537 0.14257169
-0.01092016 -0.032210171 0.14226678
-0.0063982196 -0.032896936 0.14227578
-0.0016896352 -0.032867074 0.14201945
0.0030169934 -0.032708228 0.14167428
0.0085099079 -0.032633603 0.14134756
0.01380606 -0.031440616 0.14080536
-0.0097260661 -0.032777965 0.13856772
-0.0065801404 -0.032733381 0.1383794
-0.0018938072 -0.033249199 0.13755131
0.0029913858 -0.033287585 0.13662061
0.0078264326 -0.033466876 0.13645506
0.011578616 -0.033575296 0.13577205
0.011291992 -0.034703195 0.13314527
0.00060272217 -0.0046152472 0.18436682
-0.012827855 -0.031196177 0.13953179
0.014730822 -0.031220615 0.13816825
-0.015100539 -0.03004545 0.13630995
-0.011437194 -0.031344414 0.13575327
-0.0067208502 -0.032495975 0.13536477
-0.0020211972 -0.033232093 0.13468975
0.0011387262 -0.033995867 0.1350643
0.014590036 -0.032236576 0.13507259
-0.010836037 -0.031354725 0.13190663
-0.0064964928 -0.031878471 0.13157761
-0.002160497 -0.032494247 0.13131315
0.0027556606 -0.033602774 0.13112646
0.0072835609 -0.034371138 0.13120091
0.012882639 -0.033390105 0.13002014
0.0087112077 -0.033120453 0.12641442
0.01108408 -0.03289479 0.12613639
-0.013162363 -0.029788733 0.13284576
-0.012015427 -0.030083239 0.12860212
-0.0073428676 -0.031348705 0.12865573
-0.0023052134 -0.031487703 0.12773329
0.00086484477 -0.031607687 0.12765983
-0.011200538 -0.030223191 0.12438798
-0.0072361864 -0.031676948 0.12425449
-0.0024764724 -0.031466365 0.12386781
0.0022919569 -0.032071888 0.12406117
0.0068464354 -0.033039868 0.12428296
0.012011819 -0.032806516 0.12355024
-0.0066163428 -0.031934559 0.12053782
-0.0026432108 -0.031778038 0.12022817
0.0021288712 -0.031874597 0.12006015
0.0071876273 -0.032438159 0.11943614
0.011629842 -0.032702684 0.11921126
0.016438622 -0.031471252 0.11905992
0.00037528388 0.0066991448 0.1845541
-0.013661582 -0.02860254 0.12294549
-0.013176572 -0.029180408 0.11818153
-0.0077767242 -0.031123102 0.1175127
-0.0027813688 -0.031292379 0.11696982
0.0020000711 -0.03117919 0.11665088
0.0063660294 -0.031586945 0.11624151
0.011523873 -0.032274604 0.11599541
0.016368158 -0.031106055 0.11661488
-0.012505425 -0.029361665 0.11410624
-0.007588692 -0.031057477 0.1124
-0.0030003414 -0.031184375 0.11201972
0.0017973259 -0.031267762 0.11184281
0.0065936372 -0.032059252 0.11218095
0.011381533 -0.032397032 0.11218923
0.016175982 -0.031360924 0.11119729
-0.007166164 -0.03176111 0.10872465
-0.0015610401 -0.031872034 0.10852867
3.7629157e-05 -0.031740606 0.10835326
0.0069235861 -0.032191157 0.10703272
0.010656919 -0.032627404 0.10716814
0.014441889 -0.031427979 0.10741144
0.0016076304 0.0092215538 0.18439084
-0.014199978 -0.029334307 0.1123507
-0.0094970278 -0.030904114 0.11017728
-0.013412016 -0.029720604 0.10771596
-0.0080503486 -0.032120526 0.10706514
-0.0032302327 -0.032089472 0.10713202
0.0017494988 -0.03204906 0.10628164
0.0052476823 -0.03261596 0.10546058
0.012186565 -0.032372892 0.10493863
0.016328622 -0.030810893 0.1056841
-0.011864044 -0.03081882 0.10283703
-0.0082588978 -0.03242743 0.10269845
-0.0037951116 -0.032689333 0.10267258
0.0013649575 -0.033015907 0.1023311
0.006388817 -0.03317523 0.10177732
0.010986596 -0.032834589 0.10172153
0.01584528 -0.031063855 0.10115546
-0.0084590167 -0.032495022 0.098463953
-0.0033092573 -0.033065319 0.098438621
0.0011946205 -0.032588005 0.098057985
0.0056888461 -0.032570422 0.097624779
0.010842618 -0.03241539 0.097453475
-0.014506321 -0.028691232 0.095580637
-0.010222016 -0.03015101 0.094941676
-0.003797017 -0.030796111 0.093970835
0.0010404419 -0.030152142 0.093248069
0.0058904178 -0.030443072 0.093228519
0.010736421 -0.030518353 0.093046844
0.015442465 -0.030028939 0.09419179
-0.0082591027 -0.030870557 0.090910852
-0.0039602164 -0.031566441 0.090557992
0.00088484958 -0.031102896 0.089969158
0.0057365783 -0.030932426 0.089601696
0.010590184 -0.030767977 0.089238644
-0.0073647108 -0.032188416 0.087183774
-0.0039024279 -0.032898247 0.086216033
0.00020405278 -0.032819211 0.085570931
0.011251025 -0.031897843 0.086049139
-0.011046225 -0.030009806 0.089056075
0.015455559 -0.029275298 0.0878672
-0.014517095 -0.029250622 0.08461529
-0.010731203 -0.031138957 0.084528506
-0.005883351 -0.032572389 0.084182501
0.0022308864 -0.03268683 0.084074914
0.0055060014 -0.03189832 0.084316671
0.010115881 -0.031902134 0.083517611
0.015238445 -0.030753374 0.082960606
-0.0092885103 -0.031451643 0.080654323
-0.0052431859 -0.032720625 0.080424249
0.00020830706 -0.032823861 0.079476535
0.0052725263 -0.032603383 0.078804612
0.010145679 -0.032958865 0.078843176
0.015024941 -0.031754792 0.07767123
-0.011342771 -0.029992521 0.07840693
-0.0054221377 -0.030644417 0.075774491
-0.00052601285 -0.030748844 0.075616717
-0.015199728 -0.028726637 0.073120892
-0.01126498 -0.029508412 0.073129714
-0.0066046044 -0.030005217 0.072707057
-0.0014779083 -0.030381143 0.072313905
0.0042444393 -0.030660212 0.072253048
0.0099615306 -0.031255245 0.072439373
0.014859013 -0.030919015 0.071937621
-0.010924282 -0.030289769 0.068944752
-0.0065670405 -0.030427635 0.068499029
-0.001681637 -0.03131777 0.067936301
0.0035640132 -0.031293571 0.067866981
0.0091723688 -0.031223476 0.067146719
0.014335867 -0.029934287 0.067605853
-0.0010229722 -0.032233894 0.064518273
0.0022528358 -0.032160938 0.064301133
0.0088052973 -0.032068133 0.063908994
-0.011853719 -0.029918611 0.06663847
-0.0066894721 -0.031197131 0.066029012
0.014658149 -0.029857695 0.064958215
-0.010110771 -0.02954942 0.062822044
-0.0063003115 -0.031047106 0.062450469
-0.0021949653 -0.031933248 0.061680615
0.0032009929 -0.032201231 0.061633527
0.0076519176 -0.03193754 0.061206639
0.012622505 -0.030641139 0.061110675
-0.0021326765 -0.030667365 0.057110131
0.001986837 -0.030750096 0.056977153
0.008574646 -0.031278372 0.057083368
0.011044689 -0.030621886 0.056435108
-0.01219029 -0.02807653 0.060504735
-0.0080791377 -0.029408097 0.059156537
0.013592076 -0.029571652 0.057544708
-0.0120757 -0.028872192 0.056145728
-0.0071417484 -0.029893219 0.055687726
-0.0019366946 -0.030059397 0.053694129
0.0027055833 -0.029990256 0.053899646
0.0076717325 -0.030098438 0.054094315
0.012984574 -0.029257655 0.053992033
-0.012309741 -0.029384255 0.051348865
-0.0073342659 -0.029736042 0.051393807
-0.0027013607 -0.029987931 0.049978197
0.0027657617 -0.030092299 0.049549997
0.0072994418 -0.030147731 0.04971236
0.012228373 -0.029298842 0.049743414
0.0034726299 -0.031176865 0.046107531
0.0073232874 -0.031269968 0.0456478
-0.012469511 -0.02909863 0.047976911
-0.0074876826 -0.029282749 0.047886789
-0.0025046319 -0.029730141 0.048011661
0.012986626 -0.0286358 0.047070086
-0.012455177 -0.028943896 0.043896854
-0.0076803304 -0.029207706 0.043619812
-0.0026800148 -0.029997826 0.044029772
0.0017276406 -0.03077805 0.043758094
0.0072052293 -0.031303883 0.042523921
0.012259245 -0.029660642 0.043032467
-0.0028685648 -0.0295012 0.039403021
0.002088381 -0.02997607 0.038498342
0.0070836768 -0.030560613 0.038743079
0.010449022 -0.02931273 0.038605988
-0.014482025 -0.02777946 0.040656805
-0.012942284 -0.028551698 0.038038313
-0.0079304129 -0.028768957 0.037977755
-0.0029615611 -0.029361784 0.037169874
0.0036267899 -0.029722393 0.035027802
0.0069628321 -0.029936671 0.035046518
0.012405127 -0.028728724 0.036754191
-0.013180658 -0.029079735 0.03316468
-0.0081363954 -0.030169606 0.033836126
-0.0031307042 -0.030034959 0.03348273
0.0016570985 -0.029981375 0.032941461
0.0068451986 -0.030463576 0.032298505
0.011892948 -0.029273331 0.032124162
-0.011730343 -0.030044854 0.028559148
-0.0083575659 -0.030973852 0.029183686
-0.0033466294 -0.030668378 0.028685331
0.0017032269 -0.029785812 0.028769016
0.0066852644 -0.030448258 0.028018653
0.011305954 -0.02965796 0.027665615
0.015094116 -0.028918564 0.027395368
-0.013782382 -0.028619707 0.026376069
-0.0085314885 -0.029877245 0.025042295
-0.0035107303 -0.029173255 0.024203658
0.0015619416 -0.028667629 0.024606586
0.0065596774 -0.029221416 0.02376312
0.011959676 -0.02937156 0.024493396
-0.013670318 -0.028256834 0.02283138
-0.0086884312 -0.029480934 0.021477401
-0.0036480576 -0.02924937 0.02103883
0.0014082305 -0.028436482 0.020643234
0.006437812 -0.028994143 0.020338833
0.011153538 -0.029366553 0.02064836
0.0080033503 -0.029853165 0.017755985
0.010220706 -0.029800951 0.016882718
-0.014163308 -0.027006507 0.019406557
0.0013380181 -0.027987123 0.018639326
0.013132587 -0.027975798 0.018066823
-0.013354052 -0.02711302 0.015113056
-0.0089608058 -0.028437912 0.015173614
-0.0038915984 -0.028639257 0.015106261
0.0011744387 -0.028843522 0.015041888
0.0060157813 -0.029225886 0.014869571
0.011832133 -0.028978944 0.013926327
-0.0087576099 -0.028520763 0.010329127
-0.0038928017 -0.029118776 0.0096027255
0.00092589855 -0.029954731 0.009477973
0.0059963353 -0.030026436 0.0092993379
0.010865446 -0.029463708 0.0088506937
0.00075871311 -0.030564845 0.005641818
0.0058330297 -0.030098379 0.0049914718
0.0092196576 -0.030007422 0.0047510862
-0.010124706 -0.027731478 0.0080650449
-0.0092605203 -0.027362883 0.0035794377
-0.0045909472 -0.028185844 0.0035297275
0.00069010258 -0.029274583 0.0031913519
0.0057425983 -0.028591216 0.0014704466
0.010896355 -0.028369129 0.0026810765
0.00055699795 -0.028462768 -0.00060456991
-0.011299603 -0.026954889 0.00083559752
