# .PCD v0.7 - Point Cloud Data file format
VERSION 0.7
FIELDS x y z
SIZE 4 4 4
TYPE F F F
COUNT 1 1 1
WIDTH 394
HEIGHT 1
VIEWPOINT 0 0 0 1 0 0 0
POINTS 394
DATA ascii
0.025103016 0.027084328 0.18221089
0.021974485 0.029245945 0.18288821
0.017535487 0.030543996 0.18270105
0.012135445 0.031425424 0.18127781
0.007377557 0.032806147 0.17932323
0.026672728 0.028470824 0.17860904
0.023237873 0.031792287 0.17927688
0.018935915 0.033381701 0.17893067
0.013358648 0.033842988 0.17756873
0.0074328915 0.033711541 0.17758477
0.026451509 0.029838447 0.17410573
0.024010878 0.033056404 0.17479107
0.01959718 0.034374624 0.17425442
0.015612708 0.034817312 0.17424864
0.023846352 0.032877907 0.17026979
0.021369707 0.03422777 0.17105347
0.023064889 0.020045452 0.18438604
0.018728221 0.021783307 0.18502066
0.014722142 0.02367913 0.18470365
0.0098932041 0.025661405 0.18361816
0.0042953417 0.027908504 0.18321723
-1.0281801e-05 0.028903056 0.1836296
0.025261898 0.023344483 0.18232581
0.020239059 0.025219917 0.18374258
0.015990404 0.02701138 0.18352574
0.010693843 0.028248649 0.18269911
0.0059376694 0.031172134 0.18138713
0.0019887965 0.033072323 0.18018556
-0.002894232 0.033452179 0.17989942
0.028318955 0.023653938 0.17702422
0.028076623 0.026997259 0.17613351
0.0078610163 0.034466263 0.17541391
0.0029978398 0.034865055 0.17513299
-0.0018996987 0.035217181 0.17481792
0.029259056 0.025200069 0.17179623
0.027945124 0.027794622 0.17254406
0.012973187 0.034249555 0.17177764
0.0081747426 0.034742311 0.17110682
0.0035501746 0.035647169 0.17026824
-0.00063986145 0.035711586 0.16999006
0.02999243 0.026327573 0.16716737
0.02768407 0.028961904 0.16802245
0.02458417 0.032531135 0.16781843
0.019365354 0.033570074 0.16801804
0.014384299 0.034570657 0.167519
0.0091300253 0.035127774 0.16611758
0.004179962 0.035919003 0.16621327
0.030564589 0.027303662 0.16423106
0.027740326 0.029851371 0.16366196
0.024293736 0.032271698 0.16344672
0.019916734 0.033771876 0.16302252
0.015760381 0.034515698 0.16283122
0.012095871 0.035190623 0.16336122
0.027429741 0.031318847 0.16013777
0.024657145 0.032647099 0.15963203
0.020647064 0.034047034 0.15925717
0.015997473 0.015174742 0.18423283
0.011748542 0.017109673 0.18409371
0.0072356206 0.018373702 0.18351167
0.0019182959 0.020427242 0.18313557
0.011700998 0.020996174 0.18440029
0.0084664486 0.021242172 0.18361831
0.0040708804 0.023384357 0.18294728
-0.0022535827 0.035316281 0.1676352
0.006812437 0.034702409 0.16333872
0.0028519249 0.03428879 0.16237625
-0.0015797839 0.034884281 0.16279149
0.029999204 0.025338065 0.16012448
0.028757982 0.027885081 0.16095656
0.014037604 0.034140334 0.1602464
0.0089339837 0.033902667 0.15963635
0.0036088256 0.033812631 0.15954605
-0.001337599 0.035116546 0.15929973
0.030372798 0.025771959 0.15678298
0.028684448 0.029400369 0.15728545
0.02462478 0.032213092 0.15686268
0.019855315 0.033606675 0.15625295
0.014898871 0.032996818 0.155496
0.0099519165 0.03339012 0.15609646
0.028385825 0.029662836 0.15226862
0.024843641 0.032164693 0.15243784
0.020240858 0.033165623 0.15163738
0.016265083 0.033105683 0.15163153
0.024893126 0.031775229 0.14848113
0.021282002 0.033211458 0.14824855
0.014205612 0.011737054 0.18440047
0.010203257 0.013515721 0.18442699
0.0054841097 0.014424206 0.18450886
0.0014803214 0.01742178 0.18345234
0.0026740171 0.033134881 0.15635642
-0.0014847945 0.034513649 0.15611118
0.0087581063 0.032930881 0.15297547
0.0033294242 0.033455078 0.15226597
-0.0014775191 0.034275282 0.15317333
0.029128941 0.025885442 0.14993644
0.014672648 0.033083554 0.14926058
0.010231739 0.033248924 0.14862543
0.0063617365 0.033536073 0.14886844
0.027811211 0.029389046 0.14650887
0.025013987 0.031698652 0.14565778
0.020352632 0.033267129 0.14558408
0.015709875 0.033190627 0.1448741
0.012100283 0.033285134 0.14546603
0.024789099 0.030712651 0.14215541
0.02050088 0.032616246 0.14200208
0.007051792 0.0060681398 0.18408018
0.0032748985 0.0093332762 0.18478814
0.00862577 0.009844657 0.1847288
-0.00059485901 0.013100487 0.18345502
-0.0017790124 0.033306111 0.14969102
0.0035849577 0.033014718 0.1460318
-0.0017699404 0.032896679 0.14473951
0.028158024 0.024652461 0.14323649
0.013614454 0.03242214 0.14163196
0.010069238 0.032713722 0.14236656
0.0050338386 0.033180628 0.14152354
0.00062812679 0.033238709 0.14038885
0.027418006 0.026312973 0.13834637
0.02462374 0.02987941 0.13874835
0.020220172 0.031521946 0.13839677
0.015460801 0.032378126 0.13839144
0.010646001 0.033012751 0.13728523
0.0063266745 0.033740591 0.13666221
0.024866886 0.029856697 0.13405931
0.020460717 0.0315236 0.13372171
0.016098296 0.032756772 0.13366932
0.011158548 0.033752698 0.13315082
0.0075936895 0.034761056 0.13298208
0.024728529 0.030909289 0.1289539
0.021222118 0.032231174 0.12892106
0.017786816 0.032833356 0.12988821
0.02529026 0.032506853 0.12568337
0.023399759 0.033391729 0.12532723
0.0012195802 0.0045211795 0.18438417
-0.0018681036 0.033436108 0.13872623
0.0044195764 0.034294669 0.13518953
0.00010258052 0.033729233 0.13461518
0.027731683 0.02537686 0.13241312
0.015182732 0.032894399 0.13101465
0.011308377 0.033804573 0.13036612
0.0060224086 0.034882035 0.13065237
0.0018198723 0.034481253 0.13035256
0.027869957 0.026333448 0.1274187
0.026380517 0.028600251 0.12800649
0.019692026 0.032904185 0.12670746
0.015960561 0.032768533 0.12710983
0.011504177 0.033360049 0.1265499
0.0059154555 0.034456469 0.12600136
0.028204776 0.028273709 0.12357047
0.026505496 0.030998593 0.12317675
0.021103462 0.03290277 0.12303707
0.01726361 0.032148343 0.12288052
0.025577297 0.03167719 0.11913484
0.022792429 0.03272311 0.11833477
-0.0014790648 -0.001782235 0.18396237
-0.00017475523 0.033630371 0.12726831
0.0095975948 0.033146758 0.12364203
0.0070855417 0.033376582 0.12395212
0.0011735307 0.033696339 0.12323871
-0.0032484913 0.033511113 0.12268287
0.028999534 0.024961893 0.12072372
0.015515623 0.031793423 0.12015754
0.011238317 0.032047477 0.11983377
0.0063218842 0.03320213 0.11972821
0.002227759 0.0337894 0.11976552
0.028316084 0.026508007 0.11616457
0.026545137 0.029965213 0.11658645
0.020474702 0.032534637 0.116588
0.016537206 0.031809814 0.11556631
0.012657472 0.031382933 0.11573577
0.02578526 0.030623574 0.11235988
0.022099458 0.032749441 0.11190712
0.017860098 0.032235008 0.11148489
0.022359293 0.032784197 0.10712993
-0.0032583789 -0.0058949208 0.18407339
0.0090603195 0.031184873 0.11639309
0.0057004038 0.031385377 0.11544067
0.00066151656 0.032454435 0.11590225
0.014624408 0.031568773 0.11259574
0.01076878 0.03123907 0.11283559
0.0059005003 0.03147056 0.11165255
0.001166774 0.032030635 0.11104453
0.029045675 0.024237815 0.1095382
0.02736311 0.027100546 0.10924429
0.016027238 0.031686794 0.10856575
0.011366051 0.031008834 0.10780621
0.0068859137 0.031358965 0.10797822
0.026220376 0.028915741 0.10527468
0.022412568 0.032536905 0.10403675
0.017174305 0.032518879 0.10425788
0.013501071 0.032033689 0.10370684
0.025665764 0.029600497 0.10116959
0.022445481 0.032363147 0.1019612
0.01738435 0.032574456 0.10042077
-0.0012949244 -0.0093836086 0.18463039
-0.0042703408 -0.0082002468 0.18443877
-0.0072457548 -0.007016886 0.18424714
0.0012604827 0.032609235 0.10893172
0.010513805 0.031363521 0.10523349
0.0062859128 0.032348715 0.10590619
0.0015599336 0.033049643 0.10637009
0.027984289 0.026288284 0.10234636
0.011470745 0.032356165 0.10198241
0.0070717703 0.03311345 0.10131729
0.0018374482 0.033745334 0.10174286
-0.0028201761 0.034063887 0.10123354
0.027099691 0.027617525 0.097930074
0.022147253 0.031199848 0.098110199
0.01705722 0.031377517 0.096529663
0.012300834 0.031830721 0.097433448
0.0071741487 0.032954466 0.097281754
0.0032916842 0.033509418 0.097689748
0.027156428 0.028537631 0.093187273
0.022517422 0.031513162 0.093480885
0.017941721 0.031805266 0.092424929
0.026337568 0.029720614 0.089548171
0.023130808 0.031760115 0.088439167
0.019553442 0.032245532 0.088991642
0.0096802777 0.030353371 0.094368875
0.0063909446 0.030829543 0.093593895
0.0010947082 0.032231711 0.094105542
0.015165485 0.030363562 0.090218782
0.011493326 0.030096378 0.090802252
0.0066990666 0.030660238 0.089829683
0.0018585017 0.032256238 0.090045571
-0.0014959266 0.032716274 0.090237439
0.028214674 0.02621137 0.087091863
0.024233449 0.030569781 0.086415291
0.016887717 0.031245017 0.086728454
0.012133814 0.03102036 0.085631549
0.008264346 0.031665672 0.086108208
0.027409146 0.027651859 0.082851529
0.023474585 0.030384695 0.082606316
0.017898796 0.03169924 0.082020283
0.013819592 0.031802338 0.082044542
0.023677791 0.030433236 0.079075933
0.019860817 0.031779118 0.078708947
0.00505892 0.031229416 0.087408423
0.0019931197 0.032294411 0.087105334
-0.0032396885 0.033072889 0.087637067
0.0066515715 0.03179016 0.083633184
0.0024044663 0.032901052 0.083632112
-0.002447187 0.033423394 0.082600534
0.029036809 0.025629673 0.081087768
0.012203051 0.031894643 0.079534233
0.0078050084 0.032075867 0.079409122
0.0029133242 0.032816339 0.078892052
-0.00095032901 0.032928407 0.078463852
0.028539822 0.026968036 0.076280951
0.024519708 0.029962113 0.075993061
0.018708546 0.031644795 0.075783014
0.013443474 0.031550389 0.074982941
0.027961189 0.028102867 0.071283162
0.025072861 0.03073279 0.071644604
0.02000002 0.031780489 0.071391582
0.016898112 0.032122251 0.069789708
0.0072511435 0.031058524 0.075898945
0.00047209766 0.031921804 0.076215625
0.012891814 0.031320833 0.071913302
0.0074608717 0.03006456 0.072650254
0.0022936193 0.030795628 0.071763873
-0.0027098665 0.0319166 0.071292102
0.029110774 0.02527852 0.069155872
0.019279236 0.031257443 0.067955613
0.014688093 0.031700138 0.068718255
0.0091538522 0.030548779 0.06802088
0.0042608669 0.030811472 0.067741334
0.027915908 0.024983067 0.064416766
0.024467092 0.028915273 0.064238369
0.020080602 0.029984547 0.063799798
0.014648311 0.030951135 0.063471258
0.011043533 0.031343646 0.06359309
0.027343135 0.026372179 0.061092079
0.025189003 0.028913662 0.059519351
0.02022076 0.030400937 0.059434235
0.015908172 0.030863088 0.060314357
0.023835059 0.030144611 0.056389511
0.0037586922 0.031258445 0.065108061
-0.0011486094 0.031359263 0.06501621
0.008329574 0.030433178 0.061055899
0.0042893421 0.030271422 0.06117934
0.00035149138 0.030304288 0.0606547
0.028581105 0.024695728 0.058240116
0.01852002 0.030292124 0.056681633
0.014981402 0.030466719 0.057281911
0.010646258 0.030949177 0.058519959
0.027844666 0.026537726 0.053088307
0.025567669 0.029200103 0.053975821
0.020821257 0.029910013 0.053359032
0.016707387 0.02991553 0.053682745
0.028204806 0.026911063 0.049319088
0.026006538 0.029368764 0.049516022
0.0037627663 0.029598126 0.05788517
-0.001801461 0.030172465 0.058561563
0.012854779 0.029364383 0.053992093
0.0090572443 0.029547965 0.054266572
0.0040072617 0.029817559 0.054314196
-0.0011680601 0.030381454 0.05393821
0.018214032 0.028868107 0.050319791
0.0146005 0.029347662 0.050164878
0.010093298 0.030357065 0.049821675
0.0045133154 0.030535035 0.049793482
6.8968162e-05 0.03081473 0.050512135
0.029687434 0.025317272 0.047471941
0.025195505 0.028934006 0.046074033
0.02039801 0.029291848 0.046181977
0.015613744 0.030082017 0.045645952
0.010162188 0.031172525 0.045393646
0.0063207448 0.031743389 0.045457661
0.030026365 0.025534553 0.042386711
0.026002875 0.029265702 0.041885793
0.021317331 0.030302076 0.041563094
0.015869673 0.030815488 0.041476369
0.011294695 0.031991415 0.041964412
0.03073018 0.027155589 0.037793577
0.026568767 0.030050905 0.03740871
0.021441229 0.030716365 0.037446737
0.018044917 0.031330332 0.038433015
0.030635059 0.028672138 0.034675419
0.027043112 0.030735195 0.033868194
0.023016319 0.031926379 0.034356058
0.0027730903 0.030454058 0.047016382
-0.0013535572 0.029935971 0.046662688
0.0037294356 0.031229788 0.043196738
0.00060219783 0.030292572 0.04243207
0.014252632 0.030986389 0.03890568
0.010403285 0.031469624 0.03839761
0.0064397613 0.031400673 0.038915455
0.020733265 0.030873163 0.034834206
0.015803689 0.030446112 0.034557104
0.011116599 0.03086371 0.034700632
0.031214848 0.027488183 0.031500995
0.027124034 0.030516708 0.030541122
0.02172612 0.03056423 0.030354023
0.017153399 0.030573167 0.031161487
0.029809689 0.027915448 0.027396441
0.026528565 0.029752528 0.027061164
0.022629835 0.030100737 0.026415884
-0.0019316608 0.029581241 0.040466249
0.0035523348 0.029874772 0.036301196
-0.00084509794 0.030200839 0.036469638
0.0087672789 0.03024265 0.032093525
0.0050868453 0.030837789 0.032720745
0.00012751389 0.030868286 0.031809449
0.019721963 0.029770134 0.027222335
0.015458116 0.029486358 0.028101861
0.010856795 0.029981269 0.028654873
0.0058906055 0.030842792 0.02850312
0.0003548814 0.031544164 0.027860045
0.030936547 0.026002314 0.025264084
0.02747987 0.028513849 0.024850011
0.021268146 0.029838646 0.024097741
0.016358037 0.029492822 0.02422744
0.029684316 0.026655259 0.019922435
0.026840676 0.02859332 0.020370305
0.022569694 0.029990617 0.020579278
-0.0019385815 0.030596679 0.028441846
0.0084709469 0.028837793 0.024487019
0.0047184508 0.02968407 0.024287164
0.00028000213 0.03054977 0.024925172
0.015031498 0.028736431 0.020379841
0.010621932 0.028700238 0.021136761
0.0055315401 0.029324763 0.020754635
-0.00085157063 0.030355005 0.021127045
0.020361559 0.028637728 0.016532242
0.016278571 0.028571615 0.016661704
0.01084706 0.028199701 0.016235471
0.030072764 0.025369143 0.014009178
0.026506582 0.02758746 0.013582349
0.021944264 0.028231051 0.013048589
0.014563811 0.029095702 0.013987482
0.026723739 0.026952999 0.009275496
0.023596317 0.028197002 0.0090737939
0.0031806682 0.028788021 0.018169284
-0.0001801597 0.029565159 0.018387258
0.0092388596 0.028183265 0.014171779
0.0052978694 0.029085036 0.014847934
0.00036604144 0.030402971 0.014028251
0.019390792 0.027050365 0.0098437071
0.016059279 0.027920328 0.010360897
0.011049133 0.029133992 0.010514855
0.0059326552 0.029993059 0.009259522
0.0010871813 0.031018386 0.0085107088
0.027109016 0.026407219 0.0062553287
0.021314304 0.028113153 0.0067336559
0.016781757 0.029127441 0.0061261058
0.011656776 0.029947773 0.0048265457
0.0068522384 0.030830145 0.0050156713
0.0029065087 0.031108918 0.0046154857
0.027128194 0.026984435 0.0017868876
0.022361137 0.028708693 0.0013418794
0.017162515 0.029459981 0.001049757
0.0045453687 0.03042995 0.0025017262
0.00068808347 0.0301359 0.002448976
