# .PCD v0.7 - Point Cloud Data file format
VERSION 0.7
FIELDS x y z
SIZE 4 4 4
TYPE F F F
COUNT 1 1 1
WIDTH 400
HEIGHT 1
VIEWPOINT 0 0 0 1 0 0 0
POINTS 400
DATA ascii
0.025746966 -0.030203117 0.18146905
0.021405272 -0.033605106 0.17943579
0.024924612 -0.032572635 0.17914027
0.027706534 -0.031406906 0.17807665
0.02624217 -0.033523258 0.17576838
0.023485949 -0.023969334 0.18450266
0.0094389385 -0.032110419 0.18064451
0.014024227 -0.031223185 0.18188399
0.019154176 -0.029979382 0.18275687
0.023265235 -0.028254073 0.18276265
0.027116731 -0.025587257 0.1814135
0.01011942 -0.032739967 0.1781362
0.014639458 -0.033744913 0.17782393
0.019115744 -0.033562757 0.17814484
0.028774109 -0.028702524 0.17779994
0.015705219 -0.034273449 0.17343029
0.020547967 -0.034539949 0.17404547
0.024636813 -0.033814672 0.17381418
0.028512258 -0.030247042 0.17322299
0.02067171 -0.034789659 0.16928503
0.024965333 -0.033762597 0.16899574
0.02805548 -0.031107787 0.16888377
-0.0016414598 -0.029115167 0.18336412
0.0019522617 -0.028289691 0.18386257
0.0064014583 -0.026908318 0.18389121
0.011091802 -0.025006931 0.18352753
0.01633415 -0.022645094 0.18364349
0.020537164 -0.021136986 0.18429247
-0.0014293995 -0.032176271 0.18076721
0.0032898178 -0.031510722 0.18114501
0.0074679395 -0.030776272 0.18147308
0.011852849 -0.028184183 0.18297842
-0.00068316236 -0.033626895 0.17716035
0.003436421 -0.0333234 0.1760169
0.0083030881 -0.033142451 0.17597824
0.0043163355 -0.034094661 0.17124957
0.0085820891 -0.033913843 0.17125982
0.012894232 -0.033871938 0.17136839
0.029451547 -0.028164182 0.17007717
0.0091849733 -0.034577277 0.16690528
0.014418049 -0.034443196 0.16727418
0.01939795 -0.034554951 0.166529
0.028593458 -0.028911998 0.16597742
0.029710844 -0.024928994 0.16537341
0.014341026 -0.034740776 0.16315764
0.01941349 -0.033794779 0.16238016
0.024098162 -0.032213613 0.16235101
0.028018564 -0.029584251 0.16150248
0.021156933 -0.033549134 0.15889966
0.024345335 -0.032837801 0.15749624
0.027257839 -0.031271473 0.15733901
0.007883098 -0.018126022 0.1835233
0.013146737 -0.016611811 0.18362373
0.00085818488 -0.025500059 0.18472382
0.0049249665 -0.023211095 0.18414199
0.0089429617 -0.020798601 0.18347794
0.013530698 -0.019762935 0.1832813
-0.00181277 -0.033485059 0.1740512
-0.0017630011 -0.033419862 0.16949344
0.0026173424 -0.033903059 0.16913885
-0.00038701016 -0.033349648 0.16450226
0.0031889379 -0.033848748 0.16461557
0.0073588458 -0.034478981 0.16463131
0.00393367 -0.03405891 0.16120178
0.0083533693 -0.034175292 0.16056424
0.012605051 -0.033934947 0.15967456
0.01642807 -0.034066226 0.16008994
0.0093117468 -0.033432581 0.15635085
0.012947193 -0.032842524 0.15549487
0.018110828 -0.033052437 0.15592325
0.022637174 -0.033465091 0.15545508
0.02884653 -0.02971871 0.15584779
0.030327581 -0.026058557 0.15543196
0.01421593 -0.033650212 0.1519323
0.018680509 -0.032860011 0.1512045
0.024088288 -0.033000275 0.15106899
0.027553326 -0.030642888 0.1512289
0.023436269 -0.033254348 0.14663941
0.026618522 -0.031759381 0.14681923
-0.0017497232 -0.019303638 0.18331814
0.0027173734 -0.017843949 0.18330008
0.0065224981 -0.014649892 0.1839672
0.011523005 -0.01333119 0.18399972
-0.0023061857 -0.033607312 0.15856972
0.0025304183 -0.033659067 0.15827203
0.005948436 -0.033294301 0.15742266
-0.00061202608 -0.034126267 0.154719
0.0027513364 -0.033613428 0.15376019
0.0073770867 -0.033624332 0.15397072
0.011402542 -0.033395633 0.15366137
0.007982092 -0.034005146 0.14923134
0.012263652 -0.03377888 0.14949635
0.016774157 -0.03306688 0.14882946
0.028398111 -0.027526345 0.14819542
0.028889071 -0.024399457 0.14815366
0.0091754701 -0.034412567 0.14572653
0.012685995 -0.034247614 0.14503139
0.017997883 -0.03341154 0.14509651
0.023880305 -0.033639647 0.1437068
0.027718799 -0.029978739 0.14425427
0.018695531 -0.033455655 0.14151365
0.022915516 -0.033823468 0.13890868
0.027962413 -0.031298399 0.13903409
0.023983197 -0.034842439 0.13495982
0.027723005 -0.032588527 0.13489592
0.004775946 -0.0080706235 0.18438992
0.0005242601 -0.012394871 0.18336451
0.0050102575 -0.010816965 0.18419352
0.0095865233 -0.0095703769 0.18431678
0.0013085529 -0.033143897 0.15074843
-0.0029489854 -0.033211056 0.14635706
0.0020469092 -0.033336446 0.14726648
0.0055102194 -0.033521686 0.14718455
0.0021632025 -0.033376724 0.14278552
0.0066468702 -0.033286095 0.14232165
0.010590867 -0.032214303 0.14082128
0.0080449693 -0.032595113 0.13766974
0.011489853 -0.032742441 0.13757133
0.016497264 -0.033104669 0.13836938
0.029500546 -0.025939258 0.13750723
0.012511917 -0.032955661 0.13349843
0.017036006 -0.033824153 0.1340515
0.021695036 -0.034425974 0.13221523
0.027506353 -0.031246403 0.13157353
0.029711951 -0.028079223 0.13279626
0.0173226 -0.033422027 0.12979469
0.022841852 -0.033938497 0.12794915
0.027436569 -0.031464726 0.12757033
0.024510402 -0.03304388 0.12350559
0.0022371176 -0.0044467957 0.18419588
0.0011447668 -0.033147935 0.13985527
-0.0024232678 -0.03225182 0.136107
0.0014848355 -0.032100692 0.13558778
0.0055900305 -0.032189351 0.135638
0.0065178354 -0.032432325 0.13117987
0.010582425 -0.03267825 0.13097227
0.014734864 -0.033162687 0.13095087
0.0077148229 -0.033049989 0.1273827
0.011197788 -0.032423291 0.12697536
0.0158203 -0.032740436 0.12653136
0.029522613 -0.026011538 0.12563032
0.016443139 -0.03196026 0.12284544
0.020896586 -0.032561433 0.12234572
0.02695456 -0.031297289 0.12215012
0.029845946 -0.027726946 0.12148017
0.021781947 -0.0324018 0.11793649
0.026065234 -0.031717207 0.11734354
0.029265635 -0.028362734 0.11753303
0.025634464 -0.032568276 0.11378157
-0.00019366981 0.0022578891 0.18399394
-0.00043980498 -0.031909205 0.13312528
0.00058898702 -0.032167446 0.12904119
0.0046092486 -0.032249991 0.12871277
0.0011672108 -0.032096453 0.12430042
0.0056922021 -0.033129923 0.12481233
0.010255673 -0.032330886 0.12410024
0.0062781149 -0.033456966 0.11988229
0.010715286 -0.032879923 0.12022787
0.015254215 -0.032028411 0.12013543
0.018718284 -0.031650569 0.1192919
0.030135969 -0.026109731 0.11812192
0.0072438819 -0.033309706 0.11584026
0.010764251 -0.032712869 0.115466
0.015259929 -0.032026559 0.11486763
0.019964831 -0.032355513 0.11554348
0.029033076 -0.027143784 0.1143102
0.015982777 -0.032921135 0.1104582
0.020407895 -0.032574311 0.11060762
0.025481211 -0.03240563 0.11144412
0.028495228 -0.029275071 0.11021018
0.02152841 -0.032962553 0.10658371
0.025232477 -0.032285437 0.10624313
0.027835393 -0.03021373 0.10582429
-0.0019698706 0.0067188945 0.18391466
-0.0016791737 -0.031646382 0.12293974
-0.00052987132 -0.031796962 0.11821061
0.0036910698 -0.032813732 0.11760002
0.00032521226 -0.032079224 0.11404318
0.0050199805 -0.032970242 0.11289287
0.0098537775 -0.03270955 0.1126188
0.029482596 -0.02499567 0.11136752
0.0062073986 -0.033025939 0.10888284
0.010081042 -0.032725029 0.10827506
0.014224133 -0.03306682 0.10818756
0.029817268 -0.026177742 0.10835791
0.011065543 -0.032822005 0.10398847
0.015324177 -0.033426903 0.10411841
0.019588375 -0.032650735 0.10393554
0.02483115 -0.031554066 0.10310781
0.029129488 -0.028067455 0.10335582
0.016890872 -0.033440791 0.10056412
0.020180348 -0.032037467 0.099865317
0.024643399 -0.030928163 0.098918557
0.028593734 -0.029025752 0.098836422
0.031425804 -0.026765972 0.099323928
0.027378425 -0.030090371 0.094778776
-0.0030128118 0.0093644178 0.18408844
-0.0020592064 -0.032128375 0.11238182
-0.00084101502 -0.032342032 0.10760206
0.0044534928 -0.032840181 0.10702944
0.00018281676 -0.032371946 0.10371763
0.0041314028 -0.033111528 0.10247815
0.0095138634 -0.033486471 0.10211301
0.004571822 -0.033112392 0.098680019
0.01028502 -0.033092983 0.097396374
0.014544697 -0.032767784 0.097288013
0.019286919 -0.03204051 0.096979678
0.022685502 -0.03111567 0.096352041
0.029292032 -0.028239546 0.095900476
0.015204512 -0.032974862 0.0925439
0.019649057 -0.032557469 0.092671335
0.024515685 -0.031735249 0.093275249
0.0289768 -0.029440109 0.092466474
0.031614956 -0.02615756 0.091392815
0.016362336 -0.03344404 0.088510215
0.020071475 -0.033622425 0.087811768
0.024706144 -0.032768548 0.088094831
0.029019952 -0.030598484 0.087586462
0.031615064 -0.02844608 0.086661875
0.021306297 -0.033352301 0.083664477
0.025100112 -0.03334032 0.083807886
0.029114079 -0.031283811 0.08310467
0.031893231 -0.029489171 0.083488524
-0.0020016115 -0.031600326 0.096023142
0.0026128339 -0.031765718 0.095351517
0.007018073 -0.031054353 0.094486475
0.0043808934 -0.031423878 0.091107786
0.0081684012 -0.031499863 0.090641022
0.012579674 -0.032370117 0.090797126
0.0099357469 -0.031726766 0.086167574
0.013680854 -0.032477215 0.086853385
0.017751219 -0.033009324 0.084528744
0.014499464 -0.032384522 0.08191067
0.018626299 -0.032093313 0.080853045
0.024102688 -0.032011934 0.080028117
0.028594442 -0.030274741 0.079209745
0.031915899 -0.026645029 0.081403375
0.019615989 -0.031809948 0.078065932
0.023727495 -0.031393413 0.076441884
0.028481647 -0.030269267 0.076144814
0.03122277 -0.028335217 0.076417625
0.02508013 -0.032260284 0.073042333
0.0281692 -0.03089378 0.072983801
-3.9637089e-05 -0.031100037 0.09280628
0.0010863235 -0.031290416 0.088913739
-0.0021648277 -0.031303484 0.08437711
0.0019641928 -0.031386852 0.084110558
0.0064737401 -0.031478211 0.084370852
0.0080535337 -0.031583186 0.079476476
0.012597013 -0.032273129 0.079329014
0.013157364 -0.03214496 0.07484287
0.018408692 -0.031888612 0.075209796
0.021841602 -0.03123497 0.074151158
0.014834433 -0.032744091 0.069910884
0.018893264 -0.032998655 0.070640922
0.023274455 -0.032325964 0.070590556
0.028671669 -0.030441783 0.070027828
0.031075904 -0.028494697 0.070407212
0.019598771 -0.032987006 0.066729844
0.02388493 -0.03235342 0.065577149
0.027916046 -0.030400131 0.065150261
-0.00052160583 -0.03122619 0.082703292
0.00049158838 -0.030510578 0.078116119
0.0052473499 -0.03098027 0.076859534
-0.0027656918 -0.031201664 0.073977351
0.0010089288 -0.030671962 0.074029803
0.0055547487 -0.03064662 0.073046684
0.0095164664 -0.031129606 0.072956443
0.0070436504 -0.030965568 0.068616867
0.01101251 -0.031635012 0.068457246
0.010948747 -0.031286974 0.064558446
0.017260067 -0.031848781 0.063201487
0.021402156 -0.031372543 0.061869979
0.029122626 -0.028708164 0.061871886
0.030458344 -0.026381616 0.062508345
0.016746951 -0.030947974 0.059286773
0.022264712 -0.030697456 0.058634818
0.027545471 -0.029434796 0.058919072
0.030068113 -0.026953379 0.057686329
0.024020588 -0.02974131 0.055114985
0.02784127 -0.028267119 0.054998636
0.0001336243 -0.03084369 0.071169555
0.00021769013 -0.030809706 0.066227555
0.0045690401 -0.030938851 0.0670349
0.0058314693 -0.030577224 0.062000096
0.010282239 -0.030856928 0.061446011
0.010922126 -0.030586265 0.057125688
0.015040476 -0.030605536 0.056846797
0.01923993 -0.030846177 0.056764662
0.01663211 -0.030307807 0.052015901
0.020787228 -0.030703973 0.052915692
0.026335932 -0.029405486 0.052707076
0.030107977 -0.026349904 0.052568972
0.020984538 -0.03111585 0.047629237
0.02595688 -0.030026622 0.047738492
0.029266609 -0.028148398 0.046961963
0.022385545 -0.03126695 0.043341517
0.026182882 -0.029673459 0.043127775
-0.00047201291 -0.029880175 0.060177147
0.003571325 -0.029769164 0.058726013
-0.00045339949 -0.030529426 0.055470169
0.0048360019 -0.030338727 0.055677116
0.008805275 -0.030070588 0.054091573
0.00071058143 -0.030991478 0.05125457
0.0048877099 -0.030387824 0.051104248
0.0098508587 -0.030128846 0.050585687
0.013874946 -0.029606907 0.049795687
0.006269875 -0.030536212 0.046795547
0.009929793 -0.030870853 0.045940995
0.015429474 -0.030667696 0.045772552
0.019614346 -0.030845668 0.044352114
0.030030701 -0.024892118 0.044626057
0.011801213 -0.031583093 0.041744769
0.015182196 -0.03117799 0.041297376
0.020494137 -0.031218661 0.040680707
0.025130266 -0.030146111 0.040507793
0.029429097 -0.026795169 0.040699661
0.016954739 -0.031541899 0.037850142
0.020480597 -0.031629108 0.036428154
0.025447968 -0.030727608 0.036386251
0.029581239 -0.027656011 0.03584516
0.022121804 -0.031635873 0.033007085
0.025745057 -0.030947257 0.032621384
0.028873308 -0.029255623 0.032283127
-0.0015953491 -0.030156961 0.047896206
0.0035716044 -0.030347366 0.048025787
-0.00064134039 -0.030384116 0.044288635
0.0042422786 -0.030828783 0.044105887
0.0047718212 -0.030741567 0.038807809
0.0092664352 -0.031242462 0.039423406
0.01319988 -0.030972132 0.038478971
0.0099764541 -0.031120878 0.035056055
0.014702184 -0.030699337 0.034435511
0.018263787 -0.030802514 0.03338623
0.03063545 -0.025813935 0.034974515
0.020083018 -0.030361347 0.029710114
0.024727996 -0.030697446 0.02926451
0.030055881 -0.027939018 0.029431343
0.021310585 -0.030294867 0.025302827
0.025186723 -0.030481562 0.025024891
0.029142888 -0.028419774 0.025150657
-0.0012572706 -0.030336857 0.041441739
-0.0014436319 -0.030945014 0.038077652
0.0032290677 -0.030882988 0.036727428
-0.00092108361 -0.031542692 0.033519208
0.0039981077 -0.031574689 0.033685386
0.0083761467 -0.030745562 0.032718062
0.012393488 -0.029756164 0.030914009
0.0041100527 -0.031767029 0.029139698
0.0091407038 -0.030870158 0.028756559
0.014027438 -0.029664386 0.028090775
0.018368814 -0.029432185 0.026986301
0.014523028 -0.029877489 0.023756325
0.018720753 -0.029935364 0.02356118
0.024691505 -0.030151598 0.021860719
0.029822038 -0.024856679 0.021165967
0.01973943 -0.030913923 0.019180715
0.024360947 -0.030226972 0.019061506
0.027513262 -0.027274542 0.018705308
0.021318514 -0.031436995 0.014395416
0.024470711 -0.030303374 0.014375329
-0.002505485 -0.030973108 0.029878199
-0.0015436495 -0.030911218 0.026413798
0.003381297 -0.03048813 0.024689138
0.0034142868 -0.030069435 0.021340728
0.0085196439 -0.029578777 0.021362782
0.012383522 -0.029355779 0.020572543
0.01371478 -0.029467961 0.016616106
0.017330203 -0.030278903 0.015536487
0.028564043 -0.023916673 0.015290678
0.013967175 -0.029669026 0.012615979
0.018754339 -0.030482804 0.011777103
0.024063885 -0.029611379 0.010430992
0.027763966 -0.025733549 0.011094868
0.020543117 -0.03009438 0.0076228976
0.023642495 -0.028887223 0.0064355135
0.027457951 -0.02620185 0.0071399808
-0.0027525676 -0.029939851 0.020087063
0.00095410272 -0.029657586 0.019012511
-0.0020658812 -0.030218961 0.014986277
0.0026423847 -0.02978885 0.015255511
0.0073786969 -0.028648352 0.015060365
0.0028764131 -0.030064296 0.010314822
0.007788816 -0.02905931 0.0098708272
0.012322153 -0.029130749 0.010098338
0.0093302513 -0.029381916 0.0059347153
0.013202433 -0.029484766 0.0052338839
0.017766736 -0.029353056 0.0054608583
0.02801119 -0.024405412 0.004203558
0.018694207 -0.02939585 0.00023120642
0.023204532 -0.028325994 0.0003567338
0.026984628 -0.025598431 -7.8976154e-05
0.00069167465 -0.030301183 0.0085648894
0.005625268 -0.029128518 0.0068376064
-0.0021377075 -0.028403759 0.0039795041
0.0019799452 -0.028968088 0.0037174821
0.0069169444 -0.029076969 0.0036571622
0.0032603983 -0.028698158 -0.0008212924
0.0071680541 -0.028376317 -0.00082308054
-0.00012428127 -0.029227242 0.00083559752
