# .PCD v0.7 - Point Cloud Data file format
VERSION 0.7
FIELDS x y z
SIZE 4 4 4
TYPE F F F
COUNT 1 1 1
WIDTH 431
HEIGHT 1
VIEWPOINT 0 0 0 1 0 0 0
POINTS 431
DATA ascii
-0.02381134 0.022207819 0.18275565
-0.026764905 0.019336691 0.18195358
-0.022526603 0.02668196 0.17986637
-0.025222592 0.024156196 0.18050212
-0.027712055 0.020452615 0.17943805
-0.029260289 0.018305203 0.17896748
-0.024437692 0.028506575 0.17667022
-0.02764095 0.026482327 0.17633155
-0.028459903 0.022378732 0.17548403
-0.024596009 0.028985012 0.17104712
-0.027731048 0.027521662 0.17085165
-0.028793637 0.023852307 0.17196938
-0.026734684 0.011553828 0.18478563
-0.026864383 0.0098152962 0.18388006
-0.013169042 0.028087495 0.18035987
-0.015060729 0.025937218 0.18164065
-0.018487301 0.023976058 0.18240428
-0.021377845 0.020284964 0.18351534
-0.024969868 0.017380923 0.18359885
-0.027737727 0.014631776 0.18247616
-0.028857511 0.011424063 0.18090725
-0.013639565 0.028693814 0.1782093
-0.016718252 0.028040547 0.17842251
-0.019610642 0.0266934 0.17951092
-0.02959948 0.016561002 0.17813972
-0.02979734 0.013268385 0.17636195
-0.017587125 0.028543517 0.1742923
-0.020791627 0.028608259 0.17529777
-0.029074166 0.020226303 0.17454761
-0.029739033 0.017405879 0.17347974
-0.022036338 0.028613286 0.17016077
-0.028819118 0.022109037 0.16953909
-0.029362377 0.018245887 0.16930211
-0.022456352 0.028038081 0.16577166
-0.026734384 0.026707556 0.16501266
-0.027610164 0.02300832 0.16449988
-0.008616738 0.023938883 0.1837284
-0.010975336 0.021636209 0.18454388
-0.013980113 0.019530533 0.18449804
-0.017260673 0.016431181 0.18380386
-0.020843817 0.012435479 0.18370566
-0.023188107 0.0099930717 0.18428367
-0.0099539962 0.026682042 0.18129659
-0.012564998 0.024051752 0.1827879
-0.015829535 0.021220289 0.18320721
-0.018404709 0.019128697 0.18326053
-0.028622242 0.008755248 0.18050426
-0.010905825 0.028480548 0.17637536
-0.029453274 0.0099459616 0.17482632
-0.012429707 0.028647285 0.17157653
-0.015397508 0.028390659 0.17130402
-0.029400336 0.015065048 0.16991529
-0.029077187 0.011501485 0.1701417
-0.016435878 0.028414462 0.1675587
-0.019913927 0.028184056 0.16732875
-0.028277364 0.019787025 0.16661164
-0.028622761 0.015963864 0.16602182
-0.017704833 0.028543651 0.16321477
-0.020504933 0.027775556 0.16310304
-0.025488507 0.026031535 0.16153669
-0.02760784 0.020957684 0.16260332
-0.027825741 0.017564539 0.16325012
-0.02136527 0.027929131 0.15816024
-0.025699174 0.026123747 0.1580143
-0.027671145 0.022000412 0.1574921
-0.023077969 0.028432176 0.15341663
-0.025733864 0.026992638 0.15318638
-0.027655257 0.024053006 0.15259975
-0.026311392 0.027204895 0.14971492
-0.0066992114 0.017578093 0.18416288
-0.0094726607 0.014701689 0.18387225
-0.012188195 0.011768171 0.1835233
-0.016032912 0.009014599 0.18379897
-0.020258078 0.0062475461 0.18497154
-0.0076358253 0.020405 0.18433744
-0.011870736 0.016188297 0.18399045
-0.01382282 0.013457341 0.18339604
-0.017308384 0.011707482 0.1833348
-0.0089515699 0.028095219 0.17285693
-0.0094280289 0.028342724 0.16910014
-0.029052265 0.0096680922 0.16724086
-0.011965098 0.028751791 0.16552866
-0.027815927 0.013720804 0.16284019
-0.028502837 0.010556241 0.16318309
-0.012305293 0.029202174 0.16078663
-0.015026246 0.028521033 0.16101882
-0.027281418 0.015008321 0.15939739
-0.028019125 0.011175782 0.15960464
-0.012733419 0.029120132 0.15687189
-0.016314426 0.02840998 0.15668315
-0.01939163 0.028313234 0.15608132
-0.027492331 0.019497527 0.1559099
-0.027322406 0.01605776 0.15497053
-0.017725399 0.028667368 0.15357673
-0.020559708 0.028403055 0.15169197
-0.028108031 0.021488525 0.15091646
-0.028070599 0.018422384 0.15091547
-0.021815667 0.028125387 0.14729092
-0.024973694 0.027221683 0.14662081
-0.027530434 0.022925122 0.14588308
-0.028359603 0.018931111 0.14669999
-0.025096605 0.026044117 0.14212668
-0.02696204 0.023900149 0.14167631
-0.0048929108 0.015756564 0.18414804
-0.0070469687 0.012225316 0.18394411
-0.010139639 0.0096266298 0.18413538
-0.013582302 0.0068605328 0.18408439
-0.028257811 0.010301499 0.15682346
-0.011623058 0.029107921 0.15443408
-0.013707595 0.028373551 0.15413028
-0.028009662 0.014378915 0.15312651
-0.028290022 0.011052858 0.15245736
-0.011952871 0.028727677 0.15063506
-0.015195362 0.028218467 0.15013158
-0.027870819 0.01539699 0.14899248
-0.027964553 0.012606027 0.14830285
-0.01623131 0.027628891 0.14562169
-0.019257298 0.027673241 0.14516991
-0.028610211 0.017177526 0.14378661
-0.020336613 0.027148748 0.14014518
-0.023748502 0.026693977 0.13992387
-0.027861424 0.022637123 0.13944042
-0.029015683 0.018680872 0.13937151
-0.021001264 0.027313907 0.13568196
-0.02426148 0.026593918 0.1353333
-0.027604122 0.024113601 0.13554823
-0.028995311 0.020657677 0.13490799
-0.025283888 0.026164189 0.13158593
-0.027195949 0.024287174 0.13145086
-0.0033969174 0.0065738228 0.1839515
-0.0059655537 0.0053135934 0.18444279
-0.009176516 0.0028067969 0.18455249
-0.0044005085 0.0095400307 0.18372935
-0.0076676221 0.0070705777 0.18434373
-0.010661189 0.0043654395 0.18424746
-0.027939443 0.0086407494 0.14873433
-0.0090083126 0.027930968 0.1467534
-0.012963954 0.028064413 0.14700341
-0.027703892 0.0099402051 0.14535743
-0.010211983 0.027440783 0.14330378
-0.01356845 0.027556589 0.14296895
-0.027589407 0.01156396 0.1408816
-0.014560766 0.027355645 0.13795626
-0.017494865 0.026921891 0.13877633
-0.028901188 0.016041778 0.13768566
-0.028401729 0.013092229 0.13703144
-0.015079818 0.027793642 0.13406318
-0.018834319 0.02737269 0.13383818
-0.022640688 0.027236134 0.13272086
-0.028705291 0.018004663 0.13310075
-0.028816108 0.014220569 0.13271487
-0.019768719 0.028104346 0.12931824
-0.023531029 0.026680317 0.12880656
-0.02668355 0.02392865 0.12808496
-0.02808645 0.020185158 0.12840724
-0.020566303 0.028457731 0.12470978
-0.023633098 0.026836766 0.12345535
-0.026205398 0.023923799 0.12326825
-0.027428985 0.021028163 0.123788
-0.024887225 0.026376249 0.12001306
-0.0033498344 0.0026146192 0.18455026
-0.027842965 0.0089437952 0.13942251
-0.0089193769 0.027233658 0.13615757
-0.011324837 0.02708881 0.13607174
-0.028059043 0.010191461 0.13421071
-0.013691426 0.027824713 0.13158581
-0.028429132 0.012237833 0.1300489
-0.015150897 0.028084615 0.12774503
-0.017988222 0.028581275 0.12720793
-0.028227543 0.017794287 0.12698123
-0.028162878 0.014394844 0.12604439
-0.015867643 0.028599761 0.12316948
-0.018664464 0.028388398 0.12245968
-0.026867567 0.022556165 0.120601
-0.027561843 0.018728115 0.1221258
-0.028053284 0.015841745 0.12277249
-0.019655559 0.028531726 0.11846834
-0.023468297 0.027230605 0.11759359
-0.026339957 0.024120515 0.1174472
-0.027281573 0.020380806 0.11789554
-0.020858269 0.028332306 0.11514091
-0.023879122 0.027134728 0.11246783
-0.026458597 0.024528157 0.11196244
-0.027440462 0.021551419 0.11350423
-0.025122533 0.027208032 0.10905427
-0.026133761 0.026300775 0.10904008
0.00048657242 -0.0013265125 0.18438983
-0.010651506 0.026855526 0.12886155
-0.011619039 0.02680588 0.12453654
-0.028099436 0.011912567 0.12321347
-0.028381761 0.0092520043 0.12266171
-0.01279272 0.027001802 0.11949271
-0.027598437 0.013316425 0.11874747
-0.027890105 0.0098880911 0.11891973
-0.01423629 0.027394364 0.11568242
-0.017494364 0.028713226 0.11640573
-0.027522447 0.018084079 0.11568552
-0.027734475 0.015084798 0.11475539
-0.018860424 0.028098509 0.11191517
-0.021746289 0.027515959 0.11122561
-0.027460407 0.019172965 0.11072415
-0.027986677 0.016346628 0.11044687
-0.019964397 0.028637322 0.10742301
-0.023545839 0.027884103 0.10712683
-0.026551131 0.024895145 0.10673064
-0.027573247 0.020703776 0.10685283
-0.022985835 0.027359681 0.10171729
-0.025737341 0.024674866 0.10225904
-0.027145777 0.021778405 0.1027357
0.0040144008 -0.0045758248 0.18459901
-0.0084327534 0.026141729 0.12315705
-0.0092787892 0.026705898 0.11792153
-0.01183263 0.027065467 0.11315328
-0.027715737 0.012494165 0.11220723
-0.028242463 0.0088554835 0.11177605
-0.013569925 0.02710296 0.10925472
-0.015257532 0.026925996 0.10813338
-0.027944174 0.014090227 0.10798502
-0.016375311 0.027819272 0.10394639
-0.027393397 0.018699167 0.1034742
-0.028229171 0.016107889 0.1039598
-0.019147543 0.027894555 0.10066408
-0.021796547 0.028196309 0.099938571
-0.025924386 0.023289092 0.099743783
-0.02672828 0.019538485 0.09904182
-0.027836103 0.016685495 0.099776506
-0.019152217 0.027669149 0.096064866
-0.022511005 0.027198989 0.095736146
-0.025509242 0.024386145 0.09561795
-0.026233299 0.021212325 0.094914734
-0.023071004 0.027047208 0.091000199
-0.025709987 0.024880318 0.090109229
0.0041364925 -0.0070555182 0.18434292
-0.0083655538 0.027019519 0.1126557
-0.010121557 0.026800022 0.10753411
-0.0276055 0.012217347 0.10461074
-0.012467946 0.02734977 0.10287958
-0.027716335 0.013009084 0.10074955
-0.027317673 0.0095440829 0.10122418
-0.01349391 0.027654467 0.098717153
-0.0153615 0.027260741 0.097553253
-0.026985204 0.01795538 0.096162856
-0.027584266 0.014902215 0.096471906
-0.017129276 0.027329098 0.093460739
-0.026710887 0.019262539 0.092614591
-0.027511002 0.016211055 0.091826856
-0.018293349 0.027177056 0.089252353
-0.022022095 0.027847283 0.089122057
-0.026901307 0.020810639 0.088354409
-0.022533229 0.027291136 0.084132314
-0.025782308 0.025250539 0.08440876
-0.027114509 0.022195714 0.083627403
-0.023320694 0.026906043 0.080035985
-0.025463575 0.025566168 0.079609573
-0.0097264983 0.026747985 0.096339405
-0.026886476 0.011921743 0.094094694
-0.026999358 0.0082487995 0.093978226
-0.010226983 0.026713308 0.092209399
-0.012769133 0.026579307 0.091201127
-0.0272117 0.012934329 0.090464175
-0.027086584 0.010328329 0.089153886
-0.015388014 0.026641475 0.08717066
-0.026590463 0.018024195 0.086001396
-0.02711479 0.01431443 0.085566461
-0.016893385 0.026624199 0.082518935
-0.019259401 0.026624786 0.081420064
-0.026537012 0.018667072 0.081881285
-0.027107354 0.015969567 0.081294835
-0.021262063 0.026523791 0.077311337
-0.025582597 0.024951499 0.076533079
-0.026033586 0.020862347 0.077528536
-0.02287364 0.026841918 0.072635353
-0.025096864 0.025137385 0.072817266
-0.026369298 0.022407634 0.073733449
-0.0080880998 0.026419185 0.088756561
-0.0093146693 0.026777169 0.084167778
-0.012279661 0.0267534 0.084899008
-0.027763022 0.009524297 0.083229184
-0.013589865 0.026872046 0.080202579
-0.027240513 0.013489673 0.078777254
-0.027873786 0.010826992 0.078257322
-0.01471882 0.026305066 0.075418115
-0.017394522 0.026236642 0.075571001
-0.025717927 0.018137075 0.074954212
-0.026064565 0.015491674 0.074362099
-0.018726684 0.026095908 0.070875704
-0.025899 0.019717136 0.070560992
-0.023760056 0.024799546 0.066658318
-0.025918588 0.021506373 0.066099524
-0.023808986 0.024343835 0.062266529
-0.025543539 0.022137048 0.061794341
-0.011510791 0.026943317 0.076971292
-0.0083122766 0.026729528 0.073262274
-0.012096764 0.026170142 0.073125422
-0.025883459 0.012864932 0.071938396
-0.027233744 0.0089080967 0.071500063
-0.009312558 0.027157661 0.069653928
-0.012186956 0.026379794 0.068561733
-0.016102983 0.026087193 0.068966806
-0.025582563 0.017867032 0.067034304
-0.025796672 0.013689267 0.067776799
-0.026882678 0.010546904 0.067364693
-0.013649225 0.025803909 0.065205157
-0.0169966 0.025285192 0.063825011
-0.020729212 0.02504039 0.064943492
-0.025389044 0.018520651 0.063266158
-0.025767855 0.01482238 0.063654721
-0.017770302 0.025975669 0.059634745
-0.021961713 0.024912542 0.058857977
-0.024726855 0.020859728 0.058611035
-0.025439892 0.017446933 0.058415234
-0.018549118 0.02629241 0.05620873
-0.022390036 0.02502582 0.054183304
-0.024941027 0.021859318 0.054676592
-0.022813909 0.025542591 0.050489724
-0.024715196 0.023165457 0.050967574
-0.027196895 0.0094309831 0.065242708
-0.011945991 0.026246278 0.06239742
-0.025690418 0.014206561 0.060425222
-0.026030997 0.010852508 0.060766757
-0.013065267 0.026167572 0.05734092
-0.015987493 0.026595442 0.057919383
-0.025608171 0.01512064 0.056461751
-0.013982825 0.02680812 0.053691089
-0.017734176 0.026907716 0.053461134
-0.025675561 0.020696977 0.052581787
-0.025522806 0.017482514 0.052265286
-0.018724199 0.027304856 0.049017727
-0.021803029 0.026351456 0.048617244
-0.025175609 0.021748211 0.048155963
-0.02544817 0.018641215 0.047831953
-0.019627538 0.027011247 0.044903278
-0.022402834 0.025824044 0.044787943
-0.02522698 0.023658548 0.045043886
-0.0098531581 0.026331449 0.059086859
-0.025694486 0.008848927 0.057360113
-0.010712201 0.026406191 0.055515945
-0.025351027 0.010307157 0.053909838
-0.011796894 0.027022954 0.050896049
-0.025006544 0.013982952 0.049439609
-0.025050618 0.010401794 0.0495345
-0.012382332 0.02722932 0.046278358
-0.015833298 0.027131125 0.045689762
-0.02520835 0.016042985 0.045178831
-0.025070805 0.012133855 0.046062946
-0.013752097 0.02717071 0.043328106
-0.017484346 0.027013768 0.041764617
-0.021760378 0.025363147 0.040885389
-0.024945281 0.021698344 0.041545093
-0.025093488 0.016869815 0.04107517
-0.017582368 0.026937205 0.037621379
-0.021368518 0.025146138 0.037305415
-0.024431679 0.022198003 0.037147939
-0.025425088 0.018628389 0.036765575
-0.018828534 0.02680292 0.03367883
-0.021407995 0.025344949 0.034303188
-0.02429934 0.022221098 0.033903241
-0.024957497 0.0088599324 0.046803594
-0.0096373782 0.027028065 0.043743372
-0.02517405 0.010309432 0.042714953
-0.011846215 0.027122399 0.03995055
-0.025233921 0.014721293 0.038548231
-0.025161237 0.011578919 0.037276268
-0.012767063 0.026593804 0.035922945
-0.015234917 0.026505779 0.033928692
-0.025384564 0.016109539 0.034362912
-0.0257589 0.012361264 0.033987522
-0.016613085 0.026250765 0.030210555
-0.020660134 0.024786714 0.030206501
-0.023341466 0.021436986 0.029498994
-0.024894301 0.018396629 0.029870808
-0.020488003 0.024314361 0.026003301
-0.022526482 0.021792734 0.026017785
-0.025184885 0.0083842855 0.03922075
-0.0090183644 0.026752532 0.037853658
-0.025482673 0.0088171801 0.036542535
-0.010208726 0.026844278 0.033727288
-0.024714427 0.014531709 0.030635118
-0.025981857 0.010797026 0.0321365
-0.026534077 0.0080624418 0.031349719
-0.011791065 0.026792446 0.029457688
-0.015329732 0.026246954 0.028111696
-0.024909642 0.015555886 0.027959287
-0.026108669 0.012213223 0.027972996
-0.012690926 0.027113136 0.025574505
-0.015607353 0.026361153 0.024194837
-0.019267188 0.024707677 0.023873448
-0.022951311 0.020787871 0.023943722
-0.024982087 0.016954778 0.023778439
-0.026334846 0.013487931 0.022362828
-0.017033955 0.026535505 0.01987201
-0.02015722 0.024790946 0.020233214
-0.023318728 0.021877771 0.020172596
-0.025050329 0.018116402 0.018815339
-0.020628396 0.024992578 0.015849948
-0.023554167 0.022418171 0.01426369
-0.025222629 0.019936949 0.01568073
-0.0089355996 0.026825253 0.026632905
-0.026304096 0.010221546 0.024216831
-0.010404415 0.026639627 0.021978199
-0.026564157 0.010662179 0.020407856
-0.026096921 0.0080512036 0.020313203
-0.011089386 0.026625153 0.017666757
-0.014154691 0.026528601 0.016949952
-0.025356743 0.015883248 0.015949368
-0.026053147 0.013667103 0.016264796
-0.016127592 0.025831664 0.013241351
-0.01931287 0.024772899 0.01185751
-0.024951465 0.017748015 0.01166445
-0.026050827 0.013665161 0.011485994
-0.01645619 0.025729286 0.0086691976
-0.019959772 0.024794618 0.0083993077
-0.02292368 0.022063216 0.0081276298
-0.024467843 0.018480761 0.0075359941
-0.0081614302 0.026193405 0.015373468
-0.025622914 0.0099348426 0.013817012
-0.010882962 0.026132541 0.010625839
-0.012979233 0.025536796 0.01014632
-0.025788415 0.010863086 0.0086355805
-0.010905411 0.026456034 0.0054138899
-0.013946645 0.025985805 0.0057338476
-0.017468819 0.024870409 0.0054286718
-0.024458414 0.016683606 0.0052766204
-0.02535391 0.013735292 0.0050577521
-0.015214935 0.025894716 0.0013635159
-0.018815959 0.024383934 0.0015981197
-0.021845633 0.021274278 0.0013000965
-0.024021972 0.017576605 -4.607439e-05
-0.02513274 0.014239836 0.00035041571
-0.025114976 0.010904685 0.0032770634
-0.01241157 0.026240289 -0.00031620264
