# .PCD v0.7 - Point Cloud Data file format
VERSION 0.7
FIELDS x y z
SIZE 4 4 4
TYPE F F F
COUNT 1 1 1
WIDTH 336
HEIGHT 1
VIEWPOINT 0 0 0 1 0 0 0
POINTS 336
DATA ascii
0.010555288 -0.028432386 0.18037105
0.011869372 -0.028542791 0.18037477
-0.010833206 -0.023052745 0.18375146
-0.0075226096 -0.023238914 0.18438095
-0.0038955447 -0.023391826 0.18456727
0.00049604266 -0.023126364 0.18415931
0.0050480994 -0.02288379 0.18405801
0.0094872639 -0.023647735 0.18418226
-0.011834333 -0.025232945 0.1811659
-0.0078466302 -0.026056051 0.18153188
-0.0039039983 -0.02705322 0.18112314
0.00070839538 -0.02705879 0.18085253
0.0053196731 -0.026959214 0.18050522
0.0088431668 -0.027342336 0.180879
0.013672867 -0.02698236 0.18032885
-0.011734747 -0.027001772 0.17680171
-0.0080719199 -0.027745895 0.1764282
-0.0041401046 -0.028060148 0.17551842
0.00048490666 -0.028297918 0.17542237
0.0051038894 -0.028380377 0.17520952
0.009061045 -0.028770396 0.17526475
0.013020001 -0.028289897 0.17467195
-0.0079374257 -0.028380327 0.17187428
-0.0043479535 -0.028691156 0.17052233
-0.00010587381 -0.028734736 0.17048758
0.0044283909 -0.029035041 0.17009574
0.0088804401 -0.029677238 0.17048272
0.012850007 -0.028683493 0.16949886
-0.0031504829 -0.029701557 0.16754809
-0.00096388534 -0.029942648 0.16698971
0.0045506852 -0.030008607 0.16671467
0.0087300027 -0.030005233 0.16615903
0.011378174 -0.02963933 0.16572392
-0.0076975566 -0.016987886 0.18403482
-0.0036831216 -0.017857892 0.18441999
0.00065885752 -0.01782259 0.18459117
0.0049940962 -0.017415302 0.18449569
-0.0083366679 -0.020890474 0.18506226
-0.0023704916 -0.020952139 0.18475106
-0.012832094 -0.026187761 0.17372471
-0.012342364 -0.026352474 0.16984379
-0.0086458996 -0.028126614 0.16924953
-0.011942415 -0.026606236 0.16386503
-0.0085698562 -0.028106537 0.1648111
-0.0047332575 -0.029254675 0.16523123
-0.00037383288 -0.029773133 0.16498676
0.0035775001 -0.029469201 0.16390681
0.0086398423 -0.028957691 0.16260171
0.013051399 -0.028764419 0.16377401
-0.011403405 -0.02770957 0.16097423
-0.0084141567 -0.028087735 0.16062546
-0.0047554942 -0.028736167 0.16044527
-0.0007567326 -0.029126696 0.1605109
0.0038933572 -0.028567672 0.15980607
0.0087268734 -0.028468506 0.15904734
0.012810796 -0.028844936 0.15967923
-0.0077020032 -0.014575329 0.18367547
-0.0036683951 -0.014805027 0.18405408
0.00010442574 -0.014113069 0.1844306
0.0050731031 -0.013803465 0.18464178
-0.013073683 -0.026043329 0.15854931
-0.0091457693 -0.027207308 0.15747991
-0.0048854123 -0.027915359 0.15703326
-0.00087836117 -0.028113792 0.1569514
0.0037919746 -0.028163297 0.15671501
0.0077915746 -0.028166516 0.15648216
0.012144503 -0.027588997 0.15624297
-0.011681718 -0.026728187 0.15464479
-0.0088509079 -0.027370844 0.15364316
-0.0050328989 -0.028039763 0.15340686
-0.0010267912 -0.027654137 0.15286985
0.0032618535 -0.027848737 0.15295696
0.007844504 -0.02819901 0.15260568
0.012175221 -0.027482476 0.15249485
-0.0011620782 -0.028137548 0.14951247
0.0028548986 -0.027953625 0.14913189
0.007544511 -0.028347731 0.14916739
0.010892757 -0.027966807 0.14867073
0.00045530021 -0.0075183087 0.1841203
-0.0036504082 -0.0099874223 0.18336487
0.00041337471 -0.009752512 0.18386996
0.004450805 -0.010576589 0.18421286
-0.0098388661 -0.026556578 0.15065512
0.012970959 -0.026400397 0.14919344
-0.013218153 -0.025647435 0.146606
-0.0093216347 -0.026790056 0.14704543
-0.0052667763 -0.027721984 0.14754474
-0.0012506869 -0.027588027 0.14696807
0.0027492004 -0.02744329 0.14591315
0.0074507329 -0.028076394 0.14613995
0.012345282 -0.026609967 0.14539734
-0.012665523 -0.026463032 0.14257169
-0.0093601365 -0.027608719 0.14226678
-0.0054841884 -0.028197374 0.14227578
-0.0014482588 -0.028171778 0.14201945
0.0025859943 -0.028035624 0.14167428
0.0072942069 -0.027971659 0.14134756
0.011833766 -0.0269491 0.14080536
-0.0083366279 -0.028095398 0.13856772
-0.0056401202 -0.028057184 0.1383794
-0.0016232633 -0.028499315 0.13755131
0.0025640449 -0.028532216 0.13662061
0.006708371 -0.028685894 0.13645506
0.0099245282 -0.028778825 0.13577205
0.00967885 -0.029745596 0.13314527
0.00051661901 -0.0039559263 0.18436682
-0.010995304 -0.026739581 0.13953179
0.012626419 -0.026760528 0.13816825
-0.012943319 -0.025753243 0.13630995
-0.00980331 -0.026866641 0.13575327
-0.0057607288 -0.027853694 0.13536477
-0.0017324548 -0.028484652 0.13468975
0.00097605109 -0.029139314 0.1350643
0.012505746 -0.027631352 0.13507259
-0.0092880316 -0.026875479 0.13190663
-0.0055684224 -0.027324405 0.13157761
-0.0018518546 -0.027852211 0.13131315
0.0023619947 -0.028802378 0.13112646
0.0062430524 -0.029460976 0.13120091
0.011042261 -0.02862009 0.13002014
0.0074667493 -0.02838896 0.12641442
0.0095006395 -0.028195534 0.12613639
-0.011282026 -0.025533199 0.13284576
-0.010298938 -0.025785634 0.12860212
-0.0062938863 -0.02687032 0.12865573
-0.0019758972 -0.02698946 0.12773329
0.00074129552 -0.027092304 0.12765983
-0.0096004615 -0.025905592 0.12438798
-0.0062024454 -0.02715167 0.12425449
-0.0021226907 -0.026971171 0.12386781
0.0019645346 -0.027490191 0.12406117
0.0058683734 -0.028319888 0.12428296
0.010295845 -0.028119871 0.12355024
-0.005671151 -0.027372479 0.12053782
-0.0022656093 -0.027238319 0.12022817
0.0018247467 -0.027321083 0.12006015
0.0061608236 -0.027804136 0.11943614
0.0099684363 -0.028030872 0.11921126
0.014090247 -0.02697536 0.11905992
0.00032167189 0.0057421243 0.1845541
-0.011709928 -0.024516463 0.12294549
-0.011294205 -0.025011778 0.11818153
-0.0066657634 -0.026676945 0.1175127
-0.0023840305 -0.02682204 0.11696982
0.0017143467 -0.02672502 0.11665088
0.0054565966 -0.027074525 0.11624151
0.0098776054 -0.027663946 0.11599541
0.01402985 -0.026662333 0.11661488
-0.010718936 -0.025167141 0.11410624
-0.0065045934 -0.026620695 0.1124
-0.0025717211 -0.026729465 0.11201972
0.001540565 -0.02680094 0.11184281
0.0056516891 -0.02747936 0.11218095
0.0097556002 -0.027768884 0.11218923
0.013865127 -0.026880793 0.11119729
-0.0061424263 -0.027223809 0.10872465
-0.0013380344 -0.027318887 0.10852867
3.2253563e-05 -0.027206235 0.10835326
0.0059345025 -0.027592421 0.10703272
0.0091345022 -0.027966347 0.10716814
0.012378762 -0.026938269 0.10741144
0.0013779689 0.0079041887 0.18439084
-0.01217141 -0.025143692 0.1123507
-0.0081403097 -0.026489241 0.11017728
-0.011496013 -0.025474804 0.10771596
-0.0069002989 -0.027531879 0.10706514
-0.002768771 -0.027505262 0.10713202
0.0014995704 -0.027470622 0.10628164
0.0044980133 -0.027956538 0.10546058
0.010445626 -0.027748194 0.10493863
0.013995961 -0.026409337 0.1056841
-0.01016918 -0.026416132 0.10283703
-0.0070790555 -0.02779494 0.10269845
-0.0032529528 -0.028019428 0.10267258
0.0011699636 -0.028299348 0.1023311
0.0054761288 -0.028435912 0.10177732
0.0094170831 -0.028143935 0.10172153
0.013581669 -0.026626162 0.10115546
-0.0072505856 -0.027852876 0.098463953
-0.0028365063 -0.028341703 0.098438621
0.0010239604 -0.027932577 0.098057985
0.004876154 -0.027917504 0.097624779
0.0092936726 -0.027784619 0.097453475
-0.01243399 -0.024592485 0.095580637
-0.0087617282 -0.025843723 0.094941676
-0.0032545861 -0.026396666 0.093970835
0.00089180737 -0.025844693 0.093248069
0.0050489297 -0.026094062 0.093228519
0.0092026461 -0.026158588 0.093046844
0.013236398 -0.025739091 0.09419179
-0.0070792311 -0.026460478 0.090910852
-0.0033944712 -0.027056949 0.090557992
0.0007584425 -0.026659625 0.089969158
0.004917067 -0.026513509 0.089601696
0.0090773012 -0.026372552 0.089238644
-0.0063126092 -0.02759007 0.087183774
-0.0033449382 -0.028198497 0.086216033
0.00017490238 -0.028130753 0.085570931
0.0096437354 -0.027341008 0.086049139
-0.0094681932 -0.025722692 0.089056075
0.013247622 -0.025093112 0.0878672
-0.012443224 -0.025071962 0.08461529
-0.0091981748 -0.026690535 0.084528506
-0.0050428724 -0.02791919 0.084182501
0.0019121884 -0.028017282 0.084074914
0.0047194296 -0.027341418 0.084316671
0.0086707547 -0.027344687 0.083517611
0.013061524 -0.026360035 0.082960606
-0.0079615805 -0.026958551 0.080654323
-0.0044941595 -0.02804625 0.080424249
0.00017854891 -0.028134737 0.079476535
0.0045193085 -0.027945757 0.078804612
0.0086962963 -0.028250456 0.078843176
0.012878521 -0.027218394 0.07767123
-0.0097223753 -0.025707874 0.07840693
-0.0046475464 -0.026266644 0.075774491
-0.00045086816 -0.026356153 0.075616717
-0.013028339 -0.024622831 0.073120892
-0.0096556973 -0.025292926 0.073129714
-0.0056610894 -0.025718758 0.072707057
-0.0012667786 -0.026040981 0.072313905
0.0036380908 -0.026280181 0.072253048
0.0085384548 -0.026790211 0.072439373
0.012736297 -0.026502013 0.071937621
-0.0093636699 -0.02596266 0.068944752
-0.0056288918 -0.02608083 0.068499029
-0.0014414032 -0.026843803 0.067936301
0.0030548684 -0.026823061 0.067866981
0.0078620305 -0.026762979 0.067146719
0.012287886 -0.025657961 0.067605853
-0.00087683328 -0.027629051 0.064518273
0.0019310021 -0.027566519 0.064301133
0.0075473976 -0.027486973 0.063908994
-0.010160331 -0.025644524 0.06663847
-0.0057338332 -0.026740398 0.066029012
0.012564128 -0.02559231 0.064958215
-0.0086663757 -0.025328074 0.062822044
-0.005400267 -0.026611805 0.062450469
-0.0018813988 -0.027371356 0.061680615
0.0027437082 -0.027601056 0.061633527
0.0065587866 -0.027375035 0.061206639
0.010819291 -0.026263833 0.061110675
-0.0018280084 -0.026286313 0.057110131
0.0017030032 -0.026357226 0.056977153
0.0073496965 -0.026810033 0.057083368
0.0094668763 -0.026247332 0.056435108
-0.01044882 -0.024065597 0.060504735
-0.0069249752 -0.02520694 0.059156537
0.011650351 -0.02534713 0.057544708
-0.0103506 -0.024747593 0.056145728
-0.0061214985 -0.025622759 0.055687726
-0.0016600239 -0.025765197 0.053694129
0.0023190714 -0.025705934 0.053899646
0.0065757707 -0.025798662 0.054094315
0.011129634 -0.025077991 0.053992033
-0.010551207 -0.025186505 0.051348865
-0.0062865135 -0.025488036 0.051393807
-0.0023154521 -0.025703941 0.049978197
0.002370653 -0.0257934 0.049549997
0.0062566646 -0.025840912 0.04971236
0.010481463 -0.025113294 0.049743414
0.00297654 -0.026723027 0.046107531
0.0062771034 -0.02680283 0.0456478
-0.010688153 -0.024941683 0.047976911
-0.0064180139 -0.025099499 0.047886789
-0.0021468273 -0.025482979 0.048011661
0.011131395 -0.024544971 0.047070086
-0.010675866 -0.024809055 0.043896854
-0.0065831402 -0.025035176 0.043619812
-0.0022971556 -0.025712423 0.044029772
0.0014808348 -0.026381187 0.043758094
0.0061759111 -0.026831899 0.042523921
0.010507924 -0.025423408 0.043032467
-0.0024587698 -0.025286743 0.039403021
0.0017900409 -0.025693774 0.038498342
0.0060717231 -0.026194811 0.038743079
0.0089563048 -0.025125198 0.038605988
-0.012413165 -0.023810966 0.040656805
-0.011093386 -0.024472885 0.038038313
-0.0067974967 -0.024659107 0.037977755
-0.002538481 -0.025167244 0.037169874
0.003108677 -0.025476336 0.035027802
0.0059681418 -0.025660004 0.035046518
0.010632967 -0.02462462 0.036754191
-0.011297707 -0.024925487 0.03316468
-0.0069740531 -0.025859663 0.033836126
-0.0026834607 -0.025744252 0.03348273
0.0014203702 -0.025698321 0.032941461
0.0058673131 -0.026111636 0.032298505
0.010193956 -0.025091426 0.032124162
-0.01005458 -0.025752733 0.028559148
-0.007163628 -0.026549015 0.029183686
-0.0028685397 -0.026287181 0.028685331
0.0014599088 -0.025530696 0.028769016
0.0057302266 -0.026098507 0.028018653
0.0096908184 -0.025421109 0.027665615
0.012937814 -0.02478734 0.027395368
-0.01181347 -0.024531178 0.026376069
-0.0073127043 -0.025609069 0.025042295
-0.0030091975 -0.025005648 0.024203658
0.0013388071 -0.024572253 0.024606586
0.0056225806 -0.025046928 0.02376312
0.01025115 -0.025175624 0.024493396
-0.011717415 -0.024220143 0.02283138
-0.0074472269 -0.025269372 0.021477401
-0.0031269065 -0.025070889 0.02103883
0.0012070547 -0.024374127 0.020643234
0.0055181244 -0.024852123 0.020338833
0.0095601752 -0.025171332 0.02064836
0.0068600145 -0.025588427 0.017755985
0.0087606059 -0.025543673 0.016882718
-0.012139978 -0.023148434 0.019406557
0.0011468726 -0.023988962 0.018639326
0.011256503 -0.023979256 0.018066823
-0.011446331 -0.023239732 0.015113056
-0.0076806908 -0.024375353 0.015173614
-0.0033356559 -0.024547935 0.015106261
0.0010066618 -0.024723019 0.015041888
0.0051563838 -0.025050759 0.014869571
0.010141828 -0.024839096 0.013926327
-0.0075065228 -0.024446368 0.010329127
-0.0033366871 -0.024958951 0.0096027255
0.00079362735 -0.025675485 0.009477973
0.005139716 -0.025736945 0.0092993379
0.0093132397 -0.025254607 0.0088506937
0.00065032556 -0.026198439 0.005641818
0.00499974 -0.025798611 0.0049914718
0.0079025635 -0.025720648 0.0047510862
-0.0086783189 -0.023769839 0.0080650449
-0.0079375887 -0.023453901 0.0035794377
-0.0039350977 -0.024159295 0.0035297275
0.00059151649 -0.025092499 0.0031913519
0.004922227 -0.024506757 0.0014704466
0.009339733 -0.024316397 0.0026810765
0.00047742683 -0.024396658 -0.00060456991
-0.0096853739 -0.023104191 0.00083559752
