# .PCD v0.7 - Point Cloud Data file format
VERSION 0.7
FIELDS x y z
SIZE 4 4 4
TYPE F F F
COUNT 1 1 1
WIDTH 419
HEIGHT 1
VIEWPOINT 0 0 0 1 0 0 0
POINTS 419
DATA ascii
0.023957485 -0.024765113 0.17886722
0.023230072 -0.027321149 0.17575571
0.024938889 -0.025855817 0.1757535
0.025690358 -0.02625785 0.17273167
0.015645731 -0.025567818 0.18073159
0.018355545 -0.023849227 0.1822696
0.021776656 -0.020479558 0.18252775
0.024126025 -0.016589707 0.18185115
0.026135322 -0.014926642 0.18097156
0.016419515 -0.026648592 0.17784938
0.020230737 -0.025952935 0.17893875
0.023809206 -0.022506617 0.1791155
0.025506262 -0.018268321 0.17712516
0.026572445 -0.015534999 0.17790374
0.017771479 -0.027543586 0.17320096
0.020882247 -0.027789129 0.17487139
0.025790289 -0.023240246 0.17466727
0.025831122 -0.019950397 0.17315972
0.02197363 -0.027994229 0.17030108
0.025996102 -0.02591634 0.16995826
0.026018716 -0.021120772 0.16900533
0.023355419 -0.027941076 0.16708255
0.025656901 -0.025672037 0.16553766
0.022319276 -0.0068524359 0.18553627
0.0085189948 -0.024186406 0.18321437
0.011037085 -0.021963246 0.18407401
0.013777078 -0.01928669 0.18455866
0.017665692 -0.01642463 0.18412051
0.02066138 -0.012623332 0.18410161
0.023525568 -0.010109423 0.18427935
0.0097269993 -0.026288832 0.18096781
0.013103103 -0.024603562 0.18179291
0.015677772 -0.021074157 0.1830537
0.01840445 -0.019128811 0.1832605
0.025978433 -0.012229586 0.18058807
0.026486056 -0.0086522046 0.17942876
0.01095491 -0.02798618 0.17650867
0.014318402 -0.027154241 0.17630002
0.026569694 -0.013529733 0.17471868
0.02655429 -0.0098647783 0.17559415
0.012288868 -0.028515086 0.17143193
0.015227713 -0.027856216 0.17213041
0.026254265 -0.017910479 0.17137364
0.026780462 -0.014441827 0.17032301
0.016480993 -0.028216172 0.16769552
0.019497307 -0.027786614 0.16688833
0.026410062 -0.019183535 0.16689718
0.026890296 -0.015776668 0.16664231
0.017618425 -0.028569367 0.16395414
0.020542918 -0.027410632 0.16329005
0.025005195 -0.024587173 0.16264352
0.02637377 -0.020525049 0.16302806
0.021116732 -0.026735881 0.15911189
0.024007706 -0.025352949 0.15761015
0.02488943 -0.022373756 0.15906525
0.025390008 -0.025094522 0.1535365
0.0065692556 -0.017455244 0.18403482
0.0096013043 -0.014825925 0.18400049
0.012956753 -0.012517186 0.18429297
0.016189007 -0.0091688968 0.18395641
0.019621497 -0.0063446942 0.18509248
0.0091145914 -0.019979233 0.18479401
0.012999037 -0.016356194 0.18461078
0.015126038 -0.01472744 0.18470645
0.01706958 -0.011993973 0.18410659
0.0093405219 -0.028457109 0.17325294
0.0095957126 -0.028498655 0.16927221
0.027025077 -0.01267393 0.16736248
0.026540719 -0.0084893098 0.16757667
0.011760443 -0.028560579 0.16531494
0.014678815 -0.028681116 0.16499987
0.026482029 -0.013577444 0.16331908
0.026795417 -0.010035194 0.16326433
0.011715801 -0.02847676 0.1609295
0.015011184 -0.028035607 0.16047895
0.025685523 -0.018074322 0.1593942
0.025906954 -0.014575478 0.15942413
0.015763149 -0.027780015 0.15638128
0.019551611 -0.027174963 0.15672126
0.024916118 -0.019455841 0.1553252
0.02573573 -0.015744282 0.15556949
0.01672289 -0.027716989 0.1524905
0.020164922 -0.027263865 0.15175861
0.023972377 -0.025906395 0.15119618
0.025471866 -0.021300007 0.15112829
0.019783601 -0.027269259 0.14820206
0.02375441 -0.025649741 0.14742798
0.025210902 -0.022374384 0.14713943
0.0048222048 -0.015689123 0.18407834
0.0078631276 -0.013051367 0.18404242
0.010088828 -0.0095866928 0.1839079
0.013328605 -0.0066106347 0.18383068
0.026987072 -0.0082027027 0.16106111
0.0093663763 -0.028308352 0.15841112
0.025868546 -0.012918066 0.15675792
0.026998606 -0.0094998665 0.15648067
0.011581066 -0.028583385 0.15456665
0.013840594 -0.027907114 0.15361094
0.026195291 -0.01417826 0.15277776
0.026735276 -0.010121711 0.15274826
0.011848491 -0.028630041 0.15052277
0.014814923 -0.027858691 0.14971831
0.026307873 -0.018593114 0.14916924
0.026676662 -0.015673477 0.14880812
0.015972588 -0.027383804 0.14533842
0.01905353 -0.026971623 0.145226
0.023220642 -0.025282023 0.14411029
0.02578019 -0.021158371 0.14482349
0.026830122 -0.017947242 0.14389202
0.019597605 -0.026206672 0.14118922
0.023081202 -0.025396608 0.13939634
0.025758995 -0.022196943 0.13923141
0.026921913 -0.019011408 0.14066342
0.023539666 -0.025108296 0.1356796
0.024738165 -0.023469644 0.13530764
0.0024570278 -0.0075406623 0.18404561
0.0060146223 -0.0048653339 0.18468162
0.0047866665 -0.0099372268 0.18366519
0.0076488792 -0.0070762415 0.18388128
0.010452093 -0.004159377 0.18403941
0.026203673 -0.0087227449 0.14945948
0.0091374787 -0.028051648 0.14689314
0.012894651 -0.027999328 0.14692813
0.026679337 -0.013297475 0.1461738
0.026004635 -0.0098873572 0.14509362
0.010732456 -0.027927209 0.14387026
0.013672047 -0.027654141 0.14308271
0.026428452 -0.014210479 0.14187989
0.02649935 -0.011379201 0.14114526
0.014520688 -0.027317764 0.13791177
0.017795302 -0.026445016 0.13848576
0.02668941 -0.016978312 0.13740066
0.02645711 -0.013460459 0.13764963
0.015409317 -0.027504966 0.13374352
0.018666223 -0.026694357 0.13427734
0.022753956 -0.025397057 0.13321841
0.025684418 -0.022392469 0.13301045
0.026728224 -0.018113304 0.13329166
0.019643437 -0.027259286 0.12919605
0.022799687 -0.025894156 0.12853307
0.025784532 -0.023000201 0.12796289
0.026846141 -0.019678056 0.12884584
0.02026609 -0.02778941 0.12540093
0.022875587 -0.026003582 0.12442878
0.025616385 -0.023027316 0.12405482
0.027156498 -0.020666424 0.12532851
0.0036871654 -0.0033100543 0.18526125
0.025923783 -0.0085700657 0.13882494
0.0092229769 -0.027410317 0.13563043
0.01155473 -0.027304351 0.13632706
0.026522767 -0.011465969 0.13431975
0.013415894 -0.02784686 0.13192797
0.016872574 -0.027197376 0.13147709
0.027179303 -0.016526932 0.13040259
0.026850751 -0.012818275 0.13010558
0.015423702 -0.027903931 0.12729862
0.017116621 -0.027645785 0.12805992
0.027150661 -0.017455902 0.12675554
0.027138587 -0.014750805 0.12543455
0.015203441 -0.027917193 0.12333679
0.018547298 -0.027860934 0.12283149
0.023183508 -0.026067538 0.12194735
0.0253704 -0.02337886 0.1217379
0.026869036 -0.018934958 0.12253621
0.019644162 -0.027688244 0.11830848
0.022671532 -0.026409727 0.11824226
0.025592681 -0.023068793 0.11804485
0.02641568 -0.020259742 0.11791515
0.022984644 -0.026173415 0.11446077
0.025480151 -0.023377128 0.1145485
0.010873008 -0.027120061 0.12818432
0.026906144 -0.010454795 0.1274336
0.011694694 -0.026693014 0.1249879
0.026873818 -0.011596838 0.12331054
0.026823562 -0.0085581867 0.12331322
0.013069462 -0.02663872 0.11941499
0.016727291 -0.027712297 0.12018377
0.026589712 -0.017082056 0.11953235
0.026974648 -0.013459016 0.11901212
0.017268866 -0.028004583 0.11630964
0.026771279 -0.018215543 0.11555737
0.026955526 -0.015093975 0.11393708
0.018980853 -0.027586404 0.11164892
0.02222253 -0.026425794 0.11156684
0.025332622 -0.023379214 0.1115495
0.026802948 -0.019283039 0.11094552
0.019617025 -0.027519867 0.10708159
0.022509303 -0.026573472 0.10713828
0.025593342 -0.023878073 0.10714138
0.026852787 -0.020599771 0.10702544
0.022968229 -0.026275232 0.10328555
0.024885636 -0.024335936 0.10311538
-0.0039090565 0.004472218 0.18470094
0.0085208183 -0.026083358 0.12239224
0.0092606116 -0.026129158 0.11796468
0.026814114 -0.010865889 0.11602956
0.027336668 -0.0084338663 0.11574781
0.012452567 -0.026709611 0.11327058
0.026807893 -0.012042084 0.11189705
0.027204517 -0.0084629888 0.11178589
0.013265035 -0.026815604 0.1088962
0.015130883 -0.026750775 0.10892695
0.027075354 -0.017498121 0.10774285
0.027013008 -0.014448508 0.10768735
0.017030399 -0.027313311 0.10448319
0.026418181 -0.01834177 0.10333467
0.026788369 -0.015415028 0.10327262
0.018594379 -0.026920678 0.099204004
0.021690505 -0.026396642 0.10009176
0.024614723 -0.022971643 0.09952265
0.025832254 -0.019874699 0.10006207
0.021780681 -0.025941812 0.095956147
0.024142718 -0.023779912 0.095203757
-0.0070060953 0.004103404 0.18463039
-0.004136493 0.0070555178 0.18434292
-0.0031799378 0.0080395294 0.18424714
0.0082762465 -0.026438188 0.11272436
0.0097960616 -0.026537966 0.10734791
0.026690997 -0.011166242 0.10636377
0.026599873 -0.0080951229 0.10531223
0.012126426 -0.026470669 0.10359424
0.014981819 -0.027054818 0.10116267
0.026658768 -0.012802674 0.10106832
0.012775707 -0.026864558 0.099767387
0.015116164 -0.026738837 0.097727656
0.025913401 -0.01811905 0.096969366
0.026462991 -0.014605984 0.096022129
0.017150104 -0.026431784 0.093403697
0.021168627 -0.026351344 0.09318912
0.024891058 -0.022875072 0.093251944
0.026011158 -0.019108899 0.092384458
0.026644811 -0.015810456 0.09155041
0.021664701 -0.026448455 0.089011729
0.024990004 -0.024178751 0.089206278
0.0264364 -0.020780694 0.087772071
0.022238951 -0.026223108 0.084279358
0.025228266 -0.02471127 0.083706439
0.02670911 -0.022256471 0.083927333
0.025244001 -0.024927389 0.079843283
0.0092904484 -0.026339628 0.095818639
0.011685366 -0.02606689 0.094629586
0.025938328 -0.010879423 0.094849706
0.026068203 -0.0082359137 0.09358269
0.012980767 -0.025931779 0.091294229
0.026423704 -0.012610011 0.090285778
0.026558854 -0.0097515462 0.089464068
0.015433737 -0.025805317 0.086920917
0.026574321 -0.018008184 0.085980356
0.026762938 -0.014430018 0.085938573
0.016590573 -0.025829725 0.082302511
0.019667063 -0.025824368 0.081926942
0.026535664 -0.019787021 0.081536114
0.026990522 -0.015852883 0.081145585
0.021406958 -0.026075942 0.077293038
0.025333278 -0.025165342 0.077033997
0.025873834 -0.020194525 0.077478647
0.022824593 -0.02679465 0.072572172
0.024996135 -0.02503971 0.072687447
0.026174324 -0.022216136 0.073481023
0.0079792337 -0.026074242 0.088749707
0.011222232 -0.025976285 0.088285744
0.0095202448 -0.026462279 0.084583223
0.011980424 -0.026180128 0.084435821
0.027131222 -0.012689819 0.08271873
0.027702302 -0.0094632683 0.083151937
0.013497531 -0.026221924 0.0799945
0.016437232 -0.025849327 0.079191089
0.026921436 -0.013168816 0.078367233
0.027593695 -0.010635931 0.078907192
0.014685579 -0.026273571 0.07537657
0.017333731 -0.025964931 0.075753152
0.025758889 -0.018689804 0.074852407
0.026145492 -0.015572302 0.074466765
0.019032916 -0.026276508 0.071578622
0.025997039 -0.019594602 0.070244193
0.026119025 -0.016245207 0.070329249
0.021814264 -0.025979467 0.068322957
0.024393698 -0.024707934 0.066987038
0.02563691 -0.021229906 0.065729797
0.011217164 -0.026609441 0.077584028
0.027132718 -0.0083993133 0.075758159
0.0084011359 -0.02651849 0.073273718
0.011920482 -0.026004095 0.072904289
0.025693994 -0.012674641 0.071692705
0.026602415 -0.0088619161 0.071671128
0.012227277 -0.02614338 0.069022417
0.016915347 -0.02595197 0.068348825
0.025799867 -0.013717282 0.067214131
0.026371906 -0.010507984 0.067539334
0.013516994 -0.025678853 0.065036476
0.017308159 -0.025297968 0.064173996
0.020833228 -0.025193732 0.064088762
0.025616104 -0.018605793 0.06295079
0.025729615 -0.015476492 0.063401401
0.017743586 -0.025589684 0.060034335
0.022117658 -0.024083933 0.059417009
0.024542734 -0.021254394 0.058479011
0.02560067 -0.01760623 0.058628619
0.021909239 -0.024394954 0.054494202
0.02490768 -0.021558208 0.054192722
0.025841059 -0.018693687 0.055409133
0.023008607 -0.024770241 0.051030099
0.024693597 -0.023144498 0.050938666
0.011376897 -0.026441613 0.066309214
0.026462425 -0.0091647664 0.065122545
0.011549752 -0.025549855 0.061664343
0.015242435 -0.02560617 0.061928868
0.025487015 -0.013249746 0.061692715
0.025584953 -0.0099596512 0.060834646
0.01246153 -0.025025273 0.057716429
0.016233902 -0.025655996 0.057616532
0.025540721 -0.015053123 0.056372821
0.01733857 -0.025649406 0.053202629
0.02032607 -0.025240429 0.053469658
0.025980683 -0.017274773 0.052410007
0.018145576 -0.025951322 0.048767149
0.021378258 -0.025256479 0.048249245
0.025415694 -0.02198513 0.048481107
0.02629167 -0.018798256 0.048834562
0.022231827 -0.024885053 0.043784738
0.024826014 -0.02288094 0.043468177
0.0092264451 -0.025685161 0.059282243
0.02493318 -0.0093890671 0.057959616
0.011131213 -0.025830392 0.055371165
0.024979055 -0.0093414607 0.05422467
0.011408462 -0.026385918 0.050718606
0.015079613 -0.026074469 0.050732493
0.025503829 -0.014525805 0.049098432
0.024691915 -0.011047119 0.049765408
0.012073772 -0.026891878 0.046679497
0.016337305 -0.026291654 0.045758009
0.025719916 -0.016589256 0.045062184
0.025038891 -0.012101829 0.046019793
0.013588575 -0.027016543 0.043111205
0.017140547 -0.026394593 0.041342199
0.020600913 -0.025173673 0.041044414
0.025619894 -0.021183264 0.04139787
0.025285628 -0.017440584 0.040560782
0.017751016 -0.026476011 0.038028717
0.02157169 -0.025084147 0.036939979
0.024591947 -0.022640677 0.036785245
0.025635365 -0.018694472 0.03642267
0.020651037 -0.025600625 0.033992827
0.0252134 -0.02113132 0.03370136
0.024560433 -0.0082302252 0.046733916
0.010236016 -0.02695954 0.043726802
0.024929576 -0.010400149 0.042623937
0.011445696 -0.026745779 0.039417446
0.024694074 -0.014182779 0.037805915
0.02448049 -0.011861196 0.038102031
0.012375817 -0.026225254 0.035398543
0.016073082 -0.026332118 0.035342097
0.025186393 -0.01591184 0.034089148
0.017085133 -0.02583327 0.031101823
0.020298647 -0.024439415 0.029708982
0.023816336 -0.021902036 0.030159414
0.024976904 -0.01818159 0.02966094
0.020585109 -0.023885548 0.026283622
0.023210675 -0.021489523 0.025712729
0.024659792 -0.0077651273 0.040557086
0.0087887552 -0.026538154 0.037549436
0.024749933 -0.0094311368 0.036514699
0.0099283112 -0.026581578 0.033351779
0.013791826 -0.025832258 0.031776369
0.025202908 -0.010544799 0.032029927
0.011527639 -0.026544549 0.029101193
0.015034426 -0.025764901 0.028272569
0.024897177 -0.015359614 0.028162658
0.025309946 -0.0121843 0.027157664
0.015477411 -0.025922112 0.024394393
0.019240374 -0.024159079 0.02398169
0.023420215 -0.021139529 0.023269117
0.025388647 -0.01733778 0.023991287
0.02622487 -0.013377395 0.022207618
0.01660981 -0.026132368 0.019281805
0.019951086 -0.024593052 0.019945323
0.023377292 -0.022197876 0.020184696
0.025856635 -0.018351747 0.019228518
0.026467038 -0.014867315 0.018096387
0.020484561 -0.024854993 0.015647829
0.023984436 -0.022838376 0.014877379
0.025988206 -0.019414861 0.014362514
0.024356337 -0.022405712 0.010466218
0.0087767038 -0.026676936 0.02641803
0.025312066 -0.0091300486 0.024903059
0.010388305 -0.026345273 0.022034705
0.01319601 -0.025852948 0.020664632
0.026511637 -0.010609066 0.020334661
0.011559419 -0.026407134 0.01781863
0.014094913 -0.026277626 0.017262936
0.02679801 -0.012868847 0.015733778
0.015220489 -0.025760263 0.01329571
0.019382685 -0.024840295 0.01195693
0.026239337 -0.017739648 0.011089325
0.026920995 -0.014582498 0.011687696
0.016360363 -0.025638057 0.008533597
0.019740619 -0.02499542 0.0081837773
0.023188997 -0.022849381 0.0083696246
0.025440037 -0.018872462 0.0076322556
0.026522914 -0.01534473 0.0087303519
0.020388851 -0.024783446 0.0051932335
0.023051236 -0.022344317 0.0051577091
0.0086948043 -0.026032273 0.015610695
0.010829134 -0.02608197 0.010551333
0.013139852 -0.025688522 0.010371327
0.026284143 -0.010827023 0.0094922185
0.025515255 -0.007898788 0.0089385509
0.01096176 -0.026508931 0.0054926276
0.014061086 -0.0260939 0.0058956742
0.025667487 -0.016720517 0.0048260093
0.026103988 -0.013313237 0.0047034621
0.015623985 -0.026117651 0.001159668
0.018986644 -0.024865972 0.0014632344
0.022443959 -0.021910014 0.0011116862
0.024793163 -0.018084344 0.00088304281
0.026047572 -0.01471173 -0.00030165911
0.025863104 -0.010673228 0.0025145411
0.009665315 -0.025475185 0.00050479174
0.012603614 -0.026421212 -4.3332577e-05
