# .PCD v0.7 - Point Cloud Data file format
VERSION 0.7
FIELDS x y z
SIZE 4 4 4
TYPE F F F
COUNT 1 1 1
WIDTH 411
HEIGHT 1
VIEWPOINT 0 0 0 1 0 0 0
POINTS 411
DATA ascii
-0.018540431 0.027619697 0.18188614
-0.021354277 0.026120991 0.182551
-0.02462868 0.024414038 0.18263367
-0.018360166 0.029205026 0.17936236
-0.021380365 0.027959108 0.17917231
-0.025618136 0.026239987 0.1789259
-0.01941756 0.030442547 0.17597556
-0.021913368 0.029716766 0.17513248
-0.025716841 0.027954185 0.17493555
-0.023332423 0.030038591 0.17207429
-0.025161404 0.029328998 0.17199212
-0.020113889 0.02171216 0.18471014
-0.022727922 0.020711789 0.18447909
-0.0082839262 0.027632836 0.1813693
-0.01214193 0.026930036 0.18226776
-0.016294871 0.025688611 0.1829688
-0.019352993 0.02413998 0.1832301
-0.025576903 0.022057321 0.18317571
-0.0090099741 0.029014131 0.17707273
-0.012806151 0.02952349 0.17830977
-0.016079864 0.028845664 0.17858154
-0.013404866 0.030125057 0.17411733
-0.017441202 0.030185174 0.17416379
-0.027574096 0.024545349 0.17228183
-0.014863503 0.030179203 0.17017424
-0.017844521 0.030650899 0.16939786
-0.021663355 0.030028693 0.1696254
-0.025748976 0.028955836 0.16858685
-0.027447976 0.026390441 0.16857913
-0.022222791 0.029527051 0.1659717
-0.024510767 0.028328398 0.16381034
-0.027536847 0.026897661 0.1653187
0.0011933269 0.025428873 0.18373975
-0.0017593047 0.024440873 0.18401498
-0.005265167 0.023236495 0.18377969
-0.010145748 0.022278953 0.18347809
-0.014595823 0.019697208 0.18388811
-0.017830484 0.018706748 0.18503985
0.0014396831 0.027482145 0.18087792
-0.0026583513 0.026932526 0.18141741
-0.0061362265 0.026282221 0.18129459
-0.0095873186 0.024492735 0.18308339
0.00067069195 0.029079288 0.17651165
-0.0031536133 0.028708141 0.17641634
-0.0065554893 0.028335119 0.17602426
-0.0036507598 0.029342815 0.1712012
-0.007437468 0.02925555 0.17141294
-0.011489688 0.02961047 0.17124891
-0.0079035871 0.029899431 0.1667527
-0.012351147 0.029976845 0.16743663
-0.0090420991 0.030534323 0.16354656
-0.012793763 0.030157594 0.16301972
-0.01694103 0.029697964 0.16280633
-0.02087364 0.028677698 0.162664
-0.025220897 0.027564595 0.16204178
-0.027679609 0.024527969 0.1621438
-0.017250044 0.029255202 0.15859222
-0.021060366 0.028808882 0.15713251
-0.024522446 0.027430698 0.15695351
-0.0265899 0.025036462 0.15727547
0.00050436147 0.01887794 0.18422109
-0.0079550156 0.014949531 0.18338364
-0.011262821 0.014228051 0.18361515
-0.01591352 0.013206418 0.18484581
-0.00078238221 0.021961015 0.18480566
-0.0046493495 0.020093001 0.18391931
-0.0079332413 0.018538339 0.1831196
-0.011411501 0.017206922 0.18315181
0.0019139955 0.028929088 0.17358103
0.0015221406 0.028621394 0.16947314
-0.0019808002 0.029045898 0.16876113
0.00065111648 0.028736843 0.16407424
-0.0026309574 0.028784117 0.16442442
-0.0056677694 0.02916695 0.16450369
-0.0025548944 0.028997168 0.16086179
-0.0068251467 0.028965704 0.16001096
-0.010255998 0.029197322 0.15977725
-0.011035653 0.028201113 0.15516266
-0.015214026 0.028460532 0.15541744
-0.026874054 0.023175791 0.15456867
-0.012185083 0.028843042 0.1519323
-0.016055938 0.02824828 0.15099207
-0.020675149 0.029086512 0.15086898
-0.024602266 0.027471844 0.15062961
-0.026166104 0.024486702 0.15025681
-0.01763148 0.028546091 0.14745784
-0.02078709 0.029067794 0.14513826
-0.024481501 0.028010769 0.14503157
-0.026232447 0.024943197 0.14688236
-0.021916125 0.030116433 0.14036477
-0.023445703 0.029457312 0.14024848
0.0015749154 0.016280537 0.18403187
-0.0021634337 0.014845149 0.18364215
-0.005803138 0.013078678 0.1840668
-0.009515821 0.011090258 0.18405038
0.0020301193 0.028687587 0.15846947
-0.0021812664 0.028454389 0.15758437
-0.0049437946 0.02818804 0.15712643
0.00062327459 0.029033436 0.15453345
-0.0024765506 0.028441846 0.1536032
-0.0063341926 0.028409421 0.15389985
-0.0089955498 0.027919432 0.15325457
-0.0067787268 0.029004063 0.14910811
-0.010507054 0.028942419 0.14948693
-0.013911435 0.028651256 0.1491015
-0.0079475865 0.029778348 0.14502019
-0.010893762 0.029490015 0.14483663
-0.015462532 0.028763991 0.14473215
-0.019388661 0.02978739 0.1432243
-0.026993554 0.023443099 0.14343095
-0.015136343 0.029174216 0.14005092
-0.018918954 0.029427357 0.13905972
-0.025035717 0.028060744 0.13957649
-0.026476854 0.025312722 0.13876736
-0.020803951 0.030461976 0.13549113
-0.024231559 0.028775452 0.13479537
-0.026305733 0.026152316 0.13464266
0.00060911383 0.0079218997 0.18405718
-0.003327826 0.0067509776 0.18503097
-0.00041970541 0.01050905 0.18373796
-0.0038268927 0.0098819444 0.18450615
-0.0087477881 0.007734593 0.18411386
-0.00079594646 0.028164269 0.15111104
-0.0016463306 0.028332615 0.14705798
-0.0046555032 0.02858052 0.14705291
-0.0020099096 0.028763041 0.14207575
-0.0056806747 0.029031375 0.1426664
-0.0090098316 0.029138392 0.14197153
-0.0062312679 0.028692273 0.13776258
-0.010168476 0.028802795 0.13822106
-0.013104183 0.028914183 0.13811389
-0.010755632 0.028319921 0.13356259
-0.014616046 0.029024759 0.13408023
-0.018617835 0.029560098 0.13226178
-0.024449877 0.027224632 0.13119724
-0.026508704 0.023992037 0.13253367
-0.0148846 0.028734017 0.12987235
-0.019646779 0.029255006 0.12809762
-0.024000559 0.028207105 0.12803936
-0.025799524 0.025412567 0.12726218
-0.023465168 0.027852431 0.12314695
-0.0018628021 0.003067873 0.18499708
0.00021400582 0.02817378 0.13984478
0.0025819251 0.028171275 0.13638288
-0.0015243357 0.028076071 0.13608414
-0.0044999504 0.028302375 0.13511375
-0.0053928099 0.027755804 0.13160652
-0.008854622 0.027512906 0.13052779
-0.0124814 0.028078832 0.13064107
-0.010150219 0.027462665 0.12699029
-0.013533769 0.028001597 0.12647584
-0.014130806 0.027480787 0.12292376
-0.017921515 0.027934404 0.12236828
-0.02295858 0.027985571 0.12087446
-0.026372883 0.025069233 0.12196079
-0.018943174 0.028203506 0.11755043
-0.022482317 0.027802166 0.11731577
-0.025952019 0.025305275 0.11792147
-0.022001736 0.027987625 0.11384803
-0.024409771 0.0267133 0.1134727
0.00039547647 -0.0017613154 0.1838764
0.00038337987 0.027336422 0.13311246
-0.00046958122 0.02749336 0.12897024
-0.0044317832 0.027348276 0.12844771
-0.0012164488 0.027403977 0.12459558
-0.0049438011 0.028100498 0.12483668
-0.0085929856 0.027464673 0.12465617
-0.0057210256 0.028375791 0.1198439
-0.0091439066 0.028089793 0.120143
-0.013098712 0.027508259 0.12018603
-0.015935265 0.026870497 0.11905557
-0.0062090186 0.02855113 0.11584026
-0.0094252201 0.028089566 0.11504036
-0.013202048 0.027737916 0.11513126
-0.016739227 0.027755722 0.1157189
-0.02520518 0.02301457 0.11361051
-0.013797184 0.028446581 0.11067104
-0.01754725 0.028051991 0.11072993
-0.021916822 0.028020585 0.11093426
-0.024725066 0.025503928 0.11023885
-0.014891818 0.029108386 0.10694921
-0.017980987 0.028584087 0.10688758
-0.021767166 0.028058352 0.10603905
-0.024505347 0.026086489 0.10557187
0.0015812586 -0.0055057271 0.1841068
0.00099596567 0.027215127 0.12257263
0.0009536976 0.02721183 0.11847627
-0.0033679772 0.027697401 0.11779898
-0.00031117816 0.026877631 0.11486077
-0.0043190797 0.027850349 0.11281168
-0.007850552 0.028078502 0.11265296
-0.025261804 0.021402426 0.11134696
-0.005787666 0.028266346 0.10864937
-0.0087483805 0.028296649 0.10850549
-0.012259562 0.028499804 0.10833406
-0.025495276 0.022282414 0.10821438
-0.0093894582 0.028518844 0.10395074
-0.01301601 0.028829107 0.10398585
-0.017062733 0.028211987 0.10367447
-0.025738224 0.024289286 0.10355163
-0.013012675 0.028723538 0.10020113
-0.017351042 0.027588734 0.09998697
-0.021367194 0.027103059 0.099482596
-0.02463885 0.025743803 0.099310994
-0.026627725 0.022167969 0.09859401
-0.021656048 0.026798382 0.095106304
-0.02372719 0.026508797 0.09446305
0.004902483 -0.0064721676 0.18463039
0.0017517249 -0.007829844 0.18439084
0.0013717134 0.027398691 0.11247402
-0.0026163282 0.027588028 0.11017728
0.00081750471 0.027507339 0.10740137
-0.0037835119 0.027865369 0.10718298
-4.6882778e-05 0.027503489 0.10348767
-0.0040598046 0.028308451 0.10262275
-0.0080238851 0.028644634 0.10189641
-0.0045557227 0.028149761 0.098335207
-0.0087988647 0.028326558 0.09735924
-0.012608218 0.028048698 0.096553206
-0.016592639 0.027607854 0.09711796
-0.019444715 0.026670575 0.096352041
-0.025505234 0.02327981 0.096231103
-0.0087372921 0.028562365 0.093560398
-0.012687229 0.028684869 0.092133701
-0.016925441 0.02810478 0.09286207
-0.020952888 0.027614983 0.093038976
-0.025067799 0.025218185 0.092484057
-0.026300138 0.021937305 0.090357721
-0.013500178 0.029283686 0.087881505
-0.017187379 0.029245045 0.087919593
-0.021437397 0.028719792 0.088709056
-0.024947422 0.026406934 0.087760627
-0.026638199 0.023080936 0.087423861
-0.017876973 0.029452622 0.084293425
-0.021678124 0.029231964 0.083788097
-0.024940591 0.02729582 0.08276099
-0.00056614541 0.027279556 0.10047305
0.0017924206 0.026917273 0.095862031
-0.0020636073 0.026922787 0.09536916
-0.0059597041 0.026491044 0.094364822
-0.0039820881 0.027163325 0.090762794
-0.0069979639 0.027254557 0.090499222
-0.0085450709 0.02779121 0.086581469
-0.012042597 0.028894039 0.086123347
-0.01236814 0.028110925 0.081926584
-0.016106278 0.028046656 0.081054986
-0.02015372 0.02807983 0.079759657
-0.026084244 0.026159285 0.079857647
-0.026786048 0.022651622 0.081075907
-0.017107852 0.027426023 0.077616692
-0.020555012 0.027491348 0.076337397
-0.02476193 0.02683934 0.076592505
-0.026739735 0.024230681 0.076361835
-0.021517992 0.028021162 0.072423577
-0.02408231 0.02696573 0.072272182
0.00026194192 0.026150998 0.092319906
0.0023616673 0.026092591 0.088153601
-0.00083661545 0.026609942 0.08871001
-0.001356096 0.026832292 0.08385998
-0.0053991298 0.027198814 0.084476411
-0.0074853911 0.027248418 0.080564857
-0.010164402 0.027384236 0.078733385
-0.011910136 0.027301935 0.074900806
-0.01555997 0.027502794 0.075195372
-0.012670288 0.027961662 0.069805682
-0.016290646 0.028512828 0.070870519
-0.019498009 0.028115751 0.070981801
-0.025011241 0.025450809 0.069458961
-0.02630914 0.023530668 0.070544958
-0.016956694 0.028737232 0.066162646
-0.02061395 0.028548473 0.066088557
-0.02382597 0.026396325 0.065456271
-0.021520622 0.027423009 0.061264277
-0.00086812768 0.026489444 0.080822766
-0.00034424104 0.026073711 0.07769984
-0.0047403066 0.026141655 0.077593386
-0.00065430906 0.026282825 0.073010743
-0.0045525339 0.025700949 0.072822511
-0.0087529141 0.026301462 0.072803199
-0.0052515995 0.026191434 0.06824708
-0.0092875622 0.026766321 0.068106055
-0.025531605 0.021815404 0.06573838
-0.0096558863 0.026825385 0.063686252
-0.014361717 0.027583055 0.063027084
-0.024564611 0.023543678 0.061832607
-0.025039937 0.020816028 0.061622024
-0.014643135 0.02693982 0.058710396
-0.018909419 0.026713962 0.058448076
-0.023208661 0.024966229 0.058766186
-0.018723764 0.026493188 0.05543375
-0.021947164 0.025104204 0.055188715
0.00045234431 0.026288316 0.070050776
-0.00037201587 0.026364639 0.066503108
-0.0037652096 0.026502088 0.066014111
-0.0052052313 0.026431561 0.062396824
-0.0082941474 0.026911762 0.061559737
-0.0057709613 0.02608862 0.057293117
-0.0096467538 0.026875064 0.057800472
-0.012737842 0.027127031 0.056908309
-0.024026848 0.022601221 0.055662096
-0.01405063 0.026983513 0.053031743
-0.018420236 0.026792888 0.052642345
-0.022358051 0.025088847 0.052534461
-0.023733146 0.022187967 0.05103898
-0.018118192 0.026985073 0.047957242
-0.021680031 0.025550522 0.047441006
-0.023832489 0.022748969 0.047403157
0.001520792 0.026259676 0.063519657
0.00031754095 0.025805015 0.060374081
-0.0033859094 0.025634617 0.059275925
0.00018351246 0.026622728 0.055937767
-0.0041575111 0.02613128 0.054751933
-0.0076408545 0.025989065 0.054311872
-0.00011656247 0.02709743 0.051440418
-0.0038610795 0.026420902 0.050141811
-0.0088099893 0.026201619 0.050591469
-0.01198658 0.025922466 0.049341917
-0.0050834697 0.026754566 0.046529412
-0.0083652008 0.026593225 0.045752943
-0.013278189 0.026410775 0.045902371
-0.016942907 0.026749687 0.044677973
-0.022866253 0.02444198 0.044451535
-0.024020286 0.021039085 0.044650257
-0.010115322 0.027071225 0.041744649
-0.013030911 0.026765363 0.041340888
-0.017614102 0.026874026 0.040801585
-0.021673892 0.025585636 0.040917695
-0.024165146 0.022232877 0.039685369
-0.014480194 0.026912307 0.037718832
-0.017691465 0.027496997 0.036126316
-0.022122324 0.026687859 0.036019742
-0.024159323 0.024588211 0.035521209
-0.018412806 0.027644584 0.03332144
-0.021920845 0.027016122 0.031758964
-0.024142671 0.024786498 0.032522261
0.00086300727 0.026765106 0.048003435
0.00048476364 0.026752044 0.04363054
-0.0033893664 0.026640182 0.043784559
-0.0039457646 0.02623331 0.039538741
-0.0078836968 0.026644139 0.039280415
-0.011296518 0.026506416 0.0384354
-0.0084866118 0.026526069 0.034897447
-0.012631514 0.026384223 0.034511387
-0.025174737 0.021326842 0.033881605
-0.013846689 0.025966652 0.030261576
-0.017600555 0.027018605 0.029917359
-0.021096401 0.027046287 0.029390275
-0.024999298 0.023266077 0.029252112
-0.018501541 0.026619025 0.024925888
-0.021734629 0.026482536 0.025409698
-0.023993207 0.024979193 0.025195301
0.0011285422 0.026764164 0.038331866
-0.0033967248 0.026094096 0.03693676
0.00075318106 0.027212719 0.033350348
-0.003386627 0.026877388 0.033842146
-0.0078838617 0.026245639 0.032135367
-0.010728849 0.025751423 0.031177819
-0.0035334257 0.02725278 0.029165328
-0.0077108713 0.026646769 0.028623164
-0.011798779 0.025647063 0.028009713
-0.015076805 0.025391757 0.027990162
-0.012472947 0.025667256 0.023819268
-0.01621714 0.026094794 0.023672462
-0.020389723 0.025839735 0.021597922
-0.024342626 0.022033006 0.022523224
-0.016749047 0.02657572 0.018928885
-0.020999409 0.025695525 0.018435717
-0.023053212 0.022903647 0.019694626
-0.018302836 0.027017474 0.014474213
-0.020608604 0.02582013 0.014319777
0.0012639863 0.026626222 0.0265553
-0.0029348917 0.026213946 0.024777412
0.0019043852 0.025985297 0.022975147
-0.0029232013 0.025765613 0.021331668
-0.0071214228 0.025314789 0.022076726
-0.010506249 0.0249104 0.020298183
-0.0074017942 0.024449851 0.018109977
-0.011752851 0.025252448 0.016609907
-0.014932068 0.02613692 0.015738368
-0.022703022 0.020924773 0.015533149
-0.012193195 0.025399135 0.011935294
-0.016120758 0.026236523 0.011897624
-0.020783644 0.02477663 0.010443151
-0.022302378 0.021623535 0.010636866
-0.016460991 0.025857313 0.007291019
-0.020356337 0.024980724 0.0066815019
-0.022397391 0.022103103 0.0078627467
-0.018984433 0.025698844 0.0036297441
0.002316541 0.025854196 0.019933522
-0.00081777945 0.02542074 0.019012511
0.0017247591 0.026002968 0.015097618
-0.002193864 0.025373381 0.015079439
-0.0062291413 0.024337964 0.01482141
0.00085033849 0.026090629 0.010380805
-0.0022359658 0.02598834 0.010228872
-0.0066617783 0.024874993 0.0098343492
-0.0099766245 0.024859807 0.01012212
-0.0081380028 0.025508136 0.006295979
-0.011346758 0.025343571 0.0053130984
-0.014762754 0.025355723 0.0047620535
-0.022993401 0.020526065 0.0043510795
-0.01247318 0.025151992 0.00084668398
-0.015866015 0.0259174 0.00056904554
-0.020316407 0.024860948 0.00080096722
-0.02250379 0.022018719 -0.00040340424
-0.0034252908 0.025400592 0.0067813993
-0.0048394669 0.025007758 0.0068826675
0.0019723875 0.025289435 0.0041069388
-0.0015222603 0.025383256 0.0036427379
-0.0060015838 0.025088621 0.0038425922
-0.0022851862 0.025249507 -0.00036209822
