# .PCD v0.7 - Point Cloud Data file format
VERSION 0.7
FIELDS x y z
SIZE 4 4 4
TYPE F F F
COUNT 1 1 1
WIDTH 326
HEIGHT 1
VIEWPOINT 0 0 0 1 0 0 0
POINTS 326
DATA ascii
-0.027076542 0.013693994 0.18331343
-0.026828885 0.0087234825 0.18363145
-0.026619077 0.0043968293 0.1834619
-0.027031124 -0.00019918787 0.18257624
-0.027150691 -0.0060778768 0.18271372
-0.026717961 -0.011070281 0.18364125
-0.030452311 0.013819497 0.18089724
-0.030589283 0.0091819447 0.18099388
-0.031147063 0.0045629493 0.18086275
-0.031122506 -0.00082152372 0.18057317
-0.030886352 -0.0062039071 0.18014956
-0.030924737 -0.010819219 0.1799385
-0.029091418 -0.01471157 0.1794942
-0.033255816 0.014058454 0.17631954
-0.033100843 0.0094244704 0.17634946
-0.033344269 0.0048174779 0.17590645
-0.033883452 -0.00057666044 0.17597649
-0.033304691 -0.0059558474 0.17533326
-0.033019841 -0.010572635 0.17491719
-0.031244278 -0.014022958 0.1750668
-0.033828974 0.01432566 0.17122144
-0.034401 0.0096794888 0.17135477
-0.03496027 0.0050415429 0.17148143
-0.034897923 -0.00034968223 0.17116788
-0.034276426 -0.0057376907 0.17049265
-0.033441961 -0.010362614 0.16971946
-0.031888366 -0.013523865 0.17038912
-0.034783006 0.012939848 0.16810256
-0.035520673 0.0096745938 0.16710627
-0.035763085 0.0052830405 0.16651785
-0.035765946 0.00065210607 0.16628557
-0.035527825 -0.0045440462 0.16603392
-0.034269512 -0.0094489269 0.16663459
-0.03706044 0.0038842144 0.16362017
-0.037206352 0.0023378017 0.16363829
-0.019665122 -0.0018999616 0.18338364
-0.019610047 -0.0057858382 0.18315107
-0.021183848 -0.01122098 0.18384165
-0.023952067 0.0093729328 0.18433106
-0.022817194 0.0043431218 0.18382627
-0.023419559 -0.00027289643 0.18305501
-0.023471415 -0.0053664395 0.18295643
-0.029872417 -0.015230048 0.16762528
-0.03414309 0.014808776 0.16570851
-0.035143673 0.010796886 0.16455022
-0.03466785 -0.0069861677 0.16333872
-0.032963574 -0.010353472 0.16336647
-0.031571448 -0.013256993 0.16283563
-0.034008324 0.014898222 0.16030911
-0.034724653 0.010218674 0.16054648
-0.035384715 0.005755994 0.16052803
-0.034992516 0.0007254291 0.16001365
-0.034238279 -0.0042777047 0.16011077
-0.032735646 -0.009235166 0.16010484
-0.034538448 0.014295518 0.15691841
-0.034483433 0.010409646 0.15668583
-0.034417391 0.0057466025 0.15640676
-0.034373343 0.0026379037 0.15622067
-0.016908586 0.0090104919 0.18316078
-0.017107904 0.0043262523 0.18304378
-0.016840756 -0.0002058821 0.18379068
-0.016123354 -0.0055408739 0.18363118
-0.029221117 -0.01560533 0.16117975
-0.0332883 -0.0052042347 0.15696222
-0.03178817 -0.010142852 0.15704483
-0.030286908 -0.014621511 0.15635511
-0.034172714 0.016082121 0.15427825
-0.034169972 0.010537744 0.15408573
-0.034320652 0.0058800462 0.15355274
-0.033809423 0.00099027867 0.15366304
-0.032868981 -0.003809216 0.15321079
-0.031997442 -0.0091527663 0.15200099
-0.031064093 -0.01288645 0.15229374
-0.034573019 0.016021505 0.14972419
-0.034690619 0.010775303 0.14936978
-0.034642875 0.0060929223 0.14910215
-0.0344401 0.001598285 0.14897376
-0.033277869 -0.0033055735 0.14883202
-0.033103108 -0.0069549237 0.14865541
-0.034706175 0.0015765554 0.1451613
-0.008225441 0.0026208125 0.1839515
-0.0088897943 -0.00094692421 0.1846298
-0.011851847 0.0042547304 0.18348584
-0.011910975 -0.00048977707 0.18419352
-0.012072802 -0.005191423 0.18405095
-0.028859854 -0.014869843 0.14951146
-0.03361398 -5.4227588e-05 0.14621681
-0.033204973 -0.0031988383 0.14625084
-0.032262087 -0.0093218572 0.14629579
-0.030120075 -0.013061192 0.1455456
-0.033589244 0.016577736 0.1432597
-0.033892751 0.011079118 0.14319238
-0.034176767 0.0063691693 0.14315113
-0.034222364 0.0016780603 0.14271164
-0.03328681 -0.003022416 0.14207006
-0.032830238 -0.0083033592 0.14166468
-0.031816304 -0.012675859 0.13994542
-0.03333205 0.016837262 0.13835657
-0.033092558 0.011013366 0.13808951
-0.033500493 0.006283985 0.13813499
-0.033930123 0.0018829439 0.13802204
-0.03392458 -0.0027908762 0.13683391
-0.033869803 -0.0078277364 0.13673416
-0.032875896 -0.011472668 0.13662401
-0.03480345 -0.0042136651 0.13356891
-0.034797668 -0.0065732454 0.13344699
-0.0047075748 -0.00029739557 0.18462196
-0.029069126 -0.01522506 0.13903859
-0.033508182 0.016980745 0.13562986
-0.03297478 0.011852682 0.13547793
-0.032770038 0.0071294601 0.13509914
-0.033783197 0.0020126007 0.13507354
-0.03185612 -0.013403993 0.13463017
-0.033487856 0.017163126 0.13218361
-0.032956064 0.011646189 0.13169932
-0.0321486 0.0069078221 0.13130808
-0.032613635 0.0021587457 0.13139647
-0.033376396 -0.0025465623 0.13073844
-0.033730924 -0.0074851927 0.13019422
-0.032821 -0.011827007 0.13012478
-0.031841993 0.011802828 0.12845674
-0.031555057 0.0070571913 0.12801769
-0.03152442 0.0023045517 0.1277591
-0.031552792 -0.00086416712 0.12762111
-0.031483173 -0.013533603 0.12694034
-0.032359302 0.01197836 0.12497592
-0.03261137 0.0072134542 0.1249187
-0.031968772 0.002467833 0.12422466
-0.03252852 -0.0022965414 0.12438625
-0.032969534 -0.0070535843 0.12446356
-0.032588482 -0.011806279 0.12395626
-0.029078841 -0.015069034 0.12323546
-0.032526493 0.012006467 0.1198439
-0.032938838 0.0074784602 0.11936057
-0.032464087 0.0029201373 0.11934787
-0.032190382 -0.0020918571 0.11931825
-0.032496691 -0.0068621305 0.11930066
-0.032636762 -0.011319198 0.11937356
-0.033775628 0.0068450938 0.11604577
0.0059082508 -0.00076408492 0.18453804
-0.032417119 0.013955051 0.11736268
-0.032275259 0.0020106523 0.11666757
-0.03179127 -0.0019658473 0.11612076
-0.031778216 -0.0067455848 0.11587411
-0.031903923 -0.011941165 0.11619365
-0.032497942 0.013351647 0.11348748
-0.033619702 0.0079904702 0.11348134
-0.03276968 0.0029714326 0.11317152
-0.031969845 -0.0018054735 0.11235279
-0.032053411 -0.0065936898 0.11217624
-0.031561792 -0.011384118 0.11158115
-0.032485425 0.01237244 0.1090219
-0.033585191 0.0077587063 0.10868871
-0.032716036 0.0031895502 0.10824549
-0.031903744 -3.9833049e-05 0.1084727
-0.031841815 -0.0080024451 0.10705066
-0.031846285 -0.0096031874 0.10697478
0.009229362 -0.00080700021 0.18442747
-0.032474935 0.01401791 0.10705847
-0.033158243 0.008917382 0.10590422
-0.032717466 0.0033205333 0.10530216
-0.032177866 -0.0017507899 0.10637671
-0.032201409 -0.0058960584 0.10615414
-0.031989396 -0.011434481 0.10600555
-0.032735407 0.013884865 0.10287517
-0.033623815 0.0082910322 0.10227031
-0.033447444 0.0034826561 0.10190207
-0.033287942 -0.0015376344 0.10178292
-0.032974958 -0.006175146 0.10206318
-0.032333851 -0.011232033 0.1017614
-0.029543877 -0.01550699 0.10153258
-0.032224596 0.014855491 0.099570274
-0.03332442 0.0092896558 0.098133326
-0.033282876 0.0036614756 0.09782517
-0.0329656 -0.00077652227 0.097864926
-0.032708883 -0.0060190489 0.097910762
-0.032280028 -0.010528121 0.097566545
-0.030580401 0.015064131 0.095360041
-0.030988395 0.0094472282 0.094393551
-0.030814111 0.0037965956 0.093984306
-0.030709565 -0.0010467082 0.093667388
-0.030640841 -0.0058919345 0.093377352
-0.030769885 -0.011156932 0.09371388
-0.030386031 0.014842363 0.091702402
-0.031238258 0.0092872828 0.090972006
-0.031387091 0.0039635706 0.090422213
-0.030971229 -0.00088320335 0.08986938
-0.0308249 -0.0057360684 0.089519799
-0.030887663 -0.010589704 0.089329302
-0.032134712 0.0073660011 0.087142885
-0.032604933 0.0041631493 0.086339593
-0.030313611 0.015711067 0.088979483
-0.030595064 0.011363655 0.088176012
-0.031612933 0.01558518 0.085130453
-0.031889379 0.010708986 0.085104167
-0.032564878 0.0051730978 0.084487557
-0.031966984 -0.0006439485 0.08460778
-0.031635702 -0.0055045118 0.084115744
-0.031584978 -0.010368485 0.083838165
-0.02931571 -0.014731359 0.082557261
-0.031686783 0.015838286 0.080141842
-0.03211695 0.010944253 0.08023572
-0.032409847 0.0052490137 0.080183625
-0.032383859 -0.00043778532 0.079885483
-0.032368183 -0.0053116311 0.07963568
-0.031594694 -0.010184348 0.078798592
-0.031502187 0.015999136 0.076958835
-0.031564653 0.011921067 0.076808393
-0.030534387 -0.0051806313 0.075171173
-0.030562699 0.016187621 0.073173523
-0.030487001 0.011030333 0.073300123
-0.030140877 0.0063413098 0.073384762
-0.029641867 0.0014457681 0.072755396
-0.029775918 -0.0039514177 0.072596192
-0.029515922 -0.0096650198 0.071909785
-0.028000951 -0.01370519 0.071246922
-0.031538308 0.016410733 0.068826914
-0.031454086 0.011488598 0.068777919
-0.030830681 0.006343286 0.068365633
-0.030785859 0.0016899124 0.067516983
-0.030386508 -0.0030100127 0.067560136
-0.030136406 -0.0089935772 0.067511857
-0.031532347 0.011597428 0.066533625
-0.031447828 0.0075025144 0.06626749
-0.031311929 -0.0039658439 0.065602124
-0.031229079 -0.0088805072 0.065297484
-0.028883994 -0.013880253 0.065255642
-0.031078279 0.011780389 0.062642634
-0.031190753 0.0066144126 0.062481701
-0.031158149 0.0019477099 0.061637938
-0.031170666 -0.0029810597 0.061409414
-0.030550122 -0.0079050772 0.060674429
-0.030028939 -0.01162345 0.060595334
-0.029920101 0.01194342 0.059062481
-0.029848516 0.007825112 0.058805346
-0.02757746 -0.013973441 0.058697879
-0.029980898 0.012090886 0.055998147
-0.030056357 0.0071577313 0.055373311
-0.029858351 0.0021901834 0.055419683
-0.02981472 -0.0027600215 0.055144668
-0.029559433 -0.0077093807 0.054699361
-0.027889669 -0.012902517 0.053883791
-0.030225873 0.012333505 0.050986528
-0.03021729 0.0073818951 0.05047828
-0.030003488 0.0024104672 0.050325692
-0.030032635 -0.0025530537 0.050109804
-0.029563665 -0.0073172492 0.049760044
-0.028771162 -0.010899983 0.050775766
-0.031484365 0.01585847 0.046941519
-0.031358838 0.012870591 0.046904504
-0.03067255 0.0083773062 0.046965778
-0.030824006 -0.0032211454 0.046530485
-0.030815065 -0.0057051373 0.046403348
-0.029091775 -0.0090921968 0.046930313
-0.027306974 -0.012687631 0.047138333
-0.030898929 0.012274802 0.04365468
-0.029944956 0.0074524987 0.043613374
-0.03001529 0.0026796306 0.044044137
-0.03061676 -0.0020455052 0.043710411
-0.030318081 -0.0074786996 0.043541253
-0.027968645 -0.011736732 0.042370498
-0.030096531 0.012892392 0.039318979
-0.029624343 0.0078610778 0.039745271
-0.029815435 0.0029082573 0.038605332
-0.029759884 -0.0017620273 0.038546681
-0.029628158 -0.0071008434 0.0384987
-0.027180612 -0.013065264 0.039895236
-0.029572129 0.0079582371 0.037585139
-0.02965498 -0.0028338772 0.036072552
-0.028888524 -0.0070388843 0.036295414
-0.027436256 -0.012338754 0.036351442
-0.030414641 0.013137022 0.034281552
-0.030349493 0.0081317052 0.033986807
-0.030185878 0.0031280476 0.033609331
-0.030043662 -0.0018665273 0.03298378
-0.029846847 -0.0068829809 0.032844365
-0.028807759 -0.011362825 0.032471359
-0.031031907 0.013372861 0.029472888
-0.031017303 0.0083564818 0.029220402
-0.030816078 0.0033441703 0.028810084
-0.029942334 -0.0017056487 0.028900981
-0.030270994 -0.0070275781 0.028066278
-0.030283749 -0.010030575 0.02771914
-0.026982903 -0.012968238 0.028725445
-0.030321121 0.013549961 0.02565968
-0.030232549 0.0085219126 0.025343955
-0.028774619 0.0035185253 0.023865044
-0.029009581 -0.0015877358 0.025433719
-0.028773904 -0.0061589931 0.02393961
-0.028337419 -0.011951659 0.024906099
-0.029959083 0.013717322 0.022125781
-0.02973187 0.0086810887 0.021691203
-0.028474808 0.0040597166 0.020937383
-0.027425945 -0.0018826168 0.021379471
-0.028654754 -0.0067815748 0.020248294
-0.028735042 -0.011170283 0.020540714
-0.028923035 -0.010527942 0.016836107
-0.027852237 0.0028776338 0.018724978
-0.027405202 -0.00093166751 0.01870203
-0.028095126 -0.0047093262 0.01857096
-0.026994348 -0.013174344 0.018307924
-0.028782785 0.014016163 0.015711963
-0.028851926 0.0089490917 0.015530467
-0.028107166 0.0039010828 0.014647424
-0.028357387 -0.0011681843 0.01462245
-0.029016495 -0.0062359055 0.014949679
-0.028677404 -0.011515778 0.013784707
-0.029717326 0.014297482 0.0099942088
-0.029204786 0.0094498172 0.0099418163
-0.028577089 0.0041156965 0.0098294616
-0.029610813 -0.00092171167 0.0091782212
-0.02988863 -0.0059959968 0.0091794729
-0.029233813 -0.010595169 0.0087025762
-0.030072629 -0.0058327359 0.004968822
-0.028060138 0.0041814032 0.0080693364
-0.026994288 -0.012768224 0.0063349009
-0.029640257 0.014234338 0.0042207241
-0.028535187 0.009253066 0.0040572882
-0.027777493 0.0043749283 0.0034359097
-0.029030681 -0.00069577282 0.0031966567
-0.029216945 -0.0057463427 0.0020217299
-0.028471708 -0.010029271 0.0022625327
-0.025889039 -0.013809208 0.0023872256
-0.029051244 0.014794752 -0.00046366453
-0.028531611 0.010102879 -0.00059211254
-0.028616905 -0.00055842509 -0.00046831369
