# .PCD v0.7 - Point Cloud Data file format
VERSION 0.7
FIELDS x y z
SIZE 4 4 4
TYPE F F F
COUNT 1 1 1
WIDTH 353
HEIGHT 1
VIEWPOINT 0 0 0 1 0 0 0
POINTS 353
DATA ascii
-0.0077459281 0.032185376 0.18088806
-0.011582657 0.032668889 0.1809971
-0.014937985 0.032778978 0.17973173
0.013654872 0.026816549 0.18405688
0.0089953123 0.027163744 0.18442476
0.0043807919 0.027423322 0.18396169
-0.00068099104 0.027591407 0.18367854
-0.0064245374 0.026969731 0.18351707
-0.011068429 0.027368126 0.18404508
0.013810658 0.030721666 0.18106517
0.0091698924 0.03150934 0.18132541
0.0045488225 0.031830788 0.18129241
-0.00082982238 0.03180176 0.18100014
-0.0059006186 0.031695902 0.18067515
-0.010049335 0.031935573 0.18061399
-0.016113443 0.030231891 0.18086413
0.014058252 0.033262014 0.17632356
0.0094381953 0.033265591 0.17609081
0.0048194109 0.033231556 0.17583454
-0.00057280355 0.033596992 0.1757935
-0.0059574274 0.033787131 0.17564136
-0.010570741 0.03389734 0.17547691
-0.015186275 0.033493638 0.17498487
0.014288687 0.033499479 0.17192245
0.0094953487 0.033652723 0.17109126
0.0050602863 0.034066856 0.1709047
-0.0001402546 0.034437537 0.17104676
-0.0054212371 0.03436178 0.17038056
-0.010360382 0.034710824 0.17053935
-0.014988351 0.033882618 0.16976985
0.0047487994 0.035338759 0.16682613
0.00065273291 0.035728514 0.1662612
-0.0045444123 0.035588861 0.16607398
-0.010184973 0.035183609 0.1662752
-0.013271368 0.035167933 0.16610879
0.00079959683 0.036849022 0.16332489
-0.0022900044 0.036973 0.16325065
0.010534829 0.019841194 0.18412787
-0.0003456118 0.019687116 0.18347666
-0.005785916 0.019652724 0.18317732
0.008950498 0.024446607 0.18506861
0.004326012 0.023651183 0.18434078
-0.00030777804 0.022997856 0.18370023
-0.0049364883 0.023166418 0.1831145
0.014447466 0.033066213 0.1688993
0.011354952 0.033022404 0.16871423
0.014660561 0.032464862 0.16483277
0.0099852486 0.033245742 0.16510722
0.0064036557 0.034315944 0.16439894
-0.0069861705 0.03466785 0.16333872
-0.010079338 0.034120083 0.16282248
-0.015222508 0.034062803 0.16410479
0.014857627 0.032368422 0.1610795
0.0099026607 0.032964051 0.16048023
0.0053743506 0.034114242 0.1601302
0.00092503871 0.034611285 0.15977091
-0.0047157751 0.034294069 0.15933999
-0.010142527 0.033279657 0.15879497
-0.014392461 0.033601165 0.15909058
-0.0020251491 0.034307301 0.15594161
0.0086819977 0.017232716 0.18352652
0.0043187947 0.017468274 0.18326539
-0.00079640705 0.016498983 0.18377754
-0.0055408753 0.016123354 0.18363118
0.015468576 0.032009184 0.1579524
0.010746756 0.032246947 0.15753925
0.0072468678 0.03298068 0.15738571
-0.0083138896 0.033430278 0.15689981
-0.015318415 0.032186508 0.15571964
-0.017643336 0.033074796 0.15619296
0.015987234 0.033484161 0.1544342
0.010536877 0.033280194 0.15402269
0.0058512324 0.033659577 0.15404099
0.0011775632 0.033574879 0.15374854
-0.0044797575 0.033562541 0.15328592
-0.0097258268 0.033296347 0.15301371
-0.014405939 0.032487571 0.15223497
0.016316878 0.034042299 0.14983502
0.010722212 0.033293307 0.15029839
0.0060355114 0.033263922 0.15004289
0.0013493457 0.033234656 0.14978743
-0.0037075086 0.033231318 0.1490618
-0.0086597344 0.033516765 0.14867103
-0.013204685 0.033014476 0.14828151
0.0041937837 0.0082477331 0.18404564
-0.00094243401 0.008547008 0.18442258
0.0042533809 0.011918426 0.18352619
-0.00014854516 0.012259841 0.18369183
-0.0051909061 0.011958659 0.1839816
0.016126923 0.033343971 0.14684534
0.010870353 0.033011973 0.14729652
0.0061810156 0.032686532 0.14684004
0.0014809266 0.032795727 0.14667803
-0.0028925268 0.032646596 0.14616901
-0.0088271378 0.032843173 0.14562806
-0.014707684 0.032073498 0.145688
0.01659682 0.03305912 0.14289677
0.011122908 0.032392561 0.14216512
0.0064079827 0.032473207 0.14198434
0.0016919569 0.032695353 0.14190063
-0.0030142544 0.032413661 0.141471
-0.0085096126 0.0327124 0.1414009
-0.014005761 0.032245696 0.14080489
0.016803868 0.032892048 0.13900092
0.0050071673 0.032711148 0.13828528
0.0018612527 0.032666504 0.13809699
-0.0029909937 0.033246279 0.13659197
-0.0080826422 0.033560812 0.13649014
-0.013007442 0.033707619 0.13617304
-0.0042136679 0.03480345 0.13356891
-0.007734749 0.034938872 0.13301113
-0.012042317 0.035063148 0.13240632
-0.00030100203 0.0050053596 0.18480021
0.016952738 0.03292346 0.13617381
0.011419849 0.031912804 0.1361469
0.0068979124 0.03187561 0.13565654
0.0019890899 0.032612681 0.13520962
-0.0011374085 0.033885598 0.13498753
-0.015339258 0.032762647 0.13444731
0.011638203 0.031758785 0.13175014
0.0068820426 0.031344593 0.1317021
0.0021524215 0.031707048 0.13124028
-0.002339137 0.033450246 0.13056237
-0.0069250758 0.035016179 0.13052723
-0.013554438 0.034041703 0.12970185
-0.0031807602 0.03380239 0.12717283
-0.0077212262 0.034689724 0.12642187
-0.01179939 0.034644544 0.12541759
0.016861608 0.031605184 0.12892646
0.01177944 0.031345546 0.1288749
0.0070210369 0.031172335 0.12870798
0.0022741938 0.03132087 0.12838334
0.012016461 0.031132163 0.12410572
0.0072291205 0.031972349 0.12446404
0.0024664411 0.032078564 0.12430236
-0.0020505143 0.032834291 0.12406528
-0.0062249666 0.033300877 0.12377667
-0.017059356 0.033143461 0.12344667
0.011810533 0.031908274 0.12029177
0.0072761131 0.032613039 0.11935925
0.0029202113 0.032460213 0.11934513
-0.0020930814 0.032322466 0.11941308
-0.0070754057 0.033057392 0.11927599
-0.01158978 0.034014642 0.11918551
-0.016609736 0.032429814 0.11835271
-0.011032688 0.033941567 0.1147927
-0.00079220289 -0.0069460869 0.18485069
0.013488331 0.031488478 0.1175037
0.0091888579 0.031912863 0.1167621
0.0020101899 0.032329798 0.11670691
-0.001969221 0.032100499 0.11634392
-0.0059503121 0.031971335 0.11605304
-0.015505697 0.031999826 0.11559945
0.013341517 0.031299412 0.11359495
0.0077608014 0.032656133 0.11332589
0.0029779123 0.032431126 0.11292505
-0.0018081693 0.032248259 0.11255497
-0.0065965867 0.032730997 0.11266947
-0.011653098 0.033830762 0.11204886
-0.016165487 0.032462478 0.11199951
0.0069026249 0.032905757 0.10889572
0.0031642923 0.031731665 0.10850507
-0.00083727669 0.031675041 0.10826558
-0.0069252653 0.032734513 0.10743153
-0.011164918 0.033303142 0.10698414
-0.016040759 0.031622767 0.10747522
-0.0094192168 0.033706903 0.10343415
0.013499248 0.0309608 0.11041683
0.013635044 0.031360745 0.10776669
0.0083833998 0.032341301 0.10685021
0.0032785321 0.032170236 0.10607803
-0.0017658109 0.032150626 0.10603923
-0.0052471878 0.0325436 0.10540718
-0.01597579 0.031436265 0.10537428
0.013866999 0.031817913 0.10318154
0.008277013 0.0329445 0.1024242
0.0034758104 0.03287977 0.10187554
-0.0013255078 0.033174813 0.10146213
-0.0063473759 0.033172488 0.1014598
-0.01114083 0.033117414 0.10068846
-0.015843043 0.031304717 0.10133427
0.012442068 0.032212973 0.099442661
0.0094359526 0.033157587 0.098412514
0.0036513384 0.033831894 0.098236442
-0.0011609189 0.033214629 0.097536564
-0.0055976333 0.032681167 0.097414553
-0.010804991 0.032889068 0.096817613
-0.015667785 0.032135308 0.097006559
0.01524132 0.030193212 0.095826268
0.009443053 0.031130016 0.094500005
0.0037831096 0.031569123 0.094552159
-0.0010519241 0.031105042 0.093964934
-0.0058938591 0.031054378 0.093688667
-0.010735131 0.031147657 0.093520761
-0.015579811 0.03054863 0.092831373
0.01522321 0.030362429 0.09220463
0.0093984948 0.031318009 0.090819299
0.0039546723 0.031862676 0.090781927
-0.00088632753 0.031216621 0.090054989
-0.00573711 0.031022251 0.089669704
-0.010588015 0.031665742 0.089918435
-0.015693875 0.030688463 0.08950001
0.0082086483 0.032689154 0.086602092
0.0039050141 0.032755256 0.086106479
8.2115643e-05 0.031950951 0.086645305
-0.0072044609 0.032089472 0.086393952
-0.010403982 0.032604516 0.085625172
0.015364545 0.030048789 0.08939302
0.012164828 0.030902209 0.08844924
-0.014568998 0.030281542 0.086664855
0.01558604 0.031583071 0.085107625
0.011180879 0.032063901 0.084973276
0.0054915519 0.032571435 0.083859861
-0.00085402559 0.032171071 0.08417815
-0.0052940408 0.031988502 0.084144115
-0.010294027 0.032337606 0.082402885
-0.015236272 0.031069336 0.083203077
0.015627701 0.031668305 0.07968241
0.011180337 0.032249331 0.079588711
0.0055361362 0.03237921 0.079835713
4.6185181e-05 0.032365203 0.079459667
-0.005527935 0.032629967 0.079392731
-0.010145283 0.033036172 0.078903258
-0.015033665 0.031774402 0.077939749
-0.01081214 0.032370389 0.074291646
0.016802358 0.031807363 0.077235758
0.0094727213 0.031703591 0.076797068
0.0062204944 0.031417072 0.076415181
-0.0011083622 0.031059504 0.075778902
-0.0043705264 0.03130722 0.075812519
-0.014959405 0.031357586 0.075334847
0.01618032 0.030762734 0.073329508
0.011265882 0.031106712 0.073358715
0.006128964 0.030394614 0.072988927
0.0014605328 0.030290425 0.072679758
-0.0042418754 0.030390263 0.07204175
-0.009534779 0.031157672 0.071873724
-0.014858569 0.031034468 0.072028279
0.016414652 0.031432033 0.06874299
0.0114984 0.03154552 0.068593562
0.0065967785 0.031150997 0.068043649
0.0016819845 0.031270504 0.067898989
-0.0035606241 0.030921161 0.067573369
-0.0091715371 0.031324804 0.067227125
-0.014062497 0.030445037 0.067303121
0.0067568077 0.032288492 0.064840317
0.001842455 0.032218874 0.064546168
-0.003072097 0.032167017 0.064266145
-0.0090783229 0.032064199 0.063892603
-0.015475503 0.030258177 0.065235674
0.011804531 0.031241717 0.062183261
0.0068944404 0.032414854 0.061852396
0.0019698041 0.03249532 0.061677694
-0.0029488159 0.032142937 0.061157048
-0.0078850416 0.031529129 0.060868382
-0.012835528 0.030715225 0.060568631
0.01119033 0.030857386 0.057701886
0.0070377076 0.03227973 0.058646023
0.0021167034 0.031575203 0.057840347
-0.0019895798 0.030988038 0.057168663
-0.0093978746 0.030962527 0.05678916
-0.011045034 0.030463098 0.056307256
-0.014415777 0.029559968 0.057495415
0.012461151 0.030299129 0.055230975
0.0072122132 0.030874074 0.054399312
0.0022707556 0.030363858 0.053747833
-0.0029332738 0.030176461 0.053790867
-0.0074562719 0.030311167 0.054015458
-0.012634086 0.029977856 0.05410403
0.012348899 0.030136051 0.050652325
0.0077437321 0.03002131 0.049760699
0.0024529353 0.030147314 0.049398363
-0.0025154192 0.030489922 0.049437463
-0.0074779345 0.030525088 0.049226344
-0.012490935 0.029530166 0.04957056
0.015825145 0.030962171 0.04756254
0.013339383 0.030979695 0.04745692
-0.0031852098 0.031451166 0.045996249
-0.0070708534 0.031638443 0.045512378
-0.010634075 0.031266928 0.045485556
0.0058180811 0.02977699 0.048209965
-0.013236503 0.029112099 0.04674679
0.012417444 0.030540349 0.04434377
0.007664402 0.029840767 0.044140637
0.0026762199 0.030204892 0.04420054
-0.0016127926 0.030888498 0.043714404
-0.0080341874 0.031370878 0.042539299
-0.012721094 0.030121325 0.043088853
0.012896591 0.029974522 0.039217651
0.0082976343 0.029787481 0.039371312
0.0029073332 0.029850304 0.0386343
-0.0020880315 0.029919446 0.038451135
-0.0070835045 0.030521393 0.038710415
-0.010978873 0.02946168 0.037997603
0.014715579 0.030034544 0.036169291
0.0071262429 0.029507995 0.037491739
0.0030438316 0.029816866 0.035427034
-0.0019596878 0.029798329 0.03517127
-0.006962656 0.029831946 0.034959137
-0.013178776 0.028574644 0.036447227
0.012937349 0.030533912 0.034105718
0.0081264125 0.030558348 0.034162164
0.0031321731 0.030584395 0.033678055
-0.0018710148 0.030461192 0.033334672
-0.006875108 0.030403495 0.033046186
-0.011893041 0.029363034 0.032199919
0.013416917 0.031245591 0.028584242
0.0086007463 0.031071126 0.028473556
0.0033417707 0.030954897 0.028927505
-0.0016711567 0.030727684 0.028495312
-0.0066868169 0.030721724 0.028250277
-0.011026285 0.03040844 0.027562499
0.016951915 0.031895101 0.025012374
0.0068393564 0.030494988 0.025486648
0.0035017368 0.029701948 0.024652779
-0.001522918 0.029032707 0.023843467
-0.0065621985 0.029793501 0.024249494
-0.012469883 0.029397247 0.024705708
0.01371085 0.030807199 0.022387981
0.0086614126 0.030506194 0.022352397
0.0036414873 0.029586911 0.0213269
-0.001393738 0.029078484 0.020651996
-0.0066641262 0.029765666 0.020524979
-0.011241539 0.030249534 0.020373166
0.013861713 0.030279519 0.01916492
0.008824029 0.0298841 0.018584847
-0.0021066226 0.029081166 0.017373562
-0.0062933257 0.029649198 0.0169397
-0.011290702 0.030572532 0.01605159
0.014043965 0.029499294 0.015245795
0.0089819366 0.02949661 0.015002608
0.0038841863 0.028998613 0.015416563
-0.00091304514 0.029212177 0.014751673
-0.0058522625 0.029490232 0.014073312
-0.011806815 0.029162047 0.013360977
0.014286601 0.030043842 0.010278821
0.0092191817 0.029857457 0.0098753572
0.0041472232 0.029831469 0.009611845
-0.00093521259 0.030757487 0.010177672
-0.0060006147 0.030843675 0.010011613
-0.011065177 0.03045374 0.0094310641
0.014080712 0.03058845 0.0058171749
0.0094054574 0.030309856 0.0058997273
0.0043245507 0.030328035 0.0056747198
-0.00039163875 0.031125903 0.005274117
-0.0060228361 0.031324744 0.0044922233
-0.01029615 0.031043053 0.0041463971
0.015426968 0.030691387 0.0043239594
0.0094843609 0.030156851 0.0041211247
0.0044158967 0.030432522 0.0035743117
-0.002365547 0.030593634 0.003395021
-0.012533686 0.029523788 0.0019705892
-0.01511795 0.028978763 0.0024672747
