# .PCD v0.7 - Point Cloud Data file format
VERSION 0.7
FIELDS x y z
SIZE 4 4 4
TYPE F F F
COUNT 1 1 1
WIDTH 1353
HEIGHT 1
VIEWPOINT 0 0 0 1 0 0 0
POINTS 1353
DATA ascii
0.047261834 -0.017377621 0.77320921
-0.0051860623 -0.013674129 0.77450013
-0.0020069019 -0.012510088 0.77380675
0.0022880547 -0.011466006 0.77134246
0.038900234 -0.010495849 0.77033335
0.042385716 -0.012204655 0.77275014
0.045706972 -0.013306905 0.77409178
-0.00085244956 -0.008629228 0.77426684
0.0027532438 -0.007179698 0.77336127
0.0075787231 -0.0067529753 0.77157152
0.011128523 -0.0061994605 0.77064443
0.0336206 -0.0057174736 0.77006686
0.037567489 -0.0068754829 0.77145672
0.04102404 -0.0071883854 0.77426678
0.0036588688 -0.0030471738 0.77405429
0.0078021311 -0.0028640379 0.77332973
0.012401943 -0.0030035083 0.77241677
0.016839523 -0.0020392647 0.77210963
0.022448907 -0.0019957577 0.77109337
0.027490398 -0.0025692761 0.77132666
0.032266364 -0.0028582853 0.77201861
0.037385017 -0.002865199 0.77364451
0.0078089647 1.2478643e-05 0.77400011
0.012136119 1.2475061e-05 0.77377796
0.0176001 0.00030054356 0.77295339
0.022595786 0.0014531536 0.77365428
0.027248206 0.0020292499 0.77398682
0.032144379 0.0010412543 0.77404308
0.035979331 0.00073312479 0.77446681
0.030945208 -0.083603166 0.77500004
0.029518854 -0.075001627 0.77550006
0.031051686 -0.078104399 0.77766675
0.0046493383 -0.073103681 0.77680862
0.0068621407 -0.071179748 0.77577573
0.029156709 -0.072115064 0.77548373
0.032475319 -0.072254099 0.77697921
0.0040758136 -0.067133904 0.77793568
0.0072471001 -0.068385124 0.77571547
0.033420503 -0.068841942 0.77652627
0.03736338 -0.067062743 0.77822572
0.043223064 -0.065696456 0.77920008
0.047240172 -0.06631472 0.77889568
-0.0018237418 -0.061705917 0.7776112
0.0015579351 -0.062794283 0.77616686
0.038229007 -0.064958453 0.77615577
0.042811546 -0.062336776 0.77721256
0.047728654 -0.062190708 0.77765304
0.051631153 -0.063328251 0.77743632
-0.011035597 -0.055818297 0.77956676
-0.0071022487 -0.057339489 0.77856338
-0.0031712118 -0.058032911 0.77621353
0.043629825 -0.058064327 0.77566677
0.047690734 -0.05780296 0.77700287
0.0514188 -0.057921547 0.77860683
-0.015405205 -0.050768502 0.77996671
-0.012285016 -0.05191334 0.77808338
-0.0076998812 -0.053025428 0.77630925
0.0486845 -0.05444742 0.77553344
0.052032541 -0.05253287 0.7784667
-0.015398291 -0.047120366 0.77961677
-0.012629491 -0.047861788 0.77693349
-0.009537857 -0.049066793 0.77600032
0.052058671 -0.04770413 0.77730566
-0.015375243 -0.042705443 0.77845001
-0.01315564 -0.042568471 0.77595854
0.052626468 -0.04242542 0.77692437
0.055860601 -0.040603615 0.77980012
-0.015739307 -0.038001005 0.77847499
-0.013156262 -0.037519254 0.77601141
0.054120991 -0.037505224 0.77571136
0.05578658 -0.037653398 0.77876663
-0.015670152 -0.032432135 0.77865332
-0.012919889 -0.032397103 0.77626687
0.054071367 -0.032424621 0.77500027
0.05646053 -0.032551877 0.7780292
-0.015381719 -0.027512133 0.77877784
-0.012442091 -0.027432652 0.77653348
-0.0095345788 -0.025961731 0.77573359
0.053759933 -0.027043531 0.7757169
0.056445196 -0.027478024 0.77782232
-0.015392035 -0.024631454 0.77930003
-0.012173971 -0.022705348 0.77791345
-0.0092470162 -0.02192536 0.77586693
0.053450283 -0.022374712 0.77646679
0.056087852 -0.022879668 0.77891338
-0.011602314 -0.0176556 0.77850676
-0.0085057225 -0.017105887 0.77611446
0.049739495 -0.015847014 0.77506691
0.052421842 -0.017562162 0.77807707
-0.011029462 -0.01448082 0.77913338
-0.0076911873 -0.01206893 0.77725488
-0.0037470856 -0.010808297 0.77563351
0.048217401 -0.011892218 0.77576679
0.052156053 -0.012300836 0.77876258
-0.0061805653 -0.0077093705 0.77831668
-0.0024870485 -0.0070324279 0.77690017
0.043267697 -0.0072014257 0.77565575
0.047690894 -0.007214135 0.77700573
0.051801682 -0.0075942352 0.77890003
-0.0052204365 -0.0043382356 0.7796334
-0.0018247479 -0.0033632864 0.77777237
0.00095466606 -0.0025129186 0.77595025
0.042633116 -0.0028784419 0.77725929
0.047233321 -0.0032060947 0.77875555
-0.00085861475 1.2573229e-05 0.77986681
0.0034934129 0.0014605728 0.77760017
0.0078345221 0.0029027909 0.77657062
0.012175803 0.0029013949 0.77631879
0.01703435 0.0030302592 0.77581239
0.021560434 0.003618577 0.77536678
0.028056854 0.0043378165 0.77506673
0.032708071 0.0037640184 0.77566689
0.038006619 0.0026617229 0.77652246
0.042138875 0.00088264339 0.7788533
0.045676336 1.2571079e-05 0.77973348
0.0078610675 0.005810577 0.77922225
0.012504265 0.0063868165 0.77874672
0.017278548 0.0072493549 0.77794725
0.022330586 0.0072407406 0.77700764
0.027397854 0.0072398297 0.77689463
0.032472089 0.0072399825 0.77694082
0.037167013 0.0071058832 0.77813345
0.017459882 0.010453371 0.77954012
0.022033948 0.010523366 0.7793417
0.027479662 0.010159018 0.77921677
0.032566015 0.010158654 0.77918893
0.03693936 0.01016242 0.77947789
0.0035143557 -0.07563027 0.78200006
0.031913072 -0.076259956 0.78100002
-0.000861799 -0.071332127 0.78275865
0.0020559938 -0.072337605 0.78236067
0.036553733 -0.071710274 0.78368092
-0.0052523529 -0.065648422 0.78439999
-0.0019056306 -0.066784628 0.78304303
0.001729309 -0.068126343 0.78119826
0.03779031 -0.069093481 0.78208733
0.042208426 -0.067642651 0.78093654
-0.011819754 -0.061187074 0.7833252
-0.0072263475 -0.062406864 0.7819941
-0.0032851484 -0.063378274 0.7804001
0.05314853 -0.061866425 0.78269553
-0.012527362 -0.057439581 0.7818923
-0.0091091888 -0.05903719 0.78058904
0.053002637 -0.057340689 0.7805469
-0.016185291 -0.05238333 0.78241521
-0.013960689 -0.053709302 0.78053343
0.054561079 -0.052357305 0.78201914
0.056171011 -0.051039718 0.78413337
-0.01728292 -0.047299013 0.78258765
0.05446285 -0.04790717 0.78061122
0.057429589 -0.046908069 0.7833268
0.061345622 -0.045976367 0.78484988
-0.018187657 -0.042004548 0.78224599
0.054434177 -0.044978421 0.78020012
0.05775867 -0.042425726 0.78332084
0.060625199 -0.040874369 0.78499991
-0.018110299 -0.037787627 0.78153902
0.058258101 -0.037843477 0.78269464
0.060585722 -0.037929617 0.78448886
0.065011792 -0.035030387 0.78493327
-0.017994108 -0.032889344 0.78177094
0.058871634 -0.032682892 0.78115851
0.062582478 -0.032301225 0.78411287
0.066439003 -0.030633096 0.78449994
-0.017642759 -0.027639754 0.7823779
0.058842126 -0.027582521 0.78076679
0.061532434 -0.027944095 0.78411126
-0.017035732 -0.022333179 0.78189105
-0.013954132 -0.021030635 0.78016675
0.058318727 -0.02222464 0.78210968
0.06129241 -0.024785277 0.78416681
-0.016736547 -0.017639274 0.78264177
-0.013604468 -0.017057186 0.78096676
0.054473698 -0.016689681 0.78076679
0.05685338 -0.017475327 0.78344446
-0.01646767 -0.014092118 0.78440005
-0.012529041 -0.012350936 0.78196019
0.05446963 -0.012331667 0.78070849
0.056424189 -0.012814808 0.78358018
-0.011812825 -0.0072681536 0.78285575
-0.0086244596 -0.0067637139 0.78063345
0.053937566 -0.0069644093 0.78142738
0.056204434 -0.0087443972 0.78459996
-0.011098355 -0.0043625319 0.78400016
-0.0076284264 -0.0027653924 0.78237897
-0.0032861389 -0.0019235862 0.7806223
0.048620071 -0.0014389285 0.78030014
0.0523885 -0.0028968109 0.78221685
-0.0061583663 0.001653102 0.78331691
-0.0024519879 0.0023931486 0.78174263
0.0015665862 0.003400625 0.78050566
0.043255661 0.0031264129 0.78103346
0.047430553 0.0023962951 0.78249115
0.051290542 0.00098548003 0.78403348
-0.0052527995 0.0058496851 0.78446662
-0.002141129 0.0071145929 0.78309178
0.002781546 0.0072792214 0.781214
0.007875395 0.007999138 0.78060007
0.011872067 0.0083572026 0.78015012
0.039885901 0.0079954416 0.78025013
0.04290586 0.0072888392 0.78223354
0.046889681 0.0068168291 0.78380013
-0.00086309219 0.010220508 0.78393352
0.0029558551 0.011888281 0.78288746
0.0078869471 0.012375314 0.78178072
0.012247778 0.012361175 0.7809279
0.017274709 0.013215498 0.78070921
0.02262193 0.01326675 0.78080839
0.027539486 0.013087043 0.78090572
0.032625064 0.013081748 0.78060752
0.037896618 0.012860922 0.78077191
0.042842027 0.011968269 0.78373349
0.045973141 0.010231808 0.78479987
0.0082715871 0.01641386 0.78373349
0.012281764 0.017494507 0.78311878
0.017373992 0.017473739 0.78219479
0.022487914 0.017479934 0.78246689
0.027604828 0.017486243 0.78276139
0.032660395 0.017457126 0.78145194
0.037757803 0.017455431 0.78138351
0.041462928 0.016751871 0.78255004
0.013026429 0.020429242 0.78396678
0.017413653 0.021159742 0.78399181
0.02254034 0.021167913 0.78430009
0.028201297 0.021345334 0.7841168
0.03275609 0.02188237 0.78374088
0.036764741 0.020782299 0.78351688
0.040070776 0.020426637 0.78386688
-0.0060168584 -0.071141496 0.7886759
-0.0026280149 -0.07111425 0.7867502
0.038668189 -0.071546152 0.78507137
0.042226456 -0.070745289 0.78590274
-0.0074804416 -0.067395806 0.78776342
-0.0037953085 -0.06794247 0.78561497
-0.012624198 -0.062761493 0.78786212
-0.0096525718 -0.064265691 0.78533334
0.055097379 -0.060216483 0.78970587
-0.015592669 -0.055791963 0.78945833
0.054852262 -0.056292396 0.78619254
0.056525953 -0.056865871 0.7890808
-0.016535485 -0.053218801 0.78758049
0.058041364 -0.052886117 0.78717297
0.060777083 -0.051956147 0.78696668
-0.02184698 -0.04660666 0.78933847
-0.019582156 -0.047571104 0.78707099
0.05844643 -0.049650643 0.78523326
0.062381513 -0.048030447 0.78604019
0.065590613 -0.046498068 0.78748757
-0.022201424 -0.042542014 0.78883529
-0.019937273 -0.04388414 0.78660011
0.062389966 -0.042596415 0.78646672
0.065661855 -0.04288226 0.78833663
-0.021951526 -0.037397694 0.78866893
-0.019902354 -0.036504116 0.78522223
0.062865615 -0.037250493 0.78555
0.065697946 -0.037131585 0.78613538
-0.021819368 -0.031881455 0.78832501
-0.019906014 -0.031397071 0.78536665
0.066509567 -0.032857254 0.7853334
-0.022753965 -0.027685024 0.78885418
-0.019919813 -0.027764967 0.78591108
0.063174985 -0.027291065 0.78635556
0.066550404 -0.027759837 0.78581548
-0.025910331 -0.024963325 0.78980005
-0.022804655 -0.02293263 0.78887868
-0.019923756 -0.022650862 0.78606677
0.061805449 -0.022356702 0.78669536
0.06686943 -0.024956457 0.78958291
-0.020740433 -0.017605189 0.78924984
-0.019464808 -0.017560961 0.7872445
0.059233177 -0.017531218 0.78595561
0.061604992 -0.01758082 0.7881611
-0.020012468 -0.013205596 0.78956681
-0.017181752 -0.011864754 0.78725189
-0.014052506 -0.010217774 0.78566676
0.058692895 -0.012118486 0.78711903
0.060915221 -0.013191325 0.78875548
-0.016629176 -0.00753249 0.78872359
-0.014101788 -0.0073191137 0.78842217
0.057632279 -0.0073121856 0.78742224
-0.012373748 -0.0029174173 0.78750563
0.054838825 -0.0014494396 0.78600001
0.057164237 -0.0029172387 0.78772783
-0.011455492 0.0017733214 0.7884267
-0.0087473588 0.0027557781 0.78620839
0.052801263 0.0029400359 0.78682387
0.05635279 0.0018485794 0.7892375
-0.011174797 0.0066209678 0.78939998
-0.0076816333 0.0074750017 0.78787875
-0.0038003889 0.0087927906 0.78666675
0.048449788 0.0082917595 0.78539997
0.051829286 0.0071550542 0.78757083
0.055108588 0.0058899522 0.78986704
-0.0063888342 0.010656483 0.7892167
-0.002338259 0.012474751 0.78806996
0.0020672465 0.014644546 0.7865777
0.043818302 0.014625099 0.78553331
0.047690641 0.012653799 0.78676981
0.051202737 0.011456758 0.78869331
-0.001237821 0.017274745 0.78975016
0.0023648497 0.017462984 0.78824985
0.0068842797 0.01840141 0.78633338
0.04368718 0.017593918 0.78755563
0.046948873 0.016889425 0.78889167
0.0023701985 0.021164175 0.7896201
0.0074281688 0.022431543 0.78837621
0.01219793 0.023149241 0.78709996
0.017468197 0.024153259 0.78648329
0.022594981 0.024144007 0.78620005
0.027180444 0.023964489 0.78629172
0.03289688 0.02490372 0.78711128
0.037490353 0.023628673 0.78723747
0.041025728 0.022004928 0.78815848
0.013122769 0.027190667 0.78974187
0.017523499 0.027898652 0.7889722
0.022652354 0.02787187 0.7882036
0.027083598 0.027892794 0.78881097
0.031955723 0.027614469 0.78924978
0.036697838 0.026462451 0.78993356
0.019751433 0.030864222 0.78976673
0.022690849 0.031589869 0.78953892
0.025647454 0.030869434 0.78990024
-0.011183291 -0.066117115 0.79000002
-0.020102104 -0.062685221 0.79310322
-0.017140282 -0.062676594 0.79296571
-0.014150453 -0.064005569 0.79114288
0.056674819 -0.060817409 0.79115725
-0.020631118 -0.058118422 0.79450005
-0.017314943 -0.057660528 0.79242921
-0.014132156 -0.058778271 0.79012007
0.058653954 -0.057886317 0.79131299
-0.02140744 -0.051650751 0.79349816
-0.0186074 -0.05305526 0.79244065
-0.026048115 -0.048727971 0.79400003
-0.023919513 -0.047434736 0.79213351
-0.026060479 -0.043578893 0.79437673
-0.024499966 -0.042701948 0.7918238
0.066920184 -0.042614076 0.79018188
-0.026055414 -0.037662067 0.79422247
-0.023983711 -0.037509013 0.79101235
-0.026637917 -0.032477845 0.79390681
-0.023880176 -0.03264593 0.79084003
-0.02731657 -0.027179904 0.79255939
-0.024449717 -0.029385738 0.79020017
-0.030490575 -0.0206651 0.79400003
-0.026749477 -0.022107838 0.79280853
-0.024450744 -0.020567063 0.79023361
0.064088486 -0.022074834 0.79161102
0.066925809 -0.02228157 0.79242915
0.070205182 -0.022142094 0.79400003
-0.0260364 -0.019179476 0.79364294
-0.023206744 -0.017475439 0.7917459
0.064067788 -0.017652126 0.79135555
0.066365995 -0.01767504 0.79236007
-0.022228654 -0.012767232 0.79266661
0.063121296 -0.012260986 0.79181117
0.066019826 -0.012385905 0.79352963
-0.020839751 -0.0073626214 0.79297787
-0.01855753 -0.0066025984 0.79031676
0.059537999 -0.0066002468 0.79000026
0.062265702 -0.0075691552 0.79255247
0.065784834 -0.0088521289 0.79426676
-0.020147646 -0.0044231862 0.79490006
-0.016696442 -0.0031427131 0.79189056
-0.014132989 -0.0021920227 0.79016691
0.059599951 -0.0029292896 0.79082233
0.061591182 -0.0033056708 0.79271424
-0.01617834 0.00050550606 0.79411125
-0.013531473 0.0025394042 0.79187626
0.058811486 0.0029582265 0.79154265
0.061253496 0.00075115071 0.79313546
-0.012210579 0.0073848912 0.79282236
0.053649064 0.0088307969 0.7900669
0.057405625 0.0072163963 0.79216301
-0.011225759 0.010338713 0.7930001
-0.0077122557 0.012989158 0.79103947
-0.0038164924 0.014708253 0.79000026
0.052855525 0.013252839 0.79078579
0.055916805 0.012226516 0.79236192
-0.0063686734 0.017508116 0.79317147
-0.0032320027 0.017965991 0.79106677
0.043360274 0.01912982 0.79053348
0.048397966 0.018256862 0.79092681
0.052031294 0.016618084 0.79346669
-0.0053202068 0.021443717 0.79453337
-0.0023528216 0.022133734 0.7927407
0.0017091839 0.023174442 0.79055017
0.0057609705 0.024997763 0.79008353
0.04340994 0.022648238 0.79142505
0.047755349 0.021960096 0.79311669
-0.00087424868 0.025123795 0.79406679
0.002412772 0.026732277 0.79305196
0.0072430526 0.027974015 0.79109722
0.011807814 0.028539374 0.79047352
0.033754192 0.029403789 0.79000026
0.037653152 0.028358009 0.79010499
0.042128362 0.027487623 0.79253346
0.04505109 0.027348898 0.79435003
0.0074678618 0.032359246 0.79366666
0.012416783 0.032414898 0.79174817
0.017361252 0.03250559 0.7906881
0.022725107 0.033843834 0.79073358
0.027319644 0.032540809 0.79033357
0.032331765 0.032394152 0.79122233
0.037541475 0.032433394 0.79218513
0.040925886 0.032111656 0.79335004
0.0095019247 0.035499338 0.79486674
0.012741414 0.036031131 0.79354668
0.017426794 0.036789026 0.79367274
0.02293976 0.037454005 0.79352736
0.027233347 0.037639234 0.79319447
0.031816185 0.037294216 0.79371119
0.037629336 0.035462622 0.79404455
0.027288871 0.041410282 0.7948001
-0.022145236 -0.061657518 0.79566669
-0.022403261 -0.056996826 0.79603177
-0.023324629 -0.05328111 0.79581255
-0.026134234 -0.046665668 0.79662502
-0.030644182 -0.041551281 0.79800004
-0.027366152 -0.042139202 0.79786527
-0.03064418 -0.035613544 0.79800004
-0.028373323 -0.03704847 0.79689932
-0.030653778 -0.031913154 0.79825002
-0.028709712 -0.032560188 0.79593706
-0.030620819 -0.02742536 0.79739171
-0.029075909 -0.028854173 0.79581064
-0.029087091 -0.022200905 0.79611665
0.068912402 -0.020721646 0.79617244
0.070382021 -0.020717155 0.79600006
-0.027643153 -0.01778321 0.79726595
0.069023371 -0.01927159 0.7974546
-0.026570691 -0.013727446 0.79856813
-0.024281945 -0.011473314 0.79676855
0.067481153 -0.012834574 0.79680562
-0.023235092 -0.007418687 0.79911137
0.06438715 -0.0066443747 0.79530001
0.06651476 -0.0073999763 0.79710007
-0.020731026 -0.0029574025 0.79831105
-0.01868315 -0.0022068159 0.79566675
0.063862197 -0.0026522006 0.79614669
0.067440547 -0.0034560335 0.79925042
-0.02027184 1.28946e-05 0.79979998
-0.017418355 0.0026079132 0.79714167
0.063091516 0.0019200041 0.79765224
-0.016531914 0.0074473121 0.79925555
-0.013884137 0.0077966084 0.79700011
0.058437034 0.0088866809 0.79506671
0.061214548 0.0078012203 0.79743969
-0.012616925 0.012544677 0.79774821
-0.0097885979 0.014827418 0.79640007
0.058299482 0.013064536 0.79724008
0.060701504 0.012149292 0.79884452
-0.011311639 0.017850891 0.79906672
-0.009210946 0.01811849 0.79778671
0.05285259 0.018665457 0.79581332
0.056994576 0.017645355 0.79820842
-0.0078259474 0.022277374 0.79794073
0.049644012 0.023726081 0.79673344
0.052697256 0.022278832 0.79795575
0.056275636 0.021329088 0.79946661
-0.0059438739 0.026457027 0.79862678
-0.0024992733 0.027639031 0.79684854
0.0011027305 0.029129842 0.79588896
0.048167501 0.027436355 0.79686683
0.051608868 0.027082663 0.79954666
-0.0013758965 0.031705804 0.79862231
0.0020939379 0.032632992 0.79706669
0.0050588539 0.034049265 0.79553336
0.043080546 0.032895707 0.79625338
0.047052987 0.032527443 0.79812002
0.0029924945 0.036850542 0.79849339
0.0070927618 0.037206195 0.79685462
0.012266123 0.038915426 0.79560953
0.018116863 0.039676823 0.79561341
0.02136858 0.039948549 0.79513341
0.034363717 0.038861617 0.79558343
0.03752508 0.038315054 0.79575837
0.042250372 0.037095346 0.79737788
0.04607255 0.036437511 0.79921657
0.0086151212 0.041794334 0.79858333
0.012501381 0.043013588 0.79709643
0.017695364 0.042990252 0.7966612
0.022883318 0.042968333 0.7962594
0.027330138 0.043139312 0.79600006
0.032559823 0.042998165 0.79680562
0.037963111 0.042763025 0.79794681
0.041116554 0.041900765 0.79849327
0.012744554 0.047151618 0.79901916
0.017734511 0.04754198 0.79844469
0.022935871 0.047520038 0.7980817
0.027395418 0.047509082 0.7978965
0.032432541 0.047420479 0.79867285
0.037514493 0.046487853 0.79948324
-0.027800525 -0.047717448 0.80183339
-0.031556189 -0.040280238 0.80225003
-0.029269911 -0.042459644 0.80112058
-0.031277165 -0.037260998 0.80150002
-0.031900391 -0.033159897 0.80150002
-0.030733785 -0.023807487 0.80033332
-0.030797783 -0.017143626 0.80200005
-0.029238105 -0.016361909 0.80025005
-0.030816985 -0.014915109 0.80250001
-0.027792051 -0.012212878 0.80159348
-0.026381096 -0.0082137361 0.80415022
-0.024841299 -0.0074540232 0.80285573
0.068747424 -0.0071404343 0.80116683
-0.026398771 -0.0029808518 0.80468911
-0.023508877 -0.0027847192 0.80204952
0.067775667 -0.0022199175 0.80028325
0.070942014 -0.0044645485 0.80233335
-0.026354305 0.0015071254 0.80333352
-0.022717217 0.0023998851 0.80183327
-0.018809944 0.0044833305 0.80106664
0.064317964 0.0039843977 0.80058879
0.06708651 0.0019326628 0.8022337
-0.021248981 0.0068834303 0.80290002
-0.018836031 0.0074741058 0.80217773
0.064077377 0.0074599222 0.80068874
0.066537134 0.0074859043 0.80334997
-0.02035718 0.010471261 0.80316669
-0.017336594 0.012694749 0.80198056
-0.014331523 0.014173016 0.80126667
0.063548706 0.012766574 0.80134076
0.066232987 0.013102166 0.80420005
-0.016936855 0.017731404 0.8033191
-0.013595146 0.017913036 0.80186659
0.058814321 0.019363737 0.80019987
0.061961941 0.017922396 0.80228889
-0.017396649 0.020972142 0.80480015
-0.012863267 0.022414135 0.80281115
-0.0098434929 0.023849173 0.80086666
0.057883784 0.022861972 0.80107766
0.060928471 0.022058861 0.80347502
-0.011758901 0.026565107 0.8041501
-0.0083666742 0.028101003 0.80237883
0.053806689 0.02792725 0.80181903
0.056718875 0.027353782 0.80373818
-0.0068818042 0.032265123 0.80374295
-0.0028751073 0.033297729 0.8011722
0.049916096 0.033542611 0.80110002
0.052821677 0.032674849 0.80266249
-0.0021953322 0.037171435 0.80302501
0.00098599773 0.037664868 0.80159998
0.047924131 0.037515085 0.80108333
0.051545732 0.037366193 0.80320483
-0.00088574784 0.041916739 0.80451125
0.0021097176 0.042572644 0.80276394
0.0060289614 0.043052111 0.80126655
0.043307897 0.042811956 0.8012476
0.047054384 0.04259922 0.80324721
0.050136253 0.041174442 0.8046335
0.0026124537 0.047368258 0.80391121
0.0073430296 0.047757775 0.80207223
0.011808651 0.04915268 0.8004998
0.034944937 0.04914654 0.80039984
0.038251303 0.048579559 0.8008666
0.042518608 0.04777969 0.80243516
0.045632429 0.046411004 0.80460018
0.0084876567 0.05124782 0.80416679
0.012595214 0.052300557 0.80309266
0.017069895 0.052242193 0.80220002
0.022294139 0.052213725 0.80176109
0.027523629 0.052205529 0.8016296
0.032318927 0.052074898 0.80191338
0.037494786 0.052410148 0.8026939
0.04180856 0.052307833 0.80320567
0.014125898 0.055414233 0.80493361
0.017535929 0.056630511 0.80396682
0.02233536 0.056791902 0.80323333
0.027401844 0.056626812 0.80353749
0.031736847 0.055739194 0.80421686
0.037365053 0.055370633 0.80430013
0.041886248 0.05539817 0.80470014
-0.02825092 -0.0072480533 0.80753708
-0.028364949 -0.0026141047 0.80723333
-0.028012097 0.0015116424 0.80787498
0.06817513 0.0045053442 0.80500025
-0.025044443 0.0075414455 0.80942112
-0.023142625 0.007813096 0.8062731
0.068267256 0.0075109177 0.80608797
0.070035055 0.0090440158 0.80914289
-0.020450113 0.012770146 0.80683327
0.068253189 0.012504559 0.80591124
0.07002268 0.012052211 0.80900002
-0.020494465 0.017312178 0.80858338
-0.018921092 0.018749846 0.80580008
0.067753054 0.017793633 0.80684793
-0.017226482 0.022524936 0.80678099
0.063230358 0.02283207 0.80702668
0.067655735 0.021049883 0.80778331
-0.013440001 0.027798837 0.80743331
0.058856286 0.027747257 0.80588341
0.061596114 0.027045354 0.80731106
-0.012044933 0.032189004 0.80825329
-0.0087083941 0.033910971 0.80630672
0.054672148 0.034460161 0.80513358
0.057983436 0.03275222 0.80731326
0.061448824 0.031854883 0.80867773
-0.0072130016 0.037399784 0.80715322
-0.003893144 0.038988736 0.80586678
0.054399505 0.037901968 0.80664998
0.056928176 0.03662014 0.80873328
-0.0057944176 0.041775521 0.8090167
-0.0028235593 0.042448573 0.80650485
0.052002564 0.042015284 0.80641109
-0.0019658045 0.04700144 0.80740005
0.001115722 0.048944805 0.80524468
0.047424376 0.048200503 0.80635828
0.050996441 0.047041681 0.80806655
0.0023381815 0.052186441 0.80793333
0.0068174158 0.05306438 0.8061834
0.044183839 0.052460182 0.80554825
0.046825286 0.052111749 0.80790144
0.007969209 0.056615014 0.80871665
0.012454577 0.057182945 0.80610842
0.016756887 0.058796704 0.80511689
0.022384407 0.059911165 0.80500025
0.028019242 0.059546731 0.80513352
0.032468416 0.057859201 0.80561352
0.037448991 0.057743806 0.80609167
0.043008268 0.057532821 0.80763811
0.045870617 0.056433693 0.80879998
0.0096796453 0.060263462 0.80973345
0.012987602 0.060800325 0.80885333
0.017187597 0.061867397 0.80772209
0.02243576 0.063054629 0.80687779
0.027690189 0.063022412 0.8064667
0.032252211 0.062370319 0.80773324
0.037372708 0.061884407 0.80818963
0.04210142 0.060949087 0.80883336
0.023642587 0.066648766 0.80953336
0.027413171 0.066637874 0.80940002
-0.022105156 0.012103751 0.81235641
-0.025186118 0.018183485 0.81400013
-0.022866921 0.017393099 0.81247437
0.071973577 0.019697681 0.81400001
-0.022103673 0.022677246 0.81223607
-0.019027544 0.024131073 0.81033349
0.067201324 0.023407504 0.81135565
0.070818573 0.022682317 0.81236678
-0.016662067 0.026930938 0.81289339
0.064159743 0.027173745 0.81117779
0.066652685 0.028779333 0.81390011
-0.013928982 0.032665092 0.81262672
0.063738607 0.033002868 0.81223339
0.066809036 0.031204516 0.81396008
-0.012254852 0.037781019 0.81212229
-0.0099565703 0.038438503 0.81006688
0.058646899 0.03826249 0.81164449
0.061899938 0.03753268 0.81328011
-0.011517375 0.041633636 0.8136
-0.0086512454 0.042470776 0.81151676
0.053491957 0.043708984 0.81000024
0.05688284 0.042014722 0.81285191
-0.0066204388 0.04703771 0.81254077
-0.0035402938 0.04867259 0.81110013
0.053274166 0.048004538 0.81128007
0.055982001 0.047666758 0.81324995
-0.0069766636 0.050038923 0.81493366
-0.0016540564 0.052955892 0.81315547
0.0013750193 0.054300949 0.81066686
0.04853921 0.053845529 0.81137794
0.052200139 0.052971218 0.81339264
0.055315007 0.051533777 0.81460023
-0.00089648849 0.05605679 0.81426692
0.002133107 0.057389557 0.81168157
0.0062908358 0.05846715 0.81093353
0.04801755 0.057648059 0.81229526
0.051265161 0.056586523 0.81462246
0.0025704191 0.061802924 0.81299984
0.0074326615 0.062310707 0.8118723
0.012502139 0.063797913 0.8108955
0.016865479 0.064454831 0.81035018
0.038410943 0.064846247 0.81053352
0.04317769 0.063146524 0.81082875
0.047430951 0.061615307 0.81337148
0.0029002824 0.065155581 0.8144002
0.007449138 0.066605099 0.81359327
0.012748286 0.068055868 0.81283706
0.01728184 0.067999437 0.81216294
0.021983311 0.068464786 0.81097525
0.028144052 0.068797007 0.81089354
0.032383271 0.067902669 0.81101495
0.037244655 0.067790411 0.81147337
0.042525426 0.067792438 0.81298792
0.012777484 0.071240634 0.81468916
0.017537832 0.07226193 0.81399053
0.022583432 0.072535425 0.8122111
0.027880145 0.072517544 0.81200749
0.032271117 0.072412692 0.81294996
0.036644116 0.071494907 0.81326663
0.041633166 0.071217306 0.81442243
0.024144381 0.075698167 0.8137334
0.027933801 0.075683691 0.81357783
-0.025266567 0.0091273654 0.81660002
-0.025317485 0.012188823 0.81824589
-0.02373001 0.012158766 0.81613278
-0.025898892 0.01734394 0.81729013
-0.025722686 0.023246545 0.81900007
0.072447829 0.022875827 0.81936359
-0.021857299 0.02623615 0.81721127
-0.018800065 0.02774483 0.81685007
0.067871399 0.026928574 0.81682873
0.070851691 0.027421026 0.81857771
-0.017678956 0.031959698 0.81778532
-0.014599818 0.034936666 0.81626678
0.067635477 0.033052359 0.816607
0.070729539 0.031175435 0.81716675
-0.016685706 0.036832228 0.81901115
-0.014612142 0.038006529 0.81695557
0.064150333 0.038334951 0.81586677
0.066583738 0.037279766 0.81771332
-0.013539099 0.042824242 0.81776196
0.05940035 0.04347701 0.81506687
0.063118726 0.042581152 0.81725937
-0.011380397 0.046951268 0.81725007
-0.0084986128 0.048534911 0.81513369
0.059024297 0.04673437 0.81546688
0.062068436 0.047388814 0.81778103
-0.010824359 0.050259978 0.81853342
-0.0068151648 0.052720048 0.81830007
-0.003940702 0.053122114 0.81571132
0.057334464 0.053031016 0.81689638
0.06108411 0.051179685 0.81861341
-0.0054840352 0.057144448 0.81900018
-0.0026145612 0.057941355 0.81680012
0.05285709 0.058181357 0.81573349
0.056656782 0.057638694 0.81828582
-0.0022379954 0.062254202 0.81857508
0.00062345318 0.063007034 0.81599998
0.048502222 0.063687555 0.81500036
0.052465815 0.062364891 0.81752598
0.055620559 0.061722502 0.81910014
-0.00090184639 0.065534286 0.81913352
0.0019299296 0.067370586 0.81763822
0.0070129232 0.069521405 0.81585348
0.044742487 0.069814526 0.81573337
0.04768423 0.06738475 0.81636369
0.051777337 0.067024134 0.81871128
0.0032980831 0.071225435 0.81886685
0.0074884552 0.073050745 0.81797224
0.012803256 0.073662721 0.81633347
0.016588606 0.074327275 0.81530029
0.03406515 0.074306011 0.81506687
0.037451588 0.073781826 0.81597346
0.042822368 0.073540121 0.8177852
0.047960199 0.07159362 0.81871998
0.051081292 0.070162572 0.81979984
0.0097991843 0.077018872 0.81973338
0.012848292 0.077732205 0.81921494
0.017414669 0.077655546 0.81840008
0.022128575 0.077706009 0.81714815
0.027593493 0.078328952 0.81635243
0.032620214 0.07751634 0.816926
0.036752485 0.077154964 0.81847793
0.041903496 0.076254241 0.81971115
0.014386794 0.080837458 0.81980002
0.017436676 0.080801301 0.81943333
0.022319948 0.081385329 0.81917346
0.027567046 0.082152113 0.81907886
0.032712672 0.081545942 0.81925565
0.035797741 0.080850601 0.8199333
-0.026944721 0.012999778 0.82133043
-0.026933884 0.015285417 0.8210001
0.072545364 0.024432855 0.82046646
-0.02544912 0.026789803 0.82249999
-0.022350384 0.028022209 0.82131308
0.072683394 0.027537191 0.82202774
-0.020818092 0.032100014 0.82135159
0.069586627 0.03363933 0.82166672
0.07123445 0.033693917 0.82300001
-0.01854332 0.0378737 0.82233328
0.068153463 0.038283322 0.82286519
-0.016984468 0.042782977 0.82114416
0.067144573 0.043121826 0.82177323
-0.017027898 0.047486905 0.82324439
-0.014299641 0.047730993 0.82086647
0.064889185 0.04732256 0.82039982
0.068142228 0.047455981 0.82271105
-0.016788485 0.051111002 0.8240667
-0.01249418 0.052191608 0.82230359
-0.0085601257 0.054231696 0.82103312
0.063136473 0.052275337 0.82147992
0.066425405 0.05210666 0.82363957
-0.011003275 0.056710724 0.82375246
-0.0074731461 0.058312856 0.82165706
0.058819093 0.058818325 0.82109976
0.061442547 0.056842353 0.82289159
-0.0066043884 0.062520668 0.8224476
-0.0039620656 0.064088687 0.82013327
0.057803478 0.062938988 0.82219034
0.060529318 0.061290503 0.82353336
-0.0060261781 0.066389985 0.82344443
-0.0026288158 0.0674382 0.82143319
0.054258037 0.067260973 0.8215999
0.056656837 0.067379244 0.82304436
-0.0019315825 0.071500838 0.82349998
0.0017213766 0.072908655 0.82127601
0.048374951 0.074197747 0.82057315
0.052735824 0.072367057 0.82173979
0.055964626 0.071303383 0.82416677
0.0025501014 0.07663209 0.82376671
0.0070626205 0.078119613 0.82167989
0.03836723 0.078859843 0.82037765
0.04197016 0.078666374 0.82101101
0.046989739 0.076876551 0.82310665
0.052888688 0.075643718 0.8241334
0.0088203652 0.08222796 0.8235333
0.012696204 0.082750633 0.82174987
0.017465346 0.08289776 0.82078075
0.021667019 0.083575964 0.82048321
0.025099557 0.083921544 0.82013333
0.032757279 0.083946556 0.82037765
0.037567697 0.082675017 0.82100809
0.042057797 0.082655638 0.82271105
0.013227718 0.086445346 0.82382679
0.017513203 0.087283686 0.82305187
0.022091705 0.087177224 0.82205176
0.027431911 0.087094076 0.8212719
0.032805912 0.08712922 0.82159978
0.037466478 0.087275535 0.82297778
0.041199695 0.087075584 0.82398671
0.019089328 0.090536244 0.82480013
0.022527363 0.090828314 0.82396674
0.027515838 0.091190711 0.82377505
0.032891225 0.090419166 0.82373333
0.036766253 0.09050332 0.82450008
-0.026336331 0.029216021 0.82625008
-0.023257986 0.029220417 0.82637429
-0.023130069 0.032026771 0.82734138
-0.021027157 0.03550734 0.82960016
-0.019400891 0.038436465 0.82623327
-0.021031015 0.041687593 0.82975209
-0.01937923 0.04300015 0.82531095
0.068359867 0.041467037 0.82535708
0.070081986 0.043884076 0.82751584
-0.019426981 0.047723398 0.82734448
0.071564183 0.047689807 0.82680959
-0.017123852 0.053143285 0.82787621
-0.014772715 0.053787135 0.8259334
0.068982102 0.052297901 0.82666665
0.070235915 0.052465845 0.82933331
-0.016368216 0.055510491 0.82872432
-0.013475363 0.057830472 0.8272571
0.063333482 0.058450583 0.82671118
0.065987431 0.055961251 0.82777786
-0.011722575 0.062648557 0.82798523
-0.0086042657 0.063722476 0.82526672
0.06256941 0.062750556 0.82764179
-0.010574939 0.067473955 0.82891691
-0.0075909789 0.068177305 0.82654446
0.059230614 0.067690253 0.82684439
0.061316621 0.067479566 0.82898355
-0.0068979203 0.072225876 0.82815015
-0.0034770491 0.073252439 0.8259778
0.058155321 0.072554037 0.82719058
-0.0055501028 0.075564124 0.82886696
-0.0022631963 0.076798186 0.82761675
0.001863572 0.07867492 0.82590675
0.047610283 0.079133704 0.82588887
0.053418577 0.077909693 0.82757342
0.057008382 0.07704135 0.8281557
-0.0016862414 0.080975622 0.82901692
0.0020225067 0.0828963 0.82816678
0.0062846281 0.083574317 0.82675552
0.047247328 0.082841761 0.82762671
0.051914215 0.082269974 0.82864249
0.056342613 0.080273509 0.82973349
0.0037267739 0.086398728 0.82926691
0.0075775986 0.087790675 0.82783896
0.012563146 0.088700913 0.82556677
0.043362729 0.087944031 0.82566667
0.04699995 0.0878819 0.82870406
0.050734382 0.087617539 0.82912034
0.0099091614 0.092532963 0.82893354
0.012984965 0.092419758 0.82791865
0.017402567 0.092498317 0.82689995
0.021901365 0.093175039 0.82642663
0.027586743 0.093731508 0.82591665
0.032967877 0.092934318 0.82565564
0.037819263 0.092634499 0.82591438
0.042259295 0.092279449 0.82666659
0.046407938 0.091942042 0.82917345
0.013316954 0.096280925 0.82934695
0.017837483 0.096993864 0.82917529
0.022466658 0.096950367 0.82880026
0.027654992 0.097045623 0.82796675
0.033030327 0.096958645 0.82722944
0.037660345 0.096961223 0.82725167
0.0423491 0.097098649 0.82842231
0.026928941 0.10029552 0.82937807
0.032835897 0.10074112 0.82881135
0.037417106 0.10083127 0.82870686
0.041630417 0.10031031 0.8295002
-0.02711245 0.032721467 0.832322
-0.024153568 0.034009159 0.83070004
-0.025794627 0.0356814 0.83366674
-0.022842351 0.037362669 0.83226931
-0.022405075 0.042101886 0.83285397
-0.018757919 0.052631587 0.83192593
0.070377059 0.054117102 0.83100003
-0.017247593 0.056626834 0.83382761
0.067885272 0.057801951 0.83210897
0.070546001 0.057348803 0.83299494
-0.014113841 0.062719584 0.83239996
0.064121112 0.064880528 0.83026671
0.067174166 0.062442183 0.83145446
0.070934981 0.062381834 0.83299965
-0.012560442 0.068144068 0.83240002
0.063648187 0.06843622 0.83217323
0.06741707 0.066621594 0.8327201
0.07113196 0.065673821 0.8337943
-0.011013761 0.07282576 0.83279991
-0.0086633451 0.074206829 0.83093321
0.061993707 0.072832324 0.83287781
-0.010253603 0.076829806 0.83423328
-0.0073225154 0.077637687 0.83249164
-0.0040116636 0.07879331 0.83040011
0.059507575 0.077278405 0.83071107
0.061325345 0.077617921 0.83436388
-0.0062081087 0.081941068 0.83413327
-0.0027263751 0.083026208 0.8315444
0.054322917 0.083427668 0.83039999
0.057997245 0.082481965 0.83124876
-0.0055911704 0.085442789 0.83499974
-0.0022780765 0.087204941 0.83328336
0.0019905432 0.088325053 0.83105832
0.053919461 0.087946646 0.83113331
0.057594191 0.087035388 0.83289999
-0.0016973909 0.090853944 0.83476645
0.0023856445 0.09287551 0.83374161
0.0068379226 0.092824727 0.83154815
0.047901835 0.093530059 0.83094984
0.052131243 0.09268149 0.83165324
0.055836812 0.093068153 0.83373332
0.003752243 0.096307941 0.8349331
0.0079385033 0.097349048 0.83319986
0.01264981 0.098591298 0.83126664
0.016127985 0.098914117 0.8307333
0.020757642 0.098826796 0.83000016
0.047195561 0.09753377 0.83213335
0.051453892 0.097246997 0.83409995
0.0099792918 0.10095126 0.83479971
0.013594112 0.10185076 0.83367771
0.017718839 0.10224936 0.8327111
0.022346886 0.10210666 0.83155555
0.026980041 0.10280386 0.83094436
0.031876933 0.10302701 0.83066672
0.038205639 0.10316408 0.83073336
0.042748876 0.10259302 0.83191437
0.04624695 0.10133696 0.83371097
0.018285921 0.10666367 0.83494419
0.02241572 0.10707642 0.83411843
0.027064588 0.10700137 0.83353329
0.032296926 0.10687456 0.83364236
0.037938356 0.10698053 0.83337039
0.042406857 0.10660512 0.83390474
0.023218606 0.11029501 0.83499974
0.026333183 0.11029501 0.83499974
-0.027464058 0.03738603 0.8371104
-0.026453303 0.041068088 0.83809739
-0.024330694 0.042820245 0.83679169
-0.022378672 0.047273248 0.83885044
-0.021245917 0.051469445 0.83823079
-0.019697538 0.053068947 0.83886659
-0.017581427 0.058688086 0.83740067
0.072402939 0.058365867 0.83650005
-0.017336734 0.062378038 0.83814448
-0.014960526 0.063028492 0.83643329
0.07288795 0.062226012 0.83609182
-0.016819363 0.067074187 0.83836561
-0.014970062 0.066182949 0.83696663
0.067677103 0.068951555 0.83593321
0.071890049 0.067968421 0.83658457
-0.013427921 0.071734332 0.83814102
0.064581059 0.073124684 0.83622217
0.067891411 0.071770601 0.83858103
0.071817487 0.071006715 0.83877122
-0.01133094 0.077872001 0.83711106
0.06393566 0.077953346 0.83796859
-0.010302635 0.08265572 0.83822232
-0.0083310865 0.082866803 0.83643329
0.062303942 0.082538493 0.83704072
-0.0069118645 0.087274052 0.83766669
-0.0040348521 0.088570565 0.83519989
0.059375118 0.088148795 0.83611107
0.061589357 0.087305248 0.83795565
-0.0056150546 0.091268383 0.83856666
-0.00267632 0.092969403 0.83633333
0.00063822482 0.094800182 0.83533323
0.058571529 0.092464402 0.83629525
0.061258372 0.092459202 0.83876675
-0.0020958623 0.096690632 0.8382501
0.0020043002 0.098287225 0.8369
0.0060898028 0.099446014 0.83519977
0.053104877 0.098975666 0.8355999
0.056860048 0.098143205 0.83733344
0.060119275 0.097587414 0.83925009
0.0029845606 0.1013543 0.83813345
0.0071944082 0.10277144 0.83696669
0.01155333 0.10383049 0.83609986
0.047927614 0.103158 0.83589983
0.052152917 0.10277413 0.8369925
0.056423333 0.10244972 0.83858895
0.0078348052 0.10734085 0.83861339
0.012339455 0.10739159 0.83657765
0.016736433 0.10826734 0.83533317
0.034906626 0.10876779 0.83519989
0.043479085 0.1087808 0.83529979
0.047489017 0.10748708 0.83731854
0.051964857 0.10676561 0.83900011
0.013144294 0.11160237 0.83815241
0.017805569 0.11208698 0.83677775
0.022258762 0.11250023 0.83654273
0.027378382 0.11247468 0.83635229
0.032157667 0.11191054 0.83661997
0.037542313 0.11227795 0.83714545
0.042814836 0.11218945 0.83754075
0.04642291 0.11202551 0.8392334
0.014728419 0.11554217 0.83926678
0.018157883 0.11607853 0.83862674
0.022520114 0.1169267 0.83799267
0.027211603 0.11693697 0.8380667
0.031700648 0.11657725 0.83868569
0.037399836 0.11624816 0.83872515
0.042515956 0.11594426 0.83934999
0.023351122 0.12029737 0.83976662
0.025697367 0.12028304 0.83966666
-0.02682217 0.043060288 0.84150004
-0.026427006 0.046578065 0.84141672
-0.024438515 0.047700211 0.84050006
-0.026078992 0.050969712 0.84285712
-0.023082428 0.052561361 0.8418296
-0.019739801 0.054746613 0.84066671
-0.023096923 0.057719618 0.84297878
-0.019742487 0.057882756 0.84078115
-0.02271907 0.062303293 0.84315735
-0.019749837 0.062597796 0.84109426
-0.022565661 0.066326916 0.84375012
-0.019240161 0.067338645 0.84167832
-0.01643876 0.071882114 0.84217077
0.069611304 0.073494762 0.84046662
0.071998015 0.073530793 0.84087873
-0.015727751 0.076640584 0.84411633
-0.013170933 0.07798434 0.84166658
0.06816493 0.076758511 0.84195572
0.072184876 0.076858625 0.84305412
-0.016683547 0.080934666 0.84468949
-0.01256899 0.082850203 0.84338677
0.064937115 0.082911894 0.84083217
0.068159334 0.082007952 0.8440516
0.07225211 0.08242406 0.84384859
-0.010362174 0.087052576 0.84306693
-0.0087759476 0.088481426 0.84173322
0.063999303 0.087294459 0.84086668
0.066317007 0.088264324 0.84341431
-0.0072129541 0.092459857 0.84233332
0.063805319 0.09196955 0.8414166
0.065936789 0.092597723 0.84358346
-0.006036229 0.096820898 0.84276676
-0.0035420631 0.098097742 0.84139991
0.062685497 0.097143076 0.84216666
0.065186888 0.095791303 0.84406674
-0.0056576869 0.10060493 0.84493321
-0.0025017438 0.10193879 0.84295565
0.0022107784 0.10353622 0.84107763
0.058113512 0.10423684 0.84042209
0.061632037 0.10183061 0.84207779
-0.0013237461 0.10644691 0.84451663
0.0020587554 0.10791238 0.84308022
0.0057370029 0.10829435 0.84056652
0.052818846 0.10918216 0.84138328
0.056966536 0.10766882 0.842219
0.061241873 0.10598118 0.84393334
0.0032694389 0.11205468 0.84435552
0.0069291126 0.11287645 0.8426668
0.011305609 0.11357448 0.84088004
0.048655141 0.11300538 0.84129333
0.052369192 0.11280735 0.84361672
0.056582451 0.11081241 0.84486663
0.0079924762 0.11675122 0.84424448
0.012222523 0.11779085 0.84316373
0.017505296 0.11853281 0.84109992
0.032766491 0.11880121 0.84023321
0.037465639 0.11879414 0.84018326
0.043336134 0.11836864 0.84160006
0.047407478 0.11751386 0.84380949
0.051071536 0.11632233 0.84493321
0.013877302 0.12193851 0.84463996
0.017934479 0.12230698 0.84284467
0.022390587 0.12255972 0.84150463
0.027506651 0.12225302 0.84112501
0.03203243 0.12211525 0.84152585
0.037525497 0.12211568 0.84152764
0.043091629 0.12232193 0.84294832
0.046307515 0.12094198 0.84426653
0.018277284 0.1262643 0.84414673
0.022663351 0.12708467 0.84333342
0.027366232 0.12700996 0.8428371
0.032087982 0.12703231 0.84298527
0.037155755 0.12700216 0.84382665
0.041580446 0.12616739 0.84419996
-0.027786843 0.048856735 0.84700006
-0.027260864 0.052013382 0.84705561
-0.026176235 0.055093944 0.84600002
-0.022993425 0.064460002 0.84500009
-0.023050301 0.068564594 0.84714377
-0.019865034 0.069257453 0.84600008
-0.021897051 0.072605461 0.84833968
-0.019496044 0.072891802 0.84708261
-0.022318818 0.077429123 0.8493253
-0.01875861 0.077428617 0.84685451
0.074714579 0.075463034 0.84500009
-0.017124237 0.081934921 0.84690285
0.069206968 0.083332144 0.84509993
-0.015713414 0.085823961 0.84901041
-0.012434466 0.087739058 0.84644759
0.068552524 0.087433308 0.84675002
0.071234211 0.086940698 0.84578842
-0.01081912 0.092695259 0.84805012
-0.0088339839 0.09379454 0.84730005
0.068142347 0.093316644 0.84655005
0.070666105 0.092601612 0.84937602
-0.0080445306 0.097717345 0.84716678
0.067172997 0.097869039 0.84675843
0.071970791 0.097234353 0.8498168
-0.0066208444 0.10274541 0.84702671
0.063720711 0.10303173 0.84549999
0.066869676 0.10213207 0.84828585
0.073513739 0.10191871 0.84933358
0.075061411 0.10265852 0.84892279
-0.0056801555 0.10731816 0.84828901
-0.0034579642 0.10739291 0.84639996
0.062942371 0.10787767 0.84773999
-0.0019874501 0.11137863 0.84717792
0.0018293066 0.11330858 0.84589994
0.054312989 0.11494071 0.84633332
0.058039591 0.11240032 0.84695554
0.061347302 0.11109471 0.84902239
-0.00093553663 0.11540241 0.84973353
0.0022298407 0.11655494 0.84853357
0.0064339084 0.1186228 0.846389
0.049528915 0.11875987 0.84549999
0.052933507 0.11828901 0.84635001
0.056678664 0.11719272 0.84798115
0.0038172544 0.12009729 0.84940022
0.0075092241 0.12267036 0.84897804
0.011472747 0.1233042 0.84661913
0.0481949 0.12300377 0.84629166
0.052821763 0.12301442 0.84771872
0.056069702 0.1224149 0.84903359
0.012981437 0.12762201 0.84794682
0.017609019 0.12868074 0.84610003
0.043022346 0.12799235 0.84544992
0.047912497 0.12763159 0.84827524
0.051846471 0.12688805 0.84902257
0.018468868 0.13154259 0.84933358
0.022983706 0.13230631 0.84789193
0.027525172 0.13247754 0.84772605
0.032257702 0.13243477 0.84745204
0.037029821 0.13254334 0.84814847
0.042389739 0.13252304 0.84893966
-0.023145027 0.072796941 0.85057139
-0.026330942 0.077581897 0.85100001
-0.023152156 0.077567942 0.85083342
-0.02161352 0.082498834 0.85272503
-0.019991245 0.082367249 0.85137504
-0.02002001 0.085657761 0.85259998
-0.01714329 0.087481871 0.85182965
-0.015915439 0.092172556 0.85418016
-0.013245951 0.092283405 0.85153335
-0.016340151 0.095882095 0.85420007
-0.012072111 0.097296447 0.85267037
-0.0088621331 0.099627011 0.85000014
0.072045758 0.097929269 0.85070533
0.075368524 0.099113867 0.85239595
-0.011451353 0.10198959 0.8538934
-0.0088815922 0.1030167 0.85186666
0.068191826 0.10462838 0.85210001
0.071684487 0.10323546 0.85180479
0.077103078 0.10009586 0.85400003
-0.0072927102 0.10697537 0.85184997
0.067049637 0.10774378 0.85345238
0.073827237 0.10790756 0.85295558
0.075333528 0.10778586 0.852
-0.0057216324 0.11207418 0.85448349
-0.0035821556 0.11345091 0.85089999
0.063197412 0.11315165 0.85261673
0.065995239 0.11208057 0.85453343
0.073940717 0.11125079 0.8542667
-0.0018925195 0.11763766 0.85217988
0.001442392 0.11866146 0.85043335
0.059361447 0.11713278 0.85082221
0.061799448 0.11722624 0.85380679
-0.0013386781 0.12196594 0.85418344
0.0020409778 0.12229336 0.85230827
0.0054107229 0.12347027 0.85086656
0.058645025 0.1220409 0.85192776
0.061192572 0.12157544 0.85423338
0.0024436959 0.12692001 0.85410845
0.0070006214 0.1274922 0.8512966
0.010167372 0.12895982 0.85053337
0.049813975 0.12972508 0.85036677
0.05332749 0.12851834 0.85075343
0.057399776 0.12643798 0.85308892
0.0038385272 0.13029966 0.85413343
0.0070213154 0.13209279 0.85373896
0.012572852 0.13241573 0.85240829
0.017798748 0.13399664 0.8513732
0.021277826 0.13453916 0.85079992
0.047420006 0.13293372 0.85210472
0.052258275 0.13218991 0.85402668
0.056450531 0.13040137 0.85480022
0.013080399 0.13541779 0.85434675
0.018167064 0.13818567 0.85377043
0.022904437 0.1379495 0.85230362
0.02763588 0.13776061 0.85114431
0.032387428 0.13771492 0.85086286
0.037153229 0.1377334 0.85097766
0.041932322 0.13779259 0.85134065
0.046601277 0.13750082 0.85321963
0.05006196 0.13514 0.85460013
0.01924221 0.14198829 0.85435563
0.022951493 0.14219947 0.85403341
0.027730079 0.14299588 0.8540445
0.032487441 0.14290643 0.8535037
0.037253685 0.14286743 0.85327041
0.042073436 0.14302346 0.85420752
0.04579382 0.14197364 0.85426682
0.035711836 0.14624526 0.8544668
-0.02011052 0.087638184 0.85645449
-0.01852366 0.089281678 0.85693741
-0.020175299 0.092714809 0.85921353
-0.018122528 0.092457473 0.85682702
0.073445149 0.09335871 0.85777777
0.079248689 0.094400048 0.8599999
-0.020141328 0.097347669 0.85776669
-0.017176218 0.097688645 0.85610598
0.074036635 0.095483541 0.85537505
0.077416614 0.096513465 0.85746157
-0.020193769 0.10079911 0.85999995
-0.016734269 0.10188126 0.85733116
-0.013710485 0.10189671 0.85577792
-0.010944615 0.10653651 0.85788339
-0.0083879409 0.10823005 0.85551125
0.069306783 0.10909675 0.85606694
0.071853243 0.10797067 0.8559736
-0.0078036436 0.11287272 0.85797149
0.06821394 0.11338407 0.85665739
0.072119966 0.11225235 0.85786676
0.075934768 0.11184119 0.85880005
-0.0065513565 0.1182164 0.85868889
-0.0041389875 0.11795063 0.85675573
0.064089485 0.11820015 0.85568362
0.067313768 0.11755859 0.85777783
0.071162894 0.11588898 0.85919994
-0.0057556694 0.12233439 0.85956681
-0.0035040253 0.12315974 0.85751998
0.063437499 0.12297688 0.85687631
0.066360787 0.12229216 0.8592667
-0.0015849776 0.12730709 0.8575201
0.00065396377 0.12898205 0.85593355
0.059210729 0.12850501 0.85628909
0.062111892 0.12739699 0.85812008
-0.00094515184 0.13096076 0.85846657
0.0022529543 0.13237929 0.85730499
0.0054391264 0.13366488 0.85533363
0.054411244 0.13326262 0.85615581
0.057965953 0.13221997 0.85834664
0.061591361 0.13116412 0.85980016
0.0033279415 0.1364428 0.85946685
0.0072493991 0.13696116 0.85728341
0.011832793 0.13780211 0.85632247
0.01501271 0.13845973 0.85546696
0.048547518 0.13854605 0.8560003
0.051994637 0.13729545 0.85688353
0.05564696 0.13633735 0.85879999
0.0086692236 0.14147303 0.85926676
0.012055131 0.14185214 0.85793334
0.016820185 0.14294995 0.85615027
0.022981802 0.1447724 0.85515589
0.047611777 0.14274999 0.85638398
0.050687037 0.141735 0.85843337
0.012680713 0.14553045 0.85963345
0.017367985 0.14703296 0.8580296
0.023024017 0.14743073 0.85673356
0.028037371 0.14772798 0.85647643
0.032392338 0.14794546 0.85625029
0.037387583 0.14789702 0.85635567
0.042214755 0.14748998 0.85707784
0.046812046 0.14690584 0.8583222
0.018614639 0.15098271 0.85972011
0.023091922 0.15186292 0.8592667
0.027687414 0.15199786 0.85890001
0.032907076 0.15218417 0.85850471
0.037700512 0.15200013 0.85891676
0.042114288 0.15147933 0.85968578
0.047152206 0.15033357 0.85966682
0.029520605 0.15595488 0.8598001
0.032402955 0.15577562 0.85969341
0.037129011 0.15551881 0.85960013
-0.021021072 0.088903189 0.861
-0.025005501 0.092800274 0.86000001
-0.022635251 0.092144214 0.86135006
0.074494667 0.092872225 0.86066675
0.07738407 0.093512908 0.86066866
0.077294216 0.097262189 0.86055839
-0.020217251 0.10331969 0.86100006
-0.018590888 0.10400442 0.86004764
-0.016776839 0.10703877 0.86300611
-0.01316541 0.10775085 0.86185342
-0.017068544 0.1109345 0.86418194
-0.012011533 0.11213268 0.86257511
0.076158769 0.11377335 0.86133337
-0.010610729 0.11724397 0.86328894
-0.0089754285 0.11691507 0.86086679
0.06965223 0.11844242 0.86033344
0.073077306 0.11718563 0.86286676
0.076440416 0.11580228 0.8645187
-0.010619673 0.12136093 0.86401677
-0.0079096351 0.12257358 0.8612501
0.068616971 0.12229673 0.86171436
0.071541108 0.12132636 0.86376679
-0.0071193487 0.12681194 0.86283332
-0.0037591383 0.12857509 0.86119998
0.064481311 0.12853262 0.86091673
0.068013392 0.12687801 0.86328346
-0.0057855798 0.13020265 0.86403352
-0.0017544421 0.13245285 0.86298347
0.00065798784 0.13458171 0.86119992
0.058420505 0.13444628 0.86033344
0.062354356 0.13330787 0.86202508
0.066324234 0.13220814 0.86400855
0.0017290893 0.13846894 0.86212778
0.0054688021 0.13919352 0.86000019
0.057412028 0.13832717 0.86124438
0.061618 0.13786812 0.86296672
0.065152645 0.13590185 0.86450016
0.003072378 0.14285019 0.8627556
0.0066219908 0.14280052 0.8610763
0.010280537 0.14399284 0.86000019
0.053018607 0.14291301 0.86120003
0.056972127 0.14283845 0.86268526
0.06081577 0.14197843 0.86396688
0.0038840678 0.14711896 0.86426687
0.0070937965 0.14765276 0.86268526
0.011666088 0.14779551 0.86084765
0.015092262 0.14879207 0.86000019
0.048838682 0.14818741 0.86113334
0.052132219 0.14761396 0.86245936
0.056256883 0.14708486 0.86406684
0.0081819957 0.15166645 0.86422235
0.011916211 0.15241531 0.86239266
