# .PCD v0.7 - Point Cloud Data file format
VERSION 0.7
FIELDS x y z
SIZE 4 4 4
TYPE F F F
COUNT 1 1 1
WIDTH 1373
HEIGHT 1
VIEWPOINT 0 0 0 1 0 0 0
POINTS 1373
DATA ascii
0.054815568 -0.063562766 0.78566664
0.05706194 -0.062885121 0.78633481
-0.016285205 -0.055641789 0.78733343
-0.012579554 -0.058411147 0.78518528
0.05873828 -0.059437234 0.78587264
0.061372068 -0.057681583 0.78519225
-0.01641289 -0.052942913 0.78639972
0.065017305 -0.051096141 0.78500003
-0.020015001 -0.046993095 0.78966665
-0.017252112 -0.047657292 0.7875827
0.067086607 -0.046793923 0.78635013
-0.020011622 -0.041845016 0.78953338
-0.017019246 -0.04245808 0.78727126
0.066507183 -0.042649429 0.78744584
-0.021479666 -0.035962678 0.78937006
-0.018471973 -0.037299339 0.78658891
0.067162573 -0.037819255 0.78726119
-0.021832485 -0.032268293 0.78880715
-0.018714456 -0.031930603 0.78650552
0.068364769 -0.03219695 0.78701669
0.071298502 -0.031571072 0.78970814
-0.020385696 -0.028267495 0.78976113
-0.017195459 -0.027617849 0.78694165
0.068494849 -0.027269585 0.78570002
0.071181752 -0.0278525 0.78841496
-0.017033661 -0.022704691 0.78796393
0.063553244 -0.020430859 0.78499997
0.067735001 -0.022671841 0.78678894
0.071246609 -0.024942257 0.78913331
-0.01706106 -0.018339677 0.78927225
-0.014075754 -0.016821122 0.78696668
0.06356404 -0.017513083 0.7851333
0.06641084 -0.017800257 0.78703886
-0.013209835 -0.012590626 0.78777349
0.063360348 -0.011979018 0.78624004
0.066248924 -0.012690443 0.78802973
-0.011514987 -0.0076770466 0.78743327
0.062504873 -0.0071320096 0.78791255
0.065332048 -0.0087912017 0.78880006
-0.011175111 -0.0029237112 0.78942233
-0.0086261993 -0.0027056555 0.78701431
0.059263323 -0.0029125789 0.78635556
0.061636746 -0.00292047 0.78856677
-0.011182819 1.2736057e-05 0.78996694
-0.0073186113 0.0021577703 0.78867429
-0.0032137805 0.0032333217 0.78666675
0.058354218 0.0024549323 0.7872631
0.061444085 0.00050249259 0.78924459
-0.0062684286 0.0068666707 0.78950566
-0.0023384059 0.0073436904 0.78804803
0.0010901816 0.0083061252 0.78673345
0.054829519 0.008783849 0.78586662
0.057737175 0.0071588904 0.7880125
-0.001360388 0.010784839 0.78965569
0.0021938551 0.012602615 0.78842217
0.0062231268 0.013668954 0.78651112
0.048991848 0.014638751 0.78626668
0.052936252 0.012697443 0.78675556
0.056883581 0.012488142 0.78894168
0.0030573392 0.016657956 0.78953344
0.0070158918 0.017741619 0.78821814
0.011355545 0.01854152 0.78635567
0.043864872 0.018298468 0.7863667
0.04758893 0.017588492 0.78730005
0.051523082 0.017040577 0.78909338
0.0079644946 0.022040715 0.78943706
0.01249589 0.022541575 0.78823626
0.017310806 0.023213349 0.7870155
0.022411909 0.02359662 0.7862168
0.027274091 0.024571378 0.78583997
0.032859135 0.02487489 0.78620005
0.037602741 0.024324659 0.78728664
0.042217474 0.022160567 0.78845
0.047725249 0.020942545 0.7895667
0.013857979 0.026453517 0.78966683
0.017531449 0.027910372 0.78931385
0.022655275 0.027875632 0.7883184
0.027357107 0.027726423 0.78823322
0.032429527 0.028023658 0.7887302
0.037226584 0.027730966 0.78942919
0.0197531 0.030866828 0.78983349
0.022682168 0.031577773 0.78923887
0.027114427 0.031229639 0.78971678
0.03195719 0.031495251 0.78980017
-0.0067632115 -0.070525765 0.79000002
-0.0023501047 -0.072212309 0.79238099
0.0035503083 -0.071995318 0.79000002
0.049232252 -0.070536926 0.79012501
0.051499613 -0.070615038 0.79100001
0.052218646 -0.06911847 0.79071218
0.055117905 -0.067586668 0.79000002
0.059701275 -0.063350976 0.79216671
-0.02179225 -0.046625253 0.79175067
0.069851503 -0.047012933 0.79000002
-0.021975277 -0.042923886 0.79201728
0.069405504 -0.042631794 0.79051119
0.071130536 -0.042339168 0.79193866
-0.022542456 -0.038056098 0.7921918
0.068441615 -0.036024548 0.79073346
0.070651345 -0.038117185 0.79346228
-0.026048115 -0.032481045 0.79400003
-0.023940085 -0.032431114 0.79280829
0.070022449 -0.033869639 0.7919333
-0.022319799 -0.027278207 0.79302722
0.072849415 -0.027927971 0.79055566
-0.020715216 -0.022513628 0.79225361
0.069907509 -0.020577474 0.79063356
0.072336234 -0.022500673 0.79185879
-0.021576876 -0.017501023 0.79286945
-0.017083371 -0.016158247 0.79028893
0.06918294 -0.017639454 0.79077506
0.070960879 -0.016976584 0.79416668
-0.020423174 -0.012985064 0.79407907
-0.017125299 -0.012511828 0.79221123
-0.014149986 -0.011024235 0.79111671
0.068831839 -0.012492456 0.79098344
0.070255235 -0.012550211 0.79456615
-0.020138351 -0.0088551017 0.79453337
-0.016917562 -0.007864329 0.79404449
-0.013593527 -0.007068275 0.79300004
0.067305386 -0.0071741031 0.79253054
0.071090803 -0.0067814002 0.79396594
-0.01269795 -0.0029354205 0.7925778
0.064007528 -0.002927887 0.79061121
0.067175776 -0.0029373898 0.79318929
0.070686802 -0.0039253426 0.79385978
-0.011809359 0.0020766964 0.79241347
-0.0097099273 0.0036866167 0.79000026
0.062700547 0.0025408883 0.79271424
0.067296274 1.2810999e-05 0.79461485
-0.011244634 0.0059232577 0.7943334
-0.0087418845 0.0078633903 0.79122233
0.059598278 0.0088389926 0.79080009
0.06163428 0.0070219957 0.79326665
-0.0064928071 0.012256769 0.79289997
-0.0026738988 0.013089615 0.79080015
0.059374712 0.012972973 0.79174662
0.061324779 0.012568505 0.79405844
-0.0019300003 0.017499339 0.79277146
0.0015864857 0.018151121 0.79058909
0.052962825 0.018401716 0.79081678
0.056935862 0.017376106 0.79249632
0.061392341 0.016278839 0.79493332
-0.000874469 0.021436706 0.79426682
0.0020823872 0.022131048 0.79265189
0.0061316835 0.022803703 0.79044187
0.010917107 0.024995128 0.79000026
0.044112485 0.0235494 0.79080015
0.047826227 0.022974458 0.79124004
0.052155275 0.021943783 0.79254168
0.055415604 0.020697653 0.79426682
0.0035705315 0.025876559 0.79450017
0.0072556804 0.027288791 0.79255724
0.012214469 0.028139079 0.79058355
0.038914226 0.029406272 0.79006696
0.042845387 0.027412275 0.7918911
0.047501974 0.027093362 0.79404449
0.0091226744 0.032143194 0.79413342
0.01243044 0.03245217 0.79264444
0.017363699 0.032511111 0.79081839
0.022709781 0.033821005 0.79020023
0.027131543 0.033234328 0.79022688
0.032737724 0.033533376 0.79034692
0.037462138 0.032364622 0.79051131
0.041838013 0.032285888 0.79310006
0.045061484 0.031789672 0.79453337
0.013938702 0.035472549 0.79426676
0.017631859 0.036191918 0.79383337
0.022923589 0.037427571 0.79295158
0.027219979 0.037621815 0.79281121
0.032382093 0.037604965 0.79245424
0.037444774 0.037428394 0.79298186
0.040604115 0.036213398 0.79429996
0.031741135 0.04141723 0.79493338
-0.024608551 -0.045850847 0.79533339
-0.026166582 -0.04152948 0.79761118
-0.024610842 -0.042896021 0.79540753
-0.026148358 -0.037054595 0.79705554
-0.024620317 -0.03773237 0.79571372
0.07234887 -0.036010891 0.79585576
-0.026113726 -0.032562863 0.796
0.071849838 -0.034035653 0.79581493
-0.026202578 -0.027472168 0.79870838
-0.024341723 -0.02694563 0.79629928
-0.02378357 -0.022536021 0.7974788
-0.026113728 -0.016275015 0.79600006
-0.023648342 -0.018256588 0.7962622
0.071917884 -0.017765563 0.79656863
-0.023170866 -0.012438255 0.79684061
0.072075911 -0.012610363 0.79831851
-0.022187348 -0.0072354814 0.79709047
-0.01768052 -0.0063960426 0.79506677
0.075023703 -0.0059248693 0.79800004
-0.020733265 -0.0039471122 0.79843229
-0.01704968 -0.0031377755 0.79735124
-0.014237325 -0.0029480152 0.796
0.071188956 -0.00221171 0.79670668
-0.015783764 1.288385e-05 0.7991333
-0.013664154 0.0023851676 0.79716015
0.064481601 0.003717042 0.79646671
0.066996373 0.0025618351 0.79861897
0.070546672 1.2863354e-05 0.79786211
-0.012180555 0.0077257594 0.79734671
0.063940898 0.0077235475 0.79711998
0.066733971 0.0064593707 0.79972219
-0.011675254 0.01152328 0.79841679
-0.0093002627 0.013109784 0.79695565
0.063850448 0.012628253 0.79784268
-0.0073692799 0.017675519 0.79728502
-0.0038414504 0.018502394 0.79516685
0.059183337 0.018501651 0.79513335
0.062450912 0.018028775 0.79760963
-0.0059371009 0.02197613 0.79776013
-0.0027852489 0.022433396 0.79592389
0.054015771 0.023688357 0.79546666
0.057243295 0.022423465 0.79650009
0.060784083 0.022000378 0.79862672
-0.0019427559 0.026533797 0.79837149
0.0017971263 0.027733883 0.79687345
0.0050597019 0.029614685 0.79566669
0.049580336 0.028136665 0.79571122
0.0526607 0.02745536 0.79739451
0.056244675 0.027016265 0.79903334
0.0025941292 0.032187048 0.798289
0.0063616061 0.032781288 0.79617506
0.043605272 0.03402644 0.79500008
0.047839474 0.032751597 0.7963534
0.05225724 0.032208614 0.79881114
0.0035928518 0.035704777 0.79946667
0.0076005282 0.036814876 0.79772675
0.012300085 0.037220985 0.79609168
0.017675543 0.039241239 0.79578346
0.021373954 0.039958596 0.79533356
0.039193332 0.039978694 0.79573333
0.042607736 0.037248898 0.79613346
0.047072325 0.036997482 0.79846007
0.0090499604 0.040618036 0.79860002
0.012652763 0.042124067 0.79811531
0.017711984 0.043030594 0.7974112
0.02289781 0.042995129 0.79674828
0.027343318 0.042975992 0.79639268
0.032617152 0.043120362 0.79656982
0.037746996 0.042983245 0.79652601
0.042289313 0.04232733 0.79812789
0.045352623 0.040176321 0.79966658
0.013289282 0.046132214 0.7997666
0.017826229 0.047070086 0.79883707
0.022660473 0.047716238 0.79887342
0.027417021 0.047546651 0.79852599
0.032639679 0.047562052 0.79877788
0.037855342 0.047564413 0.79881489
0.040815406 0.046798266 0.79843342
-0.027806304 -0.026094874 0.80200005
-0.026697269 -0.022748847 0.80237502
-0.024794197 -0.020855963 0.80133337
-0.026290063 -0.012656387 0.80137503
-0.024799353 -0.011914633 0.80150002
0.07226409 -0.011897929 0.800403
-0.026343372 -0.0089494623 0.80300003
-0.024845766 -0.0089494623 0.80300003
0.072227709 -0.0089160269 0.80000001
-0.021811267 -0.0024724191 0.8015334
-0.018789595 -0.0014756249 0.80019987
0.072666235 -0.0014842133 0.80485725
-0.020373929 1.2959532e-05 0.80382764
-0.017185606 0.0021711094 0.80270362
-0.014311255 0.0044781063 0.80013329
0.0693307 0.002993304 0.80100536
0.071104668 0.0030047132 0.80417293
-0.014356372 0.0074792169 0.80265552
0.068331532 0.0079592345 0.8009612
0.071104124 0.0059965849 0.80416673
-0.013286869 0.013021437 0.8025381
0.067819692 0.012674994 0.80080462
0.071098216 0.011979211 0.80410016
-0.011959211 0.017627735 0.80247992
-0.009851275 0.019395197 0.80149996
0.064831465 0.018633764 0.80078804
0.067802049 0.017747901 0.80280364
-0.011378645 0.022442341 0.80380011
-0.0087912176 0.022608172 0.80212384
0.063376255 0.022370229 0.80125988
0.065587811 0.022445858 0.80395555
-0.0068797823 0.026542068 0.80344594
-0.002974848 0.028927451 0.80121326
0.058387768 0.028081672 0.80116653
0.061884429 0.027445672 0.80305153
-0.0019545276 0.032665242 0.8030619
0.0011101353 0.033810627 0.80156678
0.053900868 0.033790752 0.80109996
0.057520375 0.032873999 0.80295187
0.061008491 0.032564141 0.80453348
-0.00088580896 0.036681086 0.80456686
0.001922695 0.037537776 0.80287504
0.0058388361 0.038746841 0.80086666
0.049897414 0.037999295 0.80079985
0.053005446 0.03733946 0.80261111
0.05661802 0.036421031 0.80433345
0.0030126791 0.041585125 0.80388677
0.0069413329 0.042943791 0.80218983
0.01105714 0.044664957 0.80013317
0.047312114 0.042493436 0.80126947
0.051595043 0.042636149 0.80397016
0.0081053991 0.047468614 0.80349588
0.012361914 0.048168439 0.80180949
0.016291693 0.049167 0.80073321
0.042889543 0.047931053 0.80140007
0.04685073 0.047412056 0.80343336
0.012821211 0.051922083 0.80384773
0.017083721 0.052284691 0.80285561
0.022304535 0.052237201 0.80212504
0.027530124 0.05221827 0.80182958
0.032325335 0.052085161 0.80207664
0.037471477 0.052377805 0.80219704
0.042377599 0.052128438 0.80332506
0.017489135 0.055743661 0.8042835
0.022141801 0.056683566 0.80361825
0.027603792 0.056844875 0.80397415
0.032110341 0.056110691 0.80417782
0.037269518 0.056350484 0.80403715
0.041869331 0.055375222 0.80436671
-0.023446323 -0.0014869355 0.80633336
0.074252874 -0.0022355835 0.80578578
0.075775817 -0.0014863207 0.80600005
-0.025000472 1.3026798e-05 0.80800003
-0.021991652 0.002269987 0.808173
-0.018929701 0.0037625255 0.80616677
0.073531002 0.0022627071 0.80610174
0.075728811 1.2986493e-05 0.80550009
-0.025031412 0.0060326266 0.80900002
-0.02050671 0.0060331239 0.80906665
-0.017454594 0.0075234836 0.80741477
0.072218575 0.0078158621 0.80655873
-0.017253548 0.011608688 0.80806649
-0.014401881 0.014991252 0.80520028
0.071772672 0.011507124 0.8060475
-0.015976008 0.016565492 0.80886668
-0.014040555 0.018379513 0.80598342
0.069714539 0.019490546 0.80544007
0.071354635 0.018027116 0.80700004
-0.013682411 0.022531139 0.80699998
0.06806583 0.022522599 0.80667073
0.070022695 0.022586485 0.80900002
-0.012197657 0.027080635 0.80835557
-0.0081526777 0.028495518 0.80587786
0.063692205 0.029972 0.8052668
0.066132545 0.02705243 0.80754441
-0.011463582 0.030140735 0.80980009
-0.0071036108 0.031940609 0.80769157
-0.0038968474 0.033774823 0.80663323
0.063135676 0.033291049 0.80582666
0.065720156 0.03188058 0.80803996
-0.0054219863 0.036163289 0.80973345
-0.0023933859 0.037523665 0.80659997
0.058235828 0.037994098 0.80595565
0.062190086 0.037387256 0.80768329
-0.00088873255 0.042058006 0.80722207
0.0016162875 0.04320395 0.80526686
0.054307006 0.042705525 0.80528349
0.057838764 0.04206745 0.80739993
0.060976621 0.04215559 0.80908895
-0.00089061691 0.045156207 0.80893338
0.0021219982 0.047578946 0.80746663
0.0058718296 0.048699714 0.80531687
0.047931224 0.049453545 0.80540019
0.052680716 0.04778856 0.80645645
0.057075094 0.047083028 0.80878085
0.0036386917 0.05122168 0.80966675
0.007597601 0.052454136 0.80754548
0.011879668 0.053943679 0.8053335
0.044204965 0.053983878 0.8059333
0.047290485 0.052572634 0.80726659
0.051163822 0.051933423 0.80901664
0.0096711442 0.057201415 0.80902219
0.012651522 0.05703989 0.80673331
0.016836215 0.057838909 0.8053335
0.02215288 0.059464872 0.80571121
0.027665496 0.059969056 0.80577785
0.032155029 0.0591847 0.80530024
0.037511174 0.059279334 0.80513352
0.042966101 0.057475638 0.8068381
0.046226133 0.056782596 0.80841655
0.01344412 0.06021633 0.80909997
0.017389866 0.061480176 0.80838335
0.022758475 0.06256941 0.80806667
0.027709866 0.063069485 0.80707401
0.032211825 0.063042499 0.80673331
0.037474498 0.06303522 0.8066389
0.042265262 0.061852988 0.80834997
0.02779079 0.066263042 0.80942231
0.032310352 0.066997707 0.80920005
0.037576631 0.066968918 0.80884999
0.041389655 0.066283047 0.80966675
-0.02510567 0.0030325465 0.81140012
-0.023560543 0.0045350306 0.8103044
-0.022251263 0.0077428427 0.81076276
-0.021576598 0.011586306 0.81146622
-0.018273296 0.013580313 0.81038487
-0.02062162 0.015147644 0.81360006
-0.01775625 0.017263371 0.81140554
0.071672954 0.019615408 0.8106001
-0.01678104 0.022650257 0.81127793
0.071798548 0.022972098 0.81200218
-0.014520695 0.027197523 0.81184298
0.068651266 0.027155718 0.81062239
0.070669062 0.026826467 0.81208348
-0.012581757 0.032178707 0.81232256
-0.0089582829 0.033698246 0.81081128
0.067919753 0.032367807 0.81272012
0.070461221 0.030299548 0.81406677
-0.010004917 0.03862533 0.81400007
-0.0074556526 0.037763532 0.8117556
-0.0039147208 0.03845147 0.81033349
0.064172052 0.039253224 0.81133354
0.065865122 0.037849024 0.81355572
-0.0064543248 0.041849077 0.81288886
-0.0031624769 0.042261194 0.81112242
0.063488573 0.042320952 0.81225568
-0.005452787 0.046215482 0.81433338
-0.0024104472 0.047618009 0.81240672
0.00061902183 0.049748298 0.8102001
0.059312534 0.047993701 0.81109345
0.061904456 0.047314864 0.8127715
0.0019436479 0.053044558 0.81162512
0.0051546646 0.054296486 0.81060016
0.052625854 0.05339279 0.81061345
0.057292059 0.052822758 0.81323045
0.062890589 0.050002087 0.81433356
0.0023253229 0.057270825 0.81268328
0.0066692587 0.057343166 0.81102973
0.048444476 0.057677053 0.81148016
0.052166067 0.057473481 0.81286663
0.05566296 0.057184145 0.81413347
0.0030504081 0.06178211 0.81385338
0.0074404292 0.062000867 0.8127501
0.012721296 0.062629037 0.81110018
0.016876966 0.064498462 0.81090021
0.021775274 0.064824916 0.81026685
0.044093251 0.063735522 0.81078345
0.047589306 0.061971553 0.8123703
0.051521249 0.061388489 0.81466687
0.008592044 0.065507561 0.81406677
0.012947688 0.066969603 0.81341666
0.017288577 0.068027206 0.8124963
0.022554927 0.067915596 0.81116682
0.027833516 0.068627201 0.81066686
0.032372531 0.069388479 0.81075573
0.037653334 0.069366612 0.81050014
0.043205261 0.068160236 0.81184173
0.047180492 0.067146145 0.81403714
0.017834516 0.072220892 0.81434464
0.022602931 0.072596461 0.8128944
0.027874367 0.072504394 0.81185931
0.032414753 0.072499059 0.81180012
0.037263751 0.072356589 0.81189334
0.042548474 0.072781309 0.81342429
0.04620586 0.072758287 0.81471139
0.024164788 0.075760171 0.81440008
0.027934374 0.075687826 0.81362218
0.032112658 0.076078691 0.81374997
0.037040994 0.075689904 0.81364441
0.041634511 0.075764321 0.81444454
-0.023229182 0.013174024 0.81633335
-0.021535926 0.016020171 0.81952274
-0.019156959 0.018984079 0.81584501
-0.019182337 0.02280884 0.81692594
0.073623896 0.02276729 0.81546432
0.075378418 0.02435939 0.81800008
-0.016753145 0.027379358 0.81728661
0.073211476 0.027695283 0.81763953
0.075496897 0.026683988 0.81928575
-0.017190337 0.031998966 0.81876665
-0.014097188 0.033428945 0.81652236
0.06910108 0.034164187 0.81593335
0.071646228 0.032238804 0.81717741
-0.012590251 0.037267756 0.81746143
0.068518937 0.038057417 0.81805563
0.070790134 0.035005145 0.81786662
-0.010443547 0.042269863 0.81858337
-0.0080018723 0.043532077 0.81608909
0.067698255 0.04258471 0.81734073
-0.0074385465 0.047389943 0.81779999
0.064493708 0.047034431 0.81540018
0.0669192 0.047135334 0.8171556
-0.0062426883 0.05024156 0.81823343
-0.0025779819 0.052921165 0.81728017
0.059941296 0.054626908 0.81553352
0.062910825 0.052363008 0.8174001
0.066958539 0.050204717 0.81763327
-0.0016649276 0.05786429 0.81840008
0.00062309671 0.059178066 0.81553328
0.057830244 0.05798284 0.81578684
0.060494829 0.057445645 0.81786668
-0.00090209115 0.062504373 0.81935567
0.0010039941 0.062669955 0.81655002
0.05295838 0.062834546 0.81573355
0.056835376 0.062159356 0.817325
0.060220625 0.060977925 0.81933337
0.0026580014 0.066453315 0.8179335
0.0072225682 0.067691728 0.81655568
0.011783339 0.069329843 0.81597787
0.049266234 0.068241291 0.81506705
0.052281447 0.067190535 0.81703341
0.055968534 0.066634148 0.81860012
0.0036830336 0.070139751 0.81953341
0.0075571681 0.072202966 0.81898981
0.012812481 0.072959378 0.81695569
0.016340028 0.073844939 0.81555575
0.048552793 0.07285995 0.81584471
0.052122772 0.072302453 0.81813341
0.0097999815 0.076262519 0.81980002
0.013356935 0.077220537 0.81917781
0.01740819 0.077626847 0.8180964
0.022122165 0.077681966 0.81689638
0.027613167 0.078386709 0.81695235
0.032921918 0.078423157 0.81688005
0.037183177 0.078260653 0.81676674
0.042523526 0.077896349 0.81693339
0.047541399 0.076483727 0.81808335
0.051052216 0.076219104 0.81933343
0.017443646 0.080834165 0.8197667
0.022531217 0.08181908 0.81944448
0.027365824 0.082007252 0.81929338
0.032713331 0.081548266 0.81927794
0.036803614 0.081328303 0.81962234
0.041144907 0.080840744 0.8198334
-0.022401527 0.017880758 0.8232398
-0.02209148 0.022672094 0.82306796
-0.018519966 0.026748087 0.82129169
0.075654864 0.029030381 0.82100004
-0.016215654 0.03284936 0.82100004
0.074226871 0.032131076 0.82214284
-0.017013777 0.035973392 0.82260001
-0.014171145 0.03818566 0.82082152
0.072873794 0.037713531 0.82259566
-0.012160159 0.042868048 0.82279998
0.072062783 0.042915542 0.82368881
-0.01087635 0.047439098 0.82241106
0.069547087 0.047368575 0.82119989
0.07137005 0.046796091 0.82456672
-0.010897083 0.050595641 0.82400012
-0.0072607496 0.05246203 0.82235235
0.064171426 0.054229099 0.8209998
0.067647465 0.052059144 0.82291108
-0.0060279556 0.056959871 0.82366663
-0.0039685057 0.058081184 0.82146645
0.06288179 0.058434594 0.82214659
0.065152831 0.055943258 0.82373333
-0.0032080505 0.062750779 0.82258886
0.058745068 0.064083479 0.82006657
0.061996792 0.062750719 0.82259995
-0.0015199874 0.067043342 0.82268
0.0011368868 0.068194143 0.82057762
0.058213186 0.067532174 0.82118654
0.061270002 0.06738814 0.82315558
-0.00090793887 0.070579097 0.8246668
0.0019689964 0.072112538 0.82246661
0.0059829224 0.074804403 0.82053328
0.054199334 0.073294826 0.82071108
0.057215143 0.072207123 0.82223332
0.060548916 0.070504926 0.82380003
0.0031902501 0.075619616 0.82386667
0.0075222962 0.077963389 0.82164651
0.01184391 0.078840539 0.82017773
0.044994786 0.079364069 0.8203333
0.04840637 0.078828499 0.82110661
0.052506465 0.077781506 0.82296002
0.056714207 0.075878203 0.8239001
0.0086968951 0.081634998 0.824
0.013090585 0.082441367 0.8224749
0.017479371 0.082965411 0.82144749
0.021040166 0.083490036 0.8208887
0.027403358 0.083948821 0.82039988
0.032769408 0.083978392 0.82068866
0.037619073 0.082966723 0.82074428
0.042213552 0.082968809 0.82148558
0.047575425 0.082254916 0.82380742
0.01447103 0.085912518 0.82460004
0.017841343 0.086466186 0.8240267
0.022119297 0.087287389 0.82308882
0.027440993 0.087123781 0.82154983
0.032825779 0.087182909 0.82210356
0.037453756 0.087246977 0.82271099
0.042092375 0.087318964 0.82339257
0.023694526 0.090499654 0.82446676
0.027847171 0.091088057 0.82383811
0.032918528 0.090494774 0.8244223
0.038154583 0.091435 0.8246001
0.041376267 0.092031352 0.82444453
-0.025588354 0.018473886 0.82700002
-0.023482719 0.018947445 0.8252762
-0.025565149 0.022299826 0.82625008
-0.022853158 0.023436859 0.82567501
-0.021723991 0.026155237 0.82666671
-0.01629466 0.038379773 0.82499999
-0.014758674 0.0399216 0.82514811
-0.016334161 0.040011197 0.82700002
-0.014177538 0.04340047 0.8270933
0.07471583 0.043119688 0.82755876
0.076244622 0.041570418 0.82740003
-0.016392099 0.047872286 0.82993358
-0.014027732 0.047724824 0.82736665
0.073121034 0.047700405 0.82696486
-0.016892904 0.051427331 0.82917339
-0.012796948 0.052659012 0.82751542
0.068462819 0.053062305 0.82660007
0.070269801 0.052491147 0.82973349
-0.012035979 0.056868769 0.82829636
-0.0079950206 0.057779245 0.82589328
0.066982374 0.057396621 0.82734299
-0.011353442 0.060562678 0.82930022
-0.0072378376 0.062796876 0.82722676
0.063714385 0.064468972 0.82500005
0.067203991 0.062628329 0.82833958
-0.0063201725 0.067817666 0.82840014
-0.0036047259 0.067991272 0.82583332
0.063836239 0.067668252 0.82657784
0.0659284 0.067451909 0.82865018
-0.0055509955 0.070949942 0.82900029
-0.0026483247 0.072549194 0.8274501
0.062546484 0.072538972 0.82733345
0.065627404 0.071012706 0.82973349
-0.0019429888 0.076556452 0.82847792
0.0016581885 0.077368818 0.82617778
0.0052513233 0.079892978 0.82579988
0.054020938 0.079378814 0.82577771
0.057951529 0.077852927 0.82743824
0.061431687 0.076072484 0.8288002
0.0023991275 0.081273317 0.82867628
0.0069960128 0.083704479 0.82740843
0.011412756 0.084508218 0.82586676
0.047309671 0.084433161 0.82513338
0.053089801 0.08311183 0.82725191
0.057159219 0.082821086 0.82874572
0.0088676736 0.08729697 0.82803345
0.012767302 0.087823853 0.82634163
0.017183302 0.088708021 0.82563335
0.047176141 0.08748208 0.82637995
0.052407168 0.087877132 0.82866019
0.056306396 0.086391784 0.82920033
0.0099091614 0.090989918 0.82893366
0.012994381 0.092487141 0.8285262
0.017610956 0.092389241 0.82764459
0.022020593 0.092461139 0.82656664
0.027128031 0.093435369 0.82601339
0.032970753 0.092942983 0.82573342
0.036805257 0.092903405 0.82538348
0.043754518 0.092182674 0.82579994
0.046963107 0.092433706 0.82804459
0.050641555 0.091543399 0.82928914
0.013786861 0.09570428 0.82970011
0.017958548 0.096288517 0.82941359
0.022279434 0.096398644 0.82903355
0.02745248 0.096934386 0.82821214
0.032734379 0.097152449 0.82756674
0.037638009 0.096905708 0.82677764
0.042274754 0.096927457 0.82696295
0.045477461 0.095638901 0.82913357
0.032884661 0.10114648 0.82912397
0.037913285 0.10154825 0.82857513
0.04205386 0.10082977 0.82869339
-0.021911139 0.042280935 0.83382964
-0.01813861 0.042811785 0.83252531
0.076760657 0.044950102 0.83300006
-0.021648744 0.046795398 0.83368063
-0.01816966 0.047964264 0.83152813
0.074996434 0.047914594 0.83066678
0.075971179 0.048045754 0.83288002
-0.02107954 0.051838376 0.83166671
-0.018481832 0.053091411 0.83107948
0.072460972 0.052856419 0.83202851
-0.017815348 0.057162646 0.8331328
-0.014870044 0.0580079 0.83137482
0.068749927 0.058688581 0.8300668
0.072021514 0.057284042 0.8320815
0.075342536 0.059002031 0.83450007
-0.012555059 0.062690802 0.83195835
0.071885772 0.062252678 0.83230668
0.075601295 0.062386505 0.83306676
-0.018027838 0.069826484 0.83400005
-0.011287547 0.066982262 0.83398873
-0.0086654294 0.068041638 0.83113337
0.068202183 0.068333611 0.83093327
0.071756229 0.066297464 0.83351672
0.076014221 0.065120161 0.83333349
-0.0073208534 0.072967902 0.83222502
0.06737113 0.072767057 0.83214283
-0.0059688231 0.077136859 0.83334988
-0.0035007538 0.07838317 0.83151108
0.063185073 0.07786905 0.83152217
0.066365987 0.077210322 0.83414996
-0.0020269984 0.081881575 0.83261907
0.0014098808 0.083511144 0.83123332
0.059513938 0.081922561 0.83079988
0.062776372 0.08213564 0.8329556
-0.00091887539 0.08540187 0.83459979
0.0021892351 0.086807579 0.83317775
0.0063186963 0.088665523 0.83123332
0.054848004 0.089620605 0.83053327
0.05836986 0.088022657 0.83165193
0.061848398 0.08590132 0.8344214
0.0032321482 0.090589188 0.8347109
0.0074161766 0.09317074 0.83339387
0.053159781 0.093110822 0.83103698
0.057931047 0.092802078 0.83308333
0.0089360252 0.097277932 0.8343665
0.01282435 0.097938135 0.83180952
0.017290767 0.098533876 0.83078325
0.022314139 0.098866493 0.83033341
0.047318541 0.097582035 0.83089995
0.051896878 0.09762159 0.83288151
0.056138877 0.097277582 0.83436656
0.013471977 0.10126296 0.83416659
0.017923353 0.10211323 0.83318335
0.022362806 0.10218033 0.83215553
0.026987307 0.10205854 0.83116293
0.03162415 0.10294372 0.83082664
0.036269248 0.10355009 0.8307333
0.042870082 0.10320126 0.83103335
0.04709116 0.10218044 0.83373332
0.052007783 0.10093512 0.83466655
0.01854521 0.10562675 0.8349331
0.022863666 0.10686972 0.83423793
0.027068799 0.1070191 0.83367407
0.03247292 0.10689784 0.83272773
0.037879642 0.10681586 0.83208895
0.042390157 0.10674211 0.83302492
0.045795597 0.10562675 0.83493322
0.023212982 0.11026859 0.83479983
0.027413633 0.11087757 0.8347066
0.0313759 0.11061948 0.83451658
0.038789943 0.1102906 0.83496648
-0.022730384 0.042744886 0.83533335
-0.022721313 0.04816455 0.83500004
0.077048622 0.049007934 0.83612502
0.076710567 0.05274659 0.83729106
-0.019606743 0.059037376 0.83500004
-0.017293133 0.062225949 0.83609062
-0.014941056 0.06372346 0.83534467
0.077037111 0.062218323 0.83600003
-0.017189585 0.067364566 0.83646524
-0.013839637 0.067773424 0.83601505
0.072772212 0.068221211 0.83714664
0.07643488 0.067038365 0.83793342
-0.016528064 0.072798781 0.83692855
-0.012570464 0.072596751 0.83703512
0.069230303 0.074647397 0.83586669
0.071930811 0.072052948 0.83825338
-0.010702699 0.077650875 0.83891672
-0.0080990633 0.078137092 0.83659995
0.068690382 0.078162968 0.83688003
0.071028233 0.078019999 0.83868891
-0.0067252703 0.082364924 0.83754289
-0.0040382342 0.083203211 0.83589995
0.067819834 0.082601205 0.83767664
-0.0061420538 0.086402006 0.83928901
-0.0026784036 0.08737883 0.83679998
0.063538507 0.087637775 0.83617777
0.066848658 0.086329125 0.83857781
-0.0019662566 0.09150482 0.8383556
0.0020043014 0.093001239 0.83661664
0.059881683 0.094868273 0.83593333
0.062868215 0.091654651 0.83675838
-0.00092408626 0.095254131 0.83933347
0.0024265558 0.097370706 0.8383525
0.0063578188 0.098546743 0.83635551
0.058842301 0.098495007 0.83592218
0.061920315 0.096995987 0.83820009
0.0077814623 0.10220092 0.837762
0.012006467 0.10362405 0.83667612
0.016213413 0.10409855 0.83513314
0.048921641 0.10409855 0.83513314
0.052079853 0.10340729 0.83582211
0.057128441 0.10258272 0.83669984
0.061032452 0.10331976 0.83889341
0.012674625 0.10727823 0.83812678
0.017566474 0.10776408 0.83601892
0.020891845 0.10801266 0.83536661
0.04424195 0.10874174 0.83499998
0.047604721 0.10750328 0.83593321
0.05217905 0.10749947 0.83741486
0.056740485 0.10724081 0.83887631
0.01471906 0.11078815 0.83873343
0.017824931 0.11221222 0.8377111
0.022252351 0.11247158 0.83633327
0.026739184 0.11308333 0.83551657
0.033182204 0.11255127 0.83589166
0.037859667 0.11249764 0.83652371
0.042772505 0.11207831 0.83671117
0.047509752 0.11221048 0.83769631
0.051964808 0.1114478 0.83900011
0.055464368 0.11093785 0.83986664
0.018633163 0.11549169 0.83890015
0.022515502 0.11690675 0.83785188
0.027172366 0.11676906 0.83686662
0.031860802 0.11678997 0.83701473
0.037374604 0.11694866 0.83814996
0.042677153 0.11682691 0.83867502
0.046808764 0.11552382 0.83913344
0.024116039 0.12020663 0.83913338
0.027621865 0.120528 0.83864999
0.031622171 0.12080852 0.83897334
0.036658425 0.12067121 0.83965003
0.077629916 0.068963654 0.84241122
0.073612347 0.072794378 0.84140003
0.076788113 0.071881875 0.84354079
-0.015850103 0.077569939 0.84227091
-0.012849945 0.078568563 0.84121764
0.073598437 0.077256285 0.84252387
0.07627847 0.077022769 0.84486669
-0.015098684 0.080098718 0.84415805
-0.011545788 0.081980363 0.84331816
-0.0087780319 0.083803914 0.84193313
0.072299019 0.082139395 0.84254473
-0.0066860816 0.088771977 0.84202224
0.068470605 0.08802323 0.84184772
-0.0056456323 0.091765657 0.84313333
-0.003544383 0.093456179 0.8418889
0.064872839 0.093767248 0.84000003
0.067037828 0.092096835 0.84258467
-0.0025009788 0.09721595 0.84280002
0.00064229954 0.098533101 0.84066653
0.063879497 0.096968688 0.84066659
0.066068426 0.097580932 0.84325343
-0.0014548787 0.10105462 0.84431118
0.0020159823 0.10201377 0.84195828
0.0058676079 0.10425351 0.84055549
0.06335143 0.10165354 0.84060001
0.065798439 0.10172942 0.84382665
0.0026670913 0.10652112 0.84377146
0.0069246325 0.10810343 0.84211862
0.010832578 0.10947534 0.84063327
0.057897061 0.10953178 0.84106654
0.06168497 0.10723168 0.84230483
0.0037965819 0.11001797 0.84479994
0.0074698962 0.11259902 0.84451109
0.012211794 0.11299162 0.84246677
0.052801225 0.11383927 0.84110004
0.057271361 0.11297449 0.8434
0.062082592 0.1100006 0.84466654
0.013042294 0.11719957 0.84417498
0.017678099 0.11783956 0.84133327
0.044538673 0.11885305 0.84059989
0.047949038 0.11786114 0.8414858
0.052365791 0.11750682 0.84355837
0.05580334 0.1179033 0.84499991
0.014827863 0.12103748 0.84493327
0.018403674 0.12221344 0.84374297
0.022434153 0.1223952 0.84210002
0.026992057 0.12297358 0.84097326
0.032381158 0.123124 0.84040004
0.037886627 0.12260262 0.84084159
0.043028049 0.12214059 0.8416962
0.047530692 0.12147652 0.84361345
0.051853459 0.12102315 0.84483325
0.01955221 0.12573291 0.84479994
0.023207081 0.12666462 0.84402227
0.027356904 0.12696841 0.84256297
0.032064438 0.12693955 0.84237045
0.037394132 0.12695017 0.84338784
0.042371463 0.12722629 0.84427506
0.030588388 0.1304782 0.84499991
0.079140395 0.072798088 0.84598488
0.077976622 0.077368006 0.84618473
-0.016089259 0.082225218 0.84663296
-0.011982494 0.083981238 0.84636456
0.074010782 0.082629122 0.84595525
0.07733506 0.081234634 0.84780937
-0.010957138 0.086832255 0.84856957
-0.0088378061 0.087528363 0.84766686
0.071751118 0.087216608 0.84721142
-0.0067221704 0.092934698 0.8466444
0.068510696 0.093676396 0.84623337
0.0702518 0.093105324 0.84820014
-0.0056743524 0.09774965 0.84742236
-0.0040847724 0.099103488 0.84553331
0.068547577 0.097664118 0.84668893
0.070921488 0.098203994 0.84863347
-0.0056840237 0.10186302 0.84886694
-0.0030398543 0.10295767 0.84704453
0.068178222 0.10282075 0.84700012
0.070816539 0.10157317 0.84864455
-0.0020652104 0.10708733 0.84825736
0.00064599235 0.10775027 0.84549987
0.063708149 0.10851493 0.84533328
0.066570103 0.10679305 0.8483057
-0.00093414215 0.11128506 0.84846687
0.0020279223 0.1120551 0.84682506
0.0059058093 0.11437421 0.84602219
0.059071518 0.11498597 0.84666663
0.062484764 0.11233794 0.84705251
0.0032884188 0.11586887 0.84928912
0.0071947253 0.11780816 0.84754306
0.011292346 0.11918555 0.84573334
0.054231714 0.1194846 0.84506649
0.057671573 0.11809685 0.84638339
0.061314404 0.11734817 0.84856147
0.0077736746 0.12082571 0.84896696
0.012502502 0.12299981 0.84762013
0.016427612 0.12357584 0.84616667
0.048348688 0.12387621 0.84553331
0.052978214 0.12330471 0.84661907
0.057381555 0.12284857 0.84793353
0.060827266 0.12163921 0.84913361
0.01371392 0.12677798 0.84916687
0.018033024 0.12771155 0.84749544
0.021670001 0.1284536 0.84546661
0.044826552 0.12827733 0.84603345
0.048082441 0.12775442 0.84777796
0.052563719 0.12694022 0.84866697
0.056129139 0.12649688 0.84993345
0.019666385 0.13120911 0.84973347
0.023020534 0.13210441 0.84822881
0.027489662 0.1323099 0.84665191
0.032423619 0.13250212 0.84662503
0.036989 0.13239641 0.84720755
0.042578872 0.13258143 0.84839463
0.027586052 0.13593332 0.84962243
0.032321941 0.13585509 0.84913367
0.037089288 0.13591553 0.84951133
0.045015536 0.13592976 0.8496002
0.07605353 0.083929926 0.85116148
-0.015267862 0.086555064 0.85361648
-0.01301461 0.087500863 0.85199893
0.072165512 0.088779509 0.85211778
0.077157266 0.08585868 0.85460019
-0.011129939 0.091801561 0.85368013
-0.008476357 0.092624731 0.85103327
0.072242312 0.092046149 0.85302466
-0.0080971783 0.097575933 0.85280561
0.073128626 0.097350903 0.8522194
-0.0077633145 0.10275567 0.85348588
0.072515011 0.10340569 0.85247535
-0.0061159823 0.10762803 0.8538835
-0.0041096541 0.10841089 0.85068333
0.068467252 0.10887261 0.85223335
0.071200229 0.10688436 0.85323697
-0.0025270083 0.1125206 0.85184002
0.067206666 0.11236726 0.85218757
-0.00093951827 0.11668827 0.85334998
0.0017088059 0.11779241 0.85177225
0.063698083 0.1170832 0.85045838
0.066562571 0.11720163 0.85362673
0.0027723077 0.12169638 0.85322219
0.0064694062 0.12244054 0.85103887
0.010164185 0.12496487 0.8502667
0.059329655 0.12497957 0.85036671
0.06307634 0.12227552 0.85199058
0.065975934 0.12158258 0.85428345
0.003840175 0.1263822 0.85450017
0.0072119427 0.1267391 0.85288751
0.012290302 0.12851937 0.85111111
0.016512392 0.12975052 0.85053337
0.053396039 0.12936153 0.85057503
0.058225404 0.1278697 0.85275996
0.061668668 0.12596478 0.85346675
0.008618108 0.13030984 0.85420007
0.012937611 0.13185437 0.85390961
0.01813373 0.13291022 0.85218889
0.022062182 0.13448644 0.85046667
0.047529351 0.13315286 0.85205001
0.05162232 0.13266845 0.85403895
0.056377891 0.13023356 0.85369998
0.01499984 0.1351611 0.85473353
0.018374102 0.13705111 0.85412508
0.022888556 0.1378554 0.85172588
0.027628658 0.1385157 0.85092211
0.032381792 0.13848142 0.85071105
0.037144449 0.13849226 0.85077763
0.041910067 0.13772005 0.85089248
0.046988916 0.13826412 0.8530333
0.05084512 0.13589793 0.85436672
0.023274539 0.1420695 0.85420674
0.027710106 0.14289719 0.85344821
0.032470271 0.14282805 0.85303336
0.037226383 0.14276527 0.85265923
0.042038724 0.14290577 0.85350376
0.046042871 0.14298038 0.8539502
0.029326027 0.1461882 0.85413343
0.031726658 0.14623955 0.85443342
0.036521614 0.14629662 0.85476685
-0.016371274 0.088634133 0.85581487
0.074167468 0.088480607 0.85688633
0.077178158 0.088189133 0.85737628
0.080633238 0.087762207 0.85766673
-0.015337323 0.090935387 0.85749996
-0.013326257 0.092846021 0.85671681
0.074254327 0.092570983 0.85789019
0.0775728 0.092715114 0.85920745
-0.011336458 0.097281553 0.85720021
0.074099392 0.095564477 0.85610014
0.075931825 0.097459167 0.85876679
-0.010933125 0.10163438 0.85693353
-0.008914263 0.10498448 0.85500026
0.075866014 0.10216445 0.85802239
-0.010531937 0.10601278 0.8568784
-0.0083966209 0.10780612 0.85635567
0.073146328 0.107673 0.85614681
0.075991757 0.10712928 0.85944456
-0.0062787891 0.1117438 0.85804445
-0.0041401689 0.11320094 0.85700017
0.069242015 0.11456297 0.85526687
0.072631769 0.11248197 0.85760009
-0.0025474322 0.11734788 0.85820007
0.068932086 0.11829499 0.85636687
0.072493479 0.11730152 0.85867625
-0.00094392843 0.12281803 0.85735559
0.0011859089 0.12369088 0.85604459
0.068244115 0.12299817 0.85702866
0.07117945 0.12231051 0.85940003
-0.0009452253 0.12617981 0.85853326
0.0017962225 0.12782967 0.85735238
0.0054378551 0.1288615 0.85513359
0.063461445 0.12795778 0.85617799
0.066955358 0.1274782 0.8586666
0.0026574382 0.13142397 0.85888338
0.006845702 0.13249689 0.8567751
0.010761149 0.13319026 0.85568911
0.054905526 0.13290593 0.85556686
0.058393151 0.13252786 0.85697514
0.062449664 0.131906 0.85837346
0.0081323953 0.13636893 0.85900003
0.011854857 0.13726546 0.85794085
0.016212702 0.13849448 0.85568357
0.053100474 0.1371583 0.85585737
0.057751596 0.13732474 0.85831857
0.012937506 0.14115494 0.85895556
0.017119598 0.1422458 0.85718
0.023003055 0.14437705 0.8559559
0.048531134 0.14327471 0.85571146
0.051788341 0.14186028 0.85677791
0.056262035 0.14197731 0.85886669
0.018507522 0.14656684 0.85900956
0.022822822 0.14726771 0.85777146
0.027807055 0.14790632 0.8564114
0.032594245 0.14842033 0.85631132
0.037378784 0.14812849 0.85616016
0.042407613 0.14770839 0.85636204
0.046990573 0.14742464 0.8567
0.051354308 0.14639227 0.85843331
0.055172939 0.14554738 0.85973352
0.024702316 0.15031025 0.85953349
0.027885672 0.15178704 0.85883808
0.032907285 0.1521842 0.85850471
0.03770541 0.15202096 0.85903347
0.042314325 0.15183374 0.85910481
0.046902776 0.1515729 0.85875839
0.050350972 0.15031025 0.85953343
0.029525183 0.1551791 0.8599335
0.032326825 0.15555495 0.8598001
0.03673524 0.15514903 0.85976678
0.043959267 0.1551791 0.8599335
0.045552436 0.15514301 0.85973346
0.07955692 0.086737238 0.86334491
0.081762426 0.089717969 0.86112505
-0.016495815 0.092513822 0.86229283
0.0817701 0.092792682 0.86290324
-0.013822808 0.097915091 0.86278898
0.078605905 0.097798496 0.86174458
0.081282586 0.097314581 0.86457348
-0.013015222 0.10269444 0.86249173
0.078648582 0.10266217 0.86220556
-0.011381257 0.10728285 0.86067945
0.078617714 0.10743022 0.86186475
-0.0079215178 0.11233878 0.86262226
0.077808969 0.11223157 0.86180085
-0.0065845042 0.11720636 0.8630113
-0.0041604582 0.11776135 0.86120009
0.074592762 0.11864435 0.86180007
0.077380732 0.11686128 0.86215436
-0.0061891582 0.12177519 0.86410844
-0.0033608451 0.1218624 0.86187786
0.073528893 0.12244558 0.86277157
0.0764594 0.12065676 0.86473352
-0.0022909597 0.1272915 0.86246109
0.069179721 0.12816094 0.86111134
0.072049253 0.12689883 0.86342239
0.0022644443 0.13391201 0.86205006
0.064089984 0.13375787 0.86105007
0.068237357 0.13241196 0.86271679
0.003476205 0.1376905 0.8631084
0.0065461546 0.1383096 0.86113334
0.062774897 0.13781069 0.86135554
0.067055546 0.13728301 0.86408693
0.0075537832 0.14261553 0.86272389
0.011352508 0.14296348 0.86022234
0.058456719 0.14333746 0.86086667
0.061781295 0.14279653 0.86243337
0.06513758 0.14149718 0.86430019
0.0087178228 0.14708802 0.86408341
0.011909726 0.14751638 0.86188895
0.01605859 0.1478714 0.86022681
0.053087443 0.14835863 0.86057782
0.057118867 0.14771336 0.86186671
0.061225642 0.14718018 0.86368024
0.012160594 0.15213728 0.86341912
0.017529044 0.15226822 0.86156106
0.022924243 0.15228051 0.8605001
0.026319636 0.15359136 0.86000019
0.04075484 0.15359136 0.86000019
0.048838679 0.15379378 0.86113346
0.052298401 0.15252605 0.86188751
0.055993903 0.15165465 0.86415577
0.013562592 0.15604527 0.86473352
0.017910207 0.15648222 0.86333829
0.0231824 0.15727353 0.8626408
0.027759088 0.15719861 0.86113334
0.033066653 0.15780236 0.86028016
0.037793588 0.15731977 0.8603906
0.042204805 0.15716535 0.86095005
0.04748695 0.157373 0.86208755
0.05120074 0.15702796 0.86305344
0.024840273 0.16079661 0.86433351
0.028019637 0.16134949 0.86298895
0.032799032 0.16190761 0.86168158
0.037445825 0.16181982 0.86227918
0.042302035 0.16194284 0.86293757
0.046576045 0.16070357 0.86383355
0.032901168 0.16562574 0.86436272
-0.020392057 0.092903867 0.86844444
-0.017647695 0.093465455 0.86616987
-0.021194754 0.096915103 0.86819822
-0.017131798 0.097355023 0.86732221
0.081331246 0.099786572 0.86509097
-0.02042073 0.10193197 0.8696658
-0.017152451 0.10232136 0.86838996
-0.013858235 0.10460329 0.86500013
0.081453264 0.10315845 0.86638892
-0.01226126 0.10877074 0.86614883
0.081463709 0.10800838 0.86650002
-0.011487794 0.11312485 0.86865616
-0.0090310331 0.11361063 0.86620015
-0.011746112 0.11838639 0.86774325
-0.0090317279 0.11764792 0.86626679
0.079893753 0.11936023 0.86700004
-0.015498297 0.12090325 0.86650002
-0.011744137 0.1221362 0.86762422
-0.0083877314 0.12283371 0.86647338
0.078260258 0.12255977 0.86681163
0.080139488 0.12458058 0.86966676
-0.010681801 0.12611194 0.86907148
-0.0072301929 0.12737748 0.86804587
-0.0041862242 0.12816238 0.8665334
0.073912948 0.12733771 0.86640006
0.07574641 0.12770249 0.86888885
-0.0022493911 0.13197716 0.86724007
0.072646357 0.13231452 0.86733347
-0.0009576297 0.13592564 0.86980003
0.0010662822 0.13761841 0.86772507
0.068472162 0.13850567 0.86570013
0.070881642 0.13685976 0.86751348
0.0030901569 0.1420927 0.86794174
0.0055014458 0.14324293 0.86513346
0.067452304 0.14223538 0.8673954
0.070283718 0.14050992 0.86813343
0.0039035415 0.14704899 0.86859995
0.0065877084 0.14752617 0.86666125
0.062875822 0.14829339 0.86643338
0.065837666 0.14657936 0.86820841
0.0071366942 0.15177825 0.86792856
0.011159942 0.15467183 0.86605024
0.057575006 0.15353863 0.86692679
0.061865173 0.15149114 0.86813337
0.0082286401 0.15576571 0.86915547
0.011991582 0.15794629 0.86781102
0.016420716 0.15920982 0.86663342
0.020024356 0.1593484 0.86520016
0.053579032 0.15835434 0.8663615
0.057389852 0.15708661 0.8690111
0.060694814 0.15536541 0.86993343
0.013636836 0.16175158 0.86946666
0.017068189 0.16303296 0.86875004
0.022265917 0.16302739 0.86686379
0.02809987 0.16422312 0.86544448
0.039399795 0.16422732 0.86546671
0.044225078 0.16416407 0.8651334
0.047774266 0.16332701 0.86678582
0.052226268 0.16260536 0.86785239
0.055797566 0.16013423 0.86946672
0.023145951 0.16749124 0.86882502
0.0281814 0.16792911 0.86794817
0.033455107 0.1683902 0.86825007
0.037908554 0.16799231 0.86827415
0.042563148 0.16778794 0.86826259
0.047274075 0.16696984 0.86926675
0.05258264 0.16507488 0.86993337
0.027421936 0.17146899 0.86953336
-0.020430051 0.10197851 0.87006265
-0.018807372 0.1052155 0.87006271
-0.016170317 0.11323956 0.87369448
-0.013963666 0.11269517 0.87158108
-0.015601945 0.11792293 0.87229496
-0.013554914 0.11672328 0.87139887
-0.013413872 0.12423882 0.8710497
-0.015627973 0.12516552 0.87375003
-0.012024028 0.12787968 0.87230891
-0.0090803839 0.12962233 0.87093341
0.077882349 0.12810585 0.87163335
0.08035934 0.12654456 0.87205273
-0.012384861 0.13020973 0.87488002
-0.0069279619 0.13257383 0.87257773
-0.003670424 0.13407986 0.8718223
0.076954894 0.1325103 0.87261665
-0.0058576744 0.13670702 0.87480003
-0.0025894397 0.13795583 0.87240952
0.073382907 0.13818353 0.87128341
0.075616069 0.13814898 0.87362212
-0.0017760157 0.14290462 0.87289435
0.0010709979 0.14294727 0.87068355
0.072262898 0.14283516 0.87246662
0.075723767 0.1415997 0.8748666
-0.00096218032 0.14713901 0.8739332
0.0014788178 0.14763269 0.8720445
0.06830468 0.14791515 0.87179995
0.070718206 0.147066 0.87349987
0.0035159597 0.15226623 0.87303323
0.0055357842 0.15385322 0.87053359
0.06343805 0.1533017 0.87046689
0.067175396 0.15236378 0.87243319
0.0068415678 0.15759525 0.87152684
0.059131242 0.15875986 0.8708002
0.062685043 0.15759891 0.87221652
0.066274658 0.157307 0.87397492
0.0088190474 0.16180414 0.87411654
0.011584182 0.16245119 0.87197626
0.057747614 0.1623048 0.87135011
0.062050331 0.16201159 0.87377763
0.013153523 0.16625354 0.87328887
0.0166841 0.16743605 0.87139064
0.021761216 0.16915931 0.8701334
0.032307319 0.16995685 0.8700729
0.044484086 0.16998169 0.87020004
0.048560321 0.16842744 0.87053347
0.052905552 0.16744344 0.87142867
0.057640687 0.16724481 0.87280726
0.060983188 0.16667253 0.87406659
0.018175194 0.17180283 0.87328321
0.021590261 0.17204857 0.87144184
0.027811175 0.17404051 0.87083828
0.033140283 0.17249762 0.87064266
0.038015164 0.17251341 0.87072229
0.042659622 0.17287984 0.87081921
0.047816582 0.17190921 0.87176299
0.052784715 0.17220587 0.87326652
0.056905828 0.17154388 0.87403327
0.022077905 0.17666462 0.87350947
0.027240297 0.17744374 0.87239623
0.033190589 0.17681365 0.87195563
0.038077042 0.17684989 0.87213337
0.043181263 0.17714038 0.87256658
0.047709856 0.17693117 0.87353742
0.052019902 0.17562144 0.87409991
0.028382769 0.18051322 0.87416667
0.032807101 0.18143597 0.87413329
0.037830647 0.18111974 0.87395322
0.042738803 0.18119846 0.8743332
0.046340134 0.18060274 0.87459999
-0.015657995 0.11726365 0.87542862
-0.015700411 0.12737857 0.87780011
-0.014018442 0.12859993 0.87500006
0.08067394 0.12866849 0.8754667
-0.015719637 0.13162187 0.87887502
-0.012018068 0.1322881 0.87786841
-0.0091401618 0.13373722 0.87666678
0.079038173 0.13354903 0.87543333
0.08091148 0.13231494 0.87804455
-0.00778828 0.13715214 0.87765139
0.078498527 0.13732675 0.87668657
0.080984451 0.13733724 0.87883639
-0.0062915171 0.1417568 0.87836123
-0.0042348034 0.14187907 0.876589
0.074154213 0.14497598 0.87559998
0.077629507 0.14210187 0.87796414
-0.0026023362 0.14767511 0.87712508
0.072926506 0.14806502 0.87653339
0.076129116 0.14644827 0.87954986
-0.0017874162 0.15122989 0.8788166
0.0012139393 0.15274559 0.87656671
0.0692183 0.15466617 0.87513334
0.072439753 0.15188664 0.87788886
0.0029614898 0.15709135 0.87776673
0.0055673691 0.15961678 0.87550002
0.068465814 0.15807021 0.8759501
0.071184166 0.15703124 0.87925547
0.0034045989 0.16085523 0.87929994
0.006889523 0.16295572 0.87769336
0.063804887 0.1639598 0.87550002
0.067838915 0.16259533 0.87839174
0.071244448 0.16043715 0.87999976
0.0088634435 0.16752127 0.87851673
0.011564732 0.1684678 0.87635559
0.063081168 0.16800767 0.87678903
0.066835918 0.166905 0.87957764
0.012688949 0.17273431 0.87871104
0.016036794 0.1731879 0.87659341
0.058483601 0.17333448 0.87568676
0.062935412 0.17188536 0.87854999
0.012151617 0.17503722 0.87933326
0.01727703 0.1775607 0.87794292
0.021090435 0.17926228 0.87600005
0.049683731 0.17926909 0.87603348
0.053227484 0.17824653 0.87672395
0.057759218 0.17760281 0.8781476
0.061380893 0.17676044 0.87976646
0.018310819 0.18249162 0.87978309
0.021957574 0.18293875 0.87800014
0.026599523 0.18315649 0.87680972
0.032523662 0.1841334 0.87591678
0.038644768 0.18369842 0.87578338
0.043565597 0.18378767 0.87620842
0.048321929 0.18298505 0.87724173
0.05258448 0.1826008 0.87899441
0.057289802 0.18088564 0.87993306
0.021996839 0.18735252 0.8795554
0.026892303 0.18717873 0.87873888
0.031787083 0.18704653 0.87811679
0.037162296 0.18689884 0.87797147
0.042457558 0.1879788 0.87865436
0.047987763 0.18761958 0.87916183
0.051534284 0.18657222 0.87973309
0.023631392 0.19466597 0.87933344
-0.015781494 0.13460165 0.88233334
-0.013576769 0.13394409 0.8816027
0.083248079 0.1331854 0.88110554
-0.011252167 0.13741919 0.88198006
-0.009181384 0.13925475 0.88062054
0.083349302 0.13745096 0.88218206
-0.01086529 0.14143351 0.88400006
-0.0085384622 0.1430767 0.88196075
0.07961648 0.14354971 0.8818385
0.082263917 0.14139703 0.88377196
-0.0059049916 0.14601354 0.88186651
-0.0042572394 0.14836812 0.88123322
0.078489818 0.14797135 0.88236183
-0.0029471966 0.15294421 0.88210666
0.074600227 0.15322223 0.88086653
0.077482842 0.15224633 0.88376009
-0.00097260298 0.15777168 0.88340014
0.00067282701 0.15727499 0.88062209
0.07391075 0.15759867 0.88243335
0.0019888822 0.16276303 0.88195992
0.07314162 0.16264117 0.88307613
0.0034213623 0.166575 0.8836112
0.0064270669 0.16726489 0.88146657
0.069034897 0.16752571 0.88111991
0.07151565 0.16679975 0.88335007
0.0079226485 0.17189065 0.88333338
0.010520418 0.17354611 0.88006651
0.064684503 0.17354611 0.88006645
0.067919023 0.17209947 0.88208747
0.011939598 0.17748439 0.88103801
0.063980795 0.17714389 0.8816722
0.067038648 0.1772099 0.88405007
0.012753821 0.18183519 0.8832168
0.016121149 0.18229301 0.88119316
0.054836486 0.18336871 0.88006645
0.058726747 0.18246557 0.88097215
0.062751479 0.18201007 0.88254768
0.065015212 0.18266079 0.88456684
0.013868959 0.18588868 0.88426679
0.016922077 0.18732886 0.88233334
0.028579431 0.18994583 0.88019973
0.044988457 0.18991706 0.88006651
0.048289414 0.189989 0.88039988
0.053737212 0.18712892 0.88125229
0.0578366 0.18701068 0.88290489
0.060857836 0.18667224 0.88408339
0.018142533 0.19199643 0.8836087
0.022035925 0.19178222 0.88111126
0.026594903 0.19228905 0.8809337
0.031895634 0.19177876 0.8810966
0.03683202 0.19181804 0.88127601
0.041748449 0.19257122 0.88097292
