# .PCD v0.7 - Point Cloud Data file format
VERSION 0.7
FIELDS x y z
SIZE 4 4 4
TYPE F F F
COUNT 1 1 1
WIDTH 1376
HEIGHT 1
VIEWPOINT 0 0 0 1 0 0 0
POINTS 1376
DATA ascii
0.072368197 -0.027743272 0.7853334
-0.020017417 -0.020554796 0.78976184
-0.017604874 -0.022831025 0.7872017
0.072308645 -0.02209387 0.786443
-0.016684294 -0.018696547 0.78884637
-0.014081518 -0.017559843 0.7872889
0.069427088 -0.016784506 0.78520006
0.072568253 -0.017564632 0.78748894
0.075685024 -0.016139559 0.78937501
-0.01297466 -0.012430856 0.78687513
0.069415309 -0.01313072 0.78506678
0.071564525 -0.013189801 0.78857607
-0.012124981 -0.0073105544 0.78731126
0.069422029 -0.0058294102 0.78514284
0.072777465 -0.0075967922 0.78658861
0.075457305 -0.0073071704 0.78700006
-0.011164259 -0.0029200651 0.78865552
-0.0091872411 -0.0019400973 0.78722221
0.063580237 -0.0014482102 0.78533328
0.067595713 -0.0027812817 0.78711677
0.071701504 -0.0038996879 0.78874177
-0.011178572 1.2731221e-05 0.78966683
-0.0074839904 0.0022126851 0.7881096
-0.0033088911 0.0039120507 0.78602225
0.058461562 0.004395837 0.78543329
0.062628448 0.0027819197 0.78767782
0.067114703 0.00030658126 0.78899342
-0.0062650158 0.0068626017 0.78904992
-0.0025194625 0.0075165052 0.78705829
0.058269508 0.0075431084 0.787067
0.062132884 0.0064730505 0.78926677
-0.0052896291 0.010299168 0.78996688
-0.0017884281 0.011934862 0.78874165
0.0014805259 0.013768387 0.78662658
0.054806259 0.0146251 0.78553325
0.057624631 0.012178731 0.78798163
-0.00086955132 0.016173711 0.78980035
0.0023630906 0.017601931 0.78791678
0.0064625442 0.018652981 0.78591669
0.052774701 0.017777273 0.78643805
0.056539692 0.01763114 0.78927141
0.0030569483 0.021061843 0.78945565
0.0072138677 0.022733878 0.78796667
0.011757428 0.024025064 0.78704661
0.015980667 0.024850633 0.78543335
0.037997082 0.024879107 0.78633338
0.042965785 0.023742236 0.78631109
0.04772681 0.022917556 0.78738785
0.051753994 0.022035979 0.78925002
0.055842921 0.020582125 0.78983355
0.0094433492 0.026463566 0.78996688
0.012796168 0.027692663 0.78909034
0.017281167 0.027965643 0.78709698
0.022564126 0.029222637 0.7851333
0.02769747 0.029231321 0.78536665
0.033150367 0.028676402 0.78615999
0.037327219 0.027851986 0.78764075
0.042533204 0.027894475 0.78885561
0.047705874 0.027908001 0.78925568
0.013858564 0.031596269 0.78970027
0.017821373 0.032013454 0.78911328
0.022626908 0.032234535 0.78731853
0.02757936 0.032117277 0.78771514
0.032653786 0.032422345 0.78833318
0.036809094 0.031720705 0.78914672
0.042336401 0.030864224 0.78976697
0.048475537 0.03086552 0.78980005
0.022685139 0.035987053 0.78934437
0.027287439 0.036540508 0.78939992
0.032192767 0.036594275 0.78947884
0.035946026 0.035998777 0.78960007
-0.0023431315 -0.071260542 0.79000002
0.05147256 -0.070577845 0.79058325
-0.0071898624 -0.067220971 0.79064143
-0.0038176989 -0.069078073 0.79025
-0.0082402648 -0.064678349 0.79037625
-0.022342598 -0.050198633 0.79390001
-0.017124092 -0.051555555 0.79208159
-0.022320392 -0.047200251 0.79313016
-0.017313734 -0.047922518 0.79115778
-0.021938739 -0.042744033 0.79258943
-0.022448583 -0.037720867 0.79236668
-0.023003986 -0.032364618 0.79116303
-0.023777647 -0.02799196 0.79233336
-0.02156608 -0.022835685 0.79254562
0.074290387 -0.023506049 0.7902
-0.020125069 -0.017710021 0.79400921
-0.01740044 -0.016766787 0.79128015
0.075744942 -0.01762189 0.79000002
-0.016784355 -0.014379206 0.79352832
-0.014178701 -0.011781876 0.7927224
0.073379487 -0.01211568 0.79031032
0.075768664 -0.012482412 0.79024738
-0.013682728 -0.0073596425 0.79245567
0.072798222 -0.0058654724 0.79000002
0.075744934 -0.0088045774 0.79000002
-0.012701687 -0.0029358093 0.79281121
0.072580218 -0.0019546275 0.79297215
-0.011956844 0.0022242751 0.79237789
-0.0097099273 0.0044213925 0.79000026
0.067226253 0.0031422188 0.79160416
0.070914634 0.00075172627 0.79366195
-0.011241803 0.0059217662 0.79413342
-0.008733049 0.0078551108 0.79044461
0.062883243 0.0084667308 0.79037523
0.066949278 0.007201727 0.79269171
0.070987545 0.0059242523 0.79446673
-0.0067844642 0.012543306 0.79238665
-0.0034499238 0.013612857 0.79036683
0.059584465 0.013984498 0.79061687
0.062609591 0.012529614 0.79157227
0.066267818 0.012077578 0.79413337
-0.0053190906 0.017006416 0.79436672
-0.0025354428 0.017877098 0.79201674
0.059261233 0.018042302 0.79121673
0.062552743 0.017534472 0.79318333
-0.0014660447 0.021859016 0.79349339
0.0015867789 0.022571295 0.79087782
0.052907869 0.023525575 0.79000026
0.05772727 0.022390109 0.79141337
0.061316844 0.022166617 0.79395562
0.00319607 0.026215842 0.79356676
0.0068762689 0.027863411 0.791439
0.010921713 0.028681416 0.79033351
0.052377906 0.027438281 0.79108793
0.056517173 0.027012244 0.79308665
0.00818747 0.032292854 0.79326671
0.011986728 0.032603335 0.79121917
0.016075872 0.033816725 0.79010028
0.038193971 0.033095103 0.79040849
0.042706359 0.032856159 0.7905519
0.047583748 0.03279293 0.79071438
0.051929146 0.032244477 0.79271907
0.0095011275 0.035496362 0.79479998
0.012995216 0.037087001 0.79321671
0.017591063 0.0375847 0.79202509
0.022727415 0.038996894 0.79082245
0.026766978 0.039339978 0.79033357
0.032443114 0.039414775 0.79036027
0.037808869 0.037856437 0.79158664
0.042409956 0.037392549 0.7924428
0.047229726 0.037216354 0.79361999
0.050980199 0.035478499 0.79440004
0.017647931 0.041397259 0.79455
0.02280633 0.042085335 0.79357785
0.027403791 0.042596504 0.79277503
0.032379951 0.042761993 0.79242224
0.037390985 0.04260261 0.79290009
0.041338999 0.042116996 0.79418337
0.028761527 0.045830358 0.79453349
0.032450594 0.045809202 0.79416668
0.036896784 0.046551332 0.79421669
-0.020175528 -0.051812135 0.79600006
-0.023115551 -0.044352781 0.79500008
-0.023115551 -0.039916221 0.79500008
-0.024613708 -0.031802051 0.79550004
-0.023125244 -0.025138224 0.79533339
-0.023202782 -0.022253642 0.79800004
-0.02229915 -0.018087177 0.79758084
-0.020834466 -0.013651091 0.79847097
-0.017422352 -0.011666099 0.79733264
-0.016678678 -0.0068258345 0.79914582
-0.0142254 -0.0059050708 0.79533333
-0.016152196 -0.0033310589 0.798913
-0.01424607 -0.0029501154 0.79648894
-0.016362894 0.0012011831 0.79827601
-0.01395396 0.0026823955 0.79676008
0.07235226 0.0028172887 0.79770678
-0.012169696 0.0077190758 0.79665345
0.068839781 0.0088896621 0.79533333
0.070452124 0.0081653399 0.79679286
-0.01168461 0.011533118 0.79906666
-0.0095032156 0.013068357 0.79738677
0.068589903 0.013128591 0.7981717
0.070728905 0.011916986 0.79992318
-0.007463593 0.017593339 0.79710484
0.064487003 0.019275015 0.79653341
0.066715479 0.017536148 0.79829997
-0.0059366054 0.021972533 0.79762679
-0.0034737389 0.022589862 0.79585004
0.06382639 0.022267209 0.79754448
-0.0020368968 0.026896931 0.79795569
0.0015362639 0.027972557 0.79628342
0.058996756 0.027652442 0.79595566
0.061747584 0.027670654 0.79776978
0.0025226797 0.032463305 0.79810482
0.0054321187 0.032955356 0.79591668
0.054008972 0.033302523 0.79536676
0.056944862 0.03246595 0.7975167
0.060990542 0.031983923 0.79938328
0.0035904557 0.035680957 0.79893345
0.0072978362 0.037085827 0.79717344
0.011367353 0.038868938 0.79573333
0.048825022 0.039227419 0.79550004
0.052804772 0.037252448 0.79676676
0.0562585 0.036189456 0.79922217
0.008553178 0.042106006 0.79863709
0.012497374 0.043000795 0.79685938
0.017678102 0.043688517 0.79590005
0.022859318 0.044401985 0.79542232
0.025817377 0.044385862 0.79513359
0.039173629 0.044397019 0.79533333
0.042749263 0.04352593 0.7956267
0.047388654 0.042450108 0.79722822
0.052605305 0.041464366 0.79939163
0.0095624905 0.046141829 0.7999332
0.012712956 0.047371708 0.79870015
0.017712755 0.047483351 0.79745573
0.022897221 0.047440212 0.79673338
0.027149538 0.047590666 0.79615837
0.03251221 0.048116047 0.79566675
0.038311515 0.047982723 0.79590672
0.042224221 0.047450449 0.79690385
0.046590004 0.047147352 0.79895246
0.019498436 0.051076379 0.79953331
0.022785187 0.051868159 0.79930836
0.027427569 0.051280588 0.79884452
0.032640733 0.051279027 0.79881668
0.03752498 0.05108558 0.79812008
0.042060759 0.051170718 0.79945332
-0.024453485 -0.017525619 0.80239588
-0.026318766 -0.014164059 0.80225003
-0.023169296 -0.012220224 0.80194271
-0.026326969 -0.007450155 0.80250001
-0.022373348 -0.0074486332 0.80216783
-0.018051201 -0.0081772404 0.80053324
-0.022042438 -0.0035346288 0.80319464
-0.018210491 -0.0026687479 0.80097067
0.075399764 -0.0014789444 0.80200005
-0.017833484 0.0027466081 0.80189544
0.076045327 0.0019314474 0.80204189
-0.016238963 0.0071109836 0.80318832
-0.014326498 0.0074644559 0.80098552
0.073343314 0.0077752112 0.80240232
-0.015896598 0.010493159 0.80484623
-0.013111591 0.012953755 0.80274445
0.071540363 0.012251834 0.80232227
-0.01197487 0.017651899 0.80354673
-0.0093552312 0.018902209 0.80165547
0.06899254 0.01827595 0.80141664
0.071117453 0.017967617 0.80431747
-0.0088019436 0.022633106 0.80303335
0.067776591 0.02221824 0.80248338
-0.0062389262 0.026925044 0.8037191
-0.0033734099 0.029327007 0.80127782
0.064831749 0.02757176 0.80079156
0.066831157 0.027207822 0.80327499
-0.0019530166 0.03263589 0.80234283
0.00061217113 0.033548534 0.80123329
0.058802072 0.034241866 0.80003333
0.06289316 0.033060763 0.8014555
0.065871634 0.032182552 0.80436671
-0.0013851197 0.036396671 0.80380011
0.0019201762 0.037490614 0.80186671
0.00508853 0.038714588 0.80019987
0.057909012 0.037780467 0.80142778
0.061542541 0.036874045 0.80333334
0.0026114671 0.042364497 0.80353343
0.0057383669 0.042833231 0.8016476
0.049870413 0.044677984 0.80036658
0.053273916 0.044343323 0.8010416
0.057399653 0.042155717 0.80335677
0.060663436 0.04044091 0.80493349
0.003616221 0.046414856 0.80466682
0.007143267 0.047925349 0.80260605
0.01106267 0.049154721 0.80053318
0.048825111 0.048100099 0.80157495
0.05269431 0.047930177 0.80245668
0.056063671 0.047846094 0.80355567
0.0091141546 0.051380206 0.80428904
0.012587491 0.052269988 0.80262595
0.016852895 0.052335996 0.80077904
0.022249917 0.053597614 0.80016649
0.027479658 0.053610276 0.80035537
0.032733593 0.053659026 0.80108333
0.038318057 0.053260617 0.80069155
0.042844906 0.053319402 0.80157495
0.047010858 0.052262295 0.80250371
0.051416781 0.052180372 0.8041209
0.013735278 0.056475833 0.80405009
0.01722271 0.057318389 0.80299091
0.022301111 0.057451181 0.80199373
0.027553769 0.057487607 0.80250841
0.032068759 0.05753234 0.80313331
0.037161484 0.057382647 0.80312669
0.042740162 0.057133816 0.80382347
0.04712284 0.056127187 0.80441684
0.01862953 0.061403554 0.80493355
0.022938883 0.062494703 0.80397779
0.027596265 0.062809259 0.80374825
0.031904485 0.062431388 0.80439061
0.036619093 0.062109437 0.80437797
0.026886191 0.06589555 0.80493355
-0.024907649 -0.011966662 0.80500007
-0.024920026 -0.0074780108 0.80540001
-0.025031412 -0.0029967488 0.80900002
-0.0219594 -0.0014881649 0.80699998
-0.025031412 1.3042921e-05 0.80900002
-0.021133242 0.0019465155 0.80827361
-0.018923027 0.0045102821 0.80588245
0.077183135 0.0045053442 0.80500007
-0.021023797 0.007041113 0.8096053
-0.018334238 0.0078134406 0.80639458
-0.020479681 0.011285486 0.80800009
-0.017634574 0.012212666 0.80709589
-0.014406649 0.014247242 0.80546677
0.073555812 0.012011941 0.80637503
-0.017478241 0.017310653 0.80855399
-0.014041375 0.018381219 0.80605006
0.073141001 0.01772207 0.80678159
-0.020505028 0.024091378 0.80900002
-0.017487137 0.022584461 0.80894613
-0.012920386 0.022513079 0.80637354
0.069711067 0.023984175 0.80540013
0.072169013 0.022550391 0.80768013
-0.020454336 0.025532994 0.80700004
-0.018996231 0.025596274 0.80900002
-0.012454486 0.026591107 0.8087216
-0.0089110313 0.027517045 0.80647784
0.069075003 0.027024537 0.8067311
0.070041925 0.028613918 0.80922222
-0.0070874607 0.031752463 0.80820727
-0.0038953982 0.033761986 0.80633318
0.06717921 0.032755814 0.80745089
0.070094816 0.030141974 0.80983335
-0.0026969076 0.037842609 0.80702674
0.063244291 0.038492355 0.8059333
0.065869726 0.037257385 0.80895007
-0.0016439542 0.042085335 0.8077445
0.00061508309 0.043441657 0.80504471
0.058462702 0.044971995 0.80563343
0.062505223 0.042228337 0.80689162
-0.00088940555 0.045846812 0.80783325
0.0019320109 0.048229977 0.80685002
0.058495265 0.047996212 0.80607778
0.061565731 0.047055919 0.8083238
0.0031313673 0.051668238 0.80879992
0.0067979023 0.052852467 0.80645198
0.054347567 0.052856442 0.80588335
0.056737345 0.05223006 0.80779994
0.0083376113 0.056929905 0.8078416
0.01173166 0.057250392 0.80548012
0.015632281 0.059926048 0.80520022
0.039653052 0.059916131 0.80506688
0.041910473 0.059923574 0.80516684
0.047200024 0.058466941 0.80573338
0.05254893 0.057065327 0.80708891
0.056383066 0.055634551 0.8081333
0.0096708797 0.060208891 0.80900002
0.012888077 0.061212596 0.80804759
0.016986597 0.063263707 0.80715835
0.02064687 0.063948803 0.80555576
0.032895163 0.064406201 0.80503356
0.038184948 0.063713551 0.80574459
0.042736862 0.063031964 0.80659992
0.047161132 0.061911605 0.8076399
0.05155639 0.060603987 0.80925012
0.017974092 0.066247582 0.80923337
0.02263478 0.067405693 0.80670911
0.02787281 0.067873336 0.80555248
0.032187201 0.067491837 0.80610371
0.037500281 0.06758146 0.80717212
0.043058015 0.067554593 0.80909997
0.045919776 0.066283047 0.80966675
0.023968944 0.072143726 0.80782217
0.027710874 0.072076976 0.80707407
0.032094624 0.072016343 0.80849993
0.036814224 0.070714019 0.80866653
0.024783308 0.075332247 0.80980015
0.027784131 0.075278498 0.80922228
-0.023273602 0.0027276252 0.81082857
-0.022055572 0.0067971898 0.81050003
-0.02055572 0.013590622 0.81100005
-0.020543046 0.017100798 0.81050009
0.074999578 0.021208985 0.81388891
0.075018197 0.022728615 0.81409109
-0.017323069 0.027239 0.81311387
-0.014009729 0.028188707 0.8114354
0.072552264 0.027200913 0.8119688
-0.012720729 0.032223657 0.81289881
-0.0089672795 0.033731703 0.81162232
0.06865786 0.033944972 0.81069994
0.07200636 0.032726467 0.81279653
0.075569712 0.031329043 0.81458235
-0.010006011 0.037872557 0.81408906
-0.0069507435 0.037763342 0.81174082
-0.0039153649 0.039211299 0.81046683
0.068198964 0.038097195 0.81242675
0.071386665 0.037272863 0.81422681
-0.0067736981 0.042181995 0.81323326
-0.0039192298 0.042268593 0.81126684
0.067213759 0.042280205 0.81149638
0.070516035 0.041689329 0.81470025
-0.0054483223 0.046177395 0.81366664
-0.0027131033 0.047905695 0.81216002
0.063824549 0.047973361 0.8107602
0.067208275 0.047452096 0.81310308
-0.00089612161 0.052248895 0.81393331
0.0016270676 0.053303432 0.8107779
0.0589948 0.053108804 0.81088018
0.062295128 0.052451078 0.81315559
0.0021347823 0.057445996 0.81248152
0.0055336948 0.05770367 0.81080014
0.05836916 0.057611506 0.81215835
0.061407026 0.056093503 0.8148002
0.0030501934 0.061778069 0.81379998
0.0072284373 0.062095225 0.81218791
0.012415594 0.064272977 0.81090677
0.048256535 0.064872921 0.81086683
0.052063912 0.063146703 0.81128901
0.057282377 0.06188903 0.81309104
0.0085873166 0.065471306 0.81361669
0.012942094 0.067891419 0.81313336
0.017050749 0.06837327 0.81148583
0.020274119 0.069380872 0.81066692
0.041423731 0.069352359 0.81033349
0.047752924 0.068168029 0.8119334
0.052337136 0.067551255 0.81338787
0.055788171 0.065637492 0.81411123
0.014294364 0.071984917 0.81453359
0.017302908 0.072621115 0.81317031
0.021044903 0.072450273 0.81125569
0.033889618 0.073923111 0.81086689
0.037343971 0.072841875 0.81081927
0.042480431 0.072668649 0.81215757
0.047639284 0.072626315 0.81322956
0.050757281 0.071232863 0.81460023
0.022979107 0.076934844 0.81280005
0.027881378 0.07781031 0.81206673
0.032234199 0.076860778 0.81200838
0.037004475 0.076371916 0.81284434
0.042497654 0.076407067 0.81437159
0.046693336 0.076263331 0.81437796
0.075969145 0.024304084 0.8161428
-0.017656043 0.028122354 0.8168
0.075977601 0.027342578 0.81623739
-0.016768111 0.031663768 0.81801194
-0.01459096 0.034157313 0.81577146
0.075988472 0.03304315 0.81635278
-0.016181795 0.035065882 0.81928587
-0.013089917 0.038003683 0.8169179
0.07289052 0.038709469 0.81576681
0.076065853 0.037179422 0.8188259
-0.010428083 0.042207681 0.81738341
-0.0085097337 0.044043545 0.81620002
0.072244801 0.042571329 0.81706679
0.075420946 0.041120596 0.81846148
-0.0074320817 0.047348209 0.81707627
0.071154714 0.046784479 0.81766671
-0.0059852893 0.050728563 0.81788898
-0.0028600818 0.05342019 0.81696212
0.064020306 0.054140549 0.81582236
0.067538291 0.052684754 0.81773347
-0.0019910252 0.057599124 0.81772387
0.062858015 0.057776671 0.81717795
-0.00090184651 0.062487498 0.81913346
0.0010044465 0.062690541 0.81681669
0.059965793 0.063755281 0.81586671
0.062017716 0.062007681 0.81783336
0.0026583897 0.066465624 0.81808901
0.0073232255 0.067904159 0.81647336
0.011266272 0.069774576 0.81526697
0.057260156 0.068138152 0.81584454
0.06052056 0.066602357 0.81821674
0.0036824346 0.07089071 0.81940007
0.0072761392 0.07266999 0.81859058
0.012365386 0.073104426 0.81615251
0.052520681 0.07301259 0.81543362
0.056854904 0.072827049 0.81760836
0.060196128 0.070094109 0.81900018
0.013280935 0.077493146 0.81899053
0.017376173 0.077484973 0.81660008
0.020908266 0.078415684 0.81575567
0.034067936 0.078861013 0.81513345
0.037117843 0.07888037 0.81533355
0.042329874 0.078655832 0.81614685
0.048321705 0.077956259 0.81623358
0.052041173 0.077373862 0.81771439
0.056375667 0.076184988 0.81896675
0.014379774 0.080798015 0.81940001
0.017430488 0.081382789 0.81914681
0.022289075 0.082038872 0.81808013
0.027510066 0.082262158 0.8174122
0.032631677 0.082104713 0.81722224
0.037230298 0.08216247 0.81780005
0.042173024 0.081066206 0.81902677
0.047985535 0.08077392 0.81915569
0.051056366 0.080798022 0.81940001
0.028438166 0.085977733 0.81937343
0.032720368 0.086139046 0.81945568
0.036921479 0.085753687 0.81941676
-0.017746828 0.033612031 0.82100004
-0.016991166 0.03745148 0.82145929
0.078271493 0.038580768 0.82274598
-0.012865284 0.042525418 0.82208091
0.07410565 0.043528728 0.82079983
0.07742773 0.042654004 0.82356381
-0.010722868 0.047132291 0.82239991
0.073568054 0.047699656 0.82162654
0.075937472 0.046000965 0.82406682
-0.010129466 0.050603826 0.82413352
-0.0073488168 0.05233974 0.82249326
0.069530137 0.053465858 0.8209998
0.072005413 0.052068427 0.82303333
-0.0060274024 0.056954101 0.82357788
-0.0039678616 0.058835447 0.82133317
0.064889178 0.058768466 0.82039988
0.068244137 0.057820082 0.82209319
0.071874112 0.055736687 0.82446676
-0.0032078819 0.062744983 0.82251102
0.06431815 0.062928632 0.82091981
0.067995086 0.06261006 0.82325834
-0.0015202642 0.067050956 0.82277328
0.0011369378 0.068199806 0.82064432
0.062825128 0.067550585 0.82141316
0.066149093 0.066894926 0.82337785
-0.00090786547 0.070573404 0.8246001
0.0017227303 0.072139911 0.82246667
0.058773719 0.074798331 0.82046646
0.061970167 0.072411999 0.8222518
0.065200292 0.070550576 0.82433349
0.0029332372 0.075099155 0.82376671
0.007729046 0.077806078 0.82145447
0.011333985 0.078585275 0.82016665
0.054222815 0.078671858 0.8210665
0.057386294 0.078299098 0.82249993
0.061391607 0.075960428 0.82480001
0.0093285916 0.08168564 0.82322222
0.012688981 0.082705826 0.8213082
0.017458836 0.083575927 0.82048327
0.042258006 0.083365776 0.82066649
0.047322992 0.083238512 0.82091653
0.052950047 0.082784623 0.82209152
0.056336585 0.082400218 0.82398343
0.013111373 0.087167464 0.82376671
0.017502977 0.087233163 0.82257771
0.022065602 0.087074094 0.82108128
0.026643988 0.087676726 0.82059985
0.032770503 0.088560723 0.8207109
0.037662853 0.087936938 0.8205865
0.042040892 0.087214001 0.82239985
0.047250845 0.087168455 0.82328486
0.051876515 0.086396255 0.82433337
0.018308103 0.090477705 0.82426673
0.022125408 0.09114036 0.82332224
0.02764103 0.09202382 0.82226145
0.032818284 0.092514001 0.82191092
0.037411489 0.092500858 0.82179427
0.041903421 0.091730721 0.82346672
0.046757653 0.091263153 0.82443339
0.028303476 0.095599048 0.82435566
0.032901395 0.097346522 0.82400006
0.03773177 0.097676143 0.8240096
0.040625002 0.095139071 0.82480013
-0.016869279 0.042113233 0.82800001
-0.014266809 0.044079799 0.82635564
0.078548826 0.044640981 0.82727158
-0.013259632 0.047733802 0.82754678
0.077801108 0.047732886 0.82752126
-0.011722306 0.052381929 0.82800007
-0.0086063491 0.053756747 0.82546681
0.074506886 0.052207213 0.82524449
0.076821297 0.052473642 0.82945985
-0.011219028 0.056548804 0.82887799
-0.0082316929 0.057279799 0.82644987
0.073281541 0.057763766 0.82629532
0.076451443 0.056344002 0.82964456
-0.010198297 0.060208473 0.82973349
-0.0072264331 0.062568009 0.82753336
0.06987457 0.064474188 0.8250668
0.07334891 0.062600188 0.82795161
0.07645043 0.062516041 0.82963359
-0.0065791681 0.067317665 0.82857794
-0.0036068 0.068032548 0.82633334
0.068391308 0.067982465 0.82573342
0.071446024 0.067817576 0.82841128
-0.0055541205 0.070989877 0.82946694
-0.0026492444 0.072566897 0.82765013
0.067156486 0.072519422 0.82710838
0.071009696 0.070978478 0.82933354
-0.0012988604 0.076699845 0.82863349
0.0019524081 0.077339523 0.82664758
0.0052504749 0.079880051 0.82566655
0.059170119 0.07991232 0.82600003
0.062849306 0.077456288 0.82711107
0.065941453 0.076716691 0.82881683
0.002486198 0.08076378 0.82842684
0.0069737714 0.083465084 0.82736301
0.058637518 0.08341188 0.82717335
0.062343456 0.082314514 0.82908511
0.0088627171 0.087253481 0.82762218
0.011409991 0.089095466 0.82566673
0.049866673 0.089023538 0.82500005
0.053583488 0.088208102 0.82694453
0.057363033 0.087639831 0.82849544
0.0099103563 0.091772437 0.82903349
0.012976055 0.092359513 0.82737774
0.017361611 0.092673235 0.82625711
0.022191212 0.09371575 0.82577783
0.043712128 0.093627475 0.82500017
0.048381623 0.092961721 0.82590008
0.05312803 0.092411928 0.82785195
0.056926113 0.092254698 0.82921362
0.013392208 0.096036248 0.82923359
0.017829303 0.09695024 0.8288002
0.022244286 0.09701921 0.82774085
0.027024424 0.097435936 0.82638323
0.03296683 0.099844046 0.82564443
0.036804281 0.099810451 0.82536674
0.042432226 0.097039886 0.82628328
0.04694581 0.097019605 0.82774818
0.052224431 0.097038932 0.82911545
0.022952791 0.10184377 0.82941926
0.027515024 0.10233643 0.82840472
0.032750543 0.10336003 0.82796001
0.03767493 0.10315898 0.82758522
0.042352978 0.10096065 0.82850021
0.047018852 0.10025521 0.82904476
0.051678151 0.10029554 0.82937795
0.032351613 0.10649523 0.82960021
0.038060915 0.10706969 0.82926691
-0.018290801 0.044263236 0.83174479
-0.017562736 0.047827877 0.83298808
-0.01486036 0.048696868 0.83083349
0.079661809 0.049470816 0.83085185
0.081225835 0.049479645 0.83100003
-0.017254449 0.051998757 0.83420563
-0.014499545 0.053041156 0.83230031
0.079065666 0.05257725 0.83109713
0.081323579 0.051086865 0.83200002
-0.013325928 0.057641353 0.83168715
0.077759162 0.057610516 0.83121669
-0.011777755 0.06242907 0.8318969
0.077896006 0.06294284 0.83090371
-0.010759716 0.066663593 0.83324438
-0.0081468942 0.069050692 0.83088899
0.073953681 0.067993306 0.83055562
0.077361293 0.068113774 0.83202386
-0.0068634138 0.07273829 0.83181101
0.072145678 0.073105343 0.83096182
0.075617224 0.073250882 0.83323079
-0.0055824663 0.076781377 0.83369994
-0.0033991553 0.077703059 0.83194667
0.068204075 0.077610552 0.83095998
0.072057724 0.077445485 0.83250374
0.075387686 0.076123253 0.83499974
-0.002028886 0.081951343 0.83333331
0.0021836045 0.083482265 0.83094674
0.064136557 0.084978931 0.83046663
0.067364618 0.082046546 0.8320592
0.070681937 0.080744341 0.83459991
-0.00091902219 0.085415505 0.83473307
0.0021899759 0.086807355 0.8331809
0.0063211243 0.088703513 0.83158892
0.059509166 0.088869601 0.8307333
0.062648661 0.088154137 0.83126664
0.066942476 0.086298548 0.83325559
0.0029722876 0.090059429 0.83459973
0.0071615316 0.093172625 0.83328664
0.059125669 0.093124524 0.83078331
0.062611669 0.09283229 0.83334994
0.066038698 0.090095401 0.83493334
0.0082374476 0.09737996 0.83376282
0.012728359 0.098367624 0.83133334
0.01612022 0.098866485 0.83033341
0.054825988 0.098850615 0.83020002
0.05798218 0.09740556 0.83104438
0.061366465 0.096306756 0.83492291
0.013464751 0.10120649 0.83369994
0.017716251 0.1022377 0.83261478
0.02130059 0.10307629 0.83106661
0.042459 0.1035307 0.83057779
0.047117781 0.10278454 0.83078891
0.052811749 0.10255224 0.83099246
0.057880796 0.10201271 0.8323667
0.018926464 0.10674745 0.83458316
0.022184169 0.10709409 0.83274996
0.026999645 0.10751882 0.83154446
0.032306392 0.1080367 0.83127624
0.037873194 0.1093718 0.83191115
0.042530723 0.10680264 0.83198524
0.047216039 0.10687129 0.83251852
0.052333534 0.10601889 0.83278096
0.056656945 0.10607091 0.83435553
0.019325396 0.11029501 0.83499974
0.023086814 0.11175092 0.8342666
0.026930731 0.11205561 0.83421981
0.031945802 0.1115414 0.83414996
0.038173176 0.11271871 0.83424991
0.044238422 0.1102862 0.8349331
0.047356535 0.11081276 0.83499974
-0.021265412 0.049175628 0.83900005
-0.019622002 0.04897942 0.83565009
-0.018703943 0.053532861 0.83636677
-0.017479256 0.057656437 0.83747995
-0.014942709 0.058291323 0.83543754
-0.014975768 0.062314186 0.83728576
-0.015012391 0.065589048 0.83933336
-0.011833232 0.067386955 0.83583307
0.078569941 0.069970489 0.83571988
-0.010297925 0.073267244 0.83783913
-0.0087213814 0.073926762 0.83649993
0.078047886 0.072863258 0.83679944
0.080251284 0.071634635 0.83700001
-0.0074326689 0.078172669 0.83754438
0.077229261 0.077962972 0.83807343
-0.0063961348 0.082665496 0.83833337
-0.0040409723 0.083259344 0.83646661
0.072462827 0.082291678 0.83717775
-0.0056190728 0.086650029 0.83916688
-0.0026782765 0.087377086 0.83678329
0.0006381229 0.08857055 0.83519995
0.068851896 0.088303886 0.83757782
0.07099811 0.085783914 0.83833337
-0.0020406505 0.091798641 0.83832395
0.0021974782 0.092815958 0.8361184
0.064625673 0.094966628 0.83679992
0.067601122 0.092007123 0.83820009
-0.0009240862 0.096035242 0.83933347
0.002201461 0.097670279 0.83773339
0.0058335089 0.098986246 0.83568877
0.063081391 0.098101355 0.83699054
0.06638144 0.095246561 0.83926672
0.0037696175 0.10143492 0.83880019
0.0074058953 0.10247538 0.83737034
0.012003209 0.10359702 0.83645713
0.059853021 0.10414841 0.83553314
0.062695108 0.102426 0.8377915
0.0084708072 0.1069984 0.83960009
0.012569875 0.10740331 0.83777583
0.016848203 0.10759404 0.83573323
0.05204232 0.10877069 0.83522207
0.057579592 0.10789426 0.83645558
0.061364889 0.10763139 0.83844453
0.014085965 0.11198331 0.83833331
0.017611347 0.11228661 0.83681667
0.021668883 0.11344214 0.83529979
0.034132004 0.1134423 0.83529979
0.036458436 0.11341053 0.83506638
0.042538378 0.11217076 0.8359499
0.047396969 0.11246245 0.83571094
0.052157003 0.11212482 0.8370592
0.056419495 0.1118022 0.8385334
0.018062579 0.11653476 0.83838093
0.022483906 0.11777772 0.83665919
0.027291911 0.11766293 0.83617556
0.032569248 0.1176516 0.8364976
0.037913371 0.11792745 0.83624661
0.042824436 0.11689047 0.83773339
0.047519658 0.11691027 0.83787411
0.052056734 0.11662596 0.83903831
0.055451158 0.11559725 0.83966678
0.022556854 0.12127943 0.83935565
0.027432378 0.12309269 0.83885008
0.032228597 0.12307853 0.83848667
0.037585996 0.12332273 0.83812124
0.042576887 0.1208138 0.83901346
0.047603875 0.12023848 0.83935571
-0.018954383 0.057868183 0.84058338
-0.017758809 0.062686659 0.84228575
-0.01624772 0.067404181 0.84250003
-0.012961827 0.068382055 0.84167463
-0.012567026 0.071855292 0.84324455
-0.010762176 0.077687547 0.84356415
-0.0087585691 0.078147851 0.84006673
0.079148076 0.079881586 0.84186953
0.08063481 0.078234658 0.84100002
-0.0087917 0.083150811 0.84324437
0.072803959 0.084505752 0.84113336
0.076621868 0.082067929 0.8428666
-0.0068122963 0.088065505 0.84150004
0.072192602 0.087845765 0.84315002
-0.0061722915 0.091530025 0.84337777
-0.0040667374 0.093185619 0.84179997
0.069696881 0.093153179 0.84149998
0.071466729 0.091844246 0.84386659
-0.0027625824 0.097212531 0.84276676
0.068413436 0.097386569 0.8425833
-0.00092863705 0.10043027 0.8434667
0.0018977927 0.10205171 0.84130669
0.0053433175 0.10473843 0.84026659
0.064939782 0.10168489 0.84086645
0.067700908 0.10180571 0.84349161
0.0031171776 0.10719655 0.84379047
0.0064730826 0.10827023 0.84167624
0.010048626 0.10947099 0.84059983
0.06335143 0.10868962 0.84060001
0.065818757 0.10716164 0.84351432
0.0073869294 0.11277921 0.84361923
0.011180834 0.11295418 0.84158093
0.058142886 0.11367413 0.84084439
0.061735958 0.11267299 0.84260833
0.066036649 0.11081234 0.84486657
0.0085252859 0.1163315 0.84499991
0.012650696 0.11750548 0.84316385
0.017101619 0.11884363 0.8405332
0.053184468 0.1189049 0.84096646
0.057390146 0.11771639 0.84224999
0.060880929 0.1174251 0.84438336
0.014813823 0.12092287 0.84413338
0.018123386 0.12206136 0.84250015
0.022210078 0.12322158 0.84106672
0.043363251 0.12315339 0.84059989
0.047712218 0.12286022 0.84126663
0.052514724 0.12230004 0.84279263
0.056794655 0.12196698 0.84411114
0.019016735 0.12619059 0.84435558
0.022655722 0.12704343 0.8430593
0.027104571 0.1272836 0.84168571
0.03202945 0.12758334 0.8414554
0.037509181 0.12753947 0.8411665
0.04309598 0.12703989 0.84303486
0.047665607 0.1269763 0.84391677
0.052238069 0.1261085 0.84468329
0.028478744 0.13096434 0.84475547
0.032132324 0.13191922 0.84415555
0.037160538 0.13172975 0.84394675
0.040953033 0.13224843 0.84425336
0.041619938 0.13519382 0.84499991
-0.016689681 0.066031866 0.84500003
-0.015677316 0.073542111 0.84700006
-0.013543637 0.073922962 0.8453638
-0.015173829 0.077340901 0.84835911
-0.012924984 0.077451184 0.84611386
-0.012000076 0.081999913 0.84757632
0.07473816 0.08492101 0.84526664
0.079056315 0.082945064 0.84649134
0.081333354 0.083646342 0.84828573
-0.011053612 0.086437359 0.84780014
-0.0088263378 0.087414816 0.84656668
0.074355662 0.088234335 0.84688902
0.077971376 0.087518215 0.84757251
0.081830725 0.085717835 0.84796834
-0.0072632711 0.092565574 0.84811115
0.072854221 0.093286067 0.84626675
0.077499919 0.092745043 0.84884262
-0.0056776628 0.097017802 0.84791684
-0.0040944354 0.099337883 0.84753346
0.07244771 0.097598545 0.84612221
0.07503289 0.097883858 0.84860021
-0.0025149242 0.10248134 0.84744775
0.00064576318 0.10378115 0.84519988
0.068443231 0.10380571 0.84539992
0.072212622 0.10269289 0.84733349
0.075095765 0.10270622 0.84931141
-0.00093424 0.10735029 0.84855586
0.0006465952 0.10706347 0.84628892
0.068565562 0.10714241 0.84691125
0.070682265 0.10696386 0.8486169
-0.00093494944 0.11059096 0.84920013
0.0022249611 0.11183552 0.84665722
0.0053770207 0.11405054 0.84556663
0.063708149 0.11480489 0.84533328
0.06751024 0.11238766 0.84686667
0.07036224 0.11063438 0.8495335
0.0032865212 0.11581111 0.84886676
0.0069667366 0.11821753 0.84724772
0.010111585 0.11959771 0.84586656
0.063137539 0.11837669 0.84613335
0.066159479 0.11717869 0.84787643
0.0085676638 0.12243902 0.84920025
0.012275836 0.12303939 0.84690309
0.016406257 0.1242006 0.84506661
0.058459327 0.12372881 0.84542221
0.062281661 0.1229618 0.84735566
0.065552436 0.12159146 0.8488003
0.013837152 0.12735651 0.84863359
0.017487666 0.12810104 0.84660006
0.049515244 0.128947 0.84526658
0.053020369 0.1284076 0.84585321
0.057532575 0.12767321 0.84723711
0.061342534 0.12687798 0.84895587
0.019247208 0.13223936 0.84873354
0.022748552 0.13228866 0.84651852
0.026931951 0.13267763 0.8456555
0.044044107 0.13223174 0.84615546
0.048035387 0.13235731 0.84696305
0.05266241 0.13237453 0.84833348
0.056124736 0.1312297 0.84986687
0.023138825 0.13650221 0.84922683
0.027754456 0.13716929 0.84870857
0.032258362 0.13716847 0.84748173
0.036945805 0.13696709 0.84623706
0.042596195 0.13727978 0.84728503
0.047683526 0.1371453 0.8487336
0.051345538 0.13590842 0.84946692
0.029181829 0.14072622 0.84993345
0.032322373 0.14059745 0.84915584
0.037056249 0.14132302 0.84876698
0.040868737 0.14184265 0.84904033
-0.017466873 0.078004643 0.85214996
-0.016401181 0.08233238 0.85335267
-0.013633403 0.083910726 0.85096663
0.081497729 0.082234219 0.85000002
-0.016067551 0.087367721 0.8538087
-0.013242502 0.087507442 0.85130835
-0.016867442 0.093741439 0.85400003
-0.011871018 0.091791637 0.8524875
-0.0083441455 0.093417026 0.85104442
0.076749474 0.094102181 0.85008347
-0.015256834 0.095218405 0.85300004
-0.011020482 0.095802046 0.85348243
-0.007834536 0.097603351 0.85304451
0.077639408 0.098178543 0.85114431
-0.0066294214 0.10282646 0.85405725
-0.0041089291 0.10443602 0.85053337
0.077434167 0.10278693 0.85325754
-0.0057215211 0.10650846 0.8544668
-0.003320609 0.10772993 0.85155004
0.073063597 0.10803626 0.85146666
0.075883716 0.1080039 0.85371673
-0.0017336262 0.11257388 0.85225004
0.000649889 0.11393788 0.8506
0.07241267 0.11282696 0.85266554
-0.00094052742 0.1160181 0.85426682
0.0017091283 0.11786332 0.8522889
0.068893917 0.11715376 0.85096669
0.071459867 0.11745676 0.85316783
0.0031977147 0.12192814 0.85336
0.0060471464 0.12224807 0.85116673
0.067849196 0.12228685 0.8520667
0.070715636 0.12151376 0.85380006
0.0038400253 0.12637693 0.8544668
0.0070106704 0.1269017 0.85264814
0.011231102 0.12877007 0.85102218
0.062911384 0.12864806 0.85161322
0.066568702 0.12674151 0.85370672
0.0075557283 0.13136637 0.85417789
0.012583311 0.13253072 0.85315001
0.017162578 0.13335332 0.85130662
0.054595366 0.13452861 0.8507334
0.057921421 0.13302934 0.85296112
0.062779143 0.13109687 0.85415006
0.06602098 0.13041155 0.85486686
0.014459215 0.13560478 0.85418898
0.018148968 0.13805509 0.85295928
0.022465983 0.13887948 0.85072494
0.026017677 0.13917795 0.8501333
0.049834475 0.13848269 0.85071671
0.053354427 0.13827106 0.85307086
0.057606395 0.13626999 0.85420835
0.019767452 0.14221057 0.85410011
0.022917768 0.14279018 0.8528074
0.027438372 0.14271373 0.85117495
0.032388151 0.1432579 0.85088325
0.03713629 0.1440012 0.85059994
0.043114331 0.14290875 0.85115832
0.047039393 0.14246321 0.8518033
0.051303901 0.14267831 0.8540467
0.024024403 0.14676778 0.85442233
0.027932905 0.14758319 0.85415846
0.032488715 0.14767334 0.85352963
0.037256762 0.14764321 0.85335189
0.041579463 0.14742516 0.85340482
0.046865851 0.14624147 0.85444456
0.032926388 0.15142596 0.85455012
0.037852313 0.15160663 0.85482246
0.041567855 0.15212081 0.85473347
-0.018488983 0.083546057 0.85533333
-0.018499792 0.088370785 0.85583335
-0.015955403 0.092086576 0.85633308
-0.013704432 0.093895115 0.85540015
-0.012658007 0.097731918 0.85648441
-0.011679141 0.10183625 0.85718858
-0.0089165801 0.10182995 0.85522252
0.078837074 0.10345849 0.8555336
0.080570564 0.10363585 0.85700005
-0.010936866 0.10645992 0.8572703
-0.0075564119 0.10761004 0.85600024
0.078306429 0.10770365 0.85554475
0.080990084 0.10800161 0.85580415
-0.007348001 0.11071015 0.85828894
-0.0036080603 0.11322693 0.85718888
0.077309549 0.11310676 0.85628426
0.080912612 0.11272316 0.8563931
-0.0021474392 0.11732671 0.85805011
0.074090727 0.11784641 0.85600024
0.077175342 0.11721154 0.85834563
-0.00094505405 0.1229646 0.8583777
0.0010533455 0.12307429 0.85636687
0.073041663 0.1230026 0.85705727
0.0017952172 0.12779894 0.85715252
0.068906352 0.12780571 0.85605031
0.07147222 0.12731443 0.85810006
0.002786841 0.13191321 0.85773349
0.0059742033 0.13320754 0.85580021
0.063223176 0.13310745 0.85584033
0.067832433 0.13242446 0.85760015
0.007286821 0.13686466 0.85828584
0.011636667 0.13724475 0.85656679
0.015013879 0.13847055 0.85553348
0.05890628 0.13770722 0.85573363
0.062982775 0.13709962 0.85690385
0.066862643 0.13634373 0.85884446
0.012323327 0.14194956 0.85869533
0.016975433 0.14281961 0.85616314
0.053846996 0.14379424 0.8556447
0.058174141 0.1418457 0.8566891
0.062173367 0.14190398 0.85897332
0.013487309 0.14558123 0.8599335
0.017366065 0.14702013 0.85795557
0.02269301 0.14847204 0.85630691
0.026178872 0.14958741 0.85540026
0.043749645 0.14886737 0.85583365
0.046931323 0.14883451 0.8556447
0.051554918 0.14794019 0.85622531
0.056918327 0.14669253 0.85840958
0.019090628 0.15110403 0.85950005
0.022838268 0.1521603 0.85837144
0.027822591 0.15304106 0.85691124
0.032261807 0.15382321 0.8559469
0.037089523 0.1533386 0.85561126
0.042440429 0.15318461 0.85623354
0.047008615 0.15306468 0.85704458
0.051653806 0.15238349 0.85834277
0.024696572 0.15507081 0.8593334
0.028687168 0.15658429 0.85886669
0.032908831 0.15766719 0.8585428
0.037478384 0.15810411 0.85843706
0.04183029 0.15789674 0.8585524
0.047147822 0.15671392 0.85957789
0.03753246 0.16152753 0.85966676
-0.015382037 0.09839946 0.86000001
-0.015414828 0.10181635 0.86183333
-0.013786137 0.10325896 0.86050004
-0.013003068 0.10742122 0.86177915
-0.010581613 0.11051577 0.86091995
-0.0077093705 0.11330937 0.86268282
-0.0064248266 0.11691459 0.86322677
-0.0036257629 0.1180307 0.86122227
0.077723771 0.11931442 0.86085719
0.080909029 0.11687825 0.86059999
-0.0057874774 0.12220618 0.86431682
-0.0033624705 0.12192179 0.8623001
0.076771967 0.12190739 0.86220247
-0.0022918235 0.12677836 0.86260557
0.073769242 0.12822902 0.86156672
0.076337099 0.12608489 0.86335015
-0.00095017947 0.13005193 0.86303341
0.002263085 0.13451919 0.86080015
0.069663018 0.13446711 0.8604669
0.072844312 0.13231266 0.8628239
0.0032305352 0.13761418 0.86212671
0.0062768557 0.13933918 0.86090004
0.068688989 0.13839284 0.86165565
0.072128296 0.13668452 0.86436683
0.0038845169 0.1415081 0.86436683
0.0070893294 0.14275832 0.86220002
0.010280537 0.14319295 0.86000019
0.064489923 0.14296535 0.86103332
0.068059362 0.14269172 0.86301261
0.007905948 0.14778922 0.86348349
0.011697293 0.14757401 0.86105835
0.015092262 0.14879207 0.86000019
0.058456719 0.14814214 0.86086667
0.062272415 0.14750367 0.86181486
0.065668054 0.14791332 0.86421132
0.0087216906 0.15197739 0.86446691
0.011915635 0.15240353 0.86232597
0.016703656 0.15246433 0.86040843
0.053635966 0.15373425 0.86080003
0.056742076 0.15218942 0.86224586
0.061342362 0.15213127 0.8638168
0.013005778 0.15635438 0.86347795
0.017769631 0.15711588 0.86257577
0.022939859 0.15718976 0.86108339
0.02753666 0.15807362 0.86045015
0.031933334 0.15999037 0.86000013
0.043976303 0.1584398 0.8602668
0.047203723 0.15850119 0.86059999
0.052296966 0.15733162 0.86186254
0.056007177 0.15651298 0.86435574
0.019998897 0.16075321 0.86410022
0.023187194 0.1621246 0.86284083
0.027967062 0.16184686 0.86136299
0.032758486 0.16250579 0.8606112
0.037583385 0.16270682 0.86082679
0.042663295 0.16233145 0.86150485
0.047318891 0.16209953 0.8627038
0.051226318 0.16192384 0.86348021
0.024850812 0.16569029 0.86470014
0.028034626 0.16625358 0.86344451
0.033027608 0.16665432 0.86240005
0.037651509 0.1668518 0.86238527
0.042056587 0.16677901 0.86319542
0.045789108 0.16559449 0.86420017
0.034537517 0.17056841 0.86496675
0.037733492 0.17043257 0.8642779
0.040982306 0.17053553 0.86480021
-0.0106645 0.11380287 0.86766374
-0.0086356699 0.11815034 0.86699176
-0.01068633 0.12454812 0.86944014
-0.0078805229 0.12250871 0.86646205
0.07875976 0.12249599 0.86637378
0.080045298 0.12362632 0.86864465
-0.0068879202 0.12696521 0.86752778
-0.0041888813 0.12824355 0.86708337
0.077819064 0.12773913 0.86640012
0.080048956 0.12767173 0.86868423
-0.002250948 0.13205811 0.86777335
0.00066094205 0.13357678 0.86506671
0.07494764 0.13370548 0.8659001
0.077511206 0.13233531 0.86747223
0.080068827 0.13174458 0.86889994
-0.00095784996 0.1359569 0.86999995
0.00066359079 0.13734406 0.86853331
0.073380724 0.13782281 0.86646676
0.076781966 0.13731764 0.86837035
0.080105692 0.13908167 0.86930013
0.002685433 0.14249003 0.86790001
0.07262399 0.14195253 0.86707234
0.07630197 0.14173824 0.86906117
0.0034954848 0.14655004 0.86804169
0.0055078045 0.14743695 0.86613345
0.067703232 0.14825274 0.8661918
0.070673391 0.14653413 0.86794168
0.0039063878 0.15119815 0.86923325
0.0066674161 0.15276873 0.86700481
0.058737364 0.15448433 0.86500013
0.063177809 0.15428662 0.86690015
0.067259587 0.15223548 0.86790007
0.07039164 0.15042992 0.86946666
0.0075492081 0.15676567 0.86872494
0.011575626 0.15805089 0.86690843
0.015199315 0.15951414 0.86610013
0.057777714 0.15855572 0.86672789
0.062215146 0.15753227 0.86849445
0.06551189 0.15524635 0.86926663
0.012336922 0.16139846 0.86930668
0.016836092 0.1629526 0.8672446
0.020041713 0.16351442 0.86595017
0.053574227 0.16317537 0.86628836
0.056898642 0.16297205 0.86858094
0.01795589 0.16709596 0.86922216
0.022296529 0.16809295 0.86803937
0.028156275 0.16939573 0.8672002
0.031334087 0.16908315 0.86559999
0.04429153 0.1684404 0.8664335
0.047788177 0.16805847 0.86757499
0.052191041 0.1671257 0.8688134
0.023360526 0.1714164 0.86926657
0.028445249 0.17250752 0.86894274
0.032834005 0.17296901 0.86792517
0.037854955 0.17340134 0.8670612
0.042713638 0.17262073 0.86719048
0.047669213 0.17138135 0.86908883
0.033412941 0.17691964 0.86929333
0.037940674 0.17763136 0.86901671
0.041834168 0.1775258 0.8690933
0.037966281 0.18118785 0.86960006
-0.012339322 0.11270644 0.87166321
-0.011700827 0.11718988 0.87245429
0.081835836 0.11983635 0.87045836
-0.011541341 0.12176529 0.87268329
0.082661256 0.12301219 0.87231189
-0.011542798 0.1266596 0.87284458
-0.0085341539 0.12900719 0.87042546
0.082924619 0.12771514 0.87214088
-0.0070039243 0.13285124 0.87236929
-0.0036696673 0.13406086 0.87170011
0.081917927 0.13292104 0.87132072
-0.0063947737 0.13709235 0.87379986
-0.0027931514 0.13818093 0.8725459
0.081244983 0.13742207 0.87108076
-0.0017748658 0.14280869 0.87231112
0.00066496589 0.1424854 0.87033343
0.078106679 0.14369278 0.87111115
0.081008099 0.14244029 0.87203294
-0.0013699683 0.1475175 0.87376654
0.0013158488 0.1478858 0.87162668
0.073107198 0.14776385 0.87090683
0.076965861 0.1475499 0.8727541
0.08062724 0.14649758 0.87495995
0.0022934591 0.15223187 0.87284982
0.072253667 0.15255198 0.87235242
0.0039286329 0.15693805 0.87418324
0.0060842359 0.15838206 0.87168902
0.067455642 0.15734455 0.87080848
0.071522646 0.1576035 0.87336653
0.0082624489 0.16128545 0.8727777
0.010958553 0.1631964 0.87142235
0.059076905 0.16346915 0.87000006
0.062404737 0.16206491 0.87114835
0.067410208 0.16238049 0.87284434
0.070799157 0.1610612 0.87449998
0.012267407 0.16709308 0.87307495
0.015829736 0.1680121 0.87117791
0.052598748 0.16917232 0.87020016
0.057750572 0.16735356 0.87096202
0.062504329 0.16719347 0.87254065
0.066472039 0.16702509 0.87335986
0.013711071 0.17076306 0.87419993
0.01713977 0.17184165 0.87245005
0.021775663 0.17359102 0.87071127
0.026231019 0.1744668 0.87036681
0.044487495 0.17485134 0.8702668
0.047759876 0.17413765 0.87074465
0.052874468 0.17203864 0.87139177
0.057627663 0.17207716 0.87261462
0.062599376 0.1723243 0.8738665
0.065878659 0.17075005 0.87413323
0.018595161 0.17638806 0.87386656
0.021594878 0.17744665 0.87279034
0.027480444 0.1775143 0.87141681
0.032723017 0.17932023 0.87035012
0.037986528 0.17966653 0.8700667
0.043985095 0.17824318 0.8710224
0.047854856 0.1777304 0.87247771
0.052791044 0.17709976 0.87336659
0.057397567 0.17626695 0.87407321
0.022681881 0.18054767 0.87433326
0.028177593 0.18162656 0.87343699
0.033344686 0.18283275 0.87069178
0.038012482 0.18349086 0.87065732
0.042938858 0.1824446 0.87174165
0.047693074 0.18159337 0.87377125
0.051210139 0.18052013 0.87419987
0.032246359 0.18608828 0.87285995
0.038082182 0.18660648 0.87224442
0.042454351 0.18621756 0.8729555
-0.014033318 0.11407185 0.8759287
-0.015724109 0.11939412 0.87912506
-0.014035225 0.11734714 0.87604761
-0.015730817 0.12271713 0.87950003
-0.014061145 0.12246156 0.87766546
-0.013266409 0.12840363 0.87922919
-0.010757506 0.13026193 0.87523085
-0.0091453753 0.13381347 0.87716675
-0.0087485984 0.13765281 0.87824547
-0.007043568 0.14174238 0.87718815
-0.0042282003 0.14328559 0.87522221
-0.0058825649 0.145459 0.87851715
-0.0026017656 0.14850439 0.87720013
0.080999546 0.14880912 0.87899995
-0.0017857414 0.15107486 0.87791669
0.0014854503 0.15394583 0.87566674
0.074125975 0.15468974 0.87526673
0.077818036 0.15227699 0.87744284
0.0019799117 0.15749276 0.87819338
0.074212551 0.15813087 0.87628895
0.077726692 0.15699488 0.87905544
0.0031313812 0.16110915 0.87919992
0.0068001677 0.16311777 0.87681675
0.072659843 0.16292836 0.87725562
0.077765621 0.16034603 0.87949985
0.0078788921 0.16702858 0.87851334
0.010467018 0.16940776 0.87560004
0.06887158 0.16824627 0.87590843
0.07251808 0.16676658 0.87884998
0.011915505 0.17317334 0.87713766
0.015357841 0.17420121 0.87513334
0.067751184 0.17299008 0.87724769
0.071193166 0.17013648 0.87936652
0.012474108 0.17726019 0.87900001
0.016557558 0.17806362 0.87697154
0.058283832 0.17893194 0.87637508
0.062874503 0.17797992 0.87770367
0.067467824 0.17658581 0.87889993
0.012978363 0.18003994 0.87979972
0.017264906 0.18290022 0.87879574
0.02168758 0.18310003 0.87653822
0.025716281 0.18358232 0.87587786
0.048827097 0.18400729 0.87531674
0.053208783 0.18291284 0.8768959
0.057827726 0.18289186 0.87875414
0.061900448 0.18213482 0.87937766
0.018305792 0.1881696 0.87954986
0.02197044 0.18794377 0.87849265
0.026866386 0.18781418 0.87788534
0.031356636 0.18895942 0.87751681
0.037489526 0.18934646 0.87742257
0.043874934 0.18838069 0.87748015
0.047956623 0.18765022 0.87807089
0.053097468 0.18711472 0.87843895
0.057279591 0.1873993 0.87977493
0.06132739 0.18968686 0.87900007
0.022412952 0.19190173 0.87978315
0.027153434 0.19261944 0.87959033
0.03183284 0.19304228 0.87938505
0.03693014 0.19265161 0.87926126
0.041869853 0.19320872 0.87921178
0.043302584 0.19953533 0.87916666
0.061257619 0.19600406 0.87800002
0.04081187 0.20101821 0.87850004
-0.014107449 0.12777925 0.88055563
-0.011373063 0.13271616 0.88071847
-0.0112568 0.13829949 0.88235724
-0.011395323 0.1417411 0.8824957
-0.0091787046 0.1424894 0.88036364
-0.00425732 0.14837152 0.88125002
-0.0026177149 0.15303585 0.88215828
0.081293829 0.15263239 0.88219357
-0.00097267638 0.15778267 0.88346672
0.00067240256 0.15881222 0.88006645
0.08122164 0.15741509 0.88141036
-0.00097355718 0.16121511 0.88426679
0.0017683064 0.16290377 0.88153321
0.077911682 0.16310693 0.88115549
0.082058609 0.16236426 0.88157004
0.0034164246 0.16633809 0.88235551
0.0064232168 0.16799159 0.88098311
0.074567765 0.16789579 0.88048315
0.077477761 0.16703036 0.88370216
0.0075866962 0.17208417 0.88264674
0.073029451 0.17223324 0.8817243
0.0089185946 0.17678586 0.88398343
0.010522809 0.17849797 0.88026637
0.069114111 0.1780466 0.88073325
0.072118804 0.17701361 0.88266003
0.012178575 0.18226241 0.88131094
0.064153627 0.18286932 0.88028866
0.067626879 0.18184082 0.88172847
0.013438848 0.18687609 0.88310003
0.015868125 0.18680394 0.8808248
0.049920019 0.1899458 0.88019973
0.052387491 0.18996377 0.88028306
0.059774052 0.18668546 0.88026649
0.06310606 0.186827 0.88093388
0.067417458 0.18657336 0.88361239
0.017125431 0.1920182 0.88219988
0.022017365 0.19380081 0.88035536
0.026115969 0.19485047 0.88016641
0.038446713 0.19494797 0.88060701
0.047170751 0.1925505 0.88141412
0.052845296 0.19245754 0.8820594
0.058161441 0.19046474 0.8807084
0.063369818 0.19212562 0.88174999
0.018793056 0.19551457 0.88316667
0.022076905 0.19706331 0.88273805
0.026966581 0.19753098 0.88116652
0.031903628 0.19756524 0.88131887
0.037091117 0.19803408 0.8818441
0.041504614 0.19779631 0.88078582
0.046726696 0.19640361 0.88189185
0.051743392 0.19554096 0.8832857
0.063181646 0.19525632 0.88200003
0.028127203 0.20099603 0.88318795
0.031947855 0.20096834 0.88258684
0.036816362 0.20047779 0.88091499
-0.0067753661 0.14867961 0.8879922
-0.0059510465 0.15211298 0.88874435
-0.0042765629 0.15315779 0.88523328
-0.0034616755 0.15770261 0.88764983
0.083249979 0.15814646 0.88550001
-0.0026359691 0.16236126 0.88829154
-0.001531564 0.16587465 0.88866657
0.0019159277 0.16820857 0.88644999
0.078871749 0.16863324 0.88578922
0.082107186 0.1680648 0.8874265
0.003162262 0.17180079 0.88796651
0.0061852909 0.17419301 0.88613337
0.074970737 0.17456657 0.88524139
0.07761237 0.17246231 0.887119
0.081384286 0.17258792 0.88917881
0.0039955187 0.17532088 0.88906664
0.0069654197 0.17796548 0.8874132
0.074157178 0.17788839 0.88538325
0.076350272 0.17685445 0.88847136
0.0081284344 0.18250288 0.88779992
0.010584967 0.18449385 0.88546646
0.071479492 0.18282917 0.88697994
0.075187422 0.18002549 0.88780016
0.0089720832 0.18777102 0.88928509
0.011425769 0.18805243 0.8867166
0.067616507 0.18959568 0.88621676
0.070835173 0.18679601 0.88858479
0.0089782169 0.19038214 0.88989294
0.012817059 0.19156063 0.8876887
0.015542696 0.1944205 0.88566667
0.067828074 0.19184484 0.88900006
0.070390582 0.19039534 0.88995457
0.013941107 0.195123 0.8888666
0.017219173 0.19774576 0.88703322
0.020490317 0.19928804 0.8853333
0.018090794 0.20179902 0.88913935
0.022187801 0.20218678 0.88721091
