# .PCD v0.7 - Point Cloud Data file format
VERSION 0.7
FIELDS x y z
SIZE 4 4 4
TYPE F F F
COUNT 1 1 1
WIDTH 1330
HEIGHT 1
VIEWPOINT 0 0 0 1 0 0 0
POINTS 1330
DATA ascii
-0.0087346286 0.046970472 0.095075324
-0.0060572773 0.047139958 0.08524394
-0.0054575056 0.047139958 0.084652223
-0.0054575056 0.047249988 0.08524394
-0.0021803677 0.04787384 0.08524394
-0.0074675083 0.047139958 0.088521071
-0.0054575056 0.047581062 0.088521071
-0.0021803677 0.048031554 0.088521071
0.0010967553 0.049679115 0.08524394
0.0043738782 0.049492732 0.08524394
0.0010967553 0.048601046 0.088521071
0.0043738782 0.048881695 0.088521071
-0.0079375058 0.047139958 0.091798201
-0.0054575056 0.047866806 0.091798201
-0.0021803677 0.048363194 0.091798201
-0.0082146525 0.047139958 0.095075324
-0.0054575056 0.04791607 0.095075324
-0.0021803677 0.048286572 0.095075324
0.0010967553 0.048636392 0.091798201
0.0043738782 0.048779503 0.091798201
0.0010967553 0.048367813 0.095075324
0.0043738782 0.048506692 0.095075324
-0.018566012 0.04360266 0.098352447
-0.017929927 0.043862835 0.098352447
-0.018566012 0.043651506 0.10162958
-0.018149883 0.043862835 0.10162958
-0.015288889 0.044785395 0.098352447
-0.015288889 0.044949189 0.10162958
-0.012011752 0.045960143 0.098352447
-0.0087346286 0.047029004 0.098352447
-0.012011752 0.046081737 0.10162958
-0.0089184791 0.047139958 0.10162958
-0.0087346286 0.047139958 0.10085109
-0.0087346286 0.047197983 0.10162958
-0.018566012 0.043627515 0.10490671
-0.018103898 0.043862835 0.10490671
-0.018566012 0.043601051 0.10818383
-0.017968759 0.043862835 0.10818383
-0.015288889 0.045015141 0.10490671
-0.015288889 0.045057222 0.10818383
-0.012011752 0.046252117 0.10490671
-0.0095128119 0.047139958 0.10490671
-0.0087346286 0.047368124 0.10490671
-0.012011752 0.046500757 0.10818383
-0.01010026 0.047139958 0.10818383
-0.0087346286 0.04741396 0.10818383
-0.0083083361 0.047139958 0.098352447
-0.0054575056 0.047758713 0.098352447
-0.0021803677 0.04812403 0.098352447
-0.0054575056 0.04798983 0.10162958
-0.0021803677 0.048261747 0.10162958
0.0010967553 0.048189089 0.098352447
0.0043738782 0.048428163 0.098352447
0.0010967553 0.048317835 0.10162958
0.0043738782 0.048620448 0.10162958
-0.0054575056 0.048004881 0.10490671
-0.0021803677 0.048418716 0.10490671
-0.0054575056 0.047911361 0.10818383
-0.0021803677 0.048635975 0.10818383
0.0010967553 0.048601016 0.10490671
0.0043738782 0.048757568 0.10490671
0.0010967553 0.048845544 0.10818383
0.0043738782 0.04900755 0.10818383
-0.046129704 0.0012601763 0.11146095
-0.046262845 0.0045372993 0.11146095
-0.046419024 0.0012601763 0.11473808
-0.046422631 0.0045372993 0.11473808
-0.04567188 0.0078144372 0.11146095
-0.044783026 0.011062637 0.11146095
-0.044775084 0.01109156 0.11146095
-0.045833603 0.0078144372 0.11473808
-0.044873729 0.01109156 0.11473808
-0.044783026 0.01109156 0.11172906
-0.046480089 0.0012601763 0.11801521
-0.04630053 0.0045372993 0.11801521
-0.046440467 0.0012601763 0.12129234
-0.046593338 0.0045372993 0.12129234
-0.045908228 0.0078144372 0.11801521
-0.044944167 0.01109156 0.11801521
-0.046095788 0.0078144372 0.12129234
-0.045068517 0.01109156 0.12129234
-0.043881699 0.014368683 0.11146095
-0.042632535 0.017645821 0.11146095
-0.044783026 0.011397615 0.11473808
-0.043872654 0.014368683 0.11473808
-0.042689294 0.017645821 0.11473808
-0.041505903 0.020048708 0.11146095
-0.041505903 0.020223618 0.11473808
-0.041038141 0.020922944 0.11146095
-0.039015844 0.024200067 0.11146095
-0.041119397 0.020922944 0.11473808
-0.039105475 0.024200067 0.11473808
-0.044783026 0.011519507 0.11801521
-0.043777674 0.014368683 0.11801521
-0.04267703 0.017645821 0.11801521
-0.044783026 0.011987627 0.12129234
-0.044021964 0.014368683 0.12129234
-0.042787105 0.017645821 0.12129234
-0.041505903 0.020394564 0.11801521
-0.041505903 0.020536378 0.12129234
-0.041222677 0.020922944 0.11801521
-0.039232537 0.024200067 0.11801521
-0.041324884 0.020922944 0.12129234
-0.039387271 0.024200067 0.12129234
-0.046659514 0.0012601763 0.12456946
-0.046986297 0.0045372993 0.12456946
-0.046972826 0.0012601763 0.1278466
-0.046864629 0.0045372993 0.1278466
-0.046345502 0.0078144372 0.12456946
-0.045168668 0.01109156 0.12456946
-0.046357214 0.0078144372 0.1278466
-0.045256719 0.01109156 0.1278466
-0.047153905 0.0012601763 0.13112372
-0.046629444 0.0045372993 0.13112372
-0.047081918 0.0012601763 0.13440084
-0.046513885 0.0045372993 0.13440084
-0.046163231 0.0078144372 0.13112372
-0.045281366 0.01109156 0.13112372
-0.046126932 0.0078144372 0.13440084
-0.045241058 0.01109156 0.13440084
-0.044783026 0.012374416 0.12456946
-0.04415144 0.014368683 0.12456946
-0.042892069 0.017645821 0.12456946
-0.044783026 0.012461841 0.1278466
-0.044086963 0.014368683 0.1278466
-0.042766765 0.017645821 0.1278466
-0.041505903 0.020272925 0.12456946
-0.041505903 0.020128161 0.1278466
-0.041124657 0.020922944 0.12456946
-0.03922911 0.024200067 0.12456946
-0.041054413 0.020922944 0.1278466
-0.039259851 0.024200067 0.1278466
-0.044783026 0.012613788 0.13112372
-0.044155195 0.014368683 0.13112372
-0.042832494 0.017645821 0.13112372
-0.044783026 0.012648612 0.13440084
-0.044273481 0.014368683 0.13440084
-0.043101594 0.017645821 0.13440084
-0.041505903 0.020629987 0.13112372
-0.041587785 0.020922944 0.13440084
-0.041505903 0.020922944 0.13254888
-0.041505903 0.021087527 0.13440084
-0.041371688 0.020922944 0.13112372
-0.039608762 0.024200067 0.13112372
-0.039731503 0.024200067 0.13440084
-0.038228765 0.025472701 0.11146095
-0.036870092 0.02747719 0.11146095
-0.034951642 0.030011922 0.11146095
-0.038228765 0.025734127 0.11473808
-0.037090003 0.02747719 0.11473808
-0.034951642 0.030216292 0.11473808
-0.038228765 0.025903463 0.11801521
-0.037189022 0.02747719 0.11801521
-0.034951642 0.030329809 0.11801521
-0.038228765 0.026019245 0.12129234
-0.037257254 0.02747719 0.12129234
-0.034951642 0.030447036 0.12129234
-0.03434445 0.030754313 0.11146095
-0.034490928 0.030754313 0.11473808
-0.031674519 0.033798799 0.11146095
-0.031467408 0.034031451 0.11146095
-0.028397381 0.037127852 0.11146095
-0.031674519 0.033883885 0.11473808
-0.03154172 0.034031451 0.11473808
-0.028397381 0.037254468 0.11473808
-0.028187573 0.037308574 0.11146095
-0.028334737 0.037308574 0.11473808
-0.03458412 0.030754313 0.11801521
-0.034702137 0.030754313 0.12129234
-0.031674519 0.033998325 0.11801521
-0.031645268 0.034031451 0.11801521
-0.028397381 0.037228987 0.11801521
-0.031847745 0.034031451 0.12129234
-0.031674519 0.034031451 0.11836867
-0.031674519 0.034213319 0.12129234
-0.028520346 0.037308574 0.12129234
-0.028397381 0.037308574 0.11960836
-0.02829735 0.037308574 0.11801521
-0.025120258 0.039638147 0.11146095
-0.023692876 0.040585712 0.11146095
-0.021843135 0.041731641 0.11146095
-0.025120258 0.039819762 0.11473808
-0.024064198 0.040585712 0.11473808
-0.021843135 0.04193221 0.11473808
-0.028397381 0.037412211 0.12129234
-0.025120258 0.039687201 0.11801521
-0.02388984 0.040585712 0.11801521
-0.021843135 0.042056516 0.11801521
-0.025120258 0.039893761 0.12129234
-0.024063066 0.040585712 0.12129234
-0.021843135 0.042075589 0.12129234
-0.038228765 0.025975093 0.12456946
-0.037249073 0.02747719 0.12456946
-0.034951642 0.030431658 0.12456946
-0.038228765 0.026017025 0.1278466
-0.037231386 0.02747719 0.1278466
-0.034951642 0.030366227 0.1278466
-0.038228765 0.026336074 0.13112372
-0.037381083 0.02747719 0.13112372
-0.034951642 0.030423865 0.13112372
-0.038228765 0.026482463 0.13440084
-0.037500337 0.02747719 0.13440084
-0.034951642 0.030557901 0.13440084
-0.034691736 0.030754313 0.12456946
-0.034613907 0.030754313 0.1278466
-0.031875789 0.034031451 0.12456946
-0.031674519 0.034247145 0.12456946
-0.028573826 0.037308574 0.12456946
-0.031755939 0.034031451 0.1278466
-0.031674519 0.034128636 0.1278466
-0.028553978 0.037308574 0.1278466
-0.034660593 0.030754313 0.13112372
-0.0347884 0.030754313 0.13440084
-0.031741112 0.034031451 0.13112372
-0.031674519 0.034111708 0.13112372
-0.028776631 0.037308574 0.13112372
-0.03184247 0.034031451 0.13440084
-0.031674519 0.034220561 0.13440084
-0.028892443 0.037308574 0.13440084
-0.028397381 0.037465245 0.12456946
-0.028397381 0.03744024 0.1278466
-0.025120258 0.040012076 0.12456946
-0.024204955 0.040585712 0.12456946
-0.021843135 0.042055681 0.12456946
-0.025120258 0.039953396 0.1278466
-0.02417025 0.040585712 0.1278466
-0.021843135 0.041992292 0.1278466
-0.028397381 0.037633836 0.13112372
-0.028397381 0.037761495 0.13440084
-0.025120258 0.040111139 0.13112372
-0.024322703 0.040585712 0.13112372
-0.021843135 0.041916624 0.13112372
-0.025120258 0.04026188 0.13440084
-0.024508536 0.040585712 0.13440084
-0.021843135 0.041991428 0.13440084
-0.018566012 0.043578073 0.11146095
-0.017977968 0.043862835 0.11146095
-0.018566012 0.043746427 0.11473808
-0.018352121 0.043862835 0.11473808
-0.015288889 0.045177057 0.11146095
-0.015288889 0.045386419 0.11473808
-0.012011752 0.046576902 0.11146095
-0.00989829 0.047139958 0.11146095
-0.0087346286 0.047347739 0.11146095
-0.012011752 0.04661192 0.11473808
-0.0096343905 0.047139958 0.11473808
-0.0087346286 0.047311857 0.11473808
-0.01890789 0.043862835 0.11801521
-0.018566012 0.043862835 0.11599919
-0.019321352 0.043862835 0.12129234
-0.018566012 0.04402636 0.11801521
-0.015288889 0.045546934 0.11801521
-0.018566012 0.044268861 0.12129234
-0.015288889 0.045688674 0.12129234
-0.012011752 0.04657878 0.11801521
-0.0091937035 0.047139958 0.11801521
-0.0087346286 0.047262147 0.11801521
-0.012011752 0.046477064 0.12129234
-0.0089758039 0.047139958 0.12129234
-0.0087346286 0.047226623 0.12129234
-0.0054575056 0.048064992 0.11146095
-0.0021803677 0.048813924 0.11146095
-0.0054575056 0.048228756 0.11473808
-0.0021803677 0.048978433 0.11473808
0.0010967553 0.048954085 0.11146095
0.0043738782 0.049091294 0.11146095
0.0010967553 0.04914774 0.11473808
0.0043738782 0.049076185 0.11473808
-0.0054575056 0.048385069 0.11801521
-0.0021803677 0.049040005 0.11801521
-0.0054575056 0.048395351 0.12129234
-0.0021803677 0.048783109 0.12129234
0.0010967553 0.049203709 0.11801521
0.0043738782 0.049235895 0.11801521
0.0010967553 0.049016997 0.12129234
0.0043738782 0.049564287 0.12129234
-0.019303322 0.043862835 0.12456946
-0.01896514 0.043862835 0.1278466
-0.018566012 0.044344619 0.12456946
-0.015288889 0.045970932 0.12456946
-0.018566012 0.044133618 0.1278466
-0.015288889 0.046013758 0.1278466
-0.012011752 0.046696916 0.12456946
-0.0097101182 0.047139958 0.12456946
-0.0087346286 0.047436818 0.12456946
-0.012011752 0.046865299 0.1278466
-0.010378048 0.047139958 0.1278466
-0.0087346286 0.047545001 0.1278466
-0.018896237 0.043862835 0.13112372
-0.018759772 0.043862835 0.13440084
-0.018566012 0.04408814 0.13112372
-0.015288889 0.045796707 0.13112372
-0.018566012 0.043969139 0.13440084
-0.015288889 0.045575306 0.13440084
-0.012011752 0.04671149 0.13112372
-0.010154516 0.047139958 0.13112372
-0.0087346286 0.047505334 0.13112372
-0.012011752 0.046833768 0.13440084
-0.010995075 0.047139958 0.13440084
-0.0087346286 0.047730163 0.13440084
-0.0054575056 0.048306301 0.12456946
-0.0021803677 0.048567042 0.12456946
-0.0054575056 0.048285469 0.1278466
-0.0021803677 0.04873307 0.1278466
0.0010967553 0.04886438 0.12456946
0.0043738782 0.049555555 0.12456946
0.0010967553 0.049090907 0.1278466
0.0043738782 0.049282953 0.1278466
-0.0054575056 0.048339263 0.13112372
-0.0021803677 0.04903622 0.13112372
-0.0054575056 0.048389837 0.13440084
-0.0021803677 0.049285576 0.13440084
0.0010967553 0.049618289 0.13112372
0.0043738782 0.049511656 0.13112372
0.0010967553 0.0499845 0.13440084
0.0043738782 0.04961668 0.13440084
-0.046823174 0.0012601763 0.13767797
-0.046403259 0.0045372993 0.13767797
-0.046761796 0.0012601763 0.14095509
-0.04633902 0.0045372993 0.14095509
-0.046201244 0.0078144372 0.13767797
-0.045432135 0.01109156 0.13767797
-0.046233743 0.0078144372 0.14095509
-0.045541137 0.01109156 0.14095509
-0.046869293 0.0012601763 0.14423223
-0.046456143 0.0045372993 0.14423223
-0.047039703 0.0012601763 0.14750935
-0.046672896 0.0045372993 0.14750935
-0.046044305 0.0078144372 0.14423223
-0.045400769 0.01109156 0.14423223
-0.045876965 0.0078144372 0.14750935
-0.04513222 0.01109156 0.14750935
-0.044783026 0.013456151 0.13767797
-0.04451485 0.014368683 0.13767797
-0.04322885 0.017645821 0.13767797
-0.044783026 0.014278308 0.14095509
-0.044766754 0.014368683 0.14095509
-0.043687508 0.017645821 0.14095509
-0.0416722 0.020922944 0.13767797
-0.041505903 0.021258354 0.13767797
-0.041949719 0.020922944 0.14095509
-0.041505903 0.021714225 0.14095509
-0.039809972 0.024200067 0.13767797
-0.039890483 0.024200067 0.14095509
-0.044824392 0.014368683 0.14423223
-0.044783026 0.014368683 0.14119413
-0.044783026 0.014743701 0.14423223
-0.04410471 0.017645821 0.14423223
-0.044783026 0.013085261 0.14750935
-0.044783026 0.014368683 0.14493926
-0.044540733 0.014368683 0.14750935
-0.043923765 0.017645821 0.14750935
-0.042153955 0.020922944 0.14423223
-0.041505903 0.021797284 0.14423223
-0.042424291 0.020922944 0.14750935
-0.041505903 0.022262529 0.14750935
-0.039881453 0.024200067 0.14423223
-0.040148333 0.024200067 0.14750935
-0.047202885 0.0012601763 0.15078647
-0.046723828 0.0045372993 0.15078647
-0.047261178 0.0012601763 0.15406361
-0.046736211 0.0045372993 0.15406361
-0.045851469 0.0078144372 0.15078647
-0.044959947 0.01109156 0.15078647
-0.045945361 0.0078144372 0.15406361
-0.044902593 0.01109156 0.15406361
-0.0473589 0.0012601763 0.15734074
-0.046921536 0.0045372993 0.15734074
-0.04721202 0.0012601763 0.16061786
-0.047011122 0.0045372993 0.16061786
-0.045955583 0.0078144372 0.15734074
-0.044974357 0.01109156 0.15734074
-0.045845807 0.0078144372 0.16061786
-0.045067638 0.01109156 0.16061786
-0.044783026 0.012137339 0.15078647
-0.04441224 0.014368683 0.15078647
-0.043908775 0.017645821 0.15078647
-0.044783026 0.01171717 0.15406361
-0.044473961 0.014368683 0.15406361
-0.043781802 0.017645821 0.15406361
-0.042690009 0.020922944 0.15078647
-0.041505903 0.022904262 0.15078647
-0.042228565 0.020922944 0.15406361
-0.041505903 0.022385955 0.15406361
-0.040456712 0.024200067 0.15078647
-0.040340513 0.024200067 0.15406361
-0.044783026 0.011966154 0.15734074
-0.044354409 0.014368683 0.15734074
-0.043373555 0.017645821 0.15734074
-0.044783026 0.012626365 0.16061786
-0.044378608 0.014368683 0.16061786
-0.043369979 0.017645821 0.16061786
-0.041992515 0.020922944 0.15734074
-0.041505903 0.022178993 0.15734074
-0.042110711 0.020922944 0.16061786
-0.041505903 0.022295922 0.16061786
-0.040375441 0.024200067 0.15734074
-0.04037784 0.024200067 0.16061786
-0.038228765 0.026538596 0.13767797
-0.037543371 0.02747719 0.13767797
-0.034951642 0.030582547 0.13767797
-0.038228765 0.026493028 0.14095509
-0.037491754 0.02747719 0.14095509
-0.034951642 0.030523047 0.14095509
-0.038228765 0.026573226 0.14423223
-0.037544489 0.02747719 0.14423223
-0.034955546 0.030754313 0.14423223
-0.034951642 0.030754313 0.1441941
-0.038228765 0.02668947 0.14750935
-0.03761515 0.02747719 0.14750935
-0.035154179 0.030754313 0.14750935
-0.034951642 0.030759394 0.14423223
-0.034951642 0.031039521 0.14750935
-0.034797832 0.030754313 0.13767797
-0.034746587 0.030754313 0.14095509
-0.031691238 0.034031451 0.13767797
-0.031674519 0.034049377 0.13767797
-0.028679952 0.037308574 0.13767797
-0.031807542 0.034031451 0.14095509
-0.031674519 0.034179494 0.14095509
-0.028590202 0.037308574 0.14095509
-0.032199487 0.034031451 0.14423223
-0.031674519 0.034604058 0.14423223
-0.028840333 0.037308574 0.14423223
-0.032463506 0.034031451 0.14750935
-0.031674519 0.034856886 0.14750935
-0.029044852 0.037308574 0.14750935
-0.028397381 0.037594154 0.13767797
-0.028397381 0.037487268 0.14095509
-0.025120258 0.040201053 0.13767797
-0.024468914 0.040585712 0.13767797
-0.021843135 0.042131826 0.13767797
-0.025120258 0.040124103 0.14095509
-0.024416462 0.040585712 0.14095509
-0.021843135 0.042311832 0.14095509
-0.028397381 0.037677959 0.14423223
-0.028397381 0.037814155 0.14750935
-0.025120258 0.040233001 0.14423223
-0.024599403 0.040585712 0.14423223
-0.021843135 0.042451754 0.14423223
-0.025120258 0.04021354 0.14750935
-0.024573296 0.040585712 0.14750935
-0.021843135 0.042480305 0.14750935
-0.038228765 0.026653081 0.15078647
-0.037567243 0.02747719 0.15078647
-0.035237908 0.030754313 0.15078647
-0.038228765 0.026761845 0.15406361
-0.037640363 0.02747719 0.15406361
-0.035284445 0.030754313 0.15406361
-0.034951642 0.031203985 0.15078647
-0.034951642 0.031303719 0.15406361
-0.038228765 0.027065709 0.15734074
-0.037910804 0.02747719 0.15734074
-0.035436809 0.030754313 0.15734074
-0.038228765 0.027191088 0.16061786
-0.038025931 0.02747719 0.16061786
-0.035671711 0.030754313 0.16061786
-0.034951642 0.031477466 0.15734074
-0.034951642 0.03177467 0.16061786
-0.032646671 0.034031451 0.15078647
-0.031674519 0.034983486 0.15078647
-0.029042959 0.037308574 0.15078647
-0.0327259 0.034031451 0.15406361
-0.031674519 0.034998372 0.15406361
-0.029008195 0.037308574 0.15406361
-0.032807708 0.034031451 0.15734074
-0.031674519 0.035081923 0.15734074
-0.029169828 0.037308574 0.15734074
-0.032936439 0.034031451 0.16061786
-0.031674519 0.035228297 0.16061786
-0.029379115 0.037308574 0.16061786
-0.028397381 0.037802473 0.15078647
-0.028397381 0.037803605 0.15406361
-0.025120258 0.040188059 0.15078647
-0.024527758 0.040585712 0.15078647
-0.021843135 0.042482063 0.15078647
-0.025120258 0.040316835 0.15406361
-0.024716929 0.040585712 0.15406361
-0.021843135 0.042502478 0.15406361
-0.028397381 0.037959546 0.15734074
-0.028397381 0.038103446 0.16061786
-0.025120258 0.040482715 0.15734074
-0.024960011 0.040585712 0.15734074
-0.021843135 0.042397723 0.15734074
-0.025120258 0.040575311 0.16061786
-0.025104076 0.040585712 0.16061786
-0.021843135 0.042405918 0.16061786
-0.018664137 0.043862835 0.13767797
-0.019118607 0.043862835 0.14095509
-0.018566012 0.043911442 0.13767797
-0.015288889 0.045497969 0.13767797
-0.018566012 0.044117704 0.14095509
-0.015288889 0.04556109 0.14095509
-0.012011752 0.047051355 0.13767797
-0.01179485 0.047139958 0.13767797
-0.0087346286 0.047973707 0.13767797
-0.012011752 0.046935603 0.14095509
-0.011416808 0.047139958 0.14095509
-0.0087346286 0.047826126 0.14095509
-0.019595206 0.043862835 0.14423223
-0.019782096 0.043862835 0.14750935
-0.018566012 0.044441745 0.14423223
-0.015288889 0.045851156 0.14423223
-0.018566012 0.044623271 0.14750935
-0.015288889 0.046052262 0.14750935
-0.012011752 0.04685016 0.14423223
-0.010940462 0.047139958 0.14423223
-0.0087346286 0.047737405 0.14423223
-0.012011752 0.046907082 0.14750935
-0.011026546 0.047139958 0.14750935
-0.0087346286 0.047781929 0.14750935
-0.0054575056 0.048330411 0.13767797
-0.0021803677 0.049121991 0.13767797
-0.0054575056 0.048347577 0.14095509
-0.0021803677 0.048795357 0.14095509
0.0010967553 0.049786523 0.13767797
0.0043738782 0.049523965 0.13767797
0.0010967553 0.049367711 0.14095509
0.0043738782 0.049637958 0.14095509
-0.0054575056 0.048514351 0.14423223
-0.0021803677 0.048712537 0.14423223
-0.0054575056 0.048704132 0.14750935
-0.0021803677 0.048799351 0.14750935
0.0010967553 0.048841611 0.14423223
0.0043738782 0.049750194 0.14423223
0.0010967553 0.048792347 0.14750935
0.0043738782 0.04987745 0.14750935
-0.019739017 0.043862835 0.15078647
-0.019602299 0.043862835 0.15406361
-0.018566012 0.044499055 0.15078647
-0.015288889 0.045882151 0.15078647
-0.018566012 0.044379666 0.15406361
-0.015288889 0.045754269 0.15406361
-0.012011752 0.046846375 0.15078647
-0.010775805 0.047139958 0.15078647
-0.0087346286 0.047710851 0.15078647
-0.012011752 0.046783224 0.15406361
-0.010686353 0.047139958 0.15406361
-0.0087346286 0.047710493 0.15406361
-0.019228876 0.043862835 0.15734074
-0.019086421 0.043862835 0.16061786
-0.018566012 0.044206724 0.15734074
-0.015288889 0.04574807 0.15734074
-0.018566012 0.044138655 0.16061786
-0.015288889 0.04580681 0.16061786
-0.012011752 0.046873674 0.15734074
-0.011022076 0.047139958 0.15734074
-0.0087346286 0.047819629 0.15734074
-0.012011752 0.047035083 0.16061786
-0.011637509 0.047139958 0.16061786
-0.0087346286 0.047991857 0.16061786
-0.0054575056 0.048727676 0.15078647
-0.0021803677 0.04931064 0.15078647
-0.0054575056 0.048722997 0.15406361
-0.0021803677 0.049569145 0.15406361
0.0010967553 0.0494719 0.15078647
0.0043738782 0.049294516 0.15078647
0.0010967553 0.049776569 0.15406361
0.0043738782 0.049298629 0.15406361
-0.0054575056 0.048800394 0.15734074
-0.0021803677 0.049507573 0.15734074
-0.0054575056 0.048879698 0.16061786
-0.0021803677 0.049365237 0.16061786
0.0010967553 0.049898371 0.15734074
0.0043738782 0.049891844 0.15734074
0.0010967553 0.049819961 0.16061786
0.0043738782 0.050147191 0.16061786
-0.047183529 0.0012601763 0.16389498
-0.046973214 0.0045372993 0.16389498
-0.047435641 0.0012601763 0.1671721
-0.046966761 0.0045372993 0.1671721
-0.045906544 0.0078144372 0.16389498
-0.045184672 0.01109156 0.16389498
-0.046086147 0.0078144372 0.1671721
-0.04534328 0.01109156 0.1671721
-0.047270238 0.0012601763 0.17044924
-0.046837121 0.0045372993 0.17044924
-0.04707998 0.0012601763 0.17372636
-0.046594888 0.0045372993 0.17372636
-0.046158791 0.0078144372 0.17044924
-0.045428604 0.01109156 0.17044924
-0.04614611 0.0078144372 0.17372636
-0.045522749 0.01109156 0.17372636
-0.044783026 0.013421446 0.16389498
-0.044586942 0.014368683 0.16389498
-0.043628827 0.017645821 0.16389498
-0.044783026 0.01381366 0.1671721
-0.044649914 0.014368683 0.1671721
-0.043681845 0.017645821 0.1671721
-0.042208463 0.020922944 0.16389498
-0.041505903 0.022276327 0.16389498
-0.042291686 0.020922944 0.1671721
-0.041505903 0.022488669 0.1671721
-0.040314987 0.024200067 0.16389498
-0.040461794 0.024200067 0.1671721
-0.044783026 0.013694823 0.17044924
-0.044582531 0.014368683 0.17044924
-0.043491334 0.017645821 0.17044924
-0.044783026 0.013849467 0.17372636
-0.044621453 0.014368683 0.17372636
-0.043480501 0.017645821 0.17372636
-0.042204127 0.020922944 0.17044924
-0.041505903 0.0224915 0.17044924
-0.042153686 0.020922944 0.17372636
-0.041505903 0.022415459 0.17372636
-0.040534407 0.024200067 0.17044924
-0.040595859 0.024200067 0.17372636
-0.047250941 0.0012601763 0.17700349
-0.046769828 0.0045372993 0.17700349
-0.047644943 0.0012601763 0.18028063
-0.047299042 0.0045372993 0.18028063
-0.046178088 0.0078144372 0.17700349
-0.045536697 0.01109156 0.17700349
-0.046384349 0.0078144372 0.18028063
-0.045531943 0.01109156 0.18028063
-0.048031315 0.0012601763 0.18355775
-0.047959536 0.0045372993 0.18355775
-0.047919631 0.0012601763 0.18683487
-0.04798688 0.0045372993 0.18683487
-0.046677142 0.0078144372 0.18355775
-0.045625463 0.01109156 0.18355775
-0.046881214 0.0078144372 0.18683487
-0.045759737 0.01109156 0.18683487
-0.044849321 0.014368683 0.17700349
-0.044783026 0.014368683 0.17633818
-0.044783026 0.014635414 0.17700349
-0.043730035 0.017645821 0.17700349
-0.045077533 0.014368683 0.18028063
-0.044783026 0.015782133 0.18028063
-0.044119731 0.017645821 0.18028063
-0.042301819 0.020922944 0.17700349
-0.041505903 0.022749692 0.17700349
-0.042563632 0.020922944 0.18028063
-0.041505903 0.023051709 0.18028063
-0.040770546 0.024200067 0.17700349
-0.040853158 0.024200067 0.18028063
-0.044926092 0.014368683 0.18355775
-0.044783026 0.014918819 0.18355775
-0.043882608 0.017645821 0.18355775
-0.044783026 0.014332503 0.18683487
-0.044783026 0.014368683 0.18541998
-0.044771433 0.014368683 0.18683487
-0.043478876 0.017645821 0.18683487
-0.042488694 0.020922944 0.18355775
-0.041505903 0.022969201 0.18355775
-0.042059585 0.020922944 0.18683487
-0.041505903 0.022323683 0.18683487
-0.040827885 0.024200067 0.18355775
-0.040671378 0.024200067 0.18683487
-0.038228765 0.027154282 0.16389498
-0.038005546 0.02747719 0.16389498
-0.035868853 0.030754313 0.16389498
-0.038228765 0.027461469 0.1671721
-0.038217738 0.02747719 0.1671721
-0.035999388 0.030754313 0.1671721
-0.034951642 0.032121927 0.16389498
-0.034951642 0.032315657 0.1671721
-0.03841117 0.02747719 0.17044924
-0.038228765 0.02747719 0.16730858
-0.038228765 0.02775 0.17044924
-0.036048517 0.030754313 0.17044924
-0.038557321 0.02747719 0.17372636
-0.038228765 0.02796644 0.17372636
-0.036128521 0.030754313 0.17372636
-0.034951642 0.032208383 0.17044924
-0.034951642 0.032224864 0.17372636
-0.033210263 0.034031451 0.16389498
-0.031674519 0.035403728 0.16389498
-0.02943781 0.037308574 0.16389498
-0.033443481 0.034031451 0.1671721
-0.031674519 0.035545751 0.1671721
-0.029370353 0.037308574 0.1671721
-0.033373073 0.034031451 0.17044924
-0.031674519 0.035624951 0.17044924
-0.029462248 0.037308574 0.17044924
-0.03338483 0.034031451 0.17372636
-0.031674519 0.035762697 0.17372636
-0.029881164 0.037308574 0.17372636
-0.028397381 0.038129658 0.16389498
-0.028397381 0.038046494 0.1671721
-0.025120258 0.040543661 0.16389498
-0.025056437 0.040585712 0.16389498
-0.021843135 0.042633668 0.16389498
-0.025120258 0.040512636 0.1671721
-0.025014684 0.040585712 0.1671721
-0.021843135 0.042766705 0.1671721
-0.028397381 0.038116172 0.17044924
-0.028397381 0.038470432 0.17372636
-0.025247857 0.040585712 0.17044924
-0.025120258 0.040585712 0.16923052
-0.025120258 0.040674672 0.17044924
-0.021843135 0.042909399 0.17044924
-0.025564253 0.040585712 0.17372636
-0.025120258 0.04087849 0.17372636
-0.021843135 0.04302083 0.17372636
-0.038644895 0.02747719 0.17700349
-0.038228765 0.028070405 0.17700349
-0.036221474 0.030754313 0.17700349
-0.038661718 0.02747719 0.18028063
-0.038228765 0.028141782 0.18028063
-0.036384255 0.030754313 0.18028063
-0.034951642 0.032322049 0.17700349
-0.034951642 0.032481641 0.18028063
-0.038728073 0.02747719 0.18355775
-0.038228765 0.028262228 0.18355775
-0.036528125 0.030754313 0.18355775
-0.038848355 0.02747719 0.18683487
-0.038228765 0.028498247 0.18683487
-0.036746293 0.030754313 0.18683487
-0.034951642 0.032768592 0.18355775
-0.034951642 0.032933131 0.18683487
-0.033458203 0.034031451 0.17700349
-0.031674519 0.035939544 0.17700349
-0.030198619 0.037308574 0.17700349
-0.033534542 0.034031451 0.18028063
-0.031674519 0.036022723 0.18028063
-0.030397773 0.037308574 0.18028063
-0.033759072 0.034031451 0.18355775
-0.031674519 0.036108404 0.18355775
-0.030487612 0.037308574 0.18355775
-0.033806875 0.034031451 0.18683487
-0.031674519 0.036039844 0.18683487
-0.030205712 0.037308574 0.18683487
-0.028397381 0.038732007 0.17700349
-0.028397381 0.038954839 0.18028063
-0.025788546 0.040585712 0.17700349
-0.025120258 0.041008428 0.17700349
-0.021843135 0.04310374 0.17700349
-0.025884852 0.040585712 0.18028063
-0.025120258 0.041032568 0.18028063
-0.021843135 0.043130741 0.18028063
-0.028397381 0.038795903 0.18355775
-0.028397381 0.038560286 0.18683487
-0.02532874 0.040585712 0.18355775
-0.025120258 0.040726677 0.18355775
-0.021843135 0.043125823 0.18355775
-0.025265679 0.040585712 0.18683487
-0.025120258 0.040694252 0.18683487
-0.021843135 0.043464974 0.18683487
-0.01957868 0.043862835 0.16389498
-0.019985706 0.043862835 0.1671721
-0.018566012 0.044352606 0.16389498
-0.015288889 0.045919642 0.16389498
-0.018566012 0.044585034 0.1671721
-0.015288889 0.046098545 0.1671721
-0.012327194 0.047139958 0.16389498
-0.012011752 0.047139958 0.16246966
-0.012011752 0.047250733 0.16389498
-0.0087346286 0.048249945 0.16389498
-0.012771055 0.047139958 0.1671721
-0.012011752 0.047442719 0.1671721
-0.0087346286 0.048392817 0.1671721
-0.020247042 0.043862835 0.17044924
-0.020406872 0.043862835 0.17372636
-0.018566012 0.04474099 0.17044924
-0.015288889 0.046296313 0.17044924
-0.018566012 0.044880942 0.17372636
-0.015288889 0.046512738 0.17372636
-0.013148963 0.047139958 0.17044924
-0.012011752 0.047552183 0.17044924
-0.0087346286 0.048627064 0.17044924
-0.013556972 0.047139958 0.17372636
-0.012011752 0.047594413 0.17372636
-0.0087346286 0.048634514 0.17372636
-0.0054575056 0.048887894 0.16389498
-0.0021803677 0.049302623 0.16389498
-0.0054575056 0.048865661 0.1671721
-0.0021803677 0.049355164 0.1671721
0.0010967553 0.049672261 0.16389498
0.0043738782 0.049824968 0.16389498
0.0010967553 0.049686924 0.1671721
0.0043738782 0.049678311 0.1671721
-0.0054575056 0.049200729 0.17044924
-0.0021803677 0.049785718 0.17044924
-0.0054575056 0.049516812 0.17372636
-0.0021803677 0.05009155 0.17372636
0.0010967553 0.050193653 0.17044924
0.0043738782 0.049908385 0.17044924
0.0010967553 0.050410435 0.17372636
0.0043738782 0.049987093 0.17372636
-0.020561814 0.043862835 0.17700349
-0.020621255 0.043862835 0.18028063
-0.018566012 0.044972435 0.17700349
-0.015288889 0.046559259 0.17700349
-0.018566012 0.044955954 0.18028063
-0.015288889 0.046497151 0.18028063
-0.01360175 0.047139958 0.17700349
-0.012011752 0.04757221 0.17700349
-0.0087346286 0.048391685 0.17700349
-0.013511702 0.047139958 0.18028063
-0.012011752 0.04758276 0.18028063
-0.0087346286 0.0484844 0.18028063
-0.020615056 0.043862835 0.18355775
-0.021263942 0.043862835 0.18683487
-0.018566012 0.044956669 0.18355775
-0.015288889 0.046489641 0.18355775
-0.018566012 0.045412496 0.18683487
-0.015288889 0.046796605 0.18683487
-0.013298929 0.047139958 0.18355775
-0.012011752 0.047522828 0.18355775
-0.0087346286 0.048522189 0.18355775
-0.014028728 0.047139958 0.18683487
-0.012011752 0.047578827 0.18683487
-0.0087346286 0.048253402 0.18683487
-0.0054575056 0.04947643 0.17700349
-0.0021803677 0.050328419 0.17700349
-0.0054575056 0.049577549 0.18028063
-0.0030403584 0.050417081 0.18028063
-0.0021803677 0.050417081 0.17766455
-0.001393348 0.050417081 0.17700349
0.0010967553 0.050417081 0.17602146
0.0019305795 0.050417081 0.17700349
0.0043738782 0.049953833 0.17700349
0.0031666458 0.050417081 0.18028063
0.0043738782 0.050191298 0.18028063
-0.0054575056 0.050000414 0.18355775
-0.00455755 0.050417081 0.18355775
-0.0054575056 0.049870536 0.18683487
-0.0043261051 0.050417081 0.18683487
0.0043738782 0.050417081 0.18204387
-0.0021803677 0.050667301 0.18028063
0.0010967553 0.050490752 0.17700349
0.0010967553 0.050834283 0.18028063
-0.0021803677 0.050974473 0.18355775
-0.0021803677 0.050787881 0.18683487
0.0010967553 0.05096294 0.18355775
0.0043738782 0.050624028 0.18355775
0.0010967553 0.051144704 0.18683487
0.0043738782 0.051185176 0.18683487
0.05217123 0.0012601763 0.016424283
0.053530782 0.00098089874 0.01970141
0.053530782 0.0012601763 0.019488599
0.053591281 0.0012601763 0.01970141
0.051843494 0.0045372993 0.016424283
0.053530782 0.0045372993 0.018913046
0.053904027 0.0045372993 0.01970141
0.054099917 0.0012601763 0.022978537
0.054853618 0.0045372993 0.022978537
0.053530782 -0.00027827919 0.026255663
0.054044664 0.0012601763 0.026255663
0.055163264 0.0045372993 0.026255663
0.054283619 0.0012601763 0.02953279
0.055176735 0.0045372993 0.02953279
0.0090383887 0.047139958 0.022978537
0.010737687 0.047139958 0.026255663
0.010928124 0.046672985 0.022978537
0.010928124 0.047037229 0.026255663
0.0043738782 0.04750298 0.022978537
0.0043738782 0.048733905 0.026255663
0.0076510012 0.047379896 0.022978537
0.0076510012 0.048273787 0.026255663
0.010928124 0.047139958 0.027228944
0.0076510012 0.048973784 0.02953279
0.010928124 0.047518536 0.02953279
0.014205262 0.045700923 0.022978537
0.014205262 0.04553552 0.026255663
0.017482385 0.044685289 0.022978537
0.017482385 0.044511154 0.026255663
0.01146841 0.047139958 0.02953279
0.014205262 0.045512781 0.02953279
0.017482385 0.044339046 0.02953279
0.029606819 0.040585712 0.016424283
0.028736204 0.040585712 0.01970141
0.030590892 0.039294079 0.016424283
0.030590892 0.039049938 0.01970141
0.025451854 0.043862835 0.016424283
0.024036646 0.043541774 0.01970141
0.027313769 0.042916581 0.016424283
0.027313769 0.041855887 0.01970141
0.024036646 0.043862835 0.018583793
0.027378276 0.040585712 0.022978537
0.030590892 0.03882511 0.022978537
0.024036646 0.042382762 0.022978537
0.027313769 0.040624216 0.022978537
0.020124555 0.043862835 0.022978537
0.019210905 0.043862835 0.026255663
0.020759508 0.043658867 0.022978537
0.020759508 0.043184623 0.026255663
0.024036646 0.041542158 0.026255663
0.018884853 0.043862835 0.02953279
0.020759508 0.043124959 0.02953279
0.024036646 0.041437432 0.02953279
0.026242629 0.040585712 0.026255663
0.027313769 0.04019095 0.026255663
0.027313769 0.040585712 0.023142472
0.030590892 0.038826451 0.026255663
0.026659057 0.040585712 0.02953279
0.027313769 0.040439382 0.02953279
0.030590892 0.039042607 0.02953279
0.035239875 0.034031451 0.016424283
0.037002251 0.034031451 0.01970141
0.037145138 0.032330826 0.016424283
0.037145138 0.033910364 0.01970141
0.032244414 0.037308574 0.016424283
0.032888725 0.037308574 0.01970141
0.033868015 0.035478711 0.016424283
0.033868015 0.036548197 0.01970141
0.037145138 0.034031451 0.020026766
0.033204272 0.037308574 0.022978537
0.033868015 0.036854833 0.022978537
0.037145138 0.034112349 0.022978537
0.039050058 0.030754313 0.016424283
0.040422276 0.031328231 0.01970141
0.040422276 0.030754313 0.018297471
0.04109706 0.030754313 0.01970141
0.037240103 0.034031451 0.022978537
0.040422276 0.031658366 0.022978537
0.041541755 0.030754313 0.022978537
0.040741876 0.030754313 0.026255663
0.043699399 0.028410181 0.022978537
0.043699399 0.027968869 0.026255663
0.040763199 0.030754313 0.02953279
0.043699399 0.028000042 0.02953279
0.036697701 0.034031451 0.026255663
0.037145138 0.033628359 0.026255663
0.037145138 0.034031451 0.023359705
0.033274189 0.037308574 0.026255663
0.033868015 0.036848381 0.026255663
0.036842987 0.034031451 0.02953279
0.037145138 0.03375034 0.02953279
0.033271715 0.037308574 0.02953279
0.033868015 0.036848858 0.02953279
0.040422276 0.031048298 0.026255663
0.040422276 0.031043902 0.02953279
0.054286003 0.0012601763 0.032809917
0.054879904 0.0045372993 0.032809917
0.053338945 0.0012601763 0.036087044
0.053530782 0.0012601763 0.035541825
0.053530782 0.0020023286 0.036087044
0.053983182 0.0045372993 0.036087044
0.055042267 0.0078144372 0.02953279
0.054507375 0.0078144372 0.032809917
0.053201944 0.01109156 0.032809917
0.053530782 0.010472968 0.032809917
0.053530782 0.01109156 0.030312192
0.053628892 0.01109156 0.02953279
0.05378744 0.0078144372 0.036087044
0.052519441 0.01109156 0.036087044
0.053530782 0.0087424964 0.036087044
0.052779466 0.0012601763 0.03936417
0.052949637 0.0045372993 0.03936417
0.053530782 0.0045372993 0.037340067
0.052962005 0.0012601763 0.042641297
0.052678674 0.0045372993 0.042641297
0.052624106 0.0078144372 0.03936417
0.053530782 0.0078144372 0.037013635
0.051585972 0.01109156 0.03936417
0.051943868 0.0078144372 0.042641297
0.0511325 0.01109156 0.042641297
0.04995212 0.017645821 0.036087044
0.049820185 0.017645821 0.03936417
0.048389703 0.020922944 0.036087044
0.047574729 0.020922944 0.03936417
0.045959949 0.024200067 0.036087044
0.045040846 0.024200067 0.03936417
0.046976537 0.02269201 0.036087044
0.046976537 0.021419391 0.03936417
0.049732655 0.017645821 0.042641297
0.047127903 0.020922944 0.042641297
0.044779867 0.024200067 0.042641297
0.046976537 0.021074384 0.042641297
0.053116173 0.0012601763 0.04591842
0.052790791 0.0045372993 0.04591842
0.053530782 0.0010862052 0.04919555
0.053530782 0.0012601763 0.049103446
0.053553224 0.0012601763 0.04919555
0.053194612 0.0045372993 0.04919555
0.053530782 0.0032356828 0.04919555
0.051932752 0.0078144372 0.04591842
0.050949752 0.01109156 0.04591842
0.051908046 0.0078144372 0.04919555
0.05080688 0.01109156 0.04919555
0.053530782 -0.0003271997 0.052472681
0.054043591 0.0012601763 0.052472681
0.053530782 0.0045372993 0.051146887
0.053648859 0.0045372993 0.052472681
0.053530782 -0.0013963282 0.055749804
0.054273725 0.0012601763 0.055749804
0.053485662 0.0045372993 0.055749804
0.053530782 0.0044540167 0.055749804
0.053530782 0.0045372993 0.055489488
0.051964581 0.0078144372 0.052472681
0.053530782 0.0047451556 0.052472681
0.050710291 0.01109156 0.052472681
0.051935583 0.0078144372 0.055749804
0.050693274 0.01109156 0.055749804
0.049478292 0.017645821 0.04591842
0.050253659 0.016475618 0.042641297
0.050253659 0.015849829 0.04591842
0.050016373 0.014368683 0.04919555
0.050253659 0.013309956 0.04919555
0.050253659 0.014368683 0.047833994
0.0489963 0.017645821 0.04919555
0.050771415 0.014368683 0.042641297
0.050504029 0.014368683 0.04591842
0.046883523 0.020922944 0.04591842
0.046976537 0.020803034 0.04591842
0.046976537 0.020922944 0.044344775
0.044882447 0.024200067 0.04591842
0.046976537 0.020922944 0.04797487
0.047172725 0.020922944 0.04919555
0.045238912 0.024200067 0.04919555
0.046976537 0.021222949 0.04919555
0.049681515 0.014368683 0.052472681
0.050253659 0.012456954 0.052472681
0.048934728 0.017645821 0.052472681
0.04972893 0.014368683 0.055749804
0.050253659 0.012469769 0.055749804
0.048945248 0.017645821 0.055749804
0.047683239 0.020922944 0.052472681
0.045663208 0.024200067 0.052472681
0.046976537 0.022086307 0.052472681
0.047575504 0.020922944 0.055749804
0.045729905 0.024200067 0.055749804
0.046976537 0.021988943 0.055749804
0.0076510012 0.049093589 0.032809917
0.010928124 0.047431007 0.032809917
0.01030615 0.047139958 0.036087044
0.010928124 0.046828195 0.036087044
0.010928124 0.047139958 0.034031153
0.0076510012 0.048412725 0.036087044
0.011317149 0.047139958 0.032809917
0.014205262 0.045675293 0.032809917
0.017482385 0.044510886 0.032809917
0.014205262 0.04577072 0.036087044
0.017482385 0.044724837 0.036087044
0.0086417347 0.047139958 0.03936417
0.010928124 0.04632239 0.03936417
0.0076510012 0.047409877 0.03936417
0.0076510012 0.047001466 0.042641297
0.0076510012 0.047139958 0.040922679
0.010928124 0.046283707 0.042641297
0.014205262 0.045411095 0.03936417
0.017482385 0.044699624 0.03936417
0.014205262 0.045423612 0.042641297
0.017482385 0.044770405 0.042641297
0.019103974 0.043862835 0.032809917
0.020759508 0.043193117 0.032809917
0.024036646 0.041763738 0.032809917
0.019740582 0.043862835 0.036087044
0.020759508 0.043450162 0.036087044
0.024036646 0.042111889 0.036087044
0.027313769 0.040585712 0.030508976
0.027965903 0.040585712 0.032809917
0.030590892 0.039192215 0.032809917
0.027313769 0.040785924 0.032809917
0.027641416 0.040585712 0.036087044
0.030590892 0.038834319 0.036087044
0.027313769 0.040743902 0.036087044
0.01997821 0.043862835 0.03936417
0.020759508 0.043517575 0.03936417
0.024036646 0.042232528 0.03936417
0.01970093 0.043862835 0.042641297
0.020759508 0.043327197 0.042641297
0.024036646 0.042180821 0.042641297
0.027078822 0.040585712 0.03936417
0.027313769 0.04041402 0.03936417
0.027313769 0.040585712 0.037713904
0.030590892 0.038456485 0.03936417
0.027313769 0.040585712 0.042165384
0.02745378 0.040585712 0.042641297
0.030590892 0.038872316 0.042641297
0.027313769 0.040671006 0.042641297
0.006533891 0.047139958 0.04591842
0.0076510012 0.047054276 0.04591842
0.010928124 0.046563432 0.04591842
0.0067341626 0.047139958 0.04919555
0.0076510012 0.047007933 0.04919555
0.010928124 0.046665028 0.04919555
0.014205262 0.045860931 0.04591842
0.017482385 0.044875428 0.04591842
0.014205262 0.046058401 0.04919555
0.017482385 0.045050278 0.04919555
0.0061992556 0.047139958 0.052472681
0.0076510012 0.046842828 0.052472681
0.010928124 0.046566293 0.052472681
0.0071209818 0.047139958 0.055749804
0.0076510012 0.047032282 0.055749804
0.010928124 0.046544388 0.055749804
0.014205262 0.04627116 0.052472681
0.017482385 0.045379892 0.052472681
0.014205262 0.046201721 0.055749804
0.017482385 0.045481041 0.055749804
0.019836098 0.043862835 0.04591842
0.020759508 0.043486938 0.04591842
0.024036646 0.042400613 0.04591842
0.020759508 0.043862835 0.048487395
0.021126166 0.043862835 0.04919555
0.024036646 0.042779431 0.04919555
0.028490335 0.040585712 0.04591842
0.030590892 0.039345041 0.04591842
0.027313769 0.04116939 0.04591842
0.028753012 0.040585712 0.04919555
0.030590892 0.039469585 0.04919555
0.027313769 0.041349813 0.04919555
0.020759508 0.043990746 0.04919555
0.022072375 0.043862835 0.052472681
0.024036646 0.043038592 0.052472681
0.022266313 0.043862835 0.055749804
0.024036646 0.043085113 0.055749804
0.028790593 0.040585712 0.052472681
0.030590892 0.039470479 0.052472681
0.027313769 0.041410133 0.052472681
0.028899819 0.040585712 0.055749804
0.030590892 0.039473578 0.055749804
0.027313769 0.041499153 0.055749804
0.020759508 0.044344857 0.052472681
0.020759508 0.044438854 0.055749804
0.040665224 0.030754313 0.032809917
0.043699399 0.027862385 0.032809917
0.043365046 0.02747719 0.036087044
0.043699399 0.027124316 0.036087044
0.043699399 0.02747719 0.034413438
0.040356919 0.030754313 0.036087044
0.040422276 0.030658767 0.036087044
0.040422276 0.030754313 0.034139045
0.037145138 0.034031451 0.031796392
0.033507586 0.037308574 0.032809917
0.033868015 0.037064046 0.032809917
0.037145138 0.034142151 0.032809917
0.033460274 0.037308574 0.036087044
0.033868015 0.037082195 0.036087044
0.037145138 0.034357131 0.036087044
0.037262633 0.034031451 0.032809917
0.040422276 0.030978918 0.032809917
0.037493706 0.034031451 0.036087044
0.043094113 0.02747719 0.03936417
0.043699399 0.026586726 0.03936417
0.040245131 0.030754313 0.03936417
0.040422276 0.030529976 0.03936417
0.042936504 0.02747719 0.042641297
0.043699399 0.026191741 0.042641297
0.040141419 0.030754313 0.042641297
0.040422276 0.030436039 0.042641297
0.033105642 0.037308574 0.03936417
0.033868015 0.036925212 0.03936417
0.037145138 0.034439564 0.03936417
0.033433005 0.037308574 0.042641297
0.033868015 0.037055969 0.042641297
0.037145138 0.0345833 0.042641297
0.037559763 0.034031451 0.03936417
0.037667379 0.034031451 0.042641297
0.046566963 0.024200067 0.02953279
0.046658993 0.024200067 0.032809917
0.04417792 0.02747719 0.02953279
0.04402791 0.02747719 0.032809917
0.043036833 0.02747719 0.04591842
0.043699399 0.026387483 0.04591842
0.040422276 0.030754313 0.045522794
0.040480778 0.030754313 0.04591842
0.043309629 0.02747719 0.04919555
0.043699399 0.026865631 0.04919555
0.040886849 0.030754313 0.04919555
0.033650503 0.037308574 0.04591842
0.033868015 0.037167802 0.04591842
0.037145138 0.034707293 0.04591842
0.03373906 0.037308574 0.04919555
0.033868015 0.037215844 0.04919555
0.037145138 0.034667432 0.04919555
0.037864372 0.034031451 0.04591842
0.040422276 0.030828148 0.04591842
0.03789337 0.034031451 0.04919555
0.040422276 0.031341985 0.04919555
0.043552831 0.02747719 0.052472681
0.043699399 0.02725412 0.052472681
0.041056007 0.030754313 0.052472681
0.043697417 0.02747719 0.055749804
0.043699399 0.027474076 0.055749804
0.041120514 0.030754313 0.055749804
0.03359516 0.037308574 0.052472681
0.033868015 0.037114561 0.052472681
0.037145138 0.034554154 0.052472681
0.033331692 0.037308574 0.055749804
0.033868015 0.036870927 0.055749804
0.037145138 0.034364134 0.055749804
0.037743405 0.034031451 0.052472681
0.040422276 0.031469464 0.052472681
0.037582412 0.034031451 0.055749804
0.040422276 0.031518444 0.055749804
0.054666907 0.0012601763 0.059026927
0.053530782 0.0045372993 0.057894439
0.053853035 0.0045372993 0.059026927
0.054583371 0.0012601763 0.062304057
0.054828674 0.0045372993 0.062304057
0.052340686 0.0078144372 0.059026927
0.053530782 0.0051016062 0.059026927
0.051170677 0.01109156 0.059026927
0.052789599 0.0078144372 0.062304057
0.053530782 0.0067280531 0.062304057
0.051497161 0.01109156 0.062304057
0.053530782 -0.00045731664 0.065581188
0.054247022 0.0012601763 0.065581188
0.054256707 0.0045372993 0.065581188
0.053530782 -0.0017597526 0.068858311
0.053943634 0.0012601763 0.068858311
0.053274989 0.0045372993 0.068858311
0.053530782 0.0036747903 0.068858311
0.053530782 0.0045372993 0.067651831
0.052339703 0.0078144372 0.065581188
0.053530782 0.0058731586 0.065581188
0.051252276 0.01109156 0.065581188
0.052433789 0.0078144372 0.068858311
0.051443398 0.01109156 0.068858311
0.04996559 0.014368683 0.059026927
0.050253659 0.013532653 0.059026927
0.048811942 0.017645821 0.059026927
0.050253659 0.014368683 0.061902523
0.048870444 0.017645821 0.062304057
0.050253659 0.014451966 0.062304057
0.050287634 0.014368683 0.062304057
0.047297269 0.020922944 0.059026927
0.045608103 0.024200067 0.059026927
0.046976537 0.021581426 0.059026927
0.047287583 0.020922944 0.062304057
0.045617789 0.024200067 0.062304057
0.046976537 0.021565706 0.062304057
0.049150556 0.017645821 0.065581188
0.050253659 0.014636666 0.065581188
0.050173521 0.014368683 0.068858311
0.050253659 0.014165446 0.068858311
0.050253659 0.014368683 0.067521073
0.049229741 0.017645821 0.068858311
0.050346524 0.014368683 0.065581188
0.047569454 0.020922944 0.065581188
0.045814097 0.024200067 0.065581188
0.046976537 0.022039577 0.065581188
0.047812343 0.020922944 0.068858311
0.045919299 0.024200067 0.068858311
0.046976537 0.022360861 0.068858311
0.053604275 0.0012601763 0.072135434
0.053268969 0.0045372993 0.072135434
0.053530782 0.0019670278 0.072135434
0.053352624 0.0012601763 0.075412564
0.053530782 -0.00012777746 0.075412564
0.053530782 0.0012601763 0.073563658
0.053224385 0.0045372993 0.075412564
0.052767813 0.0078144372 0.072135434
0.051750213 0.01109156 0.072135434
0.052886695 0.0078144372 0.075412564
0.051613271 0.01109156 0.075412564
0.05320999 0.0012601763 0.078689694
0.053530782 -0.00026556849 0.078689694
0.052982569 0.0045372993 0.078689694
0.053530782 0.0012601763 0.081506409
0.053622961 0.0012601763 0.081966817
0.053457171 0.0045372993 0.081966817
0.053530782 0.002151221 0.081966817
0.052800894 0.0078144372 0.078689694
0.051565796 0.01109156 0.078689694
0.052959293 0.0078144372 0.081966817
0.051923901 0.01109156 0.081966817
0.050156325 0.014368683 0.072135434
0.050253659 0.014177993 0.072135434
0.048960626 0.017645821 0.072135434
0.050197214 0.014368683 0.075412564
0.050253659 0.014195725 0.075412564
0.049008697 0.017645821 0.075412564
0.047695696 0.020922944 0.072135434
0.046019107 0.024200067 0.072135434
0.046976537 0.022417143 0.072135434
0.047753543 0.020922944 0.075412564
0.046216488 0.024200067 0.075412564
0.046976537 0.022788405 0.075412564
0.050253659 0.014368683 0.076956168
0.04943344 0.017645821 0.078689694
0.050253659 0.01538159 0.078689694
0.049569547 0.017645821 0.081966817
0.050253659 0.016156033 0.081966817
0.050477087 0.014368683 0.078689694
0.050924838 0.014368683 0.081966817
0.047902942 0.020922944 0.078689694
0.046197087 0.024200067 0.078689694
0.046976537 0.022768721 0.078689694
0.047737569 0.020922944 0.081966817
0.046007127 0.024200067 0.081966817
0.046976537 0.022257626 0.081966817
0.0076510012 0.047139958 0.056636095
0.0083315521 0.047139958 0.059026927
0.010928124 0.046622738 0.059026927
0.0076510012 0.04732196 0.059026927
0.0093420297 0.047139958 0.062304057
0.010928124 0.046882316 0.062304057
0.0076510012 0.047505602 0.062304057
0.014205262 0.04612799 0.059026927
0.017482385 0.045501903 0.059026927
0.014205262 0.046421871 0.062304057
0.017482385 0.045644805 0.062304057
0.010928124 0.047139958 0.064237185
0.0076510012 0.04740952 0.065581188
0.010928124 0.047187164 0.065581188
0.0048560798 0.047139958 0.068858311
0.0076510012 0.047390655 0.068858311
0.010928124 0.047226861 0.068858311
0.011266634 0.047139958 0.065581188
0.014205262 0.046617344 0.065581188
0.017482385 0.045702979 0.065581188
0.011501208 0.047139958 0.068858311
0.014205262 0.046675608 0.068858311
0.017482385 0.045791671 0.068858311
0.022062749 0.043862835 0.059026927
0.024036646 0.042779371 0.059026927
0.021963 0.043862835 0.062304057
0.024036646 0.042758778 0.062304057
0.028547183 0.040585712 0.059026927
0.030590892 0.039295807 0.059026927
0.027313769 0.041170314 0.059026927
0.028914928 0.040585712 0.062304057
0.030590892 0.039643511 0.062304057
0.027313769 0.041223153 0.062304057
0.020759508 0.044444099 0.059026927
0.020759508 0.044393227 0.062304057
0.022215053 0.043862835 0.065581188
0.024036646 0.043147042 0.065581188
0.022534683 0.043862835 0.068858311
0.024036646 0.043345973 0.068858311
0.029778391 0.040585712 0.065581188
0.030590892 0.040133759 0.065581188
0.027313769 0.04172115 0.065581188
0.02994521 0.040585712 0.068858311
0.030590892 0.040237084 0.068858311
0.027313769 0.041909054 0.068858311
0.020759508 0.044449344 0.065581188
0.020759508 0.044550106 0.068858311
0.0076510012 0.047871664 0.072135434
0.010928124 0.047442958 0.072135434
0.0076510012 0.048049882 0.075412564
0.010928124 0.047617987 0.075412564
0.012460783 0.047139958 0.072135434
0.014205262 0.046831951 0.072135434
0.017482385 0.046002105 0.072135434
