# .PCD v0.7 - Point Cloud Data file format
VERSION 0.7
FIELDS x y z
SIZE 4 4 4
TYPE F F F
COUNT 1 1 1
WIDTH 871
HEIGHT 1
VIEWPOINT 0 0 0 1 0 0 0
POINTS 871
DATA ascii
0.033701308 0.053711161 0.82476681
0.037532941 0.053691626 0.82446676
0.0098605491 0.058320906 0.82486671
0.013151868 0.05786128 0.82456207
0.017539553 0.057302069 0.82426077
0.021840246 0.057501268 0.82411355
0.027874792 0.057430375 0.82466686
0.033035018 0.057274643 0.82386076
0.037490856 0.057460871 0.82352781
0.041125674 0.057276595 0.8245557
0.034474745 0.061389748 0.82486689
0.034678139 0.049404215 0.82973349
0.037745584 0.04936849 0.82913369
0.042386081 0.049369812 0.82915586
-0.0055490825 0.053197198 0.82871437
-0.0028444703 0.053591102 0.82884187
0.0021792471 0.053981084 0.82891148
0.0080983881 0.053425055 0.82826668
0.01317108 0.052538835 0.82746667
0.017600035 0.052323557 0.82711107
0.022225663 0.052317072 0.82701486
0.027420141 0.052471295 0.82723641
0.032456335 0.051762432 0.82735837
0.037600756 0.051483285 0.82595557
0.042253334 0.052288927 0.82654804
0.046236157 0.052435886 0.8288669
-0.0059294626 0.057382423 0.82793605
-0.0024555081 0.057005577 0.82805449
0.0023281493 0.05724268 0.82703322
0.0074099516 0.057592455 0.82616431
0.012636515 0.057125162 0.82533342
0.017558159 0.059874672 0.82513344
0.023711771 0.057567477 0.8250668
0.027309921 0.057670373 0.82531118
0.031408124 0.059874672 0.82513344
0.042434372 0.057463251 0.82631665
0.045835778 0.056659557 0.82861686
-0.0055480599 0.061665606 0.82856154
-0.0024580543 0.062239494 0.82874417
0.0020352418 0.062573656 0.82759398
0.0075744116 0.063108049 0.82726103
0.012977346 0.063120633 0.82742226
0.017602541 0.063105054 0.82722217
0.022222415 0.063080013 0.82690346
0.02762088 0.06308201 0.82693315
0.032806616 0.063238092 0.82645822
0.037615221 0.063031383 0.82625926
0.042485714 0.062860638 0.82806671
0.002566956 0.06673751 0.82935029
0.0075919959 0.067106344 0.82914197
0.013007878 0.067124717 0.82936686
0.017862594 0.067430012 0.8290574
0.02227816 0.06786485 0.82898545
0.027225962 0.067711368 0.82899362
0.032516103 0.067960441 0.82843661
0.037685364 0.067769349 0.82780737
0.041608322 0.067100145 0.82906699
0.023830561 0.070967056 0.82920033
0.025907813 0.071523428 0.82968903
0.032183357 0.072205886 0.82925355
0.037745751 0.071347125 0.82913363
0.013854774 0.04964634 0.83380002
0.017725762 0.049598709 0.83300012
0.022692766 0.048967451 0.8328265
0.027033091 0.04879814 0.83257776
0.032136425 0.048688915 0.83260006
0.038224153 0.047417421 0.83281314
0.042546898 0.047234204 0.83231115
0.047236346 0.048040435 0.83288145
0.052230604 0.0482179 0.83326662
0.056062896 0.048579637 0.83323908
-0.0016917358 0.051864799 0.83208466
0.0021878032 0.051870987 0.83218879
0.0071014948 0.051607218 0.83208877
0.011474479 0.050984524 0.83033341
0.048672978 0.052564304 0.83088881
0.052208684 0.052537464 0.83290672
0.056276195 0.052792273 0.83448321
0.04809504 0.057559878 0.83160001
0.051768433 0.056999106 0.83439034
0.055142973 0.056707487 0.83499974
-0.0024617708 0.064859696 0.83000016
0.047065869 0.062273145 0.83257329
-0.0055777798 0.065869831 0.83300006
-0.0022752029 0.067940578 0.83225948
0.0018751301 0.068990648 0.83139992
0.007609128 0.06957531 0.83099991
0.013035835 0.069588333 0.83115548
0.016900524 0.069544606 0.83063322
0.043095082 0.068639427 0.83089334
0.046368111 0.067347363 0.83402652
-0.0019557418 0.072707385 0.83441895
0.0021910304 0.072894573 0.83359259
0.0076280981 0.072845638 0.83303338
0.013064129 0.072839096 0.83296311
0.017700916 0.072744317 0.83187401
0.022130005 0.072833478 0.83069164
0.027477084 0.073124558 0.8303445
0.033172239 0.074191943 0.83076656
0.037860762 0.073653422 0.83165342
0.042582456 0.072841413 0.83297771
0.0021952558 0.076123245 0.83499974
0.0076451572 0.076118693 0.83494973
0.013087061 0.076074623 0.83446652
0.018055331 0.076641247 0.8338666
0.022592831 0.0773426 0.83347493
0.026853379 0.07730113 0.83302486
0.032180727 0.077198431 0.83317316
0.037586365 0.076435596 0.83416665
0.041902628 0.076117165 0.8349331
0.047598507 0.043727078 0.83926678
0.055385102 0.043695804 0.83866662
0.0037690185 0.049936123 0.8386668
0.0072056325 0.049284086 0.83819997
0.012358895 0.048321672 0.83774996
0.018202797 0.047892563 0.8370499
0.022099385 0.047102042 0.8368333
0.027195284 0.045975521 0.83758897
0.032124434 0.046210129 0.83713341
0.037207123 0.045526423 0.83792001
0.042776275 0.045155149 0.83679992
0.04745695 0.045153946 0.83677769
0.052168626 0.045179535 0.83725184
0.055204988 0.045885704 0.83593905
-0.00092454505 0.05000063 0.83974999
0.057295948 0.053932112 0.83611107
0.052815404 0.059046786 0.83513308
0.05758553 0.05759025 0.83654147
-0.0071484577 0.063697159 0.83500004
0.052113269 0.062245507 0.83635539
0.056918792 0.062383685 0.83820784
-0.005597868 0.068438813 0.83600003
-0.0040338864 0.069910206 0.83500004
0.048347529 0.067814797 0.83597314
0.052232847 0.067066528 0.838274
0.057001192 0.066221036 0.83942538
-0.0059149815 0.072234608 0.83673334
-0.0035168652 0.073576234 0.83547229
0.047629815 0.072884157 0.83703995
0.050735023 0.071056962 0.83936679
-0.0056023318 0.077053681 0.8366667
-0.0024824322 0.077849552 0.8368504
0.0021994654 0.078619309 0.83676654
0.0076575368 0.078574032 0.83628333
0.013111778 0.078550525 0.83603317
0.017397955 0.078928381 0.83591652
0.020889344 0.079255097 0.83526647
0.028671404 0.079236135 0.83506638
0.034137666 0.079270914 0.83543313
0.038388297 0.0787393 0.83638656
0.042997915 0.078286782 0.83677131
0.047015116 0.077450961 0.83815557
-0.0061398563 0.083256446 0.83904761
-0.0024886301 0.081954606 0.83903861
0.0024266678 0.082213566 0.83826673
0.006893598 0.082651824 0.83818519
0.012359828 0.082622968 0.8378945
0.017822318 0.082589954 0.83756298
0.022489779 0.082520194 0.83685917
0.02719236 0.082580544 0.8374666
0.032446545 0.082442001 0.83749694
0.037813831 0.082738578 0.83749342
0.042421702 0.082468584 0.83859056
0.014738943 0.085940801 0.83986652
0.018642757 0.08588624 0.83933342
0.022541327 0.085829407 0.83877796
0.027240925 0.085847586 0.8389557
0.031946804 0.085881703 0.83928901
0.036902349 0.086400189 0.83926678
0.027356753 0.043899585 0.84257793
0.032084007 0.043915797 0.84288913
0.0375822 0.043388411 0.84282225
0.042609423 0.04299004 0.84233344
0.047570664 0.042338651 0.84274852
0.052685451 0.042516295 0.84238935
0.055721592 0.041606229 0.84376198
-0.00092898891 0.047885671 0.84378624
0.0024401199 0.047493566 0.84280765
0.0066991677 0.046546061 0.84187615
0.011912125 0.046004292 0.84287781
0.017612692 0.046085425 0.84245318
0.022616938 0.045415368 0.84162229
0.033553917 0.045345817 0.84033316
-0.0025003289 0.050194152 0.84300005
0.0014256752 0.050041314 0.84043318
0.057130221 0.068483144 0.84131914
0.052828632 0.072170839 0.8406477
0.05724211 0.072145484 0.84295839
0.04875204 0.079292454 0.84115553
0.0524888 0.076796412 0.84237039
0.056339752 0.076592661 0.8435868
-0.0056246519 0.082829319 0.84000009
-0.0024928497 0.08445587 0.84063673
0.0014260034 0.084462218 0.84069979
0.044556335 0.083704248 0.84093332
0.047792222 0.083092973 0.84265929
0.051835179 0.081705905 0.84453326
0.055801872 0.082796298 0.84497768
-0.0061665252 0.086754441 0.84270543
-0.0025012447 0.08787217 0.84339255
0.002213819 0.087773107 0.84244448
0.0069256132 0.087739013 0.8421185
0.012200901 0.087825529 0.84158176
0.017676452 0.088094823 0.8412475
0.022596097 0.088383846 0.84081095
0.02730385 0.088393301 0.84089988
0.032023218 0.088435382 0.84129995
0.038022533 0.088659585 0.84095526
0.042887956 0.087613791 0.84280008
0.047108099 0.086414903 0.84449983
-0.0017182933 0.091181673 0.84499991
0.0027451757 0.092185177 0.84458882
0.0069424943 0.091880001 0.84418893
0.012452348 0.092660166 0.84413892
0.017952647 0.092610061 0.84368157
0.02265992 0.092556953 0.84320015
0.027365195 0.092512488 0.8428002
0.032084126 0.092522874 0.84289652
0.037580922 0.09250883 0.84276694
0.042206254 0.092341736 0.84410667
0.013253094 0.09589722 0.84499991
0.0284566 0.096317746 0.84408885
0.032340959 0.097212002 0.84446651
0.037175864 0.097230829 0.84428662
0.041616652 0.095889658 0.84493321
0.033740267 0.10061287 0.84499991
0.036891017 0.10123843 0.84497321
0.054479834 0.034755643 0.84893352
0.055852018 0.03462477 0.84573704
0.04416088 0.03946837 0.84840012
0.048080444 0.039438393 0.84775567
0.052995421 0.038039148 0.84735841
0.056475632 0.037450947 0.84562337
-0.00093522284 0.044257533 0.8494485
0.00254635 0.043561123 0.84821337
0.0069611911 0.043315645 0.84649992
0.012495267 0.04333932 0.84695846
0.018040434 0.043539934 0.84780025
0.02278416 0.043382812 0.84782237
0.027527956 0.042596817 0.84784466
0.032657523 0.042187855 0.84756684
0.036595028 0.041383192 0.84723347
0.042479333 0.040953018 0.84646666
0.049526963 0.040904641 0.84546649
0.051079597 0.040885288 0.84506661
0.057379294 0.040882058 0.84500003
-0.0027767215 0.047298048 0.84732866
0.0014343333 0.045624644 0.84549987
0.058641065 0.077534422 0.84615159
0.053314339 0.083059654 0.84552002
0.057464201 0.082185626 0.84623986
-0.0067127259 0.089138888 0.84549999
0.044775333 0.08961691 0.84506661
0.048199806 0.08858031 0.84588581
0.052952807 0.087963656 0.84730023
0.057675697 0.087462425 0.84702837
-0.0072548678 0.093013905 0.8473655
-0.0027350218 0.093333468 0.84618098
0.0011710996 0.093821228 0.84517765
0.0069502653 0.094337784 0.84511095
0.044409551 0.093212731 0.84560001
0.048079919 0.093054324 0.84773362
0.053470153 0.092212111 0.84966677
0.057845213 0.092397779 0.84895623
-0.0063154497 0.097565025 0.84856701
-0.002515048 0.097023763 0.84796852
0.0024531037 0.097279713 0.84724778
0.0069668898 0.097718291 0.84714079
0.012417206 0.097801402 0.84662431
0.018025849 0.09771388 0.84710377
0.022758344 0.097685307 0.84685928
0.026951263 0.098139726 0.84625554
0.030595629 0.099064432 0.84519982
0.042567134 0.097977966 0.84637779
0.045813344 0.097220778 0.84970009
0.05923431 0.096351191 0.84899998
0.0038175543 0.10114466 0.84946692
0.0073800678 0.10151 0.849217
0.011996313 0.10161576 0.84900028
0.018070599 0.10151015 0.849217
0.023141045 0.10175774 0.84930694
0.027559374 0.1021926 0.84879076
0.032042772 0.10262694 0.84701675
0.036951192 0.10352933 0.84635013
0.042320717 0.10234663 0.84751529
0.033114675 0.10584784 0.84916693
0.037698094 0.10676868 0.84894693
0.040777568 0.10639545 0.84933347
0.052573103 0.034362745 0.85225314
0.0086255064 0.039772294 0.85493344
0.013394532 0.039729398 0.85401124
0.018176503 0.039738189 0.85420007
0.02295348 0.039734051 0.85411119
0.027729519 0.039729912 0.85402232
0.032504234 0.03972578 0.85393333
0.037207823 0.039250012 0.85224998
0.041688606 0.03872171 0.85284674
0.047545705 0.03753693 0.85235548
0.050729707 0.036485333 0.85244995
-0.0061059706 0.043233 0.85262501
-0.0025298018 0.04285454 0.85300171
0.0018443671 0.041649196 0.85267496
0.0069994889 0.041180409 0.85116673
0.012554112 0.04117275 0.8510083
0.018108886 0.041568473 0.85101664
0.022877058 0.041185249 0.85126656
0.027617289 0.041151922 0.85057765
0.031572871 0.041138485 0.85029995
-0.0065097343 0.04604283 0.85325003
-0.0041100676 0.045908965 0.85076916
0.052992292 0.093353808 0.85046661
0.056948654 0.094920754 0.85033333
-0.0072854338 0.099744231 0.85100001
-0.0025236413 0.09974321 0.85099119
0.0014430054 0.099705175 0.85066658
0.047986533 0.097924963 0.85169995
0.052607991 0.097137995 0.85281485
0.057842407 0.098256446 0.85181636
-0.0056938441 0.10203908 0.85033333
-0.0025290654 0.10313155 0.8528204
0.0020397718 0.10318509 0.85162497
0.0066792541 0.10382786 0.85073328
0.013080026 0.10394547 0.85083324
0.018105591 0.10384397 0.85086662
0.022466838 0.1040691 0.8507666
0.027611595 0.10441965 0.85040003
0.04723832 0.10268991 0.85292858
0.052767228 0.10102252 0.85415727
0.057750821 0.10211775 0.85382366
-0.0057150484 0.10956329 0.85350001
-0.0030644592 0.10755435 0.85435444
0.002472685 0.10759236 0.85405719
0.0070193615 0.10798343 0.85355556
0.012583345 0.10791358 0.85299999
0.01812429 0.1077573 0.85176659
0.022875162 0.1076851 0.85119987
0.027655145 0.10775262 0.85172582
0.032179009 0.10815655 0.85134751
0.036337737 0.10838316 0.85046661
0.042436 0.10816383 0.85081655
0.046000108 0.10793182 0.85315007
0.0038406244 0.11129424 0.85460019
0.0070253299 0.11125371 0.85428905
0.012602009 0.11204997 0.85430014
0.018369496 0.11259487 0.85391259
0.022743113 0.11256433 0.85367918
0.027733445 0.11202875 0.85413891
0.032115567 0.11163861 0.85419166
0.037571616 0.11175789 0.85328007
0.041719195 0.11178245 0.85346669
0.045285754 0.11130727 0.85470027
0.043959264 0.033606328 0.8599335
0.047112182 0.032767761 0.85893327
0.050747488 0.032967757 0.85722679
-0.0025462529 0.038566213 0.85845548
0.002252361 0.039876781 0.85717946
0.007050734 0.039335269 0.85700017
0.011847136 0.038283911 0.85725343
0.017433278 0.037470341 0.85686678
0.022801274 0.037131529 0.85695249
0.027823254 0.037471402 0.85690016
0.032609124 0.037462324 0.85668898
0.037410144 0.037310682 0.85686666
0.042669665 0.036331158 0.85818326
0.046597637 0.03547699 0.85683352
0.05012054 0.035028577 0.85560018
-0.0041322638 0.04138346 0.85536361
0.052022617 0.10280444 0.85538691
-0.0057317885 0.10829189 0.85600007
-0.0022709887 0.10848669 0.85544133
0.0014518389 0.10985857 0.85580039
0.048553266 0.1075093 0.85610145
0.051867738 0.10696193 0.85809624
0.056363564 0.10603336 0.85833347
-0.00574518 0.11253503 0.85800004
-0.0025407386 0.11239547 0.85693008
0.0020529977 0.11340459 0.85702509
0.0070427838 0.1139202 0.85641128
0.011829783 0.11466715 0.85604477
0.015804738 0.11454956 0.85516679
0.024573958 0.11453618 0.85506696
0.027795462 0.11466715 0.85604477
0.032904275 0.11403197 0.85605353
0.036957189 0.11421447 0.85563362
0.042542234 0.1142119 0.85561693
0.046991702 0.11316456 0.85672385
0.050864488 0.11082504 0.85917789
-0.00094610616 0.1151077 0.85933334
0.0026586186 0.11708321 0.85916674
0.0070590875 0.11737993 0.85841107
0.01185848 0.11794174 0.85813338
0.01743827 0.11799739 0.85708898
0.02302194 0.11793575 0.85664463
0.02784887 0.11808041 0.85769629
0.03266063 0.11812621 0.85802972
0.037415802 0.11798547 0.85700756
0.04225152 0.11809573 0.85780746
0.046876762 0.11732025 0.85880959
0.023401057 0.12207159 0.85883999
0.027907869 0.12232665 0.8595112
0.032726653 0.12236293 0.85976678
0.037723958 0.12291995 0.85946679
0.041380458 0.12282853 0.85966682
0.033615235 0.028876647 0.86200005
0.036026694 0.028876647 0.86200005
-0.00095098477 0.03375607 0.86376476
0.017564738 0.033203539 0.86333895
0.022241104 0.033105746 0.86358678
0.028002406 0.03370361 0.86242229
0.033080336 0.032580398 0.86304301
0.037613116 0.032065399 0.86152589
0.042175308 0.031821974 0.86035097
0.045566574 0.030409412 0.86000001
-0.0021518983 0.036461852 0.86129522
0.0022651958 0.037674062 0.86152869
0.0067692227 0.037541054 0.86216009
0.011594992 0.035947625 0.86240005
0.017510036 0.035235316 0.86065018
0.023926688 0.035227813 0.86046684
0.027941247 0.035230543 0.86053342
0.032747727 0.035222355 0.86033338
0.037547018 0.035208706 0.86000019
0.041556798 0.035208706 0.86000019
-0.0057585724 0.040008008 0.86000001
0.056877222 0.10842276 0.86125571
0.0601134 0.10659772 0.86160004
-0.007379605 0.11386141 0.86200005
0.052558113 0.11261829 0.86066675
0.056030434 0.11207422 0.86305344
-0.0057719643 0.1154649 0.86200005
-0.0022916661 0.11766162 0.86242771
0.0022609986 0.11893284 0.86002237
0.0070727132 0.1199963 0.86000019
0.011884449 0.1199963 0.86000019
0.048793305 0.11844242 0.86033338
0.051920056 0.11690631 0.86227918
0.055465993 0.11577303 0.86430013
-0.0023579018 0.12217039 0.86265171
0.0020632865 0.1219634 0.861175
0.0070824088 0.12256584 0.86118889
0.011902462 0.12258315 0.86131114
0.017502667 0.12243295 0.86025846
0.022720033 0.12444647 0.86035013
0.027942399 0.12487947 0.86057806
0.032738715 0.12384931 0.86009347
0.035943106 0.12479562 0.86000019
0.043601535 0.12370855 0.86078328
0.047447767 0.12199248 0.86138332
0.051140379 0.12106887 0.86384463
-0.0009504605 0.12687896 0.86328864
0.0022702194 0.12671982 0.86356753
0.0070998818 0.12688173 0.86330009
0.011930947 0.12689108 0.86336309
0.017542364 0.12671991 0.86220556
0.023154981 0.12823805 0.86162966
0.027969658 0.12820643 0.86141491
0.032778863 0.12816723 0.86114818
0.037598073 0.12817062 0.86117035
0.042222779 0.12781832 0.86188573
0.046830669 0.12638822 0.86358905
-0.0017559249 0.13214308 0.86359584
0.018373707 0.13012058 0.86348909
0.022396481 0.13171208 0.86339176
0.028015599 0.13162522 0.86282229
0.032851502 0.13165911 0.86304468
0.037709299 0.1317625 0.86372232
0.042564746 0.13102777 0.8641752
-0.00095124386 0.13501927 0.86400002
0.0071510635 0.029129386 0.86954433
0.024987798 0.02912678 0.86946672
0.028202297 0.029098118 0.86861104
0.031363651 0.029024607 0.86641669
0.0024862513 0.03252339 0.86840004
0.0071466989 0.03234528 0.86902964
0.0119844 0.032279823 0.86729217
0.016429525 0.031061327 0.86705846
0.023051338 0.031222904 0.86780554
0.028153002 0.031465884 0.867091
0.032155398 0.030621301 0.86599231
0.0022777624 0.035451654 0.86593419
0.0071300757 0.035497561 0.86705565
0.058780383 0.10951062 0.86563331
0.060584843 0.10985519 0.86835718
0.057130747 0.11427088 0.86510009
-0.0041929069 0.11706522 0.8679167
0.053978689 0.11926385 0.86630023
0.05664311 0.11813988 0.86750668
-0.0041837683 0.12325321 0.86602503
0.052918624 0.123061 0.86656123
0.056546524 0.12279987 0.86851114
-0.0032162115 0.12763378 0.86623335
0.0022741272 0.12873924 0.86500019
0.048586782 0.12837948 0.866189
0.052500956 0.1276553 0.86856663
0.05660646 0.12616444 0.86943322
-0.0017599401 0.13122329 0.86546439
0.0022802784 0.13231529 0.86733758
0.0071362201 0.13236964 0.86769265
0.011993455 0.13240469 0.86792219
0.016594406 0.13266997 0.86664295
0.022482347 0.13382773 0.86669177
0.028152527 0.13388221 0.86704451
0.033005875 0.13389249 0.86711121
0.037861332 0.13390623 0.86720008
0.043109592 0.13347898 0.86704177
0.047620092 0.13244377 0.86818147
0.051472068 0.1315574 0.86944437
0.0026909548 0.13625984 0.86935008
0.0074736057 0.13649359 0.86929321
0.012417129 0.13623637 0.86919993
0.016873689 0.13663171 0.86914438
0.022851676 0.13700393 0.86842662
0.028200589 0.1373429 0.8685258
0.033071164 0.13738944 0.8688221
0.037929852 0.13738121 0.8687703
0.042789031 0.13737538 0.86873323
0.047214799 0.13722539 0.86924756
0.023378778 0.14080121 0.86993349
0.028239585 0.14076886 0.86973345
0.032294624 0.14076886 0.86973345
0.037964232 0.14138807 0.86956006
0.042491671 0.14134251 0.86927998
0.022579661 0.029158045 0.87040019
0.025832973 0.027546313 0.87063348
0.05911991 0.11257292 0.87063348
0.059108585 0.11740828 0.87046671
0.061399054 0.11764816 0.87224859
0.059098016 0.1230539 0.87031108
0.061720069 0.12273242 0.8713159
0.057762716 0.12849663 0.87114286
0.061674088 0.12739357 0.87230933
-0.0042078025 0.1312525 0.87100005
0.053198587 0.13343717 0.87115568
0.05763939 0.13233353 0.87278336
0.060970798 0.13006222 0.87388903
0.0019658494 0.13877943 0.87146121
0.0067563299 0.13893017 0.87088358
0.0117093 0.13867815 0.8708269
0.016904512 0.139311 0.8707335
0.020951413 0.13922569 0.87020016
0.049375571 0.13848023 0.8706001
0.052517794 0.13772056 0.87220001
0.056144111 0.13509002 0.87486666
0.0022968154 0.14183399 0.87380141
0.0071792188 0.14293021 0.87304437
0.012050756 0.14276744 0.87205184
0.016917767 0.14266151 0.87140751
0.021585941 0.14283681 0.87124169
0.027297357 0.14287373 0.87072688
0.033364214 0.14296339 0.87042874
0.038016394 0.14376813 0.87075019
0.043291539 0.14376004 0.87070018
0.047782533 0.14261883 0.87114835
0.051826455 0.14269282 0.87358654
0.008825941 0.14647081 0.87479997
0.012079938 0.14636289 0.87415552
0.016964586 0.14695868 0.87382662
0.021854382 0.14747491 0.87385708
0.027688975 0.14744624 0.87286007
0.033178557 0.14756629 0.87165195
0.038050503 0.14754605 0.87153351
0.042949334 0.14762115 0.87197417
0.047662407 0.14736322 0.87319511
0.034103621 0.15130651 0.8745333
0.038181227 0.15130652 0.87453324
0.042268928 0.15134113 0.87473333
0.061744172 0.13326794 0.87715054
0.058127929 0.13726783 0.87708342
0.062028475 0.13746442 0.87964809
-0.0017799764 0.14334953 0.87561673
0.0023012273 0.14339581 0.87589705
0.054630835 0.14190902 0.87676686
0.057843257 0.14206216 0.8789832
-0.0016205506 0.14728181 0.87769061
0.0023052499 0.14683777 0.87698543
0.0068777665 0.14767352 0.87614012
0.012425113 0.14886513 0.87548006
0.016991664 0.14939119 0.87522507
0.021883491 0.14976245 0.87501669
0.026779192 0.14976247 0.87501669
0.048037097 0.14989655 0.87580007
0.053062469 0.14698195 0.87784761
0.05647352 0.14570448 0.87999976
-0.00096776983 0.15208144 0.87901044
0.0023092208 0.15197358 0.87838596
0.0072208238 0.15190963 0.87801874
0.011897792 0.15235336 0.87788594
0.017041339 0.15268548 0.87778354
0.021950638 0.15267102 0.87770015
0.026852934 0.15262479 0.87743348
0.031987619 0.15267037 0.87613338
0.03829075 0.15337056 0.87703347
0.043646127 0.15310082 0.8778252
0.048389692 0.15236367 0.87794298
0.051514752 0.15133114 0.87939984
0.0028581473 0.15648775 0.87926894
0.0072275824 0.15695795 0.87884444
0.012140036 0.15689559 0.87849641
0.017059283 0.15693292 0.87870377
0.021968875 0.15688221 0.87842238
0.026887385 0.15690625 0.87855572
0.031781629 0.15680069 0.87796682
0.037294731 0.15667358 0.878088
0.042954557 0.15710227 0.87874001
0.047253702 0.15673903 0.87945318
0.011340225 0.16043715 0.87999976
0.018725671 0.16043715 0.87999976
0.022008099 0.16043715 0.87999982
0.026930997 0.16043311 0.87997752
0.03184418 0.16038044 0.87968868
0.036438741 0.16103849 0.8797065
0.042522416 0.16043411 0.87998307
0.046626251 0.16043715 0.87999976
0.063055225 0.13755639 0.88023531
0.059783101 0.14413299 0.88039982
0.062321704 0.1426686 0.88146263
0.054865554 0.1490687 0.88053316
0.058187511 0.14752643 0.88109988
0.061952729 0.14755705 0.88324487
0.053267945 0.15247028 0.88125992
0.056320697 0.15254097 0.88404179
-0.00096900633 0.15718704 0.88013339
0.0012197653 0.15832552 0.88039511
0.049393039 0.15726244 0.88055533
0.051996883 0.15768503 0.88292223
0.0019905614 0.1615402 0.88244087
0.0072592641 0.16174392 0.88265556
0.012431729 0.16303618 0.88266665
0.016918605 0.16265108 0.88200831
0.022069132 0.16334496 0.88243884
0.026993474 0.16326958 0.88203335
0.031905282 0.16315028 0.88138884
0.037232541 0.16349064 0.88101661
0.041739997 0.16303998 0.88079435
0.046769034 0.16284411 0.88268894
0.050931901 0.16107534 0.8835001
0.015526906 0.16624376 0.88476682
0.022124743 0.16622497 0.88466674
0.027056312 0.1661122 0.88406676
0.031983327 0.16601197 0.88353348
0.03692494 0.16599946 0.88346678
0.041891363 0.16650797 0.88398349
0.062598199 0.14988977 0.88538337
0.057387743 0.15378231 0.88566667
0.061918262 0.15271588 0.88744617
-0.00097569695 0.15662391 0.88621062
0.053569902 0.15993108 0.88626659
0.057181727 0.15729633 0.88734257
0.061789066 0.15664469 0.88899994
0.0027431569 0.1644544 0.88620943
0.0072817304 0.16471575 0.88540012
0.048541706 0.16464137 0.88500017
0.051932305 0.16327374 0.88651311
0.056578636 0.1618447 0.8890143
0.0031642239 0.16774532 0.88835818
0.0073001124 0.16761272 0.88765532
0.012487383 0.16775787 0.88655216
0.017443711 0.16818942 0.88634264
0.02216948 0.16903506 0.88645536
0.027123159 0.16899709 0.8862555
0.032086898 0.16902453 0.88639992
0.037045594 0.16902019 0.88637763
0.042000815 0.16916895 0.88629311
0.04697429 0.16740476 0.88655537
0.052028585 0.16688223 0.88816178
0.055436712 0.16551568 0.88970011
0.0039964183 0.1703977 0.88926673
0.0079757199 0.17136237 0.88911998
0.012072533 0.17213029 0.88859993
0.017245444 0.1723351 0.88828564
0.022209795 0.1726466 0.88806653
0.027176732 0.17263354 0.88799977
0.032144014 0.17262918 0.8879776
0.037097923 0.17256202 0.88763309
0.042070717 0.17258573 0.88775539
0.0468821 0.17174301 0.88873321
0.050456923 0.17047429 0.88966674
0.017682409 0.17580703 0.88943338
0.022241518 0.17655547 0.88933337
0.027423453 0.17681314 0.8892917
0.032185353 0.17677815 0.88911664
0.037155844 0.17696615 0.88902217
0.042128697 0.1769589 0.8889851
0.046298414 0.17539977 0.8894667
0.063081257 0.15934211 0.89220005
0.06556157 0.15764712 0.89200002
0.058847785 0.16329074 0.89110005
0.061273981 0.16239116 0.8925336
0.00068122102 0.16752934 0.8916086
0.053823773 0.16897112 0.89046693
0.057265967 0.16766261 0.8923192
0.0030094043 0.17288469 0.89185351
0.0064927712 0.17310944 0.89045018
0.048845217 0.17395352 0.89053357
0.052245874 0.17255673 0.89187163
0.056273296 0.17189783 0.89420009
0.0040177652 0.17712906 0.89401692
0.007342211 0.17774314 0.89291883
0.012320375 0.17747287 0.89155936
0.016964344 0.17834236 0.89094031
0.022268835 0.17890316 0.89043355
0.025581738 0.17884284 0.89013344
0.032243904 0.17896344 0.89073354
0.047441784 0.17781448 0.89090496
0.051342953 0.17753054 0.89352685
0.008191104 0.1814011 0.89458358
0.012359324 0.18136394 0.89440036
0.017556436 0.18265812 0.89360452
0.022320118 0.18263687 0.8924818
0.027304582 0.18257518 0.89218169
0.032303836 0.18261801 0.89238918
0.037299592 0.18263163 0.89245582
0.042282078 0.1825847 0.8922261
0.047353633 0.18288861 0.89371514
0.050729152 0.18137744 0.89446706
0.022378197 0.1864384 0.89480036
0.027368674 0.1863296 0.89427823
0.038232084 0.18643841 0.89480019
0.042387441 0.18636663 0.89445585
0.04658296 0.18646619 0.8949337
0.064260945 0.16271491 0.89706683
0.066019721 0.16125615 0.89823335
0.05912292 0.16988198 0.89526665
0.062562585 0.16737102 0.8966853
0.066025294 0.16711657 0.89830923
0.05410986 0.17486504 0.89519995
0.057925239 0.17337379 0.89609998
0.06234958 0.17182079 0.89844024
0.066095665 0.17064102 0.89926696
0.0040247315 0.17993452 0.89556682
0.053586628 0.17830618 0.89575553
0.057806119 0.17719048 0.89748776
0.061015569 0.17635566 0.89855021
0.0040356671 0.18209387 0.89800006
0.006948702 0.18289255 0.89577508
0.01237358 0.18281603 0.89540017
0.015715843 0.18492548 0.8955335
0.052753586 0.18273149 0.89644772
0.056554798 0.18111725 0.898678
0.0073837126 0.18708669 0.89790374
0.012398387 0.18694109 0.89720756
0.017392991 0.18750346 0.89591122
0.022408247 0.18835528 0.89599997
0.027418757 0.1883366 0.89591104
0.032420855 0.18744315 0.89562225
0.037022591 0.18790033 0.89581668
0.042450119 0.18830858 0.89577776
0.047888368 0.18792471 0.89593339
0.052284975 0.18695955 0.8973
0.0090771616 0.19080663 0.89970028
0.012418498 0.19143067 0.89870024
0.0176266 0.19173072 0.89716667
0.022432504 0.19189738 0.89697051
0.027445974 0.19186184 0.89680374
0.032277204 0.19178797 0.89743352
0.03751253 0.19154501 0.89755255
0.042521331 0.19196492 0.89728534
0.047541413 0.19196004 0.89726311
0.051506758 0.19107123 0.89832252
0.019119345 0.19556631 0.89850026
0.022489628 0.19573314 0.8992669
0.027510151 0.19565333 0.89890009
0.04374164 0.19632737 0.89943355
0.047289457 0.19630916 0.89884025
0.066245109 0.16432051 0.90130019
0.064056985 0.17396562 0.90204459
0.066198558 0.17258215 0.90066695
0.063233733 0.17792805 0.90228909
0.066422731 0.17736989 0.90371668
0.058430325 0.18341427 0.90175009
0.061876249 0.18197672 0.90294451
0.054445323 0.18851662 0.90075016
0.057101224 0.18728533 0.90289164
0.0074130674 0.1925825 0.90148354
0.012459134 0.19456397 0.9016003
0.015794236 0.19421867 0.90000033
0.034269273 0.19428343 0.90030009
0.037618868 0.19424026 0.90010011
0.053170573 0.1932859 0.90190011
0.0081040068 0.19698802 0.90348673
0.012472447 0.1972841 0.90253347
0.01750646 0.19766529 0.90171695
0.022560025 0.19886287 0.90207785
0.027597809 0.19879307 0.90176129
0.032403689 0.19747971 0.90178108
0.037697893 0.19800638 0.90199649
0.042136695 0.19834179 0.90098363
0.048146874 0.19899188 0.90076697
0.051598929 0.19766903 0.90237498
0.011659905 0.20030382 0.90480006
0.016716469 0.20023741 0.90450001
0.023461398 0.20189756 0.90439999
0.027659273 0.20175613 0.90376663
0.033552185 0.20003819 0.90359998
0.038906042 0.20236933 0.90399998
0.04279634 0.20244534 0.90308899
0.047477361 0.2021261 0.90241349
0.067407236 0.1769006 0.9056167
0.064326756 0.18199937 0.90584451
0.066651598 0.18220074 0.90683907
0.059811935 0.18786749 0.90570009
0.062401768 0.18719167 0.90650564
0.065911137 0.18755765 0.90827799
0.0040813568 0.19429164 0.90816671
0.058172423 0.19224021 0.90645576
0.06236729 0.19232778 0.90846711
0.065187424 0.19214471 0.90999991
0.004073618 0.19729547 0.90644455
0.0057589891 0.19711931 0.90563345
0.054329611 0.19758053 0.90581679
0.057266403 0.19733746 0.90818691
0.060924374 0.19631192 0.90969992
0.0040807077 0.20270711 0.90802246
0.0074567934 0.20243059 0.90678173
0.01276374 0.20277523 0.9061715
0.017589653 0.20310499 0.90603346
0.022231627 0.20347956 0.90582514
0.02771551 0.20385003 0.90560007
0.032788791 0.20304887 0.90578341
0.036720175 0.20327367 0.90553337
0.049682606 0.20389503 0.9058001
0.05314384 0.2025211 0.90719074
0.056693271 0.20142548 0.90986663
0.0078153778 0.20701352 0.90913343
0.012549874 0.20780599 0.90816331
0.017623298 0.2077162 0.90777081
0.022685308 0.20756084 0.90708923
0.027764417 0.2075882 0.90720773
0.032842591 0.20760331 0.90727425
0.037883196 0.20741053 0.90643352
0.042930942 0.20729336 0.90592223
0.048019554 0.207377 0.90628529
0.05196435 0.20752406 0.90877521
0.014269953 0.21157287 0.90983331
0.017646519 0.21222101 0.90898353
0.02293122 0.21272853 0.90844202
0.027800201 0.21207811 0.90837258
0.032905411 0.21222611 0.9090057
0.037984286 0.21218885 0.90884465
0.043262646 0.21273081 0.90845019
0.047588855 0.21246837 0.9088335
0.063548401 0.19486214 0.9108333
0.067452736 0.19243389 0.91003329
0.058418002 0.19982806 0.91029996
0.062332034 0.19800428 0.91164994
0.065972023 0.19589967 0.91303349
0.057249684 0.20358232 0.91194999
0.06113762 0.20124479 0.91288334
0.0041015795 0.20713851 0.91266674
0.0074911006 0.20932426 0.91109997
0.053352192 0.20840153 0.9107666
0.056922723 0.20733438 0.9135288
0.0083629638 0.21239288 0.91335845
0.012243463 0.212763 0.91057998
0.026152691 0.21499719 0.90999997
0.049918428 0.21332784 0.91009992
0.0527367 0.21238378 0.91185999
0.05527645 0.2118078 0.91450024
0.0092308521 0.21616268 0.91493374
0.01296066 0.21644434 0.91324681
0.017929345 0.21709119 0.91256678
0.022561476 0.21761689 0.91185242
0.06651587 0.19865727 0.91661668
0.062628582 0.2032086 0.91600031
0.06588228 0.20189147 0.91970003
0.058758136 0.20950742 0.91560042
0.061715256 0.20731993 0.91722792
0.0062557734 0.21358761 0.91666663
0.067279063 0.2037975 0.92316675
0.064327493 0.20840013 0.92199999
0.066214167 0.20634747 0.92433339
