# .PCD v0.7 - Point Cloud Data file format
VERSION 0.7
FIELDS x y z
SIZE 4 4 4
TYPE F F F
COUNT 1 1 1
WIDTH 1092
HEIGHT 1
VIEWPOINT 0 0 0 1 0 0 0
POINTS 1092
DATA ascii
0.014385628 0.062532566 0.81973344
0.0093419747 0.059306845 0.82435566
0.013095584 0.058360759 0.82274997
0.017501935 0.058151722 0.82249624
0.022255691 0.0576264 0.82294542
0.027148053 0.057894219 0.82426125
0.031397972 0.056786511 0.82486689
0.0090634422 0.062735535 0.82239991
0.012678597 0.062597848 0.82059145
0.017467134 0.062616654 0.82083684
0.022100206 0.062731244 0.82233322
0.026317434 0.062642887 0.82404774
0.009066104 0.067347459 0.8226555
0.012877394 0.067215241 0.8210516
0.017478684 0.067242377 0.82137752
0.021944687 0.067239717 0.8236835
0.0098497886 0.071285695 0.82396662
0.012911854 0.071990043 0.82325184
0.01752568 0.072018348 0.82357776
0.020626754 0.071354918 0.82476687
0.012931538 0.075167 0.82451123
0.016773984 0.075156882 0.82439995
0.0099163335 0.054021604 0.82953364
0.01300399 0.05399555 0.82913369
0.0176272 0.053177368 0.82841128
0.022246072 0.05313703 0.82778901
0.027138723 0.053402305 0.82792228
0.033589523 0.052914146 0.82832241
0.037695486 0.052382663 0.82803708
0.042347535 0.052406289 0.82840008
0.047000822 0.052427273 0.82872617
0.051649217 0.05243906 0.82891136
0.0083494904 0.056976881 0.82764775
0.012589227 0.055798266 0.82728326
0.017584532 0.055354808 0.82639998
0.020649262 0.055305682 0.82566667
0.028730135 0.056450069 0.82556665
0.033116471 0.057693411 0.82587278
0.037466425 0.057198085 0.82637995
0.042311724 0.056981027 0.82768887
0.047003426 0.057055414 0.8287707
0.051470697 0.056888942 0.82915026
0.0068036509 0.06233798 0.82728356
0.029278984 0.063305885 0.82583982
0.033012766 0.063070208 0.82677758
0.037824597 0.06258747 0.82777578
0.042183019 0.061502133 0.82895851
0.047043204 0.060189128 0.82946694
0.0068087205 0.067007445 0.82790023
0.023725189 0.069117621 0.82553327
0.02761768 0.067685306 0.82678884
0.03308152 0.067824535 0.82848907
0.037436757 0.066951171 0.82913369
0.0087177493 0.072609477 0.82595009
0.02264462 0.072467789 0.82620949
0.027441414 0.072248966 0.82781827
0.032335468 0.072507419 0.82917535
0.0092740823 0.076671615 0.82749337
0.012969763 0.077696368 0.82694417
0.017822979 0.07739234 0.82720953
0.022255592 0.077038333 0.82812607
0.026294326 0.076488808 0.82885349
0.030011619 0.075582355 0.82906699
0.0099151377 0.081016339 0.82943356
0.013188465 0.08151114 0.82857519
0.017196696 0.081514902 0.82889551
0.021518929 0.080250934 0.82950032
0.034864821 0.04967016 0.83420002
0.038223177 0.048966378 0.83280009
0.042741768 0.048201494 0.83231664
0.047241203 0.04804552 0.83297032
0.051844046 0.048767123 0.83204442
0.057886075 0.048090052 0.83372724
0.062451608 0.047890771 0.83324254
0.065806679 0.048766274 0.83200002
0.0079606855 0.053145707 0.83309513
0.013043395 0.051838946 0.83166665
0.017689155 0.05104458 0.83131105
0.022361411 0.051089603 0.83204454
0.027412478 0.051493391 0.83233345
0.031353835 0.051695753 0.83185339
0.054828923 0.052523434 0.83024472
0.0580265 0.05261495 0.83168149
0.062779032 0.05269821 0.833004
0.066229343 0.053049065 0.83243334
0.0037495454 0.058990225 0.8343333
0.0056748008 0.056852575 0.83144993
0.054496042 0.057600539 0.83106679
0.057940371 0.057169039 0.83322501
0.063072629 0.056969259 0.83395678
0.066317648 0.056240156 0.83192033
0.0037512437 0.062122446 0.83471102
0.0052910321 0.061924353 0.83204442
0.0424635 0.06439656 0.83066654
0.04715189 0.062318109 0.83139044
0.051851291 0.061933663 0.83215553
0.055606008 0.061046783 0.8341555
0.0056881919 0.067459442 0.83351666
0.03820511 0.069164045 0.83069998
0.042718124 0.067852624 0.83260667
0.047315966 0.067523874 0.83428329
0.051483452 0.065735169 0.83457756
0.006449996 0.073108643 0.83161664
0.034726895 0.073431298 0.83089995
0.037715271 0.072624147 0.83270836
0.042352561 0.072049402 0.8345865
0.0073552444 0.077357963 0.83157772
0.027767098 0.078106247 0.83130002
0.032391187 0.077300169 0.83279258
0.036406048 0.07601992 0.83386666
0.0091810711 0.082134128 0.83293331
0.013022106 0.084189415 0.83029997
0.018709218 0.083456762 0.83068889
0.022568258 0.082434133 0.8315047
0.026546918 0.081676766 0.83354443
0.030226398 0.080783039 0.83499974
0.013060725 0.086765423 0.83278096
0.017714227 0.086923175 0.83243334
0.022218851 0.086697385 0.83398318
0.025554538 0.085442789 0.83499974
0.013874894 0.090102598 0.83499974
0.017765511 0.090866059 0.83487749
0.020882672 0.090102598 0.83499974
0.0570076 0.039055556 0.83952624
0.042935099 0.043760076 0.83990014
0.04759473 0.043723602 0.83920008
0.053212889 0.042461164 0.8389467
0.057443667 0.04222323 0.8376112
0.061470103 0.043574233 0.83633333
0.008462063 0.049940091 0.83873343
0.012355553 0.049098 0.83769166
0.017820271 0.049083333 0.83744448
0.022501661 0.049075514 0.83731109
0.027182616 0.048288774 0.8371926
0.032169558 0.048274357 0.83693993
0.037679005 0.046525639 0.83747619
0.042371325 0.045527402 0.83649981
0.047458749 0.045155149 0.83679992
0.052109834 0.045905635 0.83631092
0.056483723 0.045756392 0.83641309
0.0031387445 0.05329641 0.83755988
0.0065722703 0.051399507 0.83711988
0.0024590241 0.057632294 0.83713323
0.059843473 0.059065636 0.83539975
0.062172875 0.059058569 0.83529973
0.0015776095 0.062702969 0.83831489
0.058176629 0.062588423 0.83631837
0.063052304 0.062266126 0.83662963
0.066675037 0.063286208 0.83640003
0.0023961384 0.067033909 0.83787501
0.0053123692 0.069943689 0.83539975
0.052049343 0.067995913 0.83533317
0.056908887 0.067049421 0.83805931
0.06183248 0.066769063 0.83889645
0.06714271 0.065563008 0.83899999
0.0028284024 0.071111873 0.83817339
0.0053136414 0.072291955 0.83559984
0.039614331 0.074653335 0.83593315
0.043110907 0.074245587 0.83571649
0.047432996 0.073135518 0.836348
0.052315794 0.072889462 0.83709991
0.056755811 0.071369216 0.83910477
0.0061007864 0.077842355 0.83680004
0.034151476 0.079302542 0.83576643
0.038307905 0.078074493 0.83717495
0.042834599 0.077950962 0.83793348
0.047343165 0.077782281 0.83821678
0.051840857 0.076809689 0.83825004
0.0084432317 0.082520358 0.83686656
0.028159132 0.083398499 0.83526641
0.032379925 0.082532696 0.83698511
0.036846299 0.082490101 0.83881915
0.010401188 0.087644115 0.83748329
0.023999164 0.088556424 0.83506638
0.027361238 0.087363139 0.83664989
0.031727083 0.087180458 0.83863348
0.035605911 0.086418249 0.83944458
0.0084728254 0.093744919 0.83980006
0.012346909 0.092671514 0.83716649
0.017404383 0.09373603 0.83623314
0.022668164 0.091985703 0.83622485
0.02669578 0.091490619 0.83822221
0.030400151 0.090620533 0.8398
0.008065993 0.096296474 0.83821559
0.012360439 0.097429484 0.83789444
0.017671494 0.097428188 0.83862227
0.021728311 0.095053628 0.83756661
0.053366236 0.034547351 0.84384584
0.048705794 0.039305553 0.84489989
0.052527301 0.03764895 0.84302866
0.055617195 0.037609983 0.84218097
0.028182885 0.043961525 0.84376687
0.032094967 0.043930847 0.84317803
0.037264537 0.043261934 0.84326661
0.042878903 0.042138647 0.84320956
0.047761459 0.042112734 0.84214169
0.051258326 0.041887406 0.8415333
0.0032696973 0.048184082 0.84442216
0.00715381 0.047483649 0.8426286
0.01243518 0.046272464 0.84300828
0.017532965 0.046634231 0.84244996
0.022637853 0.046238542 0.84238881
0.027319908 0.045405779 0.84144443
0.032005757 0.045372203 0.84082216
0.035922043 0.045367405 0.84073329
-0.00092853908 0.053352851 0.84337789
0.0015413594 0.051723856 0.84240955
0.0053479816 0.050075058 0.84099978
-0.00092804967 0.058030229 0.84293342
0.00064242695 0.057104178 0.84083331
-0.00092820218 0.062745132 0.84307176
0.00064235047 0.061006665 0.84073341
-0.0013220849 0.067839585 0.843045
0.0006419429 0.067219697 0.84020013
0.06442041 0.068319671 0.84091091
0.0673877 0.068152741 0.84205943
-0.0014530919 0.071622282 0.84294891
0.0014265091 0.072745264 0.84083337
0.057894234 0.073544309 0.8410331
0.061880529 0.072055548 0.84190369
0.066559672 0.07223402 0.84399724
-0.00093032542 0.075463049 0.84499991
0.0022187519 0.075362265 0.84387159
0.049206708 0.079704195 0.84000003
0.052739196 0.079207733 0.84135991
0.057189371 0.076779991 0.84218526
0.061523575 0.076439336 0.84419996
0.066021077 0.075433284 0.84466648
0.0074543762 0.084154785 0.84284562
0.039050259 0.083666988 0.84056652
0.043025032 0.082993723 0.84165192
0.047776822 0.083068088 0.84240746
0.052364632 0.082984038 0.84355015
0.056831241 0.081193298 0.84465569
0.007712936 0.087772019 0.8424508
0.033551257 0.089107856 0.84026653
0.03814669 0.088047408 0.84174812
0.042693198 0.087704994 0.84395248
0.047903765 0.086429693 0.84464437
0.051861517 0.086462669 0.84496659
0.0075594457 0.092195272 0.84278488
0.028346105 0.093338065 0.84082216
0.032234203 0.09258426 0.84166664
0.037117772 0.092372514 0.84295356
0.040823184 0.09273345 0.84481657
0.019450372 0.098501854 0.8403998
0.022833666 0.097488187 0.84128571
0.027365375 0.097215727 0.8428002
0.032105852 0.097291127 0.84345204
0.036639828 0.096947297 0.84436184
0.0077256793 0.10124205 0.84369212
0.012333854 0.10200425 0.84205669
0.018134819 0.10222977 0.8416667
0.022653874 0.10193563 0.84293342
0.027171567 0.10158587 0.84375244
0.031839166 0.10120976 0.84473324
0.035316184 0.10061287 0.84499991
0.014190666 0.10652766 0.84453326
0.017949607 0.10702787 0.84352028
0.022468448 0.10637591 0.84439999
0.025860589 0.1053284 0.84499991
0.017980127 0.11098193 0.84495986
0.021132769 0.11004401 0.84499991
0.049566276 0.033855267 0.846138
0.05107959 0.033811405 0.84506667
0.055803359 0.034594607 0.84500003
0.037867323 0.039505593 0.84920037
0.043025829 0.039128914 0.84789354
0.048002161 0.037800532 0.84640008
0.0030254985 0.044263698 0.84956694
0.0073677269 0.043778755 0.84783351
0.012515724 0.0434113 0.84836686
0.018063774 0.043596603 0.84889364
0.022795638 0.043405596 0.84825581
0.027517064 0.042313263 0.84746671
0.032248702 0.041776102 0.84722233
0.036983717 0.040984187 0.84711123
0.040899552 0.040949784 0.84640002
-0.00093502289 0.04819715 0.84926701
0.0017008861 0.04677679 0.84740001
0.0061667822 0.045640826 0.84579992
0.018776216 0.045615643 0.84533322
-0.0027773508 0.052027524 0.84733349
-0.0031910078 0.057193328 0.84712106
-0.00290975 0.062290482 0.84757596
-0.0056893802 0.066396534 0.84966666
-0.0034627423 0.067482173 0.84742421
-0.0019830267 0.072904326 0.84571505
0.068410851 0.072319292 0.84499997
0.0022309283 0.077391431 0.84891081
0.0053758286 0.078642055 0.84537959
0.063196108 0.07813032 0.84551102
0.067191042 0.077635013 0.84663957
0.070318073 0.078978866 0.8490001
0.0061817681 0.082037278 0.84796453
0.054248828 0.084927686 0.84533316
0.058525801 0.08293318 0.84637779
0.062241726 0.081927814 0.84682965
0.067064084 0.082029894 0.84788185
0.070318073 0.080558173 0.84900004
0.0053854082 0.087445527 0.84688568
0.044789463 0.088859186 0.84533316
0.047971293 0.088911809 0.84583312
0.052955024 0.088618457 0.84624755
0.057554066 0.086728692 0.84755558
0.062399045 0.086082809 0.8489669
0.065567873 0.08529608 0.84900033
0.071168214 0.086947396 0.84970009
0.043716796 0.093127303 0.84635228
0.048081636 0.093059212 0.84777796
0.052873984 0.093145475 0.84856325
0.056080706 0.090845406 0.84920013
0.0069855391 0.097976662 0.84940004
0.03768611 0.099056616 0.84513319
0.042047281 0.09756799 0.84722012
0.045015536 0.098789871 0.8496002
0.0085425843 0.10396706 0.84671438
0.010125931 0.10401035 0.84706676
0.028231282 0.10378115 0.84519982
0.032571759 0.10340657 0.84534985
0.03713686 0.10251214 0.846075
0.041560967 0.10214198 0.84837162
0.045033202 0.10120022 0.84993345
0.011259844 0.10745815 0.84762871
0.023507159 0.1085192 0.84536648
0.027687434 0.10730395 0.84662497
0.032278713 0.10728039 0.84799266
0.036801428 0.10687664 0.84896684
0.040261999 0.10590185 0.84960037
0.013480803 0.11168419 0.84700018
0.018004697 0.11373097 0.8461166
0.022949575 0.11202275 0.84658325
0.026932502 0.11150752 0.84896022
0.014889281 0.11601534 0.84843367
0.018045656 0.11694847 0.84804189
0.022280037 0.11630888 0.84865576
0.018871691 0.12013029 0.84963357
0.042894814 0.03499173 0.85470003
0.047115982 0.034296148 0.85322559
0.013399913 0.03974542 0.85435557
0.018178919 0.03974387 0.85432225
0.023274083 0.039101087 0.85417348
0.027710056 0.03890872 0.8534444
0.032658324 0.038281225 0.85275829
0.036984086 0.037609391 0.85229999
0.041984808 0.037275057 0.85241103
0.046692047 0.036436111 0.8513
-0.0017362845 0.043678902 0.85359168
0.0020151285 0.042392422 0.85282856
0.0066868039 0.041839592 0.85171336
0.012558523 0.041189283 0.85134995
0.018112125 0.041575879 0.85116661
0.022865176 0.041163746 0.85082215
0.026017675 0.041130416 0.85013336
-0.0027923109 0.047546566 0.85175556
-0.0057215439 0.053260922 0.85447013
-0.0041102176 0.050658587 0.85079992
-0.005717814 0.055609267 0.85391319
-0.0041149049 0.063390426 0.85177058
-0.0081074778 0.065146558 0.85400003
-0.0041092499 0.071216308 0.85060006
-0.0017333286 0.076853171 0.85171115
0.0030297288 0.078331143 0.85053575
0.0038293137 0.082436375 0.85208327
0.0054110037 0.082321897 0.85091078
0.070454158 0.083087251 0.8506428
0.0038296618 0.086405903 0.85216069
0.0054058931 0.085407279 0.85010719
0.062538214 0.088649184 0.85086656
0.06750524 0.087274477 0.85096246
0.071241051 0.087035738 0.8505652
0.0054086368 0.090197138 0.85053855
0.058278669 0.092116036 0.85155708
0.062697478 0.092047863 0.85302222
0.067513667 0.092108347 0.85358888
0.071436934 0.092035234 0.85289878
0.048266292 0.098165661 0.85103333
0.052864168 0.098032765 0.85159576
0.057734791 0.09641815 0.85358101
0.062384412 0.095748916 0.85419178
0.067952186 0.095737495 0.85409003
0.070732199 0.095330052 0.85400003
0.042690106 0.10444625 0.85061663
0.047292069 0.10309527 0.85252589
0.052577563 0.1028012 0.85403669
0.0085921986 0.10773909 0.85163194
0.037656941 0.10863961 0.85041124
0.042175073 0.10801167 0.85221243
0.045890845 0.10773335 0.85409343
0.0085921288 0.11090679 0.85162497
0.010706906 0.11246326 0.8514111
0.028423162 0.11319149 0.85093337
0.032443218 0.11258226 0.85230005
0.037249774 0.11190438 0.85318333
0.041255578 0.11118351 0.85374999
0.012572299 0.1173527 0.85241663
0.02391451 0.1181468 0.85052222
0.027494214 0.11721575 0.85285842
0.031728052 0.11604524 0.85446668
0.014583249 0.12189734 0.85370004
0.017899839 0.12248588 0.85187608
0.0229051 0.12209124 0.85227776
0.026670834 0.12129468 0.85412234
0.018403262 0.12667179 0.85415715
0.022758301 0.12694094 0.85425007
0.042878304 0.028266348 0.85969996
0.033524178 0.033595912 0.85966676
0.0377887 0.032900132 0.85821331
0.042449467 0.032124989 0.85778338
0.046443164 0.031610876 0.85644454
-0.0020139648 0.038883854 0.85874444
0.0019346222 0.03926079 0.85768002
0.0070510744 0.039247654 0.85740691
0.011853595 0.03830545 0.85773355
0.017766077 0.037017927 0.85748017
0.02281278 0.036237452 0.8573429
0.027849643 0.035911985 0.85772234
0.032228399 0.035491437 0.85718346
0.037362773 0.035036765 0.85580015
0.040521037 0.035006739 0.85506672
-0.0063905129 0.043459557 0.85866678
-0.0031822037 0.042417083 0.85696
-0.0071444591 0.048078109 0.85770833
-0.0041330843 0.04616604 0.85553372
-0.007614892 0.05215862 0.85809898
-0.0065461979 0.058263071 0.85789955
-0.0061520874 0.06192629 0.85890877
-0.0057435064 0.065432623 0.85775
-0.004143619 0.073407464 0.85771435
0.0014519057 0.079686657 0.85660851
0.001454417 0.082998402 0.85789019
0.0027923218 0.087884396 0.85885984
0.074090749 0.09236864 0.85600013
0.058901817 0.098699503 0.855667
0.063290551 0.098187312 0.85674679
0.067446232 0.098189875 0.85676849
0.070856437 0.097088873 0.8555001
0.053278729 0.10499265 0.85506696
0.058177028 0.10201105 0.8567335
0.062578902 0.1017096 0.85867786
0.067966752 0.10071805 0.85930854
0.048139207 0.1086691 0.85583365
0.052215081 0.1071934 0.856305
0.056372166 0.10668614 0.85845339
0.010231896 0.11465197 0.85593116
0.03738096 0.11468502 0.85617805
0.042437937 0.11365233 0.85696203
0.046842277 0.11308938 0.85765833
0.05171828 0.11166081 0.85894161
0.0086558647 0.11811385 0.85794258
0.010231126 0.11862418 0.85586685
0.029374113 0.11937307 0.85553366
0.032824792 0.11834722 0.85633361
0.037458733 0.11811706 0.85796297
0.042129748 0.11811582 0.8594085
0.047552079 0.11634958 0.85965014
0.050370503 0.11517911 0.8598668
0.008656445 0.12370719 0.85800004
0.011638319 0.12292439 0.856718
0.028331697 0.12317625 0.85615569
0.032675274 0.12296849 0.85840732
0.036470268 0.12210417 0.85982245
0.0086529674 0.12684822 0.85765529
0.012081901 0.12720187 0.85772747
0.015984198 0.12807688 0.85626698
0.024583532 0.12890169 0.85540015
0.02780856 0.12746425 0.85642982
0.032160908 0.12730241 0.85892218
0.017795017 0.13154374 0.85780007
0.023060713 0.13250157 0.85808903
0.027876457 0.13096754 0.85851115
0.032824624 0.028086862 0.86236668
0.037598699 0.028048212 0.86118907
0.040799804 0.028040404 0.86094892
-0.000949629 0.03370795 0.86253333
0.0014661587 0.033748418 0.86356902
0.0087203449 0.032974407 0.86433339
0.011936693 0.032955188 0.86382121
0.017536042 0.032880869 0.86189169
0.022941867 0.03254842 0.86221921
0.028196605 0.032290109 0.86221266
0.03256489 0.031608291 0.86155236
0.037161071 0.030821759 0.86035025
0.040767476 0.030418837 0.86026692
-0.010604718 0.038533289 0.86279994
-0.0070578679 0.037851296 0.86190003
-0.0029551389 0.036856864 0.86115009
0.002496433 0.036432963 0.86196196
0.0070959618 0.036472116 0.86289054
0.011585992 0.035919957 0.86172009
0.015900133 0.035222352 0.86033356
-0.011392375 0.044885457 0.86150002
-0.0080553759 0.041634347 0.86056197
-0.011403356 0.048134197 0.86228079
-0.0089677824 0.046414267 0.86013341
-0.010610085 0.053005602 0.86323667
-0.0089850128 0.054518871 0.86178577
-0.011008333 0.05820284 0.86293864
-0.0085768513 0.057279047 0.86110067
-0.0081824213 0.062535726 0.86181438
-0.007778151 0.068125114 0.86152089
-0.0068445802 0.071075834 0.86169451
-0.0025624165 0.078760967 0.86393344
-0.00095073844 0.081939496 0.86354089
0.0006603534 0.086832851 0.86429632
0.0038851153 0.093285874 0.86450011
0.0038783746 0.10275608 0.86300004
0.064358622 0.103594 0.86106652
0.068093099 0.10330865 0.86091232
0.071414277 0.1034672 0.86223543
0.057920069 0.10837153 0.86084455
0.061745569 0.10744118 0.8619408
0.0677303 0.10751749 0.86372989
0.07156828 0.10690545 0.86409509
0.053594433 0.11361482 0.86013347
0.056925818 0.11225494 0.86197048
0.061362948 0.11199651 0.8641057
0.047184259 0.11843017 0.86024457
0.052271727 0.11719584 0.86145836
0.055792004 0.11681841 0.86310834
0.0086874906 0.12174834 0.86107707
0.038085703 0.12374199 0.86008906
0.042645846 0.12221693 0.86115235
0.047274817 0.12186488 0.86189628
0.051975045 0.12184858 0.86320013
0.055474553 0.1206149 0.86443353
0.0076344493 0.12738906 0.8631236
0.011088219 0.12966537 0.86046815
0.033812542 0.12909174 0.86020017
0.037608836 0.12820432 0.86140001
0.042485476 0.12677091 0.86255187
0.047066454 0.12601656 0.86398017
0.050641902 0.12544855 0.86450016
0.012317328 0.13194132 0.86226332
0.017028563 0.13417415 0.86064017
0.027956 0.13374466 0.86096674
0.032622002 0.13294785 0.86228335
0.037674904 0.13163875 0.86291105
0.041472223 0.13070342 0.86380005
0.017757773 0.1377764 0.86204851
0.023143902 0.13778578 0.86119264
0.027821295 0.13787787 0.86302519
0.032909606 0.13617986 0.8645668
0.018696986 0.14201675 0.86354673
0.022889886 0.143172 0.86372679
0.026431853 0.1413935 0.86366683
0.02372729 0.028667189 0.86780828
0.02813503 0.028222576 0.86654454
0.00388916 0.033819973 0.86540014
0.0064803907 0.032575436 0.86659086
0.024091028 0.030634537 0.86636674
0.02651244 0.030632179 0.86630017
-0.0025723032 0.035506215 0.8672666
-0.011452378 0.041899394 0.86604309
-0.013923598 0.046897043 0.86908007
-0.01324642 0.053567678 0.86713541
-0.013899887 0.056500603 0.86760008
-0.011315273 0.062653624 0.86786669
-0.0090393759 0.064525463 0.86700004
-0.0074081421 0.069230489 0.86533338
-0.0068882271 0.073188908 0.86769456
-0.0041965302 0.076768503 0.86866665
-0.0017665706 0.081525505 0.86772227
-0.00095437106 0.086283557 0.8668406
0.00066154194 0.088599779 0.86585188
0.0022782942 0.091624781 0.86703712
0.0034997768 0.096597031 0.86896169
0.0039034132 0.1009955 0.8685714
0.0059202081 0.10166762 0.86741668
0.0039045899 0.1074916 0.8688333
0.0062140664 0.10774564 0.86809528
0.065235525 0.10950638 0.86560029
0.07180202 0.10967296 0.86691672
0.0071432455 0.11259969 0.86877775
0.063071914 0.11377958 0.86544466
0.066948183 0.11289423 0.86688524
0.070135094 0.11281668 0.86629772
0.0087417001 0.11606099 0.86645001
0.058190733 0.11799721 0.86646003
0.062219065 0.11795986 0.86855549
0.067100726 0.11800056 0.86885589
0.070319884 0.11796375 0.86858028
0.0071164514 0.12395764 0.86531824
0.053941306 0.12401237 0.86570019
0.057316713 0.12271251 0.86789542
0.06147109 0.12131254 0.86943334
0.0071438714 0.12928283 0.86865228
0.04790619 0.12849322 0.86605012
0.052636579 0.12769677 0.86747509
0.055739094 0.12765352 0.86855549
0.0087425923 0.13219211 0.86653864
0.011969206 0.13374153 0.86613345
0.037808761 0.13371579 0.8659668
0.043262333 0.13286163 0.86739451
0.047631297 0.132476 0.86839253
0.052528325 0.1317645 0.86903328
0.055767622 0.13095115 0.8689999
0.012953995 0.13681772 0.86724681
0.03341433 0.13834247 0.86720008
0.037908215 0.13730091 0.86825925
0.042801041 0.13741367 0.86897779
0.046610024 0.13641618 0.86948889
0.013627774 0.14224917 0.86888885
0.01616751 0.14275661 0.86608684
0.028653324 0.14229147 0.86587244
0.033054989 0.14216515 0.86837769
0.037303519 0.14166355 0.86926663
0.041225564 0.14080124 0.86993337
0.016650319 0.1471699 0.86812085
0.022488639 0.14756259 0.86687088
0.028187202 0.14696479 0.86809987
0.032547254 0.1466208 0.8692556
0.018499402 0.15122166 0.86936665
0.022324517 0.15183395 0.86908489
0.027410835 0.150378 0.86916661
0.021751331 0.15532969 0.86973351
0.0055371053 0.030789206 0.87074077
-0.013950354 0.048606917 0.87075001
-0.013142463 0.051053036 0.87102902
-0.010717797 0.068143614 0.87200004
-0.010748525 0.071590595 0.87450004
-0.0082783606 0.073008023 0.87200004
-0.0072057173 0.077993296 0.87333125
-0.0042150486 0.079541944 0.87250012
-0.0031293184 0.082734279 0.87194699
-0.0021811507 0.08802826 0.8721571
-0.0013690888 0.092178561 0.87304628
0.00066527713 0.093149513 0.87074089
0.0014778695 0.097316243 0.87180084
0.0022905585 0.10130759 0.87125015
0.0022899013 0.10856931 0.87100005
0.0031021144 0.11099966 0.87100005
0.0063570859 0.1135426 0.87186474
0.0065308325 0.11667389 0.87344694
0.059131239 0.12474294 0.87080026
0.06260372 0.12357143 0.87069541
0.067239434 0.12310158 0.87064463
0.071159527 0.12346349 0.87091494
0.058350101 0.12805073 0.87125564
0.062495902 0.12822205 0.8724221
0.067423418 0.12749748 0.87302208
0.071663991 0.12799776 0.8731119
0.0088202003 0.13499184 0.87423092
0.010400962 0.13434999 0.87007421
0.052635264 0.13446206 0.8708002
0.057619236 0.13309732 0.87247294
0.061794065 0.13170457 0.87399989
0.067543447 0.13016473 0.87457782
0.070764072 0.13008867 0.87406665
0.010829613 0.13829403 0.87198216
0.048291247 0.13820519 0.87056679
0.052695885 0.13785967 0.87179267
0.056713261 0.13781607 0.87357318
0.01123464 0.14273827 0.87188059
0.038827818 0.14336053 0.8707335
0.04310786 0.14281051 0.87108362
0.047853425 0.14282924 0.87242961
0.051732074 0.14197443 0.87383312
0.012585212 0.14701225 0.87157798
0.03422308 0.1484744 0.87064463
0.038061719 0.14758641 0.8717705
0.042800013 0.14760514 0.87307912
0.046315409 0.14717279 0.87413323
0.013715078 0.15292031 0.87445563
0.016447622 0.1525725 0.87114298
0.028067082 0.15286329 0.87065852
0.033212118 0.15257803 0.87249267
0.03708123 0.15179516 0.87422222
0.017411169 0.15729225 0.87292379
0.021784425 0.15738976 0.87105852
0.027511528 0.15741681 0.87232786
0.032308076 0.15747912 0.87448007
0.021862084 0.16140667 0.87416661
0.025135322 0.16107962 0.87459987
-0.01187637 0.072376259 0.87744451
-0.011623508 0.075229198 0.87900007
-0.0091395825 0.076656349 0.87661105
-0.0091644889 0.081769645 0.87900007
-0.0042483089 0.089984544 0.87938458
-0.0026012822 0.093823075 0.87703705
-0.0013763371 0.097563297 0.87765425
0.0006696349 0.09946581 0.87644452
0.00067184219 0.1014294 0.87933332
0.0031245113 0.11341242 0.87712502
0.0039496934 0.11608972 0.87886959
0.063159093 0.13322473 0.87597507
0.067722514 0.13295816 0.87690014
0.071561761 0.13327216 0.87717789
0.059540156 0.13702321 0.87682229
0.063005395 0.13744742 0.87953323
0.068176895 0.13701367 0.87975216
0.072228976 0.1362219 0.8786642
0.053330906 0.14334063 0.87555838
0.058189571 0.14231439 0.87801683
0.061397173 0.14161205 0.87999976
0.01209772 0.14983381 0.87543339
0.048892252 0.14756866 0.87648344
0.053296316 0.14726989 0.87834591
0.057218436 0.14632924 0.87883341
0.01215991 0.15224081 0.87993318
0.03867716 0.15328048 0.87651682
0.043480348 0.15237442 0.87800473
0.048003204 0.15185794 0.87889999
0.052360732 0.15058686 0.8798331
0.013766226 0.15757248 0.87771672
0.015367786 0.15802428 0.87570006
0.034404758 0.15794609 0.87526673
0.038132757 0.15727146 0.87755942
0.042766001 0.15650317 0.87935537
0.046619184 0.15550275 0.87986642
0.013799951 0.16041285 0.87986642
0.017594362 0.16255392 0.87816674
0.021899283 0.16388503 0.87568009
0.027035825 0.16330346 0.87670845
0.031566124 0.16307043 0.87765014
0.036721736 0.16181917 0.87861431
0.040882029 0.16043715 0.87999976
0.018177653 0.16697662 0.87995529
0.021964317 0.16747455 0.87827229
0.026893005 0.16755925 0.87871671
0.03183791 0.16634686 0.87951106
0.035121802 0.16527292 0.87959993
0.022001799 0.17119476 0.87975979
0.026109137 0.17024611 0.87993306
0.015435359 0.17589816 0.87954998
-0.011636732 0.077770241 0.88000005
-0.010828417 0.08113721 0.88100004
-0.0075612254 0.087485805 0.8830657
-0.0063284533 0.091638252 0.88349777
-0.00425799 0.092649534 0.88138884
-0.0059247324 0.095477991 0.8848148
-0.0038548897 0.097355872 0.88317716
-0.002621982 0.10085168 0.8838293
0.0023202545 0.11493356 0.88254547
0.0031434167 0.11740929 0.88264573
0.0056208912 0.12004489 0.88391662
0.067151569 0.13917769 0.88013303
0.0718005 0.13862847 0.88011092
0.063589618 0.14284877 0.8811332
0.068137884 0.14280017 0.88227773
0.072832763 0.14232008 0.88220727
0.010550948 0.14942208 0.88262069
0.058849275 0.14819023 0.88115311
0.062770694 0.14758049 0.88282388
0.068316832 0.14646611 0.88460016
0.012167278 0.15397096 0.88046652
0.049916241 0.15391265 0.88013309
0.053235337 0.15265173 0.88072771
0.056962032 0.15235545 0.88248664
0.060047921 0.1513513 0.88430005
0.012177105 0.15737426 0.88117766
0.043350395 0.15882424 0.88013309
0.046931595 0.15786694 0.88131416
0.051205441 0.1572405 0.88349456
0.013029457 0.1626779 0.88327509
0.015459047 0.16305989 0.88089991
0.038443491 0.16381033 0.88053304
0.042028684 0.16289386 0.88189989
0.046416022 0.16153987 0.88379169
0.013850138 0.16674659 0.88306671
0.016125986 0.16758984 0.88145322
0.032292657 0.16834998 0.88071638
0.036600377 0.16741838 0.88227773
0.040211651 0.16596813 0.88330007
0.017122308 0.17228517 0.88199258
0.022011945 0.17274389 0.88014972
0.027220162 0.17270112 0.88171893
0.031402815 0.17186756 0.88264996
0.035336103 0.17122002 0.88496685
0.013816457 0.17617308 0.88091922
0.017586632 0.17737243 0.8816427
0.022043683 0.17709082 0.88140732
0.026585301 0.17738865 0.88406199
0.016316965 0.18147701 0.88280833
0.022116719 0.18096761 0.88433343
-0.0059489114 0.083472356 0.88842571
-0.0042778519 0.084021516 0.88550013
-0.010892107 0.089031622 0.88618189
-0.0081393672 0.08743491 0.88672954
-0.0042912774 0.087591074 0.88827896
-0.010908537 0.092469335 0.88751858
-0.0085798772 0.092672952 0.88631952
-0.010926745 0.097583294 0.88900006
-0.0078099384 0.097672708 0.88792801
-0.010926745 0.10171758 0.88900006
-0.0065043098 0.10142019 0.88880563
-0.0034564845 0.10226467 0.88657475
-0.00097842945 0.11738718 0.88869232
0.001090624 0.11760309 0.88720536
0.0039860592 0.1204584 0.8869614
0.0056514358 0.1231769 0.88872004
0.0056560133 0.1257586 0.88944
0.0073108841 0.13395891 0.88896012
0.073349454 0.14498428 0.88560015
0.0089595076 0.14703545 0.88803834
0.066316679 0.14866002 0.88541681
0.072094828 0.14775525 0.88641006
0.075246714 0.14545906 0.88850003
0.010615252 0.15281093 0.88800007
0.057652697 0.15485112 0.88550001
0.062189721 0.15273722 0.88661325
0.067116387 0.15215908 0.88780814
0.07169918 0.15222207 0.88817352
0.010622027 0.15704051 0.88856667
0.052988056 0.15928772 0.88574433
0.056906864 0.15754242 0.8867386
0.06180495 0.15687668 0.88880819
0.06659086 0.15589127 0.88908333
0.071994171 0.15550983 0.88926661
0.0089664459 0.1628547 0.88872617
0.010624816 0.16204165 0.88879997
0.047293194 0.16423133 0.88633978
0.051953841 0.1625175 0.8868832
0.057007339 0.16195199 0.88830358
0.060394268 0.16049647 0.88939971
0.0089717312 0.16543198 0.88925004
0.011982444 0.1669627 0.88713688
0.038642853 0.16877617 0.88510019
0.041999612 0.16817296 0.88625705
0.047036041 0.16762519 0.88772207
0.052055374 0.16696888 0.88862216
0.056599457 0.16686741 0.88934284
0.013494598 0.17239881 0.88680571
0.033165142 0.17411904 0.8857556
0.037252821 0.1733515 0.88639152
0.042330664 0.17232554 0.88823795
0.046698909 0.17079876 0.88919997
0.050468255 0.17051266 0.88986665
0.012293994 0.17708813 0.8896364
0.028767753 0.17883664 0.8860001
0.03189116 0.17794473 0.8866874
0.037100323 0.17752434 0.88767749
0.041579597 0.17642123 0.88905555
0.013944939 0.18359926 0.88911122
0.017863348 0.18362668 0.88604802
0.022150708 0.18371904 0.88570005
0.027136836 0.1830983 0.88668126
0.032390628 0.18223716 0.88822836
0.037161935 0.18112753 0.88915557
0.013894306 0.18705252 0.88588262
0.01723603 0.18745054 0.88776654
0.022196198 0.18822373 0.88751829
0.027185515 0.18755619 0.88826656
0.031079685 0.18580453 0.8891111
0.013934004 0.19006574 0.88841373
0.017259227 0.19019115 0.889
0.022247544 0.19196957 0.88957781
0.02720274 0.19015785 0.88884443
-0.007634724 0.084619299 0.89180005
-0.0068065925 0.08714129 0.89215219
-0.0087436149 0.10230541 0.89171904
0.0006830481 0.10478419 0.89400005
-0.00098509877 0.10986531 0.89475
-0.00098266103 0.11374511 0.89253575
-0.0018151897 0.11742188 0.89209765
-0.00098452275 0.12227729 0.89422679
0.0026234575 0.12287334 0.89250857
0.0040178574 0.12640858 0.89403719
0.0056685312 0.12852436 0.89140844
0.0073522716 0.13804318 0.89399248
0.007357236 0.14229667 0.89459622
0.0081765372 0.14785615 0.8929987
0.0090144416 0.15375319 0.89348346
0.0085875224 0.15773448 0.892497
0.063812003 0.15909204 0.89080018
0.067441724 0.15837023 0.89046681
0.072125748 0.15792465 0.89088905
0.0081598498 0.16083394 0.89127004
0.062395915 0.16270988 0.89132512
0.067236081 0.16265208 0.89214092
0.072250016 0.16270266 0.89242053
0.058840096 0.16824093 0.8909834
0.062131993 0.16767727 0.89350033
0.066984057 0.16679363 0.89433366
0.070739545 0.16638383 0.89436692
0.012307312 0.17230985 0.89060009
0.047547676 0.17340399 0.89111358
0.052459266 0.17278405 0.89197099
0.057088938 0.17253466 0.89282942
0.06071113 0.17131741 0.89406699
0.043329667 0.17845576 0.89095575
0.047316436 0.17776135 0.89301133
0.051832113 0.17746238 0.89430022
0.057423308 0.17645147 0.89480031
0.037222397 0.18390433 0.89058918
0.041819993 0.18240115 0.89249086
0.014014236 0.18617375 0.89352942
0.032825027 0.18795486 0.89146137
0.037314173 0.18684971 0.89278364
0.041554473 0.18636896 0.894467
0.014026846 0.19299576 0.8943333
0.017308919 0.19323437 0.89159423
0.022269478 0.19381541 0.89045578
0.027298333 0.19330443 0.89191693
0.031902838 0.19141641 0.89278358
0.01778082 0.19675702 0.89441478
0.022579823 0.1972959 0.89335269
0.026243219 0.19676284 0.89381146
-0.006832731 0.10498194 0.8956871
-0.0043242304 0.10491312 0.8951
-0.0068417825 0.10761339 0.89678895
-0.0026571567 0.107513 0.89595711
0.00068457617 0.10835207 0.89600003
-0.0072074244 0.11165788 0.89769077
-0.0029362582 0.11279032 0.89594966
0.00068457617 0.1100188 0.89600003
-0.006424129 0.11681048 0.89695978
-0.0039101243 0.11748998 0.8957845
-0.0060149739 0.12116263 0.89829171
-0.0036634572 0.12212064 0.89673984
0.00068419683 0.12411752 0.89550364
-0.0021061976 0.12642805 0.89810807
0.0020205651 0.12770019 0.89609641
0.003366062 0.13167922 0.89822227
0.00570447 0.13267651 0.89706004
0.0034755135 0.13778253 0.8977223
0.0057001207 0.13757588 0.89637613
0.0031945093 0.14186773 0.89714658
0.0062565939 0.1434045 0.89632058
0.003366885 0.14676408 0.89851302
0.0061217579 0.14726174 0.89696282
0.0071460181 0.15252733 0.89815158
0.0063686399 0.15743706 0.89647943
0.005717061 0.16056369 0.89904016
0.064122446 0.1698567 0.89513361
0.067484535 0.16880552 0.89544463
0.072892152 0.16772912 0.89621842
0.076051265 0.16873023 0.89800006
0.059127323 0.17489114 0.89533371
0.062886596 0.17279369 0.89654672
0.067852452 0.17219287 0.89754176
0.072501101 0.17169841 0.89896184
0.053292647 0.17908847 0.89550006
0.057479717 0.17762204 0.8956669
0.06240987 0.17659177 0.89792871
0.066873804 0.17549995 0.89845026
0.044105638 0.18324587 0.89546674
0.047460198 0.18246758 0.89573336
0.052760094 0.18228115 0.89657152
0.057612002 0.1820395 0.89772606
0.061107229 0.18080515 0.89990026
0.036591779 0.18991594 0.8955
0.043129288 0.18735522 0.89600003
0.047512203 0.18683752 0.89671123
0.052413303 0.18695962 0.89830029
0.056867249 0.18568256 0.8992002
0.032428239 0.19387262 0.89582223
0.037720047 0.19233643 0.89679527
0.042557545 0.1921235 0.89802605
0.047596317 0.19134545 0.89830023
0.050997596 0.19070062 0.8992002
0.014056122 0.19506571 0.8962
0.016558237 0.19834299 0.89594299
0.021567008 0.19997025 0.89576662
0.027822204 0.19823405 0.89545006
0.03268484 0.19714329 0.89711678
0.036994975 0.19668685 0.89852804
0.040958241 0.19582747 0.89970022
0.018553397 0.20105968 0.898148
0.022784289 0.20273426 0.89767349
0.027669661 0.20218308 0.89726263
0.032534245 0.20146997 0.8987391
0.024138408 0.20552589 0.89820027
0.026380641 0.20615207 0.8985002
-0.0093938615 0.11398481 0.90100002
-0.0035184741 0.12843131 0.90240979
-0.0014154667 0.13232172 0.90317404
0.0011081538 0.13285543 0.90110201
-0.00099573529 0.13796967 0.90441084
0.0012492653 0.13702512 0.90188259
-0.00099515344 0.14125179 0.90388238
0.0011085493 0.14300627 0.90168726
0.0015324372 0.14878121 0.9036625
0.0040534609 0.15269856 0.90195948
0.0057240436 0.15238762 0.90013826
0.0040645041 0.15815918 0.9044168
0.0040501473 0.16095342 0.90122223
0.073486358 0.17372012 0.90077591
0.07630533 0.17096996 0.90100002
0.06368506 0.17930031 0.90075028
0.067949735 0.17807341 0.90160578
0.071951091 0.17686886 0.90258908
0.063139893 0.18310517 0.90195012
0.067821272 0.18211299 0.90362221
0.054480579 0.18947646 0.90133351
0.057871614 0.18817382 0.90178347
0.0619088 0.18711752 0.9034335
0.047751945 0.19448483 0.90123361
0.05283894 0.192692 0.90199453
0.057617925 0.19180354 0.90439999
0.074900113 0.19178669 0.90432233
0.014132833 0.19780646 0.90109086
0.038763311 0.19883268 0.90067798
0.042934179 0.19811648 0.90154606
0.047634576 0.19801435 0.90299165
0.052150242 0.19606355 0.90465003
0.017529793 0.20325013 0.90293461
0.02083903 0.20435448 0.90040022
0.032608803 0.20444524 0.90080041
0.037690066 0.20299047 0.90177792
0.042814579 0.20252496 0.90344435
0.047088787 0.20195335 0.90465003
0.019241344 0.20690653 0.90423334
0.022330821 0.20812806 0.90132523
0.028145155 0.20847511 0.90131688
0.032676309 0.20738439 0.90265006
0.037764449 0.20675401 0.90356666
0.041172221 0.20526235 0.90439999
0.022929754 0.21243155 0.90340674
0.027280396 0.21218523 0.90236008
0.031607401 0.2108237 0.90420002
0.02431578 0.21545164 0.90480006
0.026831651 0.21532464 0.90426672
-0.0032564653 0.13391133 0.90731639
-0.0038250268 0.13632675 0.90841603
0.00069320691 0.13840981 0.90729648
-0.0026933397 0.14250553 0.90757883
-0.00099928642 0.14521517 0.9076364
0.00069229293 0.1466549 0.90609998
0.0023812605 0.15249549 0.90574998
0.0040716198 0.15675074 0.90600014
0.07413663 0.17768031 0.90530008
0.069112614 0.18368234 0.90583348
0.072484575 0.1819808 0.9057501
0.064320259 0.1881599 0.9057557
0.068024658 0.18715854 0.90634465
0.071957588 0.18752557 0.90710026
0.075151347 0.18736465 0.90735573
0.059250738 0.19320707 0.90572232
0.062464554 0.19244514 0.90742254
0.066763505 0.19264144 0.90834838
0.071848907 0.19265273 0.90840024
0.053650301 0.19781183 0.90623349
0.058029987 0.19732416 0.90754199
0.06176167 0.19754469 0.9095335
0.066035986 0.19637665 0.90999991
0.015922477 0.20423444 0.90730792
0.048677642 0.20292017 0.90596008
0.05298686 0.20252092 0.90813357
0.057493716 0.20125572 0.90910006
0.017600743 0.20745401 0.90662497
0.037843298 0.20887309 0.90546674
0.043157179 0.20757349 0.90622514
0.04788363 0.20749329 0.90771693
0.051591214 0.20645764 0.90966666
0.018649338 0.21256518 0.90828687
0.020965552 0.21402065 0.90586692
0.029387923 0.21383952 0.90510005
0.033361569 0.212938 0.906039
0.037904032 0.2125816 0.90691131
0.042826001 0.21266562 0.90817112
0.046443664 0.2112705 0.90853369
0.019359088 0.21663441 0.90976661
0.022466207 0.21783312 0.9068293
0.027970487 0.21791272 0.90603346
0.032862097 0.217852 0.90778542
0.037657373 0.2171571 0.9091202
-0.0027042702 0.13909073 0.91176009
-0.002700533 0.14567335 0.91050005
0.062682703 0.19904722 0.91060007
0.067451328 0.19806497 0.91192496
0.072220042 0.19789244 0.91308349
0.075497366 0.19670755 0.9115333
0.057602264 0.20333004 0.91081661
0.062224921 0.20255211 0.91276205
0.067187406 0.2015153 0.91411138
0.070654735 0.20083044 0.91486704
0.016006578 0.20870659 0.91210026
0.049929399 0.20998804 0.91030002
0.052857596 0.20811872 0.912
0.056909785 0.20729066 0.91332984
0.060917381 0.20627032 0.91383344
0.016039629 0.21168807 0.91398346
0.044821467 0.21499719 0.91000003
0.048272036 0.21270332 0.91104996
0.052300759 0.21268997 0.91359061
0.056151789 0.21104155 0.91486704
0.018279137 0.21725281 0.91236669
0.07608819 0.19995573 0.9186666
0.067324169 0.20447965 0.91596675
0.072505176 0.20293602 0.91668576
0.076165475 0.20186959 0.91959989
0.062544413 0.20824221 0.91602689
0.067464434 0.20746799 0.91787761
0.072227105 0.20677494 0.9185915
0.016066246 0.21459359 0.9155001
0.057265971 0.21329394 0.91514313
0.067150876 0.21081614 0.91944999
0.071046062 0.21049897 0.91993332
0.076240018 0.2037794 0.92050004
0.073951237 0.20834585 0.92050004
0.076430529 0.20772366 0.92280012
