# .PCD v0.7 - Point Cloud Data file format
VERSION 0.7
FIELDS x y z
SIZE 4 4 4
TYPE F F F
COUNT 1 1 1
WIDTH 1326
HEIGHT 1
VIEWPOINT 0 0 0 1 0 0 0
POINTS 1326
DATA ascii
0.03553915 -0.010106392 0.17319715
0.035618901 -0.011891671 0.17498243
0.035563231 -0.010106392 0.17498243
0.035549313 -0.0083211064 0.17319715
0.035561934 -0.0065358281 0.17319715
0.035570428 -0.0083211064 0.17498243
0.03558743 -0.0065358281 0.17498243
0.035625204 -0.011891671 0.17676771
0.035557553 -0.010106392 0.17676771
0.035619244 -0.011891671 0.17855299
0.035520226 -0.010106392 0.17855299
0.035553604 -0.0083211064 0.17676771
0.03558965 -0.0065358281 0.17676771
0.035515949 -0.0083211064 0.17855299
0.035532594 -0.0065358281 0.17855299
0.035558015 -0.0047505498 0.17319715
0.035586074 -0.0029652715 0.17319715
0.03560631 -0.0047505498 0.17498243
0.035615787 -0.0029652715 0.17498243
0.035609394 -0.0011799857 0.17319715
0.03562288 0.00060529262 0.17319715
0.035618007 -0.0011799857 0.17498243
0.035637677 0.00060529262 0.17498243
0.035603464 -0.0047505498 0.17676771
0.035629436 -0.0029652715 0.17676771
0.035553634 -0.0047505498 0.17855299
0.035577759 -0.0029652715 0.17855299
0.035626739 -0.0011799857 0.17676771
0.035626501 0.00060529262 0.17676771
0.035567433 -0.0011799857 0.17855299
0.035567507 0.00060529262 0.17855299
0.035514176 -0.011891671 0.18033826
0.035393849 -0.010106392 0.18033826
0.0351412 -0.011891671 0.18212354
0.035148472 -0.011989534 0.18212354
0.035148472 -0.011891671 0.18209784
0.035053745 -0.010106392 0.18212354
0.035148472 -0.010106392 0.18176827
0.035396025 -0.0083211064 0.18033826
0.035406485 -0.0065358281 0.18033826
0.035055876 -0.0083211064 0.18212354
0.035148472 -0.0083211064 0.18177648
0.035073608 -0.0065358281 0.18212354
0.035148472 -0.0065358281 0.18184792
0.034496367 -0.011891671 0.18390882
0.03445445 -0.010106392 0.18390882
0.033587098 -0.011891671 0.18569411
0.033555463 -0.010106392 0.18569411
0.034479722 -0.0083211064 0.18390882
0.034508273 -0.0065358281 0.18390882
0.033603549 -0.0083211064 0.18569411
0.033670917 -0.0065358281 0.18569411
0.035416186 -0.0047505498 0.18033826
0.035397127 -0.0029652715 0.18033826
0.035080984 -0.0047505498 0.18212354
0.035148472 -0.0047505498 0.18183553
0.035052001 -0.0029652715 0.18212354
0.035148472 -0.0029652715 0.18170182
0.035387456 -0.0011799857 0.18033826
0.03538157 0.00060529262 0.18033826
0.035084799 -0.0011799857 0.18212354
0.035148472 -0.0011799857 0.18178938
0.035108969 0.00060529262 0.18212354
0.035148472 0.00060529262 0.18184793
0.034567043 -0.0047505498 0.18390882
0.03457132 -0.0029652715 0.18390882
0.033778727 -0.0047505498 0.18569411
0.033841163 -0.0029652715 0.18569411
0.034594417 -0.0011799857 0.18390882
0.034651101 0.00060529262 0.18390882
0.033838332 -0.0011799857 0.18569411
0.033850357 0.00060529262 0.18569411
0.0030134246 -0.031779297 0.18747939
0.0047987103 -0.031727366 0.18747939
0.0030134246 -0.031529754 0.1878327
0.0047987103 -0.031529754 0.18774047
0.0065839887 -0.031642772 0.18747939
0.008369267 -0.031553581 0.18747939
0.0065839887 -0.031529754 0.18762669
0.008369267 -0.031529754 0.18751085
0.0030134246 -0.030193284 0.18926467
0.0047987103 -0.030021027 0.18926467
0.0065839887 -0.029906832 0.18926467
0.008369267 -0.029833756 0.18926467
0.0030134246 -0.029744476 0.18965296
0.0047987103 -0.029744476 0.18948448
0.0030134246 -0.027959198 0.19086641
0.0047987103 -0.027959198 0.19069341
0.0065839887 -0.029744476 0.18939216
0.008369267 -0.029744476 0.1893369
0.0065839887 -0.027959198 0.19061168
0.008369267 -0.027959198 0.1905403
0.010154545 -0.031562239 0.18747939
0.011939831 -0.031638436 0.18747939
0.010154545 -0.031529754 0.18752113
0.011939831 -0.031529754 0.18761669
0.013725117 -0.03174977 0.18747939
0.015510395 -0.031915799 0.18747939
0.013725117 -0.031529754 0.18775143
0.015510395 -0.031529754 0.18793334
0.010154545 -0.029811576 0.18926467
0.011939831 -0.029852182 0.18926467
0.013725117 -0.029929973 0.18926467
0.015510395 -0.03008493 0.18926467
0.010154545 -0.029744476 0.18931794
0.011939831 -0.029744476 0.18934411
0.010154545 -0.027959198 0.19049145
0.011939831 -0.027959198 0.19047625
0.013725117 -0.029744476 0.18939535
0.015510395 -0.029744476 0.18948948
0.013725117 -0.027959198 0.19044688
0.015510395 -0.027959198 0.19045614
0.019080952 -0.03331504 0.18607011
0.017295673 -0.032146953 0.18747939
0.019080952 -0.032373257 0.18747939
0.017295673 -0.031529754 0.18819819
0.019080952 -0.031529754 0.18839499
0.02086623 -0.03331504 0.18622756
0.022651508 -0.03331504 0.18624555
0.02086623 -0.032425918 0.18747939
0.022651508 -0.032456748 0.18747939
0.02086623 -0.031529754 0.18841386
0.022651508 -0.031529754 0.18843402
0.017295673 -0.030353703 0.18926467
0.019080952 -0.03049615 0.18926467
0.02086623 -0.030495062 0.18926467
0.022651508 -0.03052564 0.18926467
0.017295673 -0.029744476 0.18965741
0.019080952 -0.029744476 0.18975419
0.017295673 -0.027959198 0.19052163
0.019080952 -0.027959198 0.19057089
0.02086623 -0.029744476 0.1897537
0.022651508 -0.029744476 0.18976849
0.02086623 -0.027959198 0.19056916
0.022651508 -0.027959198 0.19052549
0.024436787 -0.03331504 0.18611605
0.02622208 -0.03331504 0.18577971
0.024436787 -0.032399513 0.18747939
0.02622208 -0.032104291 0.18747939
0.024436787 -0.031529754 0.18838286
0.02622208 -0.031529754 0.1880922
0.028007358 -0.031559378 0.18747939
0.028074592 -0.031529754 0.18747939
0.029792637 -0.031529754 0.18640688
0.028007358 -0.031529754 0.18750821
0.024436787 -0.030437715 0.18926467
0.02622208 -0.029942624 0.18926467
0.029792637 -0.030382447 0.18747939
0.026677012 -0.029744476 0.18926467
0.028007358 -0.029744476 0.18887527
0.029792637 -0.029744476 0.18794541
0.028007358 -0.029052533 0.18926467
0.029184818 -0.027959198 0.18926467
0.029792637 -0.027959198 0.18891311
0.024436787 -0.029744476 0.18966939
0.02622208 -0.029744476 0.18937492
0.024436787 -0.027959198 0.19043306
0.02622208 -0.027959198 0.19017197
0.028007358 -0.027959198 0.1897302
0.030409575 -0.029744476 0.18747939
0.031577915 -0.029744476 0.18640924
0.031577915 -0.028027616 0.18747939
0.031609505 -0.027959198 0.18747939
0.031577915 -0.027959198 0.18750885
0.0030134246 -0.027575299 0.19104995
0.0047987103 -0.027236708 0.19104995
0.0030134246 -0.026173912 0.19165093
0.0047987103 -0.026173912 0.19150032
0.0030134246 -0.024388634 0.19222699
0.0047987103 -0.024388634 0.19212051
0.0065839887 -0.027111076 0.19104995
0.008369267 -0.026918262 0.19104995
0.0065839887 -0.026173912 0.19143812
0.008369267 -0.026173912 0.19135244
0.0065839887 -0.024388634 0.19203502
0.008369267 -0.024388634 0.19194281
0.0030134246 -0.022603355 0.19263136
0.0047987103 -0.022603355 0.19252485
0.0030134246 -0.021483853 0.19283523
0.0044777915 -0.020818077 0.19283523
0.0047987103 -0.020818077 0.19281058
0.0065839887 -0.022603355 0.19244477
0.008369267 -0.022603355 0.1923576
0.0065839887 -0.020818077 0.19271448
0.008369267 -0.020818077 0.19261612
0.010154545 -0.026789755 0.19104995
0.011939831 -0.026742019 0.19104995
0.010154545 -0.026173912 0.19128658
0.011939831 -0.026173912 0.19126168
0.010154545 -0.024388634 0.19186018
0.011939831 -0.024388634 0.19180708
0.013725117 -0.026595235 0.19104995
0.015510395 -0.026597477 0.19104995
0.013725117 -0.026173912 0.19120106
0.015510395 -0.026173912 0.1911943
0.013725117 -0.024388634 0.19172435
0.015510395 -0.024388634 0.19168504
0.010154545 -0.022603355 0.19227764
0.011939831 -0.022603355 0.19221447
0.010154545 -0.020818077 0.19251965
0.011939831 -0.020818077 0.1924479
0.013725117 -0.022603355 0.19214305
0.015510395 -0.022603355 0.19209599
0.013725117 -0.020818077 0.19239192
0.015510395 -0.020818077 0.19234717
0.0047987103 -0.02065663 0.19283523
0.0065839887 -0.019659929 0.19283523
0.013725117 -0.019032791 0.19251701
0.015510395 -0.019032791 0.19244495
0.013725117 -0.017247513 0.19256756
0.015510395 -0.017247513 0.19248612
0.013725117 -0.015462235 0.19254577
0.015510395 -0.015462235 0.19246988
0.013725117 -0.013676949 0.19249913
0.015510395 -0.013676949 0.19242412
0.0030134246 -0.020818077 0.19294253
0.017295673 -0.026604496 0.19104995
0.019080952 -0.026663333 0.19104995
0.017295673 -0.026173912 0.19120212
0.019080952 -0.026173912 0.19121909
0.017295673 -0.024388634 0.19168487
0.019080952 -0.024388634 0.1916628
0.02086623 -0.026492476 0.19104995
0.022651508 -0.026274778 0.19104995
0.02086623 -0.026173912 0.19115905
0.022651508 -0.026173912 0.19108842
0.02086623 -0.024388634 0.19161515
0.022651508 -0.024388634 0.19152632
0.017295673 -0.022603355 0.19201955
0.019080952 -0.022603355 0.19191472
0.017295673 -0.020818077 0.19222724
0.019080952 -0.020818077 0.19209865
0.02086623 -0.022603355 0.19185825
0.022651508 -0.022603355 0.19174363
0.02086623 -0.020818077 0.19198453
0.022651508 -0.020818077 0.19181825
0.029792637 -0.026651971 0.18926467
0.023628607 -0.026173912 0.19104995
0.024436787 -0.026173912 0.19095159
0.02622208 -0.026173912 0.19063519
0.024436787 -0.025676318 0.19104995
0.025631055 -0.024388634 0.19104995
0.02622208 -0.024388634 0.19091588
0.024436787 -0.024388634 0.19129723
0.028007358 -0.026173912 0.19016548
0.029792637 -0.026173912 0.18933608
0.028007358 -0.024388634 0.1903962
0.029792637 -0.024388634 0.18956612
0.02622208 -0.023240462 0.19104995
0.024436787 -0.022603355 0.19150467
0.02622208 -0.022603355 0.19107834
0.024436787 -0.020818077 0.19151294
0.02622208 -0.020818077 0.19109955
0.026310951 -0.022603355 0.19104995
0.028007358 -0.022603355 0.1905331
0.029792637 -0.022603355 0.18977328
0.026435629 -0.020818077 0.19104995
0.028007358 -0.020818077 0.19061655
0.029792637 -0.020818077 0.18985043
0.017295673 -0.019032791 0.19233893
0.019080952 -0.019032791 0.19219744
0.017295673 -0.017247513 0.19237033
0.019080952 -0.017247513 0.19220582
0.02086623 -0.019032791 0.19199762
0.022651508 -0.019032791 0.19175261
0.02086623 -0.017247513 0.19199969
0.022651508 -0.017247513 0.19174401
0.017295673 -0.015462235 0.1923323
0.019080952 -0.015462235 0.19219597
0.017295673 -0.013676949 0.19230956
0.019080952 -0.013676949 0.19216773
0.02086623 -0.015462235 0.19201557
0.022651508 -0.015462235 0.19173115
0.02086623 -0.013676949 0.19201128
0.022651508 -0.013676949 0.19174594
0.026195064 -0.017247513 0.19104995
0.02622208 -0.018888123 0.19104995
0.02622208 -0.017247513 0.19104195
0.024436787 -0.019032791 0.19146337
0.02622208 -0.019032791 0.19105631
0.024436787 -0.017247513 0.19146587
0.026247144 -0.019032791 0.19104995
0.028007358 -0.019032791 0.19055562
0.029792637 -0.019032791 0.18980505
0.028007358 -0.017247513 0.19049264
0.029792637 -0.017247513 0.18969706
0.026162192 -0.015462235 0.19104995
0.02622208 -0.015462235 0.19103035
0.025986373 -0.013676949 0.19104995
0.02622208 -0.013676949 0.19097936
0.024436787 -0.015462235 0.19146365
0.024436787 -0.013676949 0.19142283
0.028007358 -0.015462235 0.19045055
0.029792637 -0.015462235 0.18963541
0.028007358 -0.013676949 0.19038798
0.029792637 -0.013676949 0.18956891
0.011939831 -0.011891671 0.19248977
0.013725117 -0.011891671 0.19243474
0.015510395 -0.011891671 0.19237643
0.013725117 -0.010106392 0.19236757
0.015510395 -0.010106392 0.19232596
0.013725117 -0.0083211064 0.19229209
0.015510395 -0.0083211064 0.19226119
0.013725117 -0.0065358281 0.19222374
0.015510395 -0.0065358281 0.19221857
0.0030134246 -0.0029652715 0.19194053
0.0047987103 -0.0029652715 0.19192111
0.0065839887 -0.0029652715 0.19191763
0.008369267 -0.0029652715 0.19196218
0.0030134246 -0.0011799857 0.1918533
0.0047987103 -0.0011799857 0.19184406
0.0030134246 0.00060529262 0.19181436
0.0047987103 0.00060529262 0.19179592
0.0065839887 -0.0011799857 0.19186282
0.008369267 -0.0011799857 0.19189779
0.0065839887 0.00060529262 0.19183549
0.010154545 -0.0029652715 0.19202852
0.011939831 -0.0029652715 0.1920986
0.013725117 -0.0047505498 0.19218956
0.015510395 -0.0047505498 0.19221404
0.013725117 -0.0029652715 0.1921652
0.015510395 -0.0029652715 0.19220412
0.017295673 -0.011891671 0.19227579
0.019080952 -0.011891671 0.19213371
0.017295673 -0.010106392 0.19224161
0.019080952 -0.010106392 0.19213381
0.02086623 -0.011891671 0.19198501
0.022651508 -0.011891671 0.19176377
0.02086623 -0.010106392 0.19198664
0.022651508 -0.010106392 0.19176336
0.017295673 -0.0083211064 0.1922151
0.019080952 -0.0083211064 0.19212559
0.017295673 -0.0065358281 0.19217606
0.019080952 -0.0065358281 0.19211875
0.02086623 -0.0083211064 0.19198582
0.022651508 -0.0083211064 0.19181153
0.02086623 -0.0065358281 0.19205716
0.022651508 -0.0065358281 0.19191065
0.025995433 -0.011891671 0.19104995
0.02622208 -0.011891671 0.19097732
0.02590929 -0.010106392 0.19104995
0.02622208 -0.010106392 0.19094689
0.024436787 -0.011891671 0.19144952
0.024436787 -0.010106392 0.19144411
0.028007358 -0.011891671 0.19036566
0.029792637 -0.011891671 0.18951704
0.028007358 -0.010106392 0.19033515
0.029792637 -0.010106392 0.18950698
0.026148051 -0.0083211064 0.19104995
0.02622208 -0.0083211064 0.19102685
0.02622208 -0.0081193596 0.19104995
0.024436787 -0.0083211064 0.19151439
0.024436787 -0.0065358281 0.19165948
0.02622208 -0.0065358281 0.19121516
0.028007358 -0.0083211064 0.1903791
0.029792637 -0.0083211064 0.18950868
0.026706934 -0.0065358281 0.19104995
0.028007358 -0.0065358281 0.19051355
0.029792637 -0.0065358281 0.1895622
0.017295673 -0.0047505498 0.19217402
0.019080952 -0.0047505498 0.19216298
0.017295673 -0.0029652715 0.19220294
0.019080952 -0.0029652715 0.192187
0.02086623 -0.0047505498 0.19211476
0.022651508 -0.0047505498 0.19196247
0.02086623 -0.0029652715 0.19213279
0.022651508 -0.0029652715 0.19201283
0.017295673 -0.0011799857 0.19224274
0.019080952 -0.0011799857 0.19222265
0.017295673 0.00060529262 0.19235563
0.019080952 0.00060529262 0.19234158
0.02086623 -0.0011799857 0.19217873
0.022651508 -0.0011799857 0.192058
0.02086623 0.00060529262 0.19226101
0.022651508 0.00060529262 0.19214204
0.024436787 -0.0047505498 0.19173019
0.02622208 -0.0047505498 0.19130532
0.024436787 -0.0029652715 0.19182317
0.02622208 -0.0029652715 0.19138938
0.026981026 -0.0047505498 0.19104995
0.028007358 -0.0047505498 0.19061643
0.029792637 -0.0047505498 0.18965386
0.027187496 -0.0029652715 0.19104995
0.028007358 -0.0029652715 0.19072686
0.029792637 -0.0029652715 0.18977535
0.024436787 -0.0011799857 0.19187719
0.02622208 -0.0011799857 0.19146572
0.024436787 0.00060529262 0.19194399
0.02622208 0.00060529262 0.19152682
0.027402639 -0.0011799857 0.19104995
0.028007358 -0.0011799857 0.19081329
0.029792637 -0.0011799857 0.18985605
0.027550906 0.00060529262 0.19104995
0.028007358 0.00060529262 0.19086045
0.029792637 0.00060529262 0.18992507
0.032183275 -0.026173912 0.18747939
0.033363193 -0.026173912 0.18598771
0.032533169 -0.024388634 0.18747939
0.033363193 -0.024388634 0.18641952
0.029913738 -0.026173912 0.18926467
0.031577915 -0.026173912 0.18807733
0.030316502 -0.024388634 0.18926467
0.031577915 -0.024388634 0.18839884
0.032689676 -0.022603355 0.18747939
0.033363193 -0.022603355 0.18669616
0.032745332 -0.020818077 0.18747939
0.033363193 -0.020818077 0.18679164
0.030623049 -0.022603355 0.18926467
0.031577915 -0.022603355 0.18853213
0.030716568 -0.020818077 0.18926467
0.031577915 -0.020818077 0.18857583
0.032718211 -0.019032791 0.18747939
0.033363193 -0.019032791 0.1867236
0.032613903 -0.017247513 0.18747939
0.033363193 -0.017247513 0.1865911
0.030673191 -0.019032791 0.18926467
0.031577915 -0.019032791 0.18857734
0.030513063 -0.017247513 0.18926467
0.031577915 -0.017247513 0.18846442
0.032440796 -0.015462235 0.18747939
0.033363193 -0.015462235 0.18640517
0.032315835 -0.013676949 0.18747939
0.033363193 -0.013676949 0.18623275
0.030391842 -0.015462235 0.18926467
0.031577915 -0.015462235 0.18830717
0.030310825 -0.013676949 0.18926467
0.031577915 -0.013676949 0.18821983
0.032263279 -0.011891671 0.18747939
0.033363193 -0.011891671 0.18606487
0.03221786 -0.010106392 0.18747939
0.033363193 -0.010106392 0.18599528
0.030208066 -0.011891671 0.18926467
0.031577915 -0.011891671 0.18817365
0.030187234 -0.010106392 0.18926467
0.031577915 -0.010106392 0.18814871
0.032260343 -0.0083211064 0.18747939
0.033363193 -0.0083211064 0.18607529
0.032338604 -0.0065358281 0.18747939
0.033363193 -0.0065358281 0.18618436
0.03019309 -0.0083211064 0.18926467
0.031577915 -0.0083211064 0.18816701
0.030268699 -0.0065358281 0.18926467
0.031577915 -0.0065358281 0.18823436
0.032476053 -0.0047505498 0.18747939
0.033363193 -0.0047505498 0.18637984
0.032567844 -0.0029652715 0.18747939
0.033363193 -0.0029652715 0.18650588
0.030421332 -0.0047505498 0.18926467
0.031577915 -0.0047505498 0.18835743
0.030560628 -0.0029652715 0.18926467
0.031577915 -0.0029652715 0.18845147
0.032616913 -0.0011799857 0.18747939
0.033363193 -0.0011799857 0.18652739
0.032641605 0.00060529262 0.18747939
0.033363193 0.00060529262 0.18654059
0.030654311 -0.0011799857 0.18926467
0.031577915 -0.0011799857 0.18852477
0.030768394 0.00060529262 0.18926467
0.031577915 0.00060529262 0.1885837
-0.033347592 0.0023905709 0.10178592
-0.033222243 0.0041758567 0.10178592
-0.033376522 0.0023905709 0.10357121
-0.033238113 0.0041758567 0.10357121
-0.033093341 0.005961135 0.10178592
-0.032950714 0.0077464134 0.10178592
-0.033081368 0.005961135 0.10357121
-0.032936133 0.0077464134 0.10357121
-0.033384822 0.0023905709 0.10535648
-0.033228129 0.0041758567 0.10535648
-0.033365063 0.0023905709 0.10714176
-0.033213265 0.0041758567 0.10714176
-0.033057719 0.005961135 0.10535648
-0.032911979 0.0077464134 0.10535648
-0.033031695 0.005961135 0.10714176
-0.032874092 0.0077464134 0.10714176
-0.032806553 0.0095316917 0.10178592
-0.032692187 0.011270106 0.10178592
-0.032692187 0.011316977 0.10112856
-0.032689691 0.011316977 0.10178592
-0.032790475 0.0095316917 0.10357121
-0.032692187 0.010999642 0.10357121
-0.032674223 0.011316977 0.10357121
-0.032607086 0.013102263 0.10178592
-0.032557473 0.014887542 0.10178592
-0.032590747 0.013102263 0.10357121
-0.032550924 0.014887542 0.10357121
-0.032770105 0.0095316917 0.10535648
-0.032692187 0.010691069 0.10535648
-0.0326555 0.011316977 0.10535648
-0.032736093 0.0095316917 0.10714176
-0.032692187 0.010259062 0.10714176
-0.03263589 0.011316977 0.10714176
-0.032576464 0.013102263 0.10535648
-0.032548212 0.014887542 0.10535648
-0.032567658 0.013102263 0.10714176
-0.032551341 0.014887542 0.10714176
-0.033324599 0.0023905709 0.10892704
-0.033173405 0.0041758567 0.10892704
-0.03327442 0.0023905709 0.11071233
-0.033107527 0.0041758567 0.11071233
-0.032986283 0.005961135 0.10892704
-0.032831594 0.0077464134 0.10892704
-0.032933876 0.005961135 0.11071233
-0.032800421 0.0077464134 0.11071233
-0.033226356 0.0023905709 0.11249761
-0.033077076 0.0041758567 0.11249761
-0.033175051 0.0023905709 0.11428289
-0.03304369 0.0041758567 0.11428289
-0.032914802 0.005961135 0.11249761
-0.032786578 0.0077464134 0.11249761
-0.032905623 0.005961135 0.11428289
-0.032775149 0.0077464134 0.11428289
-0.032706313 0.0095316917 0.10892704
-0.032692187 0.0097788423 0.10892704
-0.032616124 0.011316977 0.10892704
-0.032692187 0.0093621314 0.11071233
-0.032692187 0.0095316917 0.11020657
-0.032682866 0.0095316917 0.11071233
-0.032603547 0.011316977 0.11071233
-0.032561891 0.013102263 0.10892704
-0.032558054 0.014887542 0.10892704
-0.032561898 0.013102263 0.11071233
-0.032569997 0.014887542 0.11071233
-0.032692187 0.0090984777 0.11249761
-0.032668121 0.0095316917 0.11249761
-0.032600366 0.011316977 0.11249761
-0.032692187 0.009218432 0.11428289
-0.032676212 0.0095316917 0.11428289
-0.032610759 0.011316977 0.11428289
-0.032569453 0.013102263 0.11249761
-0.032582305 0.014887542 0.11249761
-0.03258004 0.013102263 0.11428289
-0.032599136 0.014887542 0.11428289
-0.032601051 0.01667282 0.10178592
-0.03265693 0.018458098 0.10178592
-0.032597288 0.01667282 0.10357121
-0.032668889 0.018458098 0.10357121
-0.032746904 0.020243376 0.10178592
-0.032692187 0.019539461 0.10178592
-0.032881401 0.022028655 0.10178592
-0.032769337 0.020243376 0.10357121
-0.032692187 0.019086301 0.10357121
-0.032908238 0.022028655 0.10357121
-0.032595672 0.01667282 0.10535648
-0.032672107 0.018458098 0.10535648
-0.032593511 0.01667282 0.10714176
-0.032658622 0.018458098 0.10714176
-0.032785863 0.020243376 0.10535648
-0.032692187 0.018917829 0.10535648
-0.03291177 0.022028655 0.10535648
-0.032760277 0.020243376 0.10714176
-0.032692187 0.019212559 0.10714176
-0.0329009 0.022028655 0.10714176
-0.03286662 0.023813933 0.10178592
-0.032703005 0.025599226 0.10178592
-0.032692187 0.025599226 0.1014519
-0.032896802 0.023813933 0.10357121
-0.032773331 0.025599226 0.10357121
-0.032692187 0.025691569 0.10178592
-0.03246595 0.027384505 0.10178592
-0.032027841 0.029169783 0.10178592
-0.032692187 0.026582137 0.10357121
-0.032587349 0.027384505 0.10357121
-0.032090925 0.029169783 0.10357121
-0.03290803 0.023813933 0.10535648
-0.032816999 0.025599226 0.10535648
-0.032968663 0.023813933 0.10714176
-0.032886274 0.025599226 0.10714176
-0.032692187 0.026934817 0.10535648
-0.03262683 0.027384505 0.10535648
-0.032145225 0.029169783 0.10535648
-0.032692187 0.026990324 0.10714176
-0.032606371 0.027384505 0.10714176
-0.032121368 0.029169783 0.10714176
-0.032603301 0.01667282 0.10892704
-0.032658145 0.018458098 0.10892704
-0.032605596 0.01667282 0.11071233
-0.032663085 0.018458098 0.11071233
-0.032758027 0.020243376 0.10892704
-0.032692187 0.019303024 0.10892704
-0.032889061 0.022028655 0.10892704
-0.032773189 0.020243376 0.11071233
-0.032692187 0.019032016 0.11071233
-0.032878742 0.022028655 0.11071233
-0.032631196 0.01667282 0.11249761
-0.032683238 0.018458098 0.11249761
-0.032659099 0.01667282 0.11428289
-0.032703072 0.018458098 0.11428289
-0.032692187 0.017908484 0.11428289
-0.032692187 0.018458098 0.11295556
-0.032780975 0.020243376 0.11249761
-0.032692187 0.01872322 0.11249761
-0.032876477 0.022028655 0.11249761
-0.032786742 0.020243376 0.11428289
-0.032875404 0.022028655 0.11428289
-0.032959729 0.023813933 0.10892704
-0.032922968 0.025599226 0.10892704
-0.032924704 0.023813933 0.11071233
-0.032882214 0.025599226 0.11071233
-0.032692187 0.027316213 0.10892704
-0.032677583 0.027384505 0.10892704
-0.032186225 0.029169783 0.10892704
-0.032692187 0.027279198 0.11071233
-0.032674767 0.027384505 0.11071233
-0.032246806 0.029169783 0.11071233
-0.032887824 0.023813933 0.11249761
-0.03283073 0.025599226 0.11249761
-0.032842442 0.023813933 0.11428289
-0.032762259 0.025599226 0.11428289
-0.032692187 0.026931033 0.11249761
-0.032615453 0.027384505 0.11249761
-0.032225929 0.029169783 0.11249761
-0.032692187 0.026600569 0.11428289
-0.032591835 0.027384505 0.11428289
-0.032248579 0.029169783 0.11428289
-0.033154622 0.0023905709 0.11606817
-0.033038065 0.0041758567 0.11606817
-0.033166535 0.0023905709 0.11785345
-0.033066675 0.0041758567 0.11785345
-0.032918699 0.005961135 0.11606817
-0.032788835 0.0077464134 0.11606817
-0.032961346 0.005961135 0.11785345
-0.032834992 0.0077464134 0.11785345
-0.033209816 0.0023905709 0.11963873
-0.033113584 0.0041758567 0.11963873
-0.033288568 0.0023905709 0.121424
-0.033208795 0.0041758567 0.121424
-0.033018947 0.005961135 0.11963873
-0.032909155 0.0077464134 0.11963873
-0.033134967 0.005961135 0.121424
-0.033016995 0.0077464134 0.121424
-0.032692187 0.0095096827 0.11606817
-0.032691233 0.0095316917 0.11606817
-0.032630973 0.011316977 0.11606817
-0.032733411 0.0095316917 0.11785345
-0.032692187 0.0095316917 0.11612955
-0.032692187 0.010630116 0.11785345
-0.032672755 0.011316977 0.11785345
-0.032599978 0.013102263 0.11606817
-0.032622509 0.014887542 0.11606817
-0.032636464 0.013102263 0.11785345
-0.032651462 0.014887542 0.11785345
-0.032806002 0.0095316917 0.11963873
-0.032730959 0.011316977 0.11963873
-0.032692187 0.011316977 0.11850521
-0.032904029 0.0095316917 0.121424
-0.032831989 0.011316977 0.121424
-0.032699212 0.013102263 0.11963873
-0.032692187 0.013102263 0.1194842
-0.032711729 0.014887542 0.11963873
-0.032692187 0.014887542 0.11920807
-0.032793611 0.013102263 0.121424
-0.032799929 0.014887542 0.121424
-0.033398382 0.0023905709 0.12320928
-0.033333607 0.0041758567 0.12320928
-0.033479594 0.0023905709 0.12499458
-0.03342025 0.0041758567 0.12499458
-0.033256598 0.005961135 0.12320928
-0.033126459 0.0077464134 0.12320928
-0.033346288 0.005961135 0.12499458
-0.033249319 0.0077464134 0.12499458
-0.03354498 0.0023905709 0.12677985
-0.03348995 0.0041758567 0.12677985
-0.033605903 0.0023905709 0.12856513
-0.03353411 0.0041758567 0.12856513
-0.033420317 0.005961135 0.12677985
-0.033334099 0.0077464134 0.12677985
-0.03346087 0.005961135 0.12856513
-0.033390671 0.0077464134 0.12856513
-0.033023022 0.0095316917 0.12320928
-0.032957837 0.011316977 0.12320928
-0.033147186 0.0095316917 0.12499458
-0.033069655 0.011316977 0.12499458
-0.032903232 0.013102263 0.12320928
-0.032906406 0.014887542 0.12320928
-0.0330128 0.013102263 0.12499458
-0.033011496 0.014887542 0.12499458
-0.033236712 0.0095316917 0.12677985
-0.033166632 0.011316977 0.12677985
-0.033306219 0.0095316917 0.12856513
-0.033243552 0.011316977 0.12856513
-0.03311231 0.013102263 0.12677985
-0.033088602 0.014887542 0.12677985
-0.033189416 0.013102263 0.12856513
-0.033159293 0.014887542 0.12856513
-0.032688573 0.01667282 0.11606817
-0.032732673 0.018458098 0.11606817
-0.032692187 0.016774982 0.11606817
-0.032714583 0.01667282 0.11785345
-0.032692187 0.016085044 0.11785345
-0.032692187 0.01667282 0.11618163
-0.032766595 0.018458098 0.11785345
-0.032798655 0.020243376 0.11606817
-0.032839753 0.022028655 0.11606817
-0.032837026 0.020243376 0.11785345
-0.032842696 0.022028655 0.11785345
-0.032758415 0.01667282 0.11963873
-0.032799862 0.018458098 0.11963873
-0.032837696 0.01667282 0.121424
-0.032859519 0.018458098 0.121424
-0.032868795 0.020243376 0.11963873
-0.032885924 0.022028655 0.11963873
-0.032934979 0.020243376 0.121424
-0.032911278 0.022028655 0.121424
-0.032767385 0.023813933 0.11606817
-0.032692187 0.025510177 0.11606817
-0.032692187 0.025599226 0.11600004
-0.032688349 0.025599226 0.11606817
-0.032733105 0.023813933 0.11785345
-0.032692187 0.024606034 0.11785345
-0.032642111 0.025599226 0.11785345
-0.032549679 0.027384505 0.11606817
-0.032254338 0.029169783 0.11606817
-0.032551989 0.027384505 0.11785345
-0.032257453 0.029169783 0.11785345
-0.032789379 0.023813933 0.11963873
-0.032692276 0.025599226 0.11963873
-0.032692187 0.025599226 0.11963682
-0.032775722 0.023813933 0.121424
-0.032692187 0.025394142 0.121424
-0.032692187 0.025599226 0.1211115
-0.032667801 0.025599226 0.121424
-0.032692187 0.025600433 0.11963873
-0.032481559 0.027384505 0.11963873
-0.03207057 0.029169783 0.11963873
-0.032386936 0.027384505 0.121424
-0.03197214 0.029169783 0.121424
-0.032925263 0.01667282 0.12320928
-0.032955065 0.018458098 0.12320928
-0.033016026 0.01667282 0.12499458
-0.033026382 0.018458098 0.12499458
-0.033021629 0.020243376 0.12320928
-0.032999173 0.022028655 0.12320928
-0.033084475 0.020243376 0.12499458
-0.033101723 0.022028655 0.12499458
-0.033081762 0.01667282 0.12677985
-0.033089623 0.018458098 0.12677985
-0.033168465 0.01667282 0.12856513
-0.033185594 0.018458098 0.12856513
-0.033157885 0.020243376 0.12677985
-0.033194013 0.022028655 0.12677985
-0.033230677 0.020243376 0.12856513
-0.033244476 0.022028655 0.12856513
-0.032891609 0.023813933 0.12320928
-0.032746956 0.025599226 0.12320928
-0.032692187 0.025599226 0.12269743
-0.033048019 0.023813933 0.12499458
-0.032893524 0.025599226 0.12499458
-0.032692187 0.025940895 0.12320928
-0.032389387 0.027384505 0.12320928
-0.031912453 0.029169783 0.12320928
-0.032692187 0.026535243 0.12499458
-0.032441221 0.027384505 0.12499458
-0.031890027 0.029169783 0.12499458
-0.03312061 0.023813933 0.12677985
-0.032902747 0.025599226 0.12677985
-0.033148184 0.023813933 0.12856513
-0.032913573 0.025599226 0.12856513
-0.032692187 0.02654624 0.12677985
-0.032457657 0.027384505 0.12677985
-0.031896956 0.029169783 0.12677985
-0.032692187 0.026550561 0.12856513
-0.032431804 0.027384505 0.12856513
-0.031905003 0.029169783 0.12856513
-0.031073667 0.030955061 0.10178592
-0.030906901 0.031167597 0.10178592
-0.031173125 0.030955061 0.10357121
-0.030906901 0.031317696 0.10357121
-0.029247493 0.03274034 0.10178592
-0.029360384 0.03274034 0.10357121
-0.029121622 0.03282164 0.10178592
-0.027336344 0.033659413 0.10178592
-0.029121622 0.032903716 0.10357121
-0.027336344 0.033718765 0.10357121
-0.031217158 0.030955061 0.10535648
-0.030906901 0.031363592 0.10535648
-0.031252779 0.030955061 0.10714176
-0.030906901 0.03139928 0.10714176
-0.029418431 0.03274034 0.10535648
-0.02943363 0.03274034 0.10714176
-0.029121622 0.032937244 0.10535648
-0.027336344 0.033710152 0.10535648
-0.029121622 0.032955974 0.10714176
-0.027336344 0.033841744 0.10714176
-0.031294055 0.030955061 0.10892704
-0.030906901 0.031450078 0.10892704
-0.031387404 0.030955061 0.11071233
-0.030906901 0.031569898 0.11071233
-0.029415868 0.03274034 0.10892704
-0.029504523 0.03274034 0.11071233
-0.029121622 0.03294085 0.10892704
-0.027336344 0.033843741 0.10892704
-0.029121622 0.032966033 0.11071233
-0.027336344 0.033802629 0.11071233
-0.03144332 0.030955061 0.11249761
-0.030906901 0.031637743 0.11249761
-0.031443886 0.030955061 0.11428289
-0.030906901 0.031571537 0.11428289
-0.029577188 0.03274034 0.11249761
-0.029502638 0.03274034 0.11428289
-0.029121622 0.033020377 0.11249761
-0.027336344 0.033844516 0.11249761
-0.029121622 0.032981142 0.11428289
-0.027336344 0.033833772 0.11428289
-0.031403251 0.030955061 0.11606817
-0.030906901 0.031509653 0.11606817
-0.031361327 0.030955061 0.11785345
-0.030906901 0.031499058 0.11785345
-0.029453285 0.03274034 0.11606817
-0.029477835 0.03274034 0.11785345
-0.029121622 0.032951578 0.11606817
-0.027336344 0.033866152 0.11606817
-0.029121622 0.032978565 0.11785345
-0.027336344 0.033938572 0.11785345
-0.031200714 0.030955061 0.11963873
-0.030906901 0.031342387 0.11963873
-0.031123236 0.030955061 0.121424
-0.030906901 0.031261608 0.121424
-0.029372498 0.03274034 0.11963873
-0.029364362 0.03274034 0.121424
-0.029121622 0.032922342 0.11963873
-0.027336344 0.033988759 0.11963873
-0.029121622 0.032925785 0.121424
-0.027336344 0.034051776 0.121424
-0.031094797 0.030955061 0.12320928
-0.030906901 0.031238735 0.12320928
-0.031074427 0.030955061 0.12499458
-0.030906901 0.031219095 0.12499458
-0.029441386 0.03274034 0.12320928
-0.029513478 0.03274034 0.12499458
-0.029121622 0.033010736 0.12320928
-0.027336344 0.034167603 0.12320928
-0.029121622 0.033067212 0.12499458
-0.027336344 0.034207299 0.12499458
-0.031075321 0.030955061 0.12677985
-0.030906901 0.03123869 0.12677985
-0.03113465 0.030955061 0.12856513
-0.030906901 0.031306878 0.12856513
-0.029642358 0.03274034 0.12677985
-0.029753193 0.03274034 0.12856513
-0.029121622 0.03316763 0.12677985
-0.027336344 0.034255996 0.12677985
-0.029121622 0.033292338 0.12856513
-0.027336344 0.034381971 0.12856513
-0.025551058 0.034188733 0.10178592
-0.02376578 0.034470618 0.10178592
-0.025551058 0.03419894 0.10357121
-0.02376578 0.034515902 0.10357121
-0.022548281 0.034525618 0.10178592
-0.021980502 0.034547374 0.10178592
-0.020195223 0.034529269 0.10178592
-0.021980502 0.034521446 0.10357121
-0.021980502 0.034525618 0.10340262
-0.020195223 0.034459457 0.10357121
-0.020195223 0.034525618 0.1023991
-0.025551058 0.034197792 0.10535648
-0.02376578 0.034522295 0.10535648
-0.025551058 0.034330234 0.10714176
-0.02376578 0.034525186 0.10714176
-0.021980502 0.034507409 0.10535648
-0.020195223 0.034387037 0.10535648
-0.021980502 0.034444049 0.10714176
-0.020195223 0.034353495 0.10714176
-0.020143189 0.034525618 0.10178592
-0.018409938 0.034314483 0.10178592
-0.016624659 0.034152821 0.10178592
-0.018409938 0.034262031 0.10357121
-0.016624659 0.034081772 0.10357121
-0.014839381 0.033997163 0.10178592
-0.013054095 0.033806875 0.10178592
-0.014839381 0.033907503 0.10357121
-0.013054095 0.033702791 0.10357121
-0.018409938 0.034203246 0.10535648
-0.016624659 0.034022421 0.10535648
-0.018409938 0.034202993 0.10714176
-0.016624659 0.033975258 0.10714176
-0.014839381 0.033816114 0.10535648
-0.013054095 0.033608288 0.10535648
-0.014839381 0.033747315 0.10714176
-0.013054095 0.033534318 0.10714176
-0.025551058 0.034383252 0.10892704
-0.024767853 0.034525618 0.10892704
-0.02376578 0.034525618 0.10725684
-0.02376578 0.034562558 0.10892704
-0.025551058 0.034406722 0.11071233
-0.025061212 0.034525618 0.11071233
-0.02376578 0.034666568 0.11071233
-0.023085698 0.034525618 0.10892704
-0.021980502 0.034499541 0.10892704
-0.020195223 0.034401283 0.10892704
-0.021980502 0.034525618 0.10913278
-0.020665444 0.034525618 0.11071233
-0.020195223 0.034456939 0.11071233
-0.021980502 0.034639254 0.11071233
-0.025551058 0.034428999 0.11249761
-0.025214292 0.034525618 0.11249761
-0.02376578 0.034729078 0.11249761
-0.025551058 0.034422815 0.11428289
-0.025176056 0.034525618 0.11428289
-0.02376578 0.0347763 0.11428289
-0.020347498 0.034525618 0.11249761
-0.020195223 0.034494787 0.11249761
-0.021980502 0.034714773 0.11249761
-0.020195223 0.034525618 0.1128618
-0.021980502 0.034825429 0.11428289
-0.020195223 0.034613088 0.11428289
-0.018409938 0.03417857 0.10892704
-0.016624659 0.03391856 0.10892704
-0.018409938 0.034171045 0.11071233
-0.016624659 0.033935145 0.11071233
-0.014839381 0.033686429 0.10892704
-0.013054095 0.03350991 0.10892704
-0.014839381 0.033716023 0.11071233
-0.013054095 0.03350991 0.11071233
-0.018409938 0.034179598 0.11249761
-0.016624659 0.033959806 0.11249761
-0.019721083 0.034525618 0.11428289
-0.018409938 0.034288958 0.11428289
-0.016624659 0.034031689 0.11428289
-0.014839381 0.033731312 0.11249761
-0.013054095 0.033525035 0.11249761
-0.014839381 0.033780977 0.11428289
-0.013054095 0.033566296 0.11428289
-0.011268817 0.033677295 0.10178592
-0.0094835386 0.033549488 0.10178592
-0.011268817 0.033564135 0.10357121
-0.0094835386 0.033436343 0.10357121
-0.0076982528 0.033451408 0.10178592
-0.0059129745 0.03335686 0.10178592
-0.0076982528 0.033334732 0.10357121
-0.0059129745 0.033245891 0.10357121
-0.011268817 0.033467263 0.10535648
-0.0094835386 0.033334509 0.10535648
-0.011268817 0.033386484 0.10714176
-0.0094835386 0.03325288 0.10714176
-0.0076982528 0.033238903 0.10535648
-0.0059129745 0.03315334 0.10535648
-0.0076982528 0.033138201 0.10714176
-0.0059129745 0.033055529 0.10714176
-0.0041276962 0.033281669 0.10178592
-0.0023424178 0.033225209 0.10178592
-0.0041276962 0.033165991 0.10357121
-0.0023424178 0.033134595 0.10357121
-0.00055713207 0.03320004 0.10178592
0.0012281463 0.033189014 0.10178592
-0.00055713207 0.03311798 0.10357121
0.0012281463 0.033105731 0.10357121
-0.0041276962 0.033069953 0.10535648
-0.0023424178 0.033044845 0.10535648
-0.0041276962 0.032990113 0.10714176
-0.0023424178 0.032959461 0.10714176
-0.00055713207 0.033032477 0.10535648
0.0012281463 0.033033654 0.10535648
-0.00055713207 0.032951698 0.10714176
0.0012281463 0.032974228 0.10714176
-0.011268817 0.03334944 0.10892704
-0.0094835386 0.033193752 0.10892704
-0.011268817 0.0333471 0.11071233
-0.0094835386 0.033182591 0.11071233
-0.0076982528 0.033071175 0.10892704
-0.0059129745 0.032988057 0.10892704
-0.0076982528 0.033055946 0.11071233
-0.0059129745 0.0329739 0.11071233
-0.011268817 0.033357367 0.11249761
-0.0094835386 0.033191144 0.11249761
-0.011268817 0.033406377 0.11428289
-0.0094835386 0.033240393 0.11428289
-0.0076982528 0.033063784 0.11249761
-0.0059129745 0.032977283 0.11249761
-0.0076982528 0.033111989 0.11428289
-0.0059129745 0.033022895 0.11428289
-0.0041276962 0.032929078 0.10892704
-0.0023424178 0.032899275 0.10892704
-0.0041276962 0.032921866 0.11071233
-0.0023424178 0.032892451 0.11071233
-0.00055713207 0.032901645 0.10892704
0.0012281463 0.032930776 0.10892704
-0.00055713207 0.032894924 0.11071233
0.0012281463 0.03292498 0.11071233
-0.0041276962 0.032932043 0.11249761
-0.0023424178 0.032916069 0.11249761
-0.0041276962 0.03297253 0.11428289
-0.0023424178 0.032957271 0.11428289
-0.00055713207 0.032925785 0.11249761
0.0012281463 0.032957226 0.11249761
-0.00055713207 0.032968462 0.11428289
0.0012281463 0.032991394 0.11428289
-0.025551058 0.034493133 0.11606817
-0.025421225 0.034525618 0.11606817
-0.02376578 0.034839809 0.11606817
-0.025646888 0.034525618 0.11785345
-0.025551058 0.034525618 0.11676107
-0.025551058 0.034550771 0.11785345
-0.02376578 0.034828573 0.11785345
-0.021980502 0.034928635 0.11606817
-0.020195223 0.034722671 0.11606817
-0.021980502 0.034960061 0.11785345
-0.020195223 0.034842893 0.11785345
-0.025772594 0.034525618 0.11963873
-0.025551058 0.034570426 0.11963873
-0.02376578 0.034839466 0.11963873
-0.026048228 0.034525618 0.121424
-0.025551058 0.034642786 0.121424
-0.02376578 0.034932867 0.121424
-0.021980502 0.034994259 0.11963873
-0.020195223 0.034912169 0.11963873
-0.021980502 0.035017759 0.121424
-0.020195223 0.034898505 0.121424
-0.019165471 0.034525618 0.11606817
-0.018409938 0.034372836 0.11606817
-0.016624659 0.034085155 0.11606817
-0.018810652 0.034525618 0.11785345
-0.018409938 0.034431607 0.11785345
-0.016624659 0.034128904 0.11785345
-0.014839381 0.033831373 0.11606817
-0.013054095 0.033615157 0.11606817
-0.014839381 0.033874422 0.11785345
-0.013054095 0.033663362 0.11785345
-0.018409938 0.034525618 0.11906938
-0.018189929 0.034525618 0.11963873
-0.016624659 0.034220427 0.11963873
-0.018409938 0.034580216 0.11963873
-0.017811857 0.034525618 0.121424
-0.016624659 0.034300849 0.121424
-0.018409938 0.034647152 0.121424
-0.014839381 0.033953875 0.11963873
-0.013054095 0.033719122 0.11963873
-0.014839381 0.034006476 0.121424
-0.013054095 0.033771306 0.121424
-0.026358865 0.034525618 0.12320928
-0.025551058 0.034741491 0.12320928
-0.02376578 0.034978956 0.12320928
-0.026514195 0.034525618 0.12499458
-0.025551058 0.034802124 0.12499458
-0.02376578 0.035064325 0.12499458
-0.021980502 0.034973413 0.12320928
-0.020195223 0.034889802 0.12320928
-0.021980502 0.035064965 0.12499458
-0.020195223 0.034892291 0.12499458
-0.026678108 0.034525618 0.12677985
-0.025551058 0.034858808 0.12677985
-0.02376578 0.035133317 0.12677985
-0.027013414 0.034525618 0.12856513
-0.025551058 0.034953713 0.12856513
-0.02376578 0.035126194 0.12856513
-0.021980502 0.035137132 0.12677985
-0.020195223 0.034933224 0.12677985
-0.021980502 0.035123467 0.12856513
-0.020195223 0.035040483 0.12856513
-0.017486371 0.034525618 0.12320928
-0.016624659 0.034375072 0.12320928
-0.018409938 0.034690455 0.12320928
-0.01723621 0.034525618 0.12499458
-0.016624659 0.03442125 0.12499458
-0.018409938 0.034685671 0.12499458
-0.014839381 0.034066454 0.12320928
-0.013054095 0.033820882 0.12320928
-0.014839381 0.034097254 0.12499458
-0.013054095 0.033856615 0.12499458
-0.016955726 0.034525618 0.12677985
-0.016624659 0.034471229 0.12677985
-0.018409938 0.034732044 0.12677985
-0.016624659 0.034525618 0.12761757
-0.018409938 0.034859687 0.12856513
-0.016624659 0.034567177 0.12856513
-0.014839381 0.034166098 0.12677985
-0.013054095 0.033906147 0.12677985
-0.016393013 0.034525618 0.12856513
-0.014839381 0.034250796 0.12856513
-0.013054095 0.03395997 0.12856513
-0.011268817 0.033452317 0.11606817
-0.0094835386 0.033297732 0.11606817
-0.011268817 0.033496156 0.11785345
-0.0094835386 0.033336937 0.11785345
-0.0076982528 0.033171892 0.11606817
-0.0059129745 0.03308031 0.11606817
-0.0076982528 0.033224165 0.11785345
-0.0059129745 0.033129841 0.11785345
-0.011268817 0.033551276 0.11963873
-0.0094835386 0.033404484 0.11963873
-0.011268817 0.033606812 0.121424
-0.0094835386 0.033459008 0.121424
-0.0076982528 0.033281133 0.11963873
-0.0059129745 0.033184096 0.11963873
-0.0076982528 0.033327207 0.121424
-0.0059129745 0.033224553 0.121424
-0.0041276962 0.033023968 0.11606817
-0.0023424178 0.033000693 0.11606817
-0.0041276962 0.03306663 0.11785345
-0.0023424178 0.033049747 0.11785345
-0.00055713207 0.033010572 0.11606817
0.0012281463 0.033019975 0.11606817
-0.00055713207 0.033058569 0.11785345
0.0012281463 0.033070758 0.11785345
-0.0041276962 0.033115819 0.11963873
-0.0023424178 0.033099279 0.11963873
-0.0041276962 0.033158079 0.121424
-0.0023424178 0.033141151 0.121424
-0.00055713207 0.033106148 0.11963873
0.0012281463 0.033128917 0.11963873
-0.00055713207 0.033156008 0.121424
0.0012281463 0.033183917 0.121424
-0.011268817 0.03364791 0.12320928
-0.0094835386 0.033492312 0.12320928
-0.011268817 0.033678874 0.12499458
-0.0094835386 0.033516124 0.12499458
-0.0076982528 0.033355266 0.12320928
-0.0059129745 0.033252224 0.12320928
-0.0076982528 0.033376619 0.12499458
-0.0059129745 0.033276662 0.12499458
-0.011268817 0.033710599 0.12677985
-0.0094835386 0.033543363 0.12677985
-0.011268817 0.033734098 0.12856513
-0.0094835386 0.033557773 0.12856513
-0.0076982528 0.033399343 0.12677985
-0.0059129745 0.033295184 0.12677985
-0.0076982528 0.033403814 0.12856513
-0.0059129745 0.033293903 0.12856513
-0.0041276962 0.033191413 0.12320928
-0.0023424178 0.033178821 0.12320928
-0.0041276962 0.033219412 0.12499458
-0.0023424178 0.033198491 0.12499458
-0.00055713207 0.033199027 0.12320928
0.0012281463 0.033218861 0.12320928
-0.00055713207 0.033211783 0.12499458
0.0012281463 0.03323479 0.12499458
-0.0041276962 0.033231303 0.12677985
-0.0023424178 0.033208668 0.12677985
-0.0041276962 0.033230543 0.12856513
-0.0023424178 0.033214629 0.12856513
-0.00055713207 0.033214733 0.12677985
0.0012281463 0.033227161 0.12677985
-0.00055713207 0.033223093 0.12856513
0.0012281463 0.033228353 0.12856513
-0.033634834 0.0023905709 0.13035041
-0.033554941 0.0041758567 0.13035041
-0.03363391 0.0023905709 0.13213569
-0.033540078 0.0041758567 0.13213569
-0.033487216 0.005961135 0.13035041
-0.033417329 0.0077464134 0.13035041
-0.033476159 0.005961135 0.13213569
-0.033409104 0.0077464134 0.13213569
-0.03360074 0.0023905709 0.13392097
-0.033505976 0.0041758567 0.13392097
-0.033531867 0.0023905709 0.13570625
-0.033437937 0.0041758567 0.13570625
-0.033448189 0.005961135 0.13392097
-0.033376835 0.0077464134 0.13392097
-0.033381276 0.005961135 0.13570625
-0.033309758 0.0077464134 0.13570625
-0.033344403 0.0095316917 0.13035041
-0.03328947 0.011316977 0.13035041
-0.033356711 0.0095316917 0.13213569
-0.033312395 0.011316977 0.13213569
-0.033239089 0.013102263 0.13035041
-0.033218324 0.014887542 0.13035041
-0.033272766 0.013102263 0.13213569
-0.033258758 0.014887542 0.13213569
-0.033328332 0.0095316917 0.13392097
-0.033294342 0.011316977 0.13392097
-0.033267789 0.0095316917 0.13570625
-0.03323964 0.011316977 0.13570625
-0.033267535 0.013102263 0.13392097
-0.033265896 0.014887542 0.13392097
-0.033240341 0.013102263 0.13570625
-0.033254817 0.014887542 0.13570625
-0.0334782 0.0023905709 0.13749154
-0.033374891 0.0041758567 0.13749154
-0.033405557 0.0023905709 0.13927682
-0.033298045 0.0041758567 0.13927682
-0.033292934 0.005961135 0.13749154
-0.033221461 0.0077464134 0.13749154
-0.0332001 0.005961135 0.13927682
-0.033133842 0.0077464134 0.13927682
-0.033307716 0.0023905709 0.1410621
-0.033189334 0.0041758567 0.1410621
-0.033231512 0.0023905709 0.14284737
-0.033101954 0.0041758567 0.14284737
-0.033077836 0.005961135 0.1410621
-0.033020414 0.0077464134 0.1410621
-0.032990038 0.005961135 0.14284737
-0.032925978 0.0077464134 0.14284737
-0.033187248 0.0095316917 0.13749154
-0.033163741 0.011316977 0.13749154
-0.033099428 0.0095316917 0.13927682
-0.03309229 0.011316977 0.13927682
-0.033203907 0.013102263 0.13749154
-0.033240981 0.014887542 0.13749154
-0.033136234 0.013102263 0.13927682
-0.033197857 0.014887542 0.13927682
-0.033005558 0.0095316917 0.1410621
-0.033019073 0.011316977 0.1410621
-0.032911874 0.0095316917 0.14284737
-0.03294114 0.011316977 0.14284737
-0.033075102 0.013102263 0.1410621
-0.033158503 0.014887542 0.1410621
-0.033021048 0.013102263 0.14284737
-0.033132076 0.014887542 0.14284737
-0.033216901 0.01667282 0.13035041
-0.033234559 0.018458098 0.13035041
-0.033240274 0.01667282 0.13213569
-0.033242464 0.018458098 0.13213569
-0.033265553 0.020243376 0.13035041
-0.033246949 0.022028655 0.13035041
-0.033274144 0.020243376 0.13213569
-0.033223741 0.022028655 0.13213569
-0.033257417 0.01667282 0.13392097
-0.033262782 0.018458098 0.13392097
-0.03325735 0.01667282 0.13570625
-0.033280842 0.018458098 0.13570625
-0.033295058 0.020243376 0.13392097
-0.033252738 0.022028655 0.13392097
-0.033299714 0.020243376 0.13570625
-0.033252642 0.022028655 0.13570625
-0.033149958 0.023813933 0.13035041
-0.032926127 0.025599226 0.13035041
-0.033110134 0.023813933 0.13213569
-0.032899439 0.025599226 0.13213569
-0.032692187 0.026686713 0.13035041
-0.03250768 0.027384505 0.13035041
-0.0320265 0.029169783 0.13035041
-0.032692187 0.026750252 0.13213569
-0.032576136 0.027384505 0.13213569
-0.032134928 0.029169783 0.13213569
-0.033106804 0.023813933 0.13392097
-0.032902896 0.025599226 0.13392097
-0.033121906 0.023813933 0.13570625
-0.032970339 0.025599226 0.13570625
-0.032692187 0.027070925 0.13392097
-0.032646522 0.027384505 0.13392097
-0.032215074 0.029169783 0.13392097
-0.032732368 0.027384505 0.13570625
-0.032692187 0.027384505 0.13465893
-0.032692187 0.027607605 0.13570625
-0.032330908 0.029169783 0.13570625
-0.033249162 0.01667282 0.13749154
-0.033285379 0.018458098 0.13749154
-0.033242345 0.01667282 0.13927682
-0.033310808 0.018458098 0.13927682
-0.033309557 0.020243376 0.13749154
-0.033258766 0.022028655 0.13749154
-0.033340447 0.020243376 0.13927682
-0.033291966 0.022028655 0.13927682
-0.033231631 0.01667282 0.1410621
-0.033335105 0.018458098 0.1410621
-0.033223853 0.01667282 0.14284737
-0.033328421 0.018458098 0.14284737
-0.033364139 0.020243376 0.1410621
-0.033314161 0.022028655 0.1410621
-0.033373974 0.020243376 0.14284737
-0.033353791 0.022028655 0.14284737
-0.033162206 0.023813933 0.13749154
-0.033005781 0.025599226 0.13749154
-0.033216894 0.023813933 0.13927682
-0.033088975 0.025599226 0.13927682
-0.032810293 0.027384505 0.13749154
-0.032692187 0.028186068 0.13749154
-0.032441594 0.029169783 0.13749154
-0.032892257 0.027384505 0.13927682
-0.032692187 0.028427079 0.13927682
-0.032467745 0.029169783 0.13927682
-0.033267759 0.023813933 0.1410621
-0.033184893 0.025599226 0.1410621
-0.033324763 0.023813933 0.14284737
-0.033259921 0.025599226 0.14284737
-0.032990709 0.027384505 0.1410621
-0.032692187 0.028746411 0.1410621
-0.032575458 0.029169783 0.1410621
-0.033084847 0.027384505 0.14284737
-0.032692187 0.029133812 0.14284737
-0.032681659 0.029169783 0.14284737
-0.033183508 0.0023905709 0.14463265
-0.033048652 0.0041758567 0.14463265
-0.033176601 0.0023905709 0.14641793
-0.033033878 0.0041758567 0.14641793
-0.032949835 0.005961135 0.14463265
-0.032883003 0.0077464134 0.14463265
-0.032934517 0.005961135 0.14641793
-0.032858551 0.0077464134 0.14641793
-0.03322535 0.0023905709 0.14820322
-0.033052616 0.0041758567 0.14820322
-0.03330867 0.0023905709 0.1499885
-0.033098318 0.0041758567 0.1499885
-0.032937199 0.005961135 0.14820322
-0.03285674 0.0077464134 0.14820322
-0.032968037 0.005961135 0.1499885
-0.032886013 0.0077464134 0.1499885
-0.032867126 0.0095316917 0.14463265
-0.032882847 0.011316977 0.14463265
-0.032844231 0.0095316917 0.14641793
-0.032846488 0.011316977 0.14641793
-0.032952309 0.013102263 0.14463265
-0.033064872 0.014887542 0.14463265
-0.032908835 0.013102263 0.14641793
-0.033038318 0.014887542 0.14641793
-0.032829262 0.0095316917 0.14820322
-0.032838255 0.011316977 0.14820322
-0.032859698 0.0095316917 0.1499885
-0.032862768 0.011316977 0.1499885
-0.03290683 0.013102263 0.14820322
-0.033037558 0.014887542 0.14820322
-0.032927871 0.013102263 0.1499885
-0.03304112 0.014887542 0.1499885
-0.033394963 0.0023905709 0.15177378
-0.033192471 0.0041758567 0.15177378
-0.033503145 0.0023905709 0.15355906
-0.033321775 0.0041758567 0.15355906
-0.0330685 0.005961135 0.15177378
-0.032972515 0.0077464134 0.15177378
-0.03319446 0.005961135 0.15355906
-0.033082418 0.0077464134 0.15355906
-0.033638947 0.0023905709 0.15534434
-0.033445559 0.0041758567 0.15534434
-0.033807009 0.0023905709 0.15712962
-0.03362146 0.0041758567 0.15712962
-0.033326067 0.005961135 0.15534434
-0.033192486 0.0077464134 0.15534434
-0.033466287 0.005961135 0.15712962
-0.033311926 0.0077464134 0.15712962
-0.032936804 0.0095316917 0.15177378
-0.032921776 0.011316977 0.15177378
-0.033027671 0.0095316917 0.15355906
-0.033003055 0.011316977 0.15355906
-0.032960214 0.013102263 0.15177378
-0.033074103 0.014887542 0.15177378
-0.033025041 0.013102263 0.15355906
