# .PCD v0.7 - Point Cloud Data file format
VERSION 0.7
FIELDS x y z
SIZE 4 4 4
TYPE F F F
COUNT 1 1 1
WIDTH 699
HEIGHT 1
VIEWPOINT 0 0 0 1 0 0 0
POINTS 699
DATA ascii
0.022581946 -0.03211683 0.19185469
0.026755203 -0.031430244 0.19195879
0.016960457 -0.034411132 0.18631944
0.021263406 -0.034116745 0.18850142
0.026242848 -0.034587145 0.18872163
0.029977482 -0.033563972 0.18752128
0.027102303 -0.035656452 0.18423119
-0.016715657 -0.028689504 0.19151643
-0.013591748 -0.028414071 0.1921097
-0.0043129437 -0.029038668 0.19207412
0.0062121879 -0.028311908 0.19114217
0.015957683 -0.028127432 0.19097131
0.020552222 -0.028345585 0.1916151
0.025663286 -0.027779162 0.19227508
0.030395772 -0.027985394 0.19073999
-0.016842891 -0.030181706 0.1888231
-0.013716258 -0.031194746 0.18931645
-0.0043286998 -0.032248437 0.18889073
0.0062991772 -0.032738328 0.18846822
0.015391424 -0.032864451 0.18838069
0.019761205 -0.03293401 0.18843031
0.031653911 -0.032658637 0.18726441
-0.016978238 -0.031485438 0.18601128
-0.013602912 -0.032675624 0.1845865
-0.0048683863 -0.033781767 0.18363857
0.0060670488 -0.034567654 0.18328056
0.015300445 -0.034454107 0.18278939
0.020685751 -0.034345508 0.18247586
0.025529813 -0.034924924 0.18201938
0.029915418 -0.034283996 0.18201745
-0.00031954981 -0.034893572 0.17830306
0.010487907 -0.03579247 0.17839372
0.015111648 -0.035203755 0.17780507
0.01974228 -0.034552097 0.17717636
0.025131203 -0.0351035 0.177288
0.030098677 -0.034781098 0.17711657
0.0064924527 -0.035806894 0.17492145
0.014985014 -0.035745442 0.17449874
0.021162461 -0.035450578 0.17402849
0.024950232 -0.036604166 0.17277402
0.029752381 -0.036125541 0.17261228
0.023287002 -0.037474394 0.16974145
-0.016736034 -0.021442592 0.19248936
-0.013275607 -0.021489561 0.19308817
-0.0093219206 -0.021563888 0.19267958
9.0340152e-05 -0.021546423 0.19251084
0.011241946 -0.020946264 0.1909028
0.015902437 -0.021325648 0.19092238
0.020562395 -0.021097362 0.19056869
0.025212791 -0.021590769 0.19065887
0.02885538 -0.021329582 0.19093856
-0.019124996 -0.024590731 0.19089928
-0.013574742 -0.025220037 0.19285223
-0.0042904504 -0.0249542 0.19226345
0.0056013744 -0.024935186 0.19143653
0.01118771 -0.025263548 0.19174609
0.015052661 -0.025449991 0.19168431
-0.019340195 -0.026294291 0.18649799
-0.018485866 -0.028796017 0.18254873
-0.014879404 -0.031875849 0.18159974
-0.017907459 -0.029415846 0.17863345
-0.014290508 -0.032323837 0.1778872
-0.0061573237 -0.033951104 0.1774998
-0.013417698 -0.032186627 0.17207718
-0.0052169878 -0.034386218 0.17268169
0.0045427233 -0.035137534 0.17236474
0.014915682 -0.035141289 0.1720387
0.019358929 -0.035519838 0.17208701
0.030881893 -0.035248518 0.17100817
-0.0054044798 -0.034465969 0.16858503
0.0043436177 -0.034193218 0.16763672
0.0147531 -0.034564972 0.16688484
0.019382674 -0.035690844 0.16689166
0.024867777 -0.036870897 0.16722101
0.029702213 -0.036138475 0.16672456
0.020281792 -0.035792887 0.16259259
0.023893837 -0.036026776 0.1622771
0.027766328 -0.035884023 0.16154376
-0.027848393 -0.017625034 0.19065276
-0.024630368 -0.017340302 0.19216138
-0.019721694 -0.018536091 0.1932773
-0.014902469 -0.017774045 0.19406685
-0.0083774719 -0.018275142 0.19350871
0.00069215335 -0.017195165 0.19325888
0.010535311 -0.017660201 0.19120067
0.01601043 -0.017298162 0.19118488
0.020688206 -0.017268956 0.19095245
0.025367428 -0.017087698 0.19062722
0.029290505 -0.017004728 0.19130915
-0.028960716 -0.019539714 0.18883073
-0.024723195 -0.021482527 0.1892291
-0.021477763 -0.021986187 0.19121858
-0.024508741 -0.022723079 0.18475607
-0.021748632 -0.024690628 0.18560168
-0.024023931 -0.023852766 0.1801213
-0.021380708 -0.026086509 0.18059084
-0.020279359 -0.027564466 0.17609307
-0.016046347 -0.03042686 0.17428541
-0.019301292 -0.028443635 0.17221969
-0.016565494 -0.030653775 0.17096117
-0.014867172 -0.032228231 0.16660434
-0.0055405442 -0.033638775 0.16553867
0.0050367098 -0.033792317 0.16479474
0.01467178 -0.034411907 0.16440281
-0.010406829 -0.033000886 0.16178989
-0.0010373872 -0.032753646 0.16120547
0.0092929304 -0.033903062 0.16040778
0.014544643 -0.034477949 0.16072738
0.018673006 -0.035293937 0.1604681
0.023812257 -0.03602922 0.15948975
0.029877044 -0.034695983 0.15965608
0.014417849 -0.034060419 0.15671355
0.019471824 -0.034849942 0.15655231
0.023913831 -0.035524189 0.15563804
0.028186552 -0.03535217 0.15563357
0.031530414 -0.034709752 0.15451375
0.025159728 -0.035934448 0.15187389
0.026719049 -0.036068916 0.15189642
0.032871593 -0.036979973 0.14942405
-0.027822379 -0.010545969 0.19367009
-0.024305347 -0.010791957 0.19439101
-0.019869491 -0.011310399 0.1946823
-0.014364045 -0.01150775 0.19454777
-0.009219056 -0.01072377 0.19365528
0.00050020777 -0.011358321 0.19285768
0.0044071749 -0.0099630356 0.19183481
0.01698285 -0.009534359 0.19099703
0.020910379 -0.0098542571 0.19100964
0.025964543 -0.0094206929 0.19124907
0.028765485 -0.010926843 0.19221315
-0.033218168 -0.01338321 0.1919713
-0.029416725 -0.013909638 0.19211799
-0.024586603 -0.014209986 0.19390827
-0.018303983 -0.014538407 0.19381881
-0.012842342 -0.014026821 0.19325736
-0.0097104907 -0.013991356 0.19309187
0.010943521 -0.01292491 0.19071203
0.016120657 -0.012786567 0.19117355
0.020822279 -0.0127666 0.19094533
0.025526948 -0.012308359 0.19045103
-0.033553712 -0.016769946 0.18763307
-0.030519776 -0.017780244 0.18793502
-0.033052821 -0.016737521 0.18297943
-0.029890388 -0.018848896 0.18230775
-0.02666479 -0.021276653 0.18276361
-0.034822188 -0.020692647 0.17814422
-0.029179461 -0.020086884 0.17787421
-0.026291873 -0.02189374 0.17814904
-0.028743397 -0.020879865 0.1742723
-0.025593083 -0.022894561 0.1735608
-0.0224328 -0.025268376 0.17308962
-0.024749633 -0.02363807 0.16965595
-0.021504361 -0.025840819 0.16943166
-0.020827159 -0.026980937 0.16507766
-0.017397823 -0.029518485 0.16352659
-0.020448882 -0.027575254 0.16081083
-0.016510075 -0.030532837 0.15928751
-0.0042893421 -0.032706261 0.15851131
0.0019677337 -0.032522559 0.15810868
-0.015039906 -0.031212568 0.15448844
-0.0060191546 -0.032954395 0.15499619
0.0033851266 -0.032823682 0.15448919
0.014323041 -0.033082545 0.1532369
0.018697802 -0.033794165 0.15333745
0.022114586 -0.03409636 0.15263844
0.029149443 -0.034313202 0.15247306
-0.014084639 -0.032079518 0.15098539
-0.0062525012 -0.033859491 0.14996129
0.003173016 -0.033918738 0.14958441
0.014160894 -0.033429682 0.14876112
0.018866189 -0.033991814 0.14893812
0.023353312 -0.035012543 0.14920264
0.028448585 -0.034776509 0.1488151
0.031386472 -0.034917474 0.14901745
-0.0014087353 -0.034390986 0.14556301
0.007676132 -0.034870207 0.14435238
0.018887352 -0.034451723 0.14380467
0.023386087 -0.035413802 0.14403477
0.028099835 -0.035225391 0.14369613
0.031867463 -0.035523057 0.14411446
0.023557853 -0.03617686 0.13999462
0.027947348 -0.036524534 0.13985407
-0.019145139 -0.0044255257 0.19510418
-0.014394954 -0.0045361519 0.19495085
0.018783163 -0.003090024 0.19255614
0.026302438 -0.0032378435 0.19275716
0.029861484 -0.0035712719 0.19325066
-0.032567035 -0.0084144473 0.19443965
-0.029666573 -0.0072143078 0.19381499
-0.025050659 -0.0074096322 0.19486639
-0.01990249 -0.0073384643 0.1950444
-0.014359018 -0.0079654455 0.19516444
-0.0085194968 -0.0065262318 0.19357473
-0.0046120528 -0.0066742897 0.1925641
0.0056059379 -0.0067356825 0.19121134
0.0099330023 -0.007715106 0.19114271
0.015402116 -0.0066187978 0.19135404
0.021035511 -0.0062791109 0.19160441
0.025380172 -0.0063775182 0.1919218
0.029729366 -0.0061893463 0.19206688
-0.034267083 -0.011776149 0.19103903
-0.034198485 -0.015779316 0.18020973
-0.034227908 -0.018219829 0.17608252
-0.031460658 -0.018355668 0.17604268
-0.034883492 -0.020455718 0.17303663
-0.030675195 -0.02032274 0.17190531
-0.030523855 -0.020853341 0.16712636
-0.026469529 -0.022943318 0.16741261
-0.025669403 -0.022891879 0.16296148
-0.02304003 -0.024491668 0.16233021
-0.021674331 -0.02592963 0.15804482
-0.020706512 -0.026694536 0.15378413
-0.018113788 -0.029552341 0.15285349
-0.020507138 -0.0273633 0.14995578
-0.016336821 -0.030785203 0.14830229
-0.01523421 -0.031419158 0.14392725
-0.0067384541 -0.033201396 0.14359236
0.0020939931 -0.034923971 0.14273414
0.017045941 -0.035086989 0.14218774
0.03277494 -0.034820199 0.14130783
-0.0067160577 -0.032804549 0.13973448
0.0029287655 -0.034589171 0.13888192
0.012981754 -0.034793079 0.13834268
0.018500078 -0.034825504 0.13812226
0.022783816 -0.0355196 0.13698906
0.027875029 -0.036388695 0.13689941
0.031105313 -0.035893202 0.13927296
0.010475557 -0.034391046 0.13433731
0.019175276 -0.034130514 0.13377112
0.023496356 -0.035038292 0.13374278
0.027841512 -0.035583138 0.13441771
0.027750548 0.002979219 0.19406727
0.02933611 0.002843082 0.19407398
-0.029209483 -0.00087982416 0.19391549
-0.024794854 -0.0022525787 0.19406843
-0.021589328 -0.0029119253 0.19431388
-0.01370742 0.00076061487 0.19360775
-0.0089314766 -0.00084006786 0.19341779
-0.0045261569 0.00045019388 0.19225982
0.0056417733 0.0010371208 0.19144064
0.010085639 0.00066995621 0.19117677
0.0152486 -0.00026452541 0.1914959
0.02078807 0.00045633316 0.19193238
0.025262825 0.0010747313 0.19285092
0.030028641 0.00052118301 0.19357109
-0.0034444425 -0.0032855868 0.19185686
0.0052620787 -0.0028688312 0.19120556
0.010016918 -0.0034210682 0.19131723
0.013182539 -0.0033180714 0.19110954
-0.03168736 -0.01965189 0.1651895
-0.029988457 -0.019139469 0.16052943
-0.027534433 -0.019803226 0.15912306
-0.026101496 -0.020894706 0.15598992
-0.023409434 -0.023390889 0.15595305
-0.025282759 -0.022010863 0.15130913
-0.023041699 -0.02371192 0.15102226
-0.021503385 -0.02530694 0.14669177
-0.019127015 -0.028392971 0.14583272
-0.020918723 -0.026243448 0.14251831
-0.017522238 -0.029662669 0.14158162
-0.016360421 -0.030249894 0.13754919
-0.0068548173 -0.032529593 0.13666978
0.0010326188 -0.032740772 0.13551021
-0.0070642717 -0.032879353 0.13210732
0.002462402 -0.032821715 0.13164845
0.012178969 -0.034195721 0.13195857
0.017204065 -0.033961773 0.1314272
0.022720229 -0.034311235 0.13066322
0.027814616 -0.033256173 0.12988162
-0.007259544 -0.033737063 0.1278913
0.0023093279 -0.032975674 0.12789732
0.011440378 -0.034121215 0.12783253
0.017105091 -0.033627868 0.12642449
0.022340059 -0.033560991 0.12567788
0.02609235 -0.033492506 0.12528855
0.021514129 0.0085247755 0.19294441
0.025172226 0.0073437095 0.19426167
-0.028221544 0.0061174631 0.19295532
-0.024951819 0.0028167367 0.19290581
-0.02028764 0.0055271387 0.19107974
-0.015399538 0.0049985051 0.19240588
-0.0097235832 0.0033625364 0.19372937
-0.0037803333 0.0040154457 0.1926057
0.0049853027 0.0047838092 0.19174537
0.010164358 0.0043032765 0.19151303
0.014787257 0.0055687428 0.19152454
0.019798838 0.005043447 0.1924805
0.024593435 0.0043631792 0.19339815
-0.031453971 -0.016108274 0.1571753
-0.030663613 -0.017619669 0.15376019
-0.027863372 -0.019790828 0.15343046
-0.030322898 -0.01860553 0.1482814
-0.027465448 -0.020871639 0.14941081
-0.027071197 -0.020715952 0.14435402
-0.023651615 -0.022717535 0.144539
-0.022946101 -0.023968577 0.14007735
-0.021697383 -0.025342941 0.135663
-0.019146428 -0.02777338 0.13547859
-0.017813636 -0.02850759 0.13169497
-0.014714953 -0.030885816 0.13054508
-0.016882107 -0.02968961 0.12735963
-0.013348036 -0.032109797 0.12577486
-0.0026007034 -0.032422006 0.12479943
0.0069645792 -0.032281101 0.12428027
0.015453789 -0.032933354 0.1240558
0.019678608 -0.033114791 0.1233539
0.02851674 -0.031613946 0.12383205
0.030887045 -0.030454516 0.12094706
-0.0075755827 -0.033559859 0.12096214
0.0017751791 -0.032078028 0.12003815
0.011576857 -0.032265663 0.11918849
0.016366009 -0.033215463 0.11967009
0.021943294 -0.033808231 0.11985821
0.027551997 -0.03239882 0.11859053
0.030809324 -0.030683756 0.1181829
0.0098395832 -0.032722116 0.11567706
0.01728354 -0.03347367 0.11524975
0.021213491 -0.034099519 0.11478996
0.025302093 -0.034385741 0.11426234
0.02564542 -0.034711838 0.11055571
0.0065197982 0.01407963 0.19689631
0.010924716 0.013022482 0.19683954
0.015320882 0.012851477 0.19627067
0.019336052 0.013445854 0.1957396
-0.028213859 0.011842608 0.19516873
-0.026725035 0.012077749 0.19309705
-0.0089558959 0.011813343 0.19336009
0.0010118745 0.011513412 0.19288778
0.0055491664 0.012107253 0.19344628
0.010373745 0.011099994 0.19380936
0.015184984 0.01081419 0.19375348
0.019802 0.010771573 0.1937964
0.02407407 0.011900604 0.1945616
-0.028262537 0.0087971687 0.19323424
-0.025134102 0.0094040036 0.19180125
-0.019934047 0.0093940496 0.19110042
-0.015871268 0.0094951391 0.19178396
-0.0097852517 0.0082255602 0.19271505
-0.0041698217 0.008071959 0.19254544
0.0054438412 0.0079041719 0.19219899
0.010246396 0.0080024004 0.19191861
-0.033126168 -0.014100373 0.15152675
-0.032721117 -0.015805304 0.14688593
-0.032498788 -0.017161608 0.14200729
-0.028271746 -0.020203233 0.14158034
-0.03092071 -0.019019127 0.13798061
-0.027632244 -0.021228969 0.13839078
-0.024443824 -0.02282697 0.13742137
-0.031068414 -0.021233499 0.13466716
-0.027688622 -0.022265077 0.13353568
-0.023976982 -0.023978531 0.13393819
-0.023086932 -0.024194181 0.12884438
-0.020010121 -0.026850343 0.12937123
-0.022414565 -0.025367379 0.12484235
-0.019076984 -0.028106034 0.1250698
-0.018671244 -0.028633058 0.12007838
-0.013746034 -0.031478524 0.11932784
0.0027023014 -0.032060623 0.11746693
-0.01745444 -0.029123843 0.11620128
-0.013243333 -0.031616151 0.1156227
-0.0030047428 -0.033143938 0.11556071
0.0065686703 -0.033294618 0.11427271
0.015620053 -0.033526242 0.11339569
0.020111188 -0.033963501 0.11221153
0.027387835 -0.032763064 0.11297977
0.029924884 -0.032448471 0.11320126
-0.008044349 -0.033857286 0.11072075
0.001396779 -0.034299076 0.10971779
0.011202134 -0.033812284 0.1095264
0.016014174 -0.033695757 0.10923213
0.020999167 -0.034179568 0.108634
0.025373738 -0.034108877 0.10814583
0.029647868 -0.033543289 0.10853004
-0.0030882768 -0.034299374 0.10634744
0.0062401518 -0.033904195 0.10584831
0.015893638 -0.033381402 0.10524023
0.020700451 -0.033486426 0.10458285
0.025526691 -0.033270776 0.10421306
0.02958541 -0.033039331 0.10518891
-0.024242423 0.017062366 0.19567251
-0.020172693 0.016449928 0.19583791
-0.014581257 0.018100917 0.19462144
-0.010510288 0.017308891 0.1948908
0.0004916396 0.018307567 0.19454798
-0.024912175 0.014420748 0.19374073
-0.02030357 0.014839351 0.19304892
-0.015454268 0.014733613 0.19288588
-0.011210404 0.014424562 0.19361559
0.00032659061 0.015511513 0.19309878
-0.021202229 0.012365937 0.19080457
-0.031893995 -0.018169522 0.13549474
-0.029807523 -0.0192101 0.12929571
-0.028107494 -0.020004809 0.12641966
-0.025080096 -0.022996128 0.12588394
-0.026938744 -0.020585775 0.12228602
-0.024059445 -0.022375941 0.12107426
-0.022722319 -0.023763001 0.11697978
-0.020714227 -0.026144326 0.11614805
-0.019292302 -0.026417255 0.11232573
-0.016020689 -0.028449237 0.11268127
-0.017872555 -0.027630389 0.10818899
-0.015083855 -0.029560983 0.10821873
-0.013866164 -0.030654609 0.10368681
-0.0035892297 -0.031788468 0.10169965
0.0060985386 -0.031050563 0.10072833
0.015811827 -0.031863868 0.10141975
0.020249009 -0.031995595 0.10132819
0.025904626 -0.031366885 0.1006127
0.030039351 -0.030944049 0.100416
-0.0039559361 -0.032298446 0.098670185
0.0062095784 -0.031967223 0.097983897
0.015665006 -0.03215462 0.097147644
0.020517111 -0.032061279 0.096868873
0.025175363 -0.031870902 0.096775472
0.030481715 -0.031229794 0.096384883
0.033459052 -0.031688631 0.096031845
0.01591846 -0.033517599 0.093658507
0.020353589 -0.03347379 0.09293282
0.024361767 -0.034014404 0.092169404
0.031674985 -0.033537686 0.092498124
-0.031734873 -0.016092539 0.12522179
-0.029167067 -0.018413961 0.12055176
-0.028542727 -0.018257618 0.11623812
-0.025033135 -0.02113539 0.11547881
-0.023312338 -0.023347318 0.11065084
-0.021078318 -0.02508682 0.10944027
-0.02343069 -0.023527324 0.1063984
-0.019880056 -0.026226223 0.10624021
-0.019289516 -0.027022243 0.10180444
-0.016164966 -0.028976858 0.1016295
-0.018437818 -0.027513027 0.097111225
-0.01518029 -0.029978216 0.096821249
-0.0030361228 -0.031850576 0.09571141
0.0050680414 -0.03173852 0.095279217
0.026940919 -0.031560242 0.094206989
0.029377293 -0.031241298 0.093860149
-0.014862906 -0.030910254 0.092140377
-0.0048031695 -0.032977521 0.092620432
0.005739782 -0.032933116 0.0921368
0.01510229 -0.03337574 0.090866983
0.020262845 -0.033517897 0.089949608
0.026805673 -0.033086956 0.091355026
0.029242419 -0.032750726 0.090993464
-0.013974341 -0.031694531 0.087980866
-0.0050092936 -0.032931983 0.087878168
0.0055559166 -0.033552825 0.087570906
0.01526729 -0.033897042 0.086410642
0.02013544 -0.034207642 0.086444676
0.024997797 -0.034518361 0.086479068
0.029049549 -0.034569204 0.086346567
0.016766053 -0.033363879 0.081873715
0.020022489 -0.033368528 0.081739128
0.025289308 -0.033968568 0.081475437
0.028076202 -0.03495872 0.08060503
-0.033667032 -0.013186991 0.12128252
-0.032995969 -0.014590561 0.11827892
-0.03328051 -0.015647769 0.11307043
-0.029495664 -0.017148495 0.11279196
-0.029229306 -0.017050564 0.10815877
-0.026086092 -0.018590868 0.10889417
-0.025271155 -0.019602716 0.10358256
-0.023218237 -0.02335757 0.10023934
-0.021580886 -0.024500489 0.10001743
-0.020678867 -0.024821758 0.094887733
-0.019604336 -0.026662767 0.090447247
-0.016337924 -0.030057073 0.08986336
-0.019422613 -0.027903259 0.085795999
-0.016260713 -0.029818177 0.085952103
-0.00753011 -0.032248437 0.086104929
0.0062387921 -0.031957746 0.083260596
-0.015727606 -0.030731857 0.081451654
-0.0060957577 -0.031639159 0.081495941
0.0044067167 -0.031395674 0.080179989
0.01477427 -0.032450438 0.08002001
0.01996341 -0.033210933 0.079580665
0.024834119 -0.033269346 0.078739762
-0.015043218 -0.031753719 0.07718879
-0.0063085016 -0.032049716 0.076710284
0.0034794845 -0.032107592 0.075315952
0.014941406 -0.032358289 0.075028956
0.019850112 -0.032314122 0.074786663
0.024547771 -0.032179773 0.074225783
0.028003857 -0.033462703 0.075350404
0.0098916776 -0.033298314 0.07187748
0.018901125 -0.033114135 0.071351588
-0.032800514 -0.01587671 0.10720676
-0.031210873 -0.016915798 0.10588783
-0.033113021 -0.014699757 0.10232896
-0.029627029 -0.016149223 0.101475
-0.026482366 -0.018447876 0.10177511
-0.028443612 -0.017827749 0.096340179
-0.025866564 -0.01977706 0.097683489
-0.024328053 -0.020489693 0.092469931
-0.022176854 -0.024296343 0.088751256
-0.021585338 -0.026137114 0.084015667
-0.019992292 -0.027830482 0.079523623
-0.017689211 -0.030620515 0.079145789
-0.019586653 -0.028459787 0.074443161
-0.016821284 -0.030915439 0.074546158
-0.0064287372 -0.032578111 0.074051499
0.028823838 -0.030986011 0.071303666
-0.014743224 -0.032208622 0.072048426
-0.0065822881 -0.03163445 0.070420444
0.0032272805 -0.033905685 0.069549501
0.013704292 -0.032284439 0.068586111
0.019188937 -0.032072067 0.068149745
0.024185318 -0.032258153 0.068641484
0.029189553 -0.031786323 0.067589641
0.0096682683 -0.032120109 0.064743519
0.024488505 -0.031578779 0.063686907
-0.030638367 -0.015957713 0.097073257
-0.029710341 -0.017421186 0.091612697
-0.027042694 -0.018443167 0.09165591
-0.030114274 -0.017622471 0.086394131
-0.025854539 -0.01912272 0.086754084
-0.029194247 -0.018713653 0.082735598
-0.025688272 -0.020215809 0.081937134
-0.024419986 -0.021220267 0.078279495
-0.022367515 -0.024095833 0.077332318
-0.021922525 -0.025710642 0.072378218
-0.021229722 -0.026852727 0.068479478
-0.016896624 -0.029393852 0.068656087
-0.0067405477 -0.030388117 0.066637337
0.016324092 -0.030732632 0.065426052
0.022913661 -0.030597866 0.065041363
-0.020073742 -0.028191388 0.064918935
-0.016606156 -0.029073298 0.063655794
-0.0068864375 -0.030844569 0.063371241
0.0032031927 -0.031421125 0.061775982
0.012890961 -0.031331062 0.061892331
0.017840594 -0.031200469 0.061579645
0.022575591 -0.031194568 0.061116636
0.027524143 -0.030774593 0.061426342
0.031069446 -0.03072089 0.061680615
-0.0070967674 -0.031486034 0.058679163
0.0027994066 -0.032088697 0.05771023
0.01271693 -0.031173408 0.056552112
0.017679635 -0.031274199 0.056426883
0.022849269 -0.032407463 0.056686163
0.027822044 -0.031570673 0.057029784
0.031332403 -0.031306386 0.056405663
-0.0018880628 -0.03257978 0.054640114
0.0076129138 -0.032580256 0.053720117
0.01754351 -0.032561183 0.053291738
0.022473268 -0.032883406 0.052301347
0.02663096 -0.032464504 0.052309871
-0.031651363 -0.017311275 0.083826303
-0.030391581 -0.017703831 0.079535961
-0.027722776 -0.019437492 0.079106152
-0.030055076 -0.018557489 0.074899852
-0.026457056 -0.020410538 0.075410187
-0.029866472 -0.019132614 0.070661724
-0.026505202 -0.021659374 0.070419431
-0.025860399 -0.023347676 0.066514909
-0.02286683 -0.024733722 0.065054774
-0.021119881 -0.025933981 0.061060965
-0.018592715 -0.028924882 0.061270535
-0.016669735 -0.028501511 0.056952298
-0.013012243 -0.030858815 0.056320488
-0.015715217 -0.029334247 0.05202806
-0.0074151028 -0.031616509 0.051448047
0.0025219973 -0.0324862 0.050699174
0.012169331 -0.032081962 0.050808072
0.017447971 -0.032373488 0.04998666
0.020760015 -0.032691061 0.050111175
0.028124262 -0.031112731 0.050188959
0.030854654 -0.030399024 0.052016377
-0.0080083665 -0.031119406 0.047364652
0.0023856275 -0.031063914 0.046570003
0.012705885 -0.030878782 0.045989335
0.017356027 -0.031360269 0.04598397
0.022516157 -0.032403588 0.045841873
0.026456177 -0.032363594 0.045382082
0.023851715 -0.032137096 0.041059673
0.025506597 -0.032730639 0.04148823
-0.031423137 -0.017116249 0.073319137
-0.030513834 -0.018921971 0.069133461
-0.030195754 -0.020471871 0.064415276
-0.027404726 -0.021579266 0.064129651
-0.026546478 -0.02042073 0.05966866
-0.023741607 -0.022445381 0.059417903
-0.022001628 -0.023712873 0.055097163
-0.018939994 -0.025900304 0.054634333
-0.020793788 -0.024298012 0.05129236
-0.018028513 -0.027272522 0.050433397
-0.017011404 -0.028933227 0.046031535
-0.013076436 -0.030566216 0.046055973
0.00233436 -0.030905426 0.045169353
0.010662783 -0.030315936 0.044334948
0.018095154 -0.03089577 0.042385876
0.020592473 -0.031158745 0.042501986
-0.016222965 -0.030655921 0.041472971
-0.0078260545 -0.03184402 0.042121053
0.002182411 -0.031668305 0.041561186
0.012189962 -0.031446218 0.040962398
0.016936298 -0.031479537 0.040185988
0.021824319 -0.031520188 0.03934896
0.026596747 -0.031805038 0.039248705
-0.016441524 -0.031582654 0.036917269
-0.0080460608 -0.032297254 0.037175953
0.0019819308 -0.031987906 0.036502421
0.011997927 -0.032029867 0.0356673
0.016774457 -0.031786978 0.035265446
0.022226591 -0.03185612 0.034755349
0.026776887 -0.03232187 0.034695208
0.028584898 -0.032109499 0.0301525
-0.027318094 -0.018020451 0.056372523
-0.026675485 -0.01889658 0.052455008
-0.024149545 -0.021021664 0.051947176
-0.022675108 -0.022423506 0.047714412
-0.021766417 -0.023265898 0.043390214
-0.019492891 -0.025409162 0.043641567
-0.018723663 -0.026705325 0.038698733
-0.018267952 -0.028204143 0.034139574
-0.013269495 -0.030832827 0.032932162
-0.0031943806 -0.030878365 0.032557666
0.0068717077 -0.030793905 0.0320732
0.017773133 -0.03069669 0.031543553
0.020289905 -0.030502021 0.031275094
0.026982907 -0.031198204 0.031591654
-0.016714698 -0.028812289 0.031357944
-0.013391752 -0.030255437 0.030291259
-0.0033412538 -0.030307055 0.028843462
0.0067576841 -0.031027138 0.029045403
0.016581159 -0.030824959 0.028008223
0.022099636 -0.030771434 0.027736783
0.026643582 -0.030666649 0.026845038
0.01051899 -0.031244695 0.024394631
0.017579753 -0.030291319 0.024731874
0.020941626 -0.030689597 0.024936378
0.027891506 -0.030876577 0.0226475
0.030192118 -0.030642986 0.024518907
-0.029127397 -0.015179992 0.054876983
-0.031116623 -0.01417172 0.049889803
-0.029346585 -0.015448391 0.050846219
-0.03133139 -0.015550733 0.045667589
-0.027839605 -0.018337131 0.046722412
-0.027904924 -0.019328117 0.041377485
-0.024255477 -0.021117687 0.041896999
-0.026626222 -0.020071626 0.037366807
-0.023229528 -0.022424817 0.03702879
-0.022196133 -0.023763001 0.032174587
-0.020020604 -0.025591969 0.033084989
-0.0185837 -0.027115881 0.02782917
-0.013527734 -0.029317379 0.027334213
-0.017664399 -0.027960658 0.023445189
-0.013502864 -0.029397726 0.023331523
-0.0035878234 -0.029338241 0.022604108
0.0061752088 -0.03061837 0.022007227
0.016639128 -0.030086756 0.021339417
0.021695822 -0.030315757 0.021331131
0.025908869 -0.030382812 0.021217287
-0.0088585541 -0.03054136 0.018412173
0.001255665 -0.030987918 0.017297208
0.011399686 -0.031156301 0.017032564
0.016268 -0.030296803 0.016360044
0.021557592 -0.030540287 0.016707838
0.02492493 -0.030248702 0.01569277
0.0095625035 -0.031585991 0.01310873
-0.031524368 -0.015354335 0.042294204
-0.031605069 -0.015996337 0.040671349
-0.028805904 -0.018032134 0.035331488
-0.027686227 -0.019099653 0.030537426
-0.024722315 -0.021186829 0.030288637
-0.023356806 -0.021992862 0.026385188
-0.020473853 -0.025173903 0.024074793
-0.022315152 -0.02230227 0.021694541
-0.01980174 -0.024878263 0.020520091
-0.015582994 -0.027855217 0.019634426
-0.017854244 -0.026243329 0.016687691
-0.014912434 -0.027280092 0.015823543
-0.0022335425 -0.03010273 0.014479697
0.018946409 -0.029901683 0.013446212
0.026650816 -0.028378963 0.013997018
-0.013672736 -0.028406322 0.011993349
-0.0042562746 -0.029546916 0.011602998
0.0060897544 -0.030865908 0.010420978
0.014940038 -0.029971302 0.010155618
0.019701872 -0.029381871 0.0096655488
0.0244876 -0.028539062 0.0093931556
-0.029767629 -0.018024862 0.027107894
-0.028602801 -0.018555105 0.024776399
-0.024863202 -0.019286692 0.022509694
-0.023881909 -0.020162165 0.018171668
-0.020768251 -0.023587286 0.018352687
-0.022739243 -0.021647871 0.013456523
-0.020102601 -0.024264634 0.014516532
0.02845934 -0.023021579 0.0092595816
-0.022944096 -0.023147881 0.0092422366
-0.019689843 -0.025378466 0.010428011
-0.015491074 -0.028071225 0.0095694065
-0.029242989 -0.016468942 0.021391928
-0.028188065 -0.016046345 0.017133892
-0.026096813 -0.01762861 0.015647411
-0.025236409 -0.018334031 0.012239456
-0.024056677 -0.021570981 0.0079097152
-0.029624306 -0.014088631 0.014969289
-0.029191051 -0.014225066 0.010186791
-0.026455067 -0.017472029 0.0088812709
