# .PCD v0.7 - Point Cloud Data file format
VERSION 0.7
FIELDS x y z
SIZE 4 4 4
TYPE F F F
COUNT 1 1 1
WIDTH 898
HEIGHT 1
VIEWPOINT 0 0 0 1 0 0 0
POINTS 898
DATA ascii
0.02950719 0.026052438 0.18908063
0.022215202 0.030077327 0.19049624
0.012667232 0.032003403 0.18933186
0.031094939 0.029017193 0.18699548
0.023715746 0.033318907 0.18734488
0.014542894 0.033872262 0.18529764
0.032027207 0.030741019 0.18281281
0.024558552 0.034814566 0.18301564
0.031773813 0.031587586 0.17868221
0.024911128 0.035005618 0.17777231
0.029597325 0.033882335 0.17482793
0.0262859 0.019735452 0.19127011
0.023527004 0.021178283 0.19130102
0.015141679 0.025292434 0.19215053
0.0043866583 0.028873833 0.19143534
-0.0038918853 0.031776018 0.19133592
-0.0083108163 0.033203181 0.19089311
-0.01268562 0.034741864 0.19052491
0.028947342 0.021975597 0.18964419
0.024854179 0.023323625 0.19060659
0.017728511 0.027388262 0.19133034
0.006597016 0.032745589 0.18840387
-0.002646408 0.034274552 0.18764246
-0.0073126247 0.035109308 0.18679535
-0.011615453 0.036345731 0.18650338
0.031666797 0.023967199 0.18518302
0.0076039522 0.03421165 0.1832487
-0.001911398 0.035068996 0.18307108
-0.0068688383 0.035859674 0.1837056
0.032502733 0.025415573 0.1807799
0.013628618 0.034180194 0.17949253
0.0036441209 0.035486642 0.17846549
0.032530628 0.030082047 0.17665029
0.014488138 0.035175059 0.17499927
0.032447211 0.030704917 0.1723147
0.024739049 0.034347549 0.1713151
0.016177783 0.035676662 0.17084509
0.032229677 0.031146957 0.16753879
0.025726482 0.034447696 0.16692817
0.00075400621 0.023085942 0.19145727
-0.0021096813 0.025174566 0.19253919
-0.0063363984 0.026896425 0.19317681
-0.010747818 0.027920865 0.19274491
-0.014596586 0.030665196 0.19227612
-0.020860605 0.031175017 0.19172987
-0.025006734 0.033152267 0.19186711
-0.027567927 0.035771523 0.19148421
0.026860647 0.015694961 0.19048241
0.022269791 0.018180422 0.19200844
0.013328927 0.020934891 0.19194806
0.0051558441 0.024613386 0.19097999
-0.01601791 0.034822542 0.18963894
-0.019395772 0.034826741 0.18869704
-0.024187695 0.035487115 0.18772548
-0.02715081 0.037361894 0.18748349
0.031691231 0.015588696 0.18499795
0.030284299 0.017789261 0.18812329
-0.01483905 0.036148485 0.18479994
-0.018774033 0.035422623 0.18396541
-0.023806591 0.036593504 0.18349859
-0.026382403 0.039159916 0.18490848
0.032264177 0.016589558 0.18206137
0.031576529 0.01928379 0.1833989
-0.0020427546 0.034964569 0.17970273
-0.0070717288 0.035192426 0.1809203
-0.01175204 0.036100958 0.18062571
-0.016028687 0.035428293 0.18024856
0.031984784 0.020526158 0.17780849
-0.0020955466 0.034893468 0.1757322
-0.0069384882 0.035030141 0.17496619
-0.011292672 0.035547908 0.17616072
0.033075031 0.024754141 0.1736806
0.0035719099 0.034994815 0.1717729
-0.001421093 0.034875002 0.1711266
0.033175509 0.026898501 0.16990316
0.0095223077 0.034953929 0.16792464
0.03212342 0.028438153 0.16495284
0.024215583 0.034319922 0.16428703
0.015693683 0.034043197 0.16405678
0.02957507 0.031917114 0.16071886
0.020688636 0.034213684 0.15968043
0.028893555 0.031767409 0.15668949
0.022376815 0.034311894 0.1562812
-0.023735587 0.022240406 0.19701481
-0.0097290687 0.01879405 0.19351506
-0.013863388 0.021053053 0.19360462
-0.019289598 0.022773895 0.19450831
-0.02288156 0.025321208 0.19509882
-0.025952492 0.028413152 0.19427451
0.024026794 0.0098412912 0.19062805
0.020529374 0.011768224 0.19163236
0.015517365 0.013951879 0.191443
0.0067113903 0.017227372 0.19171575
-0.0035195122 0.020062646 0.19252402
-0.0078132804 0.022159763 0.19358861
-0.012714431 0.023601051 0.19347912
-0.016730759 0.026011631 0.1927768
-0.020861046 0.027452132 0.19260544
0.03005895 0.010293246 0.1885331
0.026580466 0.011109894 0.19021064
0.031766817 0.012220964 0.18495387
-0.020770721 0.035100397 0.18116227
-0.0229089 0.036026448 0.18107975
0.033348143 0.013045878 0.17998356
-0.01872034 0.035209417 0.17772475
-0.023416925 0.036585521 0.17757833
-0.026494551 0.038519986 0.17657661
0.033665609 0.01552662 0.17632765
0.032322228 0.019865744 0.17475748
-0.011546899 0.036073532 0.17378139
-0.017078497 0.03517295 0.17305124
-0.021965818 0.036146514 0.17261806
-0.027198713 0.037482381 0.17332238
0.034068733 0.017146656 0.17257017
0.032776311 0.0206852 0.1725949
-0.0019790372 0.035131916 0.16861707
-0.0064279735 0.035710026 0.16904637
-0.011244619 0.036754187 0.16862538
-0.016298737 0.036060471 0.16876394
0.032905608 0.022301886 0.16709614
0.0028953431 0.033781584 0.16483903
-0.0015652766 0.03474234 0.16432774
-0.0058785807 0.036072843 0.16408056
-0.010283991 0.03727008 0.16465959
0.031732343 0.025060236 0.16280776
0.0094405813 0.03365805 0.16134658
0.030851763 0.027408389 0.15789068
0.015264726 0.034141846 0.15754157
0.0065652672 0.034413952 0.15658057
0.03329704 0.027341189 0.15154076
0.026042953 0.033547711 0.15270388
0.016323229 0.034324359 0.15320596
0.034702301 0.029582381 0.15006131
0.025897626 0.033206686 0.1483137
-0.022612778 0.015432923 0.19916868
-0.017547987 0.014860682 0.1947538
-0.020911887 0.017109662 0.19686943
-0.023543384 0.018920496 0.19712198
-0.00057931291 0.012202894 0.19245631
-0.0055593285 0.01372556 0.19270271
-0.011009504 0.015340135 0.19339186
-0.015240177 0.017990466 0.19363186
-0.018361703 0.019671634 0.19391242
0.026790358 0.0024866359 0.18980485
0.023554761 0.0050950469 0.1910381
0.018265989 0.0061885114 0.19161889
0.013769564 0.0086557614 0.19126552
0.0046963161 0.012530281 0.19224975
-0.0031014299 0.016229114 0.19211647
0.032135081 0.0040001674 0.18598709
0.029767442 0.005018875 0.18773302
0.026282806 0.0068818694 0.18962589
0.033290468 0.006332987 0.18207583
0.032247525 0.0082616862 0.18378663
0.034282546 0.0081965523 0.1778577
0.033131931 0.0099824956 0.18039608
0.035772655 0.010213759 0.17340577
0.034650773 0.013033343 0.17517385
-0.024627764 0.036061138 0.17015505
-0.027762964 0.036113016 0.16958964
0.03675146 0.011833599 0.1701265
0.034944512 0.015110363 0.16996345
-0.017450511 0.035782523 0.16587573
-0.021740746 0.035880901 0.16654587
-0.026671339 0.03591311 0.16513249
0.036500812 0.011929032 0.16574937
0.033883594 0.013968789 0.16618475
-0.0077172555 0.036072645 0.16144127
-0.011512673 0.036015611 0.16103393
-0.016426623 0.035925958 0.16252536
-0.021126833 0.035680741 0.1616264
-0.025667373 0.036503438 0.16203138
0.03124385 0.020413198 0.15861681
-0.0017361166 0.033834402 0.15812784
-0.0063618449 0.034962382 0.15743053
-0.01098411 0.035642352 0.15670043
-0.015856562 0.035592929 0.15749818
0.031912379 0.022353556 0.15560097
0.0038789846 0.034103949 0.15391532
-0.0010750797 0.033777237 0.15291646
-0.0064042564 0.034558408 0.15341115
-0.010172654 0.035741203 0.15300012
0.032925319 0.023876159 0.15155673
0.010395035 0.033928894 0.15030178
0.0015101321 0.03448968 0.14819011
0.020323586 0.032890517 0.14670885
0.011018039 0.034372311 0.14532444
0.034484424 0.026978392 0.14315197
0.030849194 0.03033201 0.1429804
0.020978278 0.033320945 0.14202768
0.011745958 0.034854148 0.14128634
0.029381778 0.030844221 0.13772428
0.021690153 0.033897035 0.13743827
0.02670753 0.03373456 0.13337955
-0.019907739 0.011855897 0.1989229
-0.021008164 0.013278218 0.19937667
-0.025209716 0.015377458 0.19844285
-0.0086954189 0.0074317297 0.19318873
-0.013188954 0.010233844 0.19383392
-0.017666461 0.01272558 0.19541568
0.024639016 -0.0035272255 0.19085535
0.021006836 -0.0007120925 0.19184387
0.015981549 0.0005592634 0.19161704
0.010707235 0.0022132501 0.1908831
0.0064534885 0.004381787 0.19107527
-0.0023888717 0.0079900268 0.1924454
-0.0069327396 0.0094693881 0.19291925
-0.010371654 0.01146841 0.19305551
0.029272249 -0.0030649747 0.1877622
0.027061384 -0.0011508241 0.18973687
0.023132211 0.0013250727 0.19122899
0.011538657 0.0062811505 0.19073576
0.032395631 -0.00051797833 0.18540391
0.033974618 0.0016764775 0.18097752
0.034695219 0.003539267 0.17625758
0.037561961 0.0025139516 0.17182049
0.036391497 0.0056434609 0.17178798
0.036708023 0.0098780589 0.1677286
-0.028670326 0.035786863 0.16447845
0.032828264 0.010632663 0.16202927
0.03122073 0.015237009 0.16240335
-0.022699032 0.035907 0.15942353
-0.026855882 0.036210835 0.1590969
-0.030166687 0.035946488 0.15662199
0.030451447 0.014804115 0.15815133
-0.012837196 0.0356589 0.15404093
-0.017559934 0.035505787 0.15505785
-0.021369202 0.03605713 0.15551466
-0.026142094 0.036975618 0.15464944
-0.029820727 0.036609307 0.15523091
0.032695338 0.017682116 0.15394071
-0.003179457 0.033874191 0.15112901
-0.0062745009 0.034635626 0.15066239
-0.011095704 0.035977285 0.15043572
-0.016172796 0.035765983 0.15121788
-0.021236621 0.036080085 0.15084147
-0.024365645 0.036872622 0.15133414
-0.029418532 0.039016955 0.14922452
-0.0015480723 0.034428053 0.14695314
-0.0060431119 0.034798294 0.14608902
-0.010712716 0.035921291 0.14536491
-0.014386675 0.035590593 0.14690489
0.03277145 0.020590954 0.14338985
0.00072083808 0.034963518 0.14273113
-0.0024747923 0.03457411 0.14036375
0.033428941 0.025904372 0.13928419
0.031861953 0.026204348 0.13898826
0.011363784 0.035529155 0.13901892
0.0018348489 0.035748523 0.13818949
-0.0020616679 0.035314851 0.13808298
0.031396754 0.027595542 0.13562119
0.016382936 0.034330532 0.13527143
0.0071222284 0.035512269 0.13401663
0.030442758 0.030698294 0.13206458
0.021834772 0.034625255 0.13141054
0.02965826 0.031834785 0.12749398
0.022784093 0.034456804 0.12670046
-0.015983865 0.0027877337 0.19428816
-0.019626094 0.0052550966 0.19534761
0.012587371 -0.0056401156 0.19198117
0.0081527382 -0.0038778097 0.19171974
0.0033177328 -0.0021737921 0.19205895
-0.00063420774 -3.736456e-05 0.19231248
-0.005170519 0.0020667966 0.19289923
-0.0092049893 0.0037367037 0.19345427
-0.013961345 0.0053197574 0.19340527
-0.018194336 0.0076011159 0.19439194
0.027750243 -0.0088497121 0.18975711
0.024205284 -0.0073926966 0.19103023
0.020069283 -0.0050006746 0.19176894
0.014573883 -0.0028393073 0.19217038
0.009548258 -0.00050807884 0.19159243
0.0051397118 0.001331291 0.19184032
0.030121813 -0.0060825953 0.1872744
0.033295684 -0.0070062908 0.18113628
0.032311354 -0.0044600689 0.18505892
0.033971131 -0.0055560856 0.17932916
0.034817878 7.3843636e-05 0.1733883
0.038256805 -0.0024935678 0.17102665
0.036872592 0.0043338714 0.16704443
0.035569679 0.0066377996 0.1614188
0.031811319 0.0099653229 0.16039157
0.031509887 0.010691078 0.1560019
0.030360285 0.012192735 0.15656137
-0.029878518 0.036353506 0.15222347
0.032356221 0.012292694 0.15246892
0.031278227 0.014154168 0.15422145
-0.02136502 0.035627272 0.14768031
-0.026313478 0.036774032 0.1485568
-0.029722465 0.038360786 0.14873606
0.032197461 0.015806425 0.14979947
-0.016848493 0.034961164 0.14455029
-0.021405391 0.035318125 0.1436646
-0.026038256 0.036620803 0.1430645
-0.029498776 0.038588773 0.14322451
-0.0060578426 0.034300208 0.14005092
-0.010528787 0.035446011 0.13963586
-0.015998192 0.034885406 0.13984165
-0.020649023 0.035784692 0.1398733
-0.025799111 0.037886187 0.13960677
-0.028447002 0.038799435 0.13984597
-0.0045129294 0.034773629 0.13506418
-0.0099387448 0.035312511 0.13430554
0.03275653 0.02341453 0.13364846
0.0014150431 0.035239708 0.13117898
-0.002656932 0.034907296 0.13032398
0.033452518 0.024749648 0.13086146
0.031890042 0.026348647 0.1294677
0.011440276 0.033551358 0.12767881
0.0025107237 0.03495786 0.1277163
0.030929368 0.028241394 0.12457979
0.01689251 0.033234373 0.12362343
0.029675726 0.029811114 0.11985648
0.022399554 0.034097254 0.11986905
0.027034178 0.032821521 0.11521363
-0.018918566 -0.0042000897 0.19786426
-0.0090426393 -0.0053322124 0.19373029
-0.012731428 -0.0028666602 0.19477752
-0.017108424 -0.0011420362 0.19539073
-0.020539423 0.0012060911 0.19623989
0.025436098 -0.015249424 0.19157627
0.022161176 -0.012772013 0.19151425
0.017480999 -0.010692647 0.19135603
0.012712126 -0.0096160164 0.19175273
0.0070067481 -0.0077987667 0.19266137
0.0021832464 -0.0061797071 0.19311932
-0.0066889273 -0.0029413733 0.19330275
-0.011154525 -0.00011715339 0.19405398
-0.013881424 0.0016271346 0.19424099
0.030531235 -0.014853598 0.18783727
0.027823513 -0.012706352 0.18937042
0.032527119 -0.01239183 0.18426317
0.029950246 -0.010291818 0.1867936
0.033743028 -0.011175167 0.18051273
0.034145296 -0.0080593685 0.17516705
0.03428309 -0.0072185802 0.17144322
0.035013497 -0.004634697 0.16887522
0.035283085 -0.00067742914 0.1617741
0.031781726 0.0049093636 0.15643656
0.03212624 0.0052338839 0.15291712
0.031665932 0.0069635045 0.14807981
-0.032809667 0.037112281 0.14131922
-0.017199878 0.034531236 0.13678414
-0.021712231 0.035011549 0.13647234
-0.025582589 0.036503416 0.13621774
-0.028620344 0.038334787 0.13758475
-0.010415075 0.035629682 0.1318503
-0.016115513 0.034770586 0.13340834
-0.020849295 0.034624882 0.13250396
-0.026263133 0.035640344 0.13276717
-0.0050568171 0.034668662 0.12855119
-0.0093095843 0.035137128 0.12939215
-0.013921079 0.034646451 0.12858742
0.031476058 0.02333447 0.12544399
0.001003243 0.033751197 0.12396377
-0.0034214677 0.034534883 0.12387592
-0.0086477967 0.034638233 0.12424725
0.03310585 0.022541778 0.12154144
0.032365888 0.025054714 0.1219753
0.011156804 0.032753751 0.12068361
0.0015448993 0.033477224 0.11890072
-0.003955747 0.034503806 0.12002707
-0.0068970751 0.034855701 0.12079209
0.034313545 0.024841513 0.11658752
0.031747844 0.026662251 0.11770558
0.011695592 0.032913733 0.11564744
0.035106648 0.02644524 0.11398286
0.031974129 0.027778644 0.11343771
0.021408251 0.034967281 0.11230534
0.012971179 0.034117483 0.11161798
0.022818668 0.033688232 0.10795987
-0.010396345 -0.010144221 0.19735533
-0.014496524 -0.0074473615 0.19766444
-0.017404098 -0.0060885539 0.19759762
0.022193421 -0.02018705 0.1942935
0.019649848 -0.020154491 0.19363052
0.012508631 -0.018481266 0.19353056
0.0096647302 -0.016895417 0.19360071
0.0050113774 -0.013288399 0.19424641
-0.0051264064 -0.0099325385 0.19399488
-0.0091429241 -0.0080832951 0.19465113
-0.013234248 -0.0057444889 0.19564092
-0.016651619 -0.0045348383 0.19582483
0.032150205 -0.0218895 0.19048038
0.028968303 -0.020139256 0.19129723
0.025156742 -0.018443039 0.19228646
0.019754499 -0.017316896 0.19196081
0.015211533 -0.016402936 0.1912221
0.011260925 -0.014030611 0.19199669
0.0075057838 -0.011603573 0.19301122
0.034658041 -0.01842838 0.18554163
0.031119812 -0.017800726 0.18865165
0.03514928 -0.017718447 0.18231383
0.033141918 -0.015769495 0.18469572
0.035196323 -0.016181234 0.17752755
0.034445152 -0.01374914 0.17678151
0.036793135 -0.01389681 0.17311275
0.034872547 -0.011872705 0.17464828
0.035446417 -0.010117136 0.16965964
0.036381498 -0.0073805489 0.16485053
0.036108408 -0.0059476998 0.16211542
0.033148356 -0.0030302657 0.15404466
0.032461803 -0.00078461226 0.15133536
0.031812359 0.0012255441 0.14657629
0.030166883 0.0049350327 0.14060849
0.032690652 0.010154763 0.13297176
-0.022797117 0.034074742 0.12961823
-0.026286863 0.035439275 0.12972444
-0.02973143 0.035610974 0.1287697
-0.015697632 0.033926599 0.1258893
-0.019782683 0.034013208 0.1259709
-0.025859803 0.034729935 0.12471449
-0.029670814 0.035562769 0.12485844
-0.010316528 0.035147965 0.12185687
-0.014254964 0.034258693 0.12199759
-0.019068515 0.033985 0.12096357
-0.0033335295 0.034748908 0.11793655
-0.0086934334 0.035068359 0.11815715
-0.012537084 0.034815565 0.11750937
0.032946691 0.02147094 0.11686558
0.0014482094 0.033935014 0.11443889
-0.0031532692 0.034849145 0.11412984
-0.0079128565 0.035464257 0.11325783
-0.011801717 0.035191089 0.11356115
0.034557037 0.021753324 0.11099684
0.032628261 0.026171707 0.11003804
0.0073706503 0.034412801 0.10934204
-0.0026656203 0.034782249 0.10950595
-0.0062685655 0.035409484 0.10955364
0.031453572 0.026079765 0.10711831
0.017688679 0.03359342 0.10522777
0.0076151784 0.03462106 0.1056031
0.027735934 0.030682601 0.10176235
0.0181113 0.033566687 0.10062784
0.027348835 0.031556807 0.097268701
0.01998394 0.034003776 0.097310603
-0.0072396877 -0.01526559 0.19554627
0.016871419 -0.020768002 0.19256607
0.013837432 -0.021339979 0.19295195
-0.0051307729 -0.014640176 0.19363311
0.022698192 -0.023959137 0.19058037
0.032717843 -0.023482613 0.18604112
0.035213586 -0.02480896 0.18035614
0.036619425 -0.020145968 0.17535442
0.037732299 -0.019538943 0.17259073
0.036597863 -0.016240032 0.16689497
0.035147432 -0.013907196 0.16552073
0.035153437 -0.0099538434 0.16206425
0.034839571 -0.010068156 0.15743792
0.032833446 -0.0083972644 0.15367129
0.031894717 -0.0047329729 0.14978316
0.032442082 -0.0017078556 0.1459589
0.031738814 0.0006734319 0.14428902
0.030547868 0.0015439596 0.14097342
0.029932655 0.0024731066 0.13561827
0.030636042 0.004790185 0.13190371
0.029248871 0.0067651449 0.13173664
0.031980541 0.0072989287 0.12605852
0.030106539 0.0088580614 0.1260469
-0.023656655 0.033102784 0.12222928
-0.030115381 0.03446183 0.12108147
0.030104127 0.010664723 0.12139642
-0.02066265 0.034239963 0.11866438
-0.024886772 0.034077406 0.1185416
-0.027693827 0.03569077 0.11870027
0.03006345 0.014634185 0.11934799
-0.015499533 0.033392996 0.11475664
-0.019872762 0.03309672 0.11357045
-0.024492171 0.034636404 0.11310899
-0.027412439 0.03601905 0.11308336
0.033638868 0.018299542 0.11301857
-0.010005847 0.035006437 0.11006278
-0.014077876 0.033860374 0.10997975
-0.018702097 0.033501871 0.11024839
0.033795014 0.017770678 0.10675997
-0.0035154633 0.034404464 0.10630298
-0.008509744 0.034602407 0.10605949
-0.011723473 0.034811974 0.10540926
0.033569906 0.021330407 0.10509712
0.031028468 0.023489289 0.10373473
0.0013627997 0.033433232 0.10209405
-0.0030792998 0.03402748 0.10171032
-0.0079783043 0.034973949 0.10175073
-0.011158918 0.035836566 0.10229409
0.030457642 0.024211602 0.10044461
0.0070587257 0.032632794 0.098089397
-0.0015903274 0.034398202 0.097784042
0.030535802 0.025369668 0.094849586
0.029112816 0.028835712 0.095571041
0.012602436 0.032813527 0.09403187
0.0042460887 0.033913631 0.094026387
0.024055768 0.032495558 0.090601027
0.013791263 0.033768699 0.089724243
0.024490029 0.032386646 0.085808039
0.025597215 0.033106025 0.082457483
0.01309756 -0.025884375 0.19263074
0.035119731 -0.025490336 0.17806703
0.034821846 -0.02440257 0.17573422
0.036023907 -0.01715764 0.16008252
0.036069088 -0.017801963 0.15587354
0.03482094 -0.014230473 0.15565556
0.034522247 -0.012856307 0.15057635
0.032325849 -0.010429122 0.14942846
0.032178834 -0.008235083 0.14681306
0.032394689 -0.0058438671 0.14199591
0.032285996 -0.004546985 0.13787505
0.031287838 -0.0014829747 0.13798434
0.031131785 -0.00032111909 0.13376874
0.031412993 0.0021070903 0.13046432
0.033078171 0.0053624809 0.12418532
0.032855213 0.0066772737 0.12199724
0.030129921 0.0082069626 0.11916143
0.03018691 0.0082679372 0.11564976
-0.016178535 0.032954767 0.10672086
-0.019633355 0.033811163 0.10759974
-0.024032149 0.035339464 0.10776734
-0.027678166 0.036689758 0.10709316
-0.014862073 0.033680495 0.10363877
-0.019024409 0.034287311 0.10269833
-0.02394259 0.035273269 0.10276759
-0.027802985 0.036948167 0.10203761
0.031838872 0.016134378 0.099012673
0.031456098 0.019896962 0.10143876
-0.0080087688 0.034674957 0.09853828
-0.013436544 0.034520332 0.098664165
-0.018074969 0.03418139 0.098930359
-0.023929492 0.035141975 0.099680245
-0.026790123 0.036704689 0.099799752
0.031357825 0.020120505 0.097043335
-0.0030802712 0.034862712 0.095603883
-0.0076140566 0.035297196 0.095075667
-0.011885406 0.035256401 0.094043553
0.031984694 0.022217214 0.093152702
0.0025960514 0.034483425 0.091606438
-0.0022104792 0.035094623 0.090681136
-0.0064191539 0.034976639 0.090548754
0.03175436 0.024752991 0.089451492
0.0081318673 0.034084074 0.087370932
-0.00033201091 0.034941755 0.086144388
0.031147765 0.025248634 0.082829654
0.029509 0.028850636 0.084533036
0.013521714 0.033817187 0.082917333
0.029120822 0.029699806 0.079482853
0.019931497 0.033915177 0.079064608
0.025515903 0.032008618 0.075015485
0.036420256 -0.020331271 0.15386391
0.036350552 -0.02033627 0.15060535
0.035058964 -0.016848011 0.15032589
0.035496511 -0.016698606 0.14470091
0.032610685 -0.011785933 0.13699776
0.032613281 -0.0076241405 0.13462344
0.032111142 -0.0061231903 0.13096753
0.030982612 -0.0035754954 0.12974083
0.030557372 -0.0051538567 0.12665391
0.031553719 0.0026026666 0.11699319
0.030857496 0.0025745369 0.11376721
-0.019594766 0.033671889 0.096583903
-0.024170082 0.034447379 0.096118212
-0.027753575 0.035742097 0.095487416
-0.015647637 0.033247117 0.093050838
-0.019577906 0.032428138 0.091201663
-0.024546716 0.033941712 0.09117955
-0.02816692 0.035985827 0.092152059
-0.0081163151 0.034695245 0.08844167
-0.013585513 0.033983525 0.087907553
-0.017307915 0.033203866 0.087407768
0.031686917 0.022552749 0.085183263
-0.0033357963 0.034088369 0.08454138
-0.008046831 0.034012727 0.083673
-0.012044183 0.034636494 0.084044039
0.030827187 0.019842114 0.080945432
0.0023002336 0.032874614 0.079908907
-0.0022832667 0.033555366 0.079679728
-0.0068895118 0.033827864 0.080107093
0.031156 0.024506714 0.077196717
0.03036131 0.026955482 0.077652872
0.0084773647 0.033358581 0.076116085
-0.00048331264 0.033778436 0.07609576
0.031111833 0.023922628 0.073682904
0.028554346 0.027612854 0.072374344
0.020369371 0.032568652 0.071849108
0.010474077 0.033877183 0.071696818
0.028452413 0.028192813 0.067604363
0.020841217 0.032632176 0.067165256
0.012427304 0.033925738 0.06828481
0.021799404 0.032463215 0.064272761
0.033076502 0.031278316 0.060095966
0.036624089 -0.020106543 0.14789808
0.036314577 -0.019231895 0.14441538
0.034056805 -0.017099736 0.13766241
0.033692349 -0.015268981 0.1337299
0.03261143 -0.012338366 0.13370925
0.033768985 -0.014606602 0.12970543
0.03273923 -0.011704665 0.12870002
0.032165851 -0.010332397 0.12524253
0.031033708 -0.0015602885 0.1131537
0.03078093 -0.00030578859 0.11087787
0.028678963 0.00064255111 0.10781485
-0.023231683 0.034160808 0.089154184
-0.027668659 0.035636667 0.089377522
-0.019410634 0.033576004 0.085658193
-0.023988903 0.034254979 0.084898293
-0.028439164 0.035816789 0.085080743
0.030912142 0.015839279 0.082259476
-0.013838289 0.034079909 0.081219971
-0.018112008 0.03385796 0.08074367
-0.024038292 0.033926405 0.080567658
0.031041771 0.020127162 0.079170465
-0.0039764196 0.034086436 0.077179015
-0.0075147822 0.034267761 0.077817023
-0.011564785 0.034033343 0.077034533
-0.015190043 0.033223834 0.07688731
0.031568069 0.020967411 0.07583797
-0.00068357866 0.033679716 0.073314965
-0.0054392256 0.033154748 0.072593391
0.031317644 0.021757782 0.070131242
0.029843569 0.024776213 0.070769072
0.0048038866 0.033521812 0.068897426
-0.00013139844 0.032972869 0.068945765
0.031507269 0.023936637 0.066597402
0.030052178 0.026459079 0.066480041
0.010731332 0.03313534 0.065050781
0.029994853 0.028342616 0.0620327
0.020776507 0.032411303 0.06120652
0.011945443 0.032034636 0.060512483
0.034237742 0.029666809 0.059304893
0.026643869 0.0326332 0.057787836
0.032516256 0.031229088 0.053599775
0.030095091 -0.022657584 0.13858563
0.029525546 -0.019386664 0.13937894
0.036572445 -0.020252764 0.13503087
0.033501048 -0.020378988 0.13601965
0.029499128 -0.020205198 0.13493001
0.036945909 -0.019928042 0.13137573
0.035179183 -0.017999606 0.13162404
0.037645426 -0.019020963 0.12617618
0.035083279 -0.016959887 0.12641948
0.038551029 -0.017285965 0.12253451
0.03443075 -0.015643287 0.12263012
0.032440431 -0.012326375 0.12275678
0.032823075 -0.0068418197 0.10829681
0.031385534 -0.0047628982 0.10868466
0.029390471 -0.0023104018 0.10611546
0.027917795 -0.0020278804 0.10279763
0.028266389 -0.0015416974 0.10018504
0.028665468 0.0028997362 0.093090832
-0.029338259 0.034299932 0.081109941
0.030269027 0.0097529413 0.081909299
-0.021938954 0.033441473 0.078368068
-0.027803801 0.034333497 0.07836175
-0.031855151 0.032775648 0.079218805
0.030005708 0.012809731 0.076743484
-0.012550488 0.032824617 0.073380291
-0.017561495 0.032658715 0.074455023
-0.022622515 0.033210941 0.074115872
-0.026978306 0.03459743 0.07362169
0.030758535 0.014115886 0.072751284
-0.0073130392 0.032789562 0.069629312
-0.011633246 0.032652874 0.070471227
-0.01694528 0.032430243 0.06979996
-0.021692952 0.033525575 0.070259869
-0.026855338 0.035174944 0.07019496
0.033524554 0.015822012 0.067651331
0.031782504 0.016021594 0.068236232
-0.0011102203 0.032301091 0.06532675
-0.0059802122 0.032822065 0.066309571
-0.01122305 0.03323799 0.065846026
-0.01501524 0.032945108 0.066415787
0.033929463 0.016469769 0.065134704
0.032089166 0.019963183 0.064603746
0.0047002877 0.032102026 0.062202096
-0.00053595658 0.032482125 0.061702907
-0.0056132227 0.033280373 0.061565697
-0.010074016 0.034288161 0.061051786
0.031971566 0.023069099 0.05988282
0.010209109 0.032439917 0.057853997
3.6154874e-05 0.032462049 0.058232784
-0.003728658 0.033156011 0.057951987
0.033279095 0.022246275 0.054492295
0.01611381 0.032174606 0.053981364
0.0060710278 0.033083007 0.053646326
0.033325195 0.026015088 0.048907459
0.030592177 0.029997634 0.050094128
0.021665685 0.032616213 0.049721777
0.011180492 0.033370838 0.049711168
0.035082377 0.03013178 0.047385395
0.03150551 0.029944928 0.045955122
0.022128625 0.033185869 0.045047402
0.034957878 0.029305164 0.043539822
0.031719934 0.030077398 0.042960167
0.022511821 0.033803269 0.04248327
0.030917291 -0.025595486 0.13608834
0.030595634 -0.024529289 0.13365316
0.035846513 -0.018508472 0.12061214
0.026949575 -0.015943035 0.11680788
0.029392323 -0.015040226 0.11207706
0.030893939 -0.011569153 0.10969955
0.032602936 -0.0099639632 0.1067152
0.032265138 -0.0093959169 0.10138965
0.029548062 -0.0064063543 0.10146165
0.028574232 -0.0056880801 0.097548246
0.028279141 -0.0020140084 0.096823335
0.028035192 0.00044243969 0.087126613
0.02878394 0.0017269952 0.083095968
0.029711721 0.0056865951 0.078901708
0.030081082 0.0080623552 0.073430717
0.031641543 0.010398742 0.070412099
-0.018914811 0.032431602 0.066795826
-0.022349844 0.033723928 0.067376792
-0.026927967 0.034886446 0.067297995
0.033080596 0.012564901 0.06828326
-0.016960509 0.032999061 0.063444912
-0.021715168 0.034053549 0.062830627
-0.026449293 0.035662681 0.062362552
-0.012341363 0.034313399 0.058940589
-0.016269527 0.033178262 0.058062911
-0.021221286 0.033876006 0.05816704
-0.024813235 0.035039909 0.058293581
0.031935401 0.019444171 0.058247745
-0.0007476816 0.032271698 0.054989517
-0.0057041869 0.033081599 0.054846585
-0.010317653 0.033943795 0.054393232
-0.014318223 0.033718642 0.054673016
-0.00013875403 0.032437596 0.05027324
-0.0047842227 0.032879505 0.049668014
-0.010352767 0.034069434 0.049997747
0.0061426219 0.032821998 0.046751022
0.032519653 0.023445226 0.044560075
0.011220695 0.032809347 0.042957485
0.033764824 0.025644019 0.038172483
0.031574063 0.029214473 0.03905791
0.022204611 0.032602467 0.038262546
0.031073712 0.028517734 0.034602404
0.023383748 0.032094695 0.034387648
0.033483732 -0.0199924 0.11627901
0.031309336 -0.018622063 0.11646932
0.033743098 -0.019807965 0.11344397
0.030075384 -0.017638752 0.11367935
0.027138952 -0.016108897 0.11272544
0.03470267 -0.018993637 0.10947901
0.031493135 -0.015519124 0.10905063
0.027504049 -0.015409423 0.11125731
0.03531884 -0.015938761 0.10523814
0.033476986 -0.013763078 0.10504526
0.035498273 -0.015071737 0.10075498
0.03397974 -0.012524949 0.10050315
0.030739304 -0.0090798941 0.099071622
0.033071 -0.011290027 0.095975399
0.030106235 -0.0075843241 0.095559478
0.02909868 -0.0071943994 0.09097743
0.02748587 -0.0049599772 0.090508759
0.030481514 -0.0041773464 0.085829794
0.028765144 -0.002336476 0.086514652
0.031807721 -0.0020860564 0.08251822
0.029540798 0.00035782438 0.081374228
0.032316335 -0.0011053858 0.077553272
0.030321393 0.0013933191 0.077682674
0.030171193 0.0029861033 0.072426319
0.03246348 0.0061553456 0.068932474
0.032997873 0.0051005818 0.06501323
-0.018125538 0.033456925 0.055259883
-0.021574171 0.033977788 0.055843771
-0.027067224 0.034845807 0.056113303
-0.030311951 0.034930862 0.054210484
-0.012436739 0.033589557 0.051022291
-0.016750352 0.033065174 0.052080929
-0.02179376 0.033788361 0.051853359
-0.026644442 0.034087401 0.051350951
-0.0061406409 0.033094063 0.047586858
-0.010404801 0.033860214 0.048556268
-0.01588328 0.033336338 0.048113942
-0.020427627 0.034065127 0.048570573
-4.557427e-05 0.032200422 0.044840634
-0.0052625164 0.033349294 0.044302285
-0.010168425 0.034049075 0.043690026
-0.014331342 0.032991435 0.04355222
0.0049737203 0.032457214 0.040662348
-0.00442586 0.033748604 0.039389253
-0.0091132922 0.034081183 0.039831877
0.010860138 0.031921994 0.036216199
0.001014323 0.03384022 0.035806656
-0.0025557391 0.034055836 0.035753667
0.03363964 0.024970459 0.035470545
0.032106627 0.027468083 0.03255868
0.021753663 0.031922292 0.03222996
0.011975545 0.032043006 0.031612337
0.030195042 0.027498282 0.029013574
0.02222516 0.032016348 0.027908802
0.02596424 0.031356979 0.02472949
0.03626813 -0.021563927 0.10600209
0.033552445 -0.014540778 0.092272222
0.032223243 -0.012780279 0.088363767
0.030605419 -0.0099162366 0.088720024
0.032704767 -0.011286519 0.082783282
0.031156976 -0.0087645166 0.084672213
0.033579268 -0.0094692847 0.080140412
0.032655668 -0.0061430638 0.079503715
0.032943044 -0.0052087526 0.073464155
0.031959776 -0.0012327228 0.07066673
0.030876081 0.00075840205 0.071698904
0.032419808 -0.00098127965 0.064701676
0.033988856 0.0028437302 0.063741982
-0.027653676 0.033784412 0.048660457
-0.030943725 0.033467405 0.050813437
-0.017309243 0.032588806 0.044328272
-0.021796567 0.03291063 0.044758618
-0.026071813 0.033040088 0.045124531
-0.016323261 0.032989427 0.040444791
-0.021387819 0.032881897 0.040260494
-0.0066929264 0.033032119 0.035626888
-0.010264619 0.033342347 0.03636533
-0.014737672 0.032992326 0.0362854
-0.004657221 0.033235606 0.032579601
-0.010006487 0.032596849 0.031953633
-0.026058465 0.038929414 0.030998051
0.032723997 0.022079822 0.030754149
0.005874204 0.032288801 0.028589189
-0.0040626433 0.032191329 0.028402269
0.030212879 0.024063954 0.024895012
0.028126026 0.027837303 0.024920046
0.01174999 0.032237206 0.024492502
0.0019343002 0.032825287 0.023509145
0.029038563 0.025139464 0.020964384
0.021963701 0.031456847 0.020434082
0.011976864 0.032355621 0.020332694
0.027062992 0.029484972 0.016271114
0.018406862 0.031301051 0.016809106
0.023814209 0.031400461 0.013091385
0.03305988 -0.016227638 0.085124791
0.033792906 -0.016335141 0.08251369
0.030378241 -0.012889078 0.080941498
0.034341246 -0.012634755 0.077398479
0.033342414 -0.010930452 0.074885905
0.032538563 -0.0084338933 0.074240983
0.032350704 -0.0050783637 0.069162309
0.031636991 -0.0028869435 0.065198064
-0.028727256 0.031918865 0.043008804
-0.022898085 0.032169804 0.037764013
-0.026381893 0.03274937 0.039105535
-0.017437782 0.032373473 0.034135759
-0.021275926 0.032808326 0.034525275
-0.025076056 0.033761814 0.033617854
-0.028156724 0.034641422 0.033453524
-0.011608037 0.03267869 0.030000985
-0.015265784 0.032111406 0.029686153
-0.019493978 0.032984532 0.028827786
-0.024235893 0.034792572 0.028497159
-0.0055423435 0.032152437 0.026031017
-0.010108477 0.032449484 0.025590718
-0.014118631 0.032240238 0.024243414
-0.018487062 0.032914035 0.024804175
0.030631388 0.020255279 0.02206707
-0.004455125 0.032307126 0.021029055
-0.0092088254 0.032608509 0.021426857
0.029977676 0.022783905 0.019454181
0.0063562538 0.032446027 0.01804775
-0.0027477955 0.032177083 0.016922414
0.029631265 0.023927128 0.014110148
0.028510958 0.027392052 0.013830006
0.016695546 0.031295456 0.013980567
0.0072048255 0.032843888 0.012667418
0.029425498 0.024661515 0.0097892284
0.0228002 0.031430289 0.0099152923
0.012714784 0.032062542 0.0085663795
0.032368354 -0.017550154 0.078442693
0.034178969 -0.013738107 0.073236167
-0.014961041 0.032317951 0.022365153
-0.020002026 0.032535046 0.022330105
-0.024816612 0.03323029 0.02165997
-0.027665935 0.03521264 0.023241043
-0.009362421 0.032090459 0.018786967
-0.01440623 0.031824015 0.018288851
-0.01964662 0.032068349 0.018279135
-0.023244232 0.032411247 0.018325388
0.030117251 0.018175937 0.015871465
-0.00061617978 0.032528386 0.013611972
-0.0042507919 0.031392947 0.01428932
-0.0085932473 0.031410441 0.014157832
-0.0126923 0.032018397 0.014586508
0.030183304 0.017872449 0.012358546
0.0012983205 0.032442272 0.010964453
-0.0032014921 0.03178592 0.0095478892
-0.00752078 0.031430591 0.010175884
0.029797236 0.022365943 0.0080859065
-0.029610882 0.030856177 0.016994298
-0.019672533 0.031818505 0.01478833
-0.025041005 0.032453761 0.015508413
-0.029539226 0.030910946 0.014865458
-0.014421283 0.031611994 0.011724353
-0.019712832 0.031533841 0.011250198
-0.024504438 0.032378472 0.011247814
0.030347047 0.017839849 0.0090851784
-0.0081450846 0.032550663 0.0079972148
-0.019152261 0.031517129 0.0075805187
-0.022986751 0.032396272 0.0074059367
-0.029456079 0.030990697 0.01275599
-0.026327403 0.032076031 0.0088669658
-0.029448668 0.030801695 0.0081900358
