# .PCD v0.7 - Point Cloud Data file format
VERSION 0.7
FIELDS x y z
SIZE 4 4 4
TYPE F F F
COUNT 1 1 1
WIDTH 868
HEIGHT 1
VIEWPOINT 0 0 0 1 0 0 0
POINTS 868
DATA ascii
0.028581059 -0.030723633 0.18953058
0.030284178 -0.031743005 0.18672246
0.031057328 -0.033548027 0.18272686
0.015071163 -0.032019459 0.18896484
0.023605317 -0.028789008 0.19032997
0.028094303 -0.026836062 0.19034743
0.031648692 -0.02479947 0.18859091
0.020774465 -0.034165166 0.18643284
0.031907015 -0.028938625 0.18731961
0.03350345 -0.026917696 0.18461078
0.02125668 -0.034701999 0.18168139
0.034292296 -0.030396914 0.18100369
0.025935523 -0.035141617 0.17743099
0.034269854 -0.031417876 0.17608207
0.028865807 -0.035068296 0.17412463
0.034493864 -0.031889729 0.17258868
-0.0044403113 -0.032953952 0.1915516
-0.0016437611 -0.031538554 0.19216806
0.0070588086 -0.028322987 0.1919685
0.016676886 -0.024207823 0.19087145
0.025364894 -0.020067073 0.19157195
0.029243775 -0.017958004 0.1905652
-0.0040027611 -0.034346957 0.18883491
-0.00071603153 -0.034109283 0.18934384
0.0084851198 -0.031774737 0.18911427
0.018316031 -0.027486512 0.19096661
0.0313542 -0.020176522 0.18858406
-0.0035652621 -0.035739854 0.18611813
-0.00016759802 -0.035372101 0.18527588
0.0086336145 -0.033532377 0.1839585
0.0096326154 -0.033732958 0.17880884
0.018759716 -0.033994611 0.17956591
0.033614341 -0.025439192 0.18010017
0.019861568 -0.034491237 0.17492473
0.034715917 -0.028787456 0.17509025
0.019564178 -0.03422913 0.17041385
0.029590707 -0.033053014 0.17026508
0.034458384 -0.030738696 0.16984212
0.02934308 -0.032338493 0.16538578
0.032377802 -0.030669991 0.16597912
-0.0041318648 -0.025570698 0.19271478
0.0034224074 -0.021533625 0.19180888
0.018883385 -0.016206631 0.19167265
0.022855025 -0.014374363 0.1920945
0.027093161 -0.011675007 0.1906037
-0.0082368087 -0.030083839 0.19093108
-0.0026210118 -0.029081043 0.19324872
0.0057318639 -0.025025818 0.19248524
0.014432619 -0.020720627 0.1908648
0.029056188 -0.014635217 0.19090161
0.031926822 -0.012067076 0.18790308
-0.0081145531 -0.032376792 0.18707308
0.033087119 -0.014884245 0.18455911
-0.0062101996 -0.033354226 0.18232194
-0.00090501551 -0.034692269 0.18145561
0.03205879 -0.016789149 0.18184218
-0.0050529251 -0.033230092 0.17880744
-0.0016219579 -0.033507958 0.1775282
0.0070912112 -0.033248428 0.17716414
0.0084065963 -0.033919439 0.17279145
0.0088346992 -0.034156628 0.16810167
0.018085329 -0.03364351 0.16727281
0.034087654 -0.027827509 0.16700915
0.018234208 -0.032404497 0.16281021
0.027646797 -0.032970086 0.1633426
0.032612242 -0.027809938 0.16261125
0.023973931 -0.032562099 0.15856597
0.031374313 -0.029084375 0.15841144
0.02866891 -0.032886904 0.15256602
0.031241659 -0.030149378 0.15486735
-0.014516934 -0.025417469 0.19062275
-0.010486345 -0.024741098 0.19161403
-0.0064713946 -0.022010252 0.19292247
-0.0015013879 -0.019771481 0.1923885
0.007853929 -0.017383853 0.19154069
0.016937837 -0.011960607 0.1915552
0.021991808 -0.010204731 0.19195512
0.025998833 -0.0087258685 0.19140556
0.029978167 -0.0062257741 0.18888637
-0.018771589 -0.027626511 0.18926352
-0.01502763 -0.028457951 0.18864897
-0.011599483 -0.028171312 0.19097385
0.032768887 -0.0092802364 0.18847504
0.034126386 -0.0069302144 0.18516222
-0.013256076 -0.030113809 0.18493581
-0.010254285 -0.032194205 0.18448138
0.034735594 -0.0084459223 0.18104133
-0.012855848 -0.030705892 0.18030855
-0.0098137641 -0.032190893 0.18052635
0.031934761 -0.01322365 0.17820042
0.034404058 -0.010018914 0.17823786
-0.0081330677 -0.032980394 0.17638862
-0.0031149825 -0.033014137 0.17477033
0.030485045 -0.013280598 0.1738821
-0.0072814161 -0.032952718 0.17171121
-0.0030204179 -0.033482708 0.17088091
-0.0012494186 -0.034269702 0.16616642
0.0069092498 -0.033865862 0.16565624
0.0079300394 -0.034093607 0.16167018
0.032813113 -0.025113272 0.15944666
0.012981548 -0.034563381 0.15745622
0.032575153 -0.026526859 0.15619004
0.018429741 -0.033994261 0.15265802
0.03043694 -0.032775655 0.15077749
0.032336205 -0.028920203 0.15181154
0.0232355 -0.034464728 0.1472314
0.032112472 -0.029909644 0.14644605
0.028481379 -0.03367348 0.14263049
-0.01751183 -0.018151872 0.19316548
-0.01454371 -0.016956758 0.19395515
-0.0092774415 -0.01523862 0.1939593
-0.005460741 -0.012911761 0.19303408
0.00842408 -0.0067819022 0.1915127
0.012813008 -0.004999368 0.19177338
0.017971527 -0.0026723831 0.19131508
0.023274696 -0.0015619872 0.19130942
-0.021103371 -0.022181194 0.19022226
-0.017841049 -0.021600083 0.19142759
-0.013187598 -0.020890163 0.19242656
-0.0079428488 -0.018476363 0.19333142
-0.0032963566 -0.015501603 0.192036
0.00509763 -0.012026506 0.1913453
0.0099646766 -0.0096255448 0.19115511
0.014486456 -0.0076250788 0.19094771
0.01992465 -0.0059789517 0.19139329
0.024356997 -0.0044101719 0.19132721
0.028102314 -0.0011848249 0.18925765
0.03145586 0.00047961157 0.18764693
-0.024220079 -0.027676076 0.18455109
-0.02102269 -0.026313741 0.18703514
-0.017464085 -0.024688687 0.18962798
0.033583783 -0.0018826891 0.18465322
-0.019830517 -0.027269851 0.18193933
-0.016555252 -0.028215624 0.18232071
0.035529863 -0.0040010232 0.17854327
-0.01930766 -0.028008688 0.17831734
-0.015903987 -0.029156948 0.1775732
0.032121085 -0.010137335 0.17477179
0.034287628 -0.0063774306 0.17454076
-0.014729274 -0.030814864 0.17351252
-0.010838309 -0.032387082 0.17341489
0.031531952 -0.011311805 0.170807
0.033343829 -0.0077187438 0.1710768
-0.013696115 -0.031367101 0.16893852
-0.0097724479 -0.032538164 0.16974333
0.031589173 -0.012919057 0.16668928
-0.0091596358 -0.032977808 0.16504353
-0.004449781 -0.033258386 0.16357422
0.03228629 -0.014609254 0.1620447
-0.0084666116 -0.03303197 0.16061378
-0.0031468142 -0.033765122 0.15925342
0.032127917 -0.019050496 0.15731204
-0.0022684261 -0.034121409 0.15498024
0.0063842158 -0.033606242 0.15502593
0.033468705 -0.021198649 0.15295756
0.0075090509 -0.033904057 0.15041924
0.033784047 -0.02237886 0.14888418
0.012375722 -0.033878975 0.14580426
0.032585353 -0.02586193 0.14388555
0.017726738 -0.034101587 0.14185664
0.028806273 -0.032847233 0.13959128
0.03209547 -0.029304177 0.14035678
0.023090124 -0.034117658 0.13639709
0.03192579 -0.031192057 0.1354551
0.027963981 -0.033304311 0.1309458
0.031772755 -0.031484798 0.13124108
-0.016930934 -0.01127744 0.19485188
-0.01150735 -0.0098236203 0.19503185
0.017984772 0.0035906655 0.19287628
0.020103173 0.0046758112 0.19265226
-0.028513964 -0.017990047 0.19345519
-0.024590995 -0.01659226 0.19216171
-0.020374695 -0.015988898 0.1934526
-0.015814211 -0.013894208 0.19471377
-0.010457456 -0.012333361 0.19482225
-0.0052536135 -0.0093241241 0.19285151
-0.001356151 -0.0079055475 0.19123599
0.0074603688 -0.0032869878 0.19162175
0.011666873 -0.0020282052 0.19233304
0.01678489 -0.00026554009 0.192229
0.022079175 0.0016461364 0.19199455
0.026277894 0.0037984606 0.19063178
0.030253846 0.0059632212 0.18960944
-0.027109532 -0.020641319 0.18817735
-0.024073841 -0.020532142 0.18988127
0.032271925 0.0043158671 0.18640149
-0.026019685 -0.024393145 0.18596029
-0.024177684 -0.023426551 0.18759492
0.0332582 0.002553381 0.18346611
0.035158381 0.0018026028 0.18150127
-0.026058 -0.027693052 0.18281347
-0.022903107 -0.026068063 0.18045938
0.034427185 -0.00087592658 0.18016812
0.03543409 0.00063642766 0.17576131
-0.025536511 -0.02577306 0.17759195
-0.021631077 -0.027567606 0.1754933
0.033988792 -0.0049036769 0.17135882
0.036144897 -0.0014763521 0.17344621
-0.019970357 -0.029450852 0.17160931
-0.017244805 -0.029657817 0.17229229
0.033735961 -0.0062899394 0.16804731
-0.019662134 -0.03043066 0.16703084
-0.016354434 -0.030848742 0.16722518
0.032792069 -0.011322682 0.16384688
0.03348881 -0.006911343 0.16313374
-0.018972594 -0.030958775 0.16336662
-0.01471737 -0.031469151 0.16332266
-0.011814057 -0.03177442 0.16161913
0.031629834 -0.010091915 0.15908226
-0.010360154 -0.032429859 0.15819746
-0.0059979754 -0.03398212 0.15672469
0.032116432 -0.013551427 0.15570414
-0.0086950716 -0.03305202 0.15412953
-0.004074323 -0.03430602 0.15294206
0.033037826 -0.015248402 0.15131074
-0.0036442699 -0.033158667 0.14881733
0.0053824596 -0.033718992 0.14769709
0.033856329 -0.017828889 0.14651993
0.0063125337 -0.032881424 0.14331114
0.033020005 -0.020448126 0.1423254
0.011334454 -0.032634616 0.13879019
0.032664921 -0.026606385 0.13773367
0.016266998 -0.033213791 0.13431835
0.032994725 -0.027738281 0.13474253
0.021558346 -0.033587568 0.13027543
0.032260086 -0.029585084 0.12958294
0.026828961 -0.033260975 0.1251235
0.031444676 -0.031086894 0.12607878
-0.026543584 -0.008783699 0.19719625
0.016884612 0.011008449 0.19400501
0.024340538 0.01377441 0.19381237
0.027166611 0.015311843 0.19392589
0.031507649 0.017273571 0.19315487
-0.026017865 -0.013441706 0.1951333
-0.02263396 -0.010684445 0.1947749
-0.018733175 -0.0091854595 0.19425172
-0.012994839 -0.0063655344 0.19463319
-0.0078632431 -0.0043423437 0.19351405
-0.0040433961 -0.0012112205 0.19244257
0.00027783631 0.00080849725 0.19209594
0.0045312913 0.0029916877 0.1916441
0.0093884571 0.0036980542 0.19168177
0.014237235 0.0052928743 0.19195163
0.019177731 0.0080603864 0.19266564
0.023607571 0.010524957 0.19182399
0.028024174 0.012791662 0.1913543
0.03242832 0.014597209 0.19114378
0.035980746 0.015258163 0.19096589
-0.028312413 -0.017547598 0.19077915
-0.026564725 -0.015893882 0.19323468
-0.0027004157 -0.0045581339 0.19182888
0.0053952225 -0.0013323578 0.19149762
0.029957818 0.0097170863 0.18977153
0.033654798 0.010997137 0.18788588
0.037078518 0.014111534 0.18674123
-0.027865415 -0.018715788 0.18968967
0.034032885 0.0090922154 0.18373525
0.037231982 0.012863369 0.18229654
0.034481116 0.0080827903 0.1786046
-0.02623399 -0.024097851 0.17831579
0.034551356 0.0064349971 0.17446262
-0.025693621 -0.025842264 0.17480153
0.033816166 -1.3543293e-05 0.16929436
0.034904175 0.0039865784 0.16991222
-0.026099712 -0.02540751 0.17164767
-0.023414828 -0.027794592 0.16989368
0.034042887 -0.00093304459 0.16520944
-0.025822503 -0.027011577 0.16515434
-0.022599122 -0.029395603 0.16493553
0.033966087 -0.0055252705 0.16237539
-0.021392874 -0.029819693 0.16057298
-0.017292798 -0.030008789 0.15998071
0.031964481 -0.0096525289 0.15698901
0.032881849 -0.0057457956 0.15700239
-0.020266486 -0.029059906 0.1562264
-0.016052585 -0.029653009 0.1558696
-0.012605902 -0.030837972 0.15519133
0.03211607 -0.01032683 0.15366301
0.0326926 -0.0074566258 0.15196925
-0.014790205 -0.030436557 0.15065891
-0.012024723 -0.031121751 0.15131709
0.032289721 -0.011057863 0.15036893
-0.010422678 -0.031863764 0.14707547
-0.0051343124 -0.032723419 0.14598218
-0.0091195377 -0.03271836 0.14190048
-0.0049705887 -0.03292102 0.14232185
0.032578275 -0.01956898 0.13878137
-0.0038211606 -0.032603942 0.13840282
0.0057822699 -0.032442622 0.13684916
0.032475792 -0.020012328 0.13559687
0.010697724 -0.032320622 0.13242924
0.03338863 -0.022359423 0.13121641
0.011077651 -0.032764986 0.12750149
0.019205576 -0.032284848 0.12690562
0.031753182 -0.025293086 0.1250881
0.033645064 -0.023383774 0.12713689
0.015750941 -0.032675169 0.12247366
0.031345215 -0.028879851 0.12292689
0.03321036 -0.024877694 0.12255853
0.021183351 -0.033295419 0.11860037
0.03025075 -0.030831115 0.11882871
0.032165237 -0.027110714 0.11670434
0.026251908 -0.033598255 0.11417967
0.030603413 -0.032530315 0.11033124
0.011628303 0.014324524 0.19427407
0.015563025 0.013650874 0.19486964
0.021394612 0.014887502 0.19449657
0.026550507 0.017006371 0.19424719
0.029571826 0.018016296 0.19423071
-0.024730297 -0.0045512849 0.19440824
-0.020503998 -0.0032177879 0.19301197
-0.015754124 -0.0010243915 0.19341803
-0.010183922 0.00056531909 0.19369808
-0.0058510015 0.0032920665 0.1932649
0.0029389341 0.0070064608 0.19185472
0.0076905559 0.0079927193 0.19143116
0.011550448 0.010705853 0.19187969
0.01616404 0.011320554 0.19308209
0.021064691 0.013374856 0.19297683
0.038414564 0.016267058 0.1838994
0.034867726 0.011787547 0.18023762
0.038129553 0.014502434 0.18067947
0.034693018 0.012069757 0.17723861
0.037321996 0.012793688 0.17665535
0.035421543 0.009716576 0.17221174
0.036571559 0.011304468 0.17337462
0.034341913 0.0076337806 0.16666088
0.034372956 0.0027655177 0.1649034
0.033633664 -0.00020520296 0.15996292
-0.027427968 -0.02785329 0.1566149
-0.023851037 -0.026913736 0.15601909
0.033277635 -0.0043025129 0.15390673
-0.029166631 -0.029032044 0.15431595
-0.021896731 -0.028206993 0.15305188
-0.018682184 -0.029061532 0.15371034
-0.02083757 -0.028910458 0.14836884
-0.017798649 -0.029690905 0.1495285
-0.01695809 -0.030355822 0.14438677
-0.013281084 -0.030766742 0.14450401
-0.021464728 -0.032557175 0.14096916
-0.015854161 -0.031557772 0.13963506
-0.012069951 -0.032070868 0.14081714
-0.020587504 -0.035123602 0.13705236
-0.010809122 -0.032277383 0.13609007
-0.0067852922 -0.032242257 0.13569087
-0.0027063964 -0.032351673 0.13540441
-0.0059115943 -0.0313632 0.13207817
-0.00066895504 -0.031758834 0.13139084
0.00043823663 -0.031340349 0.12639815
0.0089039486 -0.032506537 0.12463039
0.032230623 -0.022220962 0.1231032
0.010365356 -0.032808419 0.12104017
0.031936787 -0.02333034 0.1185931
0.010481547 -0.033072546 0.116602
0.018928424 -0.032782421 0.11549944
0.032373369 -0.02506813 0.11533391
0.020265758 -0.032768086 0.11164153
0.031507757 -0.030372189 0.11099184
0.032969277 -0.02676367 0.11044496
0.025884874 -0.032353133 0.10772544
0.033451088 -0.028635692 0.10709029
-0.026632857 0.0016479464 0.19875759
-0.024721095 0.0051272213 0.19717541
0.00031305617 0.015545094 0.19650644
0.0040920107 0.015481047 0.19659847
-0.026102643 4.1970052e-05 0.19603658
-0.022870518 0.0025942344 0.19519767
-0.018839154 0.0047414312 0.19419783
-0.013430976 0.0072104093 0.19416147
-0.0036134408 0.010514004 0.19286782
0.00064041326 0.013453096 0.19315979
0.0054248772 0.014012188 0.19394451
0.0097972024 0.014656305 0.1946834
-0.02088375 -0.00023988634 0.19342807
-0.01782871 0.00078529725 0.19340989
-0.013393199 0.0026355782 0.1931802
0.0019219113 0.0095796874 0.19207489
0.0064040497 0.01131438 0.19191861
0.036452871 0.013839092 0.17090869
0.03406623 0.012940059 0.16435635
0.033720635 0.0090150693 0.16191423
0.034177516 0.012400419 0.16090328
-0.02883397 -0.024312805 0.15141129
-0.025615234 -0.025524508 0.1519005
-0.024408281 -0.027264617 0.14709365
0.032256395 -0.0025103167 0.14105824
-0.022617139 -0.029203972 0.14263731
0.031935588 -0.0042118328 0.13773832
-0.021303659 -0.031932466 0.13866347
-0.018610809 -0.031368207 0.1388953
0.031936266 -0.0052491557 0.13437518
-0.019786268 -0.033254247 0.13502955
-0.016566677 -0.03267929 0.13440657
-0.012761547 -0.032139529 0.13361967
-0.016157238 -0.031658277 0.12927884
-0.012167878 -0.031479433 0.12877339
-0.0072185518 -0.031300437 0.12923604
-0.0036872393 -0.030921452 0.12840569
-0.011109861 -0.031782664 0.12466079
-0.0069482885 -0.031983387 0.12446028
-0.0023025852 -0.031914026 0.1248467
-0.0063685821 -0.032595642 0.1197837
-0.00087576453 -0.0324343 0.12031668
0.00031832326 -0.033285744 0.11553699
0.010196557 -0.03273911 0.11335343
0.010348726 -0.033502914 0.10997963
0.033470176 -0.024414726 0.10924405
0.010243881 -0.033687115 0.1061253
0.019774415 -0.032185677 0.1051864
0.033148315 -0.026313189 0.10358387
0.020167556 -0.033145599 0.10026044
0.030067017 -0.031155217 0.1001271
0.032456152 -0.027534658 0.099715114
0.025381727 -0.033670891 0.09597832
0.03234316 -0.029490286 0.094714344
0.030216005 -0.032333173 0.091438115
0.032798722 -0.030940669 0.091885567
-0.023107734 0.007499807 0.19708335
-0.020781981 0.010159152 0.19603065
-0.016998069 0.013037586 0.19551605
-0.0060136784 0.017661018 0.19405469
-0.019064477 0.0080032339 0.19473436
-0.015587397 0.010094708 0.19419792
-0.0054314537 0.014971948 0.19256929
0.035293225 0.016476402 0.16152135
0.03769578 0.016897192 0.1607964
0.033028875 0.010643033 0.15792698
0.035211977 0.014662184 0.15759093
0.037349109 0.017611071 0.15646932
0.032299675 0.01113808 0.15316525
0.035283238 0.012931197 0.15370446
0.037991986 0.015653508 0.15396044
0.031539064 0.0092434892 0.14696395
0.032422226 0.0066766203 0.14490011
-0.027855985 -0.025407569 0.14557132
-0.027955089 -0.025741391 0.14189196
0.032097828 -0.0023834184 0.13707328
0.032546688 0.0010537049 0.13689011
0.032571856 -0.0040226663 0.13241917
0.033361189 -0.0014630882 0.13286734
0.031696547 -0.0042091683 0.12942177
-0.018425651 -0.030394938 0.12621504
-0.016605679 -0.030167464 0.12294692
-0.013402059 -0.030428531 0.12150604
-0.012205685 -0.030581422 0.11676157
-0.0089213615 -0.031186802 0.11624175
-0.0074116094 -0.031084407 0.11257118
-0.0035711238 -0.032138634 0.11306733
-0.0059841992 -0.032149076 0.10902101
-0.0024732854 -0.032272857 0.10797018
-0.0013364712 -0.032702934 0.10390204
0.008948368 -0.030973762 0.1018889
0.0092951022 -0.032180063 0.098837018
0.010596037 -0.032700416 0.094022095
0.018760283 -0.033160709 0.093920767
0.032154042 -0.024478985 0.094039321
0.019340238 -0.032812871 0.089217842
0.029190343 -0.030872677 0.087890267
0.032276534 -0.027501963 0.089237034
0.024386812 -0.032208048 0.084598005
0.031927757 -0.029204423 0.085352957
0.028408755 -0.031702932 0.081223845
-0.017198473 0.016297065 0.19608894
-0.0087887524 0.019119717 0.19415793
0.037094004 0.018299656 0.15599874
0.035795692 0.014370485 0.15045121
0.037887119 0.015769102 0.15098318
0.032013461 0.010877721 0.14836007
0.03480589 0.013904818 0.14691329
0.037675645 0.016115697 0.14686352
0.031881858 0.010485083 0.14432368
0.032937493 0.0045369086 0.13472718
0.032526869 0.00034846924 0.1266064
0.032485213 0.00010960363 0.12183338
-0.019913075 -0.028375328 0.12030947
-0.019050356 -0.027480692 0.11660194
-0.015328747 -0.029039707 0.11556268
0.030128181 -0.0084055522 0.11118996
-0.012797867 -0.030385815 0.11112905
-0.0094550541 -0.03078258 0.10988444
0.031591356 -0.0079829693 0.10726327
-0.012456501 -0.030718412 0.10695428
-0.0081107663 -0.031670779 0.10617709
-0.012018721 -0.031252231 0.10292774
-0.0082567101 -0.031887811 0.1019572
-0.0034478437 -0.032228343 0.10104334
-0.0067820456 -0.031642076 0.098463356
-0.0029013446 -0.03160385 0.096884429
0.0023972262 -0.032673601 0.091996729
0.0087761898 -0.0326881 0.087435842
0.014200616 -0.032598823 0.082485616
0.02248282 -0.032044329 0.081952751
0.03143429 -0.028236635 0.081468761
0.019477338 -0.033116594 0.078144252
0.029098187 -0.0308653 0.078165352
0.031457197 -0.02862495 0.077693284
0.028329646 -0.030829063 0.073617876
0.035971928 0.015863538 0.14375556
0.033043347 0.0088049145 0.13199675
0.033175718 0.013178419 0.13117516
0.032278538 0.0076978696 0.12704206
0.032035187 0.0060101142 0.12078488
0.030043019 0.0016814116 0.11725569
0.03201985 0.0034366855 0.11753058
-0.024894742 -0.0245304 0.11522281
0.030003265 -0.0012385147 0.11463875
0.031817995 0.0014134124 0.11486375
-0.020355901 -0.02597658 0.11327899
0.030666292 -0.0041066939 0.10986894
-0.017662041 -0.025495257 0.10958976
0.031770427 -0.0057602311 0.10577005
-0.014330756 -0.029812573 0.1043638
0.031096775 -0.0071723554 0.10056847
-0.013779029 -0.029707266 0.099396586
-0.010839786 -0.030431066 0.098614633
-0.01283517 -0.030287847 0.095999539
-0.0094494736 -0.030555109 0.094754159
-0.0048431978 -0.030493885 0.094091654
-0.0080478713 -0.030812474 0.089966595
-0.0039620446 -0.030930249 0.090574145
-0.0035128687 -0.031462446 0.085262537
0.0060597141 -0.03230099 0.084988296
-0.0020203274 -0.032409817 0.08196336
0.0062058717 -0.031595875 0.080866516
0.0068125213 -0.031809106 0.077162027
0.01625023 -0.032534223 0.074553967
0.017768925 -0.032235418 0.071652949
0.028596306 -0.029787069 0.070132077
0.030661061 -0.02708235 0.071209252
0.02295769 -0.031055378 0.066313624
0.030386431 -0.026742561 0.066757083
0.033844344 0.013600146 0.12908012
0.032619152 0.0093933307 0.12364125
0.034520015 0.012537256 0.12568671
0.031795226 0.0091247587 0.12165123
0.03451987 0.012440293 0.12157285
0.032215558 0.0050657368 0.11449558
0.032125268 0.010290813 0.11697733
0.02969767 0.0020616502 0.1099416
0.031927988 0.0032581855 0.11165154
-0.02637139 -0.023785541 0.11136913
-0.022963209 -0.024215683 0.11012655
0.029842973 0.0014720354 0.10736942
0.031781893 0.002152646 0.1073643
-0.027554993 -0.02364607 0.10798115
-0.021767434 -0.023447283 0.10586202
-0.018045031 -0.025081128 0.10620308
0.032907374 -0.0023791231 0.10370821
-0.020665251 -0.023813833 0.10167027
-0.017950565 -0.02591883 0.10177231
0.031646185 -0.0040881606 0.09854871
0.03282553 -0.0025219899 0.098751962
-0.016773757 -0.028255422 0.097129405
0.030076718 -0.0048811566 0.094677627
0.032541081 -0.0020027217 0.095285892
-0.01515346 -0.029491033 0.092827201
-0.014073372 -0.028446164 0.088274658
-0.010378094 -0.03116814 0.088718712
0.030088559 -0.010530916 0.083434999
-0.008748183 -0.031645969 0.08444643
-0.0056526074 -0.032009918 0.083801031
0.029213618 -0.0131746 0.080011487
-0.0079533467 -0.031333383 0.079639971
-0.0040978147 -0.032063123 0.07911998
-0.0028976137 -0.031216115 0.074691832
0.0059933932 -0.032080721 0.074375749
0.011091482 -0.031789396 0.069974661
0.016074019 -0.031517677 0.064901531
0.028944716 -0.027799219 0.064071417
0.030187044 -0.02650496 0.063419342
0.021378884 -0.031331729 0.060568094
0.028026618 -0.025730817 0.060161829
0.025542043 -0.029802583 0.055529296
0.032905001 0.013045058 0.11799353
0.033093702 0.012247421 0.11389858
0.032583162 0.0085622352 0.11023057
-0.02965299 -0.022844587 0.10895127
0.031605668 0.0060331686 0.1046744
-0.027561348 -0.022468064 0.10474795
-0.024448186 -0.023038149 0.10426784
0.032071237 0.0044804779 0.10080028
-0.027138375 -0.022907699 0.10083276
-0.023260044 -0.023358773 0.1004374
0.032223009 0.0037408341 0.096276879
-0.022236686 -0.02463745 0.096032143
0.029663093 -0.0039815912 0.091911495
0.031068888 -0.0014413083 0.091822267
-0.020913117 -0.026767187 0.091493487
-0.017429581 -0.028807135 0.089733779
0.029076234 -0.0046227379 0.087735355
0.030471316 -0.0016712826 0.088437736
-0.020106334 -0.028206155 0.087097406
-0.015892515 -0.02867678 0.086278141
0.029815856 -0.0068920963 0.084224224
-0.019634506 -0.028823871 0.0830428
-0.016056444 -0.028891906 0.08194387
-0.011115598 -0.03004867 0.080967844
0.03064278 -0.0095070973 0.079347074
0.031879056 -0.0061531672 0.079696357
-0.014274964 -0.029552497 0.076698065
-0.010614701 -0.030924473 0.077965677
-0.0062723672 -0.031529605 0.076104581
0.029519157 -0.011238636 0.075244606
-0.013688221 -0.03142054 0.073054612
-0.0099995565 -0.031605665 0.073120713
-0.0049206484 -0.031697959 0.073280334
-0.00041136891 -0.031178916 0.071186364
-0.0090763299 -0.032660596 0.068759024
-0.0047815135 -0.031793356 0.068414986
0.005229238 -0.030214164 0.066778481
-0.0043268939 -0.032334656 0.064263284
0.0051620491 -0.031038443 0.063670993
0.0012413068 -0.032216728 0.059931517
0.01036129 -0.030654959 0.058078706
0.028202422 -0.024154074 0.056912839
0.016014999 -0.031296384 0.053394496
0.026089581 -0.029433915 0.05256927
0.02854727 -0.025429027 0.052756727
0.02140351 -0.031887397 0.049054205
0.029167231 -0.027463956 0.048211873
0.026204463 -0.031651925 0.044350445
0.029790826 -0.029020928 0.04391706
0.030190889 -0.030135725 0.03969413
0.032880127 0.017363753 0.10843033
0.032953739 0.01456904 0.10627782
0.032687496 0.012542453 0.10150868
0.031639431 0.010292666 0.097718
-0.028375175 -0.022009492 0.097197115
0.031528838 0.0053321877 0.091945827
-0.02725355 -0.022417668 0.092987418
-0.02479694 -0.023927957 0.092609525
0.03147959 0.002881486 0.089565575
-0.027454587 -0.022553584 0.08893311
-0.024734667 -0.02459248 0.089000285
0.030464873 -0.00028402638 0.085404038
-0.023420848 -0.026629161 0.084206522
0.03083358 -0.0031881807 0.081408501
-0.022243954 -0.027521536 0.079371691
-0.018418942 -0.028060175 0.07867378
0.03194553 -0.0037654582 0.075505733
-0.020564083 -0.027971182 0.073910773
-0.017553974 -0.028470276 0.075055957
0.030408762 -0.0091504222 0.071872175
0.031962499 -0.0068865987 0.073027372
-0.020306334 -0.029033637 0.070599377
-0.01625441 -0.03116776 0.070862353
0.029297099 -0.010255335 0.067814291
0.031985637 -0.0074692685 0.066189945
-0.015501317 -0.031460587 0.066574514
-0.01148553 -0.031284213 0.065209746
0.026706781 -0.012845749 0.060455501
0.029532051 -0.010622203 0.063720465
-0.0099762548 -0.030968081 0.062238693
-0.0054110177 -0.032100685 0.060973167
0.027459085 -0.014875796 0.060093939
-0.004210175 -0.031690635 0.057349861
-0.00041373167 -0.031460859 0.056204855
0.028163038 -0.017453991 0.051744521
0.0048692706 -0.031092361 0.05165571
0.028894886 -0.019599153 0.049382269
0.010075387 -0.031188736 0.04683882
0.029982552 -0.022790596 0.045832574
0.015199667 -0.030986818 0.042822719
0.031196143 -0.026291683 0.04257834
0.025516815 -0.031678822 0.037284911
0.030876702 -0.028298823 0.036651731
0.029548381 -0.030280054 0.032950938
0.034067322 0.018445499 0.099860489
0.033028308 0.01221627 0.096114278
0.035180718 0.016329156 0.095947623
0.033241522 0.011000275 0.092250764
0.035324905 0.014417412 0.09166497
0.030936221 0.0065885768 0.086822033
0.032638177 0.01010056 0.087515354
-0.027684595 -0.022496471 0.085747361
0.030883888 0.0045096264 0.08292526
0.031886809 0.0086295353 0.083556831
-0.027159516 -0.024107672 0.082900465
0.031080395 0.0031998083 0.078951061
-0.026670609 -0.025782628 0.079055488
-0.024471138 -0.027022528 0.076367497
0.031112237 0.00052218046 0.076741636
-0.023629725 -0.027253933 0.073633671
0.031188374 -0.0051374612 0.068425417
-0.022863131 -0.027598072 0.068870187
0.030321391 -0.0079401713 0.064015567
-0.021254664 -0.028980773 0.065434158
-0.019237954 -0.028479036 0.062092245
0.028999865 -0.0093787843 0.061392963
0.031571615 -0.0067912191 0.060343206
-0.015328963 -0.02928457 0.060584247
-0.011912809 -0.029986564 0.059401929
0.028028842 -0.0090696467 0.05669874
-0.011164464 -0.030011877 0.055181503
-0.0065698577 -0.030399613 0.054315567
0.027261831 -0.01488892 0.053749859
0.02778952 -0.01172682 0.051475167
-0.005968757 -0.031194815 0.050864279
-0.00060450751 -0.03122782 0.049193084
0.028710976 -0.014515179 0.047513664
-0.0039304597 -0.032347284 0.045958281
-0.00060842838 -0.032105695 0.046429515
-0.0001854701 -0.032567978 0.04140085
0.0090440055 -0.031564724 0.04047519
0.0048721074 -0.032799173 0.037066102
0.014501658 -0.030549046 0.036341786
0.014997317 -0.030451607 0.032198787
0.025262969 -0.030590691 0.029385269
0.025021005 -0.030869817 0.026775539
0.022054631 -0.032246657 0.02224797
0.035714474 0.018393908 0.093121946
0.035554692 0.016127806 0.089509666
0.033459798 0.012515386 0.083960414
0.034959406 0.014959562 0.083987534
0.032376025 0.010001133 0.080224216
0.031132232 0.0052356501 0.075427473
0.0320777 0.0087922169 0.075714529
-0.01748668 -0.027500991 0.057607174
0.028800523 -0.0070745992 0.053497016
0.030519653 -0.004340142 0.055063605
-0.016113665 -0.028561674 0.052428484
-0.013982479 -0.029258573 0.052480757
0.028634824 -0.0085410289 0.049623072
0.030585749 -0.0049656611 0.049195111
-0.012171219 -0.029285222 0.047949374
-0.0085417945 -0.029887266 0.047020912
0.028903708 -0.010484669 0.044452786
-0.010715136 -0.029464927 0.043958724
-0.0078177266 -0.02995625 0.043008268
0.029458359 -0.012197619 0.041666329
-0.00526735 -0.031136345 0.038763463
-0.0017223833 -0.032106984 0.037853837
-0.00076778419 -0.03201241 0.034370363
0.0075188293 -0.030852094 0.033052742
-0.0014956817 -0.03130883 0.030830741
0.0089711407 -0.030320464 0.029814303
0.0099879913 -0.028783794 0.025628626
0.018472681 -0.030598633 0.023809373
0.02802369 -0.02545068 0.023318231
0.019312378 -0.030999457 0.019760489
0.027613575 -0.025956294 0.018729448
0.02403928 -0.02969389 0.014866233
0.033281192 0.014330614 0.078835607
0.032352768 0.011571295 0.07327193
0.032569692 0.015888274 0.072332799
0.031207502 0.011146521 0.069100142
0.030815976 0.010248481 0.064392447
0.030330017 0.00631135 0.059760094
0.029545665 -0.0020136675 0.050927699
-0.019132184 -0.025904987 0.051710546
0.029588938 -0.0024301922 0.046993256
-0.01899128 -0.027517837 0.046317697
0.02921214 -0.0065421686 0.043631673
0.029960394 -0.0038357358 0.041754603
-0.018353719 -0.029117927 0.041570008
-0.013521779 -0.028871812 0.042004526
0.029382363 -0.0073668137 0.038961351
0.029282393 -0.0073524816 0.035696507
-0.017597497 -0.030335708 0.036584735
-0.012757646 -0.02986148 0.037263572
-0.0086089512 -0.029594829 0.036786675
-0.012433965 -0.030794818 0.031888068
-0.0073194895 -0.030813091 0.03281796
-0.0064971959 -0.031618282 0.027785838
-0.0018327842 -0.031461947 0.028075755
-0.0051899357 -0.032095306 0.023893714
-0.0015258286 -0.03156241 0.022974014
0.0079853795 -0.029192274 0.022933781
0.0036875186 -0.030927991 0.018457234
0.013104737 -0.029586907 0.018191099
0.028793078 -0.022072915 0.016980588
0.018409096 -0.029964201 0.013112009
0.027677573 -0.024866953 0.012667477
0.023968782 -0.029181227 0.0082870126
0.026915502 -0.02586635 0.0078741908
0.032905862 0.017268412 0.069329798
0.030626711 0.0158312 0.06557405
0.032416724 0.017589413 0.066165745
0.03084957 0.0099519482 0.061450183
0.030924432 0.0094775418 0.057581067
0.030930625 0.0091808196 0.053548396
-0.022689383 -0.022572272 0.04714179
-0.023450864 -0.025562376 0.043859303
0.029890902 -0.0021113092 0.040408432
0.030150797 -0.0035434505 0.036207557
-0.02028512 -0.029821035 0.035117805
0.029378353 -0.0055271992 0.031052589
-0.017603949 -0.030197738 0.030756474
-0.014449073 -0.031286281 0.029267311
0.027692717 -0.0085913939 0.027569473
0.028565027 -0.0060223471 0.027960002
-0.017441969 -0.030933928 0.028131008
-0.01242445 -0.029314632 0.025372088
-0.0092228809 -0.030962666 0.026163816
0.027710026 -0.0089635756 0.023518443
-0.012081824 -0.029144194 0.021694481
-0.0081749931 -0.030564746 0.021352053
-0.0072396575 -0.030209705 0.017395675
-0.0027545225 -0.030025112 0.016367972
0.0063622072 -0.030050615 0.014700055
-0.001339199 -0.029511705 0.011970043
0.0077551282 -0.029348874 0.011241615
0.030465694 0.016118245 0.063211083
0.032935683 0.017648958 0.063435197
0.030679701 0.015353606 0.060640991
0.033441313 0.017689493 0.059646964
0.03101843 0.014125793 0.056309819
0.033491172 0.016425574 0.05525893
0.030903053 0.012427177 0.051132143
0.03247036 0.014773847 0.050868452
0.030011972 0.0087735895 0.047195852
0.028592872 0.0049179359 0.04328382
0.029494999 0.0073063672 0.041712463
0.029133378 0.0031572552 0.039387167
0.030384071 0.0045741419 0.037564993
0.030249225 -0.00030251313 0.033715725
0.031066939 0.002373144 0.032948256
0.03064833 -0.0017018961 0.02949369
0.031660762 0.0004015835 0.028130054
0.029521275 -0.0047335541 0.025035203
-0.018647222 -0.02675036 0.022260666
-0.015580803 -0.02805483 0.022726595
0.026682096 -0.0089368457 0.019924164
0.028846828 -0.0057236226 0.020529687
-0.013986911 -0.028525641 0.018890679
-0.010127732 -0.029809803 0.018419445
0.0269296 -0.010396572 0.016126513
-0.013546279 -0.029284731 0.014352381
-0.0082755247 -0.030300325 0.014601707
-0.0047226241 -0.030064009 0.013623297
-0.011984029 -0.030782834 0.01096046
-0.0087260567 -0.030454684 0.0099201798
-0.0031025903 -0.029959094 0.0099747777
0.030905571 0.013874597 0.047909856
0.03292919 0.016721176 0.048471272
0.030785955 0.013981436 0.044568837
0.032611661 0.016492942 0.04425174
0.030130338 0.01294736 0.03977257
0.032401174 0.014090228 0.037347615
0.030413037 0.010552413 0.034617603
0.031473327 0.0081523973 0.031200409
0.031656448 0.0052332403 0.025439858
0.030383272 -0.0014807852 0.022703588
0.031333722 0.00087308232 0.022204638
0.030083299 -0.0022339355 0.018279731
0.031447828 0.00035654381 0.019355774
-0.019325797 -0.025885377 0.016968012
-0.017049588 -0.026928591 0.016268492
0.028385958 -0.0046447907 0.014108956
-0.01948254 -0.026103206 0.012680769
-0.016862426 -0.027854346 0.012654722
0.027162198 -0.0085897241 0.0098776221
-0.014861793 -0.029525638 0.007966876
0.032927476 0.017958909 0.041074216
0.033907481 0.020315468 0.04065001
0.032629516 0.016564984 0.038140714
0.035217915 0.018444547 0.036543369
0.031053003 0.012591482 0.034864604
0.033044182 0.014558698 0.03281194
0.034955092 0.016952466 0.033684492
0.031742759 0.010161854 0.027098656
0.033578265 0.012288072 0.028585255
0.030718815 0.0078809652 0.026396692
0.029171782 0.00099872891 0.01156956
-0.019610675 -0.02611028 0.010430813
0.03004281 0.0086165592 0.010168493
0.029059643 0.0048134741 0.0079153776
0.030062204 0.013562487 0.0084691644
