# .PCD v0.7 - Point Cloud Data file format
VERSION 0.7
FIELDS x y z
SIZE 4 4 4
TYPE F F F
COUNT 1 1 1
WIDTH 1238
HEIGHT 1
VIEWPOINT 0 0 0 1 0 0 0
POINTS 1238
DATA ascii
-0.03500849 0.028842211 0.17993462
-0.036516905 0.026912034 0.1796858
-0.034915626 0.030565917 0.17761511
-0.038076639 0.028549254 0.17742094
-0.03568244 0.030802071 0.17461854
-0.037756562 0.030062079 0.17404282
-0.022357762 0.029590786 0.17891419
-0.026386201 0.028770626 0.17960119
-0.030923784 0.027543306 0.18051624
-0.035510957 0.024335861 0.18081486
-0.038755238 0.021784127 0.17990994
-0.023432553 0.030306995 0.17679441
-0.02785486 0.030732989 0.17584607
-0.032176912 0.03080523 0.1766811
-0.038882971 0.02629149 0.17695647
-0.040550709 0.022733331 0.1759952
-0.041428983 0.02033323 0.17280102
-0.029782593 0.031621933 0.17141852
-0.033516765 0.031395793 0.17176664
-0.03846097 0.029145539 0.17183959
-0.040389657 0.024633706 0.17096806
-0.030066907 0.032269061 0.16723573
-0.033688128 0.030964136 0.16618058
-0.037800312 0.028524876 0.16617653
-0.040089726 0.02491796 0.16778997
-0.035680175 0.031419516 0.16274711
-0.038077474 0.029738545 0.16272056
-0.014542639 0.028279901 0.17981368
-0.017690122 0.026414692 0.18039465
-0.022110462 0.024291754 0.18127695
-0.026852071 0.021515012 0.18144277
-0.031515658 0.018942654 0.18183982
-0.035148144 0.016275287 0.18150038
-0.037795484 0.011981189 0.17970824
-0.015176535 0.031460464 0.17715198
-0.019991755 0.029402614 0.17813262
-0.02300036 0.026692927 0.18025914
-0.037675858 0.017276227 0.18032622
-0.039631367 0.01483953 0.17745084
-0.016911268 0.031812906 0.17257518
-0.021547556 0.03067112 0.17354819
-0.02548945 0.030595303 0.17348087
-0.041840434 0.015966535 0.17319527
-0.01873827 0.032211661 0.16892523
-0.022025824 0.031102061 0.16921744
-0.026229024 0.031190038 0.1689499
-0.041165233 0.022258639 0.1687575
-0.041995704 0.018746376 0.16869414
-0.023708642 0.031781971 0.1651628
-0.027937651 0.032194138 0.1645461
-0.03202635 0.032314897 0.16382951
-0.038843572 0.026730597 0.16504198
-0.040267706 0.023759246 0.1646865
-0.041744411 0.018977523 0.16491878
-0.029141903 0.031575978 0.1609455
-0.033213019 0.031231344 0.15994319
-0.038070679 0.028539419 0.15988725
-0.040175736 0.024968505 0.16023153
-0.035443544 0.030958593 0.15571052
-0.037379742 0.029481888 0.15546381
-0.0360744 0.031513512 0.15216637
-0.037305295 0.0307284 0.1521759
-0.0075544715 0.024754643 0.18161911
-0.01028949 0.023165166 0.18227747
-0.013579071 0.021402538 0.18215495
-0.007825911 0.028174222 0.17888516
-0.011790872 0.026658893 0.1804657
-0.016697168 0.023627996 0.18137759
-0.020678639 0.020086586 0.18113896
-0.023948014 0.017322838 0.18098044
-0.027738452 0.016429484 0.18139642
-0.033399403 0.011265874 0.18102384
-0.036067426 0.0079334378 0.17948365
-0.038315892 0.005455792 0.17808825
-0.008458972 0.030660689 0.17552787
-0.039418757 0.0093634129 0.17628455
-0.040128946 0.0070102811 0.1750266
-0.011298954 0.032088995 0.17166665
-0.014275789 0.03233856 0.17143747
-0.042271852 0.014230192 0.16977489
-0.012535989 0.032314837 0.16706085
-0.016007364 0.032129467 0.16660425
-0.020295978 0.03158015 0.16637644
-0.042645931 0.014300406 0.16682225
-0.042388082 0.012746394 0.16329038
-0.017481208 0.032637417 0.16195253
-0.021558344 0.032063663 0.16240102
-0.025562644 0.031745493 0.16245323
-0.040916264 0.016810477 0.16197333
-0.0188061 0.033456326 0.15783554
-0.02261132 0.032962561 0.15765283
-0.027280033 0.031879663 0.15840298
-0.030608416 0.031313598 0.15794274
-0.040205121 0.022682965 0.15805212
-0.02408278 0.033070982 0.15379408
-0.02813518 0.031462729 0.15311
-0.032301724 0.03098613 0.15403512
-0.038824916 0.027435124 0.15380317
-0.039394259 0.023840547 0.15336806
-0.030293465 0.032037675 0.14886543
-0.034156561 0.031853437 0.14924729
-0.038408279 0.029011905 0.14957246
-0.033934772 0.0324471 0.14449209
-0.037381291 0.029902995 0.14515215
-0.0033765435 0.019592345 0.18261865
-0.0065005422 0.017941475 0.18423676
-0.0083462 0.015039325 0.1845673
0.0046280622 0.027662039 0.17877978
0.0006198287 0.025216758 0.17948252
-0.0036258101 0.022885442 0.18131274
-0.0077342987 0.020706773 0.18333101
-0.012136757 0.016888618 0.18279362
-0.015800536 0.015410304 0.18121609
-0.019279242 0.011539578 0.18020111
-0.023226678 0.0077688098 0.17989874
-0.026891232 0.0071312785 0.18035656
-0.032026768 0.0024148226 0.18001196
-0.036033332 -0.00030636787 0.17934024
-0.038579047 -0.0029256344 0.17898688
0.0036351085 0.029696882 0.17629838
-0.0015377402 0.02896291 0.17729211
-0.0051801205 0.026107192 0.17929563
-0.034859478 0.0032362938 0.17918932
-0.039412796 0.0032007098 0.1773082
-0.040349901 -0.00037789345 0.17653206
0.0027005672 0.031515777 0.17191571
-0.0021320581 0.030430794 0.17247853
-0.0064607263 0.030820012 0.1724152
-0.040289819 0.0038738847 0.17231607
-0.040460765 -0.00012218952 0.17318812
0.0013251305 0.032535851 0.1684323
-0.0035063624 0.030290008 0.16807571
-0.0077157021 0.030451775 0.16864079
-0.040689588 0.0064265132 0.16811424
-0.0088391304 0.029999554 0.16395298
-0.012944996 0.031338155 0.16355139
-0.041123807 0.0064115524 0.16435754
-0.010106325 0.030395329 0.16019458
-0.013819337 0.03113848 0.15985423
-0.040567875 0.012920916 0.15916061
-0.0420295 0.01137656 0.16130486
-0.016725898 0.032646775 0.15535459
-0.020501435 0.032858312 0.15413827
-0.03977704 0.01922977 0.15543398
-0.039478779 0.015747428 0.15513599
-0.018128335 0.032623291 0.15082079
-0.021647811 0.032395959 0.15055174
-0.025936186 0.031574011 0.15018529
-0.038727105 0.019002318 0.14974976
-0.02260828 0.031391799 0.14636409
-0.027014136 0.03106308 0.14649627
-0.038678467 0.024047911 0.14632931
-0.028804302 0.031897902 0.14246345
-0.033407509 0.031896889 0.14142963
-0.037618995 0.028400362 0.14180884
-0.038890719 0.024474919 0.14130801
-0.029336929 0.03218621 0.13807517
-0.033462822 0.031193495 0.13788816
-0.03718704 0.028061867 0.13737193
-0.036320567 0.029621184 0.13454136
-0.0048455596 0.013353944 0.18735549
-0.0059752464 0.01228261 0.18727359
-0.010500729 0.0076366067 0.18533909
-0.042756379 -0.013759494 0.1852873
0.013154268 0.024841547 0.18169484
0.0068998337 0.021848381 0.18147135
0.0042558908 0.02053982 0.18158096
0.00018364191 0.018070519 0.18294054
-0.0042391419 0.014366567 0.18508267
-0.009016633 0.012872875 0.1851064
-0.012575805 0.0092898607 0.18305898
-0.016222894 0.0058218837 0.18235224
-0.019943774 0.0027132034 0.18185717
-0.02289623 0.00085365772 0.18162352
-0.027855098 -0.0027830601 0.1813252
-0.032405615 -0.005413115 0.18187511
-0.036677063 -0.0082503557 0.18262923
-0.040524364 -0.012429237 0.18221086
-0.043108523 -0.013560355 0.18311504
0.010874867 0.0274086 0.17902187
0.0069497228 0.02526474 0.17972392
0.0026555061 0.022978067 0.18064624
-0.015766799 0.011084616 0.18100876
-0.017861903 0.0085386634 0.18070948
-0.021178246 0.0051099062 0.18038991
-0.026180089 0.0024377704 0.18004188
-0.029751539 -3.2424927e-05 0.18013799
-0.03428638 -0.0032775402 0.18045092
-0.039378285 -0.0057376623 0.1793752
-0.041273832 -0.0095379949 0.17819232
0.014125943 0.031706929 0.17323035
0.009476006 0.030877709 0.17512378
-0.04115051 -0.0040806532 0.17422447
-0.042783499 -0.0068712234 0.17410067
0.0077181458 0.032942474 0.1707029
-0.040309429 0.0021260977 0.16917422
-0.041045666 -0.0015518069 0.1698457
0.0065835118 0.033614993 0.1665827
0.0023491383 0.032205522 0.16618133
-0.0012798905 0.03073585 0.16610667
-0.041102111 0.0030284524 0.16572568
-0.041719317 -0.00026583672 0.16592216
0.0044139624 0.03377378 0.16359505
0.0014827847 0.03321594 0.16172084
-0.002985239 0.03130275 0.16213122
-0.0059632659 0.030228198 0.1614328
-0.040947497 0.005042851 0.16085923
-0.040705681 0.0013079643 0.16286588
-0.00029593706 0.032274485 0.15785527
-0.0040783286 0.03219527 0.15721524
-0.0083841085 0.030830204 0.15754646
-0.012694955 0.030558527 0.15660977
-0.039286315 0.010972023 0.15604532
-0.040275931 0.0079672933 0.15692118
-0.0052564144 0.033076763 0.15280774
-0.0094919205 0.031735539 0.15323415
-0.013126493 0.030880868 0.15368587
-0.039313972 0.010683239 0.15192816
-0.039835334 0.0077127218 0.15288019
-0.011128008 0.033054352 0.1485455
-0.015027106 0.032226384 0.14900678
-0.038317382 0.017328024 0.14683679
-0.039190829 0.013618469 0.14833233
-0.012643814 0.033277154 0.14494261
-0.0163486 0.032395124 0.14454585
-0.020757437 0.032282352 0.14470193
-0.038254082 0.019151509 0.14385569
-0.038053632 0.016016603 0.14404505
-0.022142887 0.03236568 0.14065972
-0.025400758 0.031667054 0.13997862
-0.039396286 0.020251155 0.14011487
-0.039401114 0.017895401 0.13939318
-0.023509741 0.033419609 0.13575223
-0.027504385 0.03269732 0.13559774
-0.032691538 0.031421006 0.13473967
-0.038193464 0.026702046 0.1348007
-0.039906383 0.023055255 0.13565961
-0.041013658 0.020224452 0.13414395
-0.028565168 0.03240186 0.13153285
-0.032891512 0.030794621 0.13087693
-0.037207365 0.029053926 0.13139698
-0.039531648 0.025283575 0.1314801
-0.036309481 0.02796495 0.1276916
0.015235662 0.020703197 0.18514234
0.013563871 0.017727435 0.18390933
-0.011569679 0.0026651621 0.18427157
-0.016906619 -0.003639102 0.18357188
-0.021936536 -0.0072972775 0.18195108
-0.024635136 -0.0084694624 0.18210244
-0.028130233 -0.011312962 0.18298638
-0.032714248 -0.014189959 0.18353021
-0.037027776 -0.016567409 0.18364424
-0.040255547 -0.016280413 0.18424618
0.02093935 0.028641939 0.1816141
0.017524242 0.026327491 0.18159693
0.014724016 0.023522377 0.1826258
0.010830224 0.021105468 0.18171725
0.0083107948 0.015541792 0.18116355
0.0047309995 0.012817264 0.18183565
-0.00011479855 0.012923598 0.18343055
-0.013596117 0.003310442 0.18324104
-0.017471313 -0.00074660778 0.182861
-0.022725105 -0.0028446913 0.18167442
-0.026393533 -0.0045183897 0.18186146
-0.030126631 -0.0086542368 0.18258205
-0.039666295 -0.014689267 0.18149728
-0.043515027 -0.016150951 0.17972738
-0.044766188 -0.018694758 0.17826629
0.02111733 0.029752016 0.1773794
0.017036855 0.02910459 0.17747092
0.014225483 0.026705623 0.17918929
-0.041931272 -0.012220323 0.17791876
-0.043556333 -0.015009701 0.17610997
-0.045410633 -0.017977118 0.17548668
0.023189008 0.033879817 0.16952008
0.021031141 0.031863093 0.17168027
0.016136467 0.031467915 0.17339277
-0.043789566 -0.0094917417 0.17204919
-0.044607997 -0.013399482 0.17158464
-0.046110213 -0.017111182 0.1727519
0.019310594 0.033789694 0.16766906
0.014529288 0.032614291 0.16839594
-0.042443693 -0.0083385706 0.16749471
-0.044937313 -0.011460781 0.16683942
0.013334155 0.03320843 0.16351113
0.0088745356 0.032569051 0.16347593
-0.041275203 -0.0033065081 0.16169089
-0.042902052 -0.0077129006 0.16325501
0.01286453 0.033940136 0.15949869
0.0085832477 0.032450855 0.15922582
0.0041920543 0.033554792 0.15970561
-0.040122628 -0.0013692975 0.15812963
0.0062344074 0.032128215 0.15580595
0.0025200844 0.032267451 0.15504521
-0.0011572242 0.031794786 0.154769
-0.040496707 0.003392756 0.1552684
-0.040562987 0.0017419457 0.15207431
0.0016036034 0.032694161 0.15033132
-0.0026705861 0.032438934 0.15056184
-0.0075419545 0.032148719 0.14985979
-0.040230691 0.005438745 0.15021169
-0.040932953 0.0022348166 0.15072173
-0.0043612123 0.033142447 0.14626476
-0.0082226396 0.032882035 0.14629638
-0.040331721 0.010964692 0.1469028
-0.040347338 0.0069818497 0.14572296
-0.0060099959 0.032747567 0.14267153
-0.010119677 0.032843471 0.14173299
-0.014725804 0.03169781 0.14095619
-0.039260924 0.012669861 0.14170417
-0.040119648 0.0092955232 0.14243415
-0.011499941 0.032316923 0.13759553
-0.015401721 0.031734049 0.13747582
-0.018604994 0.030824661 0.13722226
-0.04025656 0.013644934 0.13668206
-0.016513169 0.032082319 0.13274494
-0.02014643 0.032198489 0.13331494
-0.041070044 0.01571089 0.1327399
-0.017966032 0.032881141 0.13012236
-0.022459865 0.032334805 0.12904486
-0.027218461 0.03174144 0.12809005
-0.039628804 0.021930099 0.1280503
-0.04073143 0.018411279 0.12954885
-0.027192473 0.031333745 0.1239456
-0.032133996 0.029650927 0.12517568
-0.036812305 0.027442336 0.12458176
-0.039836407 0.022694409 0.12376017
-0.029316247 0.031827986 0.11976973
-0.032730281 0.03075844 0.11984906
-0.037117541 0.02846694 0.1202058
-0.039689898 0.024557769 0.11973677
-0.033708692 0.031941354 0.11564485
-0.037473381 0.029487967 0.11566532
0.01611346 0.010767341 0.18637061
-0.013785899 -0.0084421039 0.18493578
-0.016674101 -0.01114887 0.18473557
-0.019540191 -0.013920963 0.18451554
-0.032402396 -0.021536231 0.18471977
0.013370275 0.013741851 0.18325281
0.010584652 0.010293961 0.18161684
0.007997334 0.0093740821 0.18119609
0.0043900609 0.006811142 0.18268675
-0.011657417 -0.0028003454 0.18291935
-0.014454365 -0.005497992 0.18347234
-0.017998278 -0.0091723204 0.18280819
-0.022161484 -0.011192083 0.18320566
-0.026221752 -0.014658689 0.18349987
-0.029918551 -0.018339217 0.18318856
-0.034343839 -0.020146966 0.18346137
0.0092971325 0.01339674 0.18045628
0.024555802 0.027676344 0.17486218
0.024687409 0.031186223 0.17086136
0.023641407 0.030276895 0.17312443
-0.044994771 -0.015348852 0.16838562
-0.04590714 -0.018176556 0.17089081
0.023423135 0.033172309 0.16773909
0.020667732 0.033348024 0.16594964
-0.044494331 -0.013511896 0.16568863
0.019416988 0.031586528 0.16135281
0.01669842 0.032120347 0.16088283
-0.042377651 -0.0088821054 0.15956616
-0.043737531 -0.012856543 0.1610564
0.017858624 0.032659888 0.15769315
0.014503896 0.032911062 0.15682113
0.010882378 0.031803608 0.15614274
-0.0400576 -0.0056268573 0.15691966
-0.041888237 -0.0082409382 0.15626401
0.02092886 0.038834751 0.1510157
0.017176688 0.036023259 0.14934462
0.013808787 0.03345561 0.15208429
0.0089044571 0.03129071 0.15271038
-0.040973783 -0.0028495193 0.15239859
-0.042462289 -0.0068807006 0.15120971
0.012082517 0.033851087 0.14916867
0.0081624389 0.03056246 0.14949459
0.0046741962 0.031037211 0.14782935
-0.041038632 -0.00076168776 0.14803511
0.00096100569 0.031344652 0.1441797
-0.0014686584 0.032028973 0.14312816
-0.040603817 0.0040287971 0.14292175
-0.040572524 -0.00057560205 0.14352274
-0.0031201243 0.031722367 0.13920903
-0.0067735314 0.032013297 0.13944247
-0.040444374 0.0060722232 0.13915369
-0.041161716 0.0029360652 0.13755032
-0.0044588447 0.031138539 0.13579211
-0.0088205934 0.031645834 0.13472
-0.040761352 0.0074632764 0.13461193
-0.011071146 0.031374037 0.13138345
-0.013572991 0.031538844 0.13056445
-0.040796638 0.014793158 0.12921003
-0.041037858 0.01047653 0.12949252
-0.015547574 0.031376839 0.12721488
-0.019307196 0.030602574 0.12552768
-0.040784657 0.016546547 0.12657297
-0.021141768 0.030550838 0.12187592
-0.025480151 0.031381249 0.12166739
-0.041008949 0.018009365 0.12188778
-0.023098469 0.030902088 0.11857436
-0.026879549 0.031408012 0.11764476
-0.039381504 0.022365093 0.11660812
-0.040430367 0.018557668 0.11831874
-0.028400123 0.031327605 0.11359844
-0.032502532 0.031401575 0.11228753
-0.037507236 0.028738499 0.11219618
-0.038596749 0.02396971 0.11244399
-0.032719076 0.02998513 0.10869209
-0.036841571 0.028334379 0.10837013
-0.012430251 -0.016964257 0.18786824
-0.016485631 -0.019313216 0.18694049
0.017236352 0.0094510317 0.18535498
0.015318751 0.0064641237 0.18492851
0.010842979 0.0038394332 0.18294764
0.0064743757 -0.0011742711 0.18189886
-0.010449827 -0.012031794 0.1841256
-0.014650941 -0.014148235 0.18540382
-0.017944872 -0.016954124 0.18536061
-0.023268044 -0.019434035 0.18414515
-0.027342439 -0.020308375 0.18420294
-0.029487491 -0.022941291 0.18390048
0.012489855 0.0081607103 0.18285155
0.0080820918 0.0058061481 0.18144354
-0.011499882 -0.0085298419 0.18300369
-0.022856712 -0.016012728 0.18299735
0.022655487 0.030631185 0.16251314
-0.044124663 -0.017111778 0.16308635
0.021717846 0.031153917 0.15930322
-0.043961823 -0.014988303 0.15855378
0.02306211 0.034973204 0.15265501
0.020287871 0.032470286 0.15498757
-0.042775154 -0.011887074 0.1525166
-0.042957842 -0.014598012 0.15493712
0.021961153 0.036740601 0.15021461
0.018600762 0.034934402 0.15112463
0.010708094 0.031103909 0.14968801
-0.043243527 -0.0086411238 0.14927271
-0.04319787 -0.011511743 0.15033486
0.02136457 0.037367046 0.14655232
0.017866254 0.035885453 0.14632198
0.01324445 0.034408092 0.14612019
0.0091953874 0.031339228 0.14635986
0.0053653121 0.030409455 0.14525205
-0.040762424 -0.0046188831 0.14553255
-0.042268932 -0.007507503 0.14524496
0.013117194 0.033549726 0.1425409
0.0091274381 0.031729102 0.14106151
0.0042907596 0.030785322 0.14220536
-0.040506065 -0.0025972128 0.14132142
-0.041926444 -0.0055430532 0.141518
0.006659627 0.031550825 0.13738126
0.0035843253 0.030895174 0.13700399
0.00012207031 0.031246006 0.13781193
-0.041725397 -0.00068032742 0.13608339
0.0019269586 0.031271994 0.13292474
-0.0028479099 0.031925797 0.13317689
-0.041505694 0.0060480237 0.13219887
-0.04178071 0.002351284 0.13286617
-0.0045339465 0.03228128 0.12869909
-0.0086788535 0.031558514 0.12911415
-0.041264057 0.0058013797 0.12774229
-0.0046440959 0.031902075 0.12538525
-0.0092862248 0.031392395 0.12397928
-0.013808668 0.030387461 0.12409539
-0.040038526 0.011508167 0.12318657
-0.040331662 0.0077413321 0.12405474
-0.010748386 0.03141582 0.12007896
-0.014512062 0.030768871 0.1196074
-0.018425226 0.03066498 0.12015925
-0.040649593 0.015308261 0.11810426
-0.016094029 0.03066951 0.11560205
-0.020429909 0.030931473 0.1155687
-0.02399534 0.030193985 0.11449776
-0.039705098 0.019635618 0.11447681
-0.039750457 0.014821291 0.11450378
-0.02104795 0.031181812 0.11042879
-0.025083661 0.030369997 0.11083243
-0.039172053 0.02001673 0.11096675
-0.039671361 0.018226087 0.10911719
-0.023450673 0.032410562 0.10535634
-0.027188241 0.031444073 0.10653824
-0.031922162 0.030893803 0.10613648
-0.037123859 0.027576268 0.10575835
-0.038621604 0.022565842 0.10644201
-0.0278337 0.031955063 0.10200309
-0.03241843 0.030887127 0.10185196
-0.036622107 0.02799201 0.10197242
-0.038104296 0.024151325 0.10261721
-0.033771932 0.031040668 0.098436736
-0.036417902 0.029154122 0.098506056
0.016914189 0.0022176504 0.18569279
0.015003145 -0.0026507974 0.18481159
-0.0072088242 -0.017504156 0.18512988
-0.0079677701 -0.019288957 0.18597981
-0.018495977 -0.023598373 0.18506032
0.01520133 0.0020419955 0.18437684
0.012893558 -0.00099790096 0.18338326
0.010028303 -0.0029571652 0.18212265
-0.004743576 -0.013007402 0.18078899
-0.0059561133 -0.015080333 0.18234026
-0.019909143 -0.022508383 0.18400502
-0.042769551 -0.016111314 0.15131342
-0.043553948 -0.015538812 0.14686072
0.019708693 0.034208477 0.14236611
-0.042400837 -0.010068417 0.14186227
-0.044198155 -0.013030589 0.14259449
0.019198716 0.032768548 0.1389704
0.015049458 0.032396436 0.13895169
0.010382116 0.03098911 0.13806212
-0.040183961 -0.0064352751 0.13931039
-0.04236263 -0.0089563727 0.13783118
-0.045015037 -0.010445237 0.13907075
0.017935514 0.032474339 0.13538614
0.014524937 0.032310367 0.13441649
0.0096711516 0.031217873 0.13490778
-0.041958988 -0.0034821033 0.13495621
-0.042744279 -0.0067188144 0.13435763
0.012169659 0.032936156 0.13025528
0.0091533065 0.031884491 0.13040483
0.0044897795 0.030628443 0.12980586
-0.042163968 -0.001519382 0.12997842
-0.043804765 -0.0049709678 0.12902513
0.019259632 0.04189229 0.12673211
0.0094456077 0.034202158 0.12555787
0.0028023124 0.030814826 0.12551865
-0.00075227022 0.030248284 0.12597075
-0.041657686 0.00021064281 0.12522864
-0.043924749 -0.0035880208 0.12485132
0.0022380948 0.031039655 0.12202371
-0.0020152926 0.030490935 0.12128148
-0.0059697628 0.030561149 0.12200645
-0.039991856 0.0045794249 0.12094609
-0.0043568611 0.03087467 0.11661188
-0.0079870224 0.030847728 0.11746595
-0.011483371 0.030560911 0.11671571
-0.039284587 0.0071558952 0.11783538
-0.0091101527 0.031110525 0.11293194
-0.013551474 0.030324042 0.11275051
-0.038868487 0.01145345 0.11155585
-0.011042178 0.031453073 0.10792945
-0.014404893 0.030764878 0.10796512
-0.01785332 0.030259073 0.10792191
-0.039118946 0.014128327 0.10760019
-0.015923381 0.032005012 0.10347883
-0.019931674 0.031805038 0.10433505
-0.038368106 0.018701017 0.10297508
-0.039012909 0.015672266 0.10481984
-0.016982555 0.031852245 0.10037386
-0.021480203 0.031761885 0.099604867
-0.025912225 0.031742036 0.099678658
-0.037840664 0.021845996 0.09928181
-0.02401495 0.031888366 0.097082548
-0.026513934 0.031083763 0.095585547
-0.03104955 0.029414117 0.094752364
-0.035782337 0.026728392 0.094743572
-0.037100554 0.023508251 0.09390875
-0.032384813 0.028173387 0.090574436
-0.035836697 0.027096331 0.089913271
-0.0017325282 -0.022694409 0.18635038
0.013784289 -0.0054414272 0.18432617
0.011713386 -0.0082097054 0.18398246
0.0081298351 -0.011487961 0.18297702
0.004160285 -0.013734341 0.18306381
0.00056684017 -0.018081367 0.18321747
-0.0030914545 -0.019337654 0.18480515
0.0097279549 -0.0066750646 0.18260032
0.0075760484 -0.010740221 0.18090671
0.003657341 -0.01316005 0.18068457
-0.00070661306 -0.015670121 0.18036306
0.02650547 0.029792964 0.13931546
0.025453508 0.028589666 0.13997161
0.025435328 0.031606674 0.13764885
0.022311568 0.031574607 0.1371344
0.02436626 0.032949567 0.13261387
0.020257592 0.031646371 0.13203666
0.01667124 0.031775832 0.13099068
-0.043678999 -0.011040986 0.13460943
0.019778848 0.033376396 0.12696287
0.015017509 0.03303057 0.1279147
0.0085644722 0.031153917 0.12721324
0.021297395 0.03913027 0.12298987
0.018550277 0.034568131 0.12375513
0.01367408 0.033567011 0.12379954
0.0080972314 0.032317817 0.12420244
0.0056105852 0.031399548 0.12385774
-0.042286694 -0.0023385882 0.12246636
-0.043752313 -0.0047890544 0.12199638
0.012844205 0.0333336 0.11967442
0.0089774132 0.032161117 0.11963598
0.0039274693 0.031282425 0.11929456
0.00034117699 0.03094852 0.1191474
-0.039829969 0.0023196936 0.11855326
-0.040455759 -0.0010603666 0.11875806
-0.042027891 -0.0056095719 0.11973492
0.002369523 0.030967176 0.11511562
-0.0014672279 0.031174541 0.11520524
-0.038685203 0.0041652918 0.11400322
-0.0034751296 0.030678034 0.1102793
-0.0072268844 0.030888677 0.10975266
-0.038591862 0.0066552758 0.10988698
-0.0039375424 0.030569136 0.106847
-0.0082843304 0.0317536 0.10641936
-0.03862685 0.011069536 0.1048022
-0.038337529 0.0069134831 0.10579798
-0.0097256899 0.032447159 0.10235132
-0.013109207 0.031700969 0.10140061
-0.038804173 0.012037933 0.10069033
-0.015503168 0.031613946 0.096961461
-0.019739032 0.032214701 0.09673702
-0.037361145 0.017403901 0.096780144
-0.038125336 0.014714658 0.097010277
-0.016961932 0.032121301 0.092997901
-0.020872772 0.032196045 0.092959546
-0.026440442 0.030705452 0.092267893
-0.037705839 0.018969178 0.092432193
-0.021722317 0.031915307 0.088436864
-0.02670145 0.031126022 0.089303873
-0.031080723 0.029445469 0.088894896
-0.038129568 0.022761822 0.088899724
-0.026216745 0.030392408 0.084585033
-0.031472862 0.029315829 0.083976172
-0.036417902 0.027983248 0.085043751
-0.038971484 0.023719728 0.083960794
-0.031957865 0.0295645 0.079261504
-0.036636889 0.027956605 0.08024206
0.0034457445 -0.022437036 0.18575436
0.00053238869 -0.023156404 0.1868197
0.0051341057 -0.01808089 0.1836713
0.026501656 0.028860271 0.13255939
0.023872614 0.029653907 0.13387188
0.024611294 0.032099187 0.12986895
0.023383141 0.031246543 0.1306707
0.023503363 0.033753514 0.12653902
0.022470236 0.032504022 0.12717932
0.020287991 0.03371954 0.12086854
0.016114295 0.032621741 0.12011037
-0.043423057 -0.0082780123 0.11917756
-0.044142067 -0.01037693 0.11947889
0.018533766 0.033061087 0.11699683
0.01495111 0.032492042 0.11628259
0.010005713 0.031629205 0.11629436
0.0073565245 0.029976308 0.11567477
-0.040211499 -0.0034174323 0.11513532
-0.042477369 -0.0075371265 0.1159303
-0.044864655 -0.010242939 0.11392323
0.013295949 0.032670557 0.11229453
0.0093221664 0.032414913 0.11275256
0.0052005649 0.030345261 0.11256597
-0.038360834 0.00079536438 0.11117751
-0.039557755 -0.0032542348 0.11222381
-0.042572677 -0.0082854033 0.11241273
-0.044977725 -0.010456502 0.11222739
0.01209569 0.033038259 0.10821474
0.0086959004 0.032858253 0.10775284
0.0041661263 0.030634046 0.10776082
0.00067847967 0.029683769 0.10782171
-0.038836896 0.0016245842 0.10726602
-0.039183736 -0.0019661188 0.10796396
0.0079439878 0.033675492 0.10355178
0.00305444 0.031838119 0.10265315
-0.0017680526 0.030785084 0.1035913
-0.039116621 0.00553298 0.10330025
-0.039646626 0.0012669563 0.10168876
0.0016946793 0.032822907 0.099139713
-0.0030627251 0.032135725 0.099043123
-0.0076669455 0.030530572 0.098156534
-0.040055692 0.0063279271 0.098765932
-0.040793061 0.0027964115 0.097475938
-0.0043665767 0.031159937 0.095519654
-0.0080137253 0.030385554 0.094432198
-0.011467218 0.029899299 0.095074527
-0.038901389 0.011768162 0.095161788
-0.039203882 0.0084105134 0.094051324
-0.010217071 0.02999872 0.090630166
-0.013676822 0.030750692 0.090888344
-0.038774431 0.013503969 0.090734296
-0.039307833 0.0091307759 0.090980344
-0.015825331 0.031392455 0.086322777
-0.01874125 0.031508446 0.08595597
-0.038641989 0.017962337 0.087284051
-0.03859657 0.015209198 0.085602187
-0.021026015 0.031210363 0.081997417
-0.025693655 0.030334592 0.081071191
-0.038854301 0.020350039 0.079801671
-0.039451718 0.018659472 0.082696937
-0.02139008 0.031293571 0.077818535
-0.026148558 0.030453205 0.077005588
-0.031174898 0.029245377 0.07725706
-0.035750508 0.027515173 0.076636933
-0.038638949 0.022996962 0.077357166
-0.026947379 0.029613733 0.073499404
-0.031305552 0.029301345 0.072947673
-0.035739541 0.026640296 0.072913937
-0.038087308 0.023307502 0.073380344
-0.033352494 0.029565036 0.06831535
-0.035529494 0.02866745 0.067681216
0.0243209 0.034384251 0.11837588
0.022742093 0.032364726 0.11806587
0.024329603 0.033539116 0.11231599
0.021479785 0.032606959 0.11445386
-0.044045091 -0.011916935 0.11485095
0.020330787 0.033033967 0.10979892
0.016319931 0.032524467 0.11009095
-0.039437473 -0.0050281286 0.10865913
-0.04194361 -0.0081076026 0.10902188
-0.04459393 -0.011799634 0.10838605
0.019385755 0.033748209 0.10599414
0.014603913 0.032746017 0.10506199
0.0086980462 0.032353401 0.10459612
-0.03941673 -0.0047097802 0.10427327
-0.041373491 -0.0082492232 0.10510761
-0.043841064 -0.011244178 0.10507414
0.01385051 0.033219814 0.10071769
0.0092157722 0.032642663 0.10109159
0.004991591 0.031159937 0.10114612
-0.040020525 -0.0029016137 0.10076972
0.012645066 0.033721447 0.09747868
0.0080091953 0.033427835 0.097399883
0.0037522316 0.031734467 0.096612774
-0.00029283762 0.031755626 0.09644755
-0.040365517 -0.0011173487 0.09601777
0.0074436665 0.033056021 0.093414418
0.0019510388 0.0311234 0.092062376
-0.0019161105 0.031144738 0.092192285
-0.0054644346 0.031095624 0.092406295
-0.039628088 0.0048714876 0.092232995
0.00065904856 0.031846821 0.087846719
-0.0026916265 0.0307675 0.087841175
-0.0072567463 0.029953122 0.088156335
-0.011324108 0.029250085 0.086982988
-0.038885832 0.010811985 0.086436801
-0.039284885 0.0070616007 0.087993704
-0.0082579255 0.029339671 0.083454661
-0.011900902 0.028927982 0.082852565
-0.038583755 0.010502756 0.08287289
-0.0096632242 0.0303455 0.079640053
-0.013673127 0.030138254 0.0790103
-0.017579138 0.030527294 0.078275166
-0.037715852 0.013603449 0.077860616
-0.015060663 0.0301373 0.07579916
-0.019140363 0.030263484 0.074828111
-0.038852692 0.019230425 0.075148605
-0.038506985 0.014464557 0.074121021
-0.02072221 0.029640734 0.071240775
-0.025285542 0.029317915 0.070170276
-0.028987885 0.029761553 0.070673309
-0.038210511 0.021179795 0.069760852
-0.038639605 0.017795742 0.071143888
-0.027175248 0.029282331 0.065315269
-0.030606091 0.02994436 0.06660866
-0.036915362 0.026030123 0.067020975
-0.038323522 0.024111509 0.066129349
-0.028555334 0.030500948 0.061423384
-0.031710625 0.029932439 0.061172955
-0.035967231 0.028259277 0.061641984
-0.037774205 0.024606586 0.060683392
-0.033049226 0.030508101 0.057275422
-0.036442935 0.028713524 0.056995519
0.024241805 0.032882392 0.10629255
0.022422493 0.033189237 0.10763258
-0.045426011 -0.014624298 0.10763568
0.02338016 0.034269273 0.10443861
0.021314502 0.032547653 0.10285885
0.017273486 0.03227973 0.10263432
-0.041391134 -0.0098999739 0.10246895
-0.043493807 -0.01365757 0.10217861
0.019558787 0.032869279 0.098211043
0.016085804 0.033268392 0.099469624
-0.040330768 -0.005638063 0.098648719
-0.040726662 -0.009419322 0.098005526
-0.042092621 -0.013117254 0.099021517
0.017976701 0.033103764 0.09434732
0.014564216 0.032513261 0.09418162
0.010821581 0.031917989 0.093573116
0.0066175461 0.031324923 0.09384384
-0.038625658 -0.0037822723 0.091316395
0.012961924 0.031980872 0.090050183
0.0090177059 0.031785786 0.08945962
0.0046967268 0.031504691 0.090329848
-0.039275646 0.00092083216 0.088899396
0.0077296495 0.03131038 0.08596193
0.0037302971 0.031531394 0.085300438
-0.0016581416 0.030843198 0.085222356
-0.03906846 0.0044850111 0.084762894
-0.039296985 1.2993813e-05 0.085190855
-0.00225842 0.030347407 0.081394576
-0.0070134997 0.029994071 0.081692062
-0.039064527 0.0054675937 0.08115568
-0.0033147931 0.03100723 0.076947711
-0.0076572895 0.031121194 0.07738515
-0.037457943 0.0088006854 0.076013498
-0.038492918 0.00640589 0.077379964
-0.0087729096 0.032056093 0.072737597
-0.013724089 0.030689001 0.072873913
-0.016948938 0.029559791 0.070933007
-0.038082778 0.010157764 0.070682667
-0.011341393 0.031761944 0.068621419
-0.014177501 0.030665517 0.067400329
-0.018862545 0.029827356 0.067878805
-0.022045672 0.028830707 0.067673407
-0.038469732 0.014614284 0.067317538
-0.019645572 0.029546261 0.064057671
-0.024128854 0.02930367 0.063882522
-0.038178027 0.018733561 0.063661896
-0.038534105 0.015715361 0.063448422
-0.025480568 0.030073404 0.059405603
-0.038678408 0.020702362 0.059385963
-0.026140451 0.03085351 0.055081196
-0.030722618 0.030776262 0.05557064
-0.037662923 0.026668191 0.054559864
-0.0386464 0.023404121 0.055251755
-0.028185487 0.031209886 0.051209934
-0.032430828 0.030714214 0.051453449
-0.03699559 0.028227627 0.051533557
-0.038866937 0.024682939 0.050609179
0.025264621 0.033487856 0.1003966
0.023111284 0.032452464 0.099692009
-0.043509007 -0.016416669 0.098784707
0.024964213 0.033500731 0.096252464
0.022644937 0.033217967 0.09634956
-0.04098314 -0.011653125 0.094768547
-0.04286629 -0.015675128 0.095430635
0.023261964 0.035987139 0.090731733
0.020865858 0.034032762 0.092304997
0.017271817 0.032388449 0.091723852
-0.038839102 -0.0072407722 0.091002844
-0.03988421 -0.010925412 0.091489159
0.022838414 0.036484718 0.088456623
0.020119071 0.034401596 0.087725602
0.015359521 0.032579541 0.087841652
0.011433244 0.031165004 0.087576203
-0.039106786 -0.0056425929 0.087382458
-0.040526807 -0.0094416142 0.086375527
0.018779755 0.033489108 0.084094279
0.015166879 0.032406986 0.083433263
0.01021868 0.032062471 0.083503507
-0.039650798 -0.0035658479 0.083141111
-0.041909575 -0.0069279075 0.08162304
-0.043549657 -0.010066688 0.083457641
0.0081938505 0.032405734 0.078795277
0.0037904382 0.031096518 0.07916259
0.00085711479 0.029889345 0.078585945
-0.039305568 0.0021005273 0.078278504
-0.03949374 -0.0020296574 0.078528069
-0.043016493 -0.0047187805 0.078838013
0.0068799257 0.032948434 0.074793361
0.0031694174 0.031930745 0.074048273
-0.0012753606 0.03095746 0.074365847
-0.038784981 0.0051479936 0.073790334
-0.039363325 0.00080025196 0.072662257
0.00088787079 0.031860828 0.069856636
-0.0025086999 0.031652629 0.069773607
-0.0067456365 0.031285644 0.068988763
-0.039242625 0.0062482953 0.069254629
-0.0040724277 0.031399012 0.06532418
-0.007876873 0.031255722 0.065813832
-0.01219368 0.031094968 0.06513869
-0.038633823 0.010863364 0.065923266
-0.039716601 0.007309854 0.064842604
-0.0088409781 0.031253815 0.061443023
-0.013309181 0.030282855 0.061825715
-0.017631292 0.028434277 0.060909174
-0.038701892 0.012665153 0.061011486
-0.039699435 0.010069549 0.06069725
-0.010539651 0.031733394 0.058016963
-0.014056325 0.030613124 0.057011642
-0.01873976 0.029240727 0.057196178
-0.039108276 0.014629781 0.057544954
-0.020525992 0.029848516 0.052603252
-0.024506032 0.030711293 0.051317699
-0.039086878 0.02155 0.051148452
-0.039270461 0.017296851 0.052690245
-0.021194518 0.030353844 0.048084684
-0.025720716 0.03055191 0.047842927
-0.030721664 0.029387772 0.047233559
-0.035101354 0.026779771 0.046936877
-0.038465858 0.022091389 0.047261901
-0.039313853 0.017501533 0.047824569
-0.026497483 0.029791296 0.044038899
-0.030557334 0.029079795 0.04311163
-0.03523767 0.026256442 0.043248542
-0.037391424 0.023579478 0.043624349
-0.032236576 0.029317617 0.039449707
-0.035022855 0.027455509 0.039574906
-0.042890549 -0.016908944 0.092832319
-0.039984345 -0.01284498 0.089313798
-0.041653872 -0.015682995 0.088711016
0.02484107 0.033961236 0.085382991
0.022227883 0.032467782 0.083475612
-0.041126847 -0.011106551 0.085928999
-0.042090952 -0.013999343 0.085134171
0.020341635 0.032370329 0.080130242
0.016281128 0.03205663 0.080181383
-0.043540776 -0.010609806 0.081548862
0.015583038 0.031173766 0.075653546
0.0116961 0.031475425 0.076072775
-0.039502919 -0.0040275455 0.07522016
-0.041954458 -0.0062430501 0.07501056
0.022189021 0.038813412 0.071431004
0.013651192 0.032157063 0.071521007
0.0099240541 0.032129645 0.071790777
0.0046263337 0.031659484 0.071429931
-0.039686859 -0.0042592287 0.071209304
-0.041983962 -0.0071812868 0.071217261
0.012525856 0.032987416 0.068208627
0.0086431503 0.031871855 0.067900501
0.0045616627 0.031205773 0.067812674
0.0009803772 0.031200111 0.066988997
-0.04027468 -0.00044941902 0.067236923
0.0044674277 0.030812263 0.064213954
-0.0011354089 0.03082484 0.063915484
-0.040356278 0.0042293072 0.062090479
-0.041139185 0.0015150309 0.063426428
-0.0026959181 0.030399024 0.060236998
-0.0059162974 0.030453265 0.058043636
-0.039808154 0.0050134659 0.059927709
-0.041074097 0.0013126135 0.059408523
-0.0082759261 0.030227959 0.055517592
-0.01233387 0.029859602 0.053678431
-0.039105237 0.011125088 0.054855384
-0.039757669 0.0092641115 0.053766496
-0.014466524 0.028930545 0.049550541
-0.017503738 0.029306889 0.049731947
-0.038349926 0.01178652 0.048776038
-0.039088607 0.009904623 0.049982108
-0.019255996 0.028749526 0.045143075
-0.023610711 0.029325008 0.044811733
-0.038756907 0.019362688 0.044913001
-0.039446115 0.017374694 0.046051688
-0.021046996 0.028684735 0.041190483
-0.02437371 0.028809249 0.041059382
-0.037500501 0.020404458 0.041022278
-0.038433135 0.017863393 0.041561045
-0.025307 0.028823316 0.037294433
-0.030038118 0.029825568 0.037390903
-0.035620689 0.026444435 0.037552789
-0.037384093 0.022929847 0.036727026
-0.031001627 0.028604746 0.032667682
-0.034997702 0.027181566 0.032953009
-0.037145495 0.024227798 0.032316223
-0.032303929 0.029173195 0.028865404
-0.03514868 0.027611077 0.029168464
-0.037693441 0.024699748 0.029104568
0.027822614 0.03113699 0.081088431
0.025570095 0.030347645 0.081345849
0.023956656 0.031656027 0.078407131
0.023895323 0.035846472 0.073375545
0.021083176 0.032877266 0.074710123
0.017306209 0.031375349 0.073357485
0.023453534 0.036498308 0.071991555
0.019883156 0.034576535 0.070431374
0.01572597 0.032621503 0.070395432
-0.04116118 -0.0078118443 0.068606459
0.018913448 0.035927236 0.066831075
0.014664412 0.033545971 0.066330902
0.01014185 0.031752586 0.065910511
-0.040945709 -0.0073435903 0.064807259
0.0097913146 0.031492054 0.061213486
0.0047773719 0.030243993 0.060860656
0.0016204715 0.028881788 0.06071689
-0.041027963 -0.0026290417 0.059625097
-0.04136163 -0.0055975914 0.060327537
0.0042194724 0.030625403 0.05562789
-0.0006185174 0.02949518 0.056061454
-0.039324045 0.0041464567 0.055674858
-0.039928794 3.7312508e-05 0.055458464
0.0032376647 0.031357169 0.052474685
-0.0019762516 0.029929459 0.052120008
-0.0061401129 0.029316545 0.051895507
-0.0094886422 0.02833873 0.051145084
-0.03971386 0.003936708 0.051298328
-0.0036628246 0.030191064 0.047670819
-0.0068240762 0.029387355 0.047317572
-0.011296749 0.028920591 0.048087008
-0.03765738 0.0095618367 0.045929141
-0.039285898 0.0072832704 0.046866871
-0.0081509352 0.030172467 0.043269493
-0.012498856 0.029536903 0.043610312
-0.016153097 0.028444052 0.043814041
-0.037966788 0.010818541 0.042981036
-0.038642943 0.0073409677 0.043527819
-0.013492107 0.029552817 0.039154872
-0.018207192 0.028973997 0.039455935
-0.038166463 0.013686299 0.038435116
-0.01860255 0.029601216 0.034661219
-0.02357322 0.029124498 0.035101786
-0.037859976 0.01901716 0.035668746
-0.038250387 0.016023457 0.035419509
-0.020531714 0.030073106 0.030487612
-0.024722695 0.029549956 0.030376539
-0.028431833 0.02870822 0.029576644
-0.038444757 0.020982981 0.030418143
-0.025988817 0.029836833 0.025525667
-0.030439734 0.029249251 0.025205769
-0.035726964 0.026674688 0.02557499
-0.03859508 0.023415506 0.025827594
-0.031030655 0.029116392 0.020983584
-0.034573853 0.027460933 0.021305867
-0.03673476 0.024706066 0.021643825
0.020111322 0.03296423 0.061907701
0.016831756 0.031339407 0.061952345
-0.040869117 -0.010242403 0.061940722
-0.041481674 -0.013290405 0.060061701
0.019765794 0.033031404 0.057621039
0.016027927 0.031636894 0.058051057
0.012240827 0.030795872 0.057533957
-0.041492283 -0.0084969401 0.05713854
-0.04216367 -0.012268841 0.057981409
0.018579721 0.034693122 0.053270914
0.015054107 0.032854617 0.053479262
0.010437191 0.03147769 0.05415342
0.0073598623 0.03043586 0.053671964
-0.040915012 -0.0034719706 0.053555883
-0.041914999 -0.0061891079 0.053200014
0.017053962 0.036741257 0.049513884
0.013621688 0.034600556 0.049448021
0.0093238354 0.032979369 0.049729414
0.0050976872 0.031233132 0.049942739
0.0011935234 0.029099107 0.049769349
-0.039565027 -0.0023946762 0.049109317
-0.041121185 -0.0049117208 0.049950428
0.011856019 0.034485936 0.046098031
0.0081965923 0.033487499 0.045157917
0.0040094852 0.032241225 0.045534976
0.00031262636 0.028918326 0.045200773
-0.0032183528 0.028720379 0.044299461
-0.03925395 0.0012843609 0.044805743
0.0064026117 0.034015119 0.042037912
0.0033404231 0.032927513 0.04154066
-0.00094968081 0.029561877 0.04105068
-0.0051071644 0.029581606 0.041008957
-0.038606703 0.005816102 0.040762611
-0.0071028471 0.029082119 0.037261084
-0.011014044 0.028748214 0.036198869
-0.038528025 0.0068261027 0.035638347
-0.012980282 0.028971553 0.032121524
-0.038018525 0.012383044 0.031862214
-0.038545787 0.0085027218 0.033263996
-0.014585316 0.029833019 0.026883371
-0.018142641 0.029819787 0.027448364
-0.019575179 0.029754996 0.022822805
-0.024223804 0.029294133 0.022974707
-0.038261712 0.020576775 0.022103317
-0.038984418 0.018395305 0.022271909
-0.021073341 0.029954433 0.019320734
-0.024999082 0.029222131 0.018544532
-0.029614329 0.029005289 0.018888332
-0.034488797 0.026603639 0.018194743
-0.037049294 0.021776855 0.01901228
-0.027306497 0.02914381 0.014449485
-0.030619621 0.028713107 0.014339335
-0.034768224 0.026418388 0.014565863
-0.036373734 0.022246778 0.014110602
-0.032090664 0.028545737 0.010454543
-0.035476208 0.026973188 0.010079838
-0.042178988 -0.014592052 0.054143019
-0.041991651 -0.010394216 0.051579334
-0.042950392 -0.013969839 0.050793536
0.018223226 0.03621304 0.046859212
0.015300035 0.03493607 0.0471339
-0.03929168 -0.0063256621 0.045344539
-0.040601611 -0.0067827106 0.047296621
0.014869094 0.033458769 0.043089129
0.010356963 0.033514977 0.043438531
-0.038985133 -0.0037557483 0.042711683
0.013888359 0.033105671 0.039627418
0.0096350908 0.033008516 0.039403096
0.0046889186 0.031360626 0.037249073
0.00079315901 0.029247701 0.038655117
-0.038584411 0.0019230247 0.037739024
-0.038785398 -0.0011603236 0.039226606
0.0030037165 0.031278431 0.034383908
-0.00066334009 0.029303133 0.033988342
-0.0051804781 0.028408706 0.033380762
-0.038848221 0.0018650293 0.035093859
-0.03939718 0.00061148405 0.032929048
-0.0025063753 0.028375149 0.029608443
-0.0063942075 0.028481245 0.029169269
-0.0096322298 0.028392017 0.029822633
-0.038071156 0.0064517856 0.029120453
-0.0081227422 0.028038085 0.024719127
-0.011242568 0.029021263 0.02512572
-0.036846757 0.010380387 0.024546094
-0.036961615 0.0068553686 0.024900414
-0.013158619 0.029890537 0.020835645
-0.017006397 0.029669881 0.020425327
-0.014918804 0.029493988 0.016395904
-0.01838547 0.029326797 0.016433574
-0.022324383 0.028086424 0.015233584
-0.036636174 0.019364059 0.015652008
-0.037783206 0.015815973 0.015893526
-0.019428909 0.028987885 0.012940891
-0.023624241 0.028339624 0.012076981
-0.027295947 0.028508902 0.011427172
-0.036957622 0.020195961 0.012009151
-0.037794054 0.01709801 0.01134298
-0.025059581 0.028090715 0.0081209242
-0.028982878 0.028092086 0.0078575313
-0.034355581 0.026441753 0.0071467757
-0.037331641 0.021447003 0.0080077052
-0.030107021 0.028622389 0.0033842623
-0.03441447 0.027101755 0.003788352
-0.037325203 0.023784459 0.003174454
-0.031873703 0.028370976 -0.00010722876
-0.034446478 0.026305676 -0.00025561452
-0.043310225 -0.016341627 0.047821112
-0.039600134 -0.011223376 0.04407654
-0.04147625 -0.014472723 0.045683153
0.01933217 0.033288836 0.040916093
0.016848207 0.033201814 0.039458588
-0.039002538 -0.0047154427 0.038744673
-0.039632738 -0.008710146 0.039614514
0.019043565 0.033098459 0.03550829
0.015740454 0.032408476 0.035230502
0.011289775 0.031132758 0.034853384
0.0075917244 0.030597806 0.034934536
-0.038936615 -0.0042448044 0.034955218
-0.039892137 -0.0078222156 0.034116223
0.010323882 0.031302333 0.031073406
0.0059267282 0.030946791 0.031325564
0.00082582235 0.029078901 0.030773446
-0.039903879 -0.0021443963 0.030422404
-0.04091388 -0.0064361095 0.030438021
0.008836031 0.030541539 0.027314402
0.0048725605 0.031141341 0.026866831
0.00045323372 0.029254496 0.027326651
-0.0032479763 0.028175533 0.026713826
-0.037984133 0.0028977394 0.025940932
-0.038882673 -0.0014033318 0.026813753
0.0036193728 0.031756997 0.022627659
-0.00036090612 0.030074894 0.022446282
-0.0051859617 0.028298736 0.022895314
-0.035610676 0.0072577 0.02286569
-0.037246466 0.0044076443 0.021757253
0.0021059513 0.031756341 0.018797584
-0.00057864189 0.03125912 0.01826448
-0.0064250231 0.028975308 0.018615939
-0.0099511147 0.028624654 0.017300077
-0.036911309 0.0091255903 0.018572725
-0.036938131 0.0053547621 0.018784709
-0.00060975552 0.032872975 0.014570154
-0.0067314506 0.028904915 0.014643677
-0.011261225 0.028457999 0.014176466
-0.015570581 0.028450251 0.013387658
-0.038301647 0.011220336 0.014402337
-0.038951457 0.0083076954 0.012401946
-0.012916505 0.027982712 0.01055444
-0.017456114 0.028778315 0.010056145
-0.038915753 0.013498724 0.010083772
-0.018374503 0.0291363 0.0057949722
-0.022842348 0.028208554 0.0055828393
-0.037866831 0.019688427 0.0051721931
-0.038141608 0.015615225 0.0057271719
-0.019391537 0.028620005 0.0017091632
-0.023950398 0.028761983 0.0013202727
-0.028262556 0.028357327 0.00061675906
-0.038350642 0.019974709 0.0017572045
-0.038853884 0.016955018 0.00053906441
-0.042240798 -0.019749641 0.044405945
-0.039075673 -0.015218973 0.043553539
-0.040528119 -0.01835984 0.04179541
-0.040184796 -0.016298831 0.035831466
0.020845056 0.031112254 0.033297583
-0.041437268 -0.010434031 0.033475861
-0.042403936 -0.014069676 0.034072593
0.016963065 0.030351937 0.029002674
0.013793886 0.029774249 0.02742178
-0.042606115 -0.0080432892 0.02907715
0.016800284 0.030703366 0.025135256
0.011617005 0.030027747 0.02448798
-0.039138079 -0.0028770566 0.023835935
-0.040798008 -0.0069007874 0.024443842
0.0095224977 0.030655861 0.020115055
0.005507946 0.031201184 0.020018525
-0.038041651 -0.0031793118 0.019644596
-0.04048574 -0.0059568286 0.020478345
0.0089443922 0.032042265 0.015093602
0.0049536228 0.031543851 0.015874811
-0.0018020868 0.030174375 0.016503073
-0.0041162968 0.029286802 0.015878178
-0.037129819 0.0026487112 0.015472896
0.003770113 0.032030165 0.012122937
-0.0011968017 0.030416548 0.011597134
-0.0058577657 0.029037476 0.012076952
-0.009406209 0.028310537 0.011495598
-0.038493991 0.0042343736 0.011865862
0.00062692165 0.031153023 0.0079127252
-0.0065523386 0.028023183 0.0070857108
-0.011134028 0.02799952 0.0079519451
-0.039899111 0.0078639984 0.0082511306
-0.0082474947 0.028254211 0.0037213266
-0.012132823 0.027645946 0.0030318499
-0.015971124 0.029329538 0.0037644506
-0.038029253 0.011742949 0.0025659204
-0.039044619 0.0085260868 0.0042151511
-0.039281905 -0.020006776 0.038817361
-0.041344643 -0.019068837 0.035847023
-0.042812109 -0.020958662 0.035029516
-0.041944265 -0.016372263 0.02936326
0.02093333 0.03186357 0.027201541
0.019576192 0.030948341 0.02720172
0.020529747 0.032299399 0.024750479
0.017595828 0.031104565 0.022720136
0.014032483 0.030303776 0.022085436
-0.040731311 -0.0092600584 0.020988233
0.01658541 0.031925917 0.018361934
0.012857795 0.030641139 0.018519349
-0.038841307 -0.0046019554 0.016904064
-0.041448712 -0.0078517795 0.017496474
0.015540183 0.03095746 0.013938822
0.011342049 0.031844318 0.014309086
-0.03869164 -0.0031740069 0.014013983
-0.041900575 -0.0076010823 0.013918556
0.009896338 0.032364607 0.010515638
0.0053521395 0.031916678 0.0091605261
-0.00081020594 0.028796852 0.0091564432
-0.039306819 -0.0015041232 0.0091343299
-0.040874183 -0.004104495 0.0084607378
0.004139185 0.031821191 0.0055652559
-0.00029700994 0.030263126 0.0054081082
-0.0034205914 0.028352499 0.005656302
-0.0388515 0.00023555756 0.004186362
-0.00073599815 0.030898154 0.00076490641
-0.005104363 0.028785706 0.0011432171
-0.0092850327 0.028078914 0.0011651814
-0.038093328 0.0075556636 0.00070130825
0.017193377 0.030485749 0.011271842
-0.040849209 -0.0076113939 0.010642089
0.016485333 0.029898226 0.0074977875
0.01216054 0.030222178 0.0063035786
-0.041290045 -0.0071117878 0.0086651817
0.0106076 0.030128181 0.0028442144
0.0070124269 0.030402184 0.0028748512
-0.038692534 -0.0063493252 0.0030949712
0.020730615 0.028034449 0.0089923814
0.022468805 0.029562294 0.0053996742
0.018923819 0.029900968 0.0052807033
-0.037288725 -0.0060266256 0.0009418726
0.0210976 0.028217316 0.0023957193
