# .PCD v0.7 - Point Cloud Data file format
VERSION 0.7
FIELDS x y z
SIZE 4 4 4
TYPE F F F
COUNT 1 1 1
WIDTH 1262
HEIGHT 1
VIEWPOINT 0 0 0 1 0 0 0
POINTS 1262
DATA ascii
-0.024712205 0.033570528 0.18340427
-0.028566539 0.030235469 0.18340111
-0.026172101 0.035354137 0.18039587
-0.029843688 0.031723201 0.18028244
-0.028180957 0.035582602 0.17611963
-0.030326486 0.033162594 0.17622957
-0.017593145 0.030759633 0.18426234
-0.020658255 0.028835714 0.1844331
-0.026297152 0.02281481 0.18415549
-0.014657557 0.036223412 0.18165186
-0.018626451 0.034696043 0.18241099
-0.022921383 0.032270372 0.18421882
-0.026332319 0.028188646 0.18394461
-0.029996276 0.024255514 0.18225619
-0.031121194 0.020518005 0.18158761
-0.016071796 0.037500918 0.1784097
-0.020223141 0.036857128 0.17852047
-0.031220496 0.025806546 0.17820123
-0.032072365 0.021587789 0.17902657
-0.021927655 0.03664726 0.17407811
-0.025766075 0.035638034 0.17376524
-0.030644238 0.032275856 0.17381105
-0.031577408 0.027977765 0.17343834
-0.022299767 0.037175417 0.17019394
-0.026543558 0.035142541 0.17000204
-0.029985368 0.03287214 0.16926961
-0.031406224 0.029769242 0.16955183
-0.029235303 0.033926606 0.16632868
-0.0071934462 0.03472513 0.18307227
-0.010478944 0.032262743 0.18366444
-0.014393955 0.030431747 0.18443415
-0.017779648 0.026115119 0.18500656
-0.022378385 0.02345407 0.18425879
-0.026508749 0.020237803 0.18449011
-0.029037952 0.016259551 0.183911
-0.031188726 0.012646556 0.18273559
-0.008289963 0.038016438 0.1804792
-0.011997491 0.036495388 0.1820702
-0.032143772 0.017715037 0.18069124
-0.032845318 0.013608575 0.17984542
-0.0097138882 0.03858161 0.17656821
-0.01386112 0.038019001 0.17631143
-0.031723261 0.023162186 0.17555481
-0.032240987 0.019309282 0.1760402
-0.033202767 0.015985131 0.17561671
-0.014839947 0.037565768 0.171581
-0.019417286 0.037346244 0.17234364
-0.031817853 0.025353551 0.17156568
-0.032014787 0.021368861 0.17136613
-0.017126977 0.037590623 0.16763176
-0.020616055 0.036410987 0.16754447
-0.025164247 0.034960151 0.16690619
-0.031943977 0.026982486 0.16712619
-0.032284141 0.022644937 0.16716193
-0.021934748 0.035669386 0.16360973
-0.025641263 0.034562051 0.1629288
-0.030245364 0.032601655 0.16353445
-0.031569123 0.028246343 0.16269694
-0.030410588 0.032845438 0.15802915
-0.010963678 0.02496016 0.18607381
-0.016633928 0.0172171 0.18388376
-0.021015942 0.013482094 0.18579122
-0.023391426 0.010673821 0.18584046
-0.027247548 0.0071778893 0.18427947
0.003739208 0.037528932 0.1804792
0.00062558055 0.035798907 0.18138582
-0.0030674636 0.033078015 0.18270227
-0.007325083 0.029787719 0.18394732
-0.011394322 0.026794791 0.18507758
-0.014450103 0.024799585 0.1852271
-0.022173226 0.016492724 0.18483606
-0.026190579 0.013288915 0.18489581
-0.030441284 0.0097606778 0.18250141
-0.031356692 0.0057324171 0.18112203
0.0022345185 0.038480282 0.17745662
-0.0017195344 0.037875533 0.17790192
-0.033315897 0.012291849 0.17701837
-0.032788336 0.0081302524 0.17780033
-0.0035781264 0.037953913 0.17498428
-0.006495595 0.037935793 0.17286199
-0.032719553 0.012965143 0.1732412
-0.0088492334 0.037420869 0.16934602
-0.012781501 0.037615061 0.16872321
-0.032240629 0.018494785 0.16885506
-0.032531381 0.015167058 0.16914849
-0.010655135 0.037529528 0.16541301
-0.013716102 0.037000418 0.1646734
-0.01781255 0.036182523 0.16435365
-0.032678425 0.020120025 0.16467954
-0.015132964 0.03629607 0.16069309
-0.01934737 0.035316408 0.1606196
-0.023829043 0.03441304 0.15960477
-0.031793952 0.024888098 0.16071247
-0.031944275 0.021578789 0.15987752
-0.019510448 0.03500551 0.15670566
-0.024703622 0.034532726 0.15646832
-0.028742075 0.034183145 0.15552996
-0.031752944 0.027014613 0.15629493
-0.032043934 0.023219109 0.15645953
-0.025466442 0.034961939 0.15124522
-0.030659556 0.033506393 0.15231012
-0.032595515 0.028690815 0.15132643
-0.027742743 0.034118831 0.14750092
-0.030344725 0.032827199 0.14815854
-0.018276513 0.0044720173 0.1903846
-0.016859055 0.008071661 0.18687168
-0.019555449 0.0060045719 0.18751016
-0.022678196 0.0025870204 0.18701455
-0.026048303 -0.00049859285 0.1862081
0.012488455 0.037032843 0.18330342
0.008402288 0.034259319 0.18404573
0.0046966672 0.030821502 0.18410227
0.00090610981 0.028629422 0.18362749
-0.0035717785 0.025231004 0.18373406
-0.0065544248 0.023464262 0.18483555
-0.011858612 0.018012464 0.18412027
-0.014465839 0.012636602 0.18465802
-0.017206371 0.012000442 0.18531367
-0.02311188 0.0072208643 0.18588999
-0.025599778 0.0034531951 0.18513051
-0.029024363 0.0011274219 0.18413326
-0.03166467 -0.0024936199 0.18177781
0.010524124 0.039290428 0.1797564
0.006700784 0.037607551 0.18062809
0.0010950565 0.032926023 0.18246716
-0.031724989 0.0025270581 0.18012616
-0.032011449 -0.0011627674 0.17961118
-0.034636676 -0.0046827197 0.17931181
0.0089698732 0.039867401 0.17587078
0.0048305392 0.03901571 0.17564815
0.0002297163 0.038467765 0.17481402
-0.032742739 0.0046344399 0.17480725
0.003364116 0.039049923 0.17155731
-0.00092488527 0.037470162 0.17154992
-0.03215152 0.0093027949 0.17067346
-0.0324049 0.0063316822 0.1704492
-0.0019815862 0.037516057 0.16735761
-0.0056041777 0.03727746 0.16680364
-0.032484293 0.01142478 0.16711693
-0.032174468 0.0084832311 0.1658399
-0.0036356151 0.037429571 0.16305409
-0.0076974332 0.037360132 0.16267304
-0.011151314 0.036415696 0.1613736
-0.032712817 0.017105937 0.16275297
-0.032479882 0.013914168 0.16239087
-0.008153677 0.037405014 0.15806721
-0.012473166 0.036341548 0.1582049
-0.017094314 0.035522342 0.15783875
-0.032035232 0.0184201 0.15735872
-0.032430112 0.015931964 0.15850554
-0.014867902 0.037236214 0.1541035
-0.018731713 0.035467625 0.1536781
-0.032188952 0.021029472 0.15368421
-0.015477657 0.037370205 0.15016402
-0.019790411 0.035697639 0.14916281
-0.023609519 0.03603524 0.1486022
-0.032949924 0.027423501 0.14846383
-0.033223867 0.023859739 0.14911391
-0.021682501 0.036142409 0.14477126
-0.025675952 0.035075188 0.14555971
-0.030270576 0.032262087 0.14524697
-0.032797337 0.027727127 0.14506413
-0.025998771 0.035266101 0.1409433
-0.029894948 0.032941699 0.14085673
-0.032157242 0.029584467 0.14071028
-0.027571321 0.034932971 0.13667531
-0.030055523 0.033348203 0.13684119
-0.032072246 0.030995429 0.13666917
0.016473144 0.02963233 0.18779224
0.014232397 0.02761662 0.1877715
0.011623621 0.024806738 0.18764156
-0.015827328 0.00038403273 0.18897939
-0.017540932 -0.0025113225 0.18865624
-0.021376848 -0.0050051808 0.18730715
-0.026027679 -0.010064662 0.18783048
-0.029749393 -0.013103426 0.18710023
0.019675016 0.035046637 0.1838026
0.016510993 0.033398747 0.18575695
0.011888921 0.030854344 0.18668216
0.0086250305 0.027712822 0.18660456
0.0058722496 0.022993267 0.18595248
0.0023491383 0.019361079 0.18515688
-0.0011811852 0.016699314 0.18447551
-0.0059705377 0.013052702 0.18381691
-0.0098296702 0.010146916 0.18483344
-0.013337225 0.0066530704 0.18661055
-0.016826868 0.0017834902 0.18796501
-0.01971364 -0.0020144582 0.18766391
-0.024879158 -0.0036272407 0.18703806
-0.028098285 -0.0072384477 0.18561482
-0.031174421 -0.011581063 0.18481818
-0.033653855 -0.013957798 0.18383989
0.018060893 0.038405716 0.18184173
0.014237493 0.036331654 0.18442526
0.010047436 0.032005787 0.18502158
0.0050578415 0.027451336 0.18496028
0.0025840998 0.025090516 0.18452382
-0.00027701259 0.021924794 0.18372151
-0.0024370551 0.019947052 0.18471402
-0.010969937 0.012455225 0.18314752
-0.031228065 -0.0051957369 0.18217698
-0.033403754 -0.0092123151 0.18105885
-0.035147369 -0.01284951 0.18055493
0.016522497 0.039933205 0.17777628
0.012094289 0.039889395 0.17727372
-0.032809913 -0.0033640265 0.17720118
-0.034912288 -0.0078961849 0.17686865
-0.03683275 -0.010056138 0.17694208
0.014740229 0.040188372 0.1747382
0.011581481 0.039689124 0.17298734
-0.033320725 -0.0021363497 0.17293277
-0.035955131 -0.0054792166 0.17277038
0.0092729926 0.039848089 0.16911152
0.0051458776 0.039357841 0.16884831
0.0020081401 0.037700713 0.16808139
-0.032663882 0.0042053461 0.16873972
-0.033420682 -1.9669533e-05 0.1681565
-0.036888301 -0.0034325719 0.16805157
0.0077853501 0.040108025 0.16471052
0.0040426552 0.039636433 0.16502422
8.3148479e-06 0.037992716 0.16505115
-0.032866538 0.0053958893 0.16384785
-0.033796966 0.0016725063 0.16407846
0.0066404343 0.040657699 0.1608153
0.0030530989 0.039955497 0.16048154
-0.0014156103 0.038557887 0.16069518
-0.032462537 0.010602772 0.15945496
-0.032987416 0.0067855716 0.15944748
0.0012657642 0.04001677 0.15638457
-0.0032800734 0.03921628 0.15649931
-0.007244885 0.038259923 0.15552233
-0.010239244 0.035508871 0.15469955
-0.032435119 0.012685597 0.15570055
-0.033206701 0.0083773732 0.15591548
-0.0037671626 0.038963377 0.15255652
-0.007931143 0.038357377 0.15179257
-0.010733753 0.035856605 0.15177397
-0.031867981 0.017929852 0.15109955
-0.031861007 0.013772964 0.15115409
-0.0091716349 0.037532926 0.14736663
-0.012797534 0.036220968 0.14646165
-0.015985727 0.035074055 0.14730094
-0.032490492 0.020100296 0.14665104
-0.032363892 0.016488314 0.14610194
-0.01440081 0.036490381 0.14231481
-0.018493772 0.035828233 0.14277183
-0.032764077 0.020550847 0.14179127
-0.033349931 0.017463505 0.14265542
-0.019774199 0.035609365 0.1380982
-0.023735583 0.035236299 0.13802384
-0.032295346 0.0272609 0.13850559
-0.032874823 0.02360332 0.13832133
-0.021035373 0.035607576 0.13523413
-0.02494657 0.034529805 0.13351639
-0.029956698 0.032679141 0.13344951
-0.032633483 0.028672159 0.13375793
-0.033292949 0.024282992 0.13424821
-0.026739836 0.034005702 0.12983148
-0.029849648 0.032753348 0.12851568
-0.0323928 0.030222178 0.12856786
-0.029792011 0.033989131 0.12581067
-0.022702038 -0.014939547 0.19068673
-0.02522409 -0.016046107 0.19066697
0.026568383 0.033438385 0.18668094
0.024935722 0.03017509 0.18728378
0.021252632 0.02795577 0.1868571
0.018092513 0.024718821 0.18789196
0.013532728 0.021261632 0.18768927
0.010097206 0.017704248 0.18709016
0.0071318448 0.014465809 0.18726265
0.0042432249 0.012883246 0.18636632
-0.0053821504 0.0029443502 0.18598476
-0.0088810027 0.0015337467 0.186349
-0.011010528 -0.0018755198 0.18752781
-0.020420134 -0.0092810392 0.18768081
-0.023091018 -0.011899233 0.18837556
-0.027293682 -0.015036762 0.18815359
-0.03067255 -0.017245293 0.18736038
0.02643612 0.035891771 0.1835295
0.022763103 0.033702731 0.18460739
0.020476937 0.031548262 0.18590856
0.003469944 0.016644537 0.18584216
0.00047317147 0.011955023 0.18433088
-0.0025477409 0.0092112422 0.18378168
-0.0060618818 0.0060297251 0.18497738
0.028479576 0.040242314 0.17783779
0.024923891 0.039195478 0.18001759
0.023573279 0.039293945 0.17516476
0.019349545 0.039763272 0.17496026
0.02291131 0.039658189 0.17185813
0.018569171 0.039147556 0.17078143
0.016658634 0.039853394 0.16668886
0.013158798 0.038933992 0.16622716
0.015354902 0.03889972 0.1623491
0.011194408 0.039202392 0.16197175
-0.034428239 -0.00090569258 0.16180369
-0.036229193 -0.0050724149 0.16219249
0.0091564357 0.039328814 0.15755385
0.0055306256 0.039791226 0.15755165
-0.033565462 0.0035443306 0.15708156
-0.033690035 -0.00018596649 0.15723655
0.0039086044 0.038971722 0.15335861
0.00019538403 0.038646638 0.15391295
-0.032551706 0.0096062422 0.15295108
-0.032280862 0.0056077838 0.15260921
-0.033309162 0.0026499033 0.15443055
0.0020101368 0.039306641 0.14814453
-0.0015859008 0.038280189 0.14928509
-0.0051991045 0.037832856 0.14786111
-0.031635106 0.011222184 0.14812605
-0.032277524 0.0084104538 0.14862077
-0.0021955371 0.038651109 0.14455579
-0.0064251423 0.037329555 0.14462332
-0.032099783 0.012313485 0.14449696
-0.004235208 0.038287222 0.14141177
-0.0077434182 0.037381172 0.13993864
-0.011551499 0.036512554 0.13990669
-0.033170879 0.01506412 0.14003666
-0.0093410909 0.037083626 0.13593791
-0.013032347 0.035575807 0.13594119
-0.01631403 0.034978092 0.13514911
-0.032706499 0.019277573 0.13633205
-0.03349036 0.016715825 0.13691504
-0.018760502 0.03440994 0.13180725
-0.022752523 0.034849882 0.13066064
-0.032638788 0.025400579 0.13041495
-0.032656848 0.022666276 0.13042115
-0.020674527 0.033970594 0.12746494
-0.024297237 0.034365475 0.127508
-0.032222986 0.026401341 0.12779735
-0.032680988 0.024659097 0.12539034
-0.025358498 0.034686625 0.1226673
-0.02994132 0.032757103 0.12270208
-0.03203696 0.028762758 0.12276204
-0.028135717 0.033116758 0.11866488
0.027891129 0.026728451 0.189836
0.025748461 0.022370636 0.18927246
0.022117645 0.018901467 0.18733728
0.017715901 0.016071677 0.18832517
0.015030146 0.013332248 0.1884844
0.012383372 0.0091837645 0.1885784
0.0075491965 0.0053474903 0.18710053
-0.0046937168 -0.0062718987 0.18684992
-0.0072808862 -0.0077896714 0.18700853
-0.0094001591 -0.010079205 0.18690243
-0.016290843 -0.015770257 0.18849948
-0.01910007 -0.016953409 0.19053566
0.027144164 0.029284716 0.18767846
0.023598194 0.025381088 0.18774122
0.015298665 0.016906917 0.18820751
0.012070775 0.013605118 0.18808776
0.0085708797 0.010721564 0.18811494
0.0049892068 0.0085022449 0.18614781
0.001380831 0.0052840114 0.18519396
-0.0011417866 0.0011022091 0.18561816
-0.0056447387 -0.0020883083 0.18643373
-0.0088142157 -0.0026286244 0.18692875
-0.016774237 -0.012281597 0.18783328
-0.019243002 -0.01395601 0.1879335
0.033753067 0.040629387 0.17685032
0.0314973 0.039147556 0.17742518
0.031979263 0.043220103 0.17300642
0.029936463 0.040365458 0.17289615
0.026743084 0.039654374 0.17339125
0.02910012 0.046284139 0.16905385
0.029033035 0.041165471 0.16802669
0.024229109 0.04039073 0.16894838
0.02078265 0.039619446 0.16761822
0.028111637 0.044789314 0.16576272
0.023473829 0.040726304 0.16417748
0.019020706 0.040202916 0.16438693
0.022443533 0.040575862 0.16121632
0.017624646 0.039137304 0.16017702
0.014647514 0.038183451 0.15838677
-0.036655307 -0.007307291 0.15836558
0.017123133 0.038321137 0.1554971
0.012497365 0.038670003 0.15562481
-0.033694625 -0.0023358464 0.15478462
-0.034869313 -0.0059174895 0.1559594
0.010359943 0.03794837 0.15091157
0.0071073771 0.038253307 0.15102983
-0.031587958 0.002037406 0.15071194
-0.032026827 -0.00085347891 0.15044133
0.0092866421 0.038070381 0.14769483
0.0056170225 0.039073944 0.14755249
-0.03261894 0.0041137338 0.14629273
-0.032959223 0.0005300045 0.14585705
0.0031338632 0.039532065 0.14348906
0.00012269616 0.0389117 0.14180706
-0.032189012 0.01004678 0.14270119
-0.032933235 0.0068865418 0.14200537
-0.0020640194 0.038196504 0.13814352
-0.0054882467 0.037910104 0.1378886
-0.033142328 0.011314631 0.13801907
-0.033631444 0.0085429549 0.13703881
-0.002951175 0.038168013 0.13386063
-0.0069336891 0.037654757 0.13375483
-0.011724323 0.036211729 0.13307814
-0.031291842 0.018137753 0.13277657
-0.032171845 0.013396323 0.13292016
-0.03274256 0.0093955398 0.13385044
-0.0083536506 0.037542284 0.12985773
-0.012093216 0.035153031 0.12920849
-0.016194701 0.033603311 0.12862726
-0.030797303 0.017338455 0.12839897
-0.03172338 0.015374362 0.12886702
-0.017151117 0.033396244 0.12428974
-0.02121222 0.034362018 0.12449764
-0.031938493 0.021221757 0.12417804
-0.018764138 0.033444166 0.11993931
-0.022540212 0.035138011 0.12063156
-0.031663895 0.025838673 0.1195506
-0.032223463 0.022407651 0.12014891
-0.025152802 0.034477949 0.11651404
-0.029582143 0.031978488 0.11687796
-0.031847298 0.027454436 0.11630033
-0.032265723 0.022592723 0.11655651
-0.026331663 0.034461439 0.11235879
-0.02943486 0.032327116 0.11138533
-0.032262087 0.028930783 0.11150979
0.022169143 0.0084468126 0.18964702
0.019165337 0.0074886084 0.19000489
0.016851127 0.0040947795 0.18969277
-0.011075974 -0.02112931 0.18940899
-0.014220268 -0.020213306 0.19020823
0.030389577 0.025573671 0.18724075
0.025159687 0.016219795 0.18801004
0.021387517 0.012583673 0.18792036
0.017237633 0.010179996 0.18903178
0.014790475 0.0056733489 0.18888241
0.010220468 0.0041123033 0.18734097
0.0061171353 0.0006300211 0.18670344
0.0021271408 -0.0030070543 0.18626595
-0.00086376071 -0.0066691041 0.18664256
-0.0031885207 -0.011385977 0.18696252
-0.0078622699 -0.014181077 0.18692616
-0.012525678 -0.017035306 0.18793532
0.029558003 0.040255487 0.16589212
0.02837795 0.040030777 0.16180617
0.02524209 0.040533245 0.16058978
0.029100358 0.040181816 0.15806383
0.024773538 0.038793087 0.15723678
0.020227551 0.038058519 0.1571098
0.023302972 0.039558947 0.15328848
0.019035786 0.038503766 0.15272745
0.015577108 0.037565291 0.15247461
-0.033589721 -0.0093185306 0.15160772
-0.034514844 -0.012114942 0.14921969
0.017467052 0.038623035 0.14844811
0.013445616 0.038086116 0.14880288
-0.032748282 -0.0040761828 0.14855543
-0.033988297 -0.0078579187 0.14763269
-0.03620553 -0.01136893 0.14620721
0.015767008 0.039140224 0.1448676
0.012620032 0.037876844 0.14386201
0.0090197027 0.036987126 0.14395025
-0.03387624 -0.0018921494 0.14401853
-0.03513068 -0.006536603 0.14285037
0.010714322 0.037949681 0.14092374
0.007029295 0.037114501 0.1397686
-0.032840848 0.0024079084 0.14154942
-0.033205032 -0.00026631355 0.13929334
-0.035712659 -0.0044198036 0.13920632
0.0047555566 0.036890984 0.13542618
0.0011651814 0.037787497 0.13595496
-0.03324002 0.0047363043 0.13506638
-0.033394158 0.0020033717 0.13433398
-0.00035262108 0.037735999 0.13125877
-0.0044041574 0.037130833 0.12989675
-0.031572104 0.010570347 0.12959288
-0.033025682 0.007167697 0.13066165
-0.002168566 0.037214994 0.12643836
-0.0058736205 0.03706795 0.12647377
-0.010526925 0.03486228 0.12593521
-0.030668616 0.015967488 0.1255381
-0.032027006 0.011760771 0.12604199
-0.033346415 0.008287847 0.12600036
-0.0037888587 0.037841797 0.12101398
-0.007262826 0.037735522 0.12269707
-0.01166752 0.03481108 0.12296815
-0.031538427 0.016878247 0.1227852
-0.032290161 0.013318956 0.12246595
-0.0086381137 0.038163722 0.11808877
-0.012113065 0.036144912 0.11778118
-0.015641361 0.033477485 0.11768274
-0.032296717 0.018651903 0.11781417
-0.032252491 0.015620053 0.11688556
-0.0099096596 0.037777722 0.11359994
-0.012324035 0.0372262 0.1132559
-0.017848611 0.033440173 0.11320047
-0.021581948 0.033404291 0.11374535
-0.032569945 0.025209904 0.11254205
-0.032149732 0.021177113 0.11323182
-0.019215882 0.03494072 0.10884218
-0.023570418 0.033904016 0.10897683
-0.031796575 0.027179122 0.10912178
-0.032588542 0.023223877 0.10864823
-0.024088919 0.032597363 0.10555296
-0.027494133 0.030151129 0.10530762
-0.030499101 0.027313888 0.10496573
0.028457969 0.012729585 0.18940169
0.025374413 0.0090603232 0.18865484
0.015980035 0.0012506843 0.18922865
0.014507681 -0.00088882446 0.18747491
0.010358036 -0.0071240664 0.18687871
0.007035315 -0.0089776516 0.18710062
0.0034377575 -0.012179911 0.18785653
2.7269125e-05 -0.01557833 0.18853214
-0.004728049 -0.017510951 0.18926504
-0.0081569552 -0.020834029 0.18980965
0.027463734 0.014028668 0.18832251
0.025125623 0.012051523 0.1883288
0.010986686 0.00017303228 0.18682736
0.0076012909 -0.0029763579 0.18677244
0.0042037964 -0.0061071515 0.1867241
0.00075951219 -0.0091621876 0.18670174
-0.0025894642 -0.012971103 0.18727118
-0.0064877272 -0.016735435 0.18717703
-0.0089651942 -0.019066036 0.18791011
0.033462316 0.038123846 0.15816903
0.030843288 0.039735198 0.1548298
0.028152645 0.03858012 0.15467626
0.029692322 0.038755715 0.15117434
0.024601132 0.039161026 0.15030366
0.023978621 0.039091647 0.14637673
0.020354211 0.038609087 0.14589751
-0.03616333 -0.012127399 0.14639467
0.023203403 0.039026082 0.14228201
0.018990576 0.038149357 0.14160964
0.014567375 0.037858248 0.14158869
-0.036352992 -0.01087749 0.14249361
0.013761401 0.036925256 0.13730145
0.0096638799 0.036337197 0.13669935
-0.033328831 -0.0025773048 0.13599417
-0.035887599 -0.0057582855 0.13583443
-0.037337899 -0.0080052614 0.13895172
0.011791348 0.036827266 0.13226414
0.0079052448 0.036527157 0.13290361
-0.033724666 -0.0021074414 0.13244352
-0.03611964 -0.0043796301 0.13292971
0.010010779 0.037654817 0.12887046
0.0068380833 0.036812067 0.12860557
0.0033371747 0.036478043 0.12857296
-0.033606231 0.0041636229 0.12852566
-0.034167051 0.00076311827 0.12849879
-0.036005616 -0.0048215389 0.12898493
0.0055328906 0.035637856 0.12533121
0.0020177662 0.03512764 0.12362157
-0.033860803 0.005351305 0.12486748
-0.034308553 0.002625823 0.12320389
-0.0007365346 0.035971999 0.11982761
-0.004006654 0.037871242 0.11862667
-0.032437861 0.011202931 0.11969845
-0.03324002 0.0073969364 0.11979549
-0.034098744 0.0033406615 0.11942907
-0.0055674314 0.037842214 0.11551373
-0.031570256 0.011689186 0.11502533
-0.007032603 0.037310719 0.11103909
-0.012974381 0.035509348 0.1114227
-0.015140772 0.03437537 0.1114925
-0.031475067 0.017613411 0.11071964
-0.031544864 0.015044868 0.11159588
-0.012425333 0.035890043 0.10696296
-0.016353846 0.034845471 0.10660793
-0.032027423 0.018510759 0.10660957
-0.018121004 0.033940554 0.10234551
-0.022691011 0.032800853 0.10247277
-0.027570665 0.02976197 0.10189874
-0.03092593 0.025622189 0.10178904
-0.032077491 0.021882117 0.10346068
-0.022316039 0.031618655 0.098110542
-0.02667892 0.030006588 0.097737804
-0.030165434 0.026084006 0.097290084
-0.028191507 0.029615402 0.0945393
-0.028814256 0.02771467 0.09409605
0.01444003 -0.01170516 0.18822554
0.01240918 -0.01422745 0.18805358
0.0085826814 -0.017968714 0.18952224
0.0044203997 -0.019938886 0.18987072
0.0018780231 -0.021621883 0.18997881
0.016546786 -0.0053396225 0.18713981
0.014042884 -0.0085163116 0.18691218
0.009589076 -0.012057841 0.18788853
0.0064358115 -0.015526533 0.1885027
0.0043392479 -0.018601954 0.18861231
0.0018924475 -0.021910191 0.18834588
0.031335026 0.03619796 0.14771181
0.029088348 0.036644518 0.14753643
0.027707487 0.037457407 0.14282367
0.025016546 0.038876474 0.13938412
0.020917743 0.03788805 0.13846743
0.023602009 0.038457215 0.13513345
0.020122707 0.037602782 0.13500312
0.016718835 0.036730111 0.13428545
-0.03542757 -0.011903167 0.13498232
0.018728375 0.037919939 0.13013941
0.015101701 0.037546813 0.13118729
-0.035545945 -0.0068452954 0.12992349
0.016765535 0.038456142 0.12577406
0.012957811 0.037876368 0.12628818
0.0087853074 0.036278725 0.12469465
-0.033691168 -0.0022090077 0.12425551
-0.035483062 -0.0050180554 0.12612516
0.011900693 0.036876619 0.12161267
0.0076089799 0.03629154 0.12171432
0.0037388802 0.035096586 0.1215338
-0.034002185 -0.0016092658 0.12081748
-0.036153376 -0.0046381354 0.12088814
0.0061370134 0.036552131 0.11722991
0.0020368397 0.036039591 0.11781491
-0.032867193 0.0051345825 0.1163546
-0.034165621 0.0006120801 0.11698833
-0.035180092 -0.0039246678 0.11755213
0.0050849915 0.037123859 0.11370955
0.00061240792 0.03669101 0.11331408
-0.031508327 0.0094368458 0.11234729
-0.032644808 0.0058220625 0.1125996
-0.034191787 0.0014570355 0.11339341
-0.00084900856 0.036952436 0.10843633
-0.0053792596 0.036494315 0.10744475
-0.030914962 0.011100113 0.10843973
-0.031683743 0.0076386333 0.10852961
-0.0023948848 0.036563933 0.10457484
-0.006359309 0.035961688 0.10435857
-0.010393739 0.035170317 0.10341547
-0.031166196 0.013103724 0.1034324
-0.0076062679 0.035403311 0.099796757
-0.011284709 0.035359561 0.099970713
-0.014838934 0.034071982 0.10021816
-0.031485915 0.019571662 0.099457279
-0.031607985 0.016132355 0.10034056
-0.012678951 0.035453796 0.095370904
-0.016788244 0.033666134 0.095697805
-0.021629095 0.031475842 0.095615223
-0.031218588 0.019908249 0.095925465
-0.01413548 0.035867274 0.09256126
-0.01742363 0.033351243 0.092118606
-0.021781981 0.031880796 0.090925679
-0.026612282 0.030136406 0.091744259
-0.030159354 0.026296914 0.091273502
-0.03096211 0.022157907 0.0912119
-0.023656547 0.032261133 0.085907951
-0.02792567 0.030561805 0.086716935
-0.030904651 0.026894927 0.086025968
-0.0256688 0.032445192 0.082968518
-0.028320193 0.03171438 0.081659988
-0.031513274 0.028576732 0.081698701
0.019649446 -0.0098923445 0.18764263
0.018040538 -0.012974799 0.18805644
0.014107913 -0.01670146 0.18876496
0.038354993 0.036783814 0.14382228
0.035370618 0.034570158 0.14717084
0.033097506 0.033467829 0.1441527
0.038488239 0.038995206 0.1411235
0.03397426 0.036441088 0.14176324
0.031279862 0.035757005 0.14193577
0.031427622 0.037852347 0.13823032
0.028855681 0.037505805 0.13613653
0.030343235 0.040089726 0.13191214
0.026611954 0.037317872 0.13204369
0.029405564 0.041526914 0.12871271
0.025622874 0.037711084 0.12770045
0.022610396 0.037097573 0.1272144
0.020385563 0.037646651 0.12380829
0.017745018 0.037716746 0.11871123
0.01405865 0.037110031 0.12006921
-0.036584914 -0.01072228 0.11589772
0.016102642 0.038881063 0.11408645
0.012602359 0.037882328 0.11511561
0.009616375 0.036788285 0.11556649
-0.034205854 -0.0030433536 0.11508018
-0.035302043 -0.0057753325 0.11434117
0.011569381 0.037925303 0.1101321
0.0073368251 0.037098587 0.11024058
0.0035396814 0.036727071 0.10968409
-0.033933222 0.00038033724 0.10967731
-0.035710335 -0.0035864711 0.11074495
0.0062564909 0.037505865 0.1060673
0.0025578737 0.037077606 0.10630833
-0.031894565 0.0056677461 0.1058365
-0.032857656 0.001073122 0.10556968
0.0047788024 0.037746847 0.10242712
0.00046342611 0.036702394 0.10234942
-0.0033913255 0.034915626 0.10140519
-0.030999362 0.0096645951 0.10146891
-0.031736851 0.0059232712 0.10157205
-7.3552132e-05 0.036089957 0.0982012
-0.0043700337 0.034847736 0.097267851
-0.0070673227 0.034024775 0.09500657
-0.031310856 0.011308908 0.096950099
-0.031706989 0.0072504282 0.097542986
-0.0063026845 0.035254538 0.091811821
-0.0093867779 0.035095036 0.092848346
-0.030174851 0.016771674 0.091750845
-0.031175613 0.013239026 0.092572495
-0.011884451 0.034736812 0.088165864
-0.016058564 0.033037722 0.088600203
-0.030759633 0.018548012 0.088279709
-0.031096816 0.014751136 0.087970927
-0.013500273 0.03527689 0.084575698
-0.01668191 0.033314228 0.084001824
-0.020692348 0.032829762 0.084593639
-0.031135261 0.020188987 0.084186837
-0.018751264 0.033465326 0.079984412
-0.022662997 0.033153415 0.080617175
-0.032299817 0.025435805 0.08086513
-0.032012403 0.022104561 0.080499724
-0.024009585 0.032593071 0.075428978
-0.028023779 0.031406939 0.075908288
-0.030699432 0.027409852 0.07500045
-0.027762055 0.031127989 0.071209654
-0.030053675 0.028981566 0.071162358
0.041281432 0.037907124 0.14181361
0.036558986 0.032199621 0.14356068
0.039614499 0.036723495 0.13983971
0.036985129 0.034806371 0.1398012
0.031862378 0.036882758 0.1339342
0.02965495 0.03694737 0.13037705
0.030669332 0.038364232 0.12474746
0.029019713 0.037399232 0.12570828
0.025651455 0.037279367 0.12209976
0.022562414 0.036946058 0.1202971
0.025145471 0.036648214 0.11733362
0.022575021 0.036090374 0.1161595
0.020379514 0.03741169 0.11211178
-0.034601927 -0.0086853504 0.11266291
-0.035284758 -0.010421097 0.1131542
0.018889755 0.036487281 0.10887283
0.014612287 0.037925065 0.10820886
-0.034841895 -0.0069543719 0.10723403
0.012142658 0.03789407 0.10423505
0.0079804361 0.037846327 0.10382235
-0.032953203 -0.0024998784 0.10339907
-0.033789098 -0.0070917606 0.10456124
0.011723995 0.037480891 0.099318504
0.0075163543 0.03667593 0.099375159
0.0031652153 0.03602457 0.098685339
-0.032243013 0.0035435557 0.099042878
-0.032476723 4.0233135e-05 0.099012688
0.0021824837 0.035144806 0.094456062
-0.0021033585 0.03498441 0.094761804
-0.032180429 0.0057204366 0.094317839
-0.03174603 0.0010425448 0.094732419
0.0002835989 0.034827113 0.090137824
-0.0032994151 0.034884334 0.090835974
-0.031508327 0.011349857 0.089516714
-0.031691611 0.0077587366 0.090432927
-0.0010209978 0.035234153 0.086897776
-0.0046137273 0.034853995 0.086102977
-0.0079735219 0.034345448 0.086905822
-0.031704843 0.013018787 0.086159274
-0.031786501 0.0084827542 0.086957201
-0.0063640475 0.035222173 0.081123158
-0.0098583996 0.034753561 0.081839964
-0.015288472 0.033432126 0.081930324
-0.03123486 0.018214345 0.081511542
-0.031344593 0.015004873 0.08182846
-0.012082547 0.034887612 0.078395918
-0.015648544 0.033649683 0.07760413
-0.019738138 0.032319069 0.076043025
-0.031477332 0.019823372 0.077286735
-0.016741812 0.031654239 0.073192343
-0.020588756 0.032072246 0.072567359
-0.031282842 0.025334835 0.071983442
-0.031224191 0.021366775 0.072650477
-0.022660255 0.03223002 0.068950877
-0.027384162 0.0309425 0.068324104
-0.030604661 0.02664274 0.068790182
-0.030989647 0.021558583 0.068852738
-0.023385048 0.032066345 0.065012202
-0.026894867 0.030644476 0.065254852
-0.029329002 0.026968062 0.065055296
0.031010509 0.036678374 0.11835197
0.029330969 0.035969853 0.11940736
0.030704826 0.039461911 0.11506483
0.027933449 0.036596358 0.11493218
0.027473897 0.040732205 0.1095728
0.025383949 0.03810513 0.11039841
0.022090644 0.037510574 0.11001688
0.024196178 0.036894679 0.10590601
0.020386219 0.03681612 0.10605136
-0.034955502 -0.011274278 0.10358724
0.018763721 0.036555052 0.10091549
0.015499562 0.037088811 0.10112253
-0.033196568 -0.0076598525 0.100642
-0.034711599 -0.012063503 0.099895328
0.013465375 0.037048578 0.097008765
0.0096746683 0.036498189 0.096752793
-0.032316744 -0.002696991 0.095962852
-0.033878922 -0.0070044398 0.096162885
-0.035432696 -0.010359108 0.096383005
0.011615038 0.037007213 0.093261063
0.008020401 0.036665201 0.093306869
0.0051319301 0.035279751 0.092823371
-0.032157004 -0.0016487837 0.092287987
-0.034269035 -0.0069699287 0.092880577
-0.03728807 -0.008231163 0.091616601
0.0074541867 0.036611617 0.088146567
0.0033166707 0.035488904 0.088906303
-0.031532586 0.0029463172 0.087456778
-0.031463385 -0.00038301945 0.089090392
0.004922241 0.037254035 0.083280429
0.001290381 0.036276281 0.08400999
-0.001547873 0.03542155 0.0819823
-0.031138539 0.0057199597 0.08346577
0.00022125244 0.037195086 0.078620538
-0.003816098 0.036374331 0.079750285
-0.030575395 0.010414481 0.079548642
-0.030184031 0.0075977445 0.079349622
-0.0010071099 0.036623359 0.075343475
-0.005769819 0.036490679 0.075569168
-0.0099336207 0.034530878 0.07483457
-0.030878365 0.016461909 0.073953703
-0.031307697 0.012914538 0.074590459
-0.0061887801 0.0353567 0.07127665
-0.010560542 0.034355581 0.070681855
-0.015301645 0.032373607 0.071063414
-0.03119421 0.017429531 0.070933595
-0.031692028 0.014153659 0.069602266
-0.012578279 0.033981502 0.066966727
-0.016118765 0.033189416 0.066447869
-0.020044744 0.031909287 0.066229537
-0.03078264 0.01982373 0.065869257
-0.031958222 0.015604198 0.067066893
-0.017154932 0.033210576 0.062232539
-0.021502256 0.032290339 0.06218724
-0.025837004 0.029729724 0.062169865
-0.029031873 0.025695086 0.062277481
-0.030996799 0.02128762 0.060849562
-0.022630513 0.031943202 0.057768419
-0.026179373 0.029530227 0.057149574
-0.029561102 0.026123643 0.056992963
-0.031938314 0.023226559 0.056263462
-0.0277192 0.02990514 0.053402945
-0.030581772 0.027625978 0.052788213
0.033227712 0.036034226 0.11508548
0.031200945 0.035878778 0.11219668
0.029219419 0.036724806 0.10621396
0.028021663 0.035014868 0.10375023
0.02448675 0.035284638 0.10251322
0.022832274 0.035425961 0.098793209
0.020517081 0.035658777 0.095905602
0.017650843 0.03536278 0.093613833
0.015128791 0.034817576 0.089742601
0.013211429 0.034179688 0.087626994
-0.032453716 -0.0045567155 0.089731276
-0.032831371 -0.0075852275 0.089203328
-0.034135103 -0.01068294 0.089947075
0.014233083 0.035300076 0.085981011
0.011039972 0.035876513 0.085017174
-0.031166375 -0.0029270649 0.085609138
-0.031441808 -0.0069746971 0.085230142
0.0088218153 0.036185443 0.081180871
-0.030617535 0.0026351213 0.080401227
-0.030514657 -0.001319468 0.081072405
0.0057548881 0.036078572 0.077045009
0.0027014613 0.037085652 0.077851936
-0.03022939 0.004803896 0.076700196
0.0015558302 0.036023736 0.073335007
-0.002343446 0.033954859 0.071368203
-0.031183064 0.0065585375 0.072382793
-0.0035251975 0.034243166 0.068129286
-0.0077289939 0.034423351 0.067951098
-0.031634331 0.011050344 0.068854973
-0.032160282 0.0088701248 0.068258867
-0.0058616698 0.034514487 0.063573495
-0.0093438923 0.033720434 0.063606873
-0.031133771 0.013249934 0.063372895
-0.0074246824 0.035746932 0.059592143
-0.010584235 0.03429997 0.058530912
-0.014687002 0.033062816 0.059158459
-0.018487096 0.032265961 0.058321908
-0.031887949 0.018799663 0.060628757
-0.031939209 0.015632391 0.058345631
-0.012451142 0.034187913 0.055346772
-0.015568435 0.03267622 0.054250762
-0.020441294 0.031386673 0.054533973
-0.033181965 0.021086156 0.055093601
-0.033327699 0.017253399 0.054978207
-0.017349541 0.03242135 0.05098255
-0.022229612 0.031230152 0.051060721
-0.026039422 0.029954493 0.050532833
-0.030627549 0.025968313 0.049817041
-0.033107102 0.022762239 0.051817253
-0.025526047 0.029187858 0.046697065
-0.028479338 0.026522517 0.046672091
0.031452835 0.037207484 0.10066783
0.030289799 0.034137487 0.10003543
0.027865887 0.036100984 0.096511275
0.024833381 0.035161853 0.096702665
0.026780427 0.037100136 0.091848165
0.022665918 0.035350323 0.092005312
0.025808871 0.036598086 0.087724835
0.021848857 0.035707057 0.087400824
0.017957717 0.035042524 0.08785367
-0.032274425 -0.0099048018 0.086237758
-0.034220994 -0.012617469 0.086772144
0.02027896 0.036081731 0.082783699
0.015853524 0.035873592 0.083766311
-0.030930698 -0.0053774118 0.082157135
-0.032302916 -0.0093727708 0.082752496
-0.034735322 -0.012549162 0.082626075
0.018651932 0.036708295 0.07998988
0.014875919 0.036118448 0.079369724
0.011595696 0.035564423 0.079057664
-0.030872524 -0.0041379333 0.078512758
-0.032509625 -0.0086111426 0.078329563
-0.034538984 -0.012154639 0.078365117
0.013566881 0.035193205 0.075752497
0.010029346 0.034595311 0.074851632
-0.029996216 0.00063341856 0.074357882
-0.030820489 -0.0030921102 0.074463129
-0.031863153 -0.0067749023 0.074155539
0.0082020462 0.03399986 0.07083334
0.0041644275 0.034455538 0.069797382
-0.03062892 0.00094735622 0.070299938
-0.031036913 -0.0010290146 0.06974794
0.0020675957 0.034839094 0.065976873
-0.0015112758 0.034712672 0.064402983
-0.031662464 0.0052885413 0.065466836
-0.031806946 0.0020458698 0.065788046
0.00051873922 0.035516858 0.060547873
-0.0029782951 0.035101056 0.061486021
-0.031316578 0.010847926 0.061708257
-0.031245232 0.0072555542 0.060065344
-0.0047049224 0.035674334 0.056954458
-0.0088507235 0.034614384 0.056119844
-0.031836212 0.012377799 0.057146326
-0.0319556 0.0096372962 0.057084844
-0.0062994063 0.035583794 0.053189352
-0.010619819 0.03493458 0.052878663
-0.014375836 0.033826828 0.052305683
-0.017683029 0.030238688 0.052057222
-0.032282293 0.013267756 0.052318618
-0.011158615 0.035139561 0.049224004
-0.015637279 0.03333807 0.048602507
-0.019043386 0.030691743 0.048771754
-0.031822443 0.019619465 0.048006848
-0.031985044 0.014958322 0.047522351
-0.016664624 0.032759964 0.04512535
-0.020467401 0.030498087 0.044194117
-0.024889648 0.029141784 0.044076458
-0.02874136 0.025221765 0.043877497
-0.03068018 0.021202087 0.044671878
-0.022463441 0.030782938 0.040061995
-0.02566433 0.029173613 0.04007183
-0.028533816 0.025234938 0.039760545
-0.030202627 0.021634996 0.039625481
-0.023698151 0.031457245 0.036707804
-0.02617991 0.029487133 0.036790118
-0.028708398 0.026078582 0.036338583
0.033483565 0.031863093 0.10190454
0.033096194 0.034722626 0.097747773
0.035229057 0.031996846 0.099767059
0.032483786 0.035943925 0.09442845
0.033265173 0.036645412 0.091419578
0.030993223 0.035977662 0.089533955
0.027174085 0.037043989 0.085900337
0.02563107 0.03672713 0.08146286
0.023122936 0.036151826 0.081992358
0.025870532 0.038694501 0.076812923
0.021381021 0.036655247 0.076194078
0.017327398 0.035482645 0.076489925
-0.03447777 -0.011178792 0.076062173
0.020362169 0.037073433 0.071886808
0.015696377 0.035271227 0.072094321
0.011590123 0.033845723 0.071227878
-0.032083392 -0.0087791681 0.071359843
-0.034111857 -0.012120247 0.072494805
0.014810711 0.035369635 0.067568809
0.010385752 0.033631027 0.067204803
-0.03154707 -0.0026383996 0.066721857
-0.031735182 -0.0067248344 0.06713137
0.0092915893 0.034023941 0.062831193
0.0049697757 0.034922183 0.062486187
-0.03169024 -0.0020515323 0.062351018
0.0081433058 0.03425622 0.059510753
0.0039728284 0.034592807 0.059150681
-0.031615794 0.0035900474 0.059236839
-0.032008469 -0.0006325841 0.058575854
0.0011841655 0.035329461 0.054976448
-0.0019669831 0.03559339 0.054295406
-0.031610727 0.0048339963 0.054120138
0.00033867359 0.035749316 0.050423995
-0.0031608939 0.034995437 0.050319508
-0.032102048 0.011626184 0.049890831
-0.031256318 0.0066606402 0.050034627
-0.00056546926 0.035509288 0.04670383
-0.0042028725 0.03469938 0.046304449
-0.008485198 0.033481777 0.045396402
-0.031392276 0.010844469 0.045814589
-0.0097767115 0.033118546 0.04143592
-0.013879657 0.032209992 0.042158887
-0.017445207 0.031349957 0.041736409
-0.030635715 0.017766654 0.041591123
-0.03118664 0.014091015 0.041230537
-0.014775753 0.031870484 0.037263915
-0.019117951 0.030665338 0.037312135
-0.029523194 0.023135662 0.037282422
-0.030620992 0.018971741 0.036964491
-0.031629562 0.01640296 0.035427399
-0.017060757 0.032365799 0.032118037
-0.019919336 0.030418336 0.032036796
-0.024943352 0.02888149 0.032711223
-0.029182374 0.025451183 0.033024952
-0.031061471 0.021269739 0.031692103
-0.025757313 0.028873801 0.028182521
-0.029003441 0.026709974 0.027678505
-0.031057537 0.023161113 0.028207824
-0.026913583 0.028813243 0.024157152
-0.028676987 0.027143717 0.024111852
0.027138561 0.036556184 0.072225153
0.026465356 0.037198424 0.069116622
0.022048831 0.03711611 0.069079369
-0.031760812 -0.012553871 0.067790627
-0.033664763 -0.014408529 0.068314016
0.021529526 0.036000013 0.065135092
0.016690761 0.035263479 0.065205187
-0.031811655 -0.0092234015 0.064976871
-0.033305764 -0.013258755 0.064703077
0.019804806 0.036117077 0.061903119
0.016254425 0.034564495 0.061262578
0.012784332 0.03411305 0.061131567
-0.031940043 -0.0091142654 0.06018877
-0.033105731 -0.011863291 0.059587866
0.01050064 0.033947945 0.056543738
-0.03183645 -0.0024845004 0.056272775
-0.033824921 -0.0062969327 0.056232959
-0.035650373 -0.0096341968 0.057596236
0.0094664991 0.033700526 0.052233577
0.0063625276 0.033262193 0.052606001
-0.031578779 -0.0012828708 0.052617535
-0.033066869 -0.0055940151 0.052882731
0.0082629919 0.034343898 0.048821241
0.0047365129 0.034469068 0.047943756
-0.031207681 0.0039907694 0.047711119
-0.031149566 4.7802925e-05 0.048347786
0.0013052523 0.034455955 0.044519447
-0.001762718 0.033951461 0.04248666
-0.030951202 0.005825758 0.043310381
-0.031849384 0.0014675856 0.044308133
-0.0042073727 0.03305012 0.040704213
-0.0069158971 0.032460272 0.038315944
-0.030897021 0.010864794 0.038491078
-0.030967355 0.0078489184 0.037383266
-0.0091344416 0.031875551 0.034863904
-0.012679398 0.031793177 0.03358008
-0.031626761 0.012387156 0.033537336
-0.013683617 0.031852365 0.029870257
-0.019113362 0.03036952 0.029936835
-0.0315364 0.019201815 0.029247656
-0.031980813 0.015582681 0.029810674
-0.016047388 0.031049788 0.026128069
-0.019812644 0.029901564 0.025760874
-0.023349881 0.028401852 0.025183514
-0.029774129 0.02464503 0.025325313
-0.031096816 0.019843519 0.025111243
-0.032307148 0.016950071 0.025913544
-0.020740032 0.030180573 0.02182056
-0.024874568 0.028592944 0.021310702
-0.028745234 0.025398254 0.021321669
-0.030400813 0.021194339 0.021757141
-0.026341558 0.027986228 0.017548844
-0.028408885 0.026424646 0.016890034
0.027049929 0.036457777 0.063123286
0.02409324 0.035812736 0.063160419
0.025980949 0.036256075 0.058735043
0.022145838 0.035712361 0.059048355
0.018062323 0.034578383 0.058938771
-0.033617198 -0.014178634 0.058938414
0.021014661 0.036172986 0.054225028
0.01645714 0.034614086 0.055286795
-0.035052538 -0.0097721219 0.053801358
0.018970519 0.036199689 0.050589532
0.015470505 0.034892857 0.049785674
0.011830509 0.034111857 0.050294459
-0.031492174 -0.0040586591 0.050257057
-0.033207893 -0.0069134831 0.049772769
0.013245702 0.035287261 0.044878066
0.0096920729 0.034746885 0.045278341
0.0052281022 0.033970118 0.04427176
-0.031693518 -0.0027742982 0.044953585
-0.033876121 -0.0061557293 0.044419326
0.0087353289 0.035094142 0.041026644
0.0041898191 0.034019053 0.040797167
0.00085479021 0.032703757 0.039819501
-0.030508339 0.0025263429 0.039460249
-0.031936109 -0.0010390878 0.040410854
-0.033204079 -0.0046368837 0.039795883
0.0029838085 0.033179283 0.036039971
-0.0010746121 0.032641888 0.036589287
-0.0047292709 0.031830311 0.035911523
-0.030812979 0.0037152171 0.036235251
-0.031563103 0.0011200309 0.035964228
-0.0020136535 0.032753825 0.031955324
-0.0064117312 0.031950235 0.032290809
-0.031349361 0.006370604 0.03188134
-0.0041196942 0.032841265 0.027916335
-0.0077013969 0.032366514 0.028036676
-0.011215568 0.031689107 0.027150169
-0.031906605 0.010755241 0.027924456
-0.031756401 0.007494688 0.02753026
-0.0086054802 0.033089876 0.023148112
-0.013099432 0.031543255 0.023863152
-0.016755581 0.030765831 0.023223832
-0.032299161 0.013652027 0.023712911
-0.03249228 0.010832071 0.022677906
-0.010230988 0.033104837 0.019438587
-0.014066309 0.032007515 0.019117191
-0.018216312 0.030510962 0.019362971
-0.021752119 0.028976917 0.018771753
-0.028760135 0.022101462 0.018495366
-0.030284524 0.018660069 0.019035861
-0.031341612 0.014945269 0.018760748
-0.01585412 0.031918168 0.014652446
-0.018953741 0.030011237 0.014524087
-0.023653805 0.028102398 0.015014127
-0.028717399 0.024414361 0.014816001
-0.029298127 0.020246446 0.014531329
-0.019841194 0.030777037 0.01035057
-0.024127662 0.028472424 0.010211334
-0.028108835 0.025790989 0.010549411
-0.030061901 0.022135198 0.010226831
-0.025300145 0.028316855 0.0068685859
-0.028510213 0.025895178 0.0070376545
-0.030667961 0.023278713 0.00674586
0.030195206 0.035605192 0.062139571
0.028013647 0.035419285 0.057376564
0.025535226 0.03581816 0.054692954
0.024212956 0.03622371 0.051294863
0.021826804 0.036090434 0.047176421
0.017857045 0.035536349 0.046804816
0.021434546 0.03671205 0.043077908
0.016487271 0.034732819 0.042733513
-0.035295784 -0.0085055232 0.041762687
0.01515016 0.034895599 0.039598428
0.010930121 0.033903301 0.037698083
-0.031891227 -0.0026149154 0.037399329
-0.032950342 -0.0075752735 0.037356384
-0.034620523 -0.010047019 0.039166637
0.0097859204 0.033475578 0.034271829
0.0066044331 0.032757282 0.033716016
-0.03159982 -0.0017514229 0.033384003
-0.032069087 -0.006015718 0.033459105
0.0048500597 0.032255173 0.029925816
0.0013124347 0.032200754 0.028577499
-0.031565666 0.0044651628 0.029042847
-0.030997694 -0.00010746717 0.029393174
0.0040353537 0.032259285 0.025848977
-0.00041174889 0.031952202 0.025401972
-0.031653762 0.0046982169 0.025046982
-0.0027139187 0.032518923 0.021126382
-0.031691492 0.0073427558 0.021039911
-0.0038701892 0.032718122 0.017687939
-0.0079270005 0.032980919 0.016832702
-0.03107059 0.012066364 0.016237594
-0.031487644 0.0084884763 0.017734803
-0.0094594657 0.032577693 0.013304554
-0.012970924 0.031974912 0.012577072
-0.030350149 0.017810881 0.012740657
-0.030669689 0.014156401 0.012679823
-0.014612824 0.031412244 0.0079916567
-0.019844294 0.030552566 0.0085940808
-0.03057456 0.018641472 0.0081570894
-0.031130016 0.015536427 0.0093230382
-0.019142509 0.029637337 0.004015401
-0.02817452 0.024915516 0.0037256628
0.021146119 0.035944343 0.040470235
0.019755781 0.0341658 0.040569715
0.02144742 0.035754323 0.03787487
0.01771912 0.033785582 0.036229216
0.01391685 0.033445179 0.035823457
-0.032713056 -0.010860205 0.034603037
-0.033642709 -0.013332069 0.035206147
0.016011924 0.034328759 0.031807266
0.012575775 0.033856511 0.0323992
-0.032449424 -0.008027792 0.031459548
-0.03316623 -0.011982858 0.031037159
0.01519388 0.033709168 0.028172188
0.011018097 0.033888876 0.027795158
0.0071255565 0.032759607 0.027447097
-0.031278014 -0.0037178397 0.027657099
-0.032538772 -0.0069039464 0.02686695
-0.034069657 -0.011038482 0.027036645
0.0097319186 0.033401072 0.023746453
0.0058149099 0.032646 0.023323767
0.0017839074 0.032315671 0.022957824
-0.031029761 -0.0015231371 0.023263164
-0.032132387 -0.0061243773 0.023343839
0.0040199757 0.032238066 0.018930666
0.00065559149 0.03282088 0.019392841
-0.031508267 0.0034925938 0.019009389
-0.031154633 -0.00089526176 0.018561013
-0.0012426674 0.032947004 0.015321396
-0.0048758686 0.032334387 0.014187835
-0.03052634 0.0093994737 0.014063098
-0.030825913 0.005014956 0.014900006
-0.031532884 0.0021711588 0.015260227
-0.0024487078 0.031342149 0.011081301
-0.0062939525 0.031644821 0.010327809
-0.030679584 0.011911631 0.0095560029
-0.030093014 0.0081936717 0.010643519
-0.0084863901 0.031040967 0.007510826
-0.010877788 0.03154552 0.0067056566
-0.030568361 0.012314975 0.0055805519
0.024093628 0.033090472 0.033282749
0.020484626 0.032471418 0.033313565
0.022476405 0.03364408 0.030338876
0.02007708 0.033390284 0.029651992
-0.034231663 -0.014309347 0.030149139
0.022270024 0.034780324 0.024367742
0.017640531 0.033171833 0.0250751
-0.033172727 -0.0088399053 0.024500616
-0.034886003 -0.012005627 0.025713719
0.016373813 0.03366673 0.021476619
0.012136877 0.033227623 0.02083718
-0.031088054 -0.0037508607 0.020206846
-0.032991767 -0.0071417689 0.020866074
-0.034754097 -0.010004163 0.020889439
0.011057228 0.032228589 0.016661666
0.0074273348 0.031642377 0.016441636
-0.031051457 -0.003749609 0.016019024
-0.033331394 -0.0068299174 0.016995825
-0.035047412 -0.010180533 0.017209925
0.0059444308 0.031796873 0.012420736
0.0010985732 0.030587196 0.011397474
-0.029557645 0.002943635 0.011155792
-0.031102479 -0.0014204979 0.012203373
0.005143404 0.031656981 0.00853201
0.00088736415 0.03047663 0.0076883957
-0.0038409531 0.030046523 0.0073213205
-0.029691279 0.0036094785 0.0077319816
-0.030421555 -0.00072646141 0.0081270114
0.024570376 0.031786442 0.026175819
0.023818135 0.032704711 0.024917595
0.021191448 0.033446729 0.024221592
0.022628903 0.033731222 0.018263511
0.019675821 0.033121049 0.018408917
0.0179272 0.032500029 0.014156334
0.013949573 0.033015549 0.014979236
-0.032925129 -0.0080567002 0.013581581
-0.034469843 -0.011557281 0.014611192
0.012387663 0.032685518 0.010383986
0.00813362 0.031802356 0.0094132945
-0.030428171 -0.0036354661 0.0088445023
-0.031895161 -0.0072132945 0.010124154
-0.034400582 -0.0090810657 0.011821248
0.010778874 0.031977713 0.0057322606
0.0069146752 0.032092392 0.0059677288
0.0033559799 0.030968547 0.0051338598
-0.030069292 0.0012539625 0.0050439015
-0.030505061 -0.0029276013 0.0050199702
0.024821311 0.03071779 0.018231653
0.023704767 0.031899691 0.014378361
0.020731717 0.031911612 0.011017434
0.01815331 0.031995714 0.0070536062
0.015233457 0.031462193 0.0058431253
-0.030040622 -0.011039674 0.0048182681
0.02684471 0.030181706 0.011695318
0.024596632 0.030334294 0.010639034
0.025199324 0.029188037 0.0071426257
0.028567553 0.027332187 0.0061952695
