# .PCD v0.7 - Point Cloud Data file format
VERSION 0.7
FIELDS x y z
SIZE 4 4 4
TYPE F F F
COUNT 1 1 1
WIDTH 1134
HEIGHT 1
VIEWPOINT 0 0 0 1 0 0 0
POINTS 1134
DATA ascii
-0.014909804 0.036490977 0.18345767
-0.018236041 0.034704924 0.18446341
-0.021835327 0.031529605 0.18418577
-0.015514433 0.038300574 0.18057477
-0.020596385 0.037550807 0.18117732
-0.024031401 0.033833206 0.1807242
-0.02507174 0.030320227 0.18148839
-0.016768157 0.039985001 0.17704737
-0.020946264 0.03886658 0.17731598
-0.024123371 0.035016596 0.17720866
-0.010936856 0.030394614 0.18586692
-0.014640212 0.029060781 0.18685675
-0.018922925 0.025702178 0.18702459
-0.0044746995 0.037265122 0.18165183
-0.008240819 0.035473824 0.18305266
-0.01236397 0.034487367 0.18426543
-0.018568039 0.030849159 0.1852302
-0.022213161 0.027779341 0.18498924
-0.024073362 0.026042938 0.18297485
-0.006107688 0.038181603 0.18060464
-0.0094262362 0.037610114 0.17904097
-0.012265801 0.037650764 0.17988777
-0.025470257 0.028621197 0.17893869
-0.011457801 0.038885832 0.17482945
-0.014969826 0.038915575 0.17430469
-0.020921111 0.036768973 0.17369202
-0.023704767 0.033456504 0.17408535
-0.025361478 0.028511047 0.1748628
-0.016218781 0.039174855 0.17009205
-0.020173669 0.037446499 0.17026341
-0.023004413 0.034247518 0.16905805
-0.020747364 0.037716746 0.1659798
-0.0031864643 0.027622223 0.18668085
-0.0084877014 0.024786413 0.18675321
-0.010078609 0.024947047 0.18703413
-0.020306289 0.01811552 0.18682522
0.0081040263 0.037001014 0.18351126
0.0037804842 0.035744727 0.18410563
0.00012522936 0.032703638 0.18497312
-0.0045210719 0.030824125 0.18505543
-0.0081312656 0.029086053 0.18587303
-0.01474309 0.02481693 0.1869331
-0.021634042 0.019877911 0.18516055
-0.023431659 0.016944706 0.18390042
0.0068894029 0.038278103 0.18053785
0.0026889443 0.037874162 0.18069655
-0.0020567179 0.037235558 0.18204117
-0.0060933828 0.034327984 0.1823661
-0.025768042 0.022575021 0.18031222
-0.025723338 0.018966138 0.18051395
0.0056321621 0.039682567 0.17760521
0.0014697313 0.039269209 0.1762355
-0.0035884976 0.03880018 0.17727306
-0.007157445 0.037279248 0.17712069
-0.025238991 0.023876071 0.1759178
-0.026187241 0.020289719 0.17743945
-0.00087183714 0.040078282 0.17303148
-0.0040806532 0.039621055 0.17190081
-0.0085678101 0.038190961 0.17224795
-0.024706304 0.026530147 0.17154253
-0.0053448677 0.03961575 0.16779244
-0.0096166134 0.038168728 0.16767544
-0.013663709 0.038664997 0.16744578
-0.024386406 0.032123446 0.16791189
-0.02527076 0.02795279 0.16720146
-0.0154863 0.037734807 0.16389525
-0.019522846 0.037401497 0.16310957
-0.023989797 0.033897698 0.16364902
-0.026035309 0.030085385 0.16211784
-0.020044863 0.037008226 0.15901977
-0.023708999 0.033947885 0.15911922
0.011713028 0.03163141 0.18598241
0.0078406334 0.029889941 0.18611938
0.0035901666 0.027630806 0.18655097
-0.00095105171 0.025043428 0.18741038
-0.0060851574 0.024516642 0.18632209
-0.019572496 0.013321817 0.18626571
-0.022479951 0.012403607 0.18568942
0.014225006 0.036672115 0.18139535
0.011288345 0.035157502 0.18301034
0.0065194964 0.033156514 0.18508518
-0.024625778 0.014078915 0.18256086
-0.025281131 0.010996938 0.18185854
0.013608456 0.037779212 0.1781874
0.009516418 0.037455559 0.17815548
-0.026649594 0.014961123 0.17843103
-0.026923001 0.012843609 0.17713159
0.0067545176 0.038178504 0.17420828
0.0044561028 0.038652539 0.17334765
-0.026289582 0.019185364 0.17403674
-0.026774645 0.013535976 0.17415529
0.0072420835 0.037427723 0.17046919
0.0029921532 0.038919389 0.16960272
-0.025551438 0.022443295 0.17010665
-0.026431918 0.018944561 0.16896927
0.0010567904 0.039186001 0.16586205
-0.002836585 0.038626254 0.16457784
-0.0081833601 0.036972642 0.16448158
-0.025922179 0.024641395 0.16501471
-0.026499867 0.023579419 0.16586357
-0.0043917894 0.038358092 0.1605486
-0.0082297325 0.037541389 0.1614452
-0.012713671 0.035918713 0.1603857
-0.025698721 0.023590207 0.16019934
-0.0058319569 0.03823483 0.15705594
-0.0085400343 0.038805723 0.15610099
-0.013893008 0.036040545 0.15622181
-0.019043148 0.037092507 0.15584174
-0.023353279 0.032351732 0.15559578
-0.025078118 0.02828306 0.1569528
-0.0096969604 0.038793325 0.15311617
-0.014750481 0.036539078 0.1520614
-0.019147694 0.036664367 0.1521019
-0.02296859 0.032839298 0.15163904
-0.020891666 0.036612511 0.14833525
-0.023283601 0.034683108 0.14711523
-0.029601932 -0.0048876405 0.19016743
0.015164971 0.025399864 0.18648189
0.011315405 0.025072217 0.18697128
0.0069679618 0.021504223 0.18671492
0.0035268068 0.022418141 0.18745777
-0.018467546 0.0048685074 0.18660098
-0.022576869 0.0022693276 0.18663228
-0.02790314 -0.0018754005 0.18676707
-0.029973686 -0.0036341548 0.18718943
0.022327602 0.03316021 0.18268752
0.017928123 0.032321036 0.18392178
0.01504451 0.02978766 0.18566096
0.010692954 0.028762102 0.18644065
-0.015355408 0.0071501136 0.18483749
-0.020461202 0.0087715387 0.18601453
-0.024482369 0.0053777099 0.18438745
-0.026728392 0.0022526979 0.18216166
0.024214566 0.037260175 0.17717955
0.020398259 0.036796272 0.18026888
0.017238438 0.035573304 0.18158364
-0.026652813 0.0083007216 0.18089893
-0.028148055 0.0038400292 0.17938915
0.019026518 0.038370311 0.17653477
0.015457213 0.038044989 0.17606336
0.011443913 0.03641063 0.17581177
-0.027871728 0.009470582 0.17559552
0.018326759 0.037983418 0.17040965
0.014442563 0.037533939 0.17234653
0.010248899 0.037008882 0.1719681
-0.027903914 0.011433303 0.17114231
0.0088399053 0.037311614 0.16717577
-0.027017474 0.016460121 0.16790605
-0.028005958 0.011774957 0.16677132
0.0080149174 0.037394464 0.16305107
0.003998518 0.038372099 0.16276884
-0.02609539 0.019634426 0.16310495
0.0025336742 0.038762152 0.15858772
-0.0019882321 0.038603842 0.15915167
-0.0093026757 0.034999192 0.15830421
-0.025210559 0.020791233 0.15692282
0.00046122074 0.039093256 0.15334231
-0.0039516091 0.039250791 0.15447748
-0.010268688 0.036556959 0.15494722
-0.024305522 0.026015282 0.15310103
-0.0041190386 0.039111376 0.14998627
-0.0086526871 0.038869321 0.15028986
-0.012763798 0.036899328 0.14989874
-0.024405658 0.02773422 0.14954779
-0.0099747777 0.037219822 0.14628723
-0.014316916 0.036678135 0.14547545
-0.018454969 0.036386669 0.14527071
-0.023832142 0.033987522 0.14513385
-0.025117457 0.030040085 0.14523244
-0.01660651 0.036573887 0.14246327
-0.019805551 0.035647988 0.14135307
-0.023242593 0.033709764 0.14141509
0.029195905 0.024766326 0.19366544
0.031736135 0.02859962 0.19059011
0.028772116 0.025540173 0.19033819
0.025645912 0.023817241 0.1876744
-0.014765561 -0.0013756752 0.18783221
-0.01751107 -0.0031709671 0.1882053
-0.022793233 -0.0070378184 0.18903518
-0.026857376 -0.0064974427 0.1893684
0.034141183 0.032771587 0.18597448
0.030903339 0.030979216 0.18633902
0.026840746 0.028457344 0.1863057
0.022528291 0.02511847 0.18610275
0.017889977 0.023310184 0.18649164
0.014304936 0.019030988 0.18657166
0.0088429451 0.01874572 0.1873064
0.0053841472 0.01479739 0.18682462
0.0011120439 0.010252833 0.18473935
-0.0054552555 0.0060377121 0.18464947
-0.011618137 0.0042181015 0.18510652
-0.014903605 0.0028635263 0.18642819
-0.020508647 -0.0013666749 0.18737
-0.024567544 -0.0030111074 0.18696803
-0.026504993 -0.0057712197 0.18793154
0.033539712 0.034913123 0.18124139
0.029202938 0.034126103 0.18189448
0.024926186 0.032304466 0.18277156
0.020489514 0.027948856 0.18476734
-0.026860833 -0.00085514784 0.18347606
-0.030440748 -0.0027357936 0.18228483
-0.032568574 -0.0048909187 0.18041819
0.032024384 0.035701156 0.1771346
0.027657866 0.036220074 0.17810488
0.024183869 0.034956396 0.17867815
-0.028708577 0.0011104941 0.17665923
-0.030790269 -0.0021421909 0.17691529
-0.03308177 -0.0046364069 0.17740655
0.030877829 0.036191642 0.17427292
0.027093291 0.037283063 0.17357317
0.022846401 0.036889732 0.1739133
-0.02901876 0.0024274588 0.17265159
-0.030425489 -0.0006467104 0.17170992
0.025465488 0.037844896 0.16953957
0.021336555 0.037020504 0.16897967
0.015630126 0.036061108 0.16873491
-0.028994203 0.0041986704 0.16818443
0.020791769 0.037648976 0.16400886
0.015833497 0.036536574 0.16485691
0.011895597 0.036136925 0.16459998
-0.026597738 0.011106014 0.16397002
-0.029020071 0.0067223907 0.16474214
0.018982053 0.037774563 0.16068804
0.014340401 0.037421763 0.16012096
0.0096406341 0.037809789 0.16043913
-0.024768412 0.015303493 0.15846491
0.012853742 0.037779033 0.15691364
0.0088506937 0.038249373 0.156129
0.0048705935 0.037758887 0.15560383
-0.025142729 0.01630348 0.15521288
0.0073302388 0.038197219 0.15155703
0.0035481453 0.038577259 0.15210104
-0.024662018 0.021711648 0.1514926
-0.02562499 0.018097937 0.15113115
0.0057687759 0.038527429 0.14708897
0.0020446181 0.038255095 0.14766786
-0.0022034049 0.038097858 0.14676657
-0.0065444112 0.036892772 0.14718205
-0.024934709 0.023532927 0.14806318
-0.025399923 0.020402431 0.14666915
-0.0035315752 0.038074374 0.14304847
-0.0078986883 0.037052691 0.14309436
-0.012093842 0.035607159 0.14263189
-0.025047719 0.025417745 0.14300475
-0.0042977929 0.038210094 0.13854346
-0.0087371469 0.037709236 0.13812521
-0.013606131 0.035681009 0.13839704
-0.017473102 0.034460723 0.13819322
-0.022128284 0.032192469 0.13727039
-0.024329185 0.027480304 0.13864446
-0.010170698 0.037912607 0.13357085
-0.013255 0.036725223 0.13413966
-0.017766714 0.034188926 0.13300952
-0.022230864 0.03165561 0.13368478
-0.019627213 0.035191774 0.12898535
-0.022247136 0.032873273 0.12990206
0.028978944 0.022040546 0.19198784
0.028087974 0.017638564 0.19208884
-0.01570034 -0.0087965727 0.19032767
0.025214732 0.020419359 0.18866345
0.021472871 0.017743647 0.18815118
0.017615378 0.014733851 0.18737307
0.012960315 0.012898862 0.18748391
0.0086437464 0.0094704032 0.18748689
0.004526794 0.0070722103 0.18698379
0.00021058321 0.0031656027 0.18664122
-0.0030825734 0.00086838007 0.18678746
-0.008464396 -0.00086534023 0.18651158
-0.012456894 -0.0039024949 0.18791622
-0.016648352 -0.0062313676 0.18952143
-0.020085275 -0.007158339 0.18926668
0.0029476881 0.0075464845 0.18536186
-0.0007392168 0.0063906312 0.1848284
-0.0053403974 0.0042696595 0.18497431
-0.008014977 0.0021951199 0.18563545
0.0442397 0.036790669 0.17791796
0.03983593 0.03346324 0.17852157
0.036607385 0.034526408 0.18087298
0.038476467 0.034764886 0.17429677
0.035041809 0.035837531 0.17599794
-0.033940375 -0.0055550337 0.17492372
0.03376019 0.035475254 0.17097139
0.030643642 0.034720123 0.17033362
-0.031029761 -0.0031198263 0.17148274
-0.033316493 -0.005358994 0.17201698
0.027969897 0.035529912 0.16636142
-0.028622329 0.00085806847 0.16545215
-0.030748487 -0.0013551116 0.16598979
0.025406003 0.036757529 0.16334286
0.022525609 0.037340581 0.16157764
-0.025471568 0.0059505701 0.15993577
-0.027823091 0.0030066371 0.16190997
-0.031083286 -0.00066620111 0.16142279
0.020750642 0.036949635 0.15752614
0.016824067 0.037220597 0.15768358
-0.024374366 0.0077927113 0.15721664
0.018996596 0.037152588 0.15353322
0.015576541 0.036733568 0.15306884
0.01166594 0.03762579 0.15305269
-0.026739061 0.010921299 0.15207058
0.014070928 0.037425995 0.14876342
0.0099075437 0.037310898 0.14902684
-0.026079059 0.015054345 0.14815819
-0.026854336 0.01132971 0.14908192
0.01308012 0.038215518 0.14569414
0.0090629458 0.03706336 0.14541367
0.0047464967 0.036887944 0.14418471
-0.025765419 0.01755029 0.14479914
0.0033765435 0.036877692 0.14022619
-9.4771385e-06 0.036954999 0.1398617
-0.02519381 0.023483217 0.14000502
-0.024671555 0.017695963 0.1413922
0.0015820861 0.037659228 0.1361953
-0.0020023584 0.037527025 0.13548142
-0.024888456 0.024077713 0.13578847
-0.025807858 0.022676885 0.13333896
-0.0039508939 0.038039148 0.13182092
-0.008058548 0.03823489 0.13196498
-0.013355196 0.036920607 0.13099959
-0.023825765 0.030208766 0.13125968
-0.02423358 0.025950313 0.13178042
-0.0092417002 0.038209319 0.12729695
-0.013816535 0.03697294 0.12741485
-0.017922223 0.035601318 0.12677965
-0.022741795 0.032384574 0.12683341
-0.024135709 0.029484272 0.12698448
-0.011717081 0.038802385 0.12348735
-0.013928354 0.0374071 0.12284311
-0.018855751 0.035475612 0.12317526
-0.022455692 0.033067942 0.12309065
-0.024606466 0.029303849 0.12289666
0.026803374 0.015294194 0.19091383
0.025023758 0.013182521 0.18986329
0.021775663 0.008508265 0.1891849
0.014185846 0.0065932274 0.18822443
0.0081248283 0.00059074163 0.18762106
0.0037679076 -0.00046783686 0.18878216
0.00018215179 -0.003952086 0.18923366
-0.0041515827 -0.0066378117 0.18856615
-0.008402586 -0.0093362331 0.18851522
0.023111582 0.013542533 0.18864694
0.019167304 0.010927618 0.18857262
0.015696585 0.0092995167 0.18867311
0.012476087 0.0069195628 0.18855208
0.0054614544 0.0033363104 0.18710262
0.0022982359 0.0010681748 0.18779129
-0.0024945736 -0.0024982691 0.18799999
-0.0067498088 -0.0044302344 0.18734926
-0.010433614 -0.0064341426 0.18778339
0.042298138 0.033246398 0.17729306
0.040881753 0.033912897 0.17409611
0.038340092 0.03476727 0.16871965
0.035635412 0.03522253 0.16847408
0.038630724 0.034931719 0.16389036
0.034406543 0.034775436 0.16437113
0.030079901 0.0344823 0.16395205
0.032794356 0.034099579 0.16057813
0.029124439 0.034670353 0.15940651
0.024862468 0.034833729 0.1588729
-0.027907491 0.00091987848 0.15932843
-0.031279981 -0.0013050437 0.15859225
-0.034262717 -0.0049389601 0.15752658
0.027244329 0.035151839 0.15512323
0.024264872 0.035574138 0.15595216
-0.025301754 0.0058178306 0.15503496
-0.027386129 0.00248909 0.15524366
-0.03190887 -4.607439e-05 0.15543273
0.025675058 0.035009384 0.15149242
0.02269727 0.036239326 0.15066192
-0.026059747 0.0069774985 0.15226266
-0.028730631 0.0036275983 0.15075746
-0.032315791 0.001218915 0.15026394
0.020144403 0.036623418 0.14695302
0.017157495 0.037282169 0.14713264
-0.02725327 0.0091463327 0.145796
-0.029195011 0.0061851144 0.14648077
-0.032836735 0.0029078722 0.1457434
0.015677094 0.036348164 0.1422196
0.010522187 0.036067367 0.14191875
-0.025116682 0.014144897 0.14120758
-0.026444018 0.010008514 0.14264664
0.013736367 0.036331713 0.13764665
0.0097234249 0.036097765 0.13781554
0.0058873296 0.036672711 0.13727659
-0.02512306 0.015734494 0.13793296
-0.025666058 0.013429165 0.13535026
0.0082697868 0.037752509 0.13357291
0.0036997199 0.037843883 0.1338914
-0.026211143 0.017979264 0.13357982
-0.026498377 0.014845729 0.13265198
0.0031701922 0.037987351 0.12917167
-0.0016469359 0.037634909 0.12940645
-0.024840236 0.02290982 0.12912172
-0.026318729 0.019837201 0.12924591
0.0013408661 0.038056374 0.12594104
-0.0024710298 0.037881434 0.12452253
-0.0067970157 0.03773284 0.12520465
-0.024839759 0.024482906 0.12583271
-0.025824487 0.021376312 0.12385844
-0.004016161 0.038039148 0.12023156
-0.0082134604 0.03783083 0.1206302
-0.013474822 0.036643684 0.11939805
-0.017359912 0.03431195 0.11953273
-0.02250737 0.031316459 0.11956
-0.024603248 0.027265787 0.12007015
-0.010376632 0.037062228 0.1160081
-0.013513565 0.036603034 0.11564981
-0.018251419 0.034730732 0.11612486
-0.022146523 0.032158613 0.11565372
-0.02370137 0.028704107 0.1158775
-0.014452398 0.036415398 0.11188024
-0.018564224 0.035009384 0.11133268
-0.021948576 0.03302151 0.11169469
0.019289672 0.0041708946 0.18927345
0.012666643 0.001424849 0.18716997
0.011707723 -0.00057518482 0.18681556
-0.0020292997 -0.011665225 0.18925339
0.043700397 0.031081021 0.16969338
0.043280184 0.031041682 0.16665819
0.040454924 0.034253299 0.16259867
0.038464248 0.035911262 0.15771365
0.034837425 0.034930229 0.15782046
0.037468135 0.037109315 0.15252352
0.0338341 0.035789073 0.15276358
0.030421197 0.034330308 0.15339071
0.036346853 0.037848353 0.14843374
0.032705545 0.037044764 0.14862567
0.028403223 0.035831571 0.1488134
-0.033900261 -0.00057154894 0.1473498
0.031287014 0.036035597 0.14509302
0.027682304 0.03645581 0.14421052
0.023136973 0.035944581 0.14465779
-0.030216813 0.0039322972 0.14395091
-0.030177355 0.00051957369 0.14210287
0.026422739 0.036515892 0.14034146
0.022474051 0.036107004 0.13950485
0.018185377 0.035801053 0.14012864
-0.026136398 0.0076446533 0.13859421
-0.028289676 0.0039743781 0.13910207
0.020994186 0.037252128 0.13467413
0.016633868 0.036526799 0.13590246
0.011944413 0.036054134 0.13542151
-0.026256084 0.0084657073 0.13474721
0.014647067 0.037707508 0.13130522
0.011012435 0.037484169 0.13191542
-0.027148485 0.010796845 0.12984806
0.013371527 0.03847158 0.12664625
0.0089904666 0.03804642 0.12706327
0.0051138401 0.038184762 0.12581003
-0.026135206 0.015682399 0.1253992
-0.027275562 0.013319075 0.12610593
0.0087244511 0.038280189 0.1225301
0.0040639639 0.037696242 0.12219804
-0.026007533 0.017615557 0.12150788
0.0074612498 0.03865093 0.11884176
0.0028727651 0.037949741 0.11821299
-0.0017496347 0.038081467 0.11824306
-0.024897277 0.023402989 0.11768519
-0.025926232 0.019848287 0.11921855
0.0010985732 0.038067281 0.11432492
-0.0028377771 0.037599087 0.11350258
-0.0069711804 0.036462843 0.113952
-0.010510027 0.036539495 0.11335396
-0.024166942 0.025152564 0.11293643
-0.024700582 0.021603882 0.11453768
-0.0048443079 0.037659526 0.10922512
-0.0082162619 0.036839545 0.10879221
-0.012338698 0.036208332 0.10942026
-0.016152382 0.03446734 0.10792648
-0.023182034 0.030445635 0.10883146
-0.024540126 0.027519286 0.10877847
-0.010047495 0.037826002 0.10402905
-0.013596416 0.03711319 0.10443621
-0.018006384 0.034371316 0.10476654
-0.021745801 0.032570601 0.10496693
-0.024433374 0.029180825 0.10393556
-0.015177548 0.037693024 0.099898808
-0.018479168 0.034501255 0.10026222
-0.021352589 0.032799363 0.10083442
-0.016389966 0.038110316 0.09657117
0.042813122 0.030936301 0.15558684
0.037910104 0.036452711 0.1456984
0.035191715 0.03604728 0.14495796
0.033180892 0.034927309 0.14278179
0.030559301 0.034635186 0.14068425
-0.029403687 -0.0031346679 0.1392183
0.027517676 0.03558588 0.13691163
-0.028934419 0.0017418265 0.13647762
-0.029352665 -0.0020785928 0.13621765
0.02685529 0.035857201 0.13385642
0.024305344 0.036172509 0.13207006
-0.02716136 0.006773293 0.13190696
-0.028442323 0.0036568642 0.13283396
-0.029593587 -0.00036084652 0.13263455
0.020964503 0.036221683 0.12903187
0.01737982 0.037122905 0.12811852
-0.028585911 0.0046160817 0.12817124
-0.031057298 0.0021170974 0.12784812
0.017371953 0.03622067 0.12477439
-0.027761936 0.010246694 0.12396597
-0.02821672 0.0069954395 0.12468176
-0.034407675 0.0053265691 0.12282393
0.013550878 0.036693335 0.12203651
0.011601806 0.036836505 0.11994951
-0.026955783 0.012842655 0.11946364
0.0084933043 0.03674531 0.11565825
0.0052688718 0.037193358 0.11510273
-0.025032163 0.016776502 0.1150948
0.0073693991 0.036727667 0.11149447
0.0034938455 0.036712646 0.11082178
-0.00090134144 0.037426412 0.1104482
-0.02483052 0.019360006 0.11086585
0.0019782782 0.036561906 0.10745572
-0.0020580292 0.037429631 0.1068868
-0.0060437322 0.037681401 0.10610538
-0.02512908 0.024879575 0.10732221
-0.025635719 0.021113813 0.10613438
-0.0031482577 0.037126541 0.10226094
-0.0070262551 0.03756851 0.10267323
-0.022775292 0.030244052 0.10193037
-0.025327444 0.025172174 0.10238665
-0.0085930824 0.037480533 0.098653786
-0.012430251 0.03669852 0.097942404
-0.017921507 0.034614861 0.098486356
-0.022126436 0.031035781 0.098192088
-0.024206281 0.026901782 0.098791979
-0.012949288 0.035866857 0.094602816
-0.017573416 0.034825265 0.094154887
-0.02111125 0.031965315 0.093962304
-0.023244977 0.0289554 0.09476795
0.040557742 0.033820152 0.14446205
0.039423645 0.034951985 0.1400274
0.035843134 0.033440411 0.13926223
0.032011747 0.032687187 0.13901132
0.033932209 0.033556402 0.13512683
0.031335115 0.033643186 0.13610083
-0.029555738 -0.0046446323 0.13463867
0.03251195 0.035257459 0.13018498
0.029090464 0.035265148 0.13076144
-0.030109704 -0.0034424663 0.13052616
0.031866789 0.036323965 0.1268096
0.0280478 0.035428822 0.12587109
0.023718297 0.035116076 0.12628543
-0.029299736 0.0027228594 0.12436295
-0.030622423 0.00010639429 0.12629414
0.026551604 0.036298931 0.1216455
0.022287488 0.035704851 0.12171101
0.017739892 0.035205603 0.12141722
-0.027247429 0.0072186589 0.1203787
-0.028648853 0.003754437 0.12087382
-0.03151834 0.0012168884 0.12094415
0.021443963 0.036628664 0.11711817
0.016917467 0.035407424 0.11760303
0.013055563 0.035142004 0.11714932
-0.027070999 0.0098974705 0.11616962
-0.028132439 0.0052557588 0.1171049
0.019650996 0.036026776 0.11388915
0.015904248 0.03537935 0.11328708
0.011665046 0.035315096 0.11333214
-0.025508583 0.013690829 0.11289864
-0.026480079 0.009775877 0.11297186
0.014348686 0.035490155 0.10967552
0.01030606 0.035739958 0.1094408
0.0064182878 0.036300421 0.10900395
-0.025001526 0.015209615 0.10822781
-0.025958896 0.012129724 0.1086533
0.0088818073 0.035169303 0.10471674
0.0044177175 0.036628306 0.10512679
-0.024974287 0.013962626 0.10524862
0.0035578609 0.037399769 0.10061454
-0.00024795532 0.037166297 0.10035389
-0.025314808 0.020123959 0.09977024
0.0016426444 0.038520336 0.096281134
-0.0023679733 0.037521601 0.096119337
-0.0066027641 0.036899686 0.094722383
-0.024284303 0.024316967 0.094703011
-0.025226355 0.020710528 0.095681123
-0.0076848865 0.036396742 0.091729216
-0.01197058 0.035339057 0.090859406
-0.017489195 0.033254206 0.090360634
-0.021451712 0.030775547 0.090581916
-0.023286164 0.026440501 0.090873472
-0.012673557 0.035782635 0.086353861
-0.017875433 0.034325778 0.086965702
-0.021866918 0.031551957 0.086827748
-0.023640513 0.027013779 0.086418979
-0.014688671 0.035754621 0.08333426
-0.018510044 0.03504169 0.082384221
-0.022375524 0.032108784 0.082459562
-0.018967688 0.036100149 0.077835731
-0.020537794 0.034363151 0.078927331
-0.020501375 0.037186444 0.073899858
0.041795313 0.030855 0.13586998
0.038549364 0.032595813 0.13614547
0.041528046 0.032844424 0.13266826
0.037539124 0.032197416 0.13286185
0.040457845 0.03598702 0.12902093
0.036336482 0.033774853 0.1288726
0.034669876 0.035069942 0.1242029
0.030754983 0.036180675 0.12361204
0.033038974 0.035521448 0.11992478
0.029440761 0.0356673 0.11976045
0.027749896 0.035520315 0.1152802
0.024859786 0.036346853 0.11635797
-0.029204428 0.0025601983 0.11473978
-0.030406296 -0.00042504072 0.11478473
-0.032296479 -0.0042093992 0.11595831
0.026214838 0.035785496 0.11080765
0.022772551 0.035847783 0.11065986
0.018431127 0.035124362 0.11043444
-0.027117252 0.0076879859 0.11036851
-0.027786553 0.0040608048 0.11070863
0.021618128 0.036869049 0.10547387
0.016933203 0.035382986 0.10617199
0.012587905 0.034604967 0.10583811
-0.026514351 0.010091186 0.10552161
-0.027232766 0.0061041117 0.10559588
0.019405186 0.037715018 0.10171618
0.016294897 0.036310732 0.10123038
0.011284232 0.03517288 0.10150235
-0.025011539 0.013322413 0.10333096
-0.025906682 0.010430574 0.10166531
0.010742843 0.035521269 0.097312741
0.0066561699 0.035870552 0.097147636
0.0087429881 0.036635876 0.093243085
0.0047101974 0.03672415 0.093114458
0.00041562319 0.036096156 0.092243753
-0.025198817 0.019471824 0.09265589
-0.00076639652 0.03539753 0.088951193
-0.0055471659 0.036103249 0.088936739
-0.024005473 0.024220228 0.088934772
-0.024167836 0.019579947 0.088154756
-0.002104044 0.036074042 0.084826104
-0.0065915585 0.03633678 0.08505886
-0.02439028 0.024882793 0.084505044
-0.024810433 0.020299196 0.085088156
-0.0068694353 0.036215544 0.080370717
-0.011837542 0.035333991 0.080419146
-0.016552091 0.035213649 0.080083393
-0.022695541 0.03148824 0.080071889
-0.024623632 0.027804494 0.080866806
-0.013437152 0.036212265 0.075638287
-0.016935527 0.0362795 0.076658033
-0.02232796 0.033489525 0.077048145
-0.024537265 0.02956748 0.075935982
-0.015297711 0.037283719 0.070460789
-0.018676341 0.036729276 0.071205251
-0.022751331 0.033939481 0.071949802
-0.016602874 0.037944019 0.067156635
-0.01945442 0.03663969 0.067317627
0.040974498 0.029520869 0.13057327
0.04074645 0.032729745 0.12401029
0.039379954 0.031562269 0.12626779
0.039917767 0.034092784 0.12120675
0.03768605 0.033654809 0.12115239
0.035571694 0.034805119 0.11679109
0.038745463 0.03508693 0.11323237
0.035474718 0.034565747 0.11284661
0.030674577 0.034227371 0.11282235
-0.030892253 -0.003931582 0.1119434
-0.032511652 -0.0051265955 0.11229489
0.028305948 0.034677684 0.10809707
-0.028045475 0.00087863207 0.10713688
-0.029916167 -0.0024733543 0.10752998
-0.032384932 -0.0052042603 0.1071114
0.026983321 0.035170078 0.10473853
0.024559021 0.036626279 0.10343527
-0.027954519 0.0037642121 0.10366405
-0.030515015 -0.0010290146 0.10298506
-0.033243358 -0.0033149123 0.10333622
0.022493124 0.036593795 0.099831603
0.0180825 0.035969496 0.098807268
-0.025527596 0.0081666708 0.098801099
-0.027746081 0.0041283369 0.099357642
-0.029679716 0.0012977719 0.10016314
0.020363808 0.03610307 0.096652322
0.016379297 0.036012292 0.095725946
0.012389779 0.03500551 0.095060669
-0.024464667 0.0085373521 0.095256083
0.015121698 0.036495209 0.091545515
0.011318743 0.035575092 0.090680234
0.008903861 0.034768105 0.088209711
0.0055378079 0.034591973 0.086554341
0.0021097064 0.034165084 0.085987829
-0.0244627 0.014586389 0.085543446
0.0041066408 0.034464598 0.082172655
0.00088715553 0.035030305 0.081780575
-0.024485409 0.01801616 0.081566684
-0.0021290779 0.035485148 0.077813052
-0.0058447123 0.035631359 0.076518349
-0.0092785358 0.034673989 0.07649713
-0.024807215 0.022862434 0.079066955
-0.0037022233 0.03653419 0.07242351
-0.0069417357 0.036387861 0.073107772
-0.010437667 0.035626948 0.073180072
-0.024517715 0.024438679 0.072585247
-0.0081823468 0.037022769 0.068609767
-0.012032211 0.03642863 0.068771206
-0.022876024 0.032510996 0.068273239
-0.024300337 0.028238893 0.068272285
-0.0099357367 0.037498415 0.065420054
-0.013746977 0.03716141 0.064668588
-0.017876863 0.035745978 0.063953452
-0.021744251 0.031935394 0.064035945
-0.023719132 0.028746605 0.064361118
-0.015364051 0.036845863 0.060247593
-0.018509269 0.036106408 0.059818231
-0.02119863 0.034204483 0.059707515
0.041664481 0.032251894 0.11345159
0.039437294 0.035072684 0.11137899
0.036930144 0.032623768 0.10900318
0.035087228 0.032316983 0.10539877
0.032273769 0.032260895 0.10584762
0.039399266 0.038996875 0.1006382
0.030280352 0.033636451 0.10082816
0.038452506 0.040668249 0.097940318
0.029256523 0.034635246 0.096180223
0.02530098 0.034248114 0.095842533
-0.027569115 0.0020195842 0.095478036
-0.030666411 -0.0012931228 0.097310938
0.026706338 0.034312665 0.09296184
0.023033381 0.034767032 0.092499368
0.019447327 0.035058677 0.092143916
-0.024338722 0.0060860515 0.092054449
-0.026228428 0.0024279356 0.091602437
-0.028608203 -5.9783459e-05 0.092536427
0.021753311 0.035375357 0.087988459
0.017706215 0.035266519 0.087985657
0.013179779 0.034424126 0.087163351
-0.024451911 0.0079417825 0.087511234
-0.026025057 0.0048808455 0.086753599
-0.034522533 0.0030449033 0.087048508
0.016349494 0.034869969 0.083722465
0.012103021 0.034053445 0.083767168
0.0080915689 0.034047842 0.083475761
-0.025390267 0.0088888407 0.082805149
0.014694691 0.035193384 0.08010646
0.011087239 0.03486383 0.079243235
0.0065725446 0.034514487 0.07967516
0.0028163195 0.034704804 0.079046719
-0.02445364 0.014684439 0.079457752
-0.024952412 0.011674821 0.078459613
0.0090907812 0.034991205 0.075111948
0.0057485104 0.034168899 0.075176738
0.0013956428 0.034166932 0.075400792
-0.024030447 0.017509162 0.075142615
0.00015735626 0.034246862 0.070893608
-0.024706125 0.019451976 0.070735507
-0.0014574528 0.035029888 0.066383891
-0.0050240755 0.036626697 0.067118429
-0.024814248 0.02319032 0.066886954
-0.025550008 0.020084679 0.065861724
-0.0028206706 0.035857916 0.063113444
-0.0065791011 0.036648393 0.062525742
-0.010454535 0.035549223 0.062122695
-0.024342597 0.026130497 0.062156133
-0.025700212 0.02275008 0.062042437
-0.0077480674 0.036909401 0.058158033
-0.01239109 0.036373258 0.058283083
-0.022571564 0.030577064 0.058596842
-0.024252474 0.026745498 0.057925247
-0.0093368292 0.036955237 0.054386668
-0.012809873 0.036859393 0.053397767
-0.01810348 0.035897136 0.054020189
-0.021998584 0.032163084 0.053227179
-0.023448229 0.028933883 0.053688101
-0.018625796 0.035705566 0.050767504
-0.020714045 0.034115851 0.049735479
0.040962696 0.029572368 0.11271583
0.0410887 0.032505631 0.10848656
0.039351046 0.032159388 0.10699036
0.041366518 0.032301724 0.10317286
0.03814137 0.032616198 0.10357996
0.03907299 0.035310626 0.099446498
0.036293685 0.033605218 0.099432103
0.033265352 0.032581925 0.099701665
0.03857857 0.035767555 0.096223406
0.035253346 0.035084844 0.094931297
0.031678498 0.035095453 0.093937032
-0.030707836 -0.0033746362 0.093559779
0.029900432 0.033103526 0.090365998
0.026903033 0.03303498 0.089850686
-0.027067125 0.00080615282 0.089607365
-0.029863417 -0.0030833483 0.089773424
-0.032747447 -0.004401207 0.088387556
0.02827388 0.032984018 0.086031191
0.024636507 0.034852207 0.086015634
-0.02762413 0.0018703938 0.086020268
-0.030527234 -0.00051909685 0.086039819
-0.033797681 -0.0013585687 0.08794082
0.022828102 0.034526348 0.082355313
0.018549919 0.035473287 0.081823431
-0.027776003 0.003715694 0.081666388
-0.031708062 0.00030124187 0.0828254
0.021629393 0.034641087 0.078375451
0.016992092 0.035940349 0.077951722
0.012559772 0.035459042 0.077156059
-0.026142716 0.0084285736 0.077171884
-0.027644455 0.0044009686 0.077553369
0.016473889 0.035786033 0.072642021
0.011904001 0.035261452 0.073519312
0.0064880252 0.034433067 0.072839908
-0.023954451 0.013060987 0.072574012
-0.024894297 0.00977391 0.072883092
0.011931181 0.034853101 0.069101535
0.0064902306 0.03372848 0.068615459
0.003143549 0.032702565 0.06762775
-0.024855256 0.0142681 0.068801127
-0.025218427 0.012275636 0.067239277
0.0050888658 0.033237517 0.063819341
0.0019508004 0.033984423 0.063844316
-0.026722729 0.016908169 0.061343275
-0.025776744 0.014755726 0.062967829
-0.0013152957 0.035898328 0.059801273
-0.026844859 0.019369066 0.059116803
-0.027740836 0.018125176 0.05668997
-0.0028367043 0.036340475 0.057056956
-0.0050849915 0.036123812 0.054820679
-0.024910688 0.025059819 0.054729335
-0.026437223 0.021940708 0.055197559
-0.0081902742 0.036945999 0.052011572
-0.012307405 0.03657198 0.049569927
-0.022310138 0.028779507 0.048857234
-0.023911238 0.026585042 0.050159745
-0.025260329 0.023510575 0.05105
-0.013069451 0.035280943 0.046344839
-0.017421961 0.034956157 0.046402447
-0.021794498 0.033212662 0.046574704
-0.022715509 0.028675497 0.045303099
-0.017498136 0.034376562 0.042128816
-0.021348059 0.033115923 0.041663662
0.042905271 0.030943334 0.10240658
0.035829306 0.03310591 0.087983184
0.03220582 0.032483399 0.088532887
0.035459459 0.034619153 0.083014779
0.031075716 0.033319592 0.083706491
0.034212768 0.036885679 0.078201525
0.029665053 0.034082294 0.078856282
0.025292635 0.033418953 0.078300349
-0.030205309 -0.001822114 0.07797388
-0.032495677 -0.0045400262 0.077705987
0.023573756 0.033587039 0.074404232
-0.027318835 0.002471447 0.073458977
-0.028776884 -0.0019154549 0.074296661
0.022691548 0.033923209 0.068982713
0.019369006 0.034507751 0.069954894
-0.025335908 0.0059860945 0.069339596
-0.02575469 0.00243783 0.069889538
0.016281366 0.035589457 0.065934293
0.011742234 0.034308076 0.065371536
0.0086442232 0.03322041 0.064776413
-0.02610755 0.0092234612 0.065386854
0.011444747 0.034861028 0.061356179
0.0065662861 0.033829272 0.061691783
-0.027303159 0.011055887 0.0609973
0.010750532 0.034743845 0.0576986
0.0060135722 0.034271479 0.057011597
0.0022004843 0.034572423 0.057853185
-0.02775842 0.013579369 0.057597987
0.004544735 0.034576833 0.053094588
0.000402987 0.034797072 0.052772991
-0.027338743 0.020099878 0.051985584
-0.027773023 0.016636908 0.052506559
-0.00064957142 0.034731388 0.048295222
-0.0047984719 0.034548759 0.047940455
-0.024094522 0.023622036 0.047199629
-0.025978148 0.02046597 0.048188619
-0.0054806471 0.033918083 0.044224247
-0.0098919272 0.03434962 0.043849066
-0.023997545 0.024596393 0.043948129
-0.011798024 0.034415781 0.03995873
-0.016361535 0.033720016 0.038996384
-0.021983802 0.031623483 0.039084777
-0.02360785 0.02737087 0.039904222
-0.016587794 0.033152521 0.035393342
-0.02105087 0.031652451 0.035211459
-0.023390591 0.027228773 0.035776123
0.037717521 0.034121811 0.079985075
0.035031021 0.035718679 0.077151619
0.034825325 0.035253406 0.073013566
0.03020525 0.033528984 0.072508536
0.026305079 0.032925308 0.071966104
-0.029315054 -0.0030812621 0.07160721
-0.031703472 -0.0057833791 0.071285225
0.028949559 0.032711864 0.068308853
0.024825394 0.033327579 0.068275236
0.020903409 0.033649802 0.067496262
-0.026392877 0.000195086 0.067043431
-0.029397547 -0.0030580759 0.066858031
-0.032043874 -0.0054111481 0.066572644
0.023496807 0.033660769 0.063574575
0.019834995 0.03432852 0.063964359
-0.027385414 0.0020374656 0.062938251
-0.02996248 -0.0018407702 0.063131578
0.021597922 0.034232914 0.059468471
0.017889738 0.034815788 0.059655569
0.014387965 0.03483659 0.05958157
-0.028054237 0.0036442876 0.058753081
0.015740871 0.034500837 0.054616801
0.012229621 0.035382628 0.055570386
0.0089298487 0.034284174 0.055244081
-0.027252078 0.0063026547 0.055532448
0.011417866 0.035001576 0.050633214
0.007158339 0.034462512 0.050956748
0.0032795668 0.034020066 0.050162725
0.0056566 0.034497619 0.046404384
0.0021768808 0.034758389 0.046644919
-0.026877284 0.014931917 0.046173058
0.0041267276 0.035045564 0.041724555
0.0002284646 0.035200119 0.042295627
-0.0042147636 0.034172952 0.041609399
-0.025725424 0.019138694 0.042137161
-0.026892602 0.014921606 0.041611806
-0.00048607588 0.034990251 0.037128501
-0.0051648021 0.034409702 0.037833259
-0.0094116926 0.034273922 0.037931547
-0.024086177 0.024693787 0.036720291
-0.025617361 0.02105093 0.037679002
-0.0023639202 0.034912586 0.033665948
-0.006393075 0.034934163 0.03312178
-0.010849476 0.03454715 0.03383176
-0.014677465 0.033885181 0.033308461
-0.023966849 0.026296556 0.033086285
-0.025941491 0.022598982 0.033101216
-0.0079265833 0.034593225 0.029423818
-0.01187706 0.034267545 0.029073253
-0.016238928 0.03374356 0.029362306
-0.020525694 0.031403601 0.02947031
-0.023346364 0.027601063 0.028943077
-0.017322361 0.033731759 0.024366811
-0.021309674 0.031844676 0.024330631
-0.023443878 0.028166592 0.02422379
0.036431432 0.032559991 0.068967782
0.034095109 0.031841874 0.069223456
0.035996377 0.032343268 0.066581719
0.031722903 0.032038569 0.065829419
-0.033148825 -0.0074130893 0.06606967
0.030786633 0.032314956 0.061430447
0.026946247 0.032892048 0.061870448
0.029091716 0.032768011 0.058067404
0.025225878 0.032891631 0.05742573
0.021580935 0.033510149 0.056478553
-0.028648436 0.0011113882 0.057459749
-0.029032886 -0.0020692348 0.0551062
0.023560345 0.03200227 0.052696489
0.019674897 0.033020318 0.053104423
-0.027072608 0.0018552542 0.05192969
-0.029185891 -0.0016464591 0.052879728
0.018190622 0.03311336 0.048807852
0.015006006 0.032994151 0.047526531
-0.026527762 0.0055021644 0.045942925
0.012542844 0.032963932 0.044628076
0.008854866 0.033617675 0.044094287
-0.026883662 0.010636806 0.043522462
-0.027003348 0.0059635043 0.043494985
0.0075843334 0.034002125 0.039753728
-0.027225137 0.011775434 0.039489612
0.0057833195 0.034427762 0.035879157
0.0022935867 0.035279453 0.035095058
-0.026686549 0.017227054 0.036096528
0.0046050549 0.034341633 0.031657837
0.0005183816 0.034304857 0.031447135
-0.0032525063 0.034105778 0.030786507
-0.026033282 0.017965794 0.029786989
-0.00085562468 0.033607006 0.027183734
-0.0051125288 0.034002125 0.026800737
-0.0096130967 0.03345108 0.026135549
-0.024085283 0.023703992 0.027098343
-0.024684131 0.020967424 0.026083514
-0.0065960884 0.033753812 0.023160502
-0.010295093 0.033118606 0.022178307
-0.014474213 0.03372997 0.022427425
-0.023591101 0.025423706 0.02215068
-0.011453867 0.034386992 0.017526671
-0.016593754 0.034258962 0.018739864
-0.021388888 0.031771004 0.01875405
-0.023918986 0.028364122 0.017464951
-0.013452411 0.035157084 0.013457075
-0.017022252 0.034894466 0.013600037
-0.021444678 0.033499062 0.013937399
-0.02419734 0.030275166 0.013711646
-0.018931389 0.034834027 0.010107741
-0.021615207 0.033427298 0.0094556659
-0.024376154 0.030601203 0.0096888095
0.036606789 0.030481875 0.061820768
0.035857916 0.030880094 0.058809631
0.03310287 0.031752408 0.058563195
0.030594289 0.032083452 0.054721527
0.026712298 0.031654179 0.053336792
0.025638759 0.03154242 0.049510472
-0.027484715 -0.00049465895 0.049277581
-0.029477894 -0.0031206012 0.049119748
-0.031271696 -0.0053007007 0.047363348
0.023585975 0.031603158 0.045514755
0.020186186 0.032043338 0.04449793
-0.027076423 0.0019227266 0.045556612
-0.0289675 -0.0028606653 0.045024492
-0.031781077 -0.0047417879 0.044951119
0.018297374 0.031795621 0.040738963
0.014533877 0.032100081 0.040801905
-0.027442575 0.0042955279 0.040170982
0.013195276 0.032062411 0.036454104
-0.027317166 0.0093072057 0.036657766
-0.02716732 0.0057906508 0.035169616
0.011417747 0.033031106 0.033093266
0.0081115365 0.03370142 0.032043509
0.00542593 0.03354919 0.028333418
0.0025315285 0.033195972 0.027375333
-0.025606096 0.015257418 0.025745466
0.00087487698 0.033396959 0.023110025
-0.0029354095 0.033537269 0.023974322
-0.024799764 0.017952621 0.022494748
-0.0012741089 0.034731865 0.019390695
-0.0047358274 0.034113705 0.019776627
-0.023726285 0.022625744 0.020036235
-0.024090409 0.019625962 0.017892256
-0.0062546134 0.034430146 0.014955863
-0.009162426 0.03442055 0.014321283
-0.011452317 0.034562588 0.010460392
-0.015353799 0.034824133 0.011008665
-0.025009751 0.028184056 0.011595234
-0.016475737 0.034334421 0.0073292106
-0.02088213 0.032465219 0.0052668005
-0.024204195 0.029051006 0.0065876693
0.036913216 0.030638039 0.056345038
0.036299169 0.031152129 0.05210977
0.033591568 0.030713618 0.051840864
0.035490215 0.031960309 0.047101311
0.032205343 0.031366348 0.047648333
0.028220594 0.030801594 0.047148965
0.034316361 0.03422755 0.044593357
0.030819595 0.033747733 0.043398999
0.026504517 0.031742632 0.043408059
-0.029110909 -0.0036369562 0.041983739
-0.031854808 -0.0058048368 0.041778043
0.033206403 0.035618603 0.03894826
0.029842496 0.034456313 0.038605206
0.025394142 0.03280741 0.038793884
0.021049976 0.031814218 0.038839929
-0.027554095 0.00026708841 0.037633315
-0.029197216 -0.0033153296 0.038897768
-0.032221198 -0.0057845712 0.039100483
0.028995872 0.033946335 0.034658395
0.024209142 0.033294141 0.033982746
0.019632161 0.032818258 0.034660034
0.016376138 0.031952143 0.034186117
-0.027151048 0.0023054481 0.032801405
-0.027488768 -0.0012497902 0.034213588
0.022301674 0.033810914 0.029748671
0.018785357 0.033659756 0.029639266
0.014105201 0.032727838 0.03019961
0.010577261 0.031831503 0.029088669
-0.026171327 0.0078632832 0.028352633
-0.026873767 0.0037763715 0.029927686
0.01294142 0.032399952 0.025615089
0.0088159442 0.032183349 0.025689833
-0.025111198 0.007994175 0.02346386
0.011158884 0.032937884 0.021931641
0.0075474381 0.032843828 0.020950936
0.0040480494 0.032732427 0.020877056
-0.025300443 0.01256007 0.020774826
0.0059946179 0.032677233 0.016899817
0.0020534396 0.033479512 0.016763292
-0.024599433 0.015544355 0.016248927
-0.025675416 0.012255073 0.016985282
0.00047528744 0.033643246 0.012140982
-0.0030750632 0.033981204 0.012498759
-0.024051189 0.018827617 0.01226826
-0.0012809038 0.033940494 0.0086930022
-0.0050368309 0.03375721 0.0079695135
-0.0088812113 0.033488393 0.00739564
-0.02395463 0.01909548 0.0082006902
0.03504765 0.031529427 0.040560983
0.031709373 0.034200132 0.035953008
-0.029008687 -0.0047311187 0.035646424
-0.031493723 -0.0067314506 0.035752758
0.02994442 0.03301388 0.0312398
0.027578592 0.032270491 0.031522803
-0.028874159 -0.0040495396 0.031307802
-0.032124162 -0.0060116649 0.031540796
0.029354155 0.033424199 0.026872002
0.025716066 0.032748878 0.027321391
-0.026819646 0.0004401803 0.026025787
-0.029145658 -0.0030468106 0.027532503
-0.031792164 -0.0050753355 0.026853129
0.025144577 0.031899095 0.023538642
0.020379424 0.031535208 0.022906147
0.01573801 0.031471372 0.02275493
-0.024178684 0.0059211254 0.025159761
-0.026706994 0.002738893 0.02234824
-0.027397633 -0.00063860416 0.023214176
0.018801987 0.031771779 0.018038742
0.014519334 0.031668842 0.018634163
0.010959864 0.032381833 0.017983638
-0.025544465 0.0074697733 0.018652186
-0.02696836 0.0052442551 0.018538877
0.014060378 0.031779289 0.01366844
0.0092956424 0.031594098 0.014064871
0.0055747032 0.031205654 0.013223939
-0.025724828 0.010246754 0.01386185
-0.02783668 0.0056752563 0.01406835
0.0083916187 0.031274676 0.0098504648
0.0045518279 0.030880034 0.0091808066
-0.024550915 0.016091645 0.0089217573
-0.025223851 0.012054265 0.0096871406
0.00149858 0.031519234 0.005436413
-0.024207652 0.016233385 0.0050921589
-0.028558195 -0.0047507286 0.023663357
-0.03118819 -0.0074797869 0.023185089
0.030009866 0.032575965 0.020693116
0.026177943 0.031518936 0.020686589
-0.029075682 -0.0046153665 0.0200748
-0.031229496 -0.0074843168 0.020673141
0.024838269 0.031706512 0.016601942
0.021206796 0.031416297 0.016408317
-0.027395427 0.0015925169 0.015661642
-0.029183209 -0.0020073056 0.016666487
0.019751787 0.0317536 0.012037627
0.014722764 0.03240484 0.011325322
-0.026729524 0.0053396821 0.010466143
0.017645121 0.032503366 0.008051835
0.013991117 0.031833827 0.0072668716
0.0088623762 0.031409264 0.0072137639
-0.025593758 0.0082534552 0.0066802353
-0.02655232 0.0045871735 0.0075465888
0.033401966 0.030553937 0.018967323
0.030738413 0.031778276 0.015418284
0.027936041 0.030937076 0.014197581
-0.028073847 -0.0025143623 0.013119265
0.025723994 0.03052187 0.0099819228
0.022529721 0.0311625 0.0093513057
0.031225443 0.029687345 0.011528514
0.031309128 0.028709173 0.0082037374
0.02885437 0.029334188 0.0075203106
