# .PCD v0.7 - Point Cloud Data file format
VERSION 0.7
FIELDS x y z
SIZE 4 4 4
TYPE F F F
COUNT 1 1 1
WIDTH 1275
HEIGHT 1
VIEWPOINT 0 0 0 1 0 0 0
POINTS 1275
DATA ascii
0.035389423 -0.034282804 0.181339
0.033959746 -0.038028896 0.17777392
0.035342157 -0.03662473 0.17817929
0.031447589 -0.03018254 0.18255562
0.022485673 -0.039456427 0.17969328
0.025720954 -0.038585424 0.18059203
0.030435503 -0.036056876 0.18098304
0.035070598 -0.03321892 0.18122223
0.037285268 -0.030013442 0.18061271
0.022545934 -0.040153086 0.17736784
0.027035058 -0.040316701 0.17690763
0.031035542 -0.038434327 0.17727467
0.037063479 -0.035099983 0.17736593
0.038781285 -0.032090724 0.1769183
0.028873682 -0.041144967 0.17235944
0.033362925 -0.039447069 0.17249939
0.037276983 -0.036027491 0.17237028
0.039403915 -0.032512486 0.17218658
0.029794514 -0.041203022 0.1684624
0.034123003 -0.039963782 0.16786233
0.037691534 -0.037367463 0.16750535
0.039694905 -0.033614516 0.16841972
0.037460089 -0.03788203 0.16455302
0.017301977 -0.034977317 0.181402
0.022230029 -0.033565879 0.18231931
0.026265383 -0.030935109 0.18290228
0.029006839 -0.026466489 0.18304947
0.033670783 -0.024902463 0.18164378
0.035116911 -0.021277189 0.18100256
0.014871061 -0.039420187 0.17873374
0.018585265 -0.038714707 0.17884895
0.037102938 -0.02470243 0.17922255
0.038194716 -0.021985054 0.17873713
0.020698011 -0.039601266 0.17444065
0.024776399 -0.040619671 0.1741403
0.039041221 -0.027523339 0.17502615
0.039559424 -0.024648845 0.17453036
0.023120165 -0.039848685 0.16980609
0.025563896 -0.040234685 0.16963413
0.040077567 -0.029218376 0.16998246
0.040675402 -0.026219428 0.16892102
0.027807534 -0.040198922 0.16541436
0.032074273 -0.039722562 0.16482213
0.039734006 -0.032327056 0.1651983
0.040970981 -0.028305471 0.16622952
0.029065013 -0.040745556 0.16092601
0.033098459 -0.039823711 0.16112545
0.037439704 -0.037311316 0.16188928
0.039492667 -0.033569694 0.16103163
0.033832252 -0.039664447 0.15719959
0.03703171 -0.037137091 0.1571019
0.014163792 -0.028799415 0.18200049
0.016928673 -0.027873814 0.1827907
0.020170927 -0.02478689 0.18363813
0.026264608 -0.020362496 0.18215039
0.027077675 -0.018718898 0.18189237
0.031722248 -0.014950216 0.18181792
0.0037904978 -0.039765298 0.17823526
0.0069110394 -0.038023353 0.17960557
0.010737658 -0.035618544 0.1805962
0.014780462 -0.032879114 0.18161449
0.020295382 -0.029550552 0.18332782
0.023095906 -0.027037144 0.18322286
0.025569499 -0.025490463 0.18329787
0.031395197 -0.020582378 0.18164426
0.034956694 -0.017154753 0.18084612
0.038210809 -0.014799654 0.1790413
0.0084485412 -0.039648354 0.17591313
0.013438523 -0.039811373 0.17643288
0.038585365 -0.020434856 0.17537728
0.039140046 -0.015684485 0.17597565
0.0095377564 -0.039901912 0.17172745
0.013514876 -0.038678765 0.17183083
0.017840207 -0.038384795 0.17112181
0.039631546 -0.021743834 0.17211059
0.039700389 -0.017882466 0.17126486
0.014972925 -0.038407326 0.16779974
0.019465208 -0.03800106 0.16719139
0.040508747 -0.022521675 0.1679019
0.019748569 -0.038074434 0.16343549
0.023699164 -0.03862232 0.16269431
0.04055655 -0.025585592 0.16336325
0.027021289 -0.039760232 0.15874177
0.039297879 -0.03011626 0.15895724
0.039239287 -0.027321041 0.15739486
0.02843076 -0.039406657 0.15416342
0.031719565 -0.039171636 0.15382323
0.03690362 -0.036335886 0.15427423
0.037971497 -0.032018661 0.15379581
0.03211838 -0.038059413 0.15063432
0.036386728 -0.036224425 0.15077084
0.038261056 -0.033604085 0.15120208
-0.01385951 -0.042497754 0.19389841
-0.011522114 -0.040643036 0.19387135
0.015508235 -0.019448817 0.1845133
-0.0055060983 -0.039002597 0.18190208
-0.0010345578 -0.036480606 0.18261445
0.0033670068 -0.034149528 0.1824151
0.0072667003 -0.032181084 0.18217018
0.011200011 -0.027940512 0.18161747
0.01411593 -0.02439636 0.18343952
0.018180847 -0.021162748 0.18389809
0.021920443 -0.018072724 0.18280956
0.027200699 -0.015388012 0.18235859
0.03127104 -0.013076067 0.18203029
0.034036458 -0.0089632869 0.18184924
0.036138296 -0.0052688718 0.18124923
-0.0034596324 -0.040974855 0.17801797
0.00069636106 -0.039511442 0.17856714
0.0040314198 -0.037612319 0.18078807
0.036776304 -0.010742605 0.17980537
0.038744628 -0.0073469281 0.17740971
-0.0017032623 -0.041531026 0.17457446
0.002501905 -0.040401816 0.17411539
0.0061914921 -0.039182127 0.17293379
0.039632857 -0.013391197 0.17273942
0.039228559 -0.0084065795 0.17316574
0.0045308471 -0.039910793 0.17074972
0.0072331429 -0.039240718 0.16956443
0.01132983 -0.038671374 0.16919681
0.039466739 -0.013326228 0.169101
0.039471567 -0.011055768 0.16850686
0.0094860196 -0.039778769 0.16526768
0.013325989 -0.038847327 0.16509724
0.01602149 -0.038012028 0.1632784
0.039740741 -0.017172217 0.16477802
0.014587462 -0.03922224 0.16052619
0.018542707 -0.038111866 0.1604158
0.039633274 -0.022378802 0.16036841
0.040279329 -0.018741906 0.15989277
0.020001471 -0.038222313 0.1564016
0.023590267 -0.037583709 0.156587
0.037933528 -0.027622283 0.15565392
0.038407862 -0.023743927 0.15544507
0.022310138 -0.038453937 0.15305969
0.024710476 -0.037958384 0.15155771
0.038703918 -0.02899158 0.15216005
0.039517939 -0.026512802 0.15100563
0.026133597 -0.037566006 0.14776349
0.031066537 -0.037727594 0.14736235
0.035764694 -0.03527838 0.14735648
0.038759649 -0.031104982 0.14799145
0.039776504 -0.026351869 0.14788571
0.031836927 -0.037495077 0.14291173
0.035861075 -0.035674691 0.1432237
0.038501441 -0.03241843 0.14309201
0.033356071 -0.037575006 0.13874632
0.035904408 -0.036271811 0.13971978
-0.016014516 -0.039804697 0.18984944
-0.014424741 -0.036590874 0.18936554
-0.012349784 -0.032587349 0.18801567
-0.015706003 -0.041886926 0.18447405
-0.012889743 -0.038567603 0.1847724
-0.0097374916 -0.035094619 0.18460992
-0.0051543117 -0.030963004 0.18355951
0.0030960441 -0.025699139 0.18224466
0.0068624616 -0.021860123 0.18276036
0.011222064 -0.018905163 0.18390587
0.014735043 -0.015431225 0.18441316
0.018750966 -0.01281184 0.18348339
0.022367358 -0.010659277 0.1833615
0.025287986 -0.0074228644 0.18182352
0.030768335 -0.0036750436 0.18242005
0.03437525 -0.00087958574 0.18188256
-0.017970026 -0.043871224 0.17900774
-0.014993906 -0.043170094 0.18015531
-0.010305166 -0.040580928 0.18061858
-0.0079439878 -0.037960052 0.18323341
0.0010887384 -0.029792964 0.18288305
0.0065133572 -0.027142584 0.18169752
0.0089319348 -0.024674416 0.1819168
0.02877897 -0.0078832507 0.18257758
0.036886632 -0.0020319223 0.17956269
0.038410127 0.0012474656 0.17858985
0.040931046 0.003364563 0.17820087
-0.017577827 -0.04425782 0.17686647
-0.014460266 -0.042898238 0.17672563
-0.0098453164 -0.041371942 0.17569897
-0.0060366988 -0.041141033 0.17569533
0.039402306 -0.0058981776 0.17486385
0.039782703 -0.00098419189 0.17503366
-0.004406631 -0.040803432 0.17173144
-6.1511993e-05 -0.039324403 0.17046973
0.039687037 -0.0065883398 0.17072842
0.040435433 -0.0037014484 0.17063996
-0.0023896694 -0.040309131 0.16743264
0.0010219216 -0.038903594 0.16701055
0.0051140785 -0.038819373 0.16671726
0.038748026 -0.012213051 0.16557547
0.040261745 -0.0084426403 0.16623327
0.041478574 -0.0047922134 0.16647974
0.0018094778 -0.039313853 0.16261539
0.0063757896 -0.039335787 0.16303763
0.039297998 -0.012642026 0.16269737
0.040405989 -0.0095855594 0.16209731
0.0074175596 -0.038904488 0.15865406
0.01144743 -0.038394094 0.15795758
0.039855719 -0.015169501 0.15757945
0.0088538527 -0.038927913 0.15426478
0.013492644 -0.038277984 0.15391573
0.017602623 -0.038057327 0.1539807
0.038684905 -0.020255864 0.15400872
0.039476812 -0.016547143 0.1532689
0.014745772 -0.039117634 0.14948004
0.019317389 -0.038652718 0.15013126
0.022662997 -0.038417041 0.14921632
0.039310038 -0.021940053 0.15005103
0.039565027 -0.019651115 0.14827445
0.016001523 -0.039732754 0.1465815
0.020000637 -0.039294302 0.1452229
0.024710774 -0.038063467 0.14513311
0.027147174 -0.036290944 0.14329144
0.039134622 -0.027696371 0.14499512
0.039843082 -0.024268806 0.14493945
0.040301085 -0.0206545 0.14635864
0.022148371 -0.039049327 0.14062378
0.024962485 -0.037907243 0.14012149
0.029069543 -0.037107587 0.14057747
0.038743496 -0.029837668 0.14107326
0.039415777 -0.025948584 0.1401259
0.026685178 -0.038495898 0.1362451
0.031197131 -0.038296938 0.13674802
0.036085129 -0.035577714 0.13673171
0.038364947 -0.03077507 0.13625684
0.028085649 -0.039281726 0.13330355
0.032210529 -0.03820926 0.13233414
0.036018252 -0.035692751 0.1316478
0.038461506 -0.031805575 0.13261756
-0.014756858 -0.028251529 0.18987742
-0.012067258 -0.028387904 0.18629399
-0.0096344948 -0.026377797 0.18470761
-0.0074285865 -0.024181604 0.1845744
-0.0045258403 -0.020122528 0.18411693
0.0027102828 -0.01463151 0.18409362
0.0075802207 -0.012690365 0.18450153
0.010347903 -0.0099368095 0.18433484
0.013713658 -0.0067087412 0.18416137
0.022862732 0.0014194846 0.18461731
0.025538981 0.0027810931 0.18438438
0.028830826 0.0060993433 0.18456161
0.03104794 0.0083324313 0.18442169
0.035837829 0.012087524 0.18422279
-0.010181189 -0.031330109 0.18427005
-0.0077962279 -0.027934074 0.18387717
-0.0035310984 -0.024733365 0.18310413
-0.00038558245 -0.021137953 0.18280014
0.0033296347 -0.019269347 0.18317381
0.0068922043 -0.015927792 0.18362182
0.016866803 -0.0093667507 0.18383512
0.018433869 -0.0075387955 0.18367499
0.022891879 -0.0023337007 0.18255886
0.027447045 -0.00060045719 0.18300799
0.031200826 0.0028463602 0.18258658
0.03495276 0.0071738958 0.18170771
0.038706005 0.010385573 0.1812596
0.04171896 0.01379329 0.18070441
0.037800252 0.0043044686 0.17969668
0.04129684 0.0071959496 0.17756972
0.04341805 0.011321068 0.17683262
-0.016596794 -0.041457534 0.1731061
-0.012337983 -0.04077673 0.1723384
0.040710211 0.0017155409 0.17317078
0.041310906 0.0057173371 0.17315081
-0.01404047 -0.040598154 0.1704115
-0.010870755 -0.0392344 0.16864696
-0.0068283677 -0.039261758 0.16835675
0.040813684 -0.00083708763 0.16919658
-0.0093064904 -0.038871408 0.1638644
-0.0060681701 -0.039145291 0.16457972
-0.0022192001 -0.039202452 0.16458258
0.041486382 -0.0026761889 0.16436538
-0.0042354465 -0.039964139 0.16027847
0.00014919043 -0.039191365 0.16065717
0.040060222 -0.0058278441 0.15945104
0.040670991 -0.00325495 0.15966481
-0.0024585128 -0.04046309 0.15547711
0.0009328723 -0.039317667 0.15600669
0.0046409965 -0.038261712 0.15476891
0.039714754 -0.01204747 0.15637979
0.039778888 -0.0087211132 0.15547791
0.00035184622 -0.040444076 0.15290686
0.0070726275 -0.03804028 0.15167686
0.010335982 -0.038158059 0.15200505
0.039683402 -0.013947845 0.15061721
0.039449215 -0.010552645 0.15198046
0.0094015002 -0.03878516 0.14725202
0.011854589 -0.039081693 0.14733797
0.038958132 -0.015127301 0.14764026
0.013646126 -0.039135695 0.14292896
0.017192781 -0.03860575 0.1422998
0.03960824 -0.021541834 0.14172363
0.039873302 -0.019213915 0.14347872
0.018956542 -0.03827095 0.13822407
0.039305449 -0.020953178 0.1379092
0.023638248 -0.038127542 0.13400686
0.039375067 -0.028794646 0.13270774
0.039788485 -0.025396764 0.13450545
0.025643229 -0.037893057 0.13018638
0.029550493 -0.037444234 0.12892699
0.038095593 -0.030425966 0.1291813
0.04000634 -0.02635169 0.13051024
0.031537533 -0.036582172 0.12527379
0.034716725 -0.03459239 0.12481776
0.037152052 -0.030755699 0.12542516
-0.014517009 -0.02443397 0.18799278
-0.013871849 -0.020951569 0.18728259
-0.010167897 -0.018079102 0.18570873
0.018333316 0.0049325824 0.18605736
0.021233261 0.0075796247 0.187231
0.024929523 0.0099281073 0.18681157
0.029078066 0.014028788 0.18605658
-0.011798203 -0.023398459 0.18576187
-0.0078885555 -0.019723535 0.18434468
-0.004383564 -0.015767038 0.18386677
-0.0013651252 -0.012840509 0.1838592
0.0035741925 -0.0099184513 0.18362847
0.0065166354 -0.0060245991 0.18425098
0.010710061 -0.002725184 0.18420908
0.015979826 -0.0014213324 0.18406668
0.01959306 0.0017547011 0.18428156
0.023454845 0.0044439435 0.1852825
0.027126789 0.009136498 0.18584365
0.031839728 0.011099339 0.1846709
0.035946906 0.014467657 0.185258
0.039562702 0.016323388 0.18402603
0.037571311 0.01240772 0.1822969
0.043347299 0.014984906 0.17885366
0.044209659 0.016239285 0.18025151
0.043204665 0.011384606 0.17429456
0.039659381 0.0098974705 0.16853648
0.04231149 0.01232934 0.17102844
-0.019981444 -0.043225646 0.16525164
-0.017330408 -0.040586293 0.16742808
-0.013751566 -0.039430559 0.1667324
0.039734602 0.0052139759 0.16663045
-0.021104395 -0.042603254 0.16329536
-0.01657331 -0.039864659 0.16167095
-0.012255132 -0.039019108 0.162375
0.040705919 0.0011591315 0.16162655
0.040687203 0.0047394633 0.16066489
-0.011048436 -0.039918423 0.15793011
-0.0069441795 -0.04012233 0.15813556
0.04093498 -0.00064378977 0.15732607
0.041337013 0.0043278933 0.15696377
-0.0098211169 -0.040920913 0.15249684
-0.0052452683 -0.041006565 0.15407971
0.0016075373 -0.038058043 0.15250525
0.039795101 -0.0056697726 0.15266773
0.040317595 -0.0026963353 0.15313706
-0.0043406487 -0.040100992 0.14925152
0.00027966499 -0.038871586 0.14912924
0.0043033957 -0.037214935 0.14914659
0.038621485 -0.0070676208 0.14845696
0.00097703934 -0.038772464 0.14435032
0.0052960515 -0.037523985 0.1446344
0.0090799332 -0.037789941 0.14452034
0.038737774 -0.012567818 0.14528054
0.038579285 -0.010498047 0.14465296
0.0019726753 -0.039910734 0.14039534
0.0068345666 -0.037752569 0.14030039
0.010079503 -0.037860274 0.14024651
0.038489163 -0.01421237 0.14013028
0.013665974 -0.038261056 0.13668618
0.017099619 -0.038287938 0.13528749
0.039150536 -0.016822934 0.13504753
0.01509738 -0.038743854 0.13176367
0.018857539 -0.037867785 0.13235757
0.039873183 -0.023008347 0.13106236
0.038477004 -0.017364442 0.13224792
0.019224524 -0.037747622 0.12775972
0.023543894 -0.036945999 0.12672833
0.038935363 -0.024493933 0.12693605
0.024868548 -0.036256671 0.12305793
0.028936684 -0.036593318 0.12323055
0.035953403 -0.032897651 0.1219452
0.037491083 -0.028595805 0.12234068
0.038294852 -0.02480191 0.12319249
0.029902518 -0.03616786 0.11845258
0.034579813 -0.034002781 0.11858243
0.037643254 -0.029915333 0.11839899
0.031275392 -0.036163986 0.11415035
0.034640074 -0.0346632 0.11393324
0.03758806 -0.031720459 0.11385259
-0.017364323 -0.01509279 0.18838719
0.018073857 0.013135076 0.18795159
0.021049261 0.013858378 0.18830016
-0.014710665 -0.018027067 0.18747386
-0.011645257 -0.013915062 0.18523145
-0.0075697899 -0.011802137 0.18467391
-0.0043627024 -0.0081963539 0.1843839
-0.0010145307 -0.0048415065 0.18417868
0.0031519532 -0.0014168024 0.18410218
0.01366055 0.0027545094 0.18497375
0.014582217 0.0073122978 0.18560711
0.016297042 0.010284245 0.18675807
0.023637831 0.014003098 0.18716872
0.0283885 0.016347229 0.18667567
0.00069367886 -0.0078280568 0.18364266
0.039863527 0.011440516 0.16739503
0.041145205 0.014468908 0.16738442
-0.021480083 -0.03932631 0.16550583
0.039218903 0.010291934 0.16363445
0.040325105 0.01324892 0.1630756
-0.020626187 -0.040410459 0.16281039
-0.0188362 -0.040466607 0.16002616
0.040171146 0.0081230402 0.15918702
0.04141897 0.010903835 0.15679061
-0.020994246 -0.041919053 0.15602288
-0.017393231 -0.040473521 0.15557042
-0.013297737 -0.039802492 0.15464142
0.04068774 0.0062479377 0.15432853
-0.016393125 -0.040709317 0.15122983
-0.012474895 -0.040722311 0.15109313
0.039538682 0.0025171638 0.15153691
-0.010170162 -0.040769041 0.14659134
-0.0060660243 -0.039965808 0.14612749
0.037270308 -0.0014687181 0.14499223
0.038184583 -0.00047498941 0.14730468
-0.0089814663 -0.040507913 0.14245504
-0.0050576329 -0.040134251 0.14212808
-0.0013164282 -0.039358854 0.1423969
0.037915885 -0.0064482689 0.14201555
-0.0041176081 -0.040171325 0.13806164
0.00054323673 -0.039847612 0.13845906
0.0042505264 -0.037414968 0.13776264
0.03815043 -0.011393249 0.13762784
0.038180232 -0.0083387494 0.13834551
0.001209259 -0.039820373 0.13400128
0.0055853128 -0.037137568 0.13349393
0.0094678998 -0.036801696 0.13392213
0.038443565 -0.011079073 0.13357899
0.0063557029 -0.03672576 0.12915653
0.01056838 -0.036709845 0.12881985
0.038416445 -0.014951229 0.12908494
0.012623429 -0.036306977 0.12479302
0.016771436 -0.036348641 0.12449861
0.038503349 -0.019423664 0.12642857
0.037901103 -0.017618299 0.12329754
0.017923236 -0.036469221 0.12019163
0.022079766 -0.035922706 0.12074754
0.038149536 -0.022998452 0.12097156
0.019577622 -0.036514521 0.11672577
0.023137927 -0.035658777 0.11591002
0.025935173 -0.035117388 0.11454919
0.037933707 -0.024174035 0.11558792
0.025568783 -0.036948621 0.11095724
0.028981686 -0.036464512 0.11179033
0.034346044 -0.034046531 0.11054319
0.037857115 -0.02985549 0.11102548
0.038270593 -0.02553159 0.11119613
0.026089191 -0.037359059 0.10793456
0.030290306 -0.037026763 0.10723072
0.034925759 -0.034554839 0.10757551
0.037288904 -0.030411839 0.10734734
0.031771362 -0.036746621 0.10380636
0.034630954 -0.034987032 0.1043555
0.013298094 0.01709938 0.18931457
-0.01954174 -0.0098184943 0.18833557
-0.016898513 -0.0095268488 0.18638733
-0.013035476 -0.0043734312 0.18559122
-0.0087567568 -0.0020723939 0.18527731
-0.0052409172 0.00059497356 0.18589124
-0.0010021925 0.0044025779 0.1851117
0.0014305115 0.0063048601 0.18509009
0.010623515 0.012870431 0.18710652
0.014820933 0.013871849 0.18825066
-0.013151228 -0.011269391 0.1851154
-0.011384428 -0.0081628561 0.18469119
-0.007273972 -0.004594028 0.18457082
-0.0030040741 -0.0013179183 0.18454793
-0.00028127432 0.0033022165 0.18393373
0.0043663383 0.0043870211 0.18345645
0.0070191622 0.005944252 0.18303415
0.011611164 0.0095998049 0.18609819
0.041406333 0.016282022 0.16249481
-0.022664964 -0.039329469 0.15736678
0.041127324 0.01480031 0.15707552
-0.02130723 -0.040987253 0.15252149
0.040534377 0.0092778206 0.15227541
0.041257679 0.013025582 0.15139621
-0.021594584 -0.040712535 0.14798504
-0.018476486 -0.040437758 0.14832163
-0.01464045 -0.039661527 0.14795142
0.038558722 0.0036484003 0.14782894
0.039372802 0.0074426532 0.14819822
0.041700721 0.011772931 0.14742562
-0.0200845 -0.042729795 0.14405137
-0.01753062 -0.040331483 0.14431912
-0.014162362 -0.040079594 0.14496496
0.038503468 0.0016307831 0.1440579
0.038557947 0.0062334538 0.14389172
-0.018315613 -0.044580042 0.14133826
-0.016053915 -0.040752172 0.13992026
-0.011824965 -0.039795876 0.13968223
0.03889668 -0.00042843819 0.13964209
0.041608632 0.0028929114 0.13716912
-0.0091834664 -0.039964259 0.13715294
-0.006537199 -0.039280713 0.13475344
0.037990034 -0.0050824881 0.13520017
0.039581478 0.0002502799 0.1357407
0.041414022 0.0026565194 0.13503662
-0.0048632622 -0.038927913 0.13098177
-0.00078904629 -0.038778245 0.1305815
0.0036894679 -0.036824703 0.13020042
0.038470685 -0.0066556334 0.13064912
4.7028065e-05 -0.038070917 0.12710372
0.0046464801 -0.036859334 0.12697703
0.0084249377 -0.036860406 0.12642661
0.038170993 -0.012132049 0.12573811
0.038190961 -0.0077010989 0.12634557
0.0019936562 -0.037470996 0.12349361
0.0061981082 -0.035977662 0.12204996
0.0099442601 -0.036121905 0.12231702
0.037562847 -0.0127303 0.12251899
0.011399984 -0.036462784 0.11802396
0.01500833 -0.036344409 0.11802924
0.036929905 -0.017791152 0.11740956
0.037444472 -0.015746415 0.11852425
0.012595832 -0.037079096 0.1138542
0.016959131 -0.036383092 0.1134426
0.037871599 -0.02178055 0.11234763
0.019696891 -0.036805689 0.10979134
0.02290082 -0.036695182 0.11021635
0.038322628 -0.022773743 0.10907766
0.038310051 -0.018666387 0.1089758
0.023495793 -0.03722477 0.1049556
0.037991345 -0.028076768 0.10510282
0.037965596 -0.023648977 0.10473146
0.026236653 -0.03737545 0.1005366
0.029746294 -0.036744714 0.10072406
0.034388363 -0.033897161 0.10095294
0.03684783 -0.029762924 0.10096247
0.029543459 -0.036129177 0.096094981
0.033819318 -0.033959627 0.095986173
0.035778701 -0.030854404 0.096625671
-0.020839751 -0.0045360923 0.18845093
-0.016730726 -0.00089156628 0.18831471
-0.012860417 0.0032151341 0.18803075
-0.0097913742 0.0071505904 0.18804148
-0.0059986115 0.0099599957 0.18712804
-0.0025065541 0.013085306 0.18752894
0.0027195811 0.015590012 0.18837011
0.0073288679 0.017073452 0.18907818
0.0099425912 0.018794715 0.18834722
-0.017758012 -0.0053170323 0.18665946
-0.0147205 -0.0031120181 0.18656793
-0.011059463 0.00023561716 0.18668324
-0.0074226856 0.0038836002 0.18685493
-0.0041564703 0.0067807436 0.18619791
0.00036877394 0.010352612 0.18583643
0.0050563812 0.01232022 0.18556389
0.0073788762 0.01406461 0.1874378
0.0028774142 0.0087844729 0.18319231
0.0065307617 0.010965526 0.18253618
0.0086843371 0.012427986 0.18335345
0.041906416 0.017507315 0.15351301
0.041083276 0.016105413 0.15212393
0.042225122 0.01903826 0.15027349
-0.024022579 -0.038864255 0.14736339
0.039585352 0.010796428 0.14443579
0.041345537 0.013869584 0.14521071
0.043517649 0.017008126 0.14702143
-0.022139907 -0.04152 0.14367327
-0.01891166 -0.040586412 0.14087078
0.039622664 0.0084846616 0.14123932
0.040670514 0.012881041 0.14084309
-0.019915402 -0.043044567 0.13812497
-0.017310083 -0.041040599 0.13746467
-0.013815463 -0.039625525 0.13684693
0.041082978 0.0072385073 0.13741496
-0.016542077 -0.040250242 0.13338038
-0.012516856 -0.039000511 0.13315979
0.039184451 0.00090885162 0.13262057
0.042022228 0.005350709 0.13275477
-0.01112783 -0.039045393 0.12840989
-0.0078728795 -0.038966298 0.12886938
0.038312435 -0.002982676 0.12788311
0.039135814 0.00067996979 0.12914649
0.04144901 0.0038006902 0.12982598
-0.0097927451 -0.038760006 0.12444207
-0.0055948496 -0.03875196 0.12499335
-0.0015628338 -0.03795594 0.12398612
0.0027198195 -0.035610199 0.1230903
0.038083196 -0.0050163269 0.12408778
0.037844658 -0.0012014508 0.12396374
-0.0042052269 -0.038518727 0.11990854
-0.00033229589 -0.038452268 0.11997384
0.0037832856 -0.036667109 0.12038687
0.036526442 -0.011056662 0.12012324
0.03645283 -0.0073744655 0.11896166
5.5372715e-05 -0.038692951 0.11540544
0.0052511692 -0.037413239 0.11603597
0.0091525912 -0.036358058 0.11499003
0.036365449 -0.01076895 0.11506116
0.0018599629 -0.038545609 0.11144912
0.0054944754 -0.03758806 0.11181521
0.0099135041 -0.03638047 0.11096159
0.03713274 -0.01536864 0.11175382
0.011973441 -0.036593616 0.10642901
0.016281903 -0.035895944 0.10716331
0.03808713 -0.020781577 0.10547408
0.038586199 -0.016411126 0.10610035
0.013504505 -0.037499726 0.10317777
0.017175496 -0.036402583 0.1022556
0.020220578 -0.034957767 0.10069333
0.03848052 -0.021654427 0.10212557
0.039241135 -0.018168628 0.10199095
0.018862665 -0.035354674 0.098811522
0.022260368 -0.035908043 0.097956046
0.036633968 -0.026232183 0.097777173
0.037481964 -0.022483408 0.098120883
0.024425268 -0.036641717 0.093984649
0.028776407 -0.03589952 0.093525365
0.034209073 -0.032121658 0.093311384
0.036195815 -0.02791214 0.094058052
0.026016653 -0.037161767 0.089544043
0.029694438 -0.036620498 0.089727834
0.033842862 -0.033553064 0.089453861
0.035796463 -0.029439807 0.089108601
0.030885875 -0.036742449 0.085078463
0.033642232 -0.034777641 0.084562019
-0.011796415 0.0074638724 0.18880388
-0.0073127747 0.012175202 0.18809444
-0.0045363307 0.015065968 0.18829739
-0.00099182129 0.018215477 0.18817905
0.042622924 0.020882249 0.14791556
0.042054534 0.016509175 0.14254373
0.042746067 0.01945132 0.14348494
0.041625559 0.015253782 0.13956061
-0.022727907 -0.039327383 0.13316986
-0.021137655 -0.039094329 0.13426855
0.040672421 0.013928235 0.13647926
-0.022763252 -0.038869083 0.12974766
-0.019824445 -0.038738966 0.12981972
-0.015511274 -0.038892686 0.12974027
0.041376948 0.0075871944 0.12868276
0.040867507 0.011941195 0.12891722
-0.018382788 -0.038807809 0.12601724
-0.014732182 -0.038545728 0.1262036
0.037865043 0.0035484433 0.12499502
0.040468097 0.0063480139 0.12720796
-0.0167256 -0.039030254 0.1229313
-0.013333559 -0.0381459 0.12226292
-0.0087660551 -0.037713826 0.1217272
0.036764562 -0.0016893744 0.12057281
0.037096858 0.0025910735 0.12098745
-0.0079814792 -0.037578642 0.11721584
0.036148548 -0.002383709 0.11700803
0.03691256 -0.00083452463 0.11537996
-0.0053582788 -0.038354337 0.11324474
-0.0024610162 -0.038324893 0.11171687
0.03625828 -0.0088041425 0.11192873
0.036405087 -0.0052654743 0.11266604
-0.0048854351 -0.038929224 0.1091049
-0.00040793419 -0.038731456 0.10876676
0.0042483211 -0.036616921 0.10792091
0.0075653195 -0.035554647 0.10772577
0.037504613 -0.010488391 0.10861921
0.037454665 -0.0068228245 0.10742527
0.0013499856 -0.039329231 0.10429429
0.0052053332 -0.037122905 0.10431992
0.0085114837 -0.036792576 0.10503219
0.038800597 -0.012087226 0.10446037
0.0028403997 -0.039701641 0.10067253
0.0063767433 -0.038127005 0.1004004
0.010508716 -0.036844313 0.10032661
0.014529824 -0.03559947 0.099465355
0.039206088 -0.015354395 0.10063101
0.038624823 -0.010952652 0.10069992
0.011357188 -0.036040485 0.096120313
0.01572901 -0.035026729 0.095447227
0.018815041 -0.034671068 0.095217004
0.037020385 -0.019692898 0.093983784
0.037998617 -0.016535699 0.09624885
0.016821861 -0.035595477 0.09052296
0.020368099 -0.034660339 0.091126457
0.036567032 -0.02258271 0.090923652
0.021459103 -0.034043312 0.086833045
0.025023699 -0.034583509 0.085003302
0.035983503 -0.026853442 0.08648394
0.036247551 -0.023300111 0.086583152
0.02848202 -0.035033882 0.082132861
0.033720672 -0.032883465 0.082219854
0.03542161 -0.029083133 0.082459643
0.030272186 -0.034119725 0.078182116
0.033345997 -0.032485485 0.078008786
0.035171151 -0.029440641 0.078267172
0.04016006 0.014130294 0.1256347
-0.023625314 -0.039396465 0.12394142
-0.020483196 -0.039014041 0.12454298
0.037469983 0.0064077973 0.12321642
0.038624287 0.0093637109 0.12258464
0.039722741 0.01246345 0.12189743
-0.021572649 -0.039925873 0.1220901
-0.019299686 -0.038365543 0.12071672
-0.015439153 -0.036022127 0.11788955
0.036869228 0.0043473244 0.11763525
0.038171947 0.0078849196 0.11961606
0.040291011 0.012059391 0.11883071
-0.014259338 -0.036671042 0.11465031
0.036898673 0.002135098 0.11472666
-0.012428463 -0.037008762 0.11001229
-0.0087736249 -0.037915409 0.11076054
0.037045717 -0.0033412576 0.11038056
0.037486196 0.00048583746 0.11043873
-0.011079311 -0.037994325 0.10604215
-0.0072116852 -0.038063884 0.10637823
-0.0034194589 -0.037908614 0.10579202
0.037536323 -0.0034109354 0.10634458
0.03760767 -0.00035059452 0.10705444
-0.0056336522 -0.037932813 0.10141353
-0.0026413798 -0.037564874 0.10111485
0.037783265 -0.0047072172 0.1013111
-0.0041162372 -0.038650632 0.097450659
-0.00043588877 -0.037465215 0.096970335
0.0047031641 -0.037320852 0.096586123
0.03744477 -0.011073232 0.096237049
0.037518084 -0.0082259178 0.09783645
0.0045580864 -0.036567211 0.093156591
0.0097348094 -0.036044359 0.092968211
0.036226988 -0.013381422 0.091916516
0.036833942 -0.0092126727 0.092920944
0.0048967004 -0.03745234 0.089182034
0.011134148 -0.03614831 0.08903937
0.0154863 -0.036070287 0.088644728
0.036490619 -0.01767242 0.088932946
0.036703646 -0.014569104 0.087920919
0.016205609 -0.034988284 0.084873036
0.02067405 -0.033616602 0.084183112
0.036256433 -0.020409167 0.08430253
0.036466539 -0.016698241 0.084340528
0.018100321 -0.034257829 0.081333771
0.021592915 -0.033213317 0.080003843
0.024587989 -0.033096373 0.080960527
0.035500407 -0.024190605 0.081600085
0.036086261 -0.021522105 0.079103604
0.027032673 -0.033412278 0.075758204
0.031989932 -0.032524645 0.074233845
0.035129726 -0.027727008 0.075359955
0.028880656 -0.033461034 0.070705786
0.032290339 -0.032931745 0.071247533
0.034809232 -0.029689491 0.071695104
0.032360256 -0.031922758 0.067235932
-0.026064515 -0.038393736 0.12059206
0.040740371 0.01548183 0.12088603
-0.024444938 -0.038503349 0.11808357
-0.021371782 -0.036652267 0.11697856
0.03814137 0.01080519 0.11605039
0.041261256 0.013429642 0.11696857
-0.024236381 -0.04200393 0.11295655
-0.02091825 -0.036925077 0.11298904
-0.017202914 -0.037023962 0.11306238
0.036752224 0.0069492459 0.1120742
0.037854135 0.010231972 0.11166558
0.04053241 0.013050437 0.11096534
-0.02241689 -0.042081177 0.10950124
-0.018939376 -0.038559258 0.10782012
-0.01581198 -0.037517607 0.10888141
0.037258208 0.0047082901 0.10759065
0.038103282 0.0078980327 0.10693872
-0.017331362 -0.040784538 0.10306741
-0.013536513 -0.03895402 0.10398342
-0.0094505548 -0.038000762 0.10265775
0.037534952 0.0024214387 0.10278057
-0.016085684 -0.040945232 0.099016681
-0.012580812 -0.039937973 0.099135891
-0.0084615946 -0.038591385 0.099479392
0.037850142 -8.8274479e-05 0.09860827
-0.01090163 -0.039286017 0.095951095
-0.0063182712 -0.038142264 0.095272228
-0.0023623705 -0.036633372 0.094681367
0.036383092 -0.0038275123 0.095240101
0.037497282 -0.0009611845 0.095416978
-0.0013135672 -0.036723495 0.091108218
0.0041561723 -0.036338985 0.090309814
0.036274433 -0.010853589 0.08993794
0.036662996 -0.008276403 0.090010837
2.9206276e-05 -0.036633492 0.087635085
0.0042557716 -0.036477089 0.086198583
0.0078896284 -0.034924567 0.086255565
0.037032485 -0.01168859 0.087015346
0.037573993 -0.0090457797 0.085392192
0.0060141683 -0.036697805 0.081526861
0.0095556974 -0.035075068 0.081902191
0.013128042 -0.03421849 0.081699058
0.036822736 -0.013501108 0.08160834
0.010910451 -0.035641909 0.077027991
0.01517123 -0.034549475 0.077843025
0.019183755 -0.033409357 0.077328756
0.03640455 -0.018272281 0.076317176
0.036463678 -0.015200317 0.076959535
0.012969673 -0.036521196 0.073018387
0.016153395 -0.035371065 0.072830096
0.020954013 -0.033710539 0.073492095
0.024267197 -0.032589555 0.072121069
0.034475267 -0.023634374 0.071692303
0.035674751 -0.020695567 0.073257491
0.01767844 -0.035752535 0.069141194
0.021078289 -0.034236968 0.068379626
0.025357008 -0.032779694 0.068824455
0.032351732 -0.028767765 0.067796692
0.034229755 -0.025164008 0.068381205
0.035290778 -0.021419048 0.069383726
0.023128688 -0.034215569 0.065479741
0.026748478 -0.032355428 0.064820334
0.031104565 -0.030945718 0.064593479
0.033965945 -0.027271152 0.064231172
0.028389812 -0.033183098 0.060502961
0.031040788 -0.031555414 0.060651317
0.033708096 -0.028387308 0.061096445
-0.024714231 -0.036615014 0.11199611
-0.023521066 -0.035134733 0.10844448
0.039673686 0.012252152 0.10858306
-0.022567987 -0.036477983 0.10656551
0.038932741 0.0099190474 0.1052096
0.040441513 0.012905359 0.10518314
-0.021253705 -0.038138628 0.10233732
0.038710177 0.0090568662 0.10091795
0.040061116 0.013103843 0.10163991
-0.017868757 -0.041615427 0.097520426
0.037965596 0.0037205219 0.096958235
0.038490057 0.0080381632 0.097229764
-0.017714739 -0.040541112 0.093966857
-0.013745725 -0.037515104 0.092556849
-0.0095598102 -0.036786258 0.092389867
0.03570354 -0.0013210177 0.092245772
0.037204146 0.0029106736 0.09269087
-0.0075303912 -0.03606689 0.088415012
-0.0044779778 -0.035975814 0.087949619
0.03584528 -0.0023229122 0.088288739
0.036793828 0.00079107285 0.088392571
-0.0026592612 -0.035826206 0.083796993
0.0011239648 -0.036374271 0.083551392
0.037266016 -0.0047726631 0.083838537
-0.00097006559 -0.035420001 0.080084369
0.0025160313 -0.035918534 0.079216853
0.036554933 -0.009152174 0.07915394
0.036908031 -0.0080895424 0.078874841
0.0042849183 -0.03591913 0.075187936
0.0083339214 -0.035630047 0.074714795
0.036327541 -0.012334287 0.075040117
0.036541224 -0.0083511472 0.075413272
0.0058978796 -0.036527872 0.071079388
0.0097878575 -0.035821557 0.071242049
0.01424849 -0.035176039 0.07028915
0.035202146 -0.018044293 0.069863006
0.035684407 -0.014234543 0.071219936
0.010707021 -0.034869492 0.067458048
0.015058756 -0.035269618 0.066859469
0.034829438 -0.019313514 0.066401944
0.016318321 -0.034600735 0.063700542
0.020776629 -0.033204436 0.061903313
0.024816692 -0.032438576 0.062398151
0.034129202 -0.02431345 0.061434343
0.034417927 -0.020934403 0.061651811
0.022794127 -0.032300711 0.057687923
0.026211798 -0.032352149 0.057716623
0.03110373 -0.031004012 0.056968048
0.033532143 -0.026670635 0.057403103
0.027658463 -0.032144248 0.052890077
0.030650795 -0.030146003 0.053175583
0.033611417 -0.02678448 0.053457484
0.040631354 0.015012503 0.096046522
0.038781524 0.0091710687 0.09374322
0.039764941 0.013745427 0.093963191
-0.01974988 -0.037502348 0.088833258
-0.015768707 -0.037120461 0.089550331
0.037233353 0.0042707324 0.089332327
0.037562251 0.0078715682 0.089493766
-0.018590629 -0.037504494 0.085682824
-0.014373541 -0.036855519 0.086033717
-0.010233045 -0.036031604 0.085791782
0.037007034 0.0027372837 0.08500354
-0.013823152 -0.037220657 0.081638142
-0.0088454485 -0.036294341 0.081759825
-0.0046656132 -0.03546685 0.080848023
0.036800683 -0.0031914711 0.080586001
0.036969364 0.0010997057 0.081216022
-0.0071851015 -0.036478758 0.077647492
-0.0028941035 -0.035963655 0.077649012
0.036321521 -0.0027601123 0.076500431
0.037166774 9.0658665e-05 0.077808902
-0.0067534447 -0.037116587 0.073062047
-0.0023460388 -0.036816716 0.073277637
0.0016620159 -0.035816014 0.073140487
0.035765946 -0.0095693469 0.072168365
0.036196947 -0.0054133534 0.072540566
-0.001191318 -0.036652207 0.069177642
0.0030568838 -0.036157191 0.068517283
0.007992506 -0.035048544 0.068512276
0.035340726 -0.010733902 0.068118051
0.035968661 -0.0059739351 0.06919153
0.0054458976 -0.036091745 0.06419076
0.009036243 -0.034912467 0.064149544
0.012577355 -0.034344316 0.063424572
0.034997165 -0.016321898 0.063079253
0.035605669 -0.012736082 0.063302651
0.010189831 -0.034607887 0.059163406
0.014387965 -0.033694446 0.05931364
0.018242896 -0.032978475 0.058976635
0.035409987 -0.018043816 0.059455171
0.036242127 -0.014561772 0.059270933
0.015319645 -0.033558607 0.054835096
0.019507587 -0.032437801 0.055032119
0.023283124 -0.031583369 0.054628119
0.03384763 -0.022659361 0.055472776
0.034970403 -0.019612074 0.054642215
0.020765781 -0.032975852 0.050306395
0.024506867 -0.031884253 0.05073218
0.030514061 -0.029394209 0.050378934
0.033571541 -0.026171923 0.050565913
0.034601986 -0.021766603 0.050412133
0.020823002 -0.03344661 0.046958551
0.025549293 -0.031621695 0.046382502
0.030284882 -0.030324399 0.046955898
0.033629417 -0.026689291 0.046136186
0.035299242 -0.023652315 0.046560034
0.030872464 -0.030091584 0.042125858
0.032426834 -0.027574003 0.042790152
0.040507913 0.016374826 0.091275051
-0.024271429 -0.037499666 0.086813405
-0.022615969 -0.037289262 0.088029876
0.038205504 0.011230826 0.088101014
0.038962364 0.015205741 0.086959258
-0.024139583 -0.037319958 0.083319739
-0.020814836 -0.037592292 0.084025636
-0.016859829 -0.0370152 0.083371535
0.037551641 0.010180712 0.083099052
0.038012445 0.014377952 0.083528057
-0.019626617 -0.038146138 0.079566255
-0.015410602 -0.037111938 0.079622939
0.037167013 0.0033736229 0.078400686
0.036447763 0.0078102946 0.080152169
-0.01796174 -0.038486302 0.074896738
-0.01437515 -0.037348986 0.075105414
-0.010465205 -0.036206245 0.07574971
0.036569595 0.0032091737 0.073944464
-0.012224019 -0.038469791 0.070312575
-0.0084972978 -0.037606001 0.070668176
0.035368085 -0.0012321472 0.068197533
0.035730183 0.0010839105 0.070099011
-0.01102829 -0.038399875 0.066228464
-0.0071417689 -0.03770256 0.065539554
-0.0033445954 -0.036456943 0.065886453
0.00071126223 -0.036200523 0.065164879
0.035153389 -0.0059056282 0.065440342
-0.006565094 -0.038409948 0.061481372
-0.0024259686 -0.036555529 0.060900018
0.0019240975 -0.035510063 0.061484739
0.034956634 -0.0057354569 0.06092371
-0.00051671267 -0.036226094 0.057784155
0.0033198595 -0.035470724 0.057075754
0.0075754523 -0.03467989 0.057236418
0.03629446 -0.01206255 0.057472125
0.0049442649 -0.035387218 0.052827463
0.0086250305 -0.034772277 0.052946612
0.012901604 -0.033873141 0.052604541
0.035216749 -0.013903141 0.052992716
0.0089224577 -0.035275161 0.048606172
0.014386714 -0.03318578 0.048676863
0.018266082 -0.032534957 0.049402967
0.035197318 -0.017976522 0.048330769
0.015332222 -0.033128858 0.04520832
0.019826055 -0.032576442 0.044543132
0.02431953 -0.031009376 0.043489769
0.035579026 -0.019848228 0.044272676
0.020771444 -0.032249212 0.04023052
0.024706841 -0.031211257 0.039835997
0.029553711 -0.030621231 0.040153362
0.033905327 -0.025760233 0.040138789
0.034884751 -0.021699786 0.040323146
0.026481628 -0.03111124 0.035680003
0.030312121 -0.030206144 0.034962662
0.033373475 -0.026732326 0.035946168
0.030850768 -0.030818224 0.031057842
0.038563907 0.018403947 0.084045127
-0.024446189 -0.036382318 0.079437211
0.037779748 0.012403727 0.078919485
0.038271368 0.016185522 0.079493657
-0.02396065 -0.037014604 0.078036234
0.036709547 0.011141837 0.076453373
-0.018557668 -0.037550926 0.072658554
0.035459816 0.0068246722 0.069741562
0.035919189 0.010616899 0.07204406
-0.016486347 -0.036550045 0.068028823
0.03501308 0.0042567253 0.067014709
-0.014139652 -0.037756324 0.065139487
-0.0096485615 -0.037254393 0.06355156
0.034469306 -0.00078713894 0.06339182
0.034872234 0.0041293502 0.063489273
-0.0078801513 -0.037199676 0.058277413
0.034340978 -0.0017837882 0.058413908
-0.0066343546 -0.036672056 0.056215152
-0.0033608079 -0.035700262 0.05464907
0.00057172775 -0.034510553 0.05479382
0.033581674 -0.0047548413 0.052185729
-0.0031836033 -0.035565794 0.051443383
0.0013757348 -0.034222901 0.05046542
0.034209073 -0.0087743998 0.049421355
0.0039628744 -0.033912599 0.046929792
0.007743299 -0.033696055 0.046313301
0.011427164 -0.032796562 0.045711562
0.034751832 -0.012606978 0.046579495
0.0084376931 -0.033586502 0.042894192
0.013236046 -0.032091737 0.041493483
0.017099619 -0.032493651 0.041911073
0.035575628 -0.014413178 0.041075267
0.018601537 -0.031242847 0.037766434
0.022042692 -0.030463994 0.035415776
0.034838796 -0.018697798 0.036726661
0.035262704 -0.015038073 0.036908813
0.020596743 -0.031435668 0.032202102
0.024023592 -0.031172037 0.032439865
0.033624649 -0.02562207 0.032217629
0.034616232 -0.020809412 0.032390393
0.021754563 -0.032110453 0.028756388
0.02561301 -0.031417966 0.028120197
0.029861748 -0.030086339 0.027739234
0.033388734 -0.026200831 0.027933516
0.034454644 -0.022033095 0.028609343
0.026254416 -0.031224012 0.024348922
0.029948413 -0.029572129 0.02392251
0.032843113 -0.027142823 0.024138011
0.036358476 0.01300478 0.0730827
0.037604034 0.01806587 0.073407397
-0.020733535 -0.035147011 0.0694644
0.035630465 0.014009476 0.06865485
0.037231266 0.017215669 0.070077732
-0.02160269 -0.034009755 0.065286085
-0.018497348 -0.035280347 0.065702513
0.034576952 0.0078808665 0.064711764
0.035020649 0.011310518 0.064933255
-0.020796657 -0.036151171 0.06124492
-0.01654321 -0.035313666 0.061313286
-0.01327616 -0.034053385 0.061380491
0.034224331 0.0060608983 0.060244396
0.035541892 0.010184944 0.061484739
-0.018928945 -0.036672354 0.057203069
-0.015329361 -0.036378205 0.057211444
-0.011985838 -0.035767496 0.057925418
0.034315825 -0.00010150671 0.056006804
0.034421563 0.004402101 0.056512311
-0.013694465 -0.03655833 0.053574666
-0.010005891 -0.035966277 0.052614585
0.033941925 1.6331673e-05 0.051774547
-0.0077287555 -0.03643626 0.048372045
-0.004278183 -0.035553634 0.048139557
-0.0009188056 -0.034194171 0.0480019
0.033930242 -0.0034064651 0.047899172
-0.0028929114 -0.03583622 0.043262735
0.0013438463 -0.034620225 0.044095859
0.004791081 -0.033599973 0.042267688
0.034799099 -0.0088506937 0.044253126
0.034868777 -0.0051080585 0.041929968
-0.00088894367 -0.036297381 0.039827146
0.0024055839 -0.034992158 0.038718648
0.0070780516 -0.033559144 0.039329447
0.01006788 -0.031426907 0.038186617
0.035754442 -0.010316551 0.038355149
0.036137223 -0.0069943666 0.039428331
0.0032711029 -0.034756184 0.035039552
0.007561028 -0.033999801 0.034224279
0.011926174 -0.030909956 0.03472466
0.015782595 -0.029538393 0.033862509
0.035675168 -0.013237536 0.034151681
0.0088727474 -0.034682214 0.029707946
0.013057649 -0.031535566 0.029468901
0.016805172 -0.030475676 0.02996958
0.03495127 -0.017493069 0.029345401
0.035938621 -0.014092863 0.029945143
0.010491788 -0.034675777 0.026298858
0.018758416 -0.031640887 0.02564729
0.023275554 -0.031109512 0.026096471
0.034912288 -0.019027889 0.026014097
0.020004928 -0.032556593 0.02188275
0.024689853 -0.031410933 0.021498568
0.029876471 -0.028907955 0.020889528
0.033208787 -0.024454594 0.021562047
0.033754587 -0.020931482 0.020643093
0.024508357 -0.031105578 0.017802842
0.028994858 -0.029192865 0.018111505
0.031859279 -0.025209069 0.017231949
0.036681712 0.019294441 0.065648779
-0.023561418 -0.034434199 0.063126668
0.035712898 0.014010608 0.063711599
0.036413372 0.017142713 0.061888352
-0.022552073 -0.033927202 0.05786784
0.034410894 0.0092713833 0.059722826
0.035436749 0.012937188 0.057779357
-0.020586371 -0.037024438 0.056868419
-0.019033015 -0.034930944 0.052650139
0.034963787 0.0061876178 0.052964315
0.03513962 0.0098786354 0.053619638
-0.016394436 -0.034685671 0.049112245
0.034664869 0.0055935383 0.049122319
-0.015762866 -0.034244359 0.045517609
-0.011821628 -0.034799218 0.044837341
0.034227312 -0.0010305643 0.044684365
0.034590781 0.0025686026 0.044771209
-0.010046363 -0.034716547 0.040523328
-0.0061153769 -0.035395563 0.039732791
0.034839869 -0.0013255477 0.040460534
-0.0089479089 -0.035036743 0.036936291
-0.0042460561 -0.034382999 0.036264248
0.00016206503 -0.034343541 0.035754807
0.035247922 -0.0034740567 0.035975166
-0.0028449297 -0.034096241 0.03232298
0.0013147593 -0.033762217 0.031779118
0.0097809434 -0.03105408 0.031912304
0.035876334 -0.0085709691 0.032721199
0.0030289888 -0.033986747 0.027630962
0.0071003437 -0.035559833 0.028344102
0.01071918 -0.032250643 0.029037602
0.035522163 -0.010159194 0.026865102
0.035880446 -0.0075896978 0.027770407
0.0077388883 -0.034349144 0.02347786
0.012990952 -0.032242835 0.024257429
0.034215391 -0.01714921 0.022896118
0.035191119 -0.01342696 0.023512073
0.009350419 -0.034290135 0.019548245
0.013647556 -0.032599747 0.019102462
0.018096805 -0.032831907 0.019385137
0.033525527 -0.017411351 0.019115664
0.034526467 -0.013733923 0.019754864
0.013301075 -0.033070564 0.015501238
0.019242764 -0.03158015 0.015459456
0.023808479 -0.030871451 0.014996834
0.028406262 -0.028491676 0.014740951
0.03088969 -0.022818208 0.013768144
0.033553183 -0.021598756 0.017185219
0.024427295 -0.029621482 0.010498643
0.028324723 -0.027635217 0.010657102
0.030107975 -0.02419585 0.010705054
0.027760327 -0.027608931 0.006752789
0.037213326 0.020514667 0.059554949
0.035870373 0.014540792 0.054625914
0.036412001 0.017602682 0.055903092
-0.023060083 -0.034310162 0.052120015
0.035909414 0.013406932 0.051455125
0.037064672 0.016198456 0.052551642
-0.022509873 -0.035069823 0.047763065
-0.019786119 -0.034074068 0.047007009
0.034907639 0.011982143 0.046731606
-0.021431386 -0.035282493 0.042817459
-0.017510712 -0.034611046 0.043110952
0.034610868 0.0067057014 0.042748876
0.034820199 0.008995235 0.041029222
-0.016214669 -0.035446823 0.038811691
-0.012735367 -0.035265684 0.038630165
0.034561396 0.0030178428 0.03870029
-0.01492101 -0.035375953 0.034680076
-0.01080817 -0.035176098 0.034383275
-0.0073195696 -0.034263015 0.034386314
0.03473109 0.00011825562 0.034414388
0.034642279 0.002188921 0.033576198
-0.009147048 -0.034977257 0.030764468
-0.0054982305 -0.034139514 0.030316599
-0.0013982654 -0.034060478 0.02970276
0.03483355 -0.002638936 0.030048616
0.03446418 0.0015003085 0.030131109
-0.0037221909 -0.032796443 0.02573318
-0.00021547079 -0.034300983 0.026130326
0.034906745 -0.0034609437 0.024896748
0.0019735098 -0.034618735 0.022050567
0.0054460168 -0.03490603 0.021150805
0.034913898 -0.0091391206 0.021674938
0.035440445 -0.0056636333 0.022266813
0.0027759671 -0.034131706 0.017530777
0.0067054629 -0.034323454 0.017002977
0.01145792 -0.031738162 0.0171308
0.033336163 -0.014378011 0.01687745
0.034306228 -0.011032045 0.01672513
0.0081630349 -0.034101546 0.013052322
0.012477398 -0.032439351 0.013121672
0.016466081 -0.030758858 0.012308545
0.031987846 -0.017202437 0.012626268
0.03348577 -0.012751997 0.012852825
0.013288736 -0.030393064 0.0088041425
0.017171323 -0.029469967 0.0084296763
0.020953417 -0.029363751 0.0086227059
0.030462623 -0.021920741 0.0084631145
0.031365633 -0.01846242 0.008218497
0.023483396 -0.028991282 0.0044890046
0.027744889 -0.027116179 0.0040517449
0.030253112 -0.023232222 0.0038297772
0.031648993 -0.019129217 0.0043966174
-0.02589649 -0.033156097 0.043997422
0.034630299 0.015556395 0.044858709
-0.026756167 -0.034519672 0.040616915
-0.02440542 -0.034441233 0.040814057
0.034497499 0.013296545 0.04020483
-0.021479547 -0.035565495 0.037337795
-0.018140078 -0.035511196 0.036214717
0.033743143 0.0085519552 0.036320992
0.03441453 0.010923505 0.03560365
-0.021014273 -0.03621918 0.031966701
-0.016859412 -0.035034776 0.032134034
0.034364581 0.0070369244 0.03122706
0.035141408 0.010205925 0.032426871
-0.020836353 -0.036503255 0.028448805
-0.016655207 -0.034385979 0.02826003
-0.011870623 -0.033974349 0.02752734
-0.0075829625 -0.032912612 0.027359135
0.034730494 0.0045037866 0.027182408
-0.020610631 -0.039534211 0.024178758
-0.01052928 -0.033447027 0.023209609
-0.0062352419 -0.032405257 0.02361647
0.034255624 2.682209e-06 0.022374608
0.034233689 0.0032228231 0.02384872
-0.0092661381 -0.033931732 0.019857652
-0.0051060915 -0.03275758 0.018818147
-0.0013620853 -0.03267312 0.019026317
0.034827709 -0.0039660931 0.019538499
-0.003888607 -0.033806026 0.014284737
0.00070154667 -0.033442676 0.014735259
0.034250438 -0.0086607337 0.013870008
0.034197569 -0.0051955581 0.014276095
0.0017943382 -0.033664703 0.010672808
0.006025672 -0.033253908 0.010149926
0.011486053 -0.030746698 0.010234267
0.031751931 -0.013462722 0.009493053
0.033435285 -0.0090820789 0.009685576
0.0068568587 -0.031912327 0.0059579015
0.011538208 -0.030644 0.0062398314
0.015769958 -0.029968679 0.0063204169
0.032085478 -0.014796734 0.006056726
0.032130241 -0.010144889 0.0063459277
-0.024977922 -0.033684194 0.035319313
0.034640133 0.014274001 0.034377106
0.0347929 0.018025756 0.032049902
0.034941852 0.013458967 0.028882332
0.036177218 0.016107976 0.028583921
-0.022028446 -0.036148608 0.025729135
-0.018240571 -0.034735918 0.025577225
0.035407364 0.0074999332 0.026198454
0.035901189 0.011439502 0.024518676
-0.021055698 -0.038044214 0.0213231
-0.017670214 -0.034530044 0.021215625
-0.013718784 -0.033946514 0.021733917
0.034201264 0.0056115389 0.021024831
-0.016189277 -0.034377098 0.017265417
-0.012193024 -0.033882797 0.016831793
-0.0084228516 -0.033390284 0.017110981
0.033514678 -0.00078767538 0.015970655
0.033920407 0.0030032396 0.016408719
-0.0099263787 -0.035133243 0.012688763
-0.0067473054 -0.034879744 0.013124324
0.033768773 -0.00051248074 0.012203373
-0.0090934038 -0.034444451 0.0089193881
-0.0051159263 -0.034199297 0.0084460676
-0.0009431839 -0.033551276 0.008344084
0.033485889 -0.0026914477 0.0083351731
-0.0036706328 -0.033291996 0.0045361519
0.00010544062 -0.032698154 0.0038608909
0.004468739 -0.032423019 0.0039901733
0.032323897 -0.0078305006 0.003172487
0.033843815 0.019433975 0.033996768
0.035407484 0.017785788 0.027697869
-0.021045148 -0.034820914 0.0165589
0.034137309 0.0080824494 0.01814694
0.034738421 0.011931598 0.019579418
-0.021814227 -0.03554827 0.015365586
-0.018280208 -0.033850908 0.013744719
0.033328116 0.0068157315 0.014670677
-0.015558183 -0.034520864 0.009711504
-0.013234913 -0.034156263 0.010296732
0.034433544 0.0025033951 0.0083498061
-0.010801911 -0.033952177 0.0048146844
-0.0077388883 -0.032988012 0.0049785972
0.032342374 -0.00072419643 0.0047908723
0.032895327 0.0025666356 0.0050049126
-0.02257067 -0.03338778 0.011741623
-0.022040129 -0.032417893 0.0096231177
-0.019392192 -0.033250153 0.0070255175
-0.022936583 -0.030291498 0.0037157908
