# .PCD v0.7 - Point Cloud Data file format
VERSION 0.7
FIELDS x y z
SIZE 4 4 4
TYPE F F F
COUNT 1 1 1
WIDTH 1305
HEIGHT 1
VIEWPOINT 0 0 0 1 0 0 0
POINTS 1305
DATA ascii
0.027524829 0.03202939 0.17630172
0.025946081 0.034672916 0.17648178
0.022488415 0.038236618 0.17640582
0.01959312 0.039849639 0.17605266
0.027924001 0.031732321 0.17331696
0.026781082 0.035784304 0.17204607
0.023550034 0.039223492 0.17204419
0.020821035 0.041076541 0.17208064
0.027586758 0.036615431 0.16873729
0.026543081 0.022561789 0.17710763
0.023596168 0.026167899 0.17780998
0.021040022 0.03070724 0.17867815
0.017252862 0.034164131 0.17819023
0.014122427 0.037517726 0.17788917
0.011250079 0.039575219 0.17703319
0.029583871 0.02032581 0.1758464
0.028064609 0.023975432 0.17488587
0.027120709 0.028413773 0.17498899
0.016081512 0.040433586 0.17490274
0.012514949 0.041032314 0.17430544
0.028168499 0.029765248 0.17050719
0.028239012 0.034010291 0.17010003
0.022571206 0.039931893 0.1692332
0.018264711 0.0408867 0.17065865
0.028476477 0.032295823 0.16572917
0.026965201 0.03538841 0.16552469
0.022715509 0.038516223 0.16561192
0.019453526 0.040148914 0.16470155
0.028829217 0.033596039 0.16101342
0.027242243 0.036028385 0.16115588
0.024572313 0.038567364 0.16181338
0.030449867 0.0082529187 0.17810518
0.027396679 0.01152575 0.17806458
0.025616467 0.014309376 0.17887294
0.023729026 0.016004324 0.17964804
0.016673505 0.0219419 0.17922273
0.015600264 0.02514407 0.18027809
0.012382984 0.02873987 0.17961502
0.010171711 0.033525407 0.17856118
0.0060089231 0.036124527 0.17812335
0.031597078 0.0092759132 0.1755389
0.028997779 0.011967003 0.1754846
0.028434277 0.016590953 0.17645177
0.024988949 0.020278633 0.17821786
0.022055566 0.023348063 0.17886657
0.018966019 0.026105076 0.17908999
0.015482306 0.030794919 0.17923981
0.01091522 0.035749078 0.17843455
0.0072909594 0.039217532 0.17632687
0.033271909 0.010780126 0.17167264
0.030102253 0.013299972 0.17246425
0.02917248 0.017622471 0.1715247
0.028324187 0.02247712 0.17220119
0.0095028281 0.040730119 0.17230284
0.029114425 0.019002587 0.16782951
0.027740657 0.022914201 0.16757143
0.027701557 0.026987225 0.16691917
0.01442647 0.039939642 0.16875541
0.012715399 0.040525377 0.16922665
0.027474642 0.024233282 0.16264316
0.026792049 0.028306246 0.16332373
0.017317295 0.039085746 0.16347113
0.028426707 0.025524169 0.15986857
0.027055204 0.029347718 0.15827519
0.026684284 0.035353124 0.15856043
0.021873236 0.038898647 0.15864196
0.017812967 0.038808167 0.15938339
0.02734977 0.031579971 0.15401185
0.026552558 0.03519243 0.15478778
0.022972822 0.038280487 0.15480089
0.026528358 0.0026079714 0.18062401
0.024536192 0.0048393607 0.1806168
0.013187587 0.018589169 0.18078494
0.011156678 0.022048652 0.18139791
0.0080084801 0.024417788 0.18115285
0.0044074059 0.026129037 0.18029132
0.0013075471 0.029404163 0.18024045
0.029282033 0.0042031407 0.1780706
0.026550174 0.0084620714 0.17910334
0.022996068 0.011021793 0.17998666
0.018327713 0.015170723 0.1782254
0.015584946 0.018582225 0.17904758
0.0091076493 0.026579887 0.17993778
0.0053656101 0.029528081 0.17891121
0.0028806329 0.033780575 0.17869306
-0.0012558699 0.036790669 0.17765689
0.031235933 0.0059219301 0.17399082
0.030174494 0.010101259 0.17537498
0.00085324049 0.038746536 0.17389464
0.032235324 0.0077301264 0.16954798
0.030930758 0.012196064 0.1698769
0.007355094 0.039801419 0.1685302
0.0030294657 0.039156318 0.16926253
0.03162843 0.012838632 0.16533756
0.029638827 0.017201722 0.16552112
0.028011858 0.02032873 0.16477606
0.012446523 0.038244605 0.16483817
0.0076458454 0.038853228 0.16513002
0.031761765 0.015553176 0.16196167
0.030675948 0.01864934 0.16103837
0.028475165 0.021765769 0.16102499
0.012149632 0.038486183 0.16096586
0.0091782212 0.038710058 0.16073158
0.030601561 0.019891679 0.15657431
0.029044211 0.023937494 0.15673071
0.027688801 0.026902944 0.15586913
0.014960706 0.039220452 0.15660268
0.011298716 0.040444613 0.15421519
0.029632926 0.025167584 0.15235066
0.027942479 0.028931797 0.15262416
0.021014571 0.038176239 0.15207267
0.017213404 0.039239526 0.15191609
0.013202786 0.04012531 0.15229934
0.029511213 0.026534408 0.14795938
0.028630257 0.030557513 0.14804706
0.025962651 0.034790576 0.14817908
0.022521317 0.037662804 0.14815342
0.029123545 0.032637954 0.14356831
0.026691198 0.035793066 0.14314499
0.023274899 0.03761375 0.14370188
0.025621653 -0.0054062009 0.18187428
0.021791577 -0.0023742616 0.18358031
0.018712163 0.0011251569 0.18390658
0.016758621 0.0039026439 0.18171829
0.003087759 0.018077135 0.18144116
-0.0001180172 0.022185862 0.18153206
-0.0034920573 0.026186883 0.1815635
0.030071318 -0.0065190196 0.17806339
0.028401613 -0.0039357543 0.17954552
0.024901688 -0.00049895048 0.18132815
0.021368206 0.0034844875 0.18140495
0.017987728 0.0063442588 0.18003356
0.014413476 0.011064768 0.17889512
0.012201607 0.014240324 0.17917341
0.0086961985 0.019104004 0.18138832
0.0042825937 0.023307681 0.18122411
0.00098538399 0.026020169 0.18040511
-0.0021935105 0.028934896 0.18011117
-0.0051849484 0.033005238 0.17896819
-0.0089960098 0.035291612 0.17875838
0.039463699 -0.014309734 0.1755771
0.03032577 -0.0014178157 0.17632684
0.028282404 0.0012381077 0.17922276
0.018535852 0.010776997 0.17890906
-0.0046612024 0.036265254 0.17872655
-0.0076360703 0.0382815 0.17538235
-0.011255562 0.03958112 0.17480505
0.031554639 -0.00037527084 0.17172462
0.031380713 0.0031926036 0.17115051
-0.0029152036 0.038338423 0.17035389
-0.0061280727 0.039333165 0.17116663
-0.0095980167 0.041078687 0.17087901
0.031456232 0.00081926584 0.16757861
0.031526208 0.0043164194 0.16748235
-0.00078624487 0.039172351 0.16718647
-0.0024309158 0.039326727 0.16449738
0.031610906 0.007158488 0.16330308
0.03235364 0.010985434 0.1622622
0.005556941 0.039426684 0.16184342
0.0017073154 0.039372742 0.162866
-0.0016883016 0.040025115 0.16250321
0.03213948 0.008472085 0.15828645
0.031669855 0.012579143 0.159343
0.0067735314 0.038785338 0.15890405
0.0031347871 0.039435625 0.15793771
0.032309592 0.0097225308 0.155752
0.031446517 0.012746155 0.15413189
0.030480742 0.017255187 0.15404302
0.0085477829 0.039526284 0.15459493
0.030381322 0.018349618 0.14971799
0.029265404 0.022385597 0.14985538
0.014860094 0.039201021 0.1491369
0.010650277 0.039632142 0.14995784
0.030635595 0.019652307 0.14538151
0.029725432 0.023970574 0.14570269
0.029091477 0.028313756 0.14513746
0.01914829 0.037758648 0.14471665
0.015250981 0.038056195 0.14583784
0.0301525 0.0251396 0.1416631
0.028821468 0.029645443 0.14066869
0.020164192 0.037814319 0.14096156
0.016077638 0.037877738 0.14155701
0.028559387 0.030292273 0.1360175
0.026832819 0.035178959 0.13775602
0.023693442 0.038348854 0.13712564
0.020046771 0.03929323 0.13587415
0.028208733 0.032478333 0.1332908
0.027203321 0.035491467 0.13217258
0.024251521 0.038882196 0.13218981
0.021390319 0.040518284 0.13258865
0.02735579 0.036537051 0.12876907
0.025638461 0.038321972 0.12926316
0.019508362 -0.01125899 0.18933597
0.018872261 -0.0094360411 0.18417603
0.016954005 -0.006854564 0.1854831
0.015160799 -0.0026324093 0.18559825
-0.017952621 0.030766249 0.18459681
-0.01980567 0.033203006 0.18389112
-0.022738755 0.035781443 0.18374202
0.025250971 -0.0114232 0.18110949
0.023193479 -0.0086094439 0.18244788
0.022200108 -0.0052025914 0.18344373
0.016445518 -0.00013542175 0.18391544
0.013432384 0.0024846494 0.18222266
0.0082134604 0.0054780841 0.18009791
0.00080782175 0.017825991 0.18087542
-0.0040791035 0.022292078 0.18142709
-0.0079275966 0.021618336 0.18119544
-0.015179813 0.031630218 0.18132174
-0.018267691 0.034452856 0.18140399
-0.020955384 0.037169933 0.18133557
0.03635335 -0.015858144 0.17838922
0.03118366 -0.014542967 0.17625272
0.028422892 -0.010743022 0.17851144
0.027060807 -0.007008642 0.18034732
0.014191091 0.005923748 0.18000352
0.011512756 0.0077401102 0.17975712
0.0087906718 0.011297435 0.17984873
0.0061578751 0.014027596 0.17979532
-0.0070688725 0.027658552 0.17950994
-0.010951579 0.028884232 0.17810029
-0.01443553 0.033705711 0.17827201
-0.01536113 0.03667289 0.17788577
-0.019162953 0.038747311 0.17743158
0.036262989 -0.014838964 0.17626467
0.030225754 -0.0084009171 0.17424729
-0.014433563 0.039453864 0.17403477
-0.0177598 0.040009737 0.17414835
0.031385005 -0.0060636401 0.16978353
0.031326234 -0.0030562282 0.16904703
-0.0075861216 0.039202452 0.16787082
-0.011259437 0.039993227 0.16896498
0.03199482 -0.0048474669 0.16525549
0.030687809 -0.0015781224 0.16513225
0.030441463 0.0021920204 0.16452479
-0.0074203014 0.038806796 0.16472045
0.030872762 -8.7201595e-05 0.16102052
0.030868888 0.0031754971 0.16079688
-0.0044275522 0.039462745 0.16014606
0.032102466 0.0022852123 0.15559167
0.031770647 0.0051760674 0.15654713
0.00081318617 0.040006042 0.15611258
-0.0029304028 0.040013611 0.1559487
0.032433748 0.0064962208 0.15191817
0.031338096 0.010039628 0.15139872
0.0051173568 0.038668633 0.15064657
0.0019752383 0.038358748 0.1513316
0.03213501 0.0083610415 0.14912301
0.030499578 0.01149863 0.14770156
0.028853595 0.013635397 0.146332
0.0068491697 0.037841082 0.14586923
0.031698823 0.014125168 0.14246148
0.030063272 0.017780572 0.14315686
0.01351738 0.037896693 0.14244956
0.0095368624 0.038022041 0.14219975
0.031618416 0.014353096 0.13932252
0.030507803 0.020149618 0.1391477
0.030175567 0.023871809 0.13845533
0.014565229 0.038290977 0.13855773
0.010928869 0.038500309 0.13793218
0.030016363 0.020938575 0.13491505
0.029251635 0.024276584 0.13414845
0.02886951 0.02744031 0.13434029
0.015633345 0.038756549 0.13491675
0.027906895 0.029934347 0.1298393
0.027632535 0.03433603 0.1288214
0.022165418 0.038810492 0.12839761
0.018563032 0.039848208 0.13002986
0.028659821 0.030965865 0.12633973
0.026722312 0.034885108 0.12532407
0.023212016 0.037641287 0.12626651
0.025319159 0.035296917 0.12199301
0.018129885 -0.012129575 0.18810406
0.012316704 -0.0087942481 0.18747413
0.01294595 -0.0065726042 0.18803513
0.022896886 -0.019335985 0.18159437
0.020456374 -0.017466038 0.18296421
0.01834476 -0.013427258 0.18328178
0.015883625 -0.009068042 0.1854333
0.01181531 -0.0062870383 0.18630588
-0.010492265 0.016407907 0.18114102
-0.011372983 0.017623812 0.18118259
-0.016800106 0.024180561 0.18177056
-0.01804328 0.026990831 0.18417513
-0.021550357 0.031158566 0.18464673
0.027240634 -0.017926842 0.17975447
0.024605036 -0.014912188 0.18152261
0.021005273 -0.012402922 0.18253088
0.0089817643 0.00034159422 0.18234274
0.0064405203 0.0031840503 0.18017071
0.0031340718 0.0075632334 0.17936295
-0.00062185526 0.011387318 0.17927283
-0.0034884214 0.013848692 0.18066025
-0.0052599907 0.017141134 0.18091166
-0.011647463 0.02302447 0.17909008
-0.013787806 0.026023209 0.1797179
-0.016120434 0.027896196 0.18136451
-0.02454257 0.037772894 0.1798757
-0.02571553 0.039622247 0.17889556
0.030214965 -0.016542375 0.17761371
-0.022594988 0.039533257 0.1752561
-0.02559793 0.041239858 0.1749084
-0.028154373 0.043300152 0.1739608
0.029632926 -0.014878511 0.17223364
0.029574156 -0.011941105 0.17220342
-0.016283929 0.0387609 0.17036071
-0.021476328 0.038598835 0.17065975
-0.026318908 0.041217744 0.17162567
-0.027134776 0.044255197 0.17128032
0.030444741 -0.012753785 0.16678548
0.031050801 -0.009897083 0.16753531
-0.01688987 0.038968563 0.16558313
0.031447172 -0.0080164671 0.16295743
0.031329751 -0.0042999089 0.16177779
-0.01082778 0.0380494 0.16059971
-0.012535214 0.039198935 0.16311145
-0.016909957 0.039328039 0.16252351
0.032143772 -0.005802542 0.15890849
0.031503439 -0.0023280084 0.15892512
-0.0097386241 0.037415683 0.156802
-0.012565255 0.037227273 0.15842032
0.032226622 -0.0048241615 0.15324074
0.032605529 -0.001149565 0.15463513
-0.0045056939 0.038281202 0.15227783
0.033225715 0.00097078085 0.14991444
0.032227337 0.0057277083 0.14853883
-0.00069355965 0.038035691 0.14867708
-0.0053501129 0.037511945 0.149252
0.033076763 0.0013467371 0.14563417
0.032325864 0.0060569048 0.14547706
0.030786037 0.010569811 0.14454442
0.0010349751 0.037647367 0.14460617
0.032506585 0.0073006749 0.14105427
0.031817555 0.011521935 0.14187446
0.029186487 0.014757127 0.14154172
0.006085515 0.038561225 0.14140266
0.0027440786 0.039354384 0.14023969
0.03271991 0.0091857314 0.13731325
0.032442212 0.012664318 0.13667706
0.029577374 0.016483486 0.13657433
0.0076871514 0.038995206 0.13610432
0.0040633678 0.039620757 0.13633031
0.032420635 0.01413691 0.13204089
0.030099154 0.017652154 0.13173085
0.029971302 0.021819472 0.13166294
0.013329446 0.038885891 0.13231498
0.0093514323 0.038639784 0.13154644
0.029267728 0.019194096 0.12867296
0.029045463 0.023642927 0.12812087
0.013887286 0.038079083 0.12665629
0.011733651 0.038446367 0.12694567
0.028759718 0.025048018 0.12410728
0.027698457 0.028433621 0.1223417
0.020481169 0.036648393 0.12277753
0.017449796 0.037245333 0.12263215
0.027535021 0.030103803 0.11838219
0.025855899 0.033980846 0.11916775
0.022581935 0.036400616 0.1187133
0.027023911 0.031721711 0.1150899
0.025211096 0.034123361 0.11518718
0.022797108 0.037032068 0.11524004
0.017094374 -0.020858705 0.1853283
0.013628244 -0.017298192 0.18520755
0.012914956 -0.013707787 0.18512136
-0.022071064 0.019951373 0.18443561
0.021738172 -0.022818387 0.18189573
0.018760979 -0.020200223 0.18329692
0.015401602 -0.015550762 0.18376511
0.002096355 0.00036472082 0.18080881
-0.002476573 0.0019158423 0.1800912
-0.0059022307 0.0051069558 0.17995131
-0.0077605844 0.010161161 0.18052685
-0.010241866 0.013927191 0.1807107
-0.015913129 0.017506152 0.18014514
-0.018828154 0.020113945 0.18190509
0.00033569336 0.0038561523 0.17954808
-0.0031407475 0.0077395737 0.17922246
-0.0148983 0.019161075 0.17914319
-0.015804112 0.021237373 0.17934921
0.027637541 -0.016832083 0.16917408
-0.022386789 0.038252354 0.16777086
-0.026632786 0.040320754 0.16838193
-0.029676318 0.042378068 0.16716415
0.027162492 -0.016808152 0.16435617
-0.021640539 0.038829863 0.16441226
-0.025875449 0.039607763 0.1632956
0.02931726 -0.012400955 0.15978411
-0.016016424 0.038495421 0.15941894
-0.02007395 0.03970325 0.15925497
0.029744446 -0.010282636 0.15554851
-0.010929942 0.036996961 0.15404469
-0.014725208 0.037978768 0.15567997
-0.019347072 0.040022135 0.15537351
0.030770838 -0.0085052252 0.15124971
-0.0097076297 0.03768307 0.15094602
-0.013660133 0.038165808 0.15076113
0.03194499 -0.0054329932 0.14668393
-0.0077354312 0.037690103 0.14629102
-0.010892451 0.038021863 0.14554709
0.032517374 -0.0038120747 0.14322209
0.032870829 -0.00020897388 0.1427404
-0.0031185746 0.037892401 0.14277053
-0.0064498782 0.038159907 0.14155191
0.033011794 0.00090438128 0.13826811
0.032116413 0.0044891834 0.13836449
-0.0018034577 0.039197683 0.13863829
-0.0039315224 0.039201736 0.1372655
0.032785237 0.0020614862 0.13453913
0.031570613 0.0053792596 0.13373855
0.031723678 0.0094506443 0.13336995
0.0004016161 0.038992465 0.13317272
-0.0031027794 0.038888872 0.13420016
0.032067597 0.0082093179 0.12913427
0.032157004 0.010454684 0.12955561
0.0063224435 0.038362741 0.12862074
0.0032569766 0.038499773 0.1290893
0.032737613 0.008993417 0.12547749
0.032098174 0.012952954 0.12554601
0.029280603 0.016982287 0.12526691
0.027959347 0.020585388 0.12381596
0.011794209 0.037082732 0.12338937
0.0083310008 0.038037598 0.12472261
0.03074497 0.013541222 0.12119494
0.029800713 0.016622573 0.12073702
0.02724719 0.021340787 0.12036092
0.013214707 0.03705281 0.12031759
0.010125339 0.038090944 0.12073535
0.02731812 0.023779839 0.11587251
0.027556181 0.026431113 0.1171037
0.01851964 0.03673023 0.11714397
0.015354037 0.036967635 0.11668212
0.027287662 0.028581023 0.11188842
0.024782777 0.032755971 0.11160032
0.020654857 0.036026597 0.11139993
0.016788781 0.037065744 0.11182947
0.027775884 0.030470312 0.10714299
0.02555418 0.033378005 0.10692856
0.022645831 0.035526216 0.10703606
0.025256693 0.034484684 0.10303057
-0.022501647 0.010033756 0.18504307
0.01882863 -0.026098788 0.18248102
0.013454914 -0.024495959 0.18472603
-0.0088815689 -0.0024655461 0.1809383
-0.010501385 0.0013248026 0.18198448
-0.014019489 0.0049729943 0.18218207
-0.017926455 0.0082577169 0.18195587
-0.021234334 0.011763781 0.18218184
-0.022860646 0.015327007 0.18396848
0.022111893 -0.025317252 0.17868704
-0.0025123358 -0.0036490858 0.18055487
-0.0048327446 -0.00063201785 0.1806272
-0.0088223219 0.0031152666 0.18047106
-0.011621296 0.0066796541 0.18093318
-0.014770031 0.009621501 0.18080691
-0.018960357 0.013733119 0.1802876
-0.031847417 0.041683197 0.16466749
0.025669694 -0.020099968 0.1614908
-0.02874136 0.040412724 0.1617218
-0.033037663 0.040997207 0.16213062
0.027070284 -0.018492281 0.15799853
-0.025731921 0.041106403 0.15736771
0.028114915 -0.015917242 0.1534293
0.029073536 -0.012681216 0.15306288
-0.01756531 0.038351774 0.15267396
-0.020686448 0.039734662 0.15219355
-0.024385273 0.041661978 0.15288442
-0.028469324 0.042141795 0.15396327
0.03004241 -0.014273375 0.148485
0.030260324 -0.011155069 0.14924622
-0.015197694 0.038540125 0.14854187
-0.019136667 0.038671315 0.14788109
0.030641019 -0.012790978 0.14465076
0.030873001 -0.0097903013 0.14460093
-0.014222622 0.037880421 0.14424786
0.031834066 -0.0069134533 0.14071205
0.031864345 -0.0040663183 0.14058846
-0.010084212 0.037487924 0.13922453
-0.012978375 0.037276626 0.14082205
0.031730175 -0.0061784685 0.13643059
0.031482935 -0.0032881796 0.1353071
-0.0077595711 0.038255453 0.13492963
0.030569315 -0.0011912882 0.13076949
0.030837476 0.0030569434 0.13034761
-0.0028870106 0.037814975 0.12915167
-0.0048140287 0.038071811 0.13192046
0.031032562 0.003944546 0.12697521
-0.00032031536 0.038324714 0.12715596
0.031587899 0.0059365034 0.12275428
0.0052953959 0.03836906 0.12266845
0.0018768311 0.038676202 0.12290967
0.031909585 0.0071705282 0.11826295
0.030614257 0.01099956 0.11824531
0.028281212 0.016278476 0.11813057
0.027458847 0.018919975 0.11837388
0.0069829822 0.038117886 0.11847536
0.0036090612 0.038398206 0.11811603
0.030271292 0.013456285 0.11327387
0.02816081 0.015961915 0.11310426
0.027372837 0.02045992 0.11439527
0.011944234 0.037047327 0.11463777
0.0083798766 0.037455618 0.11353225
0.030066431 0.015916705 0.11016513
0.027684033 0.022654831 0.10960538
0.014250815 0.036545813 0.10970325
0.028111458 0.023747534 0.10532368
0.02824533 0.027701199 0.10565663
0.019530356 0.0360865 0.10549868
0.015958846 0.036277473 0.10561682
0.028582215 0.023989409 0.10199309
0.028117001 0.029454708 0.10185156
0.026403844 0.033311069 0.10113554
0.021109939 0.036489069 0.10114556
0.025125265 0.03429395 0.097621851
0.022836328 0.036151469 0.097780369
-0.017884135 -0.0032127202 0.18353224
-0.019103765 -0.00045156479 0.18457574
-0.02159363 0.0037915409 0.18437004
-0.023170412 0.0078516901 0.18448478
-0.0077751279 -0.0089620054 0.17940158
-0.0095183849 -0.0047274232 0.18088496
-0.01395601 -0.002332896 0.18246096
-0.01706171 0.0019604266 0.18312651
-0.020657957 0.0059929788 0.18311256
-0.021742105 0.0088893175 0.18342906
-0.038540781 0.040524483 0.16070706
0.027289093 -0.023827583 0.15813375
0.025381088 -0.02346313 0.16013506
-0.035034537 0.039940357 0.15801495
-0.038120508 0.041156173 0.15775311
0.027091503 -0.023739785 0.15490985
0.027024567 -0.02113691 0.15514505
-0.033546209 0.041127205 0.15407574
-0.035861373 0.043643057 0.15351951
0.028052568 -0.019189894 0.15115583
-0.026393592 0.040441453 0.14931339
-0.031228125 0.043382764 0.15195131
0.029348969 -0.017950684 0.14607945
-0.023246825 0.038910866 0.14559677
-0.026387155 0.039564431 0.14493722
0.029602468 -0.015972644 0.14223599
0.030009568 -0.012925684 0.14043057
-0.018004537 0.036516905 0.14093208
-0.020827532 0.038391054 0.14304757
-0.024365723 0.039084375 0.14147961
0.02984035 -0.011770159 0.13788587
-0.015788436 0.03593272 0.13734102
0.030899942 -0.009457469 0.13323566
-0.013731658 0.035835564 0.13381609
0.031259596 -0.0071433783 0.12938207
0.030741215 -0.0035067499 0.12951994
-0.0089949965 0.035908103 0.12780404
0.031419873 -0.0050750971 0.12565476
0.030875325 -0.0018911362 0.12459738
-0.0066520572 0.036853731 0.1246107
0.030779064 -0.00064456463 0.11976231
0.030850768 0.0030185282 0.11975903
-0.00080549717 0.038455784 0.11931238
-0.0037472844 0.038307726 0.12006695
0.0309484 0.0048335493 0.11574037
0.030484676 0.0092486143 0.11510888
4.9471855e-05 0.037946403 0.11532754
0.031671345 0.0067976713 0.11185411
0.031080782 0.010622501 0.11215053
0.026374102 0.017014742 0.11100323
0.0052503943 0.037267566 0.11063883
0.0020039678 0.037975371 0.11137647
0.032369077 0.0084366202 0.10720561
0.031826377 0.011814177 0.1071193
0.028786242 0.016238421 0.10806925
0.011041284 0.035949826 0.10706735
0.0067490339 0.037021041 0.10698158
0.031647146 0.013263464 0.10198579
0.030399382 0.017696589 0.10331268
0.028075695 0.020734817 0.10343105
0.01276058 0.03605026 0.10280777
0.0094629526 0.036646605 0.1023585
0.032179058 0.014657348 0.098869704
0.031464159 0.0185619 0.098431729
0.028619707 0.022774011 0.098195665
0.026428878 0.027103722 0.097622715
0.017658293 0.036467612 0.097079568
0.014364064 0.036484361 0.098138593
0.031183839 0.018101513 0.09450721
0.028126419 0.023159355 0.09440922
0.026071727 0.027338982 0.093656115
0.024525344 0.031888902 0.094143204
0.020619333 0.035698414 0.093904696
0.017184615 0.036435902 0.094420277
0.026477218 0.028058589 0.089690648
0.024582267 0.03265363 0.089504145
0.021242917 0.035486639 0.089581393
0.024086297 0.0345155 0.086019628
-0.012439132 -0.014231652 0.1818338
-0.015857875 -0.010903955 0.18132928
-0.018519998 -0.0070765018 0.18301341
-0.0098534822 -0.01264295 0.17970306
-0.013036311 -0.0089046359 0.18035471
-0.037653923 0.0400877 0.15443677
0.026365042 -0.024023443 0.15146223
-0.029430091 0.038929105 0.14659446
-0.033118725 0.039483845 0.14707124
-0.02833122 0.039936066 0.14387834
-0.030741811 0.041055024 0.14318794
0.028136075 -0.019000828 0.13973302
-0.023119748 0.036594152 0.13879853
-0.027682364 0.039388776 0.13885728
-0.031836689 0.04223454 0.13883579
0.029985785 -0.019985259 0.13225427
0.028269708 -0.017769814 0.13499358
-0.019363761 0.035326719 0.13502771
-0.023294687 0.03706646 0.13398072
-0.02682966 0.040076435 0.13423967
-0.029411435 0.042634368 0.13488954
0.032027721 -0.019101948 0.13007331
0.030404568 -0.015516222 0.13049749
-0.014005244 0.034476161 0.12852439
-0.018274307 0.035040498 0.13003895
-0.021341741 0.03736943 0.12951288
-0.024311185 0.040469646 0.13043594
0.033063293 -0.017305911 0.12636769
0.031183183 -0.014560789 0.12590569
0.030721128 -0.010269314 0.12662899
-0.013031185 0.035410643 0.12574697
-0.015021026 0.035315216 0.12517148
0.030533671 -0.0089896917 0.12196956
0.030888021 -0.0051181018 0.12139896
-0.0088626146 0.036717713 0.12149704
-0.013605952 0.036097765 0.12192339
0.031050146 -0.0076192021 0.11834181
0.030218184 -0.0040313005 0.11764193
-0.008965075 0.037118733 0.11745236
0.030359566 -0.0023038983 0.11316843
0.029796064 0.0011391342 0.11411852
-0.0058674216 0.037123322 0.11339471
0.031197309 -1.4036894e-05 0.10792751
0.030783474 0.003009975 0.10910297
-0.001783669 0.037297189 0.1080061
-0.0041045547 0.037340999 0.11065213
0.031835556 0.0006801784 0.10497067
0.031406283 0.0046259761 0.10406569
0.0057846308 0.037172794 0.1035986
0.0017172694 0.037825346 0.1046821
0.031599283 0.0065791607 0.1004793
0.031326473 0.0098850429 0.10007405
0.0067565441 0.036982119 0.099955492
0.0019983649 0.03753382 0.1003209
0.03150934 0.011915892 0.096230261
0.031147897 0.016105711 0.095610552
0.011347175 0.036132812 0.095848732
0.0071445107 0.036440372 0.09602239
0.031808555 0.013862729 0.09162166
0.030351818 0.017807186 0.091415308
0.02809453 0.021363854 0.091096602
0.012367189 0.036089182 0.091031067
0.032439113 0.015838772 0.087539248
0.03110534 0.018164098 0.086276971
0.027653515 0.022415906 0.086764298
0.026311338 0.027204126 0.087148599
0.02472353 0.031241298 0.086118899
0.018339336 0.035312116 0.086073808
0.014500022 0.036162913 0.087275736
0.026450753 0.027223766 0.082131408
0.024251997 0.031943619 0.082639389
0.020100951 0.035015821 0.082334809
0.01681143 0.03553468 0.083108
0.026586771 0.028888643 0.078706704
0.02470839 0.032390356 0.078159384
0.021772027 0.035342813 0.077892832
0.024815202 0.033342957 0.074905626
0.02329278 0.035109162 0.074925654
-0.01659435 -0.015310019 0.18310159
-0.017946243 -0.014344543 0.18299261
-0.018306434 -0.012206703 0.18252754
0.025817871 -0.02337274 0.13688362
-0.031268358 0.040817618 0.13682443
0.028549135 -0.021166623 0.13404119
-0.026979268 0.040519178 0.13136292
0.031830549 -0.020240247 0.12777489
-0.022658765 0.037825167 0.12795204
-0.023745835 0.039428771 0.12705868
0.031011224 -0.017261982 0.12278808
-0.01866895 0.035677552 0.12424857
-0.021575034 0.03744626 0.1232766
-0.024717271 0.040088415 0.12266598
0.030543804 -0.014615536 0.12001202
0.030225515 -0.01213035 0.11944298
-0.016933441 0.036090732 0.11894009
-0.02104634 0.036649287 0.11886687
0.031330824 -0.013955802 0.11598278
0.030089676 -0.010397136 0.11487333
-0.011242092 0.036166847 0.11324389
-0.014695108 0.036006987 0.11552811
0.030898333 -0.0084863305 0.11077753
0.030703425 -0.0044730008 0.11159889
-0.010707974 0.036197901 0.11063529
0.031223416 -0.0072214901 0.10658468
0.03103137 -0.0033100545 0.10676587
-0.0068913698 0.03607899 0.10616613
0.032042205 -0.0066787899 0.10306317
0.031319201 -0.0023416579 0.10233123
-0.0024558306 0.037539601 0.10203452
-0.0070128441 0.036375999 0.10286219
0.031399727 0.00015634298 0.09751194
0.031620979 0.0036236346 0.098168634
-0.00068855286 0.037365973 0.097326808
-0.0036341548 0.037307441 0.097417347
0.031779945 0.0015783906 0.093442671
0.030930996 0.0054286718 0.093496405
0.030749857 0.0084832311 0.093356036
0.0059566498 0.036606967 0.093038492
0.0017501712 0.036851346 0.092886142
0.030836046 0.0063883066 0.08885058
0.030898869 0.010346919 0.088619672
0.0072320104 0.036961973 0.088900201
0.03203398 0.01253593 0.085009865
0.030801058 0.017829061 0.084201746
0.028471589 0.020911992 0.084340446
0.01257062 0.036270201 0.084770195
0.0088990927 0.036698997 0.084275477
0.031252861 0.01365906 0.081437968
0.030928135 0.017286241 0.080686055
0.027737916 0.021662772 0.080924712
0.013990104 0.036043167 0.080424778
0.030666471 0.017784745 0.076115899
0.027810216 0.022663087 0.076318584
0.026964128 0.027051091 0.076421045
0.019469678 0.036120176 0.076508038
0.015370846 0.035756946 0.076319091
0.028869569 0.024303764 0.070978276
0.027596295 0.028231561 0.071906857
0.024694562 0.032482564 0.071527146
0.020563364 0.035411656 0.072390072
0.027027369 0.029682815 0.067118578
0.025506377 0.031217515 0.066494904
0.02834928 -0.020313442 0.12018172
-0.024225354 0.038176119 0.12001363
-0.025584042 0.039169192 0.11988015
0.029981494 -0.018430382 0.11737395
-0.019211054 0.036313772 0.11597986
-0.022455394 0.037510753 0.11702371
-0.02592808 0.038700402 0.11600516
0.030039012 -0.016634822 0.11326206
-0.017170429 0.035630226 0.11194635
-0.020923734 0.037243187 0.11260027
-0.025565326 0.039081931 0.11320049
0.030775905 -0.01464051 0.10930721
0.031022787 -0.011724234 0.10896749
-0.012224436 0.034378052 0.10748885
-0.016014457 0.036291718 0.10792265
-0.019253552 0.038229048 0.10726935
0.030756891 -0.013562471 0.10505141
0.031303227 -0.010527968 0.10433478
-0.010765731 0.0356915 0.10407288
-0.013779461 0.036447704 0.10373671
-0.019041538 0.039719522 0.10352129
0.031949937 -0.0082131922 0.099817716
0.031747639 -0.0040240884 0.099205606
-0.0088831186 0.036548316 0.098979704
-0.012837291 0.03683418 0.098704331
0.032533348 -0.0066530108 0.094785266
0.031946778 -0.0028495491 0.095409237
-0.0061945915 0.037102759 0.094548158
0.032659352 -0.0053628981 0.091787688
0.032060742 -0.0013390183 0.091265403
0.030882895 0.0021167994 0.090772562
-0.0024695396 0.036539853 0.090381019
-0.0064793229 0.037092149 0.091406189
0.031952858 -0.00036501884 0.087294452
0.031043351 0.0037400126 0.086654745
0.00027352571 0.036417782 0.086536042
0.031087637 0.0060418546 0.082399361
0.031649649 0.0099932253 0.083058797
0.0043866038 0.035893321 0.081732772
0.00039827824 0.035956502 0.083033793
0.031483054 0.011240155 0.078243427
0.0093795061 0.03517282 0.075448863
0.0077199936 0.035539329 0.079294436
0.031982005 0.013002276 0.07292261
0.031097293 0.01770997 0.073004894
0.028057814 0.020494163 0.07350906
0.013357759 0.035703719 0.07306426
0.0085694194 0.03486377 0.073369645
0.031494141 0.01483801 0.069864802
0.031443238 0.018290102 0.069165848
0.028784096 0.021987677 0.06914153
0.027086437 0.025244743 0.068079494
0.018599272 0.034498513 0.068587951
0.014103174 0.035578787 0.068541907
0.031048775 0.020209968 0.064867876
0.028218746 0.022807837 0.064479344
0.027391315 0.027084202 0.065048091
0.024126053 0.031817079 0.064939998
0.020057321 0.033973932 0.064898126
0.015772283 0.035685122 0.064300977
0.031056404 0.021020442 0.061218344
0.028588593 0.024065852 0.061309837
0.027083278 0.028081059 0.060517274
0.024191618 0.031559169 0.060379021
0.020747602 0.034596682 0.060626321
0.027704477 0.028582871 0.057196401
0.02744621 -0.022393048 0.11272121
0.02862078 -0.020542592 0.10983706
-0.023508012 0.037982047 0.11016149
-0.026682794 0.038402379 0.10935
0.028918803 -0.018529236 0.10573054
-0.022814512 0.038863242 0.10639144
-0.027497292 0.037891686 0.1056102
0.029205918 -0.016009808 0.10174907
-0.018033326 0.036038935 0.10115277
-0.021347582 0.037711263 0.10061204
-0.023577452 0.039116919 0.1003203
0.029493511 -0.014006346 0.098641865
0.03035605 -0.012271285 0.096828185
-0.01495409 0.03589493 0.095264189
0.032436669 -0.0095693469 0.09395387
-0.011173427 0.036671221 0.093233578
-0.012124956 0.03611958 0.092790298
0.031617999 -0.0071904063 0.088964485
0.031528771 -0.0040429831 0.089249633
-0.0082908273 0.035913408 0.087527089
-0.012392282 0.036342144 0.089358084
0.031423509 -0.0056237876 0.083639018
0.031094611 -0.0027267933 0.083929293
-0.0040403605 0.035764217 0.084123544
-0.0048065782 0.036122143 0.084840976
0.031012356 -0.00044026971 0.079836212
0.030753255 0.0025804341 0.080053799
-0.00041288137 0.034639955 0.078962497
0.030870676 0.0043503046 0.075159065
0.030730724 0.0081596375 0.074512951
0.0034678578 0.03387028 0.074836634
0.03176105 0.0063032508 0.070848815
0.031323433 0.0088343024 0.071458094
0.0061122775 0.034694195 0.07043051
0.032363117 0.0073442459 0.067317836
0.031194925 0.01126948 0.06716951
0.03081286 0.014689744 0.066129826
0.011746287 0.035842478 0.066093914
0.0084875822 0.035524011 0.06662377
0.030537963 0.011851847 0.063431136
0.030430257 0.01660037 0.063111536
0.029187024 0.021522462 0.062465034
0.012293637 0.035918236 0.062830441
0.0083602071 0.035803974 0.06319093
0.030063152 0.017903507 0.058507852
0.029001117 0.022446007 0.057898574
0.027735829 0.026605636 0.05832731
0.018937588 0.03347671 0.056241177
0.015729964 0.03531611 0.060351305
0.028515041 0.023258775 0.054049186
0.026136935 0.027071655 0.054417782
0.022945046 0.03059268 0.053676389
0.025803089 -0.025478393 0.11146475
0.027247369 -0.025611788 0.10847155
0.028624177 -0.0238778 0.10424159
0.028665662 -0.020890266 0.10419176
-0.028532505 0.037505031 0.10351292
0.027970314 -0.023136228 0.1008473
0.028389096 -0.019617409 0.099231951
-0.022732019 0.036224902 0.09810131
-0.025953114 0.038630486 0.097210817
0.028269231 -0.017615825 0.095593981
0.027807415 -0.014862329 0.093639903
-0.019294977 0.035090387 0.094573729
-0.022586644 0.036435187 0.093938552
0.028673053 -0.015880197 0.089344524
0.029644072 -0.013282567 0.090363018
-0.016695142 0.035966158 0.090484105
-0.020947993 0.037085235 0.089766644
0.02930975 -0.010424256 0.085564755
-0.011465549 0.035554588 0.085144781
-0.014879942 0.035282016 0.08485245
0.030551553 -0.0088568926 0.08192455
0.031035066 -0.0056931674 0.080915831
-0.0096611977 0.034370124 0.081079416
-0.013382673 0.034724414 0.081721865
0.031281888 -0.003883183 0.077820651
-0.005002737 0.034040928 0.077303819
-0.0084921718 0.033802867 0.076104991
0.031810105 -0.0016511083 0.073702715
0.00055885315 0.03343755 0.072888486
-0.0033239126 0.033551276 0.072858207
0.032491803 -0.00039952993 0.069338076
0.031885922 0.0028241575 0.069503777
0.00086522102 0.033981442 0.069682293
-0.00063288212 0.034092963 0.068348132
0.032816887 6.2763691e-05 0.065270059
0.032049954 0.0045452714 0.064621292
0.030888438 0.009118706 0.064457797
0.0046870708 0.035070062 0.065201126
0.0018624067 0.035208881 0.064288281
0.0318169 0.0071135163 0.061542146
0.030605674 0.010707319 0.059925877
0.029357314 0.014263272 0.059404038
0.0099989176 0.034503102 0.058988623
0.0060561299 0.035043001 0.059721194
0.029833198 0.01197654 0.056227706
0.0293625 0.01548332 0.054902963
0.012765765 0.034124732 0.055231325
0.0086727142 0.035063684 0.054313235
0.029682577 0.017386556 0.051060043
0.028747082 0.021914601 0.051363908
0.025750577 0.0254969 0.050709181
0.021701992 0.030854225 0.050541036
0.018354952 0.032847524 0.051494472
0.014105797 0.035210252 0.05099117
0.02964735 0.018975198 0.046476327
0.029279768 0.022980392 0.047195546
0.026217759 0.026615202 0.047269039
0.023227215 0.030290961 0.047381513
0.019593358 0.033569455 0.04713323
0.016535997 0.036288738 0.046911769
0.029049575 0.023583323 0.043060206
0.026740968 0.027428776 0.042413674
0.023894131 0.031203628 0.042612217
0.020283043 0.034193993 0.042782806
0.016803801 0.035973132 0.042478226
0.026861548 0.028333545 0.038756303
0.02421397 0.031433284 0.038540475
0.021105826 0.033511579 0.038796864
0.027345717 -0.026858091 0.10024547
0.026579559 -0.025219142 0.097031854
0.027247012 -0.024091452 0.092673771
0.027120531 -0.020494163 0.091893785
-0.025218964 0.03738445 0.090824239
0.029687762 -0.020868182 0.086555116
0.028011382 -0.018923014 0.088299446
-0.019617677 0.035771966 0.086951606
-0.022173285 0.03724581 0.087140284
-0.024903893 0.037958741 0.087638907
0.030711174 -0.020031095 0.085380547
0.028777719 -0.017763823 0.083679341
0.027692676 -0.01425454 0.084323995
-0.018925667 0.034751773 0.083431356
-0.021828413 0.037039042 0.083334796
0.029136837 -0.016819596 0.079726629
0.0288257 -0.01304695 0.079139911
-0.01215297 0.034008086 0.078450911
-0.016721964 0.034489512 0.078861348
0.029357076 -0.010420918 0.075549982
-0.011086941 0.03431952 0.075066857
-0.014480293 0.034944355 0.073625021
0.029904604 -0.0083507895 0.070814215
-0.0052337646 0.033735394 0.070197992
-0.0097965002 0.034549117 0.07032799
0.03123194 -0.0044439733 0.066585205
-0.0037660003 0.034322619 0.066120587
-0.0066505671 0.035000801 0.067485236
0.03176266 -0.0017005503 0.061457478
0.031434715 0.0019728243 0.061588995
-0.0017553568 0.035074651 0.061269842
0.032299399 0.00019091368 0.057292335
0.03166759 0.0041583478 0.057729147
0.030770659 0.0077245831 0.056986324
0.0038645864 0.0348171 0.056671135
0.00058668852 0.035185158 0.056825064
0.032628596 0.001547575 0.053057812
0.032102346 0.0050875545 0.053099476
0.030208588 0.0093170404 0.053543948
0.029146731 0.012767136 0.052714132
0.0043368936 0.034998119 0.053129815
0.032695055 0.0064291954 0.048671119
0.030934513 0.010448456 0.04907351
0.029822111 0.01401186 0.049371831
0.0070301294 0.035316825 0.048868679
0.032918453 0.0082436204 0.045523517
0.031642258 0.011568308 0.044579886
0.030198872 0.015864402 0.045004837
0.01079601 0.035578668 0.044616543
0.032029986 0.013211548 0.040872298
0.030618489 0.016806364 0.040343605
0.029014349 0.021480203 0.040529124
0.017675996 0.034009099 0.03948354
0.013490379 0.035284042 0.04015445
0.030297518 0.018212378 0.036519282
0.029112637 0.021945149 0.036126398
0.026281595 0.026058763 0.035777383
0.022958219 0.031716049 0.035760991
0.01864475 0.033810914 0.035690241
0.015240431 0.034634948 0.03611397
0.029051304 0.023748338 0.031775795
0.025573969 0.026946753 0.032300137
0.023839653 0.030541539 0.031303279
0.020741105 0.03305012 0.031347863
0.025306821 -0.027957976 0.094198577
0.026140571 -0.026770771 0.090749286
0.026157737 -0.025543272 0.087629162
0.026569366 -0.023295671 0.088373832
0.028474927 -0.021362245 0.080837093
0.030761659 -0.021475106 0.078048341
0.029055595 -0.019128203 0.076427542
0.027891576 -0.015428603 0.075372927
-0.021151423 0.034148097 0.076478653
-0.023089588 0.035484254 0.07667499
-0.026019573 0.037853062 0.077434562
0.028450787 -0.017260134 0.071961604
0.028474867 -0.014257729 0.071968012
-0.017560601 0.034980357 0.072634391
-0.020624697 0.035133123 0.070808582
0.028424263 -0.012162715 0.067742698
-0.01221931 0.035297275 0.06659966
-0.015892088 0.035710812 0.067262255
-0.019335806 0.036459863 0.066346578
0.028550208 -0.010069281 0.063125186
0.029265642 -0.0076428652 0.064092867
-0.010282755 0.03429085 0.063075624
-0.013904929 0.035182416 0.063658468
0.029863656 -0.0088455081 0.059520058
0.030244589 -0.0060659051 0.059169732
-0.005797267 0.034519553 0.059726618
-0.0075327754 0.03441602 0.059105478
0.030939519 -0.0041022599 0.055143647
-0.0036991835 0.03448379 0.055130981
-0.0073005557 0.034012258 0.055520467
0.03138417 -0.0011452138 0.050892405
0.002043128 0.034952044 0.050186805
-0.0022403598 0.034480512 0.05075749
0.032312632 0.0016789734 0.048550896
0.032045007 0.002964139 0.046489738
0.0043329 0.035026073 0.045685552
0.00031781197 0.034787655 0.047154032
0.031626046 0.0056167245 0.04242789
0.032158673 0.0099345446 0.04223188
0.0048649311 0.034283102 0.042513274
0.030622303 0.0099660754 0.037654094
0.029341936 0.012488186 0.034869306
0.0095136762 0.033771813 0.035514705
0.0090125799 0.034957409 0.039310269
0.029490232 0.015896767 0.032814108
0.028692544 0.020110488 0.031767361
0.025154829 0.023509055 0.03158813
0.013358772 0.034379363 0.032638483
0.029529154 0.018278986 0.028213494
0.029030681 0.022008806 0.028670244
0.025409102 0.025654972 0.0285744
0.024152875 0.02992028 0.027970962
0.018213153 0.03341496 0.027998142
0.014579713 0.034810543 0.028186254
0.029770851 0.019533932 0.024746381
0.028509736 0.022892445 0.02412077
0.0254094 0.026573718 0.023910336
0.023173928 0.030582368 0.024208061
0.019107401 0.03341639 0.023856454
0.015650332 0.035106122 0.024707668
0.025272965 0.028480947 0.02065625
0.02337712 0.031088352 0.020375691
0.020696044 0.033126712 0.020505004
0.028792143 -0.023697734 0.074596159
-0.025502801 0.035489857 0.073719196
-0.027939677 0.036833107 0.073321842
0.028386235 -0.022672474 0.069926791
0.028332055 -0.019931704 0.070354842
-0.02416712 0.035837889 0.069860928
-0.026751697 0.037098229 0.069386207
0.030144811 -0.021077663 0.065675102
0.02915144 -0.017840773 0.066303305
0.027657449 -0.014899015 0.065798275
-0.022090912 0.036640763 0.066079192
0.031370103 -0.019857347 0.061131679
0.029591322 -0.017163694 0.06134402
0.027904093 -0.013435662 0.061898313
-0.016769052 0.035277247 0.06119781
-0.020811975 0.036007226 0.062189572
0.03061527 -0.015761346 0.057850443
0.029718459 -0.011366546 0.057564162
-0.012122691 0.033787668 0.05699759
-0.015535116 0.034141123 0.058078878
0.030287504 -0.0098215938 0.053371184
0.030108452 -0.0061455965 0.052445374
-0.0096051097 0.033991635 0.052587591
-0.013900816 0.033926964 0.05233603
0.030499637 -0.0080813169 0.048852824
0.030507565 -0.0048053265 0.049078606
-0.0057418942 0.033935606 0.048023455
-0.0086167455 0.034402907 0.047699623
0.030544579 -0.0028102696 0.044172369
0.030300915 0.00060626864 0.04392352
-0.0032832623 0.034122467 0.043399505
-0.0060347319 0.034328163 0.042666458
0.030734062 -0.0011433959 0.038569592
0.030656755 0.0023645759 0.039230101
0.0026071072 0.033933938 0.039345317
-0.00068747997 0.033886969 0.039038055
0.030490041 0.0046339035 0.034861915
0.029653966 0.0078369379 0.034347616
0.0049043894 0.033385098 0.034596525
0.00032192469 0.033560157 0.034786783
0.030997396 0.0060571134 0.03153985
0.03012675 0.0094723701 0.030542843
0.029529691 0.012984902 0.030591629
0.0096179247 0.034373045 0.030341737
0.0052685738 0.033530951 0.029348187
0.02970165 0.010760754 0.025732599
0.029342413 0.014624625 0.026283018
0.011089742 0.03508991 0.026605986
0.0097681284 0.035095155 0.024290703
0.029979348 0.016016901 0.021799378
0.029014349 0.020744443 0.021692328
0.025511265 0.024706364 0.021261744
0.016596675 0.034175575 0.021113209
0.013538003 0.035158277 0.021737926
0.0097388625 0.03525883 0.022513144
0.030244291 0.017765164 0.017388813
0.028997958 0.021925926 0.018172525
0.026005268 0.025599867 0.017884426
0.02320832 0.029634297 0.017524473
0.018651485 0.033140063 0.017633937
0.014462113 0.034691513 0.017182045
0.030349076 0.018937439 0.013804875
0.029613733 0.022657365 0.013516061
0.0266186 0.026221216 0.013075642
0.023524702 0.029941261 0.013177328
0.01970011 0.032393575 0.013279282
0.029105365 0.024327934 0.0097054467
0.027295709 0.027399361 0.0088564679
0.024319828 0.030464351 0.0092641637
0.026588738 -0.025976837 0.069264226
0.028047979 -0.024473757 0.063090913
0.030513167 -0.022811651 0.059601299
-0.021688879 0.034065843 0.057758741
0.03175354 -0.019347847 0.057859473
0.030203164 -0.01798436 0.053979091
-0.018640637 0.033861101 0.054265015
0.029403687 -0.016551942 0.05076053
0.02903372 -0.013895243 0.049304239
-0.015635073 0.035236597 0.04965701
-0.019742548 0.036566675 0.046649121
0.029677093 -0.011259288 0.045321129
-0.011438727 0.034382343 0.04526668
-0.014951587 0.035777569 0.044698738
-0.018610775 0.038580596 0.04362192
0.030289412 -0.0097177029 0.040871911
0.030338466 -0.0060998499 0.04088863
-0.0093618631 0.034879148 0.040499292
-0.014223158 0.037247121 0.040299378
-0.015411556 0.040955603 0.040545933
0.030553699 -0.00862661 0.03653165
0.030806005 -0.0046980083 0.036763363
-0.0043341517 0.033723891 0.036315374
-0.0074423552 0.034581661 0.036375277
0.030341864 -0.0038385093 0.03191518
0.029676259 0.0004876852 0.03257703
0.0014494061 0.032651186 0.032182001
-0.0028735995 0.033300638 0.032082044
0.030498981 -0.0020414889 0.02866175
0.029520929 0.0023125112 0.027925484
0.0011718273 0.032946646 0.027630411
-0.0018607974 0.032822192 0.028289787
0.029685557 0.0033021569 0.023292921
0.029125631 0.0067965686 0.023546509
0.0052732825 0.034082294 0.024070792
0.029629886 0.0093158484 0.019529693
0.0068200827 0.034626424 0.019357435
0.030235112 0.011842728 0.014954738
0.030672073 0.015529275 0.015950345
0.012166023 0.035078943 0.014838241
0.0083589554 0.035069704 0.015506022
0.03129077 0.011942804 0.010787688
0.030036509 0.01601696 0.010809623
0.028839111 0.021144748 0.01031097
0.017288625 0.032763422 0.010807507
0.013962507 0.034178734 0.011292987
0.028043449 0.021537691 0.0070577115
0.027756214 0.026906729 0.007018283
0.023837686 0.031241477 0.0068605393
0.018929243 0.032705367 0.0070839077
0.027060866 0.023519605 0.0030488521
0.026947081 0.027415335 0.0025562495
0.024343312 0.031467378 0.0029789954
0.020689905 0.033704877 0.0026925057
0.02621609 0.028240681 -0.0011584908
0.02400434 0.030654371 -0.00117217
-0.023861647 0.033014596 0.054920219
0.030332685 -0.022556841 0.052373908
-0.02283138 0.034002125 0.051984899
0.031029046 -0.022036791 0.047824465
0.029968023 -0.018630892 0.047915392
-0.023157656 0.035950303 0.047073625
0.03227818 -0.020528287 0.043763779
0.030606925 -0.01719439 0.043774925
0.030039251 -0.013503581 0.042935185
-0.017036557 0.036871135 0.042281143
-0.020643413 0.038986981 0.043847613
0.031533301 -0.016176552 0.038990699
0.030288339 -0.013076246 0.039539091
-0.013688385 0.036621749 0.037961714
0.03306973 -0.014384568 0.035390757
0.031221986 -0.010618299 0.03495764
-0.011037469 0.035070658 0.034417979
-0.014264166 0.037350655 0.034582548
-0.015645802 0.040303707 0.03663262
0.031195521 -0.0090859234 0.030848317
0.030935585 -0.0058692396 0.030291401
-0.0056564212 0.033091903 0.029718511
-0.0088685155 0.033854783 0.030160151
-0.01318717 0.035843074 0.030607305
0.030537009 -0.0079110563 0.026723437
0.030762076 -0.0039154589 0.026076041
0.030380249 0.00010931492 0.02568116
-0.0033731461 0.033046842 0.025975667
-0.0080341101 0.03290987 0.026035689
0.030782163 -0.0018238723 0.021969371
0.030553043 0.0013138652 0.022119753
0.00079739094 0.033186734 0.023000263
-0.0013629794 0.032931268 0.02118402
0.030509412 -0.0012048781 0.017931275
0.030692816 0.0032002032 0.017896764
0.029321671 0.006105572 0.01629924
0.0045571923 0.034390628 0.016570382
-0.00085031986 0.032672882 0.017603748
0.032096684 0.0053145289 0.013399921
0.030858755 0.0083835721 0.01399114
0.0053186417 0.034279168 0.013135396
0.032851934 0.0070785284 0.010610126
0.031267881 0.0097427964 0.0090756938
0.030019164 0.013271391 0.0079804882
0.010029256 0.033901811 0.009283565
0.0068834424 0.033800781 0.0089463517
0.031179011 0.011274874 0.0058702976
0.029594839 0.015232116 0.004795745
0.027464211 0.019341677 0.0043071061
0.015294313 0.033018172 0.0045581013
0.011649132 0.032601893 0.0038868636
0.028677225 0.014947444 0.00059743226
0.026639342 0.020107567 4.5284629e-05
0.027205706 0.023855388 0.00043614209
0.017676055 0.033204615 -0.00093851984
0.015760541 0.033568323 0.0021520704
-0.02683866 0.033754289 0.048734985
0.031547844 -0.015666544 0.031868212
-0.019392133 0.036713183 0.030464523
0.031013072 -0.015881985 0.029310696
0.029771268 -0.012598664 0.027642064
-0.011890709 0.033508122 0.027259223
-0.016058087 0.035242856 0.028139345
0.029963136 -0.010385692 0.023616098
-0.0061478615 0.032530785 0.022933923
-0.01026392 0.032728791 0.023309194
0.030301273 -0.0087563992 0.019348375
0.030396819 -0.0051223934 0.019630753
-0.0058068037 0.032174945 0.019252829
-0.0093034506 0.032738924 0.019978575
0.030888557 -0.0037680864 0.015346341
0.030441999 0.00099274516 0.014963172
-0.0030264258 0.032509983 0.014870547
0.030841827 -0.0017851591 0.01106035
0.031401455 0.0019178689 0.011946611
0.0011469722 0.032822788 0.010081761
-0.0011082292 0.033175886 0.01119294
0.031014442 0.0035378039 0.0070165843
0.030689061 0.0078881383 0.0063330978
0.0031052828 0.032573402 0.0061025172
0.030569851 0.0056213439 0.0022083074
0.030109048 0.0095149577 0.0024173111
0.0076477528 0.032073677 0.0021076053
0.0047082305 0.032013476 0.0027945191
0.03024888 -0.017569572 0.025867634
0.028560519 -0.015363485 0.025361381
-0.016989708 0.034034789 0.024944536
-0.021337569 0.03423351 0.024334185
0.030278563 -0.016696602 0.021481983
0.029578328 -0.014401972 0.022360764
-0.013244212 0.032858789 0.02224534
-0.016788483 0.033870518 0.021034054
0.029923856 -0.012308955 0.018097155
-0.010889769 0.03269285 0.016894482
-0.016040444 0.034072518 0.016307496
-0.019700825 0.036077559 0.017206483
0.03021878 -0.010008097 0.013317667
0.030484676 -0.0068762302 0.012261979
-0.0056298375 0.032097876 0.011871837
-0.010587871 0.032499194 0.012210689
0.030270338 -0.005382061 0.0083413646
-0.0056536198 0.031836033 0.0080382153
-0.0090848804 0.032139778 0.00869032
0.030167341 -0.00349769 0.004903242
0.02933532 -0.00026100874 0.0035314411
0.00040906668 0.031147003 0.0026641041
-0.0024854541 0.032328844 0.0044474155
0.029290795 0.0021781325 -0.00037716329
0.0021392107 0.031654179 -0.00069974363
0.027202606 -0.020199925 0.02140259
-0.023723483 0.034837902 0.022731267
-0.021355987 0.034724951 0.019855075
0.028901696 -0.017437786 0.014572076
0.027888775 -0.015054286 0.014066212
-0.018342853 0.035284221 0.014652394
-0.019701719 0.036379755 0.014511518
0.028652608 -0.017293245 0.0098433122
0.028573632 -0.012850016 0.0094660744
-0.012549102 0.033691227 0.0097685978
-0.015867174 0.035234511 0.010220282
-0.017804742 0.036498427 0.0068435222
0.029449046 -0.0092422962 0.0063616484
-0.0076448321 0.031576931 0.004358992
-0.010860264 0.032993913 0.0059549063
0.029953241 -0.0084269643 0.00025014579
0.029269218 -0.0057681501 0.0011939853
-0.0063927174 0.030835986 0.00050438941
-0.010786951 0.03191489 0.00042058527
0.027658343 -0.018153429 0.0066530854
0.027457595 -0.015548468 0.0068496019
0.027845562 -0.01430276 0.0030272752
-0.013225555 0.032189786 0.0014551729
-0.016358137 0.033013046 0.0024142712
