# .PCD v0.7 - Point Cloud Data file format
VERSION 0.7
FIELDS x y z
SIZE 4 4 4
TYPE F F F
COUNT 1 1 1
WIDTH 931
HEIGHT 1
VIEWPOINT 0 0 0 1 0 0 0
POINTS 931
DATA ascii
0.0098589556 0.059845649 0.82473356
0.013103886 0.058398858 0.82328343
0.017520169 0.058210477 0.82332599
0.02213241 0.058227718 0.82356304
0.027602153 0.058417417 0.82426679
0.031403046 0.05679569 0.82499993
0.0098547051 0.062886856 0.82437795
0.012892596 0.062711388 0.82207406
0.017485185 0.062680759 0.82167399
0.022113927 0.062770873 0.82285929
0.026563279 0.062667705 0.82401687
0.0098581584 0.066744238 0.82466674
0.013135472 0.066979818 0.8235144
0.017513115 0.067376353 0.82300746
0.021919725 0.067002065 0.82379055
0.025234204 0.065966316 0.8245334
0.017552484 0.070596226 0.82486665
0.013392854 0.053618301 0.82926691
0.01794214 0.05334831 0.82866699
0.02226229 0.053175081 0.8283779
0.027209511 0.053645976 0.82850677
0.033589058 0.052913398 0.82831115
0.037696633 0.052383546 0.82805932
0.04253193 0.052586969 0.82822514
0.046480324 0.05293411 0.82862234
0.0081805792 0.057851605 0.82793015
0.012585076 0.05578053 0.82701653
0.017596031 0.055389047 0.82691091
0.022203742 0.055342898 0.82622212
0.027442262 0.055647504 0.82618654
0.033105653 0.05767443 0.82559973
0.037599709 0.057627767 0.82592756
0.04211637 0.057466254 0.82661813
0.046768859 0.056810781 0.82801688
0.0069757053 0.062271092 0.82752252
0.029489907 0.063339904 0.82528317
0.032990709 0.063028008 0.82622206
0.037651584 0.063092157 0.82705921
0.042338356 0.062667497 0.82822239
0.046245556 0.060929198 0.82903349
0.008726554 0.068068579 0.82676399
0.012175223 0.069103666 0.82536662
0.02295352 0.06911204 0.82546651
0.027819566 0.067805804 0.82655144
0.033067882 0.067796782 0.82814842
0.037547916 0.067676343 0.82903349
0.04086471 0.066376962 0.82966667
0.0098977387 0.072402932 0.82797796
0.012966574 0.07229811 0.82677764
0.017572114 0.072403364 0.82578325
0.022210136 0.072268419 0.82643676
0.027444284 0.072256438 0.82790315
0.032224782 0.072286867 0.82917166
0.0083422344 0.077656418 0.82656682
0.012992977 0.077069134 0.82845938
0.017425172 0.076829478 0.82795012
0.02207583 0.07689327 0.82864189
0.025878115 0.07606604 0.82873362
0.030040566 0.075655289 0.82986665
0.014548244 0.080202572 0.82900029
0.016879905 0.080260597 0.8296001
0.034889903 0.049705885 0.83479971
0.037952926 0.04963972 0.8336888
0.042920329 0.049008526 0.83352005
0.047005452 0.049054474 0.83429325
0.0087050349 0.053576715 0.83221704
0.012742171 0.051718943 0.83222663
0.017306915 0.05144424 0.83153331
0.022380671 0.051131904 0.83273333
0.027337726 0.051730085 0.83241332
0.031368602 0.051719587 0.8322401
0.040881123 0.050964072 0.82999998
0.048164263 0.051541697 0.8310222
0.051856522 0.052648742 0.83223712
0.055070333 0.053530261 0.83389974
0.0064492268 0.056078374 0.83143306
0.048659958 0.058730997 0.8306666
0.051898189 0.057340581 0.83289629
0.055134166 0.055921923 0.83486658
0.043984115 0.064870104 0.83013332
0.047419682 0.062916756 0.83153337
0.050956532 0.061067987 0.83444428
0.0068479222 0.06816902 0.83266675
0.039355274 0.069530651 0.83046663
0.042688623 0.068246253 0.83127505
0.047097102 0.067369901 0.83345914
0.0080031622 0.073116131 0.83171332
0.034210239 0.073687769 0.83088881
0.037889957 0.072781526 0.83228886
0.042619538 0.072905786 0.8337183
0.046544671 0.071412116 0.83439988
0.0083866213 0.077559233 0.83137369
0.019211212 0.078761682 0.83006662
0.023857381 0.078768007 0.83013326
0.027511699 0.077856988 0.83138895
0.032093879 0.077292457 0.83294153
0.037218165 0.076089822 0.83463323
0.0091712968 0.082051016 0.83209234
0.012839713 0.082140028 0.83104163
0.017912801 0.082421124 0.83137143
0.022356041 0.082027085 0.8318519
0.026560059 0.081716873 0.83395547
0.014010186 0.086561918 0.83379996
0.017743461 0.086875908 0.83383685
0.021901585 0.086401857 0.8342554
0.012885396 0.049390748 0.83824438
0.017828012 0.049104769 0.83781117
0.022496944 0.049065176 0.83713335
0.027185986 0.048294522 0.83729625
0.032177337 0.048285332 0.83713329
0.037678361 0.047416955 0.83749527
0.042595092 0.046309836 0.83760965
0.047498476 0.04649061 0.83751112
0.051940415 0.048733253 0.83717144
0.05698688 0.049343903 0.83921349
0.062453799 0.048789173 0.83907509
0.0029833918 0.053757954 0.83745837
0.0071396404 0.052407134 0.83661097
0.057237294 0.052686077 0.83632714
0.060900036 0.051529974 0.83921683
0.056853596 0.057638224 0.83723819
0.052636828 0.062767997 0.83641118
0.055981345 0.062073462 0.83822668
0.0068671117 0.068356946 0.83500004
0.048974358 0.069219157 0.83603323
0.052227139 0.067058116 0.83817041
0.0063560759 0.072590031 0.83605558
0.047645278 0.073560834 0.83614284
0.051394373 0.072267033 0.83917141
0.0068835602 0.077862561 0.83700001
0.034396719 0.078752041 0.8354221
0.038303163 0.078259058 0.83647603
0.042763058 0.07782039 0.83653331
0.047307093 0.077720821 0.83755839
0.051546566 0.075782597 0.8398332
0.028175749 0.083447218 0.83575559
0.032169852 0.082371615 0.83692676
0.037622191 0.082863614 0.83890301
0.042890232 0.081562229 0.83901668
0.046830714 0.08122161 0.83953327
0.011310224 0.087245464 0.83739477
0.023487607 0.088066898 0.83533329
0.027171036 0.087183625 0.83679253
0.031706009 0.086948641 0.83881903
0.035603091 0.086411327 0.83937758
0.014072369 0.091619067 0.83749342
0.017801424 0.091829963 0.83657783
0.022495303 0.091880545 0.83703703
0.026908487 0.091087714 0.83834678
0.030407393 0.09064211 0.83999991
0.017861741 0.095261693 0.83939981
0.020997727 0.095284387 0.83959991
0.028975824 0.043970212 0.84393334
0.032147907 0.044002622 0.84455556
0.036861163 0.043988734 0.84428889
0.042496704 0.043641277 0.8436535
0.047510929 0.043307204 0.84326667
0.052647348 0.044022307 0.84493321
0.057333615 0.043598011 0.84433067
0.061935451 0.043120828 0.84268659
0.0071619591 0.047539026 0.84360009
0.011994032 0.046862945 0.84266663
0.017929571 0.046641637 0.84258336
0.022636754 0.046235401 0.84233332
0.027336033 0.045432154 0.84193343
0.032048751 0.045432154 0.84193343
0.037528541 0.045415968 0.84163338
0.049230143 0.045349423 0.8404001
0.052789278 0.046070628 0.8421734
0.057192232 0.046566509 0.84224129
0.061843663 0.04657837 0.84143192
0.0026119128 0.051803358 0.8436833
0.0065303268 0.050518915 0.8418833
0.061564978 0.052955672 0.84117728
0.058652885 0.059438024 0.84066671
0.061983034 0.058056038 0.84330201
0.058345716 0.063048653 0.84188324
0.062018398 0.061229598 0.84380549
0.057007026 0.067198798 0.84238333
0.053986412 0.071998835 0.84124446
0.056129877 0.071840391 0.84398323
0.049234044 0.079748482 0.84046668
0.0525054 0.077603944 0.84264445
0.042990778 0.083864234 0.84097326
0.047980703 0.083478585 0.84203809
0.051813759 0.081671543 0.84418327
0.010052211 0.089175001 0.84089994
0.032761235 0.089090183 0.84009993
0.038125291 0.087999515 0.84128898
0.043097861 0.087837487 0.84306669
0.047423862 0.087722056 0.84411418
0.011194147 0.092723563 0.8426854
0.027683377 0.093434051 0.84051657
0.032236494 0.09259142 0.84173352
0.037372831 0.092380829 0.84289706
0.042269517 0.092471682 0.84447616
0.0037884933 0.097238421 0.84300005
0.0075756432 0.097727537 0.84451598
0.012431459 0.09722472 0.84287781
0.017900657 0.097816236 0.84122235
0.022813018 0.097270831 0.84157509
0.027362883 0.09720698 0.84271842
0.03211344 0.097314507 0.84365183
0.036325194 0.096834861 0.84403324
0.040816106 0.095859393 0.84466654
0.013245095 0.10145414 0.84452361
0.017945869 0.1019852 0.84334075
0.022483457 0.10186023 0.84393322
0.02701772 0.10091227 0.84421659
0.032160137 0.10059965 0.84488893
0.017973419 0.10528407 0.84464425
0.021127766 0.10530346 0.84479988
0.044994343 0.039505593 0.84920031
0.047368608 0.039504044 0.84916693
0.053991396 0.038995195 0.84955573
0.057614367 0.037892714 0.8484689
0.061208948 0.038883213 0.84711123
0.0038193513 0.044279329 0.84986669
0.0073683378 0.043782197 0.84790021
0.012505731 0.043378159 0.84771687
0.018052598 0.043568887 0.84836024
0.022802519 0.043417916 0.84850019
0.027190158 0.043190856 0.84714681
0.032268833 0.04259235 0.84775585
0.03733338 0.041965105 0.84785336
0.0424143 0.041673221 0.84740967
0.048439939 0.04137823 0.84711671
0.052779831 0.042106301 0.84706676
0.057451118 0.041562147 0.84605873
0.06133505 0.04089281 0.84522229
0.0024246729 0.047516584 0.84770012
0.0061669941 0.045642622 0.8458333
0.01325623 0.04560845 0.84519982
0.017985407 0.045608446 0.84519994
-0.00093496504 0.052143861 0.84921426
0.0011733877 0.050972324 0.8472507
0.06368304 0.053456962 0.84500009
0.06541343 0.053583488 0.84700006
0.063758403 0.05509394 0.84600008
0.065567888 0.055289313 0.84900004
0.061915271 0.063644305 0.84668505
0.059052899 0.069290198 0.8464002
0.060775518 0.067877628 0.84841114
0.058496069 0.072845332 0.84746009
0.054278746 0.078681193 0.8458001
0.05671509 0.077203713 0.84683913
0.053387336 0.08285483 0.84665358
0.056454923 0.08173009 0.84886688
0.0085421046 0.08820942 0.84666663
0.049554296 0.088922486 0.84593332
0.052361067 0.087179415 0.84757167
0.0022320622 0.094771907 0.84900004
0.0079126824 0.093270935 0.84685099
0.044293094 0.093900345 0.84588891
0.048033968 0.092965126 0.84691864
0.051860675 0.09164127 0.84925574
0.0064369366 0.096613474 0.84668893
0.037957717 0.09855596 0.8453334
0.04282067 0.09800297 0.84689361
0.047210164 0.097635314 0.84917337
0.0079023717 0.10196412 0.84577638
0.011373019 0.10322896 0.84583032
0.024286566 0.10376478 0.84506661
0.027773559 0.10320792 0.84565341
0.032208513 0.10311204 0.84615582
0.036956914 0.1023641 0.84647435
0.041576724 0.10236666 0.84812522
0.045556303 0.10171535 0.84983331
0.0085443743 0.10714214 0.84689176
0.012496381 0.1071775 0.84718293
0.017990248 0.10774169 0.84543341
0.022936217 0.10723817 0.84610844
0.027532084 0.10726999 0.8479113
0.032038014 0.106832 0.84861135
0.037070941 0.1058381 0.84908891
0.012632037 0.11120099 0.84868735
0.018023293 0.11188124 0.84700018
0.022591595 0.11181137 0.84796691
0.025987072 0.1105823 0.84913355
0.018392023 0.11599499 0.8494401
0.02122947 0.1152847 0.848867
0.054236989 0.034410167 0.85342646
0.056725983 0.034311026 0.85095215
0.0086187804 0.039741285 0.85426676
0.012596857 0.039725397 0.85392499
0.019780567 0.039759889 0.85466683
0.023752626 0.039738186 0.85420012
0.027732387 0.039734054 0.85411119
0.032510202 0.039733019 0.85408896
0.037248865 0.039691154 0.85318881
0.0423146 0.039030038 0.85264665
0.047582489 0.037830915 0.85302228
0.052225403 0.037630819 0.85276186
0.0025610803 0.043187201 0.85328674
0.0066853254 0.041831724 0.85155332
0.012552011 0.0411667 0.85088331
0.018124219 0.041603729 0.85174161
0.022885183 0.041199759 0.85156655
0.027622595 0.041159984 0.85074431
0.032379173 0.041155145 0.85064441
0.035527952 0.04112719 0.85006684
-0.0015762651 0.047935139 0.85304004
0.00065062742 0.045952011 0.85156661
-0.0020007621 0.051315356 0.8529377
0.064107455 0.06488961 0.85063159
0.065683737 0.064879566 0.85050005
-0.001471141 0.069382839 0.85400003
0.0024403539 0.067805216 0.85250002
0.063099556 0.067855068 0.8530857
0.065905772 0.066686325 0.85337502
-0.00094023405 0.071500972 0.85400003
0.06187344 0.073370337 0.85261667
0.059436638 0.077665843 0.8519001
0.061941817 0.076230317 0.85359168
0.057791241 0.083129309 0.85106671
0.0069986973 0.088663064 0.85100001
0.054571837 0.087806255 0.85036659
0.056643602 0.086755842 0.85170007
0.0054115718 0.094995156 0.85100001
0.053622451 0.092735656 0.85206109
0.056414206 0.091385409 0.85425025
0.0030286359 0.096521437 0.85049999
0.049472746 0.098593317 0.85130829
0.053171009 0.096842073 0.85332394
0.0038244459 0.10291028 0.85100001
0.0054147514 0.10297075 0.85150003
0.043483838 0.1044483 0.85063326
0.047245327 0.10352409 0.85170555
0.05164393 0.10173156 0.85439551
0.032889273 0.10860693 0.85015553
0.037132513 0.10838801 0.85050541
0.041967183 0.10779063 0.85202968
0.046625882 0.10780143 0.85368764
0.012410362 0.1138355 0.85219991
0.024430258 0.11386645 0.8500666
0.027835405 0.1126271 0.85114992
0.032252181 0.1124126 0.85252088
0.037256569 0.11192454 0.85333902
0.041244201 0.11115316 0.85351682
0.014576063 0.11707395 0.85326684
0.017732704 0.11848736 0.85202497
0.023072753 0.11737521 0.85113746
0.0274885 0.11705973 0.85358101
0.031734936 0.11607021 0.85465032
0.018481415 0.12132664 0.85360014
0.022742527 0.12208886 0.85365009
0.026153367 0.12082786 0.85456699
0.051870201 0.033537969 0.85818386
0.0030579795 0.039952189 0.85880005
0.0062465658 0.039856039 0.85673356
0.01264786 0.038292117 0.85740006
0.017838761 0.038275436 0.85706681
0.022803484 0.037817203 0.85700977
0.027829401 0.037480041 0.85710019
0.032612976 0.03746675 0.85678893
0.03763831 0.036898348 0.85750008
0.042032253 0.036265392 0.85800964
0.04658084 0.035464831 0.85653359
0.050677542 0.035576176 0.85602236
-0.0015863987 0.043447383 0.85842687
0.0011869515 0.041987244 0.85686666
-0.0037483042 0.047530841 0.85862589
-0.0036073672 0.052624274 0.85704541
-0.0025485263 0.057555813 0.85925007
-0.002010107 0.061164558 0.85755563
-0.00094243599 0.066891447 0.85600007
0.00065401476 0.066891447 0.85600007
0.064680159 0.068662241 0.85823071
0.063784555 0.072542801 0.8569389
0.062144347 0.078868054 0.85636663
0.059714209 0.082803629 0.85587865
0.062170375 0.082780562 0.85893977
0.059184778 0.088058233 0.85743999
0.06159614 0.086387843 0.8598665
0.058232408 0.093172498 0.85753995
0.054875568 0.098634139 0.85510033
0.057781659 0.09710253 0.8576287
0.054542474 0.10233565 0.85612512
0.057100959 0.10183134 0.85858333
0.048500258 0.10977728 0.85516697
0.051797979 0.10681805 0.85694087
0.055102341 0.10622973 0.85863328
0.034144863 0.11454512 0.85513371
0.037373085 0.11466124 0.85600001
0.042420726 0.11360706 0.85661906
0.046799738 0.11298698 0.85687923
0.05127915 0.11122312 0.85895997
0.011842206 0.11798107 0.85697585
0.028568812 0.11934049 0.85530031
0.032823455 0.11834336 0.85630482
0.037433326 0.11803746 0.85738528
0.042100679 0.11803455 0.8588168
0.047119837 0.11693842 0.85907787
0.050358791 0.11515232 0.85966671
0.013466991 0.12220244 0.85863805
0.016629728 0.12339897 0.85664761
0.024595033 0.12418611 0.85580021
0.028020818 0.12294124 0.85682499
0.032674506 0.12296634 0.85839272
0.037513196 0.1222839 0.85921127
0.040745363 0.12156781 0.85979998
0.017941356 0.12757608 0.85825336
0.023021387 0.12749436 0.85662961
0.027870204 0.1277478 0.85833347
0.032712843 0.12710674 0.85940009
0.019083379 0.13106748 0.8591668
0.022679107 0.13141403 0.85881686
0.027103821 0.13110819 0.85943341
0.051445648 0.028959284 0.86446673
0.019178875 0.033745073 0.86348355
0.022252845 0.033122294 0.8640002
0.028019575 0.033725321 0.86297792
0.033247184 0.033319175 0.86286664
0.0376839 0.03212437 0.86313337
0.042751331 0.032589227 0.86329538
0.04732313 0.032569475 0.86278576
0.051824756 0.031468075 0.86273783
-0.0057805739 0.038554985 0.86328566
-0.002557413 0.037706692 0.86225635
0.0019459492 0.037883189 0.86263639
0.0070899986 0.038506493 0.86220002
0.011925876 0.036666859 0.86297792
0.017009502 0.035841856 0.8624168
0.023176664 0.035306517 0.86238903
0.027968332 0.035265122 0.86137772
0.032766126 0.035242371 0.86082244
0.035943106 0.035208706 0.86000019
-0.00737934 0.042502031 0.86191231
-0.0032416657 0.041652519 0.86094284
0.00065747846 0.040032819 0.86053312
-0.0069196941 0.047873609 0.86174357
-0.0063067605 0.051862914 0.86202383
-0.0025629967 0.054627322 0.86350006
-0.0028806345 0.057468683 0.86273348
0.0014624193 0.058541138 0.86200005
-0.0014859257 0.063582875 0.86150002
0.0014624194 0.062549859 0.86200005
0.0014590262 0.065604262 0.86000001
0.063227251 0.084825099 0.86023986
0.063040748 0.088404842 0.86133581
0.06503959 0.089913309 0.86300004
0.062552601 0.09269359 0.86197662
0.065099888 0.094817154 0.86379993
0.061527703 0.098165303 0.86262655
0.065165207 0.098128878 0.8646667
0.058497444 0.10337576 0.86146677
0.060128506 0.10181397 0.86181676
0.06517148 0.10296445 0.86475003
0.056499906 0.10780233 0.86162519
0.052858409 0.11295514 0.86119998
0.055425346 0.11247637 0.86366683
0.048797093 0.1184516 0.8603999
0.052125704 0.11711545 0.8623476
0.0081740916 0.12315818 0.86347342
0.011363403 0.12254222 0.86102611
0.037551995 0.12481173 0.86011106
0.042599186 0.12291045 0.86079997
0.047245234 0.12178845 0.86135554
0.051216602 0.12174286 0.8633067
0.0087078102 0.12524411 0.86309105
0.011753732 0.12752151 0.86220533
0.015105136 0.12890512 0.86073315
0.032772109 0.12973885 0.86095542
0.037608996 0.12820691 0.86141479
0.042714529 0.12722647 0.86253345
0.047369003 0.12596312 0.86361349
0.050655581 0.12548243 0.86473352
0.012256116 0.13173638 0.86354649
0.01720744 0.13335644 0.86155999
0.023454715 0.13388097 0.86081326
0.028215673 0.13354884 0.86191434
0.032515354 0.13224541 0.86267346
0.03769866 0.13172352 0.86346692
0.041755438 0.13021272 0.86410022
0.017782582 0.13796772 0.86324555
0.023172993 0.13795678 0.86226302
0.027626801 0.13690537 0.86322516
0.031307541 0.13515469 0.86486697
0.018391589 0.14149718 0.86430019
0.022415707 0.14145899 0.86406684
0.027411234 0.029118961 0.86923343
0.032614484 0.028656255 0.86747837
0.038165681 0.0283898 0.86674672
0.042385973 0.028402757 0.86713982
0.047544468 0.028231805 0.86683202
0.0039038411 0.033139754 0.86866665
0.0067396583 0.033549987 0.86883324
0.012308803 0.033248588 0.86729586
0.016816579 0.033047251 0.86624259
0.023640398 0.031323113 0.86759341
0.028158685 0.031472508 0.86727786
0.032651182 0.031275697 0.86628675
0.041825786 0.030606246 0.86556685
0.047481924 0.030609783 0.86566687
0.054022294 0.030656932 0.86700004
0.0026827252 0.035879813 0.86655211
0.0071303472 0.036307115 0.86713904
0.010348674 0.035442065 0.86570019
-0.010668634 0.04360947 0.86800003
-0.010644051 0.045119911 0.866
-0.0066143936 0.054848738 0.86700004
-0.0058020963 0.056428961 0.86650002
-0.00095289527 0.059583835 0.86550003
-0.0041957251 0.062214658 0.86850005
0.06362813 0.098246813 0.86569452
0.062335733 0.10316309 0.86641717
0.066299513 0.10321486 0.86684448
0.058884505 0.10809355 0.8671667
0.062645711 0.10628027 0.8688454
0.067151092 0.1067649 0.86950004
0.057215869 0.112831 0.86638898
0.053947102 0.11919406 0.86579317
0.056323446 0.11750112 0.86756009
0.0071138344 0.12230301 0.86500001
0.053589679 0.12292285 0.8665334
0.055708438 0.1227386 0.86807775
0.0079312846 0.1273002 0.86615843
0.047466457 0.12839524 0.86539179
0.052461661 0.12755816 0.86790955
0.055797566 0.12616929 0.86946672
0.0079435129 0.13069278 0.86728573
0.034541499 0.13357681 0.86506689
0.03783128 0.13379641 0.86648887
0.042925473 0.13269545 0.86680955
0.047610175 0.1324176 0.86800736
0.051432449 0.13145454 0.86876661
0.013615068 0.13727266 0.86807895
0.028908961 0.13847099 0.86548352
0.033196047 0.13726939 0.86678338
0.037917733 0.13733596 0.8684814
0.042803191 0.13742119 0.86902225
0.046624232 0.13645807 0.86975574
0.016301535 0.14255647 0.86747772
0.022463681 0.14337544 0.86593342
0.028143326 0.14189774 0.86674076
0.033065647 0.14221193 0.86866289
0.036885146 0.14128648 0.86960012
0.017674385 0.14706428 0.86868882
0.022506595 0.1468761 0.86757499
0.028004434 0.14686754 0.86872089
0.032014582 0.14611705 0.86946678
0.021751337 0.1504761 0.86973351
0.025001207 0.15051071 0.86993355
0.023419533 0.028382141 0.87145007
0.025037613 0.027564241 0.87119997
0.06236665 0.10852169 0.87061793
0.065575525 0.10683994 0.87011123
0.059220638 0.11276557 0.87211657
0.062488418 0.11117011 0.87232679
0.06569276 0.11189634 0.87166673
0.058864549 0.11772736 0.87285
0.065823391 0.11536723 0.87340003
0.058410063 0.12250213 0.87214619
0.061018072 0.12202878 0.87456667
0.007160095 0.12957646 0.87062496
0.054221697 0.12951317 0.87020022
0.057835244 0.12784855 0.87265682
0.011214811 0.13437715 0.87025005
0.053213347 0.13347292 0.87138897
0.056554615 0.13206439 0.87279743
0.011661991 0.13811597 0.87341511
0.048289463 0.13819978 0.87053347
0.05227581 0.13774277 0.87252378
0.056131281 0.13505913 0.87466675
0.012873136 0.14288448 0.87277132
0.038550358 0.14306496 0.87057799
0.042897247 0.14258255 0.87092614
0.047842361 0.14279717 0.87223327
0.051162295 0.14217243 0.87338328
0.013041037 0.14747684 0.87304991
0.015274216 0.14734833 0.87036783
0.029870808 0.14890385 0.87000012
0.033686649 0.1479557 0.87076682
0.038086239 0.14768223 0.87233341
0.042770389 0.14734258 0.87307137
0.047546476 0.14678955 0.87427509
0.016928596 0.15249854 0.87204188
0.021772131 0.15304954 0.87056679
0.027699493 0.15251134 0.87127268
0.032768425 0.15244864 0.87308091
0.036537986 0.15125461 0.87423337
0.018043844 0.15654247 0.8734889
0.021823399 0.15746902 0.8726148
0.02693093 0.15698266 0.87330002
0.030026449 0.15781376 0.87453341
0.062744908 0.11406893 0.87590629
0.062632099 0.11729255 0.87716746
0.066027708 0.11735508 0.87611115
0.062204707 0.12243658 0.8774851
0.067931108 0.12273109 0.87960005
0.06163232 0.1269255 0.87749302
0.059115399 0.13250095 0.87657499
0.061345354 0.1316793 0.8792572
0.01046144 0.13675909 0.87513345
0.054564372 0.13847667 0.87570012
0.05731187 0.13749449 0.87774658
0.0088743716 0.14400204 0.87960005
0.010482803 0.1419324 0.87692052
0.053555995 0.14275821 0.87698889
0.056424327 0.14148909 0.87923324
0.010481422 0.14680757 0.87680483
0.043125473 0.14985661 0.87556678
0.048865356 0.14830124 0.87600011
0.05275736 0.14671583 0.87821996
0.013203827 0.15167324 0.87665623
0.034974068 0.15398744 0.87590009
0.038605414 0.15266749 0.8767401
0.043461155 0.15230861 0.87762386
0.048169527 0.15194124 0.87819624
0.051493276 0.15126765 0.87903309
0.013780755 0.15528645 0.87864292
0.01661793 0.15827507 0.87709171
0.027605709 0.15958944 0.87535012
0.032177925 0.15831076 0.87599534
0.03701096 0.15707842 0.87769669
0.042072043 0.15680498 0.87913734
0.046587393 0.1553967 0.87926644
0.018158983 0.16189693 0.87903309
0.022140175 0.16297162 0.8771168
0.026852304 0.16302326 0.87739593
0.031780135 0.1625064 0.87791115
0.036460418 0.16187295 0.87890548
0.022394715 0.16680697 0.87905818
0.026578862 0.16683134 0.87918645
0.031823859 0.16518106 0.87911087
0.035135116 0.16533555 0.87993312
0.064684488 0.11952202 0.88006663
0.066328734 0.11952725 0.88010538
0.064759612 0.12294004 0.88108891
0.067477793 0.12375802 0.88224965
0.064158633 0.12829399 0.88185054
0.068192191 0.12813075 0.88298601
0.063483939 0.13296582 0.88237309
0.067618936 0.13301274 0.88267589
0.059826102 0.13768156 0.88103324
0.062484447 0.13810737 0.88376111
0.067085586 0.13836631 0.88391155
0.058688324 0.14291708 0.88155717
0.062477469 0.14302407 0.88366741
0.054333489 0.14856398 0.88077766
0.057432652 0.14769779 0.88212222
0.0618922 0.14783016 0.88414466
0.012227621 0.15308858 0.8848334
0.052871782 0.15292352 0.88150829
0.056299284 0.15165806 0.88369161
0.013827542 0.15827462 0.88162583
0.04335697 0.15884832 0.88026655
0.047293466 0.15753905 0.88095415
0.051462065 0.15773129 0.88317782
0.013873143 0.16126372 0.88453311
0.016301304 0.16245514 0.88206667
0.038457312 0.16305053 0.88084984
0.04177453 0.16235252 0.88150364
0.046380982 0.1614196 0.88313329
0.050182808 0.16131841 0.88483316
0.017677188 0.16716115 0.88236672
0.020925576 0.16817003 0.88048887
0.027768798 0.16872106 0.88051665
0.031897247 0.16802146 0.8811388
0.03691525 0.16760032 0.88323814
0.041074168 0.16612476 0.88413346
0.012193996 0.17400624 0.88240004
0.017818363 0.17330265 0.88383329
0.022062793 0.17232607 0.88219631
0.026545484 0.17220071 0.88275242
0.031588938 0.17144614 0.88400841
0.013017762 0.17648391 0.88247347
0.016916959 0.17702723 0.88343257
0.022113761 0.17682995 0.88420558
0.013863109 0.18334457 0.88389361
0.015519992 0.18179826 0.88437289
0.065080166 0.13754758 0.88544989
0.065620564 0.14219262 0.88531375
0.06012265 0.14989258 0.88539982
0.065158151 0.14678304 0.88651115
0.056858763 0.15383749 0.88598877
0.061948929 0.1527967 0.88791114
0.065175705 0.15012114 0.8867501
0.012271358 0.15694118 0.88799852
0.05356285 0.1590862 0.88614982
0.056998547 0.15697001 0.88816679
0.012836943 0.16207035 0.88896185
0.015548542 0.16482733 0.88599992
0.047255736 0.16410157 0.88563979
0.052295573 0.1627149 0.88705981
0.05597806 0.16106825 0.88951135
0.012834761 0.16755705 0.88882512
0.016360834 0.16798121 0.88524979
0.03866614 0.16970147 0.88563335
0.041989323 0.16840838 0.88604975
0.047020342 0.16756964 0.88742775
0.051565442 0.16667941 0.88833809
0.013376702 0.17210168 0.88811606
0.016211787 0.17177804 0.88615334
0.028749362 0.17378128 0.88543314
0.032414444 0.17411603 0.88629979
0.036847785 0.17297746 0.88658732
0.042091805 0.17212231 0.88820547
0.04669014 0.17076685 0.88903344
0.050470162 0.17051902 0.88990021
0.013893637 0.17962809 0.88583994
0.018030234 0.17968756 0.88613319
0.022162126 0.17969209 0.88615537
0.027126936 0.17808519 0.88635904
0.032129113 0.17749755 0.88754433
0.037360448 0.17728424 0.88824755
0.040879469 0.1765219 0.88886666
0.013888303 0.18120635 0.88550001
0.01755281 0.18284358 0.8870514
0.022188745 0.18320991 0.88722205
0.027170984 0.182503 0.88779992
0.032175824 0.18188988 0.8888371
0.036844164 0.18103079 0.88949347
0.013914444 0.18732409 0.88716662
0.017256392 0.18684974 0.8888377
0.022227898 0.18766642 0.888789
0.02699795 0.18666193 0.88892508
0.030527744 0.18525773 0.88913339
0.013943198 0.19019112 0.88900012
0.015614063 0.19034801 0.88973349
0.022244252 0.19028622 0.88944465
0.026400046 0.19034801 0.88973355
0.010681 0.15458804 0.89349997
0.065539807 0.15344948 0.89170384
0.011227789 0.15837084 0.89295655
0.058874179 0.1592171 0.89150023
0.061770361 0.15743728 0.89214772
0.0090234382 0.16472168 0.89437497
0.011096718 0.16331173 0.893493
0.05780825 0.16320245 0.89213353
0.060680576 0.16208896 0.8936168
0.011218968 0.16651431 0.89210039
0.053848952 0.16822214 0.89088356
0.05645309 0.1677248 0.89264458
0.043839656 0.17386235 0.89006692
0.047538619 0.17337185 0.89094698
0.052269269 0.1726329 0.89226705
0.055717118 0.17134303 0.89419997
0.043211699 0.17765167 0.89080018
0.047306463 0.17772493 0.89282978
0.051361732 0.17759694 0.89386004
0.012349688 0.18453996 0.89366674
0.037662383 0.18361291 0.8911835
0.042113684 0.1825431 0.89304185
0.0457348 0.18141794 0.89466667
0.0189413 0.18877771 0.89013362
0.028910629 0.18883428 0.89040023
0.032499079 0.18772686 0.89201683
0.037335288 0.18695532 0.89328903
0.041561976 0.18640369 0.89463341
0.017529279 0.1927513 0.89223069
0.02230105 0.19326125 0.8917169
0.027564233 0.19315942 0.89288586
0.031489719 0.19102192 0.8928836
0.01736963 0.19640346 0.89469957
0.022357196 0.19624506 0.89397782
0.026550872 0.19642922 0.89481664
0.0073975655 0.14224018 0.89950001
0.0090636788 0.15793598 0.89836371
0.010701009 0.15654284 0.89517397
0.064158268 0.15828924 0.89563358
0.066621065 0.15773626 0.89880925
0.0086407699 0.16205332 0.898036
0.062956452 0.16262943 0.89752692
0.059144933 0.16827957 0.89560026
0.061535943 0.1670544 0.89797807
0.05412396 0.17491062 0.89543337
0.057856388 0.17275003 0.89632016
0.061574668 0.17106114 0.89854479
0.053596169 0.17833678 0.89591116
0.05741217 0.17684798 0.89786696
0.061100446 0.17576365 0.89980036
0.044113852 0.18494612 0.89563334
0.047780767 0.18258399 0.89548665
0.052798901 0.18241061 0.8972097
0.056600302 0.18126249 0.89940041
0.012394987 0.18772063 0.89694446
0.036592379 0.18991949 0.89551663
0.042877652 0.18793344 0.89597505
0.047522988 0.18687983 0.89691502
0.051609538 0.18680823 0.89817363
0.014052202 0.19334467 0.89595002
0.032842264 0.19287625 0.89570838
0.037743479 0.19245405 0.89734304
0.042308997 0.1916078 0.89784783
0.047632258 0.19149005 0.89897805
0.051024061 0.19079964 0.89966697
0.014104394 0.19573559 0.89927781
0.017420502 0.19867463 0.89744109
0.022398466 0.198272 0.89562225
0.027847372 0.19799438 0.89625013
0.032290332 0.19687283 0.89778352
0.036464442 0.19628142 0.89922255
0.019119345 0.20141745 0.8985002
0.022694478 0.20163968 0.89789546
0.027282098 0.20199263 0.89827108
0.0074304622 0.13951135 0.90350002
0.0040599345 0.1411764 0.90340006
0.0065765106 0.14182448 0.90216672
0.0065884902 0.14710861 0.90370834
0.0091026518 0.15274146 0.90222645
0.0071414798 0.15785325 0.90266681
0.068914473 0.1596311 0.9032259
0.0065842168 0.16254826 0.90310001
0.064525969 0.16422325 0.90076697
0.067023635 0.16256487 0.90272009
0.0090902783 0.1676179 0.90100002
0.06386967 0.16794959 0.90098017
0.066379853 0.16801441 0.90313339
0.063475989 0.17334692 0.90173906
0.066415384 0.17230764 0.90361673
0.05945313 0.17920409 0.90026689
0.062954411 0.17793156 0.90230477
0.066403009 0.17647628 0.90344834
0.058444727 0.18345799 0.90196675
0.061926793 0.18212719 0.90368891
0.054072473 0.18825972 0.90152514
0.056833476 0.18704844 0.90310001
0.043497048 0.19425105 0.90015018
0.047750834 0.19448 0.90121108
0.052529026 0.19273058 0.90244007
0.03427054 0.19931492 0.90033352
0.038219098 0.19835679 0.90105009
0.042735439 0.19796 0.90178519
0.047833707 0.197696 0.90277141
0.052132215 0.1959947 0.90433335
0.018353064 0.20303354 0.90196276
0.021685692 0.20442256 0.90070009
0.02926236 0.20454362 0.90123343
0.032639798 0.20296341 0.9016555
0.037725721 0.20234294 0.90263337
0.042506851 0.20250073 0.90408671
0.047497578 0.20105474 0.90439171
0.019242054 0.20691413 0.90426677
0.02255179 0.20718135 0.9017666
0.027372083 0.20764191 0.90220481
0.031605627 0.20744967 0.90415555
0.037363835 0.20561132 0.90408331
0.023626 0.21161847 0.90424001
0.027340144 0.21164608 0.90436012
0.0032377969 0.13193971 0.90923214
0.0032381332 0.13701305 0.90922922
0.0057740388 0.13513903 0.90800005
0.0023833988 0.14215316 0.90725994
0.0057581412 0.14318804 0.90550005
0.0030589425 0.14706758 0.90657026
0.0066012703 0.14989999 0.9053393
0.0035159467 0.15090445 0.90800065
0.0071197348 0.15286477 0.90693933
0.0040868982 0.15818429 0.90939975
0.006326864 0.15568458 0.90633774
0.0040841205 0.1623047 0.90878171
0.069975115 0.16181865 0.90606689
0.070867643 0.16361387 0.9066751
0.068315446 0.16694938 0.90646696
0.070963934 0.16552687 0.90791667
0.068296909 0.17195942 0.90622085
0.067163646 0.17756118 0.90612346
0.064334646 0.18202193 0.90595585
0.067022257 0.18243881 0.90802789
0.059264477 0.18819666 0.90593368
0.062417533 0.18724082 0.90673906
0.066586047 0.18745697 0.90881252
0.054744516 0.19376393 0.90570015
0.057997588 0.19215073 0.90702945
0.061145991 0.19273423 0.90878886
0.053692028 0.19796026 0.90691692
0.057209909 0.19674389 0.90908879
0.016493658 0.20376556 0.90772408
0.044583403 0.20375247 0.9051668
0.048407096 0.20343649 0.90563351
0.052700825 0.20243637 0.90789074
0.0184559 0.20756495 0.90711915
0.033903759 0.208317 0.90548897
0.038187902 0.20823805 0.90563345
0.042959448 0.20742796 0.90650773
0.048107915 0.20775777 0.90794826
0.051577982 0.2064047 0.90943331
0.019336155 0.21299809 0.90868902
0.021395868 0.21283796 0.90620863
0.028847782 0.21344335 0.90580016
0.032823592 0.21253857 0.90672994
0.037728455 0.21257384 0.9077794
0.043065313 0.21216543 0.90874457
0.046477746 0.2114256 0.90919995
0.022902168 0.21753234 0.90733367
0.027764272 0.21770546 0.90717441
0.032558724 0.21707582 0.9087801
0.00324296 0.13382661 0.91056252
0.0023934252 0.13722785 0.91065282
0.005786757 0.13882226 0.91000003
-0.0010051458 0.1426708 0.91295838
0.00069649518 0.14754646 0.91160011
0.0029638913 0.15380089 0.91182107
0.0028229728 0.15739219 0.91216201
0.07034716 0.16860943 0.91088396
0.070374295 0.17121707 0.91123533
0.068749204 0.17819017 0.91222221
0.068581715 0.18452723 0.90999997
0.070443317 0.18241417 0.91212916
0.068631969 0.18974447 0.91066658
0.07091406 0.18677378 0.9127084
0.062956981 0.1930901 0.91046667
0.06704618 0.19260716 0.91218901
0.070574895 0.19125415 0.9138329
0.057594724 0.19906852 0.91069996
0.061968807 0.19721608 0.91257793
0.066308707 0.19548613 0.91375029
0.057418644 0.20255011 0.91238904
0.061214015 0.20064387 0.9140169
0.017109947 0.20833437 0.91047454
0.052818161 0.20796394 0.91132218
0.055772979 0.20615225 0.9133113
0.017691478 0.21275413 0.91126674
0.047728878 0.21309118 0.91150016
0.051997028 0.21253589 0.91305864
0.018398579 0.21767089 0.9126935
0.00069909287 0.15149954 0.91500002
0.070984259 0.19492804 0.91913342
0.063850723 0.19919395 0.91516662
0.066984579 0.1979253 0.91717494
0.062260475 0.20325953 0.9168666
0.057658773 0.20851155 0.91621107
0.06118254 0.20716798 0.9178111
0.016107587 0.21173096 0.91785556
0.069481082 0.19895181 0.92193335
0.067526601 0.20253225 0.92261666
0.063841522 0.20778722 0.92118335
0.066166401 0.20619865 0.92366642
0.0698805 0.2035452 0.92723358
0.071984805 0.20287673 0.93208885
