# .PCD v0.7 - Point Cloud Data file format
VERSION 0.7
FIELDS x y z
SIZE 4 4 4
TYPE F F F
COUNT 1 1 1
WIDTH 884
HEIGHT 1
VIEWPOINT 0 0 0 1 0 0 0
POINTS 884
DATA ascii
-0.011111737 0.052447725 0.82100004
-0.0080493866 0.053211335 0.82100004
-0.011506096 0.057189666 0.82263637
-0.0081916917 0.058154512 0.82250005
-0.01062717 0.061761126 0.82300001
-0.0085806306 0.061250813 0.82300001
-0.0055443002 0.053151615 0.82800007
0.0075925104 0.05400423 0.82926691
0.013388256 0.053600069 0.8289836
0.017939772 0.053341292 0.82856023
0.022254124 0.053155806 0.82807785
0.027332991 0.053275395 0.82822853
0.032889728 0.05280108 0.82855839
0.037679959 0.052360784 0.82769632
0.042325936 0.052378412 0.8279779
0.04678046 0.052867211 0.82872397
0.050164845 0.054047644 0.8299334
-0.0063197631 0.056265581 0.82850003
0.0025667241 0.0582451 0.82925028
0.0075830184 0.057019513 0.8282612
0.012976583 0.056960266 0.82739991
0.017734794 0.05748304 0.82686651
0.022197286 0.057630975 0.82598329
0.027589057 0.057629485 0.82595825
0.033125255 0.057430103 0.82610315
0.037586015 0.0576065 0.82562798
0.042237461 0.057649717 0.82624453
0.046976831 0.057022035 0.82828164
-0.0070799692 0.060010128 0.82700002
0.0021801619 0.061726168 0.82938546
0.0077395826 0.062273894 0.82844907
0.012987721 0.062402323 0.82810003
0.017461108 0.062843367 0.8278268
0.022233587 0.063112877 0.82733315
0.027618947 0.063077241 0.82687205
0.032861207 0.062768221 0.8268531
0.037641652 0.063075274 0.82684422
0.0422846 0.063100435 0.82717019
0.04597488 0.061940063 0.82880014
0.0099131456 0.066344969 0.82926691
0.013009178 0.066360973 0.82946682
0.017869035 0.067454115 0.82935268
0.022473875 0.067679316 0.82907528
0.027218997 0.067694269 0.82878017
0.032522991 0.067974336 0.82860625
0.037688892 0.067775905 0.82788885
0.042370226 0.067853376 0.82884473
0.02384972 0.071024112 0.82986677
0.026170269 0.071021259 0.82983339
0.03389889 0.071001299 0.8296001
0.037742589 0.070955649 0.82906693
0.041633323 0.070998438 0.82956684
0.034104291 0.049695961 0.83463311
0.037916586 0.049592093 0.83288902
0.042908739 0.048995111 0.83329326
0.047693778 0.04927494 0.83408326
0.051985469 0.049676776 0.83431101
-0.0024698756 0.054260414 0.83320063
0.00257889 0.053856891 0.83296657
0.0077769132 0.053279795 0.83242667
0.013062053 0.051906016 0.8327499
0.017328376 0.051507816 0.8325665
0.022417665 0.051217865 0.83413321
0.027091665 0.051232874 0.83437759
0.031726737 0.05118103 0.83353335
0.047931366 0.051054131 0.83146667
0.05199302 0.052397516 0.83132499
0.057412304 0.052762728 0.83403158
-0.0055627138 0.057964906 0.83075005
-0.002466552 0.057243783 0.83152443
0.0018735625 0.056248546 0.83052003
0.0518189 0.057252757 0.83162224
0.055914998 0.055924155 0.83489978
-0.0061875931 0.062184799 0.8313778
-0.0024649859 0.062404942 0.83094865
0.0021833151 0.064906575 0.83059996
0.0052801506 0.064885743 0.83033329
0.048075382 0.062793851 0.83126658
0.051444758 0.061548743 0.83394438
-0.0062378743 0.06702549 0.83223927
-0.0024686614 0.067833528 0.83238345
0.0021871782 0.068114094 0.83202225
0.0074014966 0.068208933 0.8314606
0.013036855 0.068823196 0.83124441
0.016907245 0.069572508 0.83096665
0.020759311 0.069497153 0.83006686
0.047382887 0.06785886 0.8326934
0.050471101 0.065250404 0.83499974
-0.006353721 0.072055891 0.83287501
-0.0024738628 0.072174124 0.83423734
0.0019996904 0.072792411 0.8346498
0.0077124117 0.072839446 0.83458155
0.013077645 0.072914585 0.83382225
0.017717006 0.072809577 0.83262229
0.022151401 0.072904676 0.83150005
0.027205616 0.073113844 0.83105707
0.032111511 0.073010467 0.83138001
0.037860233 0.073498838 0.83165556
0.042739976 0.073174953 0.83174282
0.046115898 0.072514519 0.83368337
-0.0055777803 0.075940914 0.83300006
0.0099816816 0.076123245 0.83499974
0.013095946 0.076121219 0.83497757
0.017749829 0.076048292 0.83417773
0.022716425 0.076627672 0.83371991
0.027068948 0.076777883 0.83366656
0.032271031 0.077083707 0.83417767
0.037574902 0.076414332 0.83393329
0.042589217 0.075953089 0.83313346
0.045788284 0.076105013 0.83479971
-0.0056179557 0.04839528 0.83900005
0.008468789 0.049979787 0.83940005
0.012358805 0.049890473 0.83790004
0.017814845 0.049848795 0.83719993
0.022523411 0.049122494 0.83811116
0.027382314 0.048490737 0.83731669
0.031875636 0.048302121 0.83741665
0.037824892 0.047698922 0.83775997
0.042396601 0.047111433 0.83700001
0.047213361 0.046983574 0.8370555
0.052165717 0.047511309 0.83719999
0.057607334 0.048582483 0.83687085
-0.0056045642 0.051393878 0.83700001
-0.0024832762 0.052187476 0.83725166
0.0018876446 0.052000292 0.83674669
0.0075023114 0.051667679 0.83639991
0.011542654 0.05128745 0.83526665
0.057487696 0.052832521 0.83513331
0.057677347 0.057769258 0.83662057
0.061247513 0.058123466 0.83862501
0.053104918 0.063224964 0.8355999
0.056940377 0.062407766 0.8385334
0.060116187 0.060895912 0.83920705
-0.0071484577 0.069910206 0.83500004
0.052118227 0.067435719 0.8364222
0.057811506 0.065628104 0.83983326
0.060149115 0.065615095 0.83966678
-0.0024791942 0.07463789 0.83576035
0.0037528423 0.074575916 0.83506638
0.0068676597 0.074575916 0.83506638
0.048301011 0.073342703 0.83517313
0.052028283 0.072393596 0.8377704
-0.0056179562 0.079609312 0.83900005
-0.0024838345 0.077138983 0.83758444
0.0022023723 0.077932522 0.83773333
0.006883651 0.07787177 0.83708143
0.012345946 0.078634836 0.83693326
0.017798169 0.078587271 0.83642215
0.022071548 0.07891725 0.83579981
0.027114673 0.079238243 0.83508867
0.033351872 0.079255104 0.83526653
0.038345691 0.07865271 0.8354665
0.042737287 0.078549847 0.83602208
0.047483675 0.077885941 0.83723819
0.050608102 0.076329909 0.83726668
0.0069038807 0.081219457 0.83951122
0.012702261 0.081781007 0.83840019
0.018059641 0.082208157 0.83820957
0.022513412 0.082607664 0.83774072
0.02719138 0.082577772 0.83743703
0.032442696 0.082432434 0.83740002
0.037812568 0.082736008 0.8374666
0.042649288 0.08245071 0.83812505
0.046014979 0.081163555 0.83893353
0.026475903 0.085906707 0.83953345
0.033513986 0.085886247 0.83933353
0.037419394 0.085867494 0.83915019
0.027414126 0.043991048 0.84433341
0.031348355 0.04398584 0.84423333
0.036874909 0.044004936 0.8445999
0.043142218 0.043971363 0.84395546
0.047832295 0.043941263 0.84337789
0.052582052 0.043967891 0.84388894
0.057275761 0.043947052 0.84348899
-0.0028882525 0.048182335 0.84208333
0.002217195 0.047864661 0.84341341
0.0071582911 0.047511667 0.84312391
0.012415197 0.047764227 0.84165007
0.017909672 0.047764435 0.84165567
0.022647152 0.046257783 0.84273332
0.02692805 0.045794949 0.84141666
0.03243662 0.045817651 0.84183329
0.037554815 0.045966949 0.84218889
0.042998314 0.045390178 0.84115553
0.047664374 0.045351211 0.84043312
0.052445382 0.045418963 0.84168869
0.056733519 0.045786913 0.84126663
-0.0071998239 0.050075065 0.84100002
-0.0024934085 0.050065115 0.84083301
0.0022093153 0.050051242 0.84059995
0.0061304877 0.050061166 0.84076655
0.06111728 0.062833086 0.84006035
0.056888498 0.067736953 0.84106654
0.060289398 0.068117782 0.84162509
0.053932212 0.073488928 0.84039986
0.05707252 0.07198526 0.84337336
0.060459532 0.07066372 0.84400004
-0.0024917002 0.079709977 0.84006095
0.049249671 0.079773784 0.84073311
0.052697264 0.077668905 0.84212369
0.056584641 0.075454116 0.84489989
-0.0056480877 0.082390368 0.84350002
-0.0024993166 0.083085954 0.84259206
0.0022135121 0.083024777 0.84197032
0.0069184764 0.083741523 0.84131098
0.011927885 0.084126174 0.8404665
0.017098445 0.084428743 0.8403666
0.044549275 0.084472269 0.84079987
0.04794402 0.083211534 0.84188336
0.051398404 0.082423493 0.84383345
-0.002189463 0.087025449 0.84432286
0.0024151178 0.087713294 0.84375852
0.0069339098 0.087848611 0.84317803
0.012428802 0.08778283 0.84254473
0.017920779 0.087747306 0.8422001
0.022616744 0.087683663 0.84158528
0.027550073 0.088130809 0.8415904
0.031833962 0.087867677 0.84147501
0.037504815 0.088410728 0.84106642
0.043046493 0.087732628 0.84205937
0.04767767 0.08775121 0.84412497
0.05107557 0.086466081 0.84499991
-0.0040725344 0.092533991 0.84300005
0.0030093635 0.091178082 0.84496653
0.0069476417 0.091162495 0.84482217
0.01245591 0.092370085 0.84435999
0.018160397 0.09246958 0.84419167
0.022676168 0.092622966 0.84380007
0.027387196 0.092587806 0.84348172
0.032097515 0.092561305 0.84324467
0.037589449 0.092530638 0.84296697
0.043148577 0.09265098 0.84405929
0.046340428 0.091167293 0.84486657
0.028224479 0.09589722 0.84499991
0.032384228 0.097004853 0.84486645
0.037179798 0.097241528 0.84438002
0.041354015 0.097461514 0.84493321
0.036892124 0.10061287 0.84499991
0.045795061 0.039513342 0.84936678
0.052930713 0.039519031 0.84948897
-0.0017218717 0.044136301 0.84712124
0.002228352 0.044153258 0.8474471
0.007291419 0.043556336 0.84812021
0.012519077 0.043423779 0.84860849
0.018060688 0.043589503 0.84876025
0.022787658 0.043390051 0.8479557
0.027844623 0.041963737 0.84782678
0.032632582 0.042944133 0.84693342
0.037027288 0.04197691 0.84809339
0.042518646 0.042169467 0.84720844
0.048026204 0.041755378 0.84678894
0.052738857 0.041736737 0.84641117
0.057478298 0.041739371 0.8464672
-0.005658132 0.047169507 0.84500003
-0.0017197046 0.046422642 0.84571761
0.0022238188 0.045636818 0.84572595
0.0061660223 0.045635425 0.84569991
0.012478797 0.045645311 0.84588331
0.017998375 0.045643222 0.84584445
0.058988906 0.073933378 0.84548271
0.060638614 0.073235482 0.84650004
0.057736676 0.077661149 0.84692389
0.060690351 0.075661488 0.84722233
-0.005658132 0.084894218 0.84500003
0.053489015 0.082612641 0.84577781
0.057173051 0.081875071 0.84861463
-0.0029043746 0.089333951 0.8461042
0.00064561033 0.089609832 0.84499997
0.049515247 0.089638107 0.84526658
0.052991468 0.087879919 0.84726679
0.056626454 0.085869849 0.8494668
-0.0023120416 0.092916474 0.84647971
0.0019993361 0.093343534 0.84626925
0.0069563775 0.093648069 0.84597772
0.012467681 0.09434399 0.84516656
0.016408848 0.094347708 0.84519988
0.048184518 0.093072489 0.84610832
0.051927976 0.092835568 0.84862024
-0.0019880489 0.096802473 0.84834319
0.002230163 0.09707427 0.84841293
0.0071990266 0.097358838 0.84794319
0.012503232 0.097767413 0.84757251
0.018036438 0.097773068 0.84762245
0.022768982 0.097731687 0.8472594
0.027256666 0.098082624 0.8464095
0.031405449 0.099134743 0.84579998
0.044198297 0.097908996 0.84607995
0.047594067 0.097344704 0.84847802
0.018866017 0.10113275 0.8493669
0.024414927 0.10115259 0.8495335
0.027569747 0.10110231 0.8491115
0.032487828 0.10204865 0.84759063
0.036950212 0.10254531 0.84634167
0.042293936 0.10228309 0.84698796
0.046068236 0.10273322 0.84953362
0.038271576 0.10706054 0.84938359
0.041028664 0.10583536 0.84906685
0.0022373202 0.039589319 0.85100001
0.0070200935 0.039704461 0.85347503
0.012598568 0.039731205 0.8540501
0.01817861 0.039742835 0.85430002
0.022952175 0.039731469 0.85405564
0.027724663 0.039723199 0.85387784
0.032509033 0.039731469 0.85405564
0.037245017 0.039686497 0.85308892
0.042391196 0.039266016 0.85259169
0.048077036 0.038595963 0.85239452
0.052690048 0.037184387 0.85292858
0.05786569 0.038849521 0.85216433
0.0022368452 0.041951288 0.85075378
0.0066002142 0.041554395 0.85072494
0.012556337 0.041180812 0.85117489
0.018126609 0.041609596 0.85185826
0.022871448 0.041175034 0.85105544
0.026013594 0.041123968 0.85000008
0.032365885 0.041137945 0.85028887
0.037116244 0.041130416 0.85013324
0.040284108 0.04112719 0.85006654
0.061007667 0.078434609 0.85165191
0.05933664 0.083070293 0.85046661
0.058324222 0.087620385 0.85111666
0.061233334 0.088264272 0.85480255
0.054199785 0.092593774 0.85074997
0.057964578 0.09211275 0.85362226
0.061717425 0.093227446 0.85414165
-0.0014665291 0.099275827 0.8515051
0.0022365998 0.099735476 0.85092545
0.0062016333 0.099693447 0.85056663
0.049315121 0.099202283 0.85087776
0.053124379 0.097549535 0.85256672
0.059641287 0.095423087 0.8548336
0.061202742 0.095371902 0.854375
-0.0009407255 0.10253261 0.85444641
0.0022407419 0.10230556 0.85254949
0.0070103132 0.10309229 0.85248888
0.012564783 0.10300496 0.85176659
0.017901603 0.10347702 0.85192859
0.0226737 0.10311882 0.85108328
0.027632646 0.10370743 0.85104436
0.031592071 0.1044708 0.85081661
0.04858518 0.10302994 0.85198325
0.052083645 0.10283752 0.85414773
0.0086201262 0.10650015 0.8544001
0.0129197 0.10774924 0.85422009
0.018172959 0.10804227 0.85402602
0.022942491 0.1080014 0.85370004
0.027718009 0.10799829 0.85367411
0.032449521 0.10785196 0.85251117
0.036199447 0.10796963 0.85094661
0.042112403 0.10803436 0.85039055
0.046572953 0.10767585 0.85269582
0.018976118 0.11125949 0.8543334
0.022638671 0.11188493 0.85425341
0.027346808 0.11168095 0.85451686
0.032510202 0.11122765 0.85408896
0.037267048 0.11196014 0.85361117
0.042010758 0.11187004 0.85292226
0.045780748 0.11174903 0.85402232
0.047159519 0.03360112 0.8598001
0.051872116 0.033537723 0.85817766
0.055091653 0.033549011 0.85846668
0.0070321402 0.039778505 0.85506672
0.012631329 0.038241498 0.85626698
0.017960632 0.038251821 0.85652238
0.023040883 0.037491228 0.85735565
0.027842874 0.037497822 0.85751128
0.032630343 0.037486926 0.8572557
0.037403867 0.03746381 0.8567223
0.042011321 0.036702745 0.85758102
0.046974931 0.035858929 0.8564446
0.052543934 0.035048362 0.85608357
0.057811841 0.03629145 0.85725015
0.061288539 0.082773812 0.85557294
0.062408268 0.08656358 0.85633177
0.061247509 0.090670265 0.85500002
0.057967454 0.097414315 0.85660005
0.062314503 0.097525015 0.85652131
0.054924771 0.10190708 0.85586685
0.058109999 0.10183953 0.85913336
0.061586581 0.10156754 0.85973346
-0.00094429543 0.10691116 0.8576889
0.0022518071 0.10680459 0.85683376
0.0070399516 0.10829706 0.85603839
0.011025204 0.10982861 0.85556698
0.0485324 0.10985001 0.85573357
0.052000362 0.10721959 0.85651451
0.055108756 0.10704158 0.85873336
0.0024584758 0.11168526 0.85913146
0.0068297423 0.11223855 0.85834283
0.011840898 0.11238705 0.85686678
0.017104208 0.11343776 0.85637349
0.023396445 0.1142301 0.85575026
0.028117608 0.11404441 0.85614681
0.032586474 0.11387759 0.85608906
0.037379388 0.11468502 0.85617799
0.042139024 0.11459869 0.8555336
0.047487359 0.11360878 0.85606688
0.051429965 0.11156376 0.858419
0.011875608 0.11591486 0.85938907
0.018096739 0.11787939 0.8588149
0.023054965 0.118107 0.85788894
0.027878851 0.11820812 0.85862225
0.032684091 0.11821204 0.85865188
0.03744499 0.1180783 0.85768151
0.042248517 0.11808758 0.85774821
0.046856474 0.1177262 0.85843807
0.050304104 0.11502735 0.85873324
0.023902528 0.12153953 0.85960019
0.026317596 0.12158666 0.8599335
0.038339928 0.12156781 0.8598001
0.041547194 0.12156781 0.85980016
0.034498915 0.028943647 0.86400002
0.036110286 0.028943647 0.86400002
0.043284379 0.02889229 0.86246675
0.048972897 0.028926898 0.8635
0.021615446 0.033776987 0.86430019
0.02885746 0.033763308 0.86395013
0.033393446 0.03266282 0.86320013
0.037644643 0.032092009 0.86223698
0.042441536 0.032071367 0.86168885
0.047245212 0.031858571 0.86136675
0.052023601 0.031233393 0.86067683
0.056619488 0.032412261 0.86222678
0.0087112645 0.038561571 0.86343342
0.011510598 0.037296902 0.86206669
0.01753539 0.036084086 0.86182779
0.023193361 0.035331536 0.86300009
0.027987814 0.035289686 0.86197776
0.032783344 0.035261478 0.86128896
0.037549805 0.035211433 0.86006689
0.042358752 0.035208706 0.86000019
0.058452185 0.035241466 0.86079997
0.06012271 0.03527968 0.86173338
0.058420513 0.10403896 0.86033344
0.062301375 0.10312946 0.86075008
0.057587277 0.10716096 0.86226672
0.061856393 0.10683107 0.86349458
-0.0020958402 0.11240061 0.86133641
0.00065727456 0.11363243 0.8602668
0.05363597 0.11290275 0.86080003
0.055751815 0.11191861 0.8624751
-0.002099413 0.11740929 0.86281914
0.0022645053 0.11699165 0.86142957
0.0070765368 0.11686794 0.86051857
0.011888373 0.11843935 0.86031127
0.015894223 0.11919641 0.86000019
0.047170486 0.1199963 0.86000019
0.052282214 0.11721684 0.86161262
0.0554692 0.11658408 0.8643502
-0.0025610116 0.12163095 0.86348814
0.0022676585 0.12150151 0.86256665
0.0070951632 0.12198063 0.86271119
0.011919925 0.12196427 0.86259633
0.01726258 0.12235907 0.86161482
0.023117421 0.12322476 0.86020011
0.028251316 0.12258647 0.86021346
0.032946922 0.12303808 0.86029178
0.037325483 0.12367915 0.86018103
0.042595644 0.12367505 0.8601526
0.047432117 0.12213601 0.86058104
0.051323459 0.12193596 0.86240005
-0.0025611317 0.12851602 0.86350006
0.013554227 0.12540503 0.86420017
0.018190734 0.12652607 0.86331487
0.023166398 0.12722836 0.86202961
0.027826622 0.12700531 0.86196661
0.032806914 0.12774129 0.86188149
0.037823036 0.12805223 0.86172503
0.04224436 0.1280559 0.86175007
0.047309585 0.12676741 0.86252594
0.051142648 0.12589426 0.86387795
0.022418939 0.13103437 0.8642168
0.028370947 0.13114104 0.86386025
0.032482795 0.13139558 0.86395025
0.037298396 0.13133109 0.86352515
0.042953022 0.13138542 0.8638835
0.045792639 0.13023779 0.86426681
0.029841052 0.029115612 0.86913323
0.032203127 0.029053282 0.86727273
0.012823637 0.033164352 0.86931664
0.016852694 0.033119235 0.86815
0.022629593 0.032992072 0.86784762
0.028177505 0.032030862 0.86783904
0.031890597 0.031161791 0.86610818
0.0074619325 0.037469722 0.86792696
0.011981596 0.035502117 0.8671667
0.015202239 0.035465267 0.86626685
0.058818854 0.1095823 0.86620021
0.061337255 0.10975149 0.86753756
0.057837948 0.11299136 0.86763334
0.060690168 0.11166426 0.86986673
0.056802567 0.11792117 0.86828882
-0.00095271174 0.12395983 0.86533338
0.0022742783 0.12392879 0.86511678
0.053952724 0.12242892 0.86588341
0.055664942 0.12264293 0.86739999
-0.0016010988 0.127079 0.8668437
0.0022805049 0.12749425 0.86747146
0.0071309283 0.12743381 0.86705941
0.011777438 0.12761059 0.8668918
0.015733214 0.12833153 0.86586672
0.052966546 0.12801453 0.86735564
0.055779025 0.12774445 0.86917782
-0.0015999416 0.13188143 0.86661685
0.0022842162 0.13233054 0.86876661
0.0071461326 0.13209318 0.86891425
0.012240013 0.13210304 0.86898088
0.016854206 0.13244218 0.86817038
0.022027252 0.13368253 0.86784011
0.028182318 0.13402288 0.86795563
0.033024114 0.13396798 0.86759996
0.037859831 0.13390107 0.8671667
0.042710304 0.13389593 0.86713344
0.047774702 0.13251546 0.86732507
0.052199751 0.13159171 0.8689599
-0.0009561982 0.13572249 0.86850005
0.018507205 0.13591522 0.86973327
0.023173455 0.13705927 0.86900735
0.02821357 0.13720362 0.86892492
0.033082597 0.13743766 0.8691259
0.037939753 0.13741747 0.86900002
0.042787626 0.13737075 0.8687036
0.047211625 0.13721646 0.86919051
0.039597079 0.14077967 0.86979997
0.042417992 0.14112487 0.86943328
0.0071784947 0.029240521 0.87286186
0.02264192 0.02923844 0.87279981
0.026656613 0.029179631 0.87104446
0.0071670138 0.032441515 0.87160754
0.011383264 0.031759992 0.87072021
0.016912252 0.030803263 0.87113851
0.021779122 0.030792871 0.87084466
0.025833225 0.030785408 0.87063348
0.0039168238 0.035681799 0.87155575
0.0060782009 0.036187764 0.87073344
0.059113134 0.11336924 0.87053359
0.061910748 0.11299596 0.87181741
0.058803909 0.11793385 0.87076014
0.062128298 0.11759098 0.87182188
0.065742999 0.11847051 0.87233335
0.058325265 0.1231358 0.87088913
0.06244329 0.12270652 0.87167954
0.065793246 0.12262216 0.87300003
0.058436722 0.12824158 0.87255543
0.06277968 0.12716593 0.87313378
0.065793246 0.12505807 0.87300009
0.0022876228 0.13435911 0.87013346
0.0071586678 0.13441056 0.87046683
0.011217123 0.13441059 0.87046683
0.053055413 0.13409328 0.87103349
0.057109106 0.13263275 0.87297219
0.061798029 0.13008754 0.8740589
0.0024940246 0.13755207 0.87112623
0.0071693338 0.13785055 0.87173337
0.012047994 0.13786937 0.87185192
0.016706433 0.13793364 0.87098354
0.020698005 0.13879955 0.8709113
0.028272063 0.13931102 0.8707335
0.049379356 0.13849078 0.87066686
0.0524984 0.13767061 0.87188339
0.056124855 0.13667056 0.87456661
0.0031114472 0.14136037 0.87338799
0.0075980169 0.14191355 0.87429166
0.01208219 0.1423279 0.87433887
0.016951902 0.14295626 0.87320352
0.021799704 0.14270788 0.87168896
0.027465634 0.14257908 0.87090588
0.033150949 0.14258093 0.87091875
0.037820201 0.14278167 0.87090856
0.043212082 0.14352259 0.87073344
0.047786877 0.14263214 0.87122983
0.051828802 0.14269927 0.87362653
0.018616438 0.14648201 0.87486666
0.022272125 0.14678977 0.87427497
0.027528848 0.14615823 0.87293315
0.032781199 0.14717524 0.87345701
0.038303673 0.14753592 0.87266666
0.042969618 0.14769381 0.87240005
0.047650483 0.14732632 0.87297612
0.051251147 0.14648758 0.87489998
0.05947753 0.13362023 0.87590009
0.062831499 0.1329875 0.87709528
0.057954095 0.13713548 0.87754667
0.063038372 0.13697396 0.87999982
0.0039394931 0.14351092 0.87660015
0.0063837972 0.14334175 0.87556684
0.012098266 0.14495942 0.87550008
0.054643299 0.14194116 0.87696677
0.056789786 0.14178626 0.87854171
0.0039486825 0.14711551 0.87864429
0.0072192112 0.14699042 0.87789637
0.01212724 0.14740203 0.87757164
0.016694564 0.14777932 0.87676686
0.021077724 0.14820528 0.87543344
0.026786169 0.14817329 0.87524456
0.034991376 0.14998783 0.87633342
0.036589526 0.14983949 0.8754667
0.048022464 0.1498509 0.87553334
0.053357232 0.14704354 0.87821674
0.003953726 0.15139386 0.87976646
0.0074388157 0.15198068 0.87960815
0.012145028 0.15205978 0.87888151
0.017048707 0.15193558 0.87816691
0.021956278 0.15189363 0.87792242
0.02687932 0.15195583 0.87828159
0.031782612 0.15190518 0.87798905
0.037504144 0.15268493 0.8777793
0.043199297 0.15256043 0.87706131
0.048368908 0.15229832 0.87756681
0.05151866 0.15216082 0.87946653
0.012160309 0.15633886 0.87996644
0.017075751 0.15626614 0.8795554
0.021994753 0.15624832 0.87945539
0.026928084 0.15632315 0.87987757
0.032043964 0.15687744 0.87954152
0.037069995 0.15684463 0.87912667
0.042704646 0.15715693 0.87912726
0.046975948 0.15655304 0.87886667
0.036777172 0.16042905 0.87995529
0.042523235 0.16043715 0.87999976
0.059760459 0.13834858 0.88006634
0.063053265 0.13782565 0.88021088
0.059181325 0.1429534 0.88120663
0.0626752 0.1424389 0.88149565
0.054890469 0.14913641 0.88093317
0.057404663 0.1476263 0.88168877
0.062057141 0.14670506 0.88355839
0.0028656954 0.15364115 0.88170481
0.0056023439 0.15406422 0.88099992
0.053699501 0.15212132 0.88160831
0.055887565 0.15206993 0.88370001
0.0031468123 0.15700081 0.88369209
0.0072526503 0.15751411 0.8819555
0.012171422 0.15895258 0.8808443
0.017088303 0.15883628 0.88019967
0.022012115 0.15882826 0.88015527
0.02693508 0.15882023 0.8801108
0.030216433 0.15881221 0.88006645
0.049280129 0.15757932 0.88049304
0.052365743 0.15731135 0.88266671
0.012612185 0.16137719 0.88290006
0.017131932 0.16170792 0.88246107
0.022270242 0.16228411 0.88224167
0.026999425 0.16248554 0.88222218
0.031905126 0.16232929 0.8813777
0.036814928 0.16305152 0.88085532
0.041735653 0.16302258 0.88069981
0.046941902 0.16266069 0.88206249
0.050658491 0.16162987 0.88353348
0.027066326 0.16617483 0.88440013
0.031986881 0.16603076 0.88363343
0.036927283 0.16600989 0.88352233
0.041837115 0.16588253 0.88284451
0.045194641 0.16611846 0.88410014
0.060970854 0.14830139 0.88573331
0.057266831 0.15327597 0.88591659
0.061989367 0.15206927 0.88848889
0.065365575 0.15386716 0.88933343
0.0039785923 0.15975663 0.88529986
0.053553782 0.15988296 0.88599992
0.056972109 0.15689659 0.88775223
0.0031637514 0.16195518 0.88832635
0.0072930516 0.16251399 0.88686103
0.01224349 0.16400935 0.8860333
0.017193573 0.16475709 0.88562232
0.020483373 0.16464755 0.88503349
0.052279007 0.16365233 0.8867799
0.05580464 0.16165639 0.88894999
0.007867489 0.16656847 0.88942784
0.012035967 0.16735408 0.88816178
0.017218458 0.16746958 0.88689977
0.022156747 0.16729188 0.88595557
0.027130896 0.16904563 0.88651091
0.032089014 0.16903497 0.88645548
0.037055414 0.1690634 0.88660532
0.041989762 0.16896103 0.88606662
0.046962548 0.16791596 0.88634986
0.052044068 0.16720508 0.88841659
0.012704811 0.17083374 0.88938344
0.017256925 0.17115222 0.88888884
0.022426326 0.17168695 0.88844156
0.027184561 0.17268538 0.8882665
0.032149263 0.17265736 0.88812208
0.037114765 0.17264014 0.88803315
0.042094991 0.17268743 0.88827771
0.047295224 0.1721531 0.88871658
0.050430443 0.17038493 0.88920003
0.027221451 0.17539977 0.88946658
0.032608327 0.17579037 0.88934994
0.037157442 0.17614563 0.88905555
0.042132881 0.17615002 0.88907784
0.046284471 0.17534716 0.88919997
0.058783952 0.15897299 0.8901335
0.062017757 0.15741725 0.89186692
0.065636814 0.15699869 0.89302349
0.0023459878 0.16434568 0.89233333
0.058264833 0.16302015 0.89234018
0.060717929 0.16135667 0.89416695
0.067426145 0.16477539 0.89466667
0.0040064557 0.16751026 0.89150023
0.0062194229 0.16851376 0.89096689
0.05392047 0.16927478 0.8920669
0.056476112 0.16779198 0.8930003
0.067399189 0.16720471 0.89430904
0.0040169414 0.17376685 0.89383352
0.0073391879 0.17267673 0.89248902
0.011989458 0.17351839 0.89170015
0.017293038 0.17400126 0.89077789
0.020599872 0.17386238 0.89006674
0.052273281 0.17264238 0.89231932
0.055737872 0.17140689 0.89453351
0.0090270527 0.17643835 0.89473343
0.01268545 0.17693135 0.89386034
0.017326832 0.17766705 0.89253724
0.022298589 0.17748348 0.89161503
0.027283261 0.17828907 0.89150017
0.031926297 0.17838392 0.89114684
0.037233073 0.17899024 0.89086694
0.042198759 0.17890985 0.89046687
0.047434803 0.1777899 0.89078104
0.051313661 0.17742863 0.8930136
0.019030683 0.1813504 0.89433378
0.022368528 0.18178348 0.89441705
0.027367042 0.18216114 0.89422816
0.032357778 0.1820908 0.89388371
0.037342306 0.18200928 0.89348364
0.042297088 0.1826537 0.89256692
0.047319219 0.18275523 0.89306325
0.050736718 0.1822367 0.89460039
0.043217484 0.18634811 0.89436698
0.045734785 0.18641062 0.89466703
0.064151108 0.15993746 0.89553326
0.067658514 0.15866333 0.89775002
0.062863469 0.16272649 0.89621341
0.066838078 0.16204393 0.89797091
0.059175752 0.16753355 0.89606667
0.062646873 0.16704351 0.89791149
0.066329032 0.16766189 0.89675838
0.0040254807 0.1716368 0.89573354
0.054117918 0.1748911 0.89533335
0.057758801 0.17269716 0.89629537
0.062705427 0.17054296 0.89875019
0.066827103 0.1720392 0.89783347
0.0070335763 0.17767508 0.89593333
0.012371553 0.17904143 0.89526671
0.053584058 0.17829721 0.89571112
0.057803661 0.17718211 0.89744598
0.0078569213 0.18170165 0.89723814
0.012178362 0.18198177 0.89641666
0.017056894 0.18264768 0.89579999
0.022387717 0.18318447 0.89516675
0.027415955 0.18498512 0.89582223
0.034100529 0.1849943 0.89586663
0.037427872 0.18492545 0.89553338
0.053085323 0.18265931 0.89667779
0.056385294 0.18171725 0.89820015
0.0079519972 0.18675216 0.89897799
0.012413481 0.18716982 0.89830756
0.017408239 0.18683888 0.89671856
0.022412973 0.18672746 0.89618516
0.027425714 0.18755227 0.89614439
0.032235369 0.18695292 0.8962667
0.037457187 0.18757091 0.89623332
0.042032614 0.18789306 0.89578342
0.047789197 0.18761338 0.89564008
0.052591953 0.18705785 0.89777154
0.014107879 0.1907642 0.89950013
0.017684806 0.19176592 0.89859074
0.022224113 0.19168773 0.898224
0.0276988 0.19195408 0.89821273
0.032504532 0.19126715 0.89793354
0.037531417 0.19128269 0.89800578
0.042537417 0.19203885 0.89762974
0.047552988 0.19200702 0.89748162
0.051515829 0.19110423 0.89847803
0.047611777 0.19558807 0.89860034
0.062840827 0.17306581 0.90069085
0.066232853 0.17434788 0.90113372
0.06292934 0.17786296 0.90195203
0.066987932 0.17758673 0.9022519
0.0588817 0.18319927 0.90179348
0.061344922 0.18150833 0.90339988
0.0065637613 0.18839404 0.90016693
0.054486625 0.18949746 0.90143371
0.057595998 0.18708006 0.90271342
0.0077506439 0.19156632 0.90170687
0.012452344 0.19249408 0.90106684
0.016672915 0.19467904 0.90213341
0.02335551 0.19428343 0.90030032
0.025865303 0.19421868 0.90000027
0.03261371 0.19442008 0.90093368
0.037672509 0.19451839 0.90138918
0.053167284 0.19327644 0.90185356
0.056333985 0.19005802 0.9041
0.0082798153 0.19513938 0.9042666
0.012493908 0.19566874 0.90412217
0.017954435 0.19699505 0.90313333
0.022570476 0.19727464 0.90248889
0.027611822 0.19721614 0.90222234
0.032672789 0.19729251 0.90257221
0.037728742 0.19732898 0.90273887
0.042730819 0.19794293 0.90170753
0.047772318 0.19813429 0.9016251
0.051797539 0.19719075 0.90338898
0.024318468 0.20032597 0.90490001
0.02768459 0.20025957 0.90460008
0.031055333 0.20023742 0.90450007
0.038909018 0.20070243 0.90406662
0.043259554 0.20221969 0.90395832
0.047010303 0.20161845 0.90314984
0.063549466 0.18304232 0.90600014
0.067658 0.18251371 0.9067198
0.070124425 0.18327722 0.90799999
0.059836153 0.18878604 0.90606683
0.062805988 0.18707885 0.9071241
0.066931836 0.18766248 0.90776449
0.058381256 0.19244324 0.90642101
0.062438935 0.19255158 0.90952003
0.066817485 0.19195414 0.90909547
0.0083031412 0.19823208 0.90686685
0.012181113 0.19819434 0.90592682
0.016735926 0.19878528 0.90555006
0.054378022 0.19775696 0.90662515
0.057281006 0.19738826 0.90842026
0.060014464 0.19611046 0.90876687
0.0091716647 0.20124833 0.90906686
0.012797656 0.20235379 0.90860504
0.017616749 0.20258144 0.90745956
0.022452006 0.20251267 0.90620852
0.027729424 0.20311117 0.90606117
0.033006303 0.20245965 0.90597099
0.037296552 0.20278452 0.90585566
0.042071231 0.20385002 0.90560007
0.048401993 0.2034158 0.90554178
0.05268142 0.20236239 0.90755749
0.018129241 0.2077311 0.9088906
0.022713445 0.2078162 0.90820777
0.02780523 0.20789143 0.90853351
0.032889958 0.20790419 0.90858912
0.037922218 0.20762514 0.90737069
0.04297322 0.20749821 0.90681511
0.048064902 0.20757361 0.90714467
0.051992636 0.20763597 0.90926683
0.022752028 0.21155348 0.90974998
0.026149815 0.21158838 0.90989989
0.034634702 0.21158835 0.90989995
0.037988268 0.2113661 0.90894467
0.043068592 0.21218622 0.90883368
0.047727294 0.21174963 0.90877527
0.063518174 0.19476946 0.91039985
0.066054173 0.19473737 0.91024995
0.058447953 0.19993047 0.91076666
0.062276792 0.1978467 0.91209334
0.066689514 0.19705968 0.91315836
0.0083486736 0.20358674 0.91196674
0.057159394 0.20288809 0.91187334
0.060890317 0.20107992 0.91342235
0.0092165601 0.20648241 0.91351694
0.012387788 0.20717184 0.91187507
0.01597148 0.20824894 0.91009998
0.053338528 0.20834811 0.91053325
0.056416471 0.20702066 0.91321439
0.01319743 0.21196371 0.9139502
0.017458765 0.21252222 0.91182858
0.022772647 0.21301773 0.91058332
0.028222974 0.2128797 0.91108
0.032654416 0.21297173 0.91147327
0.038052548 0.21341379 0.91046661
0.049090475 0.21341768 0.91048324
0.052732535 0.21236846 0.91179335
0.055256974 0.21258378 0.91417807
0.014347847 0.21613118 0.91480035
0.0180874 0.21664658 0.91410029
0.062583603 0.20325562 0.91659343
0.065815412 0.20168662 0.91876674
0.0083926972 0.20888714 0.91661656
0.058739953 0.20859146 0.91531682
0.061747368 0.20742649 0.91769999
0.0084104082 0.21189849 0.91858321
0.011516803 0.21410394 0.91583347
0.057905257 0.21291508 0.91560578
0.065946758 0.20380156 0.92060006
0.064293772 0.20829099 0.92151678
0.066156872 0.2061689 0.92353338
