# .PCD v0.7 - Point Cloud Data file format
VERSION 0.7
FIELDS x y z
SIZE 4 4 4
TYPE F F F
COUNT 1 1 1
WIDTH 916
HEIGHT 1
VIEWPOINT 0 0 0 1 0 0 0
POINTS 916
DATA ascii
0.02490573 0.084787287 0.81379992
0.027940515 0.083703138 0.81378108
0.032282777 0.083717905 0.8139239
0.035563439 0.084109202 0.81456697
0.012764703 0.089341007 0.81391114
0.017318705 0.089336134 0.81386667
0.022923898 0.088086203 0.81351328
0.027912984 0.087726206 0.81297755
0.032460824 0.087723762 0.81295532
0.036132473 0.088105015 0.81368005
0.0097325034 0.092396557 0.81415576
0.012752121 0.092273071 0.81306648
0.017299976 0.092265636 0.81299978
0.022606865 0.092265636 0.81299978
0.027899742 0.092220895 0.81260735
0.032415614 0.092130318 0.8118149
0.036835432 0.092487074 0.81328332
0.0097362231 0.095462248 0.81446683
0.012953439 0.096712448 0.81382495
0.01730568 0.096837573 0.81328875
0.022826949 0.097249351 0.81311888
0.027911931 0.097554319 0.81295544
0.032418422 0.097427078 0.81188893
0.036384616 0.09686143 0.81349522
0.018857885 0.10004832 0.81480026
0.021895444 0.10054546 0.81473368
0.031742707 0.1014643 0.81400013
0.023547001 0.079267338 0.81933337
0.027363803 0.078495324 0.81923348
0.032709856 0.078644641 0.81920022
0.035770088 0.078501806 0.81930017
0.0082697002 0.083873779 0.81966668
0.012846845 0.083816938 0.81911129
0.018038312 0.082890004 0.81898689
0.022393821 0.082580402 0.81786078
0.027153224 0.081133746 0.81620967
0.032892507 0.081083834 0.81614673
0.037392449 0.082311176 0.81762236
0.040342622 0.083050519 0.81906688
0.007488457 0.087500565 0.8179543
0.012818005 0.08666981 0.81729645
0.017379478 0.086611912 0.81674832
0.021168895 0.085778452 0.81603348
0.038368873 0.087147869 0.81606674
0.040294178 0.087515935 0.81808335
0.0067128656 0.092660978 0.81648165
0.038628642 0.09099143 0.81513369
0.040265992 0.09277726 0.81751114
0.0074826144 0.097327828 0.81740677
0.011280089 0.098710038 0.81626672
0.03811777 0.09805683 0.8150447
0.040664386 0.097760685 0.81784999
0.0092819845 0.10108008 0.81906682
0.012831083 0.1019816 0.81814086
0.017194482 0.10203453 0.8170417
0.022690643 0.10285798 0.81604177
0.027518189 0.10326662 0.81626678
0.032817092 0.10372068 0.81642866
0.037222654 0.10166442 0.81763339
0.040349178 0.10135079 0.81919992
0.013154129 0.10577319 0.81922686
0.017618336 0.10646658 0.81899184
0.022004178 0.10713822 0.81878537
0.027282424 0.10761238 0.81887895
0.032396071 0.1072657 0.81898677
0.035751171 0.10587923 0.81886685
0.048978008 0.053596117 0.82300007
0.051397003 0.053717673 0.82486683
0.0086211357 0.059183013 0.82405341
0.012927677 0.059197087 0.82425344
0.016006336 0.059059341 0.82446682
0.022162262 0.059073664 0.82466686
0.028294865 0.058925081 0.82412386
0.032866761 0.058197744 0.82313329
0.037580125 0.057591368 0.82244229
0.042021785 0.05735369 0.82203323
0.047348425 0.057307784 0.82135403
0.052786931 0.057390749 0.82254434
0.0090831229 0.062099725 0.82410008
0.012930624 0.062126279 0.82445556
0.017545814 0.062130582 0.82451677
0.027975783 0.062995121 0.82378662
0.03283089 0.062724985 0.82225174
0.037380353 0.062637784 0.82111084
0.041965868 0.06262476 0.82094043
0.047335517 0.062638581 0.82112199
0.052297521 0.062468056 0.82174265
0.02984993 0.067505665 0.82460022
0.0328914 0.067437127 0.82376301
0.037437942 0.067325003 0.82239246
0.041986458 0.067239568 0.82134795
0.047401752 0.067314126 0.82225543
0.052080121 0.067415304 0.82349998
0.019061554 0.074316695 0.82359999
0.022123054 0.074282654 0.82322222
0.027512094 0.072789088 0.82365829
0.033007748 0.072539024 0.82317567
0.037438571 0.07268022 0.82240558
0.042000461 0.072610609 0.82162213
0.047268383 0.072203703 0.82301545
0.051894054 0.071597882 0.82461834
0.0037025069 0.079705924 0.82386678
0.0080198338 0.07804852 0.82256961
0.012895568 0.077249207 0.82221097
0.017340835 0.077390388 0.82148463
0.021868479 0.077696815 0.82085806
0.027421728 0.076371051 0.82096636
0.032484584 0.076395482 0.82123977
0.037806008 0.077668488 0.82084739
0.041978035 0.077917755 0.82117009
0.047175936 0.07677611 0.82367337
0.0029323117 0.082731403 0.82347792
0.0074468744 0.082333013 0.82089067
0.01287635 0.081717178 0.82097745
0.016693702 0.08166606 0.82046652
0.04242586 0.082301416 0.82136166
0.045186773 0.082001776 0.82383335
0.0029282935 0.087215543 0.82242209
0.042828966 0.08725328 0.82277769
0.0030840528 0.091575488 0.82310402
0.042026948 0.09177313 0.82213312
0.0033939779 0.096847124 0.8236683
0.0052195285 0.099258251 0.82079977
0.042130318 0.096597552 0.82415557
0.0071384129 0.10260229 0.82159978
0.03812103 0.10380927 0.82056653
0.041260973 0.10247675 0.82213324
0.0084870309 0.10689852 0.82230818
0.012876482 0.10869879 0.8209886
0.017081933 0.10955781 0.82074982
0.021279242 0.10987471 0.8202666
0.02894943 0.10995509 0.82086647
0.033158481 0.10957132 0.82084978
0.037562583 0.10747972 0.82090813
0.040466279 0.10699495 0.82157761
0.0098426174 0.111056 0.82336676
0.012680938 0.11214634 0.82253331
0.017486114 0.11313268 0.82175535
0.022076007 0.11309249 0.82146639
0.027439797 0.1130963 0.82149428
0.032814354 0.11313859 0.82179987
0.037500098 0.11238159 0.82372594
0.04063157 0.11049979 0.82493335
0.014465181 0.11501042 0.82426679
0.018307205 0.116539 0.82423347
0.022445153 0.11708562 0.82376003
0.027506929 0.11720288 0.82350838
0.032891389 0.11723464 0.82373351
0.036007311 0.11660971 0.82473356
0.013788428 0.054038964 0.82980013
0.018033944 0.05362156 0.82931691
0.021971073 0.053374089 0.82906693
0.027664814 0.053939104 0.82826674
0.033046268 0.053898584 0.82764435
0.037894458 0.052582756 0.82816678
0.042325769 0.053148981 0.82797796
0.047192965 0.052867632 0.82758904
0.053427964 0.052979767 0.82773936
-0.0060666143 0.058097113 0.82897162
-0.0024564615 0.05778477 0.82818907
0.0021731879 0.05767991 0.82671672
0.007084331 0.056945577 0.82721227
0.012976435 0.056518048 0.82738107
0.017890794 0.057344832 0.8263135
0.022205157 0.057341296 0.82625341
0.026998444 0.056539018 0.82624441
0.032951277 0.055277392 0.82524461
0.036021866 0.055265486 0.82506686
-0.010698761 0.06423787 0.82862228
-0.0069448869 0.062567562 0.82754666
-0.0024522291 0.062307414 0.82686645
0.0021704659 0.062984206 0.82564449
0.0067916112 0.063388199 0.82590836
0.012941688 0.064481139 0.82515574
0.017562132 0.063572884 0.82532012
0.022178002 0.062953323 0.82525212
0.025261749 0.062199362 0.82543349
-0.010180678 0.068579122 0.82830006
-0.007088149 0.067781106 0.82796317
-0.0024542063 0.067746319 0.8275333
0.002174435 0.067710087 0.8270961
0.0075725573 0.067703605 0.82701641
0.012970095 0.067698516 0.82695532
0.017588666 0.067667045 0.82656276
0.022201803 0.067632593 0.82614815
0.027109897 0.067575812 0.82546014
0.054482568 0.067538291 0.82500005
-0.0067879194 0.071572617 0.82906371
-0.0024588567 0.072494186 0.82902259
0.0021794613 0.07249137 0.82899302
0.0075824033 0.072423995 0.82822794
0.012969983 0.072314233 0.82697022
0.01738536 0.072041616 0.82605833
0.022182174 0.07141123 0.82542235
0.052990124 0.072972499 0.82570517
-0.0015315969 0.076824591 0.82916033
0.0021728305 0.077224925 0.82685328
0.0064811134 0.075877875 0.82557344
0.048372876 0.078864418 0.82575566
0.052628741 0.076521128 0.82809108
-0.00091307634 0.082547396 0.82933348
0.00063199777 0.082334206 0.82718325
0.047511738 0.082946643 0.82751673
0.050076202 0.080922075 0.82846665
-0.00091195101 0.087839901 0.8283112
0.00063065224 0.087533765 0.82542247
0.045849741 0.087513283 0.82886684
-0.00091355632 0.091081686 0.82976943
0.0010173558 0.092737772 0.82732546
0.043855771 0.092397161 0.82771128
0.0014067261 0.096392162 0.82897627
0.04393819 0.097196028 0.82926691
0.003716589 0.10231471 0.82700014
0.0052510593 0.10446607 0.82575852
0.042786125 0.10255942 0.82691121
0.0057789087 0.10783102 0.82802171
0.042301849 0.10776877 0.82751113
0.0083437879 0.11233356 0.82713336
0.041267153 0.11236506 0.82737774
0.0098995995 0.11632097 0.82813346
0.012774665 0.11709912 0.82682502
0.017187973 0.11792007 0.82584995
0.022204509 0.11937921 0.82620001
0.027568795 0.11976989 0.82536674
0.032942571 0.11971989 0.8250224
0.037810478 0.11741089 0.82631665
0.040831875 0.11721402 0.82900017
0.013514874 0.1213043 0.82885581
0.017621133 0.12247971 0.82810569
0.022087961 0.12287419 0.82765329
0.027610077 0.12302792 0.82662219
0.032987949 0.12295794 0.82614803
0.037713122 0.1222667 0.82840759
0.022284279 0.12649946 0.8292225
0.027665649 0.12635875 0.82830012
0.032687351 0.12674461 0.82830006
0.036231421 0.12659778 0.82986677
0.023997249 0.049717795 0.83499974
0.027111826 0.049717795 0.83499974
0.03256233 0.049717795 0.83499974
0.0380118 0.049716473 0.83497757
0.042683538 0.049716473 0.83497757
0.047356535 0.049717795 0.83499974
0.053585663 0.049717795 0.83499986
-0.0061003938 0.053769577 0.83360291
-0.0024721753 0.053508844 0.83357781
0.0021874185 0.053408142 0.83201116
0.0078794071 0.053164318 0.83224446
0.012829191 0.052198734 0.83212376
0.017381942 0.051670499 0.83143997
0.022737153 0.051449601 0.8316167
0.027009169 0.05184928 0.83183336
0.032437518 0.051849179 0.83182502
0.036277972 0.051021378 0.83093327
0.042468727 0.051011816 0.83077782
0.047161639 0.051059585 0.83155555
0.052643195 0.051113747 0.83243769
-0.0076431488 0.056776602 0.83222985
-0.002464629 0.055661414 0.83097768
-0.010757274 0.061999921 0.8330794
-0.0086536119 0.060227823 0.83000016
-0.010978274 0.066419348 0.83019614
-0.0063417451 0.074236304 0.83126366
-0.0063570538 0.077511303 0.83321553
-0.0036265738 0.077672273 0.83079994
0.054098707 0.078070149 0.83092213
0.055010885 0.079039991 0.83300006
-0.0055880458 0.080737881 0.83453304
-0.002664645 0.0822687 0.83235002
0.052143771 0.082107536 0.83267766
-0.0055911713 0.086996078 0.83499992
-0.0031361475 0.087190144 0.83261907
0.048128631 0.088561051 0.8321867
0.051038962 0.086591825 0.83409309
-0.0021622735 0.092422254 0.83351678
0.047070876 0.092832893 0.83335829
0.043998241 0.097329713 0.83040017
0.045710292 0.097678222 0.83337784
0.04404062 0.10283442 0.83120012
0.045759037 0.10088673 0.83426654
0.0037373547 0.10830164 0.83162069
0.0052843899 0.10976665 0.83100003
0.043998238 0.10505326 0.83040011
0.0037466525 0.11089798 0.83368957
0.005916751 0.11342088 0.83285332
0.042464867 0.11359052 0.83070004
0.0087873926 0.11810914 0.83260006
0.042657416 0.1179859 0.83446664
0.00995671 0.12241628 0.83291095
0.011991124 0.12307171 0.83037782
0.041758243 0.12228542 0.8320334
0.013056079 0.12700358 0.83251858
0.017690716 0.12759718 0.83134443
0.022347515 0.12840912 0.83159995
0.026987018 0.12911375 0.83115548
0.032511234 0.12917642 0.83084762
0.038305081 0.12709785 0.83168572
0.041821126 0.12634681 0.83329773
0.014027889 0.131705 0.83483982
0.017751481 0.13191396 0.83419245
0.022415893 0.13190357 0.83412576
0.027076235 0.13264309 0.83389997
0.032487862 0.13251424 0.83309162
0.037454054 0.13138148 0.83409983
0.017378788 0.13553543 0.83499974
0.023218606 0.13514711 0.83499974
0.027111826 0.13553543 0.83499974
0.032562066 0.13638866 0.834993
0.036455523 0.13592376 0.83499974
0.0076823193 0.049955968 0.83900023
0.012888101 0.049397677 0.83836669
0.017830333 0.049267862 0.83793336
0.022183497 0.048907194 0.83709335
0.027207324 0.04755415 0.83794445
0.031584181 0.047711752 0.83797342
0.037366681 0.048335671 0.83796674
0.043140762 0.047701783 0.83780003
0.047725599 0.046975955 0.8380667
0.051845048 0.047794469 0.83762974
0.055272508 0.048275452 0.83696169
-0.010287611 0.05450784 0.83700001
-0.0075487914 0.052902788 0.83624995
-0.0024824694 0.051385686 0.83686662
0.0021990461 0.051362488 0.8364889
0.0068763942 0.051347483 0.83624434
-0.010273953 0.057544898 0.83588886
-0.010275319 0.077770159 0.83600003
-0.0087213656 0.077816971 0.83649844
-0.010296389 0.08182545 0.83771431
-0.0073603373 0.082700811 0.83672625
0.053684078 0.084043592 0.83653325
0.055206731 0.082432739 0.83596545
-0.010287611 0.085647464 0.83700001
-0.006896229 0.086815424 0.8357572
0.053328495 0.087601051 0.83706665
0.055351689 0.087326609 0.83816051
-0.0035187108 0.093302488 0.8358385
0.048956793 0.094845571 0.83573329
0.05217661 0.091914058 0.83734822
0.05541373 0.091325536 0.83910012
-0.0028749886 0.096169256 0.83710641
0.00064112799 0.098353356 0.83913338
0.048230007 0.098060898 0.83663338
0.051012874 0.09706594 0.83878672
0.04710231 0.10242838 0.8373667
0.0029764718 0.10806333 0.83575869
0.044250786 0.10798655 0.83516669
0.046025962 0.10772054 0.83913326
0.0017518013 0.11227117 0.83650368
0.044363819 0.11293611 0.83729994
0.0023733713 0.11695966 0.83699298
0.0060969912 0.11823189 0.83619994
0.0037712655 0.12099256 0.83916676
0.0070859953 0.12297367 0.83804178
0.0074782958 0.12749411 0.83830005
0.010004795 0.12845422 0.83693331
0.041965552 0.12911427 0.8361665
0.0072094412 0.13168861 0.83869344
0.011116521 0.13254364 0.83677137
0.039098188 0.13323569 0.83599979
0.042042155 0.13246919 0.83770007
0.012962246 0.13678786 0.83765185
0.018108588 0.13785267 0.83633327
0.022252528 0.13736095 0.83631414
0.027151605 0.1378354 0.83622658
0.032580614 0.13833646 0.83549988
0.038565196 0.13730024 0.83730477
0.041347399 0.13665137 0.83946681
0.0141938 0.14091878 0.8385334
0.017824616 0.14181158 0.8376593
0.0225161 0.14183924 0.8378222
0.027196011 0.14180137 0.83759999
0.032428697 0.14156359 0.83703631
0.037621468 0.14183825 0.8378222
0.028031714 0.14519915 0.83923352
0.032323126 0.14553185 0.83890009
0.035847731 0.14515877 0.83900023
0.02743499 0.044023465 0.84495544
0.030588388 0.044025782 0.84499991
0.036104154 0.044025782 0.84499991
0.043195862 0.044025782 0.84499997
0.04777351 0.043889169 0.8423779
0.052571293 0.043957472 0.84368879
-0.00092834339 0.048637524 0.84320009
0.0025315918 0.048021749 0.84341347
0.0069303 0.047041867 0.84275556
0.012124345 0.046751264 0.84316665
0.017615978 0.047036678 0.84265345
0.022636021 0.046234801 0.84232217
0.027322657 0.04540937 0.84151101
0.032445695 0.045830302 0.84206671
0.037216365 0.046337899 0.8421523
0.042117529 0.045768462 0.84237337
0.046128351 0.045381788 0.84099972
0.053137399 0.045340054 0.84022623
-0.0064163273 0.050871231 0.84125
-0.0024993801 0.050146703 0.8422032
0.0022105572 0.050073732 0.84097767
0.0053428938 0.050027423 0.84020001
0.056574583 0.093340047 0.84084439
-0.0024942919 0.098537415 0.84070373
0.053363007 0.097356915 0.84130657
0.056985501 0.096939921 0.84210008
-0.0021861882 0.10097735 0.84279281
0.0014291984 0.10191128 0.84273273
0.048474379 0.10403349 0.84088314
0.052684434 0.10206247 0.84236676
0.056302764 0.10163413 0.84304029
-0.00092930027 0.10913695 0.844069
0.001166304 0.10859206 0.84187365
0.048238177 0.10816586 0.8426097
0.052600551 0.10601142 0.84417772
0.055750526 0.10601464 0.84420002
-0.0013227278 0.11221744 0.84362221
0.044521015 0.11099067 0.84026659
0.047354605 0.1126752 0.8428477
0.044574 0.11659986 0.84126663
0.04626365 0.11690502 0.8434667
0.0037807042 0.12364208 0.84126663
0.0030002266 0.12699875 0.84277278
0.0058663115 0.12767966 0.84037775
0.0031602681 0.13149247 0.84344083
0.0065264106 0.1342344 0.84144819
0.0037937365 0.1358455 0.8441667
0.0071615502 0.13765843 0.84358597
0.010578275 0.13875549 0.8411777
0.042618394 0.13813421 0.84136665
0.011818676 0.1430243 0.84277034
0.039851289 0.14392902 0.8409332
0.042162739 0.1424408 0.84323406
0.012447163 0.14757943 0.84391683
0.01791171 0.14720261 0.84175557
0.022634031 0.14728419 0.84222233
0.027102973 0.14762919 0.84163809
0.031691797 0.14797746 0.84082639
0.037627861 0.14738968 0.84183699
0.040807899 0.14768112 0.84449989
0.013766218 0.15183292 0.844289
0.017953269 0.15225025 0.84369642
0.0226826 0.15230912 0.84402233
0.027390009 0.15222871 0.84357798
0.032066915 0.15202534 0.84245205
0.036796812 0.15208825 0.84280008
0.040037677 0.1516746 0.84486651
0.032164332 0.15562804 0.84499997
0.036098458 0.15560348 0.84486651
0.054484125 0.034758363 0.84900004
0.046589095 0.039514899 0.84940034
0.053475253 0.038505845 0.84807122
0.0030200775 0.044190757 0.84816688
0.0069680661 0.043358762 0.84733343
0.012495153 0.043341469 0.84699178
0.018047249 0.043398216 0.84811133
0.022789946 0.043393582 0.84802246
0.027532617 0.042603519 0.84797794
0.032574438 0.0432082 0.84749347
0.037546836 0.042336415 0.84793347
0.042549994 0.042201173 0.84783345
0.047998935 0.041732162 0.8463223
0.051941421 0.04172992 0.84626675
-0.0064647566 0.048093498 0.84746134
-0.0025142129 0.047317483 0.84768289
0.0018296007 0.046064638 0.84636676
0.018771062 0.045603052 0.84509993
-0.0072340677 0.050313234 0.84500003
-0.0056648278 0.09915819 0.84600002
-0.0060761073 0.10219349 0.84832764
-0.0029039287 0.10345869 0.84577584
-0.0064793248 0.10903759 0.84940481
-0.002711606 0.106981 0.84719843
0.0014344178 0.10618344 0.84555167
0.052692223 0.10855486 0.84564447
-0.0056849169 0.11056493 0.84900004
-0.0033025814 0.11188457 0.84703463
0.049562111 0.11333062 0.84606659
0.052615881 0.11176086 0.84758353
0.048399575 0.1173472 0.84780025
0.051345538 0.11615654 0.84946668
0.0022215459 0.12419078 0.84500003
0.044902503 0.12297937 0.84746677
0.047345985 0.12079705 0.84876704
0.00064612436 0.12822233 0.84567279
0.0011721806 0.13218002 0.84583336
0.044942327 0.13176316 0.8482182
0.0069537382 0.13999775 0.84553325
0.044886012 0.13711448 0.84715575
0.0074911602 0.14259842 0.84696823
0.044097953 0.14262798 0.84716672
0.045015536 0.14383191 0.84960008
0.0081551196 0.14742742 0.84756672
0.042672981 0.14845455 0.84712011
0.045027599 0.14545126 0.84982783
0.0080220122 0.15187012 0.8474223
0.011382484 0.15306991 0.84649336
0.042167049 0.15305786 0.84693342
0.014889279 0.15705033 0.84843349
0.0180379 0.15769911 0.84767431
0.022761919 0.15757272 0.84700006
0.02749172 0.15751764 0.84670377
0.032225173 0.15828755 0.8466112
0.037186105 0.15794003 0.84655243
0.041398481 0.15667048 0.84851682
0.02282065 0.16113645 0.84917814
0.027566388 0.16110273 0.84900028
0.032321606 0.16112803 0.84913367
0.036298223 0.16120392 0.84953356
-0.005718396 0.034963071 0.85400003
0.051557228 0.034921672 0.8529889
-0.0073111169 0.039728884 0.85400003
0.01339373 0.03972733 0.85396671
0.018490735 0.039093219 0.85400009
0.022948742 0.038930584 0.8539167
0.027418321 0.039104782 0.85425341
0.032506898 0.039728884 0.85400003
0.037279867 0.039326284 0.85389173
0.042381428 0.039257303 0.8524
0.047628019 0.038720489 0.85181433
0.05177604 0.037071232 0.85136002
-0.0071017197 0.043038767 0.85269576
-0.0025287892 0.0428317 0.85255432
0.0020133292 0.042358249 0.85214764
0.0070020757 0.041193306 0.85143328
0.012548472 0.041156217 0.85066664
0.01810506 0.041164819 0.85084438
0.022862172 0.041157294 0.85068887
0.027625846 0.041163743 0.85082215
0.032392707 0.041172344 0.85099989
0.035566971 0.041172344 0.85099989
0.040287267 0.041130412 0.85013348
-0.0064933738 0.045929767 0.8511548
-0.0041082851 0.045889053 0.85040003
-0.0072768726 0.10437051 0.85000008
-0.006230691 0.10718281 0.85140604
0.054586813 0.11393789 0.85059994
0.049843263 0.11872194 0.85086656
0.053579275 0.11760325 0.85258573
0.056409646 0.11759558 0.85418099
0.048788596 0.12242165 0.85091108
0.053168997 0.12223473 0.85328889
0.056406509 0.12235544 0.85413343
0.046745375 0.12762967 0.85221946
0.051005818 0.12684208 0.85438693
0.047236253 0.13265097 0.85393339
0.046737779 0.13791661 0.8521111
0.046389461 0.14281859 0.85298669
0.0069985613 0.14802369 0.85098332
0.04617288 0.14796785 0.85340005
0.0070017134 0.15046582 0.8513667
0.045270443 0.15259375 0.85441118
0.012179752 0.15703735 0.85265005
0.041943695 0.15894723 0.85155553
0.014977027 0.16115062 0.85343337
0.018128207 0.16245686 0.85195547
0.022869954 0.16385669 0.85099989
0.027630247 0.16385032 0.85096651
0.032392707 0.16385669 0.85099989
0.03715485 0.16333219 0.85101652
0.041423075 0.16235684 0.85393345
0.018624773 0.16656925 0.85389054
0.022932731 0.16827726 0.85334444
0.027696662 0.16821018 0.85299999
0.0324899 0.16831902 0.85355556
0.037277304 0.16784175 0.85382229
0.040491026 0.16610757 0.85443342
0.01977131 0.17084226 0.85426676
0.023269456 0.17222121 0.85401332
0.027735516 0.17301574 0.85420841
0.032110564 0.17199036 0.85405004
0.037299018 0.17111564 0.85431123
0.04313698 0.0335907 0.85953337
0.047107469 0.032764312 0.85884881
0.050249022 0.033522692 0.85779303
-0.0057340204 0.038245108 0.85633343
-0.0026845066 0.037671208 0.85648179
0.0022532584 0.039863274 0.85688895
0.0070457165 0.039858107 0.85677785
0.012245597 0.038279112 0.85714179
0.017323976 0.036906373 0.85700023
0.022641972 0.036297437 0.85740012
0.028239207 0.037096586 0.85743332
0.032616738 0.037471276 0.85688901
0.037681215 0.036713324 0.85782862
0.042040277 0.036504339 0.85759163
0.046959653 0.035847701 0.8561669
0.058126226 0.11864202 0.85600001
0.058094542 0.12255535 0.85553342
0.053558767 0.12761119 0.85589069
0.0573957 0.12755083 0.85700649
0.048547536 0.13297293 0.85600001
0.051370103 0.13217084 0.85742867
0.056307979 0.13139664 0.85870254
0.048547536 0.13695376 0.85600013
0.050283272 0.13733454 0.8583777
0.048547536 0.14252688 0.85600007
0.050321344 0.14223233 0.85902762
0.048576519 0.14818864 0.85651118
0.047668196 0.15280862 0.85740012
0.011054356 0.15880364 0.85791683
0.046244644 0.15636551 0.85766673
0.01281062 0.16242829 0.85766685
0.015016219 0.16395946 0.85566694
0.043741137 0.16236807 0.85566682
0.013469885 0.16775995 0.85882217
0.015670639 0.16763888 0.85657346
0.042676281 0.16765906 0.85714293
0.013486264 0.17116228 0.8598668
0.017171239 0.17220569 0.85709631
0.021386204 0.17340152 0.85513359
0.027761212 0.1749649 0.85500014
0.033349995 0.17341501 0.85520017
0.037773877 0.17318942 0.85605031
0.042024113 0.17189512 0.85781914
0.018911097 0.17666885 0.85864002
0.023017459 0.17686863 0.85651129
0.027801285 0.17760672 0.8562336
0.032615695 0.17693764 0.85684454
0.037246097 0.17690933 0.85767502
0.040745363 0.1759472 0.8598001
0.023082167 0.18056317 0.85893339
0.027898036 0.18222181 0.8592149
0.032693777 0.18055384 0.85888886
0.036736574 0.18074535 0.8598001
0.033634268 0.028893398 0.86250007
0.036827944 0.028874682 0.86194134
-0.00094867492 0.033674076 0.86166668
0.00065995724 0.033756576 0.86377776
0.013559202 0.033785474 0.86451739
0.017302662 0.03321483 0.86363059
0.023216365 0.03375918 0.86384457
0.028420072 0.033319086 0.86287498
0.03304084 0.032311775 0.8627584
0.037596241 0.03205131 0.86114824
0.04213101 0.031553164 0.86002874
-0.00094860152 0.035274215 0.86160004
0.0022681439 0.036906317 0.86232245
0.0070944875 0.037886761 0.86272001
0.011369345 0.036337916 0.86151123
0.01670265 0.035222355 0.86033344
0.02392919 0.035231907 0.86056679
0.027939038 0.035227809 0.86046672
0.032735288 0.035208706 0.86000019
0.035943106 0.035208706 0.86000019
0.053642198 0.13373479 0.86090004
0.057249557 0.13406882 0.86202222
0.05273398 0.13755932 0.86178666
0.055391114 0.13648941 0.86313337
0.052112501 0.14274992 0.8621555
0.0030687586 0.1475129 0.86188328
0.051163275 0.14760286 0.86239338
0.0038765767 0.1516495 0.86260015
0.050551441 0.15251634 0.86295563
0.0087220268 0.15921949 0.86449993
0.047667868 0.15750855 0.86173344
0.010707963 0.16280381 0.86219174
0.045670182 0.1619577 0.86195546
0.0075110197 0.16842875 0.86430836
0.01110753 0.16758953 0.86206681
0.045736123 0.16701059 0.86320001
0.0079144724 0.17205171 0.86433339
0.012174755 0.17286606 0.86172241
0.015092262 0.17438836 0.86000019
0.043210119 0.17458436 0.86096674
0.045732588 0.17181265 0.86313337
0.0087227477 0.17531534 0.86457145
0.012464985 0.17745472 0.86324447
0.016481919 0.17821501 0.86081916
0.039150942 0.17918763 0.86000019
0.042185932 0.17798203 0.86191112
0.012753488 0.18094298 0.86456674
0.018024046 0.18269739 0.86221665
0.023111822 0.18318708 0.86000019
0.032743659 0.18323225 0.86021131
0.037836496 0.18313496 0.86136198
0.041569304 0.18282583 0.86358011
0.019990023 0.18719244 0.86371684
0.023192832 0.18784578 0.86302233
0.0280177 0.18781598 0.86288524
0.032542147 0.18695927 0.86338013
0.036932241 0.18653259 0.86438346
0.024974389 0.029111145 0.8689999
0.028194452 0.029090302 0.86837769
0.03138477 0.029044146 0.86700004
0.0033552803 0.033319693 0.86635
0.0071282121 0.032721154 0.86674297
0.011638234 0.032858782 0.86552608
0.016793245 0.032195281 0.86500019
0.022754023 0.031719159 0.86666679
0.027841693 0.031318076 0.86745346
0.031337708 0.03061096 0.86570013
0.0071164323 0.035830006 0.86535019
0.057594191 0.13809991 0.86719573
0.053972393 0.14180906 0.86619902
0.05573054 0.14217289 0.86842227
0.0014688681 0.14834061 0.86671734
0.053632803 0.147219 0.86722499
0.055763345 0.14548853 0.86893326
0.0019569297 0.15241021 0.86785334
0.053247388 0.15170708 0.8675251
0.0039077355 0.15772048 0.8695333
0.0063240603 0.15813616 0.86737502
0.049114693 0.15949576 0.86600018
0.051367324 0.15657409 0.86766672
0.0077860518 0.16215193 0.86814672
0.048363063 0.16290481 0.86699462
0.050912011 0.1616856 0.86911106
0.0039021329 0.16799124 0.86828661
0.0068058274 0.16675887 0.86691344
0.047990583 0.16745003 0.8675667
0.0039079124 0.1722852 0.86957276
0.0055052615 0.17233033 0.86573344
0.010344093 0.17305206 0.86531675
0.0475276 0.17248483 0.86651129
0.0074542118 0.17710951 0.86705083
0.010356246 0.17809048 0.86633348
0.044218268 0.17862034 0.86500013
0.046819884 0.17769904 0.86835569
0.011450286 0.18294211 0.86768889
0.015187033 0.18353242 0.86540008
0.044317096 0.1822467 0.86693341
0.046034597 0.18183637 0.8688333
0.012000282 0.18580632 0.86850446
0.016843634 0.18750237 0.86762786
0.034566797 0.18842712 0.86570013
0.038232345 0.18818562 0.86644173
0.042476106 0.1872797 0.8678444
0.017952496 0.19131567 0.86906666
0.022245487 0.19268002 0.86792594
0.028179988 0.19294031 0.86788893
0.033062145 0.19208463 0.86857921
0.038135469 0.19214007 0.8688333
0.041728184 0.19133008 0.86913329
0.022555631 0.195724 0.86950004
0.028217301 0.19562148 0.86904436
0.034722514 0.1957465 0.86960006
0.03796421 0.19735438 0.86955565
0.058308307 0.14253384 0.87063223
0.057719987 0.14764735 0.8709408
0.0006655319 0.15394877 0.8710742
0.05422169 0.1537943 0.8702001
0.057527192 0.1523326 0.87109542
0.0018863736 0.15782727 0.87235546
0.053667583 0.15763289 0.87173331
0.057155471 0.1571223 0.87369853
0.0035182356 0.16209459 0.87348789
0.0060803625 0.16312943 0.87106675
0.053553 0.16231732 0.87250566
0.0039221914 0.16560936 0.87275016
0.0063471026 0.16518241 0.87050009
0.049364228 0.16840166 0.87040013
0.051786471 0.16693878 0.87290657
0.049417168 0.17182408 0.87133342
0.051204931 0.17237198 0.874111
0.049442686 0.17758772 0.87178344
0.051191259 0.17720169 0.8738777
0.0083804019 0.18227729 0.87094426
0.048045468 0.18309964 0.87100011
0.051178887 0.18122305 0.87366647
0.0088239256 0.18711042 0.87460005
0.012880322 0.18843926 0.87321848
0.015271271 0.18940662 0.8702001
0.044489197 0.1886192 0.87030005
0.047841776 0.18741006 0.87220836
0.013709014 0.191062 0.87406892
0.016595315 0.19327533 0.87158668
0.033143852 0.19438182 0.8707335
0.036366619 0.1942479 0.8701334
0.043457758 0.19342804 0.87130004
0.047644008 0.19176565 0.87357211
0.017151026 0.1975296 0.87301242
0.021782734 0.19848944 0.87098914
0.02746764 0.1984845 0.87096685
0.03295505 0.19790921 0.87110859
0.038010355 0.19759406 0.87061125
0.042497031 0.19772698 0.87221909
0.046326008 0.19599891 0.87433326
0.018586649 0.20149128 0.87346649
0.022038165 0.2028195 0.8730582
0.027313439 0.20288767 0.873115
0.033238493 0.20306188 0.8732295
0.038082097 0.20283489 0.87225187
0.04193661 0.2020328 0.87346649
0.03002874 0.20500663 0.87459999
0.041446727 0.20500658 0.87459987
0.058956534 0.15920867 0.87624454
0.057427913 0.16276677 0.87785012
0.054129463 0.1681333 0.87745547
0.057531849 0.16633685 0.87945533
0.053512745 0.17242599 0.87853336
0.053158857 0.17751786 0.87946665
0.052544322 0.18190651 0.87829989
0.010501685 0.18957897 0.8785001
0.051401496 0.18772547 0.87746668
0.011853092 0.19263816 0.87754554
0.049660087 0.19302934 0.87561667
0.051499128 0.19135103 0.87913328
0.012607962 0.19752939 0.87855524
0.015370713 0.19878642 0.87586665
0.044739682 0.19863513 0.87520003
0.048394296 0.19748516 0.87732226
0.013789319 0.20281196 0.87918884
0.016467633 0.2026953 0.87632781
0.044376805 0.20250247 0.87608343
0.046960991 0.20226134 0.87857509
0.017605256 0.20706071 0.87871116
0.021697793 0.20765452 0.87694299
0.026827971 0.20792387 0.87660569
0.032196987 0.20779577 0.87655729
0.037798021 0.20800506 0.87645727
0.043449715 0.20763603 0.87797511
0.046622716 0.20625669 0.87993324
0.018725671 0.21118322 0.87999976
0.022195874 0.21245338 0.87932491
0.026895108 0.21171342 0.87880009
0.03182593 0.21262439 0.87918514
0.037067194 0.21243064 0.87905991
0.04087501 0.21278411 0.87984979
0.059760459 0.16372351 0.88006645
0.061397158 0.16289267 0.88000005
0.058854878 0.16787785 0.88124657
0.061456967 0.16550918 0.88085717
0.054890469 0.17289776 0.8809334
0.057776 0.17205012 0.88198578
0.061106008 0.17207249 0.88370466
0.054927848 0.17547515 0.88153338
0.056295611 0.17712998 0.88365006
0.053303935 0.18374377 0.88186657
0.05330326 0.18702249 0.88185549
0.010528356 0.19497535 0.88073063
0.051566496 0.1940577 0.88028324
0.0105246 0.19818129 0.88041645
0.049972963 0.1999817 0.8811332
0.011353122 0.20160389 0.8810634
0.048333291 0.20327525 0.88119984
0.013277468 0.20662665 0.88151097
0.016273377 0.20884661 0.88049984
0.047582172 0.2080837 0.88248324
0.013873141 0.21062574 0.88453335
0.016892692 0.21267064 0.88229054
0.02039157 0.21471716 0.88106656
0.026934443 0.21447881 0.88008863
0.042961322 0.213367 0.88056642
0.045651868 0.21227933 0.88228887
0.017175065 0.21559453 0.88466674
0.022500286 0.21730328 0.88325006
0.027024729 0.21766526 0.88305014
0.031936411 0.21746349 0.88223332
0.036857307 0.21738006 0.88189441
0.041820738 0.21752138 0.88246673
0.045174193 0.21618183 0.88370001
0.032026377 0.22054799 0.8847335
0.036941901 0.22034307 0.88391119
0.04024655 0.22038187 0.88406676
0.06177932 0.17406444 0.88547784
0.057698593 0.17887926 0.88620824
0.061055873 0.17737997 0.8869561
0.056713462 0.1827742 0.88739997
0.061216842 0.18198432 0.88930011
0.056703012 0.18649504 0.88872683
0.05544294 0.19036226 0.88980007
0.048558164 0.20751469 0.88530004
0.013902945 0.21355191 0.88643318
0.048047449 0.21262853 0.88602215
0.013937971 0.21656927 0.88866651
0.017231045 0.21823351 0.8875888
0.021327591 0.21917439 0.88583326
0.04703607 0.21765733 0.88771331
0.01781418 0.2224744 0.88914442
0.022190431 0.22284208 0.88731092
0.027135469 0.22268027 0.88666648
0.032095496 0.22349732 0.8866387
0.037020937 0.22328599 0.88580006
0.042227451 0.22289148 0.88668746
0.04544853 0.22245535 0.8890667
0.018921439 0.22662383 0.88919997
0.022437423 0.22799228 0.8888917
0.027191903 0.22810183 0.88851094
0.032146435 0.22798246 0.88804424
0.037097834 0.22787799 0.88763684
0.041890673 0.22784743 0.88832492
0.045459885 0.22664647 0.88928896
0.058297664 0.18844207 0.89115572
0.061397951 0.18750151 0.89193231
0.056959838 0.19232658 0.89276683
0.060729243 0.19133212 0.89433354
0.054079633 0.19973212 0.89470011
0.0540286 0.20286828 0.89385575
0.052036252 0.20766653 0.89303356
0.012314268 0.21384785 0.89110357
0.051379018 0.21258569 0.89416027
0.013170805 0.21758862 0.89285123
0.048872635 0.2179755 0.89103353
0.01563805 0.22296408 0.89110017
0.048101153 0.22238813 0.89211679
0.016840296 0.22757097 0.89198589
0.059193365 0.19342741 0.89633346
0.06087815 0.19346905 0.89652622
0.057604007 0.19703913 0.89759541
0.061021402 0.19643179 0.89863598
0.055928957 0.20204894 0.89760011
0.054132022 0.20908847 0.89556658
0.055987794 0.20727706 0.89854455
0.053635646 0.21349056 0.89656669
0.056074359 0.21094482 0.89993352
0.052239031 0.21737245 0.89744681
0.014066054 0.22273117 0.89683342
0.049093865 0.22478895 0.89506686
0.051760688 0.2221518 0.89786679
0.059442118 0.19926323 0.90010017
0.061118715 0.19925636 0.90006912
0.058639582 0.20273864 0.90066129
0.06122721 0.20212618 0.90166688
0.058571242 0.20778306 0.90219343
0.05708196 0.2132422 0.90257502
0.054442301 0.21866393 0.90070021
0.056318402 0.21774784 0.9038502
0.012462083 0.223125 0.90180016
