# .PCD v0.7 - Point Cloud Data file format
VERSION 0.7
FIELDS x y z
SIZE 4 4 4
TYPE F F F
COUNT 1 1 1
WIDTH 1192
HEIGHT 1
VIEWPOINT 0 0 0 1 0 0 0
POINTS 1192
DATA ascii
0.040116031 0.066675991 0.81446683
0.009741405 0.091723278 0.81490028
0.011257061 0.091689423 0.81460017
0.032713171 0.059450597 0.81928903
0.037292607 0.059442531 0.81917793
0.028890414 0.062491555 0.8192001
0.032675356 0.062427383 0.81835568
0.037199136 0.062333696 0.81713337
0.04029445 0.062405299 0.81808895
0.028893245 0.066308409 0.81928349
0.03268211 0.067007996 0.81851864
0.03719328 0.066885792 0.8170222
0.040219463 0.066849209 0.81656671
0.032707084 0.070105515 0.81913352
0.037281271 0.070088394 0.81893349
0.018970517 0.079299577 0.8196668
0.022236008 0.078174822 0.81929547
0.025079153 0.077755377 0.81946677
0.0097952001 0.083846502 0.81940013
0.013230389 0.083443113 0.81918353
0.017621512 0.08248648 0.81914186
0.022003414 0.082258098 0.81876308
0.025071671 0.082304768 0.81922239
0.0030702194 0.088703975 0.81921351
0.0074885646 0.08749608 0.81791252
0.012819261 0.087430984 0.81730574
0.01741999 0.087572329 0.8186112
0.021705065 0.08731176 0.81902015
-0.00090272748 0.091527268 0.81993324
0.0025887361 0.092721559 0.81893349
0.0070138341 0.092756405 0.81598681
0.013230662 0.092800148 0.81580025
0.01741745 0.092885353 0.81845939
0.020494206 0.091475151 0.81946671
0.0036806369 0.096755289 0.81900018
0.0074847285 0.097349502 0.8175835
0.012819302 0.097312741 0.81727409
0.016510731 0.09720929 0.81897354
0.0090273693 0.10057221 0.81906688
0.012466702 0.10097396 0.81923354
0.023170277 0.059286099 0.82406682
0.027691212 0.057714008 0.82249981
0.032822344 0.056588478 0.82201469
0.037453763 0.056636419 0.82271844
0.040950973 0.058614556 0.8236168
0.022898195 0.062819861 0.8235001
0.025895758 0.062639169 0.82113314
0.042001951 0.062677644 0.82164437
0.023051424 0.067415349 0.82349336
0.02665408 0.067586362 0.82092482
0.041992873 0.066484496 0.82146662
0.018535763 0.07451573 0.82297772
0.022407416 0.072982587 0.82238656
0.027422544 0.072555698 0.82099563
0.032593589 0.073137194 0.82108313
0.037407696 0.072617896 0.82168883
0.040441114 0.070270985 0.82106662
0.0083098961 0.078819595 0.823762
0.013054913 0.077745005 0.82259977
0.017140577 0.077442102 0.82154059
0.021296412 0.076367952 0.8209331
0.028190739 0.077907048 0.82105899
0.032889873 0.077392332 0.82370001
0.036750179 0.075132579 0.8241334
-0.017790064 0.084214896 0.82300007
-0.0055233198 0.084405869 0.82486689
-0.0021371965 0.083713047 0.82409346
0.002163785 0.082718544 0.82335567
0.0073139877 0.082410045 0.82166654
0.012569865 0.081562661 0.82095969
0.015920905 0.080863751 0.82006663
0.028237261 0.082620494 0.82236278
-0.017790064 0.087276772 0.82300001
-0.006283523 0.08733853 0.82358891
-0.0024365336 0.087094031 0.82128119
0.0016473155 0.08653339 0.82078862
0.023581497 0.088541515 0.82053316
0.026505081 0.086998165 0.82217491
-0.017797269 0.092672884 0.82333338
-0.010138481 0.092845201 0.82486683
-0.0067102071 0.092442431 0.82355565
-0.0025751228 0.092491321 0.82110274
0.00062684907 0.092601798 0.82044417
0.022412293 0.093037039 0.82128865
0.025810946 0.091594853 0.82328004
-0.0101393 0.095154457 0.82493347
-0.0070617073 0.095146775 0.82486689
-0.0020033687 0.097812437 0.82330471
0.0017214542 0.098027483 0.82144743
0.018620247 0.098145127 0.82106644
0.021680886 0.097781464 0.82304758
0.025227064 0.09584856 0.82430017
0.0033185463 0.10232417 0.82396674
0.0072114854 0.10265453 0.82109308
0.01318226 0.10324822 0.82095975
0.017491579 0.10245279 0.82192582
0.020629255 0.10128441 0.82486683
0.0081270374 0.10678538 0.82258511
0.012887866 0.10701132 0.82170349
0.016751142 0.10721347 0.82325554
0.009856564 0.11044621 0.82453352
0.012928369 0.11041049 0.82426685
0.018413484 0.05398687 0.82900035
0.022278724 0.053986866 0.82900029
0.027653588 0.053917404 0.82793343
0.033028293 0.053868193 0.8271777
0.037693825 0.053150449 0.82800007
0.042075813 0.053378284 0.82913363
0.0093930811 0.058089707 0.82886696
0.013181217 0.057203606 0.82814181
0.017600197 0.057710093 0.82713336
0.021862755 0.057052568 0.8262741
0.026060509 0.055352572 0.82636654
0.042869542 0.05714459 0.82728332
0.045494527 0.057101909 0.82944459
0.0095209815 0.06129729 0.82880032
0.012986399 0.062398206 0.82805014
0.017581034 0.063030154 0.82625175
0.020633146 0.062936053 0.8250224
0.04377218 0.063020922 0.82613331
0.045514043 0.060985234 0.82980001
0.013778988 0.067885943 0.82924479
0.017602181 0.067722529 0.8272444
0.021022249 0.067554757 0.82520008
0.043449238 0.068111055 0.82730007
0.0099099586 0.074034125 0.82900035
0.013188673 0.072651297 0.82862514
0.017396299 0.072090149 0.8266083
0.020632589 0.071374945 0.82500017
0.041505884 0.07231921 0.82701665
-0.016373662 0.078660451 0.82900006
-0.012517089 0.078707412 0.82949507
-0.0070984825 0.077901818 0.82913369
-0.0022644578 0.077264391 0.82850856
0.002174949 0.077736169 0.82739449
0.0069720275 0.076587357 0.82697779
0.012176609 0.075254098 0.82546681
0.033753313 0.079915553 0.82603347
0.037878774 0.077389099 0.82718098
0.040836804 0.076356694 0.82910025
-0.01632621 0.082274914 0.82659751
-0.01228094 0.082796231 0.82851362
-0.0072240476 0.082143657 0.82738787
-0.0026713535 0.081049331 0.82640928
0.033008378 0.08305122 0.82665169
0.037420727 0.082338914 0.82876694
-0.016314117 0.087594055 0.82598525
-0.012483847 0.087731957 0.82729441
-0.0086044967 0.087519251 0.82528895
0.029512927 0.087970637 0.82591665
0.03287296 0.087624572 0.8280918
0.036196504 0.086377889 0.82906699
-0.016319199 0.092231065 0.82624245
-0.012941537 0.092159227 0.82697326
-0.0086028753 0.090572834 0.82513344
0.028649842 0.092305653 0.82691115
0.031567752 0.09218879 0.82931691
-0.016326981 0.096889295 0.82663631
-0.012694829 0.097108677 0.82731509
-0.0072927261 0.097267345 0.8261143
-0.0039896024 0.099099584 0.82583338
0.023736682 0.099111684 0.82593334
0.027309923 0.097208619 0.82748574
0.030017648 0.096421927 0.82923359
-0.011346464 0.10060776 0.82877147
-0.0067469976 0.10186613 0.8282001
-0.0024545225 0.10312539 0.82731843
0.0012469739 0.10325662 0.82590663
0.022411441 0.10324207 0.82671666
0.026031764 0.10222537 0.8289336
-0.0019433087 0.10743359 0.82890034
0.0021740808 0.10773075 0.8272295
0.0057636364 0.10855636 0.82571107
0.019111441 0.10753816 0.8257556
0.022270389 0.10791311 0.82863712
0.0021794317 0.11105052 0.82904482
0.007360972 0.11246846 0.82709098
0.012954102 0.11294069 0.82594442
0.017592605 0.11227483 0.82669628
0.021507502 0.11182474 0.82906699
0.0086696697 0.11625066 0.82873344
0.012994691 0.11714803 0.82853353
0.017193429 0.11695582 0.8287335
0.03801075 0.04971515 0.83495528
0.042653944 0.048905451 0.83439988
0.045799252 0.049717795 0.83499974
-0.00091931585 0.054377582 0.83499974
0.0025046042 0.05372069 0.83445323
0.0076337 0.053520959 0.83376664
0.013060285 0.052681137 0.83276296
0.017474154 0.052165251 0.83159053
0.022358892 0.05185828 0.83197778
0.027031118 0.051890109 0.83248883
0.032461971 0.051888265 0.83245832
0.037851587 0.051054131 0.83146662
0.042889662 0.051438317 0.8314333
0.046448719 0.052675728 0.8326667
-0.00091931579 0.057484109 0.83499974
0.0021891759 0.057353754 0.83311862
0.0070077647 0.056876224 0.83117032
0.011480931 0.055649512 0.83079988
0.047210336 0.057307262 0.83242226
-0.00091931579 0.062143892 0.83499974
0.002189992 0.062018976 0.83331859
0.0070066783 0.062372182 0.83114076
0.04683432 0.062353443 0.83261669
-0.0012306557 0.068037361 0.83489311
0.0021926519 0.067509033 0.83412772
0.0074669658 0.067541949 0.83261335
0.011477247 0.067991562 0.83053327
0.045645673 0.065031603 0.83220011
-0.010263027 0.074569963 0.83499974
-0.0069203833 0.073395252 0.8342666
-0.0024707005 0.072820716 0.8327778
0.0021876162 0.07276094 0.83208895
0.0074048783 0.072603226 0.831891
0.011481853 0.071109697 0.83086658
0.04368411 0.073123068 0.83178341
-0.012294618 0.077219278 0.8319481
-0.0071167634 0.075780876 0.83124441
-0.0040129507 0.0757282 0.8306666
0.04299837 0.077658549 0.83242857
-0.014073136 0.080308989 0.83010018
0.039358437 0.081895836 0.83053327
0.042126529 0.08189027 0.83272362
0.034708787 0.089613415 0.83046657
0.038043089 0.087781742 0.83139998
0.041439328 0.086446203 0.83343315
0.033705339 0.093296744 0.83116668
0.037770916 0.092508353 0.83393323
0.032933637 0.097735323 0.83253336
0.036445823 0.0978432 0.83477753
-0.012159763 0.10251247 0.83170313
-0.0086556971 0.1034836 0.83020014
0.028543225 0.10207924 0.83133322
0.031940889 0.10182215 0.8339833
-0.010638518 0.10666265 0.83391541
-0.0073200976 0.1070369 0.83229995
-0.0034974504 0.10923111 0.8308444
0.026837274 0.10725112 0.83247495
-0.0068328083 0.11083682 0.83439982
-0.0022789042 0.11301669 0.83358318
0.0021849729 0.11370316 0.83152223
0.022966716 0.11354218 0.83147991
0.025882596 0.11235716 0.83301675
-0.0014383867 0.11702267 0.83497757
0.0021909829 0.11788046 0.83371103
0.0068370621 0.11822898 0.83149523
0.019224329 0.11821666 0.83063328
0.022182355 0.11752752 0.83259171
0.025546376 0.11647081 0.83473319
0.0032334465 0.12168557 0.83499974
0.0076303133 0.12250639 0.83353329
0.013041287 0.1222097 0.83151114
0.017716937 0.12235975 0.83253336
0.021392876 0.12163398 0.83464426
0.008423999 0.12659918 0.83496636
0.013089416 0.12653892 0.83456641
0.017375229 0.12618826 0.83481646
0.0076837521 0.049965892 0.83916682
0.012364078 0.049128514 0.83820838
0.01783126 0.049114119 0.83796668
0.022526711 0.048349243 0.83823705
0.027190618 0.048302665 0.8374297
0.032338746 0.048606504 0.83729333
0.03794577 0.047158688 0.83785003
0.042796776 0.045955401 0.83721113
0.047622051 0.047296438 0.83717573
0.050729003 0.049971852 0.83926672
-0.0069866921 0.053263716 0.83887506
-0.0026795482 0.052784376 0.83745837
0.0018100053 0.05176197 0.83666658
0.0076590879 0.051368289 0.8365832
0.048937261 0.052849472 0.83539981
0.051122416 0.05309638 0.83930016
-0.0069807782 0.057502188 0.83809173
-0.0032619003 0.05759564 0.83662218
0.048989326 0.057573929 0.83628875
-0.0063975565 0.062406998 0.8385334
-0.0032634046 0.06229781 0.83706665
0.049116887 0.060842197 0.83846676
-0.0069814534 0.067253321 0.83818346
-0.0033729263 0.067373857 0.83658087
0.046725966 0.067014173 0.83763331
-0.01755856 0.07416945 0.83633333
-0.012428 0.072975971 0.83779281
-0.0074775061 0.070692092 0.83690661
0.046479002 0.073009357 0.83787781
-0.014950536 0.076203018 0.83587497
0.046715904 0.077904873 0.83745557
0.044305533 0.083232552 0.83619988
0.046374112 0.082277477 0.83835018
0.04378226 0.087631896 0.83810663
0.039639603 0.094150826 0.83646667
0.04185522 0.091573305 0.83708
0.038859587 0.098039962 0.83645552
0.041273523 0.097437851 0.83796674
0.033758603 0.10377857 0.83568311
0.038106047 0.10277772 0.83702219
0.041321125 0.10145105 0.83893353
-0.011827782 0.10803352 0.83552736
0.028680559 0.10878517 0.83533299
0.031865705 0.10746256 0.83712584
0.037082754 0.10682378 0.83910477
-0.012010911 0.11235293 0.83618414
-0.0075461306 0.11313068 0.83586645
0.02811119 0.11241587 0.83690655
0.030351883 0.11075293 0.83846676
-0.011414691 0.11669016 0.83789289
-0.0070108743 0.11711681 0.83712661
-0.0031502699 0.11827697 0.83652371
0.023999164 0.11962413 0.83506638
0.02654897 0.11770205 0.83686656
-0.0071801208 0.12092742 0.83871675
-0.0022909867 0.12294798 0.83786672
0.0016773018 0.12335569 0.83578873
0.023005223 0.12348124 0.83664441
0.026049785 0.12244079 0.83840007
-0.00092305877 0.12633991 0.83840007
0.0024253863 0.12734921 0.83770484
0.006877352 0.1283627 0.83633322
0.013115797 0.12912284 0.83622217
0.01811951 0.1285941 0.83682662
0.022300934 0.12740971 0.83810484
0.025676962 0.12643033 0.83900017
0.0074166036 0.13207002 0.8384667
0.012356843 0.1324627 0.83766121
0.017648762 0.13240503 0.83853352
0.013477342 0.13647339 0.83933342
0.016820915 0.1364017 0.83953351
0.028207498 0.043999732 0.84449989
0.032143638 0.043996837 0.84444427
0.037159193 0.043655146 0.84392005
0.04308017 0.043515656 0.84275007
0.047509275 0.043305617 0.84323996
-0.011154164 0.0478734 0.84354556
-0.0080189686 0.048724052 0.84469992
-0.00092981185 0.04871444 0.84453315
0.0025335161 0.048051991 0.84394675
0.0071285293 0.047246307 0.84289998
0.012096265 0.046379995 0.8429237
0.017914044 0.046993356 0.8418445
0.022682576 0.045546096 0.84404427
0.027325153 0.045412958 0.84157783
0.032440305 0.045823164 0.84193349
0.036774486 0.045452531 0.8423112
0.051321525 0.047424071 0.84256673
-0.015460761 0.053688489 0.84247833
-0.011774554 0.05268513 0.84181654
-0.0076058321 0.050563108 0.84263343
-0.0025007334 0.050198119 0.84306687
0.0022134236 0.050151806 0.84228897
0.0053458619 0.05005521 0.84066647
0.053338408 0.052347507 0.84161896
0.05572851 0.053384602 0.84386659
-0.015853053 0.057996187 0.84243828
-0.011918145 0.057957027 0.84185922
-0.0087627405 0.059423886 0.8404665
0.052245293 0.057742923 0.84159988
0.055801138 0.057384327 0.84496653
-0.016435349 0.062869623 0.84212327
-0.011930344 0.062721804 0.84276319
-0.0087645948 0.062564023 0.8406443
0.049259435 0.063365713 0.8409
0.051376738 0.062382173 0.8434667
-0.016436612 0.067375772 0.84214485
-0.011922519 0.067379691 0.84220719
-0.0087592648 0.065651551 0.84013325
0.048984699 0.06782607 0.84289992
-0.016608968 0.071521148 0.84090251
-0.012688855 0.070409566 0.84096432
0.048661813 0.071698144 0.84139985
0.051047351 0.073850363 0.84453326
0.049265295 0.07667049 0.8409999
0.051059436 0.07543923 0.84473336
0.047757309 0.083817363 0.84206671
0.046632037 0.087437496 0.84299999
0.044160962 0.092691675 0.84086657
0.046292901 0.091859125 0.84400022
0.04384701 0.09716288 0.84234446
0.042776227 0.10233036 0.8418889
0.037976094 0.10922091 0.84107983
0.042342436 0.10751786 0.84368181
0.032237612 0.11294898 0.84175003
0.037393168 0.11282739 0.84336984
0.041610181 0.11284672 0.84479988
0.028862143 0.11729296 0.84062201
0.032102272 0.11767222 0.84334087
0.036662918 0.11744112 0.8449046
0.040043999 0.1171174 0.84499991
-0.010356984 0.12227941 0.84264421
-0.0075942948 0.12324396 0.84121656
0.028269077 0.12244052 0.84161329
0.031684011 0.12227421 0.84417152
-0.010380354 0.12569502 0.84454554
-0.0068228771 0.12583774 0.84286666
-0.0030227315 0.12744783 0.84227782
0.0022106795 0.12984003 0.84086645
0.023387488 0.12987092 0.84106648
0.02779022 0.12711273 0.84203809
0.030554598 0.12640962 0.84406668
-0.0009295179 0.13036497 0.84426671
0.0022146194 0.13247609 0.84270847
0.0058733677 0.13409998 0.84142208
0.019462714 0.13454323 0.84093308
0.022428636 0.13292593 0.84183341
0.02646729 0.13161562 0.84422672
0.0024449583 0.136912 0.84451419
0.0069337427 0.13804905 0.84322977
0.011623737 0.13838193 0.84117132
0.018429041 0.13827755 0.84144431
0.022151671 0.13734674 0.84374458
0.0073408131 0.14183234 0.84474993
0.012438178 0.14275794 0.84325022
0.017749794 0.1425785 0.84335017
0.021119434 0.14139195 0.84446675
0.01388097 0.1471146 0.84485322
0.016797008 0.14735846 0.84489989
0.047375605 0.039510243 0.84930027
-0.0017279211 0.044263702 0.84956694
0.0025469479 0.043579929 0.84857357
0.0069704219 0.043373425 0.84762245
0.012594253 0.04311689 0.84775567
0.018054308 0.043415975 0.84845573
0.022806576 0.043425839 0.8486557
0.027122706 0.042972669 0.84750021
0.032589138 0.041965298 0.84785354
0.037319936 0.0416358 0.84757346
0.042413808 0.041670837 0.84737164
0.048445456 0.04138276 0.84721661
0.052450508 0.043792672 0.84810019
0.056115929 0.044272382 0.84973347
-0.010422812 0.046546705 0.84799999
-0.0070316433 0.046865515 0.84765691
-0.0027100823 0.047086164 0.84706682
0.0018290959 0.046041973 0.84595001
0.0053738421 0.04560126 0.84506661
0.014830204 0.045601256 0.84506649
0.017986452 0.045612048 0.84526658
0.053697221 0.046940994 0.84657347
0.056070432 0.047394115 0.84904462
0.057017505 0.052033957 0.84743166
0.054265928 0.05978683 0.84559995
0.057163499 0.057959575 0.84646827
0.053610787 0.063089579 0.84770012
0.056005858 0.062328644 0.84806681
0.052031618 0.067820691 0.84771127
0.051123917 0.07160072 0.84580004
0.051180001 0.077981263 0.84672809
0.049572516 0.081871837 0.84624457
0.049119722 0.088032991 0.84748906
0.048521273 0.093257375 0.84753811
0.046509847 0.097811222 0.8479557
0.044863641 0.10318237 0.84673333
0.046552524 0.10105734 0.8487336
0.044900138 0.10720646 0.84742236
0.044249553 0.11220185 0.84705335
0.037699576 0.11953644 0.84543335
0.042513862 0.11740472 0.84707928
-0.01197622 0.12276638 0.84601325
0.033757567 0.12346824 0.84543329
0.036969755 0.12287486 0.84675574
0.040824309 0.12275527 0.84810686
-0.012008667 0.12827991 0.848279
-0.0075676041 0.12857446 0.84695309
0.032715093 0.12794839 0.84757149
0.036271513 0.1263431 0.8489002
-0.010436995 0.13190965 0.84915388
-0.0067386017 0.13208644 0.84860021
-0.0027099068 0.13250116 0.84662497
0.028689632 0.13277358 0.84710014
0.030723529 0.13184437 0.84873366
-0.0056853625 0.13584442 0.84906703
-0.0025167966 0.13723861 0.84791869
0.001433943 0.13837579 0.8452332
0.024326798 0.13779081 0.84646666
0.026598955 0.13700545 0.84842694
-0.0014618109 0.14098397 0.84831142
0.0020286501 0.14201848 0.84702504
0.0066428157 0.14420088 0.84619999
0.019559925 0.14464781 0.84513319
0.022772526 0.14232031 0.84732383
0.02600747 0.14070413 0.84980029
0.0030247492 0.14537808 0.84940028
0.0075022853 0.14780678 0.84822243
0.011467269 0.14842711 0.84619045
0.01897143 0.14842676 0.84696007
0.02176944 0.14694647 0.84933358
0.0085710268 0.1517221 0.84953362
0.012985907 0.15290499 0.84820014
0.017849801 0.15284437 0.84808356
0.048471916 0.034990367 0.85466695
0.052833129 0.034578297 0.85430849
0.056966905 0.034456607 0.85457569
-0.0061017377 0.038450085 0.85206252
-0.0029887825 0.03837746 0.85422182
0.0014499414 0.039761446 0.85470015
0.0070237429 0.039731469 0.85405558
0.012594543 0.039718028 0.85376668
0.018172888 0.039729919 0.85402226
0.022965549 0.039754722 0.85455561
0.028138651 0.039347582 0.85435009
0.032504566 0.038931608 0.85394448
0.037241124 0.038887572 0.85299999
0.041925061 0.039598629 0.85119992
0.047650538 0.038285676 0.85220951
0.052881747 0.037972156 0.85379678
0.056828145 0.037764553 0.85448349
0.061233163 0.038176004 0.85480022
0.065954037 0.038140278 0.85400003
-0.010471977 0.044390488 0.852
-0.0070915739 0.042980492 0.85154396
-0.0027536082 0.042340975 0.85178566
0.001841126 0.041584473 0.85134155
0.0069974647 0.041166428 0.8508777
0.012283176 0.041152999 0.85059994
0.01810463 0.041163746 0.85082215
0.022879502 0.041189011 0.85134429
0.02762535 0.041163746 0.85082215
0.03078145 0.041140091 0.85033339
0.053400021 0.041849583 0.85191327
0.057942532 0.042869363 0.85328102
0.062985398 0.043352824 0.85385734
0.065954037 0.044494696 0.85400003
0.058717523 0.047614429 0.85297775
0.062255535 0.047156066 0.85424453
0.058916688 0.05231769 0.85203344
0.06124033 0.052492991 0.85490036
0.059495945 0.055533528 0.85275
0.057942897 0.062713757 0.85330009
0.05478308 0.067503385 0.85365832
0.056348722 0.067472234 0.85325831
0.053021196 0.072827101 0.85093325
0.053063624 0.076846562 0.85161424
0.051457305 0.082361341 0.8513158
0.051546331 0.087262534 0.85278893
0.051583946 0.09209051 0.8534112
0.048277192 0.097397462 0.85123342
0.050017051 0.096899733 0.85383344
0.047752332 0.10253771 0.85318005
0.046730306 0.10778213 0.85197467
0.047558248 0.11261359 0.85255289
0.045980383 0.11740215 0.85278034
0.043534394 0.121997 0.85162228
0.045299876 0.1224748 0.85496676
0.037373748 0.12866633 0.85083324
0.041705463 0.12681787 0.85208887
-0.012320116 0.13308109 0.85159087
-0.0083382865 0.13396189 0.85048252
0.032690849 0.13312197 0.85185552
0.037291203 0.13268314 0.85413343
0.041002542 0.1308127 0.85402232
-0.011559178 0.13743465 0.85403723
-0.0074946219 0.13810021 0.85201818
0.028814293 0.13809778 0.85078323
0.032294698 0.13756733 0.85362923
0.035722982 0.1351611 0.85473353
-0.0065179802 0.14145952 0.85436201
-0.0028437926 0.14286816 0.85139334
0.024434088 0.14393349 0.85020012
0.027881673 0.14294361 0.85254586
0.030928666 0.14226085 0.8544001
-0.012089279 0.14616539 0.85400003
-0.0017358498 0.14763974 0.85333341
0.0020117951 0.14783941 0.85187137
0.0054094512 0.14875969 0.85066658
0.023842195 0.14767379 0.85169995
0.026542233 0.14740182 0.85425842
0.0027750582 0.15195696 0.8538112
0.0065478706 0.15228771 0.85142845
0.010167373 0.15348282 0.85053331
0.022707252 0.15201256 0.85226667
0.007416443 0.15600319 0.85350001
0.012304834 0.15748887 0.8522296
0.018361269 0.15740095 0.85216188
0.021741658 0.1567838 0.85342497
0.014192518 0.16128261 0.85413337
0.017381093 0.16130465 0.85425007
0.042729113 0.033184931 0.85938334
0.046684824 0.032853153 0.85700142
0.051715296 0.033436034 0.8555755
0.058085486 0.033429183 0.85540032
-0.00094151864 0.03819238 0.85516667
0.002653569 0.03869883 0.85760295
0.0070615243 0.038347702 0.85864431
0.01217447 0.037672736 0.85785353
0.017709991 0.037222538 0.85729635
0.022844886 0.03689957 0.85752517
0.027511338 0.037322268 0.85713339
0.032654248 0.036717176 0.85786659
0.037796255 0.036099244 0.85837334
0.042219836 0.036685601 0.85717773
0.046146803 0.035836894 0.85590029
0.053278726 0.035006743 0.85506696
0.059175182 0.03795455 0.85577816
0.062918976 0.0375943 0.85604697
0.059713367 0.041407809 0.85586703
0.062098179 0.041401356 0.85573369
0.064006887 0.048865613 0.85635573
0.066118695 0.047791418 0.85613245
0.059680816 0.050932463 0.85540026
0.063041911 0.052437376 0.85769647
0.066224717 0.051855668 0.85750484
0.059802338 0.058212422 0.85714167
0.061374489 0.055795502 0.85677278
0.059913386 0.061514176 0.85873348
0.058176029 0.066948265 0.85673356
0.054906238 0.073224984 0.85557801
0.057365183 0.072510839 0.85654467
0.054424334 0.078070693 0.85636324
0.057153467 0.077810302 0.85851002
0.053416133 0.082937755 0.85727161
0.055546738 0.082736053 0.85931677
0.053447668 0.087772846 0.85777777
0.055175073 0.088776946 0.85976678
0.053444896 0.092555605 0.85773331
0.051826943 0.097304977 0.8574068
0.051070113 0.10217664 0.85813338
0.048511993 0.10741657 0.85537362
0.050740615 0.10751612 0.85934055
0.050345406 0.11192446 0.85943842
0.048192605 0.1183509 0.85677147
0.047048807 0.12264498 0.85774291
0.043747947 0.12816651 0.85580027
0.04541938 0.12758307 0.85722238
0.042751674 0.1328833 0.85713357
0.045524176 0.13267167 0.85920006
-0.013698021 0.13679376 0.85500002
0.034158174 0.13845974 0.85546696
0.037594087 0.137234 0.85650015
0.042076577 0.13712448 0.85830837
0.045555964 0.13596232 0.85980016
-0.01133092 0.14266521 0.856839
-0.0075547686 0.1437446 0.85580105
-0.0041324403 0.14481379 0.8554002
0.033119012 0.14254189 0.85608917
0.037281446 0.14194283 0.85848331
0.040735886 0.14072777 0.85960007
-0.010525306 0.1481598 0.85633892
-0.0073349825 0.14823514 0.85677665
-0.0041361973 0.14813133 0.85617805
0.028754428 0.14843301 0.85608023
0.032862127 0.14705889 0.85805005
0.035918031 0.14549094 0.85940009
-0.0075478014 0.15308423 0.85827661
-0.0025432517 0.15306807 0.85706669
0.0011859465 0.15390672 0.85582256
0.024589283 0.15439714 0.8556003
0.027637277 0.15291183 0.85730839
0.031651452 0.15085511 0.85960013
-0.0062902994 0.15618126 0.85957789
-0.0025484499 0.15658833 0.85888886
0.0024830415 0.15749073 0.85758102
0.006724725 0.15872347 0.85661352
0.023985578 0.15812312 0.85681343
0.027896067 0.15690172 0.85914445
0.0082652885 0.16258895 0.85893333
0.011380897 0.16278411 0.85665739
0.018213529 0.16320843 0.85590011
0.023064107 0.16284549 0.85817784
0.012396821 0.16716455 0.8585
0.017457535 0.16759236 0.85796124
0.022034174 0.16685814 0.85966665
0.016688081 0.1711092 0.85960007
0.032037757 0.028904565 0.86283338
0.0022713619 0.033740137 0.86335725
0.01154351 0.03338277 0.86450016
0.017562188 0.032931175 0.86321259
0.022945866 0.032554027 0.86234766
0.028230812 0.032329593 0.86325419
0.032834087 0.032105654 0.86260241
0.037405755 0.032260254 0.86138403
0.041559957 0.032011665 0.86006689
0.0022669407 0.036095541 0.86208922
0.0070976377 0.0361351 0.86304456
0.011508377 0.035686474 0.8618834
0.016705131 0.035228726 0.86048907
0.024715727 0.035208706 0.86000019
0.027945824 0.035236001 0.86066681
0.032746162 0.035220534 0.86028904
0.035945892 0.035211436 0.86006677
0.064824663 0.054415278 0.86014819
0.063030742 0.057686362 0.8612054
0.06511496 0.057873365 0.86400002
0.062168956 0.062738262 0.86143875
0.065168798 0.063551292 0.86471438
0.061800666 0.067415126 0.86270016
0.061293241 0.071728736 0.8631112
0.057696983 0.08254306 0.86149418
0.056955323 0.086643465 0.8624168
0.055406798 0.093165845 0.86337781
0.053696197 0.098601699 0.8617667
0.053755056 0.10272177 0.86271113
0.052032568 0.10650118 0.86083329
0.052135337 0.11232856 0.86253339
0.050622392 0.11736264 0.86416668
0.048853803 0.12499876 0.86139995
0.050659481 0.12227473 0.8648001
0.047923334 0.12797035 0.86198676
0.047981612 0.13229844 0.86303341
0.043966081 0.13920431 0.86006677
0.046662387 0.13830733 0.86245334
0.039150942 0.14399284 0.86000019
0.042593796 0.14270681 0.86068344
0.046387125 0.14262207 0.86332017
-0.012195449 0.14905159 0.86150002
0.037802707 0.14760616 0.86124176
0.042297315 0.14747655 0.86282504
0.045826197 0.14642212 0.86490017
-0.011391491 0.15223345 0.86137509
0.033320222 0.15275161 0.86127782
0.037246834 0.15240525 0.86363822
-0.01057645 0.15528136 0.86050004
-0.0077811666 0.15835541 0.86198151
-0.0025550581 0.15859126 0.86108899
0.0014590265 0.15999036 0.86000019
0.027925847 0.15946941 0.86006689
0.032821905 0.15719925 0.8622334
0.036108196 0.15670788 0.86395013
-0.0073986179 0.16076373 0.86415672
-0.0020230892 0.16161366 0.86296672
0.0022645795 0.16270107 0.86164451
0.0062733009 0.16325052 0.86031687
0.028191959 0.16226627 0.86116201
0.031651601 0.16179812 0.86324173
0.0025917818 0.16613647 0.86367339
0.0070883385 0.16757867 0.86200005
0.010820754 0.16914774 0.8604669
0.023663217 0.16863815 0.86058903
0.027554652 0.16669682 0.86277145
0.0075067659 0.1715565 0.86386681
0.012105704 0.17289704 0.8615334
0.017785307 0.17351645 0.86096317
0.022960884 0.17295699 0.86183339
0.026440524 0.17117237 0.86395001
0.008724045 0.17534141 0.8647002
0.012257333 0.17706153 0.86367339
0.017875731 0.17783338 0.86273992
0.022888569 0.17705841 0.86366004
0.017418459 0.18099228 0.8640334
0.02215454 0.18063104 0.86435562
0.007125603 0.029020553 0.86629564
0.023335233 0.029088255 0.86831665
0.02812933 0.029023305 0.86637789
0.0038886596 0.031401288 0.86528885
0.0071197418 0.032221675 0.86570764
0.011967585 0.031428292 0.86605012
0.01682727 0.030650586 0.86682063
0.024095029 0.030639838 0.86651677
0.02650938 0.030628644 0.86620021
0.065754019 0.067759648 0.86710727
0.063102916 0.073568404 0.86586672
0.065468267 0.071923658 0.86868823
0.061606001 0.076934889 0.86750692
0.05877132 0.08373379 0.86550015
0.058903739 0.087957673 0.86745006
0.057369228 0.092125751 0.86871117
0.056049529 0.097593658 0.86707515
0.056099955 0.10293055 0.86785847
0.053952202 0.10793018 0.86587507
0.054121446 0.11311782 0.86859149
0.055808872 0.11001782 0.86964291
0.051709287 0.11763523 0.8661688
0.051792987 0.12266524 0.86756009
0.051225964 0.12710336 0.86755836
0.04913548 0.13377754 0.8663668
0.050902575 0.13175184 0.86895001
0.049177069 0.13711704 0.86710006
0.050956275 0.13593605 0.86986661
0.048751973 0.14269787 0.8667168
0.050925035 0.14232126 0.86933333
0.044311978 0.14997433 0.86683345
0.047917433 0.14721842 0.8677001
0.039458215 0.15399073 0.86675012
0.042747755 0.15257692 0.86787796
0.046696752 0.15165929 0.86909342
0.038127836 0.15808748 0.86711127
0.042331904 0.15655708 0.86884755
-0.0070268372 0.16351247 0.8680796
-0.0036489207 0.16395837 0.86687785
0.033966977 0.16320288 0.86686009
0.037692849 0.16228768 0.86862385
-0.007445375 0.16556467 0.86967295
-0.0023742134 0.1678409 0.86854166
0.0018746785 0.16903321 0.86740839
0.029741487 0.16840178 0.86623347
0.032508519 0.16743594 0.86818886
-0.00095674902 0.17136382 0.8689999
0.0024852613 0.17269914 0.86860001
0.0063173412 0.17328407 0.86647505
0.028613087 0.17280641 0.86696672
0.031486131 0.17152157 0.86980003
0.0039053396 0.17702153 0.8689999
0.0069350926 0.17782655 0.86799574
0.010349073 0.17796722 0.86573339
0.024887212 0.17801473 0.8659668
0.027987722 0.17745969 0.86817503
0.0076873042 0.1821546 0.86906654
0.011990029 0.1824052 0.86768889
0.016418586 0.18336496 0.86650842
0.02330122 0.18294747 0.8669858
0.027008846 0.18233152 0.86926669
0.0087728072 0.18602644 0.86953336
0.012006853 0.18588381 0.86886662
0.017057419 0.1871521 0.86818337
0.021899359 0.18704778 0.8684296
0.062470175 0.083962873 0.87205851
0.062287312 0.087438539 0.87234163
0.059215743 0.092478909 0.87204438
0.062062789 0.092138641 0.87395543
0.058561392 0.097660586 0.87197334
0.061011102 0.096801654 0.8744666
0.058414396 0.10263526 0.87220007
0.056894351 0.10731679 0.87135255
0.056803711 0.11118417 0.8724544
0.054236263 0.11740457 0.87043393
0.05438992 0.12098482 0.87290007
0.052594729 0.12869403 0.8701334
0.052229252 0.13324736 0.87080008
0.051870331 0.13823079 0.87158334
0.051884715 0.14232193 0.87181658
0.049368009 0.14898372 0.87046677
0.05106042 0.14756523 0.8716445
0.048985757 0.1527005 0.87088346
0.051161308 0.15273063 0.87336665
0.04449942 0.15789586 0.87050009
0.047831833 0.15736341 0.87203336
0.03963653 0.16359442 0.87066674
0.042706471 0.16186576 0.87116677
0.046310112 0.16097523 0.87403321
-0.0074541965 0.16805251 0.87068677
0.034773096 0.16849194 0.87086684
0.038239393 0.16713747 0.8711918
0.042051286 0.16707334 0.87360656
-0.0070005949 0.17171744 0.87196571
-0.0027859332 0.1729372 0.87081689
0.00066542433 0.17498532 0.87093353
0.033638399 0.17208984 0.87150484
0.037651625 0.17192963 0.8730427
-0.0066629373 0.17629351 0.87339985
-0.0028203274 0.17733619 0.87224758
0.0020184258 0.17819153 0.87076688
0.029891409 0.17977671 0.8706001
0.03305031 0.17724742 0.87250006
0.036551915 0.17652902 0.87456667
-0.0015049897 0.18091489 0.87348872
0.0020602483 0.1822276 0.87236184
0.0060795392 0.1841612 0.8709113
0.029099256 0.18313834 0.87118351
0.032170575 0.18203937 0.87368876
0.0031125131 0.18617658 0.87403315
0.0074924291 0.18774597 0.87150681
0.012037472 0.18879493 0.87111133
0.01526893 0.18937759 0.8700667
0.023389526 0.18943565 0.87033355
0.027395679 0.1875301 0.87151122
0.031103594 0.18703426 0.87424445
0.0080008795 0.19180897 0.87376654
0.012068502 0.19252868 0.87334442
0.017129848 0.19281712 0.87189174
0.021804644 0.19300941 0.87184441
0.026487511 0.19234753 0.8730523
0.01697549 0.19628471 0.87439996
0.021454278 0.19717564 0.87414163
0.025949208 0.19604751 0.87454998
0.064358644 0.089600682 0.87563336
0.063947342 0.094138555 0.87744445
0.06292364 0.098378137 0.87838
0.059418689 0.1009334 0.87503332
0.061359357 0.10308003 0.87945795
0.059524667 0.10763657 0.87659413
0.05129312 0.15719447 0.87561661
0.044739679 0.16444625 0.87520003
0.048468154 0.16262309 0.87765998
0.044299204 0.16809396 0.87724453
0.047387768 0.1651414 0.87889993
0.039849721 0.17343035 0.87535
0.04276856 0.17263015 0.87779057
-0.0079145944 0.17898393 0.87663341
0.038562 0.17783099 0.87697792
0.041987222 0.17793068 0.87907994
-0.0073162043 0.18282501 0.87843341
-0.0031452219 0.18315709 0.87643892
0.033865992 0.18239599 0.87540007
0.036716919 0.18304142 0.87849534
0.041702628 0.18008088 0.87999976
-0.0063024592 0.18784587 0.87994981
-0.0026077272 0.18802322 0.87886304
0.0016503133 0.18822557 0.87676013
0.0055648242 0.18884526 0.87510002
0.032976817 0.18805021 0.87708342
0.035512142 0.18766481 0.87909997
-0.0015152595 0.1919691 0.87946653
0.0025144215 0.19267339 0.87863338
0.0059875445 0.19299617 0.87731683
0.028411681 0.19371404 0.87503338
0.031320572 0.19252884 0.87810957
0.0075555057 0.19687989 0.87899333
0.012122613 0.19747819 0.8772853
0.016595777 0.1983889 0.87590843
0.022723597 0.19879779 0.87591678
0.027407883 0.19811767 0.87771112
0.030193545 0.19713503 0.8793999
0.012618611 0.20259412 0.87925702
0.017034763 0.20241742 0.877478
0.021949288 0.20244935 0.87761492
0.025675833 0.20239249 0.87914157
0.013802042 0.20627227 0.87999976
0.017072359 0.20695007 0.87939984
0.021661989 0.20675516 0.87926656
0.025290508 0.20627227 0.87999976
0.06640245 0.092617266 0.88108325
0.064689398 0.096609995 0.88013309
0.06369929 0.10168859 0.88157779
0.062528849 0.10699376 0.8820529
0.05976297 0.11134119 0.88010347
0.060873937 0.11187376 0.88431668
0.05823363 0.11811855 0.88179994
0.058414131 0.12259661 0.88453341
0.047978729 0.16744971 0.88071984
0.05011002 0.16848168 0.88355005
0.046958104 0.17255747 0.88233739
0.044998687 0.17604177 0.88026643
0.047049552 0.17736417 0.88277775
0.041996006 0.1824366 0.88120937
0.04560966 0.18216446 0.88415015
-0.0080851158 0.18781434 0.88044429
0.037937675 0.18694739 0.88150001
0.040742252 0.18614949 0.88290006
-0.0058953925 0.19245301 0.88043308
-0.0030211271 0.19322793 0.88023305
0.00067240256 0.19482835 0.88006645
0.033514328 0.19327901 0.88046652
0.036051225 0.19203126 0.88225836
-0.0022876172 0.19667712 0.88248003
0.0027297479 0.19730389 0.88198334
0.0072465679 0.19917698 0.8811999
0.032929484 0.19731084 0.88238001
0.035305493 0.19738875 0.8842001
0.0039767954 0.20083651 0.88490015
0.0072608432 0.20203665 0.88294762
0.010527987 0.20397967 0.88069987
0.027796471 0.20331761 0.88138324
0.030876288 0.2010165 0.88327783
0.0089278426 0.20577487 0.88490015
0.011852448 0.20763174 0.8815999
0.01710538 0.20980816 0.88109994
0.022440718 0.20934522 0.88087487
0.02736273 0.20736614 0.88326675
0.013446567 0.21163762 0.88360012
0.017137339 0.21266739 0.88276118
0.022069996 0.21259391 0.88245565
0.02538871 0.211182 0.88341677
0.018001899 0.21561892 0.88476682
0.022115417 0.21550249 0.88428903
0.065086886 0.10791117 0.8855418
0.062866665 0.11252177 0.88682663
0.065330081 0.1124484 0.88885039
0.061733626 0.11705898 0.88776654
0.061119765 0.12223428 0.88787764
0.058550615 0.12700756 0.88659984
0.061026268 0.12701027 0.8889333
0.05867536 0.13223612 0.88848871
0.060394261 0.13071628 0.88939989
0.05704575 0.13808671 0.88891655
0.057028279 0.14217675 0.8886444
0.057093881 0.14647773 0.8896668
0.050739437 0.17291723 0.8873415
0.048578277 0.17959291 0.88566661
0.050318919 0.17743492 0.88723314
0.047961589 0.1833847 0.88647306
0.050369963 0.18174516 0.88813323
0.038638484 0.18933536 0.88500017
0.042543188 0.18847227 0.88609999
0.046804417 0.18781354 0.88780934
0.050419107 0.18522999 0.88899994
0.038254462 0.19318371 0.88565838
0.042083975 0.19245996 0.88802212
0.046707768 0.19151078 0.88936675
-0.0026262845 0.19931807 0.88546675
0.0015019573 0.19931056 0.88543344
0.037911002 0.19807582 0.8872776
0.041929334 0.19663267 0.88915002
-0.0016387606 0.20268854 0.88723981
0.0021244683 0.20317914 0.88704139
0.0056279926 0.20415948 0.88503343
0.032630015 0.20332254 0.88616651
0.036885388 0.20276178 0.88818085
0.040484782 0.20100823 0.88930005
-0.0018080489 0.20677528 0.88919997
0.0025715311 0.2077875 0.88847607
0.0070812418 0.20794305 0.88624579
0.028776418 0.20938995 0.88626647
0.031900894 0.20762029 0.88776177
0.036341406 0.20598605 0.88936669
0.0031673722 0.21094938 0.88936669
0.007304281 0.21233876 0.88825542
0.011262259 0.21315205 0.88682652
0.027608803 0.21301448 0.8866474
0.031076757 0.21169464 0.88902217
0.0081427386 0.21506935 0.88929999
0.012688923 0.21689734 0.88831663
0.017235154 0.21826977 0.88773322
0.022199042 0.21879472 0.88763309
0.02663173 0.21756046 0.88821101
0.013956792 0.22017235 0.88986683
0.017679585 0.2216903 0.88931668
0.022240696 0.22251101 0.8892889
0.026400503 0.22097096 0.88975
0.067123517 0.11350401 0.89065146
0.063840657 0.11937626 0.89120018
0.067286491 0.11793052 0.89279622
0.063915484 0.12283653 0.89224464
0.066573948 0.12230385 0.89442521
0.063134909 0.12791285 0.89295018
0.061408643 0.13277078 0.89208359
0.058982059 0.13791294 0.89313358
0.059025336 0.1429999 0.89378911
0.058400054 0.14780526 0.8927002
0.057210468 0.15175205 0.89148355
0.052151289 0.17390145 0.89026666
0.052201409 0.17738469 0.89112228
0.052264556 0.18340775 0.89220005
0.050507016 0.18803832 0.89055014
0.048024103 0.19304037 0.89070022
0.050655425 0.19274549 0.89316678
0.043872494 0.19884656 0.89073354
0.04725261 0.19742781 0.89180386
0.050725367 0.19633771 0.89440018
0.042552944 0.2024617 0.89206141
0.046528667 0.20121267 0.89388353
-0.0026421032 0.20880392 0.89080024
0.037809897 0.20783739 0.89138913
0.041511074 0.2069501 0.89352524
-0.0015385589 0.21150081 0.89285582
0.0017893176 0.21294166 0.8919335
0.033262827 0.21257441 0.89132023
0.036241502 0.21170588 0.89372253
0.0031802726 0.21684207 0.89319193
0.0073374216 0.21770023 0.89216703
0.011480929 0.21877894 0.89093357
0.028939851 0.21886899 0.8913002
0.031786032 0.21716668 0.89338917
0.0081903562 0.22131877 0.89450026
0.012125369 0.22271009 0.89257109
0.016182335 0.22310944 0.89057785
0.027869729 0.22303547 0.89248914
0.012915862 0.22740018 0.89442253
0.017318934 0.22737487 0.89214474
0.022297129 0.22721638 0.89152253
0.067943849 0.12376636 0.89598334
0.064151101 0.12828602 0.89553338
0.067880981 0.12737897 0.89751923
0.063828014 0.13264431 0.89685017
0.066688597 0.13167579 0.89972258
0.062254049 0.13718054 0.89705342
0.061789427 0.14194052 0.89760572
0.059125122 0.14990319 0.89530003
0.061382473 0.14655957 0.89777517
0.058630098 0.15339328 0.8962335
0.061018955 0.15212864 0.89860028
0.056742288 0.15773475 0.89721674
0.055960108 0.16206764 0.8981002
0.052450053 0.18988766 0.89536679
0.050780196 0.1982154 0.89536691
0.04410236 0.20488521 0.89539999
0.047884941 0.20290723 0.89585841
0.050963573 0.20143959 0.89859998
0.042862378 0.2086909 0.89565003
0.046991464 0.20645602 0.89740014
-0.0018232877 0.21427265 0.89635015
0.037848018 0.21325701 0.89558333
0.042773161 0.21252848 0.89752871
0.04597494 0.21164837 0.89936459
-0.0015473265 0.21718149 0.89803344
0.0017972445 0.21826421 0.89562225
0.005692217 0.21981032 0.89513332
0.034110676 0.21838897 0.8961333
0.037705 0.2171755 0.89714181
0.041478809 0.21626596 0.89885575
0.0023574934 0.22196934 0.8971287
0.0069484836 0.22287354 0.89573336
0.032676462 0.22211185 0.89686263
0.035912402 0.22085808 0.89940017
0.0712642 0.12906912 0.90100002
0.068543218 0.13285244 0.90202856
0.064540297 0.13828292 0.90096688
0.067499362 0.13720576 0.90307242
0.064604767 0.14261411 0.90186673
0.066503584 0.14392251 0.90481687
0.063492112 0.14766145 0.90196687
0.062913477 0.15265954 0.90173358
0.059503023 0.15756658 0.90102243
0.061335862 0.1579593 0.90326667
0.058728635 0.16277419 0.90201664
0.061399225 0.16148525 0.90420002
0.056742013 0.16661453 0.9016223
0.056346454 0.17748398 0.90430009
0.056383837 0.18012644 0.90490013
0.051099684 0.20449065 0.90100014
0.04858122 0.20868815 0.90103352
0.051278345 0.20772895 0.90415001
0.048112761 0.21271741 0.9027279
-0.0026694885 0.21766515 0.90003371
0.043052316 0.21832633 0.90138024
0.04671073 0.21720672 0.90276676
-0.0015546447 0.22155373 0.90223354
0.00068865105 0.22468615 0.90133363
0.069985405 0.13824256 0.90620023
0.067855634 0.14130598 0.9078334
0.064879388 0.14827493 0.90570015
0.064955801 0.15097961 0.90676695
0.065048926 0.15372993 0.90806699
0.063298374 0.15781134 0.90725029
0.062780105 0.16214527 0.90790027
0.059339929 0.16818614 0.90707803
0.061666332 0.16556638 0.90813363
0.058901776 0.17182353 0.90728027
0.060012262 0.17412786 0.90873355
0.058260441 0.17733566 0.90784472
0.057434522 0.18246551 0.908167
0.056664195 0.18694326 0.90940011
0.053138375 0.20841065 0.90711683
0.049662482 0.21391824 0.90543342
0.052346844 0.21284646 0.90804458
0.049268227 0.21782984 0.90594184
0.051538289 0.21723369 0.90873361
0.068647042 0.14403766 0.91086662
0.070598103 0.14455418 0.91413361
0.067561798 0.14752866 0.91149998
0.070649579 0.14806324 0.91480029
0.067959011 0.15286939 0.91301674
0.070598342 0.15305603 0.91413659
0.066189267 0.15780538 0.91209441
0.063525148 0.16430408 0.91049993
0.06594982 0.16187365 0.9127112
0.06254217 0.16809022 0.9126668
0.065533631 0.16508609 0.91483366
0.061924379 0.17304413 0.91193336
0.061360423 0.17785336 0.91194445
0.058444753 0.18382612 0.91071671
0.061147269 0.18174425 0.91302502
0.058651172 0.18787551 0.91393352
0.055200148 0.21236473 0.91323781
0.068964824 0.14895999 0.91508365
0.070734538 0.14824107 0.91590023
0.072435401 0.15163253 0.91580766
0.069008797 0.157571 0.91566694
0.070698425 0.15753123 0.91543251
0.06857761 0.16215593 0.91751117
0.07088387 0.16135994 0.91783333
0.063839093 0.1685203 0.91500026
0.066306591 0.16730218 0.91765547
0.063953824 0.17223339 0.91664451
0.065794714 0.17257811 0.91847759
0.063971654 0.17654592 0.91690004
0.065798692 0.17771316 0.91853333
0.063563026 0.18299338 0.91715837
0.065859586 0.18215483 0.91938329
0.061800838 0.18746836 0.91729057
0.05883728 0.19273557 0.9168334
0.060688078 0.19318382 0.91896659
0.058946386 0.19736484 0.91853333
0.06934543 0.16433091 0.92013341
0.071128421 0.16448566 0.92100012
0.068581544 0.16798386 0.92139179
0.071228817 0.16729234 0.9223001
0.068843968 0.17197882 0.92260015
0.07136783 0.17191464 0.92409998
0.068562642 0.17660466 0.9234516
0.071366541 0.17535014 0.92408323
0.068553843 0.18173471 0.92333078
0.064206563 0.18832088 0.92026669
0.066046238 0.18695842 0.92198902
0.06364911 0.19247465 0.92212009
0.066113912 0.19058342 0.92293352
0.062299151 0.19701251 0.92249346
0.059194535 0.20248531 0.9224
0.06100728 0.20107313 0.92380011
0.057894628 0.2071625 0.92222559
0.073195413 0.17388169 0.92541653
0.069831029 0.1792706 0.92657673
0.069842823 0.18447252 0.9267332
0.071455359 0.18245284 0.92523319
0.068126701 0.18622993 0.92689991
0.066345491 0.192974 0.92616665
0.063792497 0.19912201 0.92671663
0.066509068 0.19604078 0.92844999
0.06242137 0.203077 0.92772228
0.067696624 0.19870698 0.93286675
0.064972848 0.20182875 0.9312501
0.070740916 0.19819476 0.93865001
