# .PCD v0.7 - Point Cloud Data file format
VERSION 0.7
FIELDS x y z
SIZE 4 4 4
TYPE F F F
COUNT 1 1 1
WIDTH 1297
HEIGHT 1
VIEWPOINT 0 0 0 1 0 0 0
POINTS 1297
DATA ascii
0.017155962 -0.03301084 0.062148631
0.0081087621 -0.034366556 0.059302092
0.0132819 -0.03441453 0.058366418
-0.014455255 -0.031270728 0.066034496
-0.013302023 -0.031287994 0.062742829
-0.0094619971 -0.032384634 0.061065435
-0.0054600579 -0.033572316 0.061853528
-0.00097528793 -0.033873186 0.061175704
-0.008185518 -0.032195553 0.057737648
-0.0053003132 -0.033366118 0.058756113
-0.00082893833 -0.033168349 0.057605684
0.0030882636 -0.033503704 0.056559026
0.0074957302 -0.033962183 0.056604862
0.01123964 -0.034310255 0.055839717
0.016885471 -0.033790216 0.056218624
0.0071699535 -0.033053093 0.051849425
0.012124443 -0.033612832 0.052238464
0.015628019 -0.033960905 0.051424861
-0.013837695 -0.029959509 0.059269786
-0.014175858 -0.029953225 0.055539191
-0.0097128693 -0.03144959 0.055342197
-0.0054954793 -0.03189126 0.054245293
-0.0016160086 -0.032045655 0.053756893
-0.012754169 -0.030483382 0.051029742
-0.010088852 -0.031389255 0.050504208
-0.0056553613 -0.031902041 0.050077975
-0.0011877237 -0.032494888 0.050066471
0.0028522196 -0.032854404 0.049693704
0.007080968 -0.032909684 0.049026012
0.011121493 -0.032871928 0.048872709
0.015536725 -0.033547692 0.047898114
-0.009765083 -0.032338552 0.046626866
-0.0058077043 -0.032848783 0.045741916
-0.0017285144 -0.032985706 0.045493245
0.002702581 -0.033596534 0.045166492
0.0069605401 -0.033762421 0.045205057
0.011199673 -0.033396721 0.044730246
0.015451935 -0.033555508 0.044761539
-0.0045017493 -0.033734985 0.042347491
-0.0016752854 -0.034236021 0.041698694
0.0025796816 -0.034102116 0.041447639
0.0068089571 -0.034249663 0.040415466
0.01106516 -0.034210324 0.040256858
0.014920283 -0.034038816 0.040281892
0.0081207994 -0.035037622 0.03692013
0.010250097 -0.034992918 0.036816597
-0.014535503 -0.029331157 0.048934042
-0.013769589 -0.03063328 0.043834329
-0.010519637 -0.032362103 0.043827295
-0.013228183 -0.031417403 0.039285004
-0.010334929 -0.032739248 0.039427519
-0.0062047956 -0.033504162 0.039792538
-0.0018034982 -0.033931937 0.038234115
0.0024675445 -0.03397654 0.038157403
0.016696692 -0.03328928 0.038142979
-0.01050605 -0.032760654 0.035207212
-0.0062312121 -0.033298731 0.034551203
-0.0019521947 -0.033193488 0.034327984
0.0023463517 -0.03363955 0.034645796
0.0066027874 -0.034063697 0.033880472
0.011066009 -0.03427577 0.033358097
0.014966809 -0.033553515 0.033411205
0.010748713 -0.033987064 0.029429793
0.014309231 -0.033599291 0.028946996
-0.014020414 -0.031234605 0.034234405
-0.010602823 -0.032589659 0.03290987
0.0029132175 -0.0325776 0.030386806
0.0050602588 -0.032621384 0.030370593
0.016486408 -0.032275099 0.029711604
-0.013605202 -0.033233643 0.029352367
-0.010731972 -0.033331174 0.029369652
-0.006438694 -0.033239979 0.029160976
-0.0021578786 -0.032904014 0.028709173
0.0019086408 -0.032794017 0.027876198
0.0064044893 -0.033139486 0.027637362
0.010674633 -0.033513155 0.026821613
0.015323521 -0.032792076 0.026512027
-0.013790418 -0.03316886 0.024999976
-0.01055462 -0.033564195 0.024768293
-0.0066307657 -0.033496294 0.024055779
-0.0030385533 -0.032727957 0.024266303
0.0027134088 -0.032987084 0.024368405
0.0064277542 -0.033290353 0.022687554
0.01055782 -0.033881053 0.022898495
0.014439909 -0.033125587 0.022343874
0.01043152 -0.033873592 0.01858449
-0.01467768 -0.031341996 0.022120178
-0.011378058 -0.032614488 0.02092725
-0.0068113995 -0.032439504 0.019763887
-0.0024448272 -0.031746883 0.021110535
0.0016564573 -0.031965442 0.020601749
0.0047166073 -0.032724686 0.019740283
0.016230278 -0.032123465 0.019904554
-0.014090972 -0.031361103 0.018874586
-0.011253055 -0.03196764 0.017240524
-0.0073016053 -0.031977601 0.016601324
-0.0018361765 -0.030979156 0.018159866
0.0026708704 -0.031875677 0.016050696
0.0060500386 -0.032693524 0.016425788
0.010334258 -0.033147249 0.015145004
0.01468178 -0.03238254 0.015880167
0.0062810406 -0.032365527 0.012284756
0.0098823346 -0.032699961 0.01198566
0.014580593 -0.031654105 0.011885643
-0.015176303 -0.029775636 0.014694571
-0.011399411 -0.031022482 0.014113247
-0.0063180774 -0.03125586 0.014214396
-0.0026957127 -0.030544179 0.0144853
0.00067841052 -0.030811684 0.014303386
-0.014470039 -0.030487726 0.010374904
-0.011561541 -0.031275734 0.010007083
-0.007189543 -0.031622835 0.010245681
-0.0028508625 -0.031440396 0.0099452734
0.0015112747 -0.03185647 0.010255575
0.005537644 -0.032349382 0.0093435645
0.010515234 -0.032326493 0.0088618994
0.014490299 -0.031528167 0.0084869266
-0.010745083 -0.032176904 0.0057957172
-0.0073519223 -0.032501273 0.0056751966
-0.0028528965 -0.032367315 0.0045958757
0.0013123889 -0.032435928 0.0042837262
0.0056707584 -0.032659087 0.0044010878
0.010020337 -0.032750487 0.0043829083
0.014351705 -0.03205153 0.0035502315
0.011337525 -0.03251195 -0.00029569864
0.01424017 -0.032477874 -0.00040543079
-0.015346156 -0.029302904 0.004131496
-0.012800016 -0.03079457 0.0036911964
-0.0089314496 -0.032523956 0.0024409294
-0.007415053 -0.032078352 -0.0005440712
0.011361828 -0.031836186 0.18457159
0.013968976 -0.030769739 0.18369222
-0.010298006 -0.033924274 0.18030658
-0.0071862414 -0.03382802 0.18109947
-0.0030529031 -0.034224272 0.18123424
0.0015504397 -0.034074783 0.18145311
0.005871322 -0.034124799 0.1814087
0.0099621173 -0.034202356 0.18185273
0.01390833 -0.034712128 0.18207684
-0.0099029299 -0.034962673 0.17864376
-0.0070908698 -0.0357587 0.17783362
-0.0033319709 -0.036167774 0.17747939
0.001274897 -0.036282882 0.1773918
0.0058899522 -0.036822438 0.17762053
0.0098336423 -0.037124023 0.17769727
0.014033011 -0.037175622 0.17775819
0.018514559 -0.036314148 0.1765987
-0.0027951044 -0.036649399 0.1741856
0.0015505707 -0.0370012 0.17392346
0.00610128 -0.037252869 0.17274585
0.0096718417 -0.037676506 0.17267323
0.013608833 -0.037532587 0.17241624
0.018025843 -0.037148032 0.17212576
0.01086969 -0.037627 0.16894436
0.014816174 -0.037557311 0.16874447
0.017445991 -0.037478738 0.16858676
-0.013873663 -0.028324077 0.18297991
-0.010917434 -0.028445976 0.18368149
-0.0071908268 -0.028638789 0.18386009
-0.003497524 -0.028533084 0.18345881
0.0013618614 -0.028340425 0.18240422
0.0063449442 -0.028546419 0.18281654
0.0098533025 -0.028107967 0.18394837
0.013984993 -0.027294569 0.18387577
-0.014252145 -0.030487368 0.180491
-0.011482965 -0.031674284 0.18151239
-0.0071895877 -0.031132732 0.18251103
-0.0035457527 -0.031404633 0.18257037
0.00075471937 -0.031347666 0.18281564
0.0066830302 -0.031292848 0.18254751
-0.014305227 -0.032437053 0.17656258
-0.01152475 -0.034195967 0.17608476
-0.0080442866 -0.035620756 0.17542943
-0.011405883 -0.034374222 0.17118958
-0.0075415671 -0.03558341 0.17173159
-0.0037528032 -0.036295142 0.17160738
0.00076820864 -0.03671607 0.17123666
0.0043494287 -0.036703348 0.17122385
-0.010364382 -0.035249081 0.16791752
-0.0075678658 -0.036129255 0.16687861
-0.0037282226 -0.036999874 0.16717389
0.00090282515 -0.037146807 0.16711533
0.0055236169 -0.037160806 0.1669544
0.0093109952 -0.037215676 0.1666266
0.013261071 -0.036947556 0.16627479
0.018250966 -0.036998853 0.16574797
-0.0071806535 -0.037110943 0.16370919
-0.0036205542 -0.03737906 0.16304839
0.00053565152 -0.037458453 0.16307956
0.0047050626 -0.036755614 0.16253647
0.0096632708 -0.03657113 0.16221157
0.013657426 -0.037171587 0.16140968
0.017081201 -0.037314996 0.16136274
0.017143343 -0.037748799 0.15777653
0.0013068744 -0.021808455 0.18312395
0.0072977254 -0.021556582 0.18270898
0.0099840919 -0.022435734 0.18323848
-0.011569058 -0.025743842 0.18419451
-0.0072354982 -0.025673185 0.18442929
-0.002979069 -0.024797712 0.18317574
0.00064985297 -0.024566326 0.18241262
0.0050164829 -0.024458783 0.18229491
-0.015355063 -0.030881984 0.16977942
-0.013073754 -0.033052888 0.16818368
-0.014605113 -0.031291518 0.16505259
-0.01201713 -0.034160767 0.16507363
-0.0091636525 -0.035825424 0.16463384
-0.011656983 -0.034759693 0.16046721
-0.0081969332 -0.035970978 0.16048658
-0.0043446901 -0.036805887 0.16013652
-5.5892127e-05 -0.03623087 0.15953171
0.0048701987 -0.03575119 0.15930906
0.0089670848 -0.03586752 0.15919724
0.011897449 -0.036121998 0.159473
0.018500192 -0.036348991 0.15848386
-0.011430955 -0.035525374 0.15558723
-0.0080567496 -0.035727024 0.15548259
-0.0042070323 -0.036248598 0.15551943
-0.00024367709 -0.035519704 0.15480334
0.0044067944 -0.035150427 0.15434524
0.0090693729 -0.035160132 0.1541833
0.013077226 -0.035835333 0.15456715
0.017068971 -0.036594477 0.154787
-0.0083356509 -0.036694355 0.15229255
-0.0050062314 -0.036578231 0.15208077
0.00098343519 -0.0363026 0.15164703
0.0076399082 -0.03602273 0.15118593
0.012965105 -0.035798907 0.15081707
0.016960505 -0.035757985 0.15064088
-0.0074127954 -0.020232081 0.18324202
-0.003199572 -0.02008244 0.18336195
0.00042898103 -0.019115312 0.18356958
0.0047810697 -0.019614561 0.18277901
0.0099532399 -0.018861244 0.18249077
-0.015813915 -0.031272002 0.15826872
-0.014227561 -0.032672729 0.15774682
-0.014079349 -0.033986706 0.1538347
-0.0096267359 -0.036071368 0.15371391
-0.011681286 -0.035463504 0.14993784
-0.008460965 -0.036063857 0.14969051
-0.004249258 -0.036482796 0.14957187
-0.00059920392 -0.036233172 0.14954334
0.0042318776 -0.035756759 0.14922562
0.0090602851 -0.035618816 0.14870864
0.012872352 -0.035391364 0.1476894
0.016879821 -0.035548057 0.14767036
-0.0079790801 -0.036046691 0.14519754
-0.0046153539 -0.036854625 0.14501989
-0.0006204141 -0.036579967 0.14442176
0.0035473588 -0.036290646 0.14445972
0.0082376963 -0.036024775 0.14349025
0.012743405 -0.035620503 0.14341268
0.016589224 -0.035595264 0.1432558
0.0079537593 -0.036591358 0.14035678
0.01129772 -0.036332488 0.14002922
0.016653363 -0.036154695 0.13969663
0.00052383542 -0.012087362 0.18352297
0.0045612082 -0.011803253 0.18316215
-0.0075565558 -0.014637606 0.18290216
-0.0037703589 -0.014786788 0.18304336
0.00056428567 -0.014827354 0.18363389
0.0048419479 -0.014865109 0.18276036
-0.014243089 -0.03276556 0.14751148
-0.012702488 -0.033452101 0.14257216
-0.0093135685 -0.035086308 0.1427736
-0.0047620931 -0.035616159 0.14190662
0.0046242834 -0.03531662 0.14133307
0.012672678 -0.035309978 0.14104337
0.018028283 -0.034895334 0.14051938
-0.012158167 -0.033743724 0.13812238
-0.0088237589 -0.034758925 0.13779834
-0.0049291402 -0.035310235 0.13787183
-0.00087182969 -0.035712209 0.13805717
0.0031673664 -0.035836563 0.138017
0.0078644026 -0.03605967 0.13765523
0.012726744 -0.035631642 0.13727826
0.016584063 -0.035451651 0.13699669
-0.0091306483 -0.035315547 0.13421685
-0.0050889235 -0.035145625 0.13393685
-0.00078676059 -0.03541778 0.13324705
0.0031879523 -0.036121897 0.13308737
0.0077024326 -0.036470737 0.13267297
0.012405836 -0.036152601 0.1322479
0.016437314 -0.03577878 0.13180095
0.011846812 -0.036392111 0.12864497
0.014989132 -0.03621294 0.12838829
-0.0036072391 -0.0095316516 0.18279612
0.00014131091 -0.008837291 0.18353921
0.0045404769 -0.0092539275 0.18319798
-0.015565447 -0.031078679 0.14432621
-0.015398524 -0.031449948 0.14034644
-0.014201496 -0.032832589 0.13594455
-0.010440016 -0.03463902 0.13561636
-0.012681551 -0.033248305 0.13168603
-0.0092776269 -0.034359813 0.13128328
-0.0052151661 -0.034597125 0.13103071
-0.0015184879 -0.034815177 0.13019437
0.0022087481 -0.035477348 0.13013408
-0.0080740368 -0.034312863 0.12760496
-0.0053861886 -0.034567136 0.12676129
-0.001323263 -0.034443397 0.12651876
0.0029100419 -0.035040431 0.12614763
0.0068233097 -0.035972103 0.12654924
0.011476888 -0.036730118 0.12638289
0.016446108 -0.036175542 0.12615028
0.007012594 -0.035759315 0.12203389
0.011578573 -0.036419902 0.12116086
0.015748106 -0.036416836 0.12111825
0.01466962 -0.036800675 0.11733669
0.00012713352 -0.0030574629 0.18344948
0.0011252841 -0.0066717523 0.18335667
-0.016112378 -0.030767594 0.13265193
-0.01471739 -0.03118469 0.12882432
-0.012907811 -0.031950321 0.12426305
-0.0097395293 -0.033518061 0.12483168
-0.0055241436 -0.034125157 0.12350523
-0.0014523236 -0.033985224 0.12324932
0.0012806399 -0.034355216 0.12346545
-0.012484891 -0.032949276 0.12082058
-0.0096225813 -0.033527359 0.11950946
-0.0056506288 -0.034665022 0.12008935
-0.0015821105 -0.034337897 0.11967599
0.0025029799 -0.034387298 0.11957943
0.0062958533 -0.03511405 0.11890304
0.0092742965 -0.035615139 0.11845106
0.017438807 -0.035278864 0.11885971
-0.0058466475 -0.034941878 0.11505562
-0.001749656 -0.034673862 0.11510819
0.0023377463 -0.034556508 0.1148715
0.0064109396 -0.035055093 0.11418468
0.01052759 -0.036223311 0.11504209
0.015489361 -0.036065135 0.11409378
0.0063017351 -0.035673533 0.11081481
0.010374044 -0.036088433 0.11005902
0.014443293 -0.036189131 0.10927743
0.017207779 -0.035681043 0.11045957
-0.01566983 -0.029749529 0.12310985
-0.015399469 -0.030258384 0.1186614
-0.012210785 -0.032310504 0.11703014
-0.014149068 -0.031032035 0.11536431
-0.010564289 -0.033149038 0.11330545
-0.0059512537 -0.034868054 0.11248648
-0.0018650773 -0.034556355 0.11208379
0.0022380336 -0.034648165 0.11202568
-0.0093382513 -0.033340521 0.10867423
-0.0058846963 -0.0349475 0.10919356
-0.0020094407 -0.034623079 0.10822427
0.0020916057 -0.034460869 0.10794938
0.0062048947 -0.035247035 0.10793197
0.010280464 -0.035981245 0.10703218
0.014382215 -0.036273737 0.10715032
-0.0049245358 -0.034966249 0.10369796
-0.002182951 -0.034874186 0.10352832
0.0019320335 -0.03465496 0.10340029
0.0060513765 -0.034945965 0.10332119
0.010358781 -0.035427485 0.10317659
0.014259495 -0.03572917 0.10274816
0.018173771 -0.034886751 0.10245103
0.014145913 -0.035684213 0.098764956
0.016885279 -0.035414815 0.098439693
0.00034224987 0.0060499907 0.18513933
0.00032032441 0.0035749504 0.1836541
-0.015857626 -0.030109048 0.11243421
-0.012972121 -0.031991959 0.11025959
-0.015722133 -0.030631134 0.10746026
-0.011481754 -0.032675948 0.10718966
-0.0069347811 -0.033683486 0.10560977
-0.01466135 -0.031219075 0.10373122
-0.011010235 -0.033044763 0.10285497
-0.006762079 -0.034582462 0.10215265
-0.0022700015 -0.035401735 0.10102797
0.0018549758 -0.035074048 0.1011017
0.0059583294 -0.03508677 0.10048509
0.0093862209 -0.034942646 0.10024762
-0.010690576 -0.033233948 0.098409951
-0.0063791168 -0.034514055 0.096979439
-0.0024413466 -0.034731492 0.096724391
0.0016839036 -0.034740277 0.09635061
0.0058181072 -0.034818139 0.096286416
0.0099578062 -0.035234928 0.096520603
0.014054357 -0.035312738 0.095465302
0.01819236 -0.034357104 0.095482051
-0.0018716838 -0.034742936 0.093480349
0.0015518144 -0.03495935 0.092565417
0.0059467321 -0.035136685 0.091784239
0.0097903404 -0.035887394 0.091131091
0.013929031 -0.036181826 0.091262519
0.017879177 -0.035191093 0.091395974
0.011060232 -0.036376476 0.087530553
0.013821723 -0.036536336 0.087587237
0.016577981 -0.036489386 0.087458253
-0.013417614 -0.031774011 0.10020417
-0.015041732 -0.030157993 0.095853209
-0.012727063 -0.031293206 0.095108569
-0.0094902078 -0.032247867 0.094513714
-0.011876927 -0.031718835 0.090917528
-0.0077419793 -0.032778177 0.090740681
-0.0029700708 -0.03371501 0.090401769
0.0014439273 -0.034025688 0.089737415
0.0042071855 -0.033909559 0.089545965
-0.0065604472 -0.03354238 0.086209595
-0.0028695869 -0.033825312 0.085675955
0.0013239065 -0.034568615 0.086211741
0.0054839295 -0.034700174 0.086199284
0.0093354378 -0.03519043 0.085313439
0.01374863 -0.035720997 0.084849298
0.018319564 -0.034496631 0.085324407
-0.0015996057 -0.034495864 0.082207143
0.0011659643 -0.035066895 0.081627846
0.0053393971 -0.035357594 0.081761599
0.0094744628 -0.035621066 0.080861568
0.013811598 -0.035574064 0.080936372
0.017243341 -0.034766793 0.080653012
-0.013235939 -0.03124983 0.088734925
-0.015569112 -0.030292306 0.083914042
-0.012700751 -0.03214395 0.084474027
-0.0089635337 -0.032969203 0.084425986
-0.012508316 -0.032792792 0.079265177
-0.0086796731 -0.033667497 0.079650044
-0.0039817328 -0.034007855 0.079629302
0.0010532205 -0.034932785 0.078474045
0.0052280566 -0.035032053 0.078435421
0.012172551 -0.03495378 0.078149319
0.0005521854 -0.034072585 0.074398279
0.0050925221 -0.034431595 0.074405789
0.0092595825 -0.034587521 0.07383877
0.01344494 -0.034959555 0.074052989
0.017609986 -0.034223456 0.073249578
-0.01438559 -0.031747546 0.07808423
-0.013391245 -0.03169002 0.073334515
-0.0089474916 -0.032594614 0.073588789
-0.0047294083 -0.03294652 0.073782802
-0.0006123627 -0.03328453 0.071413994
0.0049893591 -0.03393868 0.07133472
-0.012900397 -0.032167144 0.068876207
-0.0091307508 -0.033029541 0.068875313
-0.004919433 -0.033070154 0.06878525
-1.2485044e-06 -0.034224119 0.068679929
0.0048977043 -0.034214873 0.068522334
0.009081427 -0.03379992 0.06801033
0.0132741 -0.033703465 0.067793787
0.017461145 -0.033079199 0.067088962
-0.0092933243 -0.033107504 0.064837515
-0.0047179069 -0.033626728 0.064668655
-0.00086526148 -0.033831444 0.064228296
0.0036111921 -0.034196019 0.063610673
0.0084027192 -0.033670101 0.062581301
0.01312645 -0.033641595 0.062600851
0.017155962 -0.03301084 0.062148631
0.0081087621 -0.034366556 0.059302092
0.0132819 -0.03441453 0.058366418
-0.014455255 -0.031270728 0.066034496
-0.013302023 -0.031287994 0.062742829
-0.0094619971 -0.032384634 0.061065435
-0.0054600579 -0.033572316 0.061853528
-0.00097528793 -0.033873186 0.061175704
-0.008185518 -0.032195553 0.057737648
-0.0053003132 -0.033366118 0.058756113
-0.00082893833 -0.033168349 0.057605684
0.0030882636 -0.033503704 0.056559026
0.0074957302 -0.033962183 0.056604862
0.01123964 -0.034310255 0.055839717
0.016885471 -0.033790216 0.056218624
0.0071699535 -0.033053093 0.051849425
0.012124443 -0.033612832 0.052238464
0.015628019 -0.033960905 0.051424861
-0.013837695 -0.029959509 0.059269786
-0.014175858 -0.029953225 0.055539191
-0.0097128693 -0.03144959 0.055342197
-0.0054954793 -0.03189126 0.054245293
-0.0016160086 -0.032045655 0.053756893
-0.012754169 -0.030483382 0.051029742
-0.010088852 -0.031389255 0.050504208
-0.0056553613 -0.031902041 0.050077975
-0.0011877237 -0.032494888 0.050066471
0.0028522196 -0.032854404 0.049693704
0.007080968 -0.032909684 0.049026012
0.011121493 -0.032871928 0.048872709
0.015536725 -0.033547692 0.047898114
-0.009765083 -0.032338552 0.046626866
-0.0058077043 -0.032848783 0.045741916
-0.0017285144 -0.032985706 0.045493245
0.002702581 -0.033596534 0.045166492
0.0069605401 -0.033762421 0.045205057
0.011199673 -0.033396721 0.044730246
0.015451935 -0.033555508 0.044761539
-0.0045017493 -0.033734985 0.042347491
-0.0016752854 -0.034236021 0.041698694
0.0025796816 -0.034102116 0.041447639
0.0068089571 -0.034249663 0.040415466
0.01106516 -0.034210324 0.040256858
0.014920283 -0.034038816 0.040281892
0.0081207994 -0.035037622 0.03692013
0.010250097 -0.034992918 0.036816597
-0.014535503 -0.029331157 0.048934042
-0.013769589 -0.03063328 0.043834329
-0.010519637 -0.032362103 0.043827295
-0.013228183 -0.031417403 0.039285004
-0.010334929 -0.032739248 0.039427519
-0.0062047956 -0.033504162 0.039792538
-0.0018034982 -0.033931937 0.038234115
0.0024675445 -0.03397654 0.038157403
0.016696692 -0.03328928 0.038142979
-0.01050605 -0.032760654 0.035207212
-0.0062312121 -0.033298731 0.034551203
-0.0019521947 -0.033193488 0.034327984
0.0023463517 -0.03363955 0.034645796
0.0066027874 -0.034063697 0.033880472
0.011066009 -0.03427577 0.033358097
0.014966809 -0.033553515 0.033411205
0.010748713 -0.033987064 0.029429793
0.014309231 -0.033599291 0.028946996
-0.014020414 -0.031234605 0.034234405
-0.010602823 -0.032589659 0.03290987
0.0029132175 -0.0325776 0.030386806
0.0050602588 -0.032621384 0.030370593
0.016486408 -0.032275099 0.029711604
-0.013605202 -0.033233643 0.029352367
-0.010731972 -0.033331174 0.029369652
-0.006438694 -0.033239979 0.029160976
-0.0021578786 -0.032904014 0.028709173
0.0019086408 -0.032794017 0.027876198
0.0064044893 -0.033139486 0.027637362
0.010674633 -0.033513155 0.026821613
0.015323521 -0.032792076 0.026512027
-0.013790418 -0.03316886 0.024999976
-0.01055462 -0.033564195 0.024768293
-0.0066307657 -0.033496294 0.024055779
-0.0030385533 -0.032727957 0.024266303
0.0027134088 -0.032987084 0.024368405
0.0064277542 -0.033290353 0.022687554
0.01055782 -0.033881053 0.022898495
0.014439909 -0.033125587 0.022343874
0.01043152 -0.033873592 0.01858449
-0.01467768 -0.031341996 0.022120178
-0.011378058 -0.032614488 0.02092725
-0.0068113995 -0.032439504 0.019763887
-0.0024448272 -0.031746883 0.021110535
0.0016564573 -0.031965442 0.020601749
0.0047166073 -0.032724686 0.019740283
0.016230278 -0.032123465 0.019904554
-0.014090972 -0.031361103 0.018874586
-0.011253055 -0.03196764 0.017240524
-0.0073016053 -0.031977601 0.016601324
-0.0018361765 -0.030979156 0.018159866
0.0026708704 -0.031875677 0.016050696
0.0060500386 -0.032693524 0.016425788
0.010334258 -0.033147249 0.015145004
0.01468178 -0.03238254 0.015880167
0.0062810406 -0.032365527 0.012284756
0.0098823346 -0.032699961 0.01198566
0.014580593 -0.031654105 0.011885643
-0.015176303 -0.029775636 0.014694571
-0.011399411 -0.031022482 0.014113247
-0.0063180774 -0.03125586 0.014214396
-0.0026957127 -0.030544179 0.0144853
0.00067841052 -0.030811684 0.014303386
-0.014470039 -0.030487726 0.010374904
-0.011561541 -0.031275734 0.010007083
-0.007189543 -0.031622835 0.010245681
-0.0028508625 -0.031440396 0.0099452734
0.0015112747 -0.03185647 0.010255575
0.005537644 -0.032349382 0.0093435645
0.010515234 -0.032326493 0.0088618994
0.014490299 -0.031528167 0.0084869266
-0.010745083 -0.032176904 0.0057957172
-0.0073519223 -0.032501273 0.0056751966
-0.0028528965 -0.032367315 0.0045958757
0.0013123889 -0.032435928 0.0042837262
0.0056707584 -0.032659087 0.0044010878
0.010020337 -0.032750487 0.0043829083
0.014351705 -0.03205153 0.0035502315
0.011337525 -0.03251195 -0.00029569864
0.01424017 -0.032477874 -0.00040543079
-0.015346156 -0.029302904 0.004131496
-0.012800016 -0.03079457 0.0036911964
-0.0089314496 -0.032523956 0.0024409294
-0.007415053 -0.032078352 -0.0005440712
0.026562905 -0.03475916 0.18060488
0.027888736 -0.034614827 0.17993885
0.027221952 -0.036668442 0.17673349
0.028958876 -0.036036909 0.17634082
0.017024444 -0.033841588 0.18206674
0.019931603 -0.032267068 0.18258893
0.02371522 -0.030637629 0.18277547
0.02749015 -0.029064048 0.18209788
0.01722618 -0.035289533 0.17927033
0.021023221 -0.035055481 0.18031859
0.024523102 -0.034194663 0.1808486
0.028853172 -0.031356934 0.17984071
0.018093528 -0.036610417 0.17562395
0.021564454 -0.036417495 0.17564848
0.024987753 -0.0364457 0.17600229
0.030442888 -0.033190615 0.17537132
0.018802904 -0.037247822 0.17227292
0.021634122 -0.037309643 0.17123294
0.025752243 -0.036646586 0.17023176
0.029912345 -0.035183094 0.17002705
0.03328421 -0.032185566 0.16893512
0.036118202 -0.031566896 0.16720337
0.030875534 -0.034391563 0.16606563
0.034174979 -0.033409879 0.1649133
0.036396716 -0.032405552 0.1651549
0.022719484 -0.025153864 0.18464255
0.024862686 -0.023497684 0.18402326
0.0039889179 -0.035411619 0.17992157
0.0063528181 -0.034167133 0.18054548
0.010379605 -0.033006333 0.18141356
0.014586855 -0.031606376 0.18236241
0.018575761 -0.028968021 0.18356165
0.021951027 -0.027505795 0.18355682
0.025954634 -0.026202083 0.18345585
0.02923383 -0.024003357 0.18093204
0.0040827813 -0.035786431 0.17839262
0.0070251632 -0.035526097 0.17764914
0.011153474 -0.035520136 0.17816415
0.014390212 -0.034979172 0.17895815
0.030805916 -0.026450749 0.17670465
0.011763794 -0.036418054 0.17376745
0.015372118 -0.036659218 0.17434224
0.031862669 -0.02806258 0.17244554
0.012798511 -0.036855333 0.16952771
0.016639596 -0.037450057 0.16958421
0.021066973 -0.037118044 0.16776112
0.023946811 -0.036373761 0.16751689
0.033620205 -0.029817846 0.17014062
0.016648497 -0.037501227 0.16569442
0.021178508 -0.0361875 0.1640929
0.024909094 -0.03518882 0.16347456
0.028690379 -0.034855228 0.16377264
0.032331787 -0.033867054 0.16286814
0.028525271 -0.034396566 0.15903223
0.033270352 -0.033388425 0.15880287
0.037424948 -0.031887956 0.15863729
0.034884527 -0.032866247 0.15499818
0.037233643 -0.03167063 0.15474051
-0.0018495889 -0.031738922 0.18319172
0.00066782162 -0.030187316 0.18346271
0.0041236738 -0.028808501 0.18353617
0.0075795902 -0.027471075 0.18327507
0.011807255 -0.025935031 0.18288389
0.016891792 -0.024177551 0.18300268
0.020007921 -0.022141822 0.1837199
0.023222642 -0.019537807 0.18361697
-0.0021297941 -0.034187891 0.18095767
0.0018171556 -0.033933111 0.18132174
0.0053704823 -0.031764559 0.18225586
0.0085610673 -0.029986924 0.1822598
0.012516727 -0.028290927 0.18250802
-0.0011283839 -0.03585339 0.1771346
0.0023037903 -0.035726454 0.17585537
0.0061051608 -0.035792209 0.17526701
0.002807511 -0.035846226 0.17142311
0.0066356696 -0.035731949 0.1717073
0.009673682 -0.036061533 0.17180711
0.0070071504 -0.035961192 0.1670793
0.010604378 -0.036284424 0.16737053
0.011142056 -0.036127519 0.16352424
0.015225185 -0.0359971 0.16189307
0.020415468 -0.035336364 0.16093957
0.022918042 -0.034525607 0.1603941
0.015945205 -0.035148524 0.15899995
0.020160727 -0.035086803 0.15699542
0.024289785 -0.034659766 0.15716991
0.028419288 -0.034361444 0.15621293
0.030840486 -0.033324543 0.15609327
0.021563649 -0.035411939 0.15236312
0.024477674 -0.035096277 0.15222192
0.028349753 -0.034479279 0.15258098
0.032603018 -0.033149682 0.15257227
0.037140362 -0.031624995 0.15190601
0.025886413 -0.035868198 0.1473749
0.028458506 -0.03514355 0.1475355
0.032439981 -0.033680782 0.14771011
0.036711961 -0.032152433 0.14737493
0.037061006 -0.031970192 0.1437721
0.017744144 -0.016758434 0.18312138
-0.00078289863 -0.028320557 0.18428257
0.0030769333 -0.026355958 0.18432391
0.0068768859 -0.024347702 0.18341327
0.010228689 -0.022290939 0.18254241
0.014018103 -0.020727562 0.18233526
0.017633814 -0.019918801 0.1834335
-0.0032910174 -0.035077602 0.16941464
0.0011584582 -0.035673365 0.16904294
-0.0018063895 -0.035272062 0.16405475
0.0019054618 -0.035625681 0.16490087
0.0054313252 -0.03591809 0.1647988
-0.00091288332 -0.036298208 0.16095299
0.0021560611 -0.035799038 0.16092911
0.0060356888 -0.0351501 0.16031343
0.009785952 -0.034886487 0.15976658
0.010065768 -0.034860995 0.15559822
0.014154655 -0.035098147 0.15610257
0.017536141 -0.03470172 0.15538904
0.010927846 -0.035419941 0.15166163
0.014273264 -0.035354216 0.15127182
0.018597072 -0.034702115 0.15046501
0.022850873 -0.035272155 0.14981815
0.014943272 -0.035628792 0.14698595
0.019091232 -0.034848303 0.14523456
0.023558894 -0.035530984 0.14647552
0.021149367 -0.035416648 0.14102897
0.024225969 -0.035843998 0.1412769
0.028356917 -0.035331123 0.14204052
0.031991392 -0.033712752 0.14181662
0.036078967 -0.032073759 0.14107874
0.024284653 -0.036309306 0.13741559
0.028091589 -0.035078317 0.1370686
0.031706966 -0.033449329 0.1358873
0.035375714 -0.031840991 0.13622051
0.0010139025 -0.021777857 0.18344033
0.0046271114 -0.020046415 0.18312794
0.0082426555 -0.017859781 0.18319348
0.011985388 -0.016450616 0.18267384
0.016072163 -0.013345368 0.1828357
0.00052598305 -0.035642542 0.15793079
0.0041583087 -0.034908686 0.15755415
-0.0030707074 -0.035537347 0.15423298
0.00103903 -0.035854835 0.15406382
0.0055319513 -0.035051454 0.15429521
0.0084128436 -0.035067707 0.15321255
0.0024843272 -0.035260655 0.14988849
0.0058981734 -0.035267998 0.14956403
0.0094281379 -0.035543002 0.14947665
0.01015898 -0.035412978 0.14519641
0.014025648 -0.035914656 0.14440084
0.01690203 -0.03542795 0.14361805
0.014184838 -0.035373308 0.13999343
0.018457161 -0.03539706 0.13912782
0.019636476 -0.035706427 0.13610545
0.023539143 -0.035923272 0.13454077
0.028062673 -0.03522379 0.13434047
0.035232633 -0.031661309 0.1336115
0.024893846 -0.036237247 0.13080937
0.027979106 -0.03531713 0.13059658
0.031687543 -0.033802059 0.13047573
0.035167158 -0.031755339 0.12987188
0.028307609 -0.03468547 0.1263845
0.031483024 -0.033662811 0.12554455
0.035138726 -0.031999871 0.12529287
0.0063053379 -0.010339621 0.18338346
0.0075079273 -0.0097272452 0.18325555
-0.00074364152 -0.017835239 0.18309233
0.002506484 -0.015194496 0.18299931
0.005853618 -0.013582281 0.18316269
0.010145906 -0.011844892 0.18273288
-0.0011266824 -0.035320655 0.1508401
-0.00026532728 -0.034848902 0.14678249
0.004056219 -0.034715176 0.14677063
0.0008740183 -0.034696981 0.14210618
0.0047985353 -0.034623973 0.14249736
0.0081744958 -0.034532599 0.14209718
0.0055202693 -0.034479413 0.13816068
0.0088186869 -0.034214612 0.13760835
0.012363935 -0.034492526 0.13754719
0.0096449703 -0.034269899 0.13343939
0.013099101 -0.034346107 0.13320065
0.017514806 -0.03444811 0.13262832
0.020484991 -0.034648795 0.13172698
0.01391348 -0.034358658 0.12898496
0.017140698 -0.034379937 0.12841031
0.021363612 -0.034599673 0.12785095
0.018554548 -0.034126982 0.12502533
0.022547791 -0.034218937 0.1231373
0.026770018 -0.03430425 0.12299931
0.031181585 -0.033166498 0.12219048
0.034925852 -0.031685248 0.12210995
0.023040488 -0.034851145 0.11921406
0.026782034 -0.034430716 0.11844045
0.031006042 -0.033030458 0.1181826
0.034810022 -0.031663492 0.11821342
0.027914841 -0.034641892 0.11469907
0.030984679 -0.033250604 0.11449248
0.034878705 -0.032109123 0.11425102
0.00025941664 -0.010068076 0.18270424
0.0040369248 -0.0091887033 0.18318576
0.0080876295 -0.0069946279 0.18266696
-0.0016197516 -0.034851015 0.14027071
2.6341528e-05 -0.034927994 0.13612628
0.0039976239 -0.034612205 0.13593268
0.0013481984 -0.034630526 0.13201657
0.0045025786 -0.034619868 0.13152799
0.0081975274 -0.034545343 0.13133043
0.0055288249 -0.034494232 0.12733305
0.0087997597 -0.034822669 0.12684184
0.012522907 -0.034740608 0.12696639
0.0095458338 -0.035118718 0.12255293
0.013025252 -0.034786686 0.12225485
0.016865851 -0.034269489 0.12248135
0.020580957 -0.034090225 0.12077671
0.017297214 -0.03413704 0.11759239
0.021196149 -0.034603175 0.11736643
0.02508425 -0.034766834 0.11588931
0.021768542 -0.034708049 0.11258858
0.026260816 -0.035079993 0.11223066
0.030989558 -0.033465412 0.11176038
0.034775533 -0.032036725 0.11154586
0.026284818 -0.034732118 0.10845345
0.030401733 -0.033266388 0.10704052
0.034530908 -0.031765945 0.10657901
0.0016161682 -0.0029037672 0.18286896
0.0028540089 -0.0057519497 0.18319723
-0.0026718872 -0.034394518 0.13326365
-0.0013861591 -0.034315072 0.12890184
0.003078456 -0.033915214 0.12810916
0.00026744138 -0.033913754 0.12392542
0.0036259955 -0.034276683 0.12444729
0.0068452698 -0.03446715 0.12383357
0.0041690897 -0.034440093 0.11980891
0.007873578 -0.03494231 0.11999118
0.011036165 -0.034331523 0.11913902
0.0085114008 -0.034777541 0.11514282
0.012439104 -0.034471456 0.11577821
0.015801044 -0.034294974 0.11533695
0.0096898898 -0.035371821 0.11178899
0.012521785 -0.034417741 0.11108208
0.016589897 -0.034230612 0.11097419
0.020150106 -0.034497626 0.11095881
0.016901424 -0.034888428 0.10629267
0.020832561 -0.03460978 0.10645163
0.025480976 -0.034125548 0.10497504
0.029688627 -0.033214487 0.10433739
0.021408308 -0.034110673 0.10253918
0.025088485 -0.03350785 0.10081017
0.029795362 -0.032934431 0.10086775
0.033952814 -0.03072484 0.10064656
0.026383381 -0.034005251 0.098076284
0.0291095 -0.033613749 0.096129596
0.033110444 -0.0313434 0.096631885
-0.0024451893 -0.033859771 0.1226199
-0.0027234489 -0.033727124 0.11821783
0.0013692658 -0.034008034 0.11735421
0.0030152695 -0.034037054 0.11308402
0.006302644 -0.034338385 0.1128841
0.0043014577 -0.033614449 0.10876632
0.0076238248 -0.034390025 0.10841841
0.011636643 -0.034210984 0.10800588
0.0092590712 -0.035089854 0.104563
0.012088866 -0.034762681 0.10416758
0.015673019 -0.034532811 0.10310167
0.01190015 -0.034710068 0.10012025
0.016314864 -0.034111951 0.099566638
0.020152591 -0.033667885 0.099251866
0.023261549 -0.033474371 0.099627972
0.017293438 -0.033804655 0.095085979
0.020718664 -0.033714883 0.094751775
0.024538275 -0.033801451 0.095106006
0.027625227 -0.033731744 0.094280899
0.033811383 -0.030842369 0.093794644
0.02167001 -0.033965886 0.09062022
0.024632031 -0.034024738 0.089610577
0.028974079 -0.033711866 0.090470254
0.032932129 -0.03181392 0.090564489
0.026027314 -0.034085162 0.086113572
0.029062418 -0.033359293 0.085964084
0.032528605 -0.031911444 0.08533752
0.035804302 -0.03025483 0.085305035
-0.0018204707 0.0059393933 0.18445173
-0.0010725285 0.0034252424 0.1836541
-0.0030192984 -0.033693612 0.11255807
0.00077650137 -0.033923041 0.11091584
-0.0027938969 -0.033646647 0.10733563
0.0014608791 -0.03373291 0.10727584
0.0058608456 -0.034062289 0.10565722
0.0030740621 -0.033871297 0.10296798
0.0069522476 -0.03446614 0.10208362
0.0067748213 -0.034165088 0.09810096
0.011488685 -0.034096856 0.096512377
0.015179842 -0.033970151 0.096554339
0.0122041 -0.034079012 0.092137098
0.015598342 -0.034006327 0.092486918
0.019184966 -0.033812542 0.092367232
0.016056797 -0.034641936 0.08767122
0.020154474 -0.034543764 0.088384032
0.017364653 -0.034952085 0.08408767
0.020522386 -0.034636062 0.084023118
0.024307489 -0.034190908 0.083398461
0.028210882 -0.033145808 0.082805455
0.032491483 -0.032025028 0.082419872
0.025590066 -0.033619612 0.078544438
0.028428171 -0.033300448 0.07818079
0.032297917 -0.031841706 0.078177214
0.035781633 -0.029415324 0.078222334
0.031582393 -0.032192171 0.074210405
-0.00030441862 -0.032944553 0.10051084
-0.0026149433 -0.032995142 0.09626168
0.00053861272 -0.032819156 0.095651746
0.0044007897 -0.032707877 0.094674706
0.0058638798 -0.032799494 0.090898275
0.0092291133 -0.032890905 0.090818465
0.0071903104 -0.03323495 0.086789012
0.0104997 -0.033218373 0.086222231
0.011770343 -0.033532601 0.081598639
0.014874445 -0.034009498 0.081817746
0.019707162 -0.033680908 0.080732584
0.012412249 -0.034480698 0.078061819
0.015379754 -0.03393529 0.077101707
0.019078506 -0.032981206 0.076643705
0.02356654 -0.033112299 0.07644099
0.020379558 -0.033846937 0.072385907
0.023631223 -0.033527125 0.072185516
0.028086994 -0.032879759 0.072648168
0.032027759 -0.030707501 0.071542263
0.024207866 -0.033976249 0.068463326
0.027769629 -0.032444622 0.068094671
0.031477422 -0.030539684 0.067650557
0.03448531 -0.02869002 0.068044186
-0.00072490703 -0.032517351 0.092440426
0.00013551489 -0.033087377 0.089158833
0.0029320242 -0.032576632 0.088596463
-0.0029689688 -0.033485968 0.084486485
0.00034032483 -0.03367459 0.083911896
0.0044549806 -0.033432629 0.084498644
0.0075189089 -0.033155132 0.083464742
0.0014026454 -0.033483628 0.079778492
0.0049547865 -0.033480588 0.079551399
0.0088081947 -0.033424422 0.079802752
0.0098458929 -0.033355031 0.074816227
0.014432433 -0.034232952 0.07444191
0.014772467 -0.034305613 0.070744455
0.01835712 -0.034000114 0.070939839
0.015515185 -0.033945441 0.066378295
0.019393815 -0.034212664 0.065845907
0.023416484 -0.033944495 0.065413713
0.027654242 -0.032398965 0.064951122
0.031392656 -0.030546535 0.064563036
0.023647096 -0.033181954 0.061429799
0.027492017 -0.032321773 0.060722113
0.031345293 -0.030709602 0.060585737
0.035079882 -0.028820379 0.060163379
0.027972035 -0.031970814 0.056451023
0.031167325 -0.03057003 0.056281388
0.034505501 -0.029508764 0.056464255
-0.0015240349 -0.033660591 0.081032395
-0.00073008984 -0.033061206 0.077519715
0.0034945132 -0.033286713 0.07722646
-0.00038279314 -0.033187043 0.073087931
0.0035587857 -0.032614805 0.073025465
0.008214158 -0.032382838 0.07184875
0.000898147 -0.033430316 0.069352508
0.0039345752 -0.032937095 0.068445086
0.0079077631 -0.032440964 0.068466783
0.011461027 -0.033247754 0.067508817
0.0087011792 -0.032848958 0.063989401
0.013195438 -0.033130601 0.063133121
0.015537249 -0.032665748 0.061145723
0.012915327 -0.033149797 0.059043527
0.018024033 -0.032912377 0.058251679
0.022599231 -0.032586601 0.057765067
0.01780496 -0.033267614 0.053815305
0.022559285 -0.032680787 0.053175271
0.026928838 -0.032017704 0.053475499
0.031107727 -0.030637238 0.053216577
0.035175376 -0.028954241 0.053535402
0.018098686 -0.034214441 0.050952375
0.02222243 -0.033312369 0.048947453
0.027076218 -0.032181893 0.049073339
0.030941764 -0.030527426 0.048905611
0.034759983 -0.028766863 0.04862541
0.023194848 -0.034040835 0.04629159
0.027015857 -0.032266565 0.046000004
0.030872516 -0.030574689 0.045795858
0.033401813 -0.029350836 0.045557797
-0.0020643817 -0.033571694 0.070569336
-0.00084681623 -0.033264671 0.066580594
0.0029161656 -0.033152506 0.06565237
0.0037490847 -0.032691594 0.062941313
0.007130356 -0.032656632 0.061442137
0.008232275 -0.032644257 0.05730474
0.011527029 -0.033209793 0.056834996
0.012698793 -0.032749649 0.052659094
0.015557323 -0.033478569 0.052546322
0.017256437 -0.033391133 0.04783386
0.020008054 -0.033651166 0.046925306
0.021958452 -0.034004401 0.043996871
0.026546815 -0.033167571 0.043520927
0.030928917 -0.030912872 0.042984843
0.034756452 -0.028646445 0.043029904
0.022993492 -0.03414448 0.038971543
0.025850836 -0.033170179 0.038627267
0.029458228 -0.031339452 0.038660228
0.033820651 -0.028334863 0.038479447
-0.002758137 -0.032777682 0.063466966
-0.0016350402 -0.032165997 0.060188532
0.0027326941 -0.031640973 0.05909431
-0.0015690066 -0.032377645 0.05544734
0.0027538966 -0.032073256 0.055316448
0.0062880921 -0.032028817 0.054026842
-0.00012589712 -0.032927122 0.051971853
0.0026343968 -0.032743819 0.050381064
0.0075335023 -0.032452319 0.050207555
0.010675993 -0.031934191 0.049153149
0.00383888 -0.033658519 0.046622455
0.0071923207 -0.033069599 0.04558599
0.012075996 -0.032591164 0.045928121
0.01525221 -0.032240722 0.044703126
0.0085343812 -0.033599444 0.042214036
0.011806863 -0.032901887 0.041305304
0.016501835 -0.032568965 0.04112488
0.019666966 -0.033391751 0.040273309
0.013432445 -0.033474822 0.037110329
0.016320778 -0.03302044 0.03700006
0.020761117 -0.033280011 0.036332369
0.02463844 -0.03287103 0.035210192
0.029231824 -0.031032978 0.035133064
0.032670327 -0.028201841 0.035236657
0.020786528 -0.033116307 0.031596303
0.025341647 -0.032477617 0.031460524
0.029017482 -0.030755296 0.0316208
0.032637231 -0.028420154 0.030734301
0.022355018 -0.033519015 0.027565002
0.025203969 -0.03301663 0.027051628
0.029026989 -0.031065729 0.027661085
0.032487754 -0.02904861 0.027225316
-0.0017043222 -0.032602798 0.049051285
-0.0011241781 -0.032952428 0.043656826
0.0022572232 -0.033503421 0.044044197
0.0029906733 -0.033069495 0.039107442
0.0068518501 -0.033558514 0.039479315
0.010334838 -0.033286333 0.039031565
0.0073273606 -0.033183821 0.034915686
0.011122913 -0.032967586 0.034467101
0.015315945 -0.032736018 0.033910036
0.012051301 -0.032644194 0.03054142
0.016258791 -0.031996541 0.030149579
0.018720046 -0.03213618 0.028170168
0.020546539 -0.033049263 0.025405288
0.023775473 -0.033454381 0.024813056
0.02889498 -0.030979343 0.024330139
0.032921635 -0.028619323 0.02409482
0.021486044 -0.03320143 0.020884275
0.024596691 -0.032571182 0.02059865
0.028477186 -0.030237753 0.020259917
0.032308757 -0.028324399 0.01984036
-0.0022440152 -0.032381963 0.038516998
0.0015907642 -0.033073638 0.036856651
-0.00083141401 -0.033308391 0.033026814
0.002082211 -0.033272099 0.033403277
0.0066604395 -0.032655355 0.031850934
0.0024794489 -0.03363489 0.028681993
0.0065306327 -0.033107776 0.028746605
0.010504537 -0.032004099 0.027793765
0.014285568 -0.030851915 0.027531207
0.006907586 -0.033056427 0.024271369
0.010710459 -0.031920411 0.024032235
0.014960431 -0.031406455 0.02373004
0.01838864 -0.031741805 0.023398221
0.0161615 -0.031994589 0.018955112
0.019479331 -0.032504555 0.018919587
0.025120148 -0.03168723 0.017183483
0.028839245 -0.029497687 0.01645869
0.031379577 -0.028172046 0.01612556
0.016899647 -0.032605749 0.01504755
0.020095661 -0.032876525 0.014312983
0.024474666 -0.03222689 0.014221489
0.028086483 -0.030258406 0.014129877
0.032307215 -0.028180376 0.013694644
0.021627109 -0.033194043 0.0097588301
0.024414752 -0.032404777 0.010034204
0.028474234 -0.030567562 0.0089542866
0.031967111 -0.028757118 0.0088555813
-0.0025172858 -0.032028873 0.025889158
0.0011494989 -0.03326847 0.025106966
-0.0017218553 -0.032318581 0.023201764
0.0019019851 -0.03279531 0.021912813
0.0057923924 -0.032480724 0.020419478
0.01027184 -0.031261045 0.020022213
0.006661946 -0.031736545 0.016276717
0.010034733 -0.031032387 0.016472161
0.013676759 -0.031313181 0.016433597
0.010621654 -0.030860502 0.013262987
0.01484544 -0.031728093 0.011646271
0.018178208 -0.032290217 0.010874152
0.015590255 -0.031910915 0.0084629059
0.019123217 -0.031893473 0.0069180727
0.024012428 -0.031736467 0.0059707761
0.026661506 -0.030619383 0.0058782101
0.032647856 -0.02817885 0.0057503581
0.020063799 -0.031806249 0.0034659505
0.02414627 -0.031548642 0.0027756691
0.027891204 -0.030066838 0.0025215149
0.031834498 -0.028308382 0.0022913814
-0.00032839924 -0.032291342 0.019343615
-0.0028329054 -0.031847611 0.015125871
0.0011023907 -0.031897269 0.015412271
0.0044975076 -0.031737901 0.014769077
0.0023512561 -0.032192256 0.009321928
0.0053525618 -0.031745829 0.0099961162
0.0095245102 -0.030946054 0.01013869
0.005937662 -0.032365471 0.0049601197
0.009892853 -0.031747669 0.0050989389
0.013924085 -0.031320225 0.0054527521
0.010542208 -0.031795114 0.00098896027
0.014740254 -0.031397235 0.0002861619
0.018410729 -0.031216217 0.00044119358
0.021923339 -0.0309087 -2.0265579e-06
-0.0011156825 -0.031299334 0.011588752
-0.00069119129 -0.030822678 0.0080018044
-0.0030638697 -0.031259947 0.0042467117
0.00017536525 -0.031449668 0.003416121
0.00368765 -0.032217577 0.0032506585
-0.0014339983 -0.031682465 0.00083529949
0.031005833 -0.032152664 0.17799756
0.031996209 -0.031018723 0.17642206
0.032449819 -0.033430912 0.17350882
0.033064235 -0.032230821 0.17314324
0.046397101 -0.024912763 0.16140309
0.049148798 -0.022785105 0.16201976
0.051301904 -0.020435831 0.16158766
0.053722367 -0.018487392 0.16064766
0.047282487 -0.025600947 0.15893686
0.050324958 -0.024144549 0.15873119
0.052910894 -0.021462306 0.15831578
0.054905698 -0.018871635 0.15786287
0.051580459 -0.024556255 0.15516371
0.053977512 -0.022708459 0.15415055
0.05591967 -0.020033821 0.15453261
0.024531394 -0.028928678 0.18230677
0.027801456 -0.025522931 0.18241662
0.030890442 -0.022345219 0.18184063
0.032342933 -0.020121658 0.18133694
0.023152703 -0.03295771 0.18001658
0.026980456 -0.030715883 0.18075716
0.029842988 -0.027243327 0.18060797
0.031824149 -0.023390703 0.17928028
0.033463959 -0.021345349 0.17896691
0.024857264 -0.033924587 0.17658365
0.028476795 -0.033218533 0.1765193
0.032169368 -0.028756261 0.17643812
0.032791488 -0.024766054 0.17534038
0.025679152 -0.03418228 0.1731624
0.029260758 -0.033511337 0.1709978
0.033458538 -0.030376231 0.1711261
0.034128435 -0.026715912 0.17025012
0.029753784 -0.032973293 0.16730615
0.032931998 -0.031296544 0.16634709
0.035799056 -0.027968885 0.1657685
0.038406301 -0.025038678 0.1654478
0.041615553 -0.022034615 0.16523555
0.045246609 -0.01897124 0.1646297
0.047409136 -0.015976448 0.16385403
0.034523953 -0.031154325 0.16267774
0.03704951 -0.029162206 0.16186783
0.040029984 -0.026821155 0.16186014
0.044115186 -0.024821281 0.16286799
0.047176022 -0.021350708 0.16356578
0.049711376 -0.017508537 0.16184258
0.038365662 -0.029009372 0.1585868
0.041345619 -0.02792003 0.15750885
0.045443874 -0.02689233 0.15748674
0.049019121 -0.024989991 0.15646723
0.043099422 -0.028455231 0.15254605
0.046299532 -0.026783973 0.15254521
0.049678341 -0.02458597 0.1523028
0.055747271 -0.018256357 0.15172362
0.047141336 -0.026758611 0.1483995
0.050313655 -0.024547894 0.14794484
0.053855695 -0.022780135 0.14861131
0.055668183 -0.019586623 0.14795217
0.050960243 -0.024641519 0.14442876
0.053734578 -0.022447435 0.14390469
0.05521924 -0.019661589 0.14378184
0.016863244 -0.032289181 0.18163756
0.019868836 -0.029913552 0.18233931
0.022304529 -0.026759101 0.18271518
0.025378363 -0.023099812 0.18267977
0.02853713 -0.019979334 0.18275574
0.03167 -0.017169649 0.18178555
0.032711614 -0.014251945 0.17973223
0.018652173 -0.034181986 0.17888713
0.020703165 -0.032623965 0.1806342
0.033962734 -0.019114191 0.17797691
0.033702023 -0.01567091 0.1763857
0.019299854 -0.034234136 0.1739296
0.022626389 -0.034342811 0.17486733
0.033417594 -0.02343188 0.17286822
0.034117948 -0.020404879 0.17333728
0.023696935 -0.03430127 0.16978142
0.02682847 -0.033757214 0.16805407
0.034036975 -0.024182754 0.16997424
0.03570427 -0.022193436 0.16879374
0.03802165 -0.019288357 0.16690469
0.04103329 -0.015563808 0.16594848
0.024098853 -0.033999994 0.16585553
0.027722865 -0.032997712 0.16442752
0.030715751 -0.032270357 0.16375116
0.042874336 -0.017464319 0.16525358
0.028862217 -0.033241261 0.16002971
0.03259021 -0.03222321 0.16064355
0.035838239 -0.030143062 0.15973341
0.029389091 -0.033223256 0.15624472
0.033285905 -0.032430161 0.15602678
0.037069641 -0.029910833 0.1563518
0.03941147 -0.028364636 0.15509248
0.034559924 -0.031733286 0.15199348
0.037271179 -0.030126549 0.15128028
0.04076786 -0.028501328 0.15129685
0.044049367 -0.02767284 0.14983031
0.038521416 -0.029711612 0.1470812
0.041452691 -0.028960178 0.14608186
0.045626178 -0.027558541 0.146137
0.04858245 -0.024994023 0.14516935
0.055635348 -0.017213553 0.1453093
0.042613503 -0.02843756 0.14206579
0.045486044 -0.02699076 0.14154947
0.049042579 -0.025052737 0.14137122
0.052955925 -0.022592954 0.14104754
0.055028304 -0.018354675 0.14048588
0.050212458 -0.02447214 0.13707098
0.053490888 -0.022807743 0.13728577
0.055012137 -0.019695371 0.13623002
0.051178232 -0.024351567 0.13317364
0.053448062 -0.022895653 0.13357157
0.012639392 -0.027563497 0.18292755
0.015296891 -0.025108017 0.18361896
0.018071795 -0.022617711 0.18380359
0.020780679 -0.019441359 0.18309966
0.024725219 -0.015748473 0.18286967
0.026824046 -0.012695633 0.18308002
0.029344957 -0.0096365167 0.18226072
0.011810831 -0.032640316 0.18029797
0.013681353 -0.029873367 0.18215692
0.01667675 -0.026845314 0.18270087
0.019810271 -0.024345368 0.18287629
0.022306958 -0.021270955 0.18242526
0.026442926 -0.01791957 0.18262863
0.028705865 -0.015529826 0.18243638
0.032058533 -0.011654348 0.18015787
0.013166119 -0.034314983 0.17649937
0.016470876 -0.03434854 0.17583859
0.033857226 -0.013388762 0.17437699
0.014590791 -0.034673911 0.17141336
0.016480524 -0.034164552 0.1716325
0.034515686 -0.015331369 0.17068827
0.035922781 -0.011183619 0.16907364
0.018286528 -0.034219824 0.16781336
0.03616707 -0.016737096 0.1679399
0.038183667 -0.013042746 0.16656837
0.019343056 -0.034646407 0.16328448
0.022104839 -0.033776678 0.16315392
0.025714789 -0.033053115 0.16156667
0.02018257 -0.03519015 0.15988597
0.023160387 -0.033756211 0.15854731
0.026411826 -0.033464778 0.15802687
0.02754467 -0.03343074 0.15352345
0.028973082 -0.033138845 0.15040877
0.032016277 -0.032261185 0.14927065
0.033074558 -0.031569146 0.14488041
0.036748227 -0.030543793 0.14484286
0.040147174 -0.029645842 0.14328769
0.03724727 -0.030253192 0.14054096
0.040762119 -0.028820284 0.13915488
0.043817211 -0.027293529 0.13892752
0.041348174 -0.028972641 0.13530833
0.044818725 -0.027219076 0.13507065
0.047865137 -0.025295749 0.13499296
0.054863662 -0.016753776 0.13432899
0.045619026 -0.026826061 0.13010305
0.048739806 -0.025064843 0.13015902
0.052790105 -0.022344185 0.13002613
0.054588251 -0.018746249 0.12999573
0.048780672 -0.025469333 0.12635362
0.05240187 -0.023054302 0.12552083
0.055000998 -0.020049267 0.1251432
0.053109486 -0.02295563 0.12207764
0.055184565 -0.020355565 0.12164766
0.012755831 -0.018436981 0.18351033
0.015929941 -0.01502032 0.1832051
0.019050406 -0.011553984 0.18284732
0.022371445 -0.0082775997 0.18268842
0.0098714987 -0.026110016 0.18312913
0.012780355 -0.023510611 0.18398082
0.015754547 -0.020362221 0.18417728
0.018186437 -0.016766498 0.18296185
0.021233886 -0.014112893 0.18268263
0.024793893 -0.010661553 0.18332413
0.012804898 -0.034132287 0.16504282
0.015938254 -0.034484863 0.16556975
0.013119442 -0.03394758 0.16102663
0.016554845 -0.034619905 0.16098067
0.018197332 -0.035018966 0.1568841
0.020646807 -0.033991981 0.15665707
0.018550552 -0.034698833 0.15253994
0.022017309 -0.03373719 0.1519683
0.025325991 -0.033309836 0.15039417
0.022313096 -0.033335626 0.14784256
0.02626536 -0.032810912 0.14663771
0.027086731 -0.032354701 0.14267409
0.030020727 -0.031994749 0.14244881
0.030531446 -0.031017644 0.13749924
0.033629999 -0.029713964 0.13718247
0.035225391 -0.029372217 0.13302264
0.040507153 -0.028648311 0.13224107
0.039814826 -0.028358448 0.1276204
0.043486103 -0.027295463 0.12831464
0.054413848 -0.016534327 0.12638512
