# .PCD v0.7 - Point Cloud Data file format
VERSION 0.7
FIELDS x y z
SIZE 4 4 4
TYPE F F F
COUNT 1 1 1
WIDTH 396
HEIGHT 1
VIEWPOINT 0 0 0 1 0 0 0
POINTS 396
DATA ascii
-0.013075516 0.037983418 0.17968264
-0.016160451 0.038057685 0.17999113
0.0076996135 0.032688081 0.18247607
0.0038159685 0.033073366 0.18258891
-0.000809555 0.032878995 0.18231428
-0.0066886796 0.032822728 0.18244809
-0.011661409 0.032853484 0.18323657
-0.016480371 0.032438338 0.18310952
0.0174747 0.035190463 0.17936867
0.012963043 0.035086632 0.18000102
0.008498718 0.03551501 0.18064541
0.0038509748 0.035892427 0.1807307
-0.0015353666 0.035675645 0.18041658
-0.0069300174 0.035729051 0.18027288
-0.011177137 0.03653878 0.18041745
-0.016236272 0.036040127 0.18197516
0.017441656 0.036587656 0.176759
0.013116506 0.037030995 0.17652062
0.0085184351 0.037573338 0.17612362
0.004063901 0.037640691 0.17547405
-0.0010102703 0.037453473 0.17545065
-0.0062817442 0.03759712 0.17485043
-0.011200298 0.038247645 0.17482215
-0.015971363 0.038823187 0.17467144
0.0027079438 0.038090646 0.17114949
-0.00038589872 0.038129449 0.17107499
-0.0062974612 0.038508713 0.17051944
-0.01135454 0.038981974 0.16967082
-0.01578572 0.039137006 0.16939968
-0.020406768 0.038767636 0.16901195
-0.012583029 0.039862156 0.16630554
-0.015664957 0.039526939 0.16598791
-0.011634352 0.025587438 0.18287566
0.013046619 0.029227437 0.18208554
0.0087486403 0.029544532 0.18288878
0.003859618 0.029461086 0.18306416
-0.00076430727 0.028821409 0.18251258
-0.0058712908 0.029086649 0.18263736
-0.011677272 0.029987691 0.18378198
-0.014757368 0.029488621 0.18336964
0.013989602 0.032576799 0.18079415
0.013891247 0.036761105 0.17294344
0.0096179955 0.037397742 0.17275754
0.013539066 0.036317766 0.16873917
0.0090478482 0.036989033 0.16880041
0.0045717438 0.037536323 0.16878289
-0.00024696582 0.037685096 0.16803634
-0.0051468792 0.037928641 0.16773188
-0.0095275454 0.038587093 0.16740817
0.008971435 0.036674678 0.16416541
0.0044307341 0.037306428 0.1635561
-4.2693253e-05 0.037638366 0.16340074
-0.005485577 0.03789711 0.16339734
-0.010726821 0.038387418 0.16332188
-0.01555353 0.038815618 0.1627596
-0.019699309 0.039275885 0.1632387
0.0032007103 0.038352489 0.16027063
9.9908953e-05 0.038110197 0.16001236
-0.0045568584 0.037858486 0.15969884
-0.015446972 0.038388669 0.15970683
-0.020288859 0.038943887 0.15859699
0.0082953926 0.023294389 0.18258137
0.0039945673 0.023009837 0.18271962
-0.0007111748 0.022582352 0.18321422
-0.0055569056 0.022871554 0.18282422
-0.011317031 0.022086142 0.1829167
0.015446705 0.035536945 0.16621777
0.014616438 0.036202848 0.16275406
0.0097613866 0.037276268 0.16208535
0.006270234 0.037467241 0.16163725
0.014807341 0.036373973 0.15808189
0.0096029947 0.036829472 0.1575993
0.0051002544 0.037310421 0.15754503
0.00025522197 0.037347436 0.15672013
-0.0051384582 0.037142038 0.15713772
-0.010356623 0.036747336 0.15673095
-0.015325724 0.037204504 0.15613627
-0.019201204 0.038125634 0.15569901
0.0082283216 0.036695957 0.15373242
0.0050879461 0.036898553 0.15377033
0.00041869524 0.03638643 0.15328127
-0.0034795827 0.036064684 0.15294391
-0.011292464 0.035847664 0.15255481
-0.01569907 0.036916733 0.15188596
-0.019860245 0.038327694 0.15208232
-0.020112578 0.038182795 0.14776272
0.0091163497 0.018840849 0.18234023
0.003777968 0.017453253 0.1827791
-0.00062942092 0.01657635 0.18319386
-0.005718512 0.016737759 0.18266317
0.016031068 0.035597146 0.1551131
0.015426372 0.035876453 0.15152866
0.010120329 0.036221743 0.15136153
0.0052383584 0.036509395 0.15070057
0.00055329746 0.036126912 0.15029711
-0.0043689343 0.035589218 0.15018386
-0.0093191518 0.035480738 0.15011832
-0.014055341 0.036211312 0.14958832
0.015692465 0.036323071 0.14618558
0.0099758403 0.036334693 0.14625412
0.0054571298 0.036523402 0.14600793
0.00074015238 0.03658402 0.14590466
-0.0039588693 0.036262989 0.14554167
-0.0094520515 0.036195576 0.14532682
-0.014947492 0.036362946 0.14527118
-0.019317206 0.037504137 0.14478469
0.0053341244 0.036903858 0.14172322
0.00092796655 0.037036777 0.14149049
-0.0037789843 0.036672711 0.1410968
-0.0092698587 0.036902964 0.14051878
-0.014454696 0.037643731 0.14030266
-0.01948873 0.037865818 0.14049256
-0.013865151 0.038065076 0.1370053
-0.020153008 0.037925005 0.13671833
0.003834798 0.011110008 0.18231592
-0.00055484578 0.011691868 0.18298239
-0.005490995 0.010941028 0.18305182
0.0057374076 0.014864565 0.18236312
0.011878603 0.035883486 0.14387742
0.016031217 0.035677433 0.14006221
0.010501743 0.035683572 0.13989803
0.0061822576 0.036527157 0.13892362
0.0010300712 0.037565708 0.13901076
-0.0036879512 0.037385821 0.1387434
-0.0068348828 0.03732723 0.13860756
0.017046902 0.035318613 0.13602984
0.0051654284 0.035371423 0.13570809
0.00068737991 0.036537349 0.13510832
-0.0035139075 0.036943555 0.13462824
-0.0082715712 0.037650824 0.13497901
-0.013756324 0.037723184 0.13391179
-0.019057114 0.037559628 0.13404676
-0.0041290238 0.037512422 0.13022381
-0.0083095096 0.03805089 0.13006732
-0.013608765 0.03809756 0.12977761
-0.018795785 0.03786695 0.128885
-0.00046032137 0.0034047365 0.18334156
-0.00050710392 0.0074453354 0.18318
-0.0036807365 0.0075408216 0.18312967
0.016307034 0.035082936 0.13375297
0.010844414 0.03460753 0.13343173
0.0063226749 0.03487587 0.1329352
0.0023983761 0.035544455 0.13255447
0.016446669 0.035056174 0.12831569
0.011123446 0.034690142 0.12772447
0.0063409586 0.034852684 0.12769693
0.0015335256 0.035668612 0.12812889
-0.0025861557 0.036293209 0.12767828
-0.0071791853 0.03748852 0.12723386
-0.011135381 0.037377179 0.12703791
0.0059725051 0.035765469 0.12382394
0.0017149864 0.035390794 0.1240775
-0.0030251644 0.03598839 0.12297991
-0.0078174956 0.037374616 0.12327492
-0.012601651 0.038269579 0.12377429
-0.018143028 0.038089931 0.1234833
-0.0084627382 0.037308633 0.11933517
-0.012417477 0.037851036 0.11863923
-0.017365582 0.038159311 0.11798924
0.017982904 0.034280896 0.12321186
0.012157422 0.034733713 0.12294793
0.0066129309 0.035153985 0.12172568
0.0018441423 0.035169601 0.12120897
-0.0029059362 0.035558462 0.12018293
0.017982718 0.034268618 0.11889362
0.012182471 0.034547746 0.11812663
0.0070141 0.035471082 0.11790681
0.0020121865 0.035010993 0.11742955
-0.0027724125 0.035199404 0.11700797
-0.0075380164 0.035984635 0.11613595
-0.012286945 0.036812723 0.1149736
-0.015492745 0.037642598 0.11548257
0.011776538 0.03496784 0.11433148
0.0065686521 0.035374761 0.11398625
0.0017891347 0.034805357 0.11343533
-0.0022827752 0.034777641 0.11300373
-0.0075885537 0.035748541 0.11154115
-0.012136295 0.036396205 0.11076188
-0.016939282 0.036799669 0.11091816
-0.015209272 0.036859214 0.10708743
-0.00076582219 -0.0070056319 0.18429238
-0.00038087706 -0.0039602518 0.1837787
0.018126804 0.034423649 0.11607945
0.014927444 0.034289181 0.11588949
0.018306617 0.034824014 0.11245269
0.012737983 0.035293818 0.11245584
0.0073862527 0.035884619 0.11173451
0.0025992438 0.035411179 0.11125141
-0.0029252872 0.035578251 0.11092067
-0.0064874175 0.03603673 0.10968113
0.01814568 0.034695923 0.10792422
0.012719085 0.035323858 0.10692918
0.0072667603 0.036246657 0.10727412
0.0024650365 0.035869479 0.10686058
-0.0023619733 0.036089301 0.10688508
-0.0071586776 0.036747754 0.10624892
-0.011754307 0.037245929 0.1057471
-0.017095596 0.037114382 0.10604101
0.005861864 0.035814047 0.10296309
0.0026707617 0.036118925 0.10210842
-0.0021683271 0.037398934 0.10193324
-0.0067852992 0.037593901 0.10170156
-0.012026414 0.037784398 0.10137916
-0.016624235 0.037468255 0.10157984
-0.0076358612 0.037216365 0.097676337
-0.011963915 0.037611544 0.097057045
-0.016469549 0.0380404 0.097055197
0.015591734 0.03331852 0.10337341
0.014160668 0.033549845 0.099525571
0.0086712623 0.034526229 0.09991765
0.0027995226 0.036150455 0.09915781
0.013251645 0.034525096 0.095571697
0.0086647468 0.034736693 0.095269918
0.0027502074 0.03545177 0.095214009
-0.0018601915 0.035819292 0.094791055
-0.0064512002 0.035686374 0.093993545
-0.011094174 0.035778701 0.093007565
-0.016334362 0.0361377 0.092634976
-0.0024952174 0.035551846 0.090569258
-0.006853919 0.036035597 0.090013921
-0.01135183 0.036390305 0.088955998
-0.016207691 0.036497116 0.08890444
-0.016895987 0.037134171 0.085352361
0.015012884 0.033906043 0.093151271
0.0096511366 0.034119487 0.091826439
0.0047644163 0.03443557 0.091930509
0.014499464 0.033571303 0.088092089
0.0095912563 0.033961177 0.088253677
0.004130722 0.034452319 0.087901473
-0.0013399435 0.035388827 0.087891817
-0.0060132477 0.035828471 0.087165356
-0.0015707327 0.035675108 0.082878351
-0.0062777917 0.036870778 0.083418965
-0.011151387 0.037023306 0.083405375
-0.015771024 0.037280262 0.082902193
-0.002834748 0.036032796 0.078812361
-0.0065073404 0.036806822 0.078806818
-0.010969943 0.037047923 0.078367114
-0.016075395 0.037474573 0.078127205
0.015198377 0.033293545 0.083019972
0.0103223 0.032823563 0.082526803
0.0052455449 0.032919109 0.081702411
0.0019496985 0.033545375 0.082094908
0.015268584 0.033588469 0.077398479
0.010376447 0.033159733 0.076935053
0.005459358 0.033202887 0.076836824
0.00034945534 0.034039497 0.076897264
-0.0052095982 0.036314726 0.076934576
-0.014919995 0.036409497 0.074713588
0.01544634 0.034407973 0.073441446
0.010523372 0.033994198 0.07349956
0.0052183094 0.033937991 0.072802782
0.00072535203 0.034058332 0.072265685
-0.0047877799 0.034995496 0.072015464
-0.010403591 0.035241365 0.071669102
-0.015625555 0.036033332 0.07133615
-0.0032299359 0.035711646 0.068331957
-0.010794303 0.036037862 0.066924214
-0.015467803 0.036233723 0.066626728
0.015557976 0.034831345 0.071006417
0.010623754 0.034422338 0.071200252
0.0060460907 0.034623325 0.070592821
0.00081494515 0.034983158 0.06991756
0.015800092 0.034910977 0.066132128
0.011061699 0.034782946 0.066165566
0.005729151 0.034475863 0.065783024
0.00097120058 0.035383582 0.066121817
-0.0041996981 0.036267579 0.06610167
-0.0082253171 0.036426067 0.065888047
-0.015399764 0.036695123 0.064680576
0.0011745736 0.034707904 0.06145674
-0.003769248 0.035844147 0.061201572
-0.0089019677 0.036561608 0.060867727
-0.013995818 0.036487639 0.060878277
0.0093783224 0.033699274 0.062936068
0.0077304924 0.033656538 0.062859416
0.016127247 0.03386116 0.060125411
0.011169282 0.03382057 0.059965551
0.0062182182 0.033700883 0.059742332
0.00098949741 0.034182668 0.058123648
-0.0036079318 0.034801185 0.057255685
-0.0069145295 0.034979761 0.057314992
-0.013514019 0.035152256 0.057285488
-0.017630067 0.035005689 0.057062387
0.016369369 0.034152389 0.05515492
0.011391659 0.034248948 0.055106044
0.0064160833 0.034386635 0.055090606
0.0017059639 0.034539342 0.054498196
-0.0034766973 0.034584403 0.053956032
-0.0084533161 0.035141528 0.054281294
-0.013407658 0.035171092 0.054179728
-0.018576834 0.034987569 0.053453207
0.010721189 0.034918606 0.051448226
0.0065818322 0.034806132 0.051252604
0.00120413 0.035083473 0.050819278
-0.0033273988 0.035009444 0.050121069
-0.0082927374 0.034906209 0.049912155
-0.013444423 0.035161078 0.049204469
-0.01798103 0.035343766 0.048715949
-0.014768555 0.03632611 0.045665979
-0.018050309 0.03657943 0.044741452
0.016707495 0.033807099 0.048588693
0.011976433 0.03389281 0.047939539
0.0067855241 0.033587396 0.047109067
0.0021199181 0.033976316 0.047100902
-0.0031841651 0.034512401 0.04656738
-0.0081732636 0.034776628 0.046659827
-0.011486172 0.03462851 0.04645586
0.016108003 0.033442974 0.044057488
0.011935138 0.033469021 0.043975592
0.0069520073 0.033101737 0.043549836
0.0015384526 0.03350687 0.043220639
-0.0032296956 0.034353495 0.042478383
-0.0080216518 0.034920633 0.042563915
-0.012799761 0.035345912 0.042534173
-0.017947298 0.036366463 0.041406512
-0.0086968569 0.03483969 0.038247585
-0.013697456 0.035022676 0.038277864
-0.017830718 0.034980297 0.037292719
0.017448183 0.033314645 0.042396843
0.012472552 0.033565104 0.041421056
0.0070550488 0.032947659 0.041307569
0.0020606227 0.033297956 0.040767252
-0.0012326717 0.033632159 0.039549112
0.017223921 0.034008205 0.038186431
0.011995454 0.034236372 0.037983179
0.0071850168 0.034098625 0.038017333
0.0024000041 0.033957362 0.037517309
-0.0027966679 0.034198105 0.036794305
-0.0073736189 0.034386098 0.036308289
-0.012385855 0.034685791 0.036436498
-0.017786324 0.034721196 0.035803497
0.017005097 0.034612715 0.03388983
0.012398419 0.035006464 0.033575058
0.0074308743 0.034875154 0.032275677
0.0023957014 0.03457582 0.032514036
-0.0026029304 0.034641981 0.031838834
-0.0076433341 0.03534162 0.032306015
-0.012659199 0.035531402 0.032345295
-0.017657936 0.035065889 0.031833231
-0.0085890805 0.035759091 0.027643561
-0.012492358 0.036191225 0.027560532
-0.017504793 0.03597182 0.027255535
0.012590085 0.034342766 0.029809475
0.0025403581 0.033959389 0.029245794
0.017508332 0.033381701 0.026102304
0.012747993 0.034261346 0.026520252
0.0076869922 0.034573674 0.026665509
0.0026695884 0.034089506 0.026135385
-0.0023566477 0.033739448 0.025718689
-0.0067842631 0.034171462 0.024185538
-0.012357983 0.035201907 0.023498237
-0.017383587 0.034825981 0.023059249
0.014647451 0.033295214 0.022505403
0.0095935212 0.033160746 0.022271872
-0.003030519 0.032669067 0.021555603
-0.0080422638 0.03383863 0.020274699
-0.012514568 0.0351758 0.019874513
-0.017278142 0.03462708 0.019652963
-0.013814307 0.034953356 0.016765356
-0.015499516 0.035037935 0.01679939
0.01286896 0.033220232 0.019961834
0.0078093084 0.033075809 0.01971966
0.0029639946 0.032633662 0.019498587
-0.0018322682 0.032568753 0.018712044
-0.0066986373 0.033187568 0.018122315
-0.010483394 0.033519387 0.017777264
0.013344173 0.033548474 0.014273107
0.008284633 0.033364713 0.013724685
0.0029549124 0.032974958 0.013888717
-0.0018774114 0.033515334 0.013622165
-0.0069732992 0.034230351 0.014123559
-0.011785801 0.03462702 0.013735354
-0.01729919 0.034090996 0.01349318
-0.0021379136 0.034298539 0.0093816519
-0.0069802622 0.03504324 0.0085538626
-0.011834162 0.035011172 0.0081422925
-0.016674418 0.034425735 0.0081464648
0.013482061 0.033192813 0.011510611
0.0041694129 0.032840192 0.010991395
0.01369371 0.032290399 0.0074384212
0.0085964696 0.032127976 0.0071804523
0.0035046833 0.031892419 0.0068593025
-0.00077084743 0.033549845 0.0071145296
-0.0049728001 0.034741461 0.0058688521
0.013892439 0.032449245 0.0031758547
0.0092049586 0.031956613 0.0031897426
0.0019556778 0.031527936 0.0032023191
-0.0014487385 0.032993853 0.0028376579
-0.0065173907 0.033875644 0.0017691255
-0.011294696 0.034254074 0.0022174716
-0.015593982 0.033952296 0.0020016432
0.013990336 0.033411741 0.00071156025
0.0085456567 0.032423913 0.00060236454
0.0039584348 0.031954765 0.0011365414
-0.001327512 0.032755017 -0.00020927191
