# .PCD v0.7 - Point Cloud Data file format
VERSION 0.7
FIELDS x y z
SIZE 4 4 4
TYPE F F F
COUNT 1 1 1
WIDTH 459
HEIGHT 1
VIEWPOINT 0 0 0 1 0 0 0
POINTS 459
DATA ascii
-0.027964752 0.024979591 0.18183732
-0.028513273 0.026558161 0.1793775
-0.029011492 0.028135736 0.17598924
-0.019882916 0.028210009 0.18050197
-0.022353243 0.026655544 0.18214136
-0.025290769 0.023439273 0.18299747
-0.028677505 0.02014271 0.18223804
-0.03049838 0.016456073 0.18086746
-0.020560732 0.029022241 0.17765972
-0.024072146 0.028706955 0.17834023
-0.03053207 0.022179909 0.17795715
-0.031422127 0.018181512 0.17678735
-0.024765212 0.029629873 0.17376029
-0.029615449 0.027004337 0.17384735
-0.030616149 0.022729911 0.17308825
-0.031172946 0.01934569 0.17306688
-0.026216278 0.029883442 0.16963547
-0.029868051 0.028357388 0.17019528
-0.030579653 0.024543008 0.16839448
-0.026547132 0.029957555 0.16573215
-0.02978575 0.028122501 0.16558167
-0.012760397 0.026785508 0.18256375
-0.015360126 0.025091527 0.18336841
-0.018101692 0.022644822 0.18383324
-0.021205425 0.019784864 0.18325189
-0.024719186 0.015821194 0.18317878
-0.026843097 0.012691034 0.1836049
-0.029335108 0.0095892185 0.18313748
-0.013466828 0.029189009 0.18035856
-0.017135013 0.027567498 0.18130773
-0.019400107 0.024863334 0.18295741
-0.029116135 0.015011759 0.18235528
-0.03118765 0.011797225 0.17944229
-0.014880044 0.030321293 0.17621684
-0.018279225 0.029448181 0.17606902
-0.031702049 0.016713701 0.17429319
-0.031503916 0.012677304 0.17446727
-0.019270768 0.029760491 0.1712651
-0.030543379 0.020729925 0.1698736
-0.031485967 0.017691169 0.17024249
-0.031338014 0.014037886 0.17017779
-0.020703904 0.029760465 0.16718358
-0.023285476 0.029669413 0.16717699
-0.030547714 0.021808207 0.16682282
-0.031257536 0.01851734 0.16593224
-0.024298187 0.029418737 0.16277942
-0.028599262 0.028078686 0.1624186
-0.030793959 0.023705529 0.16278648
-0.028295824 0.02812585 0.15751556
-0.029813081 0.025567014 0.15754539
-0.029788574 0.028221698 0.15352151
-0.022865677 0.0087484345 0.18317997
-0.0098582236 0.025875535 0.18247524
-0.012718619 0.023381673 0.18360886
-0.014806363 0.019498473 0.18325162
-0.017801313 0.016514724 0.18236655
-0.020453434 0.013592597 0.18219545
-0.010689579 0.028599039 0.1807161
-0.01274498 0.030369941 0.1735732
-0.031668652 0.011141296 0.17239174
-0.014161171 0.030230802 0.16922438
-0.017216794 0.030037722 0.16830891
-0.031451851 0.011968485 0.16744107
-0.015184149 0.030221732 0.16367728
-0.018171851 0.029846512 0.16474202
-0.031076279 0.016601276 0.16290694
-0.031280123 0.013041839 0.16283512
-0.018823227 0.029588979 0.16026369
-0.02212761 0.029088901 0.15985253
-0.030418795 0.021081956 0.15989554
-0.03019389 0.017687121 0.15901503
-0.019706262 0.029429471 0.15630001
-0.023221321 0.029119862 0.15611711
-0.029950729 0.022906624 0.15545422
-0.030516542 0.019563308 0.15442947
-0.024292864 0.029862341 0.15180209
-0.028230513 0.028920539 0.15100098
-0.030184511 0.024088901 0.15083978
-0.030908778 0.020102322 0.15122354
-0.025431944 0.029873297 0.14748207
-0.028039889 0.028747015 0.14635667
-0.029861493 0.025291439 0.14660728
-0.0088213105 0.019338876 0.18282986
-0.011699585 0.016525773 0.18288881
-0.01435564 0.013259265 0.18310151
-0.017226359 0.010490566 0.18282008
-0.019666599 0.0063804444 0.18297911
-0.0092623057 0.029206831 0.16711125
-0.012440488 0.029966949 0.16304773
-0.031651452 0.011628423 0.16037157
-0.014468476 0.030331142 0.15826023
-0.016612833 0.029505884 0.15720126
-0.030459011 0.01563218 0.15677917
-0.031320166 0.0127224 0.15648621
-0.014640971 0.030282266 0.15412217
-0.018081054 0.029870979 0.15383184
-0.030391349 0.016692076 0.15269536
-0.030903123 0.013928358 0.15182862
-0.01938441 0.029979568 0.14943942
-0.021774048 0.029958416 0.14930362
-0.031036939 0.018250886 0.14810076
-0.022785524 0.029667724 0.14536095
-0.02736631 0.028273888 0.14289001
-0.030642325 0.02394083 0.14397633
-0.031317655 0.019908253 0.1438272
-0.027309826 0.027882194 0.13911879
-0.030274868 0.025693137 0.13917029
-0.031718999 0.022423495 0.13894522
-0.030580051 0.025724644 0.13509917
-0.031760316 0.023598388 0.13494217
-0.006048956 0.016707886 0.18256283
-0.0080458438 0.013001882 0.18291807
-0.01076752 0.010457513 0.18331915
-0.013851387 0.0069042263 0.18289801
-0.008867803 0.02919817 0.16132975
-0.010098644 0.029553831 0.15640309
-0.012022411 0.029839594 0.15114245
-0.015992297 0.029906631 0.15087041
-0.03088475 0.011437574 0.14952746
-0.013248072 0.030014029 0.14695784
-0.016537415 0.029910412 0.14702466
-0.030331627 0.012763358 0.14500242
-0.017701717 0.029638128 0.14247262
-0.020975918 0.02869744 0.14153415
-0.031340662 0.017164025 0.14220965
-0.030915119 0.014141934 0.14056456
-0.021602275 0.028323749 0.13809854
-0.024924826 0.028048703 0.13763162
-0.031532198 0.018518317 0.13744304
-0.031557504 0.015677866 0.13765514
-0.022667989 0.028721493 0.13336155
-0.026133768 0.027819207 0.13382101
-0.029772658 0.025922237 0.13220119
-0.031514861 0.021329341 0.1327135
-0.031827215 0.018080097 0.13258612
-0.023813618 0.02930427 0.12919766
-0.026557028 0.0280465 0.12863415
-0.029888794 0.025884636 0.12766141
-0.030976413 0.022514153 0.12812236
-0.026727824 0.028608844 0.12466791
-0.029254202 0.02640016 0.12378249
-0.031080285 0.023404106 0.12489277
-0.0040985444 0.0092079854 0.18271008
-0.0076567512 0.0069660624 0.18320701
-0.010501753 0.0040763365 0.18302444
-0.0091583803 0.030179003 0.15003893
-0.010952469 0.030145692 0.14486098
-0.030546675 0.01061984 0.14264271
-0.011850104 0.029733153 0.14003134
-0.014786966 0.029431386 0.13954431
-0.030853651 0.01159591 0.13816491
-0.017199364 0.028933808 0.13618416
-0.019638887 0.028707789 0.13510582
-0.031338215 0.013992674 0.13462174
-0.031066313 0.011584756 0.13206935
-0.017947787 0.029217279 0.13064691
-0.020272212 0.029058171 0.13136923
-0.031365395 0.015005123 0.12978259
-0.021554841 0.029670484 0.12691435
-0.031140525 0.020341879 0.12649798
-0.030988649 0.0175763 0.12509987
-0.023365188 0.029962663 0.12300682
-0.026568113 0.029042967 0.12244031
-0.029670253 0.025974713 0.12151027
-0.030782113 0.02171427 0.1221379
-0.026875103 0.028924337 0.11781168
-0.029863123 0.026385291 0.11704886
-0.030571438 0.023285657 0.11680776
-0.027190153 0.029604701 0.11428654
-0.030073201 0.026312705 0.11308312
-0.031123016 0.023980428 0.11368239
-0.002544082 0.002008717 0.18281174
-0.0048259632 0.0042107063 0.18318576
-0.010422387 0.029058563 0.13406917
-0.014051992 0.028626386 0.13340685
-0.01149186 0.028712764 0.13060418
-0.014391748 0.028571665 0.12865862
-0.030967813 0.013646696 0.12653932
-0.031084813 0.0098843062 0.12679845
-0.016202487 0.02840776 0.12387577
-0.030870205 0.014653306 0.12324044
-0.031229667 0.01167992 0.12210548
-0.020110276 0.029540323 0.12001306
-0.030551281 0.019961933 0.1192441
-0.030894248 0.01638592 0.11879069
-0.022610195 0.02979262 0.11627233
-0.030902764 0.020806361 0.11544651
-0.031081637 0.017401159 0.11380786
-0.022915555 0.030004073 0.11203879
-0.0263406 0.029323511 0.11114377
-0.029873719 0.026730321 0.1103093
-0.031198561 0.022056174 0.11031806
-0.031544007 0.018776875 0.11064601
-0.02662904 0.029458035 0.10670632
-0.029920485 0.02694951 0.10681015
-0.03131621 0.023840118 0.10720247
-0.027143285 0.029202309 0.10292286
-0.02897229 0.027178586 0.10271382
-0.011282071 0.0286959 0.12758183
-0.012279119 0.02803381 0.12289217
-0.015281797 0.028341705 0.11797005
-0.030882016 0.014007414 0.1160599
-0.031681377 0.010918612 0.11622655
-0.015554652 0.028717527 0.11269164
-0.01854223 0.028881647 0.11334616
-0.031469617 0.015264111 0.11181521
-0.031868882 0.011954255 0.11144185
-0.020190151 0.029232347 0.10825878
-0.031706538 0.016905302 0.10735434
-0.022221368 0.02986072 0.10474324
-0.030736642 0.021518417 0.10340977
-0.031546429 0.018348455 0.10291302
-0.022914045 0.029976539 0.10089058
-0.025234018 0.028779071 0.098965943
-0.028580181 0.025743593 0.099014759
-0.029925328 0.022336306 0.098977208
-0.026105519 0.028553501 0.095949531
-0.02827521 0.026381573 0.095353603
0.0037451638 -0.0041821525 0.1841149
0.0025792876 -0.0030097459 0.18339384
-0.010023965 0.027924526 0.12058204
-0.011132691 0.028270733 0.11653787
-0.012197999 0.028632686 0.11148727
-0.015044529 0.028939152 0.10702723
-0.018172983 0.028978718 0.10533679
-0.031935159 0.01134927 0.10594249
-0.016229302 0.02919508 0.1023497
-0.019086748 0.029397998 0.10219389
-0.031262502 0.015698021 0.10065579
-0.031416588 0.011925716 0.1009801
-0.019891433 0.02914517 0.097752333
-0.030071337 0.020861302 0.09632802
-0.030970326 0.017158583 0.09660387
-0.020791436 0.028374501 0.092613876
-0.02490169 0.028780628 0.092808723
-0.028646881 0.026013872 0.092655718
-0.029992322 0.021952635 0.092014074
-0.030819314 0.017870627 0.092850208
-0.026122283 0.028970247 0.088260651
-0.028919704 0.026869331 0.088596225
-0.029979561 0.023327051 0.087312818
-0.026635868 0.028706942 0.084394693
-0.028622288 0.027201643 0.083823085
-0.029915733 0.024225675 0.083452225
-0.0095917638 0.028227903 0.10874289
-0.010451677 0.028144261 0.10463613
-0.012660115 0.028305538 0.1001718
-0.031254075 0.0099298498 0.097625375
-0.013027478 0.028420452 0.09597367
-0.016063392 0.028310589 0.094917655
-0.030353114 0.014444341 0.093342185
-0.030737378 0.011126583 0.093679249
-0.01824848 0.027946685 0.09079504
-0.030695558 0.016236933 0.090046048
-0.030950159 0.012479136 0.08882302
-0.019813534 0.028249765 0.086421192
-0.022697996 0.028602041 0.086914301
-0.029919302 0.020895204 0.085270107
-0.030547176 0.017187238 0.085474789
-0.031288181 0.013751103 0.085434675
-0.020408956 0.028558139 0.082453966
-0.023520881 0.028397629 0.081582606
-0.028476598 0.026353443 0.080448508
-0.029712964 0.021543793 0.080870748
-0.03056092 0.01844736 0.081359982
-0.02527562 0.028211042 0.077666044
-0.027845193 0.026410593 0.076551795
-0.029229833 0.023370015 0.076899767
-0.025861545 0.028503843 0.073666096
-0.02831799 0.026544925 0.073388517
-0.0086136991 0.027770542 0.10093862
-0.0096029127 0.028155699 0.097371101
-0.011081775 0.02827584 0.093117654
-0.011812803 0.02820548 0.088073909
-0.015073796 0.028107164 0.088572979
-0.031461176 0.010404664 0.086877227
-0.016453017 0.028529326 0.084041715
-0.03104946 0.0156084 0.082476497
-0.031708393 0.012076088 0.082321048
-0.017767932 0.028604101 0.079330206
-0.020344883 0.028660078 0.079445839
-0.03084895 0.016892256 0.078481913
-0.031579137 0.013568954 0.077807367
-0.021828668 0.028391782 0.075116158
-0.029523075 0.021119762 0.074659228
-0.030134398 0.01821878 0.073909044
-0.023917723 0.028404674 0.07032758
-0.02775722 0.027009958 0.070598483
-0.029814944 0.02301712 0.070675731
-0.030249948 0.019289028 0.070214629
-0.027616678 0.027108165 0.065871477
-0.029640522 0.024313681 0.065565884
-0.0086285137 0.028365027 0.091303885
-0.010759509 0.028237861 0.08198607
-0.011739827 0.028302521 0.07692486
-0.014440309 0.028385753 0.078140736
-0.031401169 0.010961545 0.075558245
-0.015603194 0.028323911 0.073208451
-0.019610448 0.028373523 0.071667612
-0.030031621 0.015703224 0.071749032
-0.031150199 0.011918126 0.071372688
-0.017355353 0.028284481 0.069158912
-0.020456972 0.028410492 0.068131864
-0.029646665 0.020817131 0.066772699
-0.029957443 0.016862912 0.067217588
-0.030819554 0.013538684 0.067200184
-0.021645579 0.028177774 0.063590586
-0.024663441 0.02787015 0.063260674
-0.029019993 0.021370536 0.062637508
-0.029681651 0.017552059 0.063026786
-0.021884883 0.028289683 0.05969125
-0.026020244 0.027170185 0.059088707
-0.028404031 0.024176449 0.058235765
-0.028960407 0.020492945 0.05889833
-0.026352165 0.027024025 0.054468215
-0.028722566 0.024453128 0.053885281
-0.027438298 0.027268479 0.051195383
-0.028863886 0.025717752 0.05104959
-0.0087022232 0.02822629 0.075407624
-0.011204637 0.028903965 0.071255565
-0.013622712 0.028550915 0.070068598
-0.011777063 0.028911792 0.067090094
-0.014998272 0.028432827 0.066739321
-0.031058643 0.011680645 0.065582573
-0.031231198 0.0095668295 0.064262092
-0.016587358 0.027927661 0.062242448
-0.018883143 0.028205771 0.061835527
-0.029473243 0.016937805 0.06092447
-0.029817253 0.013710664 0.060387254
-0.020329548 0.028287204 0.057231247
-0.029477034 0.018555058 0.05656451
-0.021332884 0.027775107 0.053089857
-0.024391251 0.027636794 0.053088307
-0.029686226 0.023510925 0.052128077
-0.029797737 0.020633545 0.052273095
-0.025556097 0.027554138 0.048061013
-0.029067503 0.024797611 0.047853589
-0.029832825 0.021202484 0.047823489
-0.027217424 0.027366238 0.044847429
-0.028931499 0.025135132 0.04388684
-0.012794814 0.028158482 0.06308949
-0.010198925 0.028601199 0.060075343
-0.013981609 0.027866093 0.059496641
-0.029468015 0.011756301 0.057029486
-0.014491782 0.028288761 0.054906845
-0.018242091 0.028011668 0.054018378
-0.029173911 0.01322984 0.053585708
-0.015664825 0.028666023 0.050700188
-0.019372528 0.028016234 0.049883544
-0.029167244 0.01713326 0.049419403
-0.029135529 0.013434981 0.04892081
-0.016761398 0.028918609 0.047398031
-0.020416653 0.028309125 0.045782685
-0.023525035 0.027713878 0.044727266
-0.029752655 0.0195265 0.044774592
-0.029749978 0.015399197 0.044919372
-0.02066981 0.028652694 0.041801572
-0.024962569 0.027571527 0.041115463
-0.028617591 0.024975929 0.040724158
-0.029647224 0.020296143 0.040556788
-0.022380142 0.028958259 0.037459791
-0.025188915 0.027783893 0.036401391
-0.028496807 0.025049103 0.036682665
-0.029845629 0.021414813 0.036050677
-0.025946336 0.027668716 0.033653259
-0.028527336 0.025223698 0.033650637
-0.029958103 0.022678806 0.032791674
-0.0097505143 0.028560825 0.053494334
-0.01002531 0.028302431 0.04887116
-0.013123316 0.028810725 0.048613369
-0.029391401 0.011429531 0.046643138
-0.014910065 0.028969571 0.044105053
-0.029971765 0.012998006 0.042432189
-0.029693568 0.009909058 0.041560471
-0.015672237 0.028959615 0.039667726
-0.019108048 0.028997734 0.039168119
-0.029976334 0.018432476 0.038245082
-0.029761035 0.014765836 0.037917614
-0.019785676 0.028907951 0.034607708
-0.029645381 0.018811047 0.033517361
-0.029811902 0.015780609 0.033412814
-0.021692777 0.02860599 0.03142792
-0.024121648 0.027085977 0.029499173
-0.027389025 0.024317499 0.029023051
-0.029309409 0.02119232 0.029142857
-0.025183316 0.026313752 0.025747657
-0.02708821 0.0241869 0.025512993
-0.0097445725 0.028410776 0.04241997
-0.011946839 0.028564349 0.041861773
-0.0099624349 0.028900329 0.037593007
-0.013250267 0.028876614 0.037426293
-0.029919554 0.012437306 0.035006404
-0.013956226 0.029016433 0.032880425
-0.030230211 0.013576817 0.031409144
-0.030506082 0.010623946 0.031443417
-0.015653964 0.028894 0.028589547
-0.01865904 0.028473224 0.028548241
-0.022245752 0.027396249 0.026655257
-0.029149793 0.018757734 0.02727437
-0.029958507 0.015072534 0.02757442
-0.020086341 0.02823136 0.024056733
-0.023385085 0.027056599 0.023758769
-0.027028637 0.024230938 0.023358047
-0.029367415 0.020200023 0.023567796
-0.030437987 0.016543854 0.02225697
-0.023941316 0.027173104 0.01933074
-0.027451184 0.02482006 0.019779325
-0.029751349 0.021092851 0.018642485
-0.030581117 0.017889827 0.017947376
-0.025357546 0.02698884 0.015592933
-0.027963553 0.025335472 0.014306128
-0.029815834 0.022370372 0.014224708
-0.011742302 0.029089537 0.029294789
-0.012931753 0.028817611 0.026035666
-0.029815033 0.012802367 0.02342093
-0.030025739 0.0095527563 0.024451673
-0.014206234 0.027892036 0.021489382
-0.017320942 0.028212827 0.021705627
-0.03049897 0.013626901 0.020174682
-0.029962718 0.011075404 0.019029558
-0.018891487 0.027969832 0.017208397
-0.022100231 0.027799858 0.016072452
-0.030732583 0.015764013 0.015408158
-0.019623837 0.02761139 0.012021482
-0.023216715 0.027085811 0.011984289
-0.026200838 0.026020044 0.011127234
-0.029935677 0.020795669 0.01118499
-0.030733822 0.017310411 0.011117876
-0.023552606 0.027235525 0.0075374842
-0.027248507 0.02518205 0.0079759359
-0.029144295 0.021426003 0.0067321658
-0.030275812 0.018005259 0.0080399513
-0.027095433 0.024208792 0.0038554668
-0.011395279 0.027652305 0.019382596
-0.01308196 0.027695909 0.014596522
-0.015742635 0.027728993 0.014837086
-0.029723834 0.010531732 0.013580441
-0.017186843 0.027688855 0.010364532
-0.030106692 0.013680682 0.0090768933
-0.029503841 0.011011901 0.0088683963
-0.018723678 0.028108094 0.0051909089
-0.021508802 0.027751347 0.005810678
-0.029431384 0.019377269 0.0040876865
-0.029914664 0.016091637 0.0041649938
-0.019776946 0.028358895 0.00063228607
-0.023069821 0.027486023 0.0012383461
-0.026207116 0.024782525 0.0008251667
-0.028731458 0.020891398 0.00033026934
-0.0095697856 0.027769696 0.01603502
-0.0095443763 0.027301623 0.012032032
-0.012237527 0.027372176 0.0088493824
-0.015305717 0.027739629 0.0068862438
-0.029025229 0.0090598911 0.0065432787
-0.012557205 0.027240284 0.0045748949
-0.015369419 0.027969196 0.0038036108
-0.029765183 0.013614114 0.0022053719
-0.029462557 0.010216079 0.0016558766
-0.0085826293 0.026409104 0.0055747032
-0.0097018899 0.027011821 0.0011258721
