# .PCD v0.7 - Point Cloud Data file format
VERSION 0.7
FIELDS x y z
SIZE 4 4 4
TYPE F F F
COUNT 1 1 1
WIDTH 529
HEIGHT 1
VIEWPOINT 0 0 0 1 0 0 0
POINTS 529
DATA ascii
0.030418742 0.025851492 0.17838043
0.027833192 0.027867986 0.17795545
0.031418923 0.026739249 0.17577195
0.028951002 0.028709574 0.1757504
0.032150097 0.027329989 0.1728597
0.03010577 0.02897007 0.17254457
0.031559166 0.017032225 0.18062845
0.029615056 0.019479204 0.18107569
0.026814772 0.022281444 0.18131459
0.022990394 0.024944376 0.18104911
0.020368528 0.026856005 0.17874056
0.033219688 0.018293994 0.17794561
0.03185647 0.021694284 0.1788969
0.028839756 0.024273653 0.17942047
0.025060561 0.02729753 0.17829636
0.021075198 0.027472554 0.17671543
0.03432361 0.019400543 0.17403179
0.033353094 0.023021396 0.17496538
0.026049206 0.029170273 0.17373195
0.035031598 0.02060773 0.16921023
0.034190755 0.023612371 0.17028275
0.032359824 0.027345551 0.1693477
0.028117549 0.029497575 0.16916683
0.04457704 0.01589904 0.16306061
0.041292746 0.018621434 0.16338357
0.035771821 0.021202073 0.16627875
0.034514256 0.023697957 0.16612452
0.03190146 0.02662267 0.16505307
0.028561711 0.028869972 0.16522676
0.048381098 0.014868798 0.15920231
0.046065837 0.016112637 0.16058695
0.043358605 0.019014515 0.16055149
0.049036428 0.015497735 0.15807796
0.047760025 0.016025258 0.15761131
0.024839349 0.015080168 0.18309441
0.022176009 0.017586146 0.18332633
0.01935925 0.020691119 0.18301135
0.015565723 0.02453009 0.1826748
0.01252329 0.02662516 0.18249956
0.010045743 0.028776636 0.1812968
0.03186357 0.011519628 0.17987698
0.030258538 0.013986913 0.18122914
0.027226726 0.017044948 0.18218508
0.024305161 0.019723389 0.18208778
0.02051373 0.022459073 0.18208677
0.017979076 0.026557112 0.18024808
0.014685389 0.028479606 0.17968833
0.011032491 0.029469233 0.17890272
0.03333202 0.01314131 0.17687836
0.033515826 0.015649097 0.17678046
0.019853517 0.028585713 0.17542577
0.015840394 0.029769095 0.1747123
0.012530064 0.03004832 0.17509201
0.034652419 0.01456633 0.17138991
0.034450777 0.016805332 0.17196053
0.021048591 0.029049177 0.17111826
0.017593432 0.03001808 0.17003539
0.036443833 0.015400834 0.16695991
0.035442695 0.018088842 0.16814485
0.022092042 0.029887663 0.16664445
0.018647613 0.030169489 0.16667193
0.043224812 0.013354225 0.16425747
0.039778177 0.016362146 0.16482881
0.037260573 0.020517625 0.16377228
0.034496278 0.023460455 0.1625278
0.031719398 0.025876366 0.16198426
0.027229192 0.028730141 0.16294411
0.023704872 0.029417932 0.16226441
0.045257576 0.0172875 0.15866676
0.041104771 0.020132624 0.15914088
0.038332954 0.021500807 0.15871379
0.035141796 0.023866199 0.15811181
0.031705856 0.026189173 0.15771291
0.028291365 0.027770275 0.1578398
0.046617676 0.016808007 0.15527779
0.042925775 0.01935718 0.15470695
0.039020088 0.021657716 0.15417489
0.035415098 0.023879593 0.1536473
0.033053223 0.025888009 0.15364724
0.047029391 0.016629234 0.15008402
0.043636575 0.019184433 0.14964402
0.048086375 0.017038887 0.14674324
0.045799635 0.018977083 0.14690512
0.011553984 0.019050406 0.18284732
0.0081879133 0.022277322 0.18259475
0.026025023 0.010262474 0.18252608
0.023251649 0.012573868 0.1834681
0.019957738 0.015310505 0.18374375
0.016617822 0.01802537 0.18280348
0.014093828 0.021213576 0.18266252
0.010756501 0.024893954 0.18342391
0.011032194 0.029862579 0.17279795
0.015043886 0.02988947 0.1677101
0.011490678 0.029463412 0.16816807
0.036668118 0.011898561 0.16591164
0.016691089 0.02962235 0.16343749
0.020857412 0.028902795 0.15928003
0.018276703 0.029420715 0.1586847
0.027434621 0.028107531 0.15494636
0.022783162 0.028142394 0.15550777
0.038062867 0.021697558 0.15124214
0.035367392 0.023649275 0.15070388
0.031793196 0.02635804 0.15129769
0.028205734 0.027927365 0.15102169
0.024772039 0.02800901 0.15053913
0.041468162 0.02024075 0.14780831
0.038370639 0.020795302 0.14719796
0.035063021 0.02307174 0.14646894
0.032179095 0.025830235 0.14625645
0.028907351 0.027541559 0.145868
0.047612444 0.017207554 0.1440236
0.043208167 0.019145012 0.1433939
0.038780622 0.020631047 0.14225897
0.035179131 0.02296502 0.14272666
0.032726765 0.025219493 0.14249611
0.047485378 0.016065877 0.13903022
0.044243045 0.017771414 0.1396656
0.049069196 0.015749648 0.13485843
0.019205175 0.008684068 0.18287474
0.016438091 0.011603316 0.18279546
0.013369932 0.014241432 0.18333474
0.010140832 0.017201539 0.18276453
0.0059551913 0.019508777 0.18293715
0.0096123591 0.029222663 0.16508794
0.013952415 0.028949365 0.1606057
0.011329226 0.029583827 0.16090146
0.014933759 0.02879964 0.1564393
0.011819087 0.029493015 0.15688002
0.020165551 0.028192971 0.15261552
0.017177107 0.028766254 0.15211603
0.021992693 0.028389892 0.1493797
0.019177506 0.029038751 0.14743105
0.027672617 0.028062375 0.14353898
0.023693517 0.028514363 0.14454985
0.02046892 0.029074024 0.14482617
0.038132742 0.021029944 0.13966584
0.035245791 0.022861224 0.13988137
0.032067895 0.025623966 0.1398989
0.028661503 0.027581779 0.13946876
0.025428351 0.028494205 0.13953918
0.046025321 0.016499892 0.13625845
0.043057114 0.018025663 0.13695955
0.03922211 0.020257618 0.13593915
0.035463333 0.022805961 0.13524932
0.032413878 0.025417715 0.13485509
0.029158249 0.027391307 0.13540429
0.047362883 0.016293507 0.13289705
0.044209562 0.0182025 0.13231036
0.040400025 0.01996623 0.13144311
0.048225652 0.016050506 0.12839401
0.04464934 0.017888583 0.12811473
0.0083096381 0.0090611242 0.18366143
0.0052543599 0.011714756 0.18330073
0.015650289 0.0049584359 0.18285561
0.013270649 0.0083411476 0.18320203
0.0099639166 0.010751814 0.18350658
0.0072742859 0.014135133 0.18295532
0.0097337356 0.028496396 0.15356106
0.014449947 0.028516427 0.15039933
0.011260333 0.028581008 0.148581
0.015278644 0.028640803 0.14530259
0.012813942 0.029021479 0.14500472
0.018407393 0.028982379 0.14143023
0.014700416 0.028834436 0.14128381
0.023044519 0.028683465 0.13821292
0.019439248 0.029336603 0.13702506
0.028490279 0.027411763 0.13244277
0.024185628 0.028689135 0.1333473
0.021041024 0.029545166 0.13263199
0.038483657 0.020732787 0.1292676
0.035351314 0.022318941 0.12919301
0.032248832 0.024895072 0.12874469
0.029008418 0.027089711 0.12823549
0.024918765 0.028711751 0.12855545
0.047124755 0.015895527 0.12516055
0.044122469 0.018013161 0.1252749
0.039868351 0.019954499 0.12489301
0.035934042 0.022610243 0.1239709
0.032825179 0.025193186 0.12352061
0.029311271 0.02711199 0.12353745
0.026382146 0.02834248 0.12517273
0.048054516 0.015661327 0.12176454
0.04449258 0.017697886 0.12071019
0.040349334 0.019602852 0.12075847
0.036254015 0.022725871 0.12038755
0.033679955 0.025463443 0.11958897
0.048561707 0.015816614 0.11638772
0.04547324 0.017132744 0.11649334
0.049572796 0.015669873 0.11306995
0.0097050434 0.0043806508 0.18350169
0.0057451413 0.0064362134 0.18382874
0.0031204564 0.0095276441 0.18297911
0.011378869 0.028922427 0.14268941
0.0126115 0.02902732 0.13872778
0.0096441964 0.029373262 0.13763067
0.018008193 0.029923899 0.13434803
0.014792633 0.02956596 0.13412464
0.018795177 0.029772948 0.13053602
0.015584826 0.029868599 0.13030493
0.023818325 0.029643696 0.12625164
0.020264242 0.029343948 0.1260944
0.028635431 0.02754391 0.12130302
0.024634996 0.02857819 0.12205946
0.021726765 0.029238675 0.12184244
0.03944983 0.019447982 0.11745286
0.036210667 0.022492139 0.11732495
0.033459239 0.025970493 0.11713624
0.029481594 0.027254879 0.11780065
0.02585483 0.028095111 0.11827493
0.044296391 0.017691992 0.11413604
0.040116124 0.018476347 0.11342347
0.035829611 0.022358691 0.11361158
0.033530571 0.024949988 0.11338377
0.029931542 0.026842501 0.11364144
0.048678279 0.01576327 0.11004996
0.04521782 0.017052125 0.10980439
0.0019092105 0.0024876692 0.18365926
0.0066544348 0.0024683587 0.18336338
0.011058774 0.02876595 0.13527638
0.011686685 0.029254979 0.13209003
0.0091441805 0.029307041 0.13251579
0.013611685 0.02942723 0.12719738
0.009968305 0.029305214 0.12819999
0.017973015 0.029390385 0.12347668
0.015465666 0.028762948 0.1225484
0.019109171 0.028715849 0.11895531
0.015752247 0.028887482 0.11891872
0.024002893 0.027990619 0.11511427
0.021136304 0.028270805 0.11412913
0.038031403 0.019124996 0.11164749
0.035971083 0.020892985 0.11137956
0.031877723 0.025476074 0.11147749
0.028559586 0.026736045 0.11128205
0.024659911 0.027525062 0.11030018
0.043644097 0.01715726 0.10690236
0.039783474 0.018770635 0.10815841
0.035926022 0.021616928 0.10786837
0.033141624 0.024620535 0.1078707
0.029622909 0.026813142 0.1069212
0.026680477 0.027684983 0.10653919
0.044629447 0.016656209 0.10364074
0.039990392 0.018539805 0.10297555
0.036238734 0.021175968 0.10339236
0.032963183 0.024188373 0.1035772
0.030346062 0.026374519 0.1031996
0.04475696 0.016029947 0.099899411
0.042211078 0.017807428 0.099812627
-0.00065481185 -0.00061277265 0.18412894
0.012301229 0.028448969 0.12140232
0.0093212724 0.028346162 0.12049323
0.017443784 0.028510056 0.11586034
0.01342559 0.028379122 0.11621779
0.0097165769 0.028592739 0.11697817
0.01855544 0.028510068 0.11265111
0.014869777 0.028449619 0.11148536
0.02307253 0.027955621 0.10734421
0.019638635 0.02838457 0.10738146
0.016152564 0.028772123 0.10737234
0.024379473 0.027714536 0.10382116
0.020863442 0.028130824 0.10341758
0.039472237 0.018949224 0.10069698
0.035810161 0.020686723 0.10002828
0.032599639 0.023607085 0.10003686
0.029068636 0.026132924 0.099693596
0.025975969 0.027382735 0.099405706
0.046547368 0.01419525 0.096491992
0.044025645 0.015925959 0.096688509
0.040391989 0.017900351 0.096455216
0.036619026 0.019889854 0.096193671
0.032110296 0.023368705 0.096110404
0.029016027 0.025596825 0.095942378
0.044421516 0.015376769 0.092091918
0.041096069 0.017149743 0.092734218
-0.0087985257 -0.002824106 0.18821582
-0.0044550342 -0.0035058067 0.18455046
-0.002841013 -0.0013854248 0.18403131
0.011644151 0.028453324 0.11417985
0.012558418 0.028721385 0.11049139
0.0099654766 0.029038686 0.11003906
0.014293867 0.028785944 0.10564584
0.019457087 0.028540902 0.10078543
0.015807286 0.029137634 0.10144764
0.023582807 0.027474681 0.097022951
0.020524034 0.028114973 0.09658879
0.016715219 0.028913053 0.097927749
0.035292201 0.020573858 0.093508065
0.032629985 0.022864338 0.09346056
0.029225705 0.025660185 0.093135893
0.025136916 0.027115038 0.092593729
0.043202918 0.016161572 0.089527369
0.040639803 0.01779148 0.090264261
0.036628649 0.02024561 0.089696765
0.032996368 0.023397779 0.089240313
0.029822916 0.026037935 0.088771641
0.02653295 0.027357021 0.08781302
0.045069758 0.015943367 0.086631775
0.041411608 0.018008657 0.085479081
0.037572179 0.020657305 0.084751368
0.033841498 0.023556944 0.083685935
0.030692179 0.026088804 0.0836519
0.027320428 0.027164178 0.08380115
0.045868792 0.0164393 0.081454933
0.042585801 0.018948186 0.08082521
0.039015941 0.020560171 0.079725027
0.046535384 0.016358886 0.077316344
0.043191046 0.018807733 0.076604068
0.011892828 0.028199807 0.10237104
0.0091039781 0.027893825 0.10290951
0.012566447 0.028211206 0.098336279
0.0097693978 0.027855262 0.097837687
0.017862145 0.02793267 0.094097018
0.014300117 0.028284768 0.094006002
0.018935621 0.027107235 0.0900442
0.016002826 0.027838662 0.089833796
0.023855301 0.027233036 0.086574078
0.020429574 0.02697219 0.085566759
0.028614983 0.026370328 0.081148028
0.024766274 0.027076736 0.081376553
0.021856239 0.027419953 0.081339002
0.037105121 0.020990985 0.077409208
0.033999436 0.022370869 0.07760334
0.029659791 0.025240405 0.077097297
0.026053727 0.026864316 0.077384591
0.045112878 0.015448602 0.073029757
0.042038277 0.017826915 0.072657585
0.038505994 0.02023034 0.073819637
0.033940736 0.022552684 0.07298857
0.029700594 0.025602477 0.073802769
0.045343745 0.015011602 0.069036245
0.041700419 0.017791446 0.069858611
0.039244764 0.01942683 0.070078075
0.012403089 0.028213732 0.090737283
0.0090747895 0.028219175 0.091606259
0.014035914 0.028300282 0.087541282
0.010796278 0.028374426 0.085764587
0.018228242 0.02731817 0.083423734
0.015161637 0.028653119 0.08272922
0.019634565 0.027595604 0.078670681
0.016628647 0.028728975 0.07807219
0.024652114 0.027286267 0.074678898
0.020958299 0.027501592 0.074367166
0.030549096 0.024826514 0.071001172
0.026066355 0.027207598 0.07083112
0.022711204 0.027784595 0.070967317
0.04192131 0.017341228 0.067165852
0.037996504 0.019975837 0.067532778
0.034959961 0.022179533 0.067551017
0.030840077 0.02460663 0.066474438
0.027875815 0.026250854 0.06480062
0.045537148 0.014864873 0.063953638
0.042190004 0.01736927 0.06326592
0.038721956 0.019746033 0.062411547
0.035375826 0.022007659 0.062155724
0.03144652 0.024277056 0.062385499
0.045941647 0.014548954 0.059087455
0.042767145 0.01668679 0.059103012
0.0095723271 0.028124873 0.080358088
0.014307548 0.028832592 0.076188803
0.011595562 0.028779577 0.076393783
0.019269381 0.027314782 0.071415782
0.014900576 0.027907569 0.07158345
0.011805556 0.028782655 0.071425855
0.020410864 0.02731589 0.068091631
0.017321873 0.027628679 0.066710353
0.02526525 0.026015278 0.063372016
0.02205975 0.026728239 0.062667549
0.018610055 0.027293572 0.063768506
0.034575433 0.022295868 0.059139371
0.031172125 0.02379599 0.058788359
0.027423698 0.025725763 0.058740497
0.023735208 0.026900547 0.058765531
0.045473292 0.014763489 0.056110024
0.041953333 0.016934074 0.056037009
0.038566619 0.019166203 0.055729449
0.035122499 0.021608198 0.054929197
0.031681679 0.024064293 0.05414027
0.027575573 0.026180951 0.054147005
0.024726922 0.02707324 0.055418789
0.045784436 0.014249535 0.051315069
0.042458586 0.016559379 0.051099777
0.03894189 0.019257177 0.050859094
0.035547115 0.021768242 0.050134182
0.032217626 0.024361268 0.049510479
0.028710069 0.026473211 0.050735891
0.046848752 0.01479282 0.046434104
0.042658925 0.016792336 0.046974301
0.039380342 0.019485969 0.047148347
0.036529776 0.021625794 0.047603607
0.0089756707 0.028075166 0.074222505
0.010669443 0.0280421 0.068666101
0.014895624 0.027639842 0.065589786
0.012327842 0.028048091 0.065145195
0.017135084 0.027340632 0.060726464
0.02134189 0.026917864 0.056709111
0.018509636 0.027335828 0.055960715
0.023293771 0.027492553 0.05261761
0.028218158 0.026722789 0.047737479
0.024855046 0.027826516 0.047665834
0.04208928 0.017039593 0.04429096
0.039755747 0.019711554 0.04442668
0.03592303 0.022138255 0.044824302
0.032691646 0.024588596 0.044768691
0.028948011 0.026087584 0.043812513
0.025781615 0.027577812 0.043964982
0.047089957 0.01528793 0.041888416
0.043215372 0.016729439 0.040946126
0.039737199 0.019165382 0.04010129
0.035843939 0.021527702 0.040755451
0.032853659 0.023472354 0.039929986
0.0442788 0.01576066 0.036569953
0.0088051585 0.027559284 0.065564215
0.010289016 0.027383186 0.061797917
0.014267564 0.026698597 0.058356643
0.011160246 0.027200732 0.058222055
0.015504876 0.026940709 0.053947091
0.012305962 0.027042625 0.053585827
0.021330696 0.027346458 0.049061954
0.017757278 0.027128104 0.049566269
0.021933628 0.027790381 0.045585692
0.018555604 0.027575545 0.044749856
0.027328502 0.026296377 0.040697873
0.02409764 0.027732577 0.040767848
0.020190526 0.02784742 0.041236758
0.041505475 0.01701121 0.037535846
0.038386431 0.0198786 0.037242651
0.035683967 0.021153005 0.037220836
0.031979479 0.023702262 0.036742508
0.02860748 0.025788542 0.036605835
0.024318304 0.027742978 0.036353946
0.046387166 0.014075041 0.03355211
0.042841144 0.016360201 0.033555448
0.039553065 0.018540658 0.033197761
0.035825323 0.021052761 0.033015609
0.03230457 0.023492992 0.032138586
0.028970459 0.025763197 0.03191793
0.0259961 0.027272072 0.033351421
0.043309744 0.016284864 0.028792262
0.039597508 0.018565722 0.028725028
0.036384881 0.020920938 0.029608786
0.032852959 0.023920219 0.029638767
0.044078536 0.01586866 0.025863469
0.0084462063 0.026800506 0.055490434
0.0098414579 0.027012564 0.051350236
0.014214166 0.026126653 0.046443343
0.011796891 0.026445519 0.047428429
0.015446542 0.027194196 0.042735934
0.018644711 0.027682813 0.038445055
0.022303926 0.027573185 0.033024549
0.019718608 0.027847601 0.033907831
0.027171403 0.026287079 0.030335546
0.024073578 0.02682922 0.029529929
0.038995709 0.018817823 0.026324034
0.035859007 0.021114303 0.026476085
0.032745019 0.023616686 0.026147008
0.028709752 0.025310779 0.026051521
0.025323149 0.026214596 0.025737762
0.046698719 0.01426029 0.022384524
0.043270849 0.016138723 0.022700787
0.039627966 0.018183686 0.022057533
0.035873327 0.020116784 0.021255851
0.0325316 0.023163583 0.021922469
0.043984801 0.015574184 0.017707467
0.039991688 0.01832002 0.018117964
0.0083399033 0.026387244 0.047808409
0.0093891509 0.025759585 0.043904901
0.011995012 0.026710676 0.041054368
0.015121013 0.02661217 0.036823213
0.012502726 0.027205024 0.036004364
0.01618718 0.027502652 0.032855809
0.013503178 0.027602427 0.031434655
0.021563847 0.026570119 0.027537704
0.018246289 0.027561966 0.027692378
0.02738213 0.025068084 0.022154629
0.023247061 0.026739007 0.02387166
0.019836161 0.027471896 0.023038864
0.035301715 0.020686448 0.01846385
0.032588352 0.022379907 0.019084096
0.028451895 0.025008468 0.019669294
0.024289712 0.026879258 0.018989801
0.042652059 0.016063247 0.014899731
0.040193785 0.017831516 0.015221655
0.036341231 0.020586058 0.015924215
0.032357119 0.022881288 0.015393496
0.028889235 0.024947848 0.014817297
0.025168555 0.027058618 0.014899373
0.044066947 0.015975188 0.011922538
0.040393665 0.018612666 0.01186198
0.037021838 0.021024488 0.011324704
0.033506356 0.022862356 0.010724664
0.03046249 0.024564004 0.011107445
0.044450939 0.016046239 0.0068209171
0.040948294 0.018640751 0.0071321726
0.037365302 0.021146903 0.0073193312
0.0084554832 0.025894871 0.032696605
0.010276024 0.026838396 0.028191328
0.013535129 0.027548799 0.024553955
0.017201867 0.027452812 0.020137012
0.014130124 0.027609274 0.019991159
0.019279655 0.027150035 0.016217053
0.014707932 0.027362594 0.016630292
0.026870025 0.025000436 0.010910153
0.024110507 0.026719462 0.010941744
0.020046316 0.027028508 0.011627078
0.03184481 0.023035519 0.0074224472
0.028507011 0.024449611 0.0077450871
0.024967916 0.02561748 0.0070176721
0.040740706 0.018188246 0.0033694506
0.037164155 0.020718087 0.0035787225
0.032839622 0.022481151 0.0037646294
0.029227145 0.023973837 0.004301548
0.04382306 0.014505986 -3.194809e-05
0.039839558 0.017008036 -0.00037014484
0.033526015 0.021976251 0.00062912703
0.009196084 0.026224464 0.022686422
0.011343555 0.027656417 0.018180966
0.016363956 0.026819609 0.013118565
0.013048049 0.027871866 0.013320744
0.01750676 0.026974086 0.0092703104
0.014859776 0.027693029 0.008800149
0.022672892 0.02593353 0.0047937632
0.019102503 0.02687316 0.0045260191
0.015596801 0.027729245 0.0044398904
0.027620684 0.02389726 0.0012034774
0.023924755 0.025360832 0.00047242641
0.020256583 0.026029255 0.0001155138
0.012458654 0.027821692 0.0076621175
0.0095517235 0.026932444 0.0059922934
0.0136435 0.027229164 0.0020763278
0.011325869 0.027505394 0.0022003651
