# .PCD v0.7 - Point Cloud Data file format
VERSION 0.7
FIELDS x y z
SIZE 4 4 4
TYPE F F F
COUNT 1 1 1
WIDTH 426
HEIGHT 1
VIEWPOINT 0 0 0 1 0 0 0
POINTS 426
DATA ascii
-0.016068099 -0.034774911 0.1838271
-0.03280839 -0.02301671 0.17946941
-0.030274896 -0.025554335 0.18090862
-0.026986254 -0.029278271 0.1812
-0.023071283 -0.032999706 0.18184188
-0.019916117 -0.036348492 0.18177807
-0.015907127 -0.038593724 0.18059599
-0.030665524 -0.0265806 0.17755803
-0.028312666 -0.030686768 0.17715797
-0.025338084 -0.035044357 0.17745173
-0.021927131 -0.038120665 0.17715117
-0.017714387 -0.03965776 0.17641181
-0.025324944 -0.035222713 0.17316279
-0.022010757 -0.037960418 0.17257929
-0.032082405 -0.014660892 0.18285692
-0.029155949 -0.01769457 0.18349165
-0.026317339 -0.021006742 0.18373886
-0.022783855 -0.024355793 0.18319395
-0.018314911 -0.028784109 0.18281665
-0.014737175 -0.031245882 0.18354306
-0.011337911 -0.034647003 0.18315816
-0.034245893 -0.015928578 0.18054077
-0.032236353 -0.020086512 0.18092456
-0.029177617 -0.022975311 0.18209544
-0.024614342 -0.026941031 0.18271679
-0.012517986 -0.037638538 0.18156391
-0.035697486 -0.017724399 0.17652634
-0.034053173 -0.021835567 0.17591563
-0.031828441 -0.025450641 0.17580631
-0.029896751 -0.028571462 0.17501855
-0.016156472 -0.040160909 0.17406765
-0.03582219 -0.018914342 0.17184421
-0.034462392 -0.022195276 0.17101511
-0.031949423 -0.026009489 0.17123994
-0.028475758 -0.030195182 0.17139259
-0.025510635 -0.034264047 0.17037091
-0.022100743 -0.037905496 0.16986158
-0.017502192 -0.039867766 0.17032725
-0.013962231 -0.040636994 0.16895789
-0.034570664 -0.023987826 0.16703725
-0.032632776 -0.026382588 0.16623259
-0.029207429 -0.030637385 0.16644502
-0.025381064 -0.034444872 0.1662643
-0.021977164 -0.037574228 0.16599
-0.018034257 -0.039875597 0.16531733
-0.014546433 -0.041063976 0.16575578
-0.032998126 -0.027680267 0.16330528
-0.030231874 -0.030375209 0.16315019
-0.026320802 -0.034103531 0.16289431
-0.022614267 -0.03692288 0.16233313
-0.017510891 -0.018571025 0.18319345
-0.013518602 -0.022266939 0.1828824
-0.010180132 -0.026649304 0.18315658
-0.030316386 -0.011352597 0.18299365
-0.026849847 -0.014265833 0.18344492
-0.023029448 -0.017581735 0.18350947
-0.019416414 -0.021060828 0.18282998
-0.016415052 -0.024719428 0.18263736
-0.014026581 -0.028353848 0.1838209
-0.010534509 -0.031409614 0.18347532
-0.033665277 -0.012811145 0.18099952
-0.035490923 -0.011268639 0.17511195
-0.036052786 -0.015573728 0.17417252
-0.035810113 -0.016167235 0.1692647
-0.035193332 -0.020253794 0.16845459
-0.035569757 -0.017515458 0.16420391
-0.034996532 -0.021397213 0.16491535
-0.016478842 -0.040660992 0.16283596
-0.036098611 -0.018378127 0.16067633
-0.034613106 -0.022065213 0.16035548
-0.032802556 -0.025820168 0.1599994
-0.029425582 -0.029317766 0.1595071
-0.025545796 -0.033108793 0.15929532
-0.020878008 -0.036403608 0.15886819
-0.017276246 -0.039072916 0.15881816
-0.014181399 -0.041136004 0.15945628
-0.032123137 -0.025726615 0.15597415
-0.02897615 -0.028647948 0.15619889
-0.025114549 -0.03244203 0.15537736
-0.021074258 -0.035524745 0.15492138
-0.017759327 -0.038266141 0.15498146
-0.022374168 -0.010096099 0.18284574
-0.018985594 -0.013389256 0.1835618
-0.014650193 -0.016000597 0.18395102
-0.011398937 -0.019324768 0.18366346
-0.0073685851 -0.023202382 0.18331179
-0.035323475 -0.011240948 0.16734552
-0.035554342 -0.013417005 0.16285187
-0.03610044 -0.016276876 0.15787676
-0.035017651 -0.020048384 0.15779376
-0.036107682 -0.017888244 0.1539374
-0.034615062 -0.020832321 0.15359426
-0.03267239 -0.025116334 0.15345347
-0.029189944 -0.028699005 0.15353313
-0.025445398 -0.032647628 0.15315109
-0.02109386 -0.036425292 0.15282348
-0.016778048 -0.038566329 0.15223068
-0.013075094 -0.03983935 0.15187195
-0.034624387 -0.02222269 0.14908159
-0.032807335 -0.025418196 0.14916706
-0.029812837 -0.029075161 0.14934227
-0.025722843 -0.03268443 0.14894345
-0.02156793 -0.036227793 0.14848131
-0.017655103 -0.038271829 0.14771956
-0.032352239 -0.026164947 0.14489609
-0.030253569 -0.029251037 0.14495042
-0.026654717 -0.032258738 0.1445207
-0.022895716 -0.035497144 0.14443099
-0.0188214 -0.037668444 0.14399999
-0.009277381 -0.011278142 0.18375912
-0.0063506393 -0.013903957 0.18349701
-0.018581597 -0.0056609297 0.18276855
-0.014075699 -0.0082494002 0.1828714
-0.012697414 -0.012552256 0.18399885
-0.0078695044 -0.016564205 0.18343586
-0.035615452 -0.011046919 0.16090292
-0.035971973 -0.011817322 0.15612584
-0.035864018 -0.013593785 0.15093109
-0.035828464 -0.015535304 0.14677265
-0.035050225 -0.019467901 0.14718279
-0.015160238 -0.038513608 0.14536583
-0.034640662 -0.020341078 0.14232597
-0.032951131 -0.024364281 0.14247406
-0.029953422 -0.028739857 0.14172986
-0.026359076 -0.031769183 0.14131153
-0.021818366 -0.035734169 0.14147761
-0.016854089 -0.038051881 0.14105302
-0.012352902 -0.039174069 0.14015454
-0.033819031 -0.021192465 0.13827235
-0.032268241 -0.024409153 0.13763067
-0.029890906 -0.028425412 0.13775903
-0.026650544 -0.031853411 0.13771006
-0.022702446 -0.03566622 0.13747835
-0.017832059 -0.038241882 0.1364271
-0.029249888 -0.028643442 0.13372591
-0.026872622 -0.032278121 0.13346097
-0.023770679 -0.036178745 0.13274086
-0.019808821 -0.03848828 0.13199353
-0.023897383 -0.036403716 0.12892106
-0.0221413 -0.037980758 0.12876159
-0.011384686 -0.0054225479 0.18233782
-0.0074261967 -0.0076226727 0.18281919
-0.01568789 -0.0053466726 0.18242174
-0.036035717 -0.012036471 0.14425975
-0.035246804 -0.014433113 0.14027983
-0.034471888 -0.017332232 0.13869977
-0.033922724 -0.019198488 0.13547921
-0.032600064 -0.023096405 0.13473257
-0.01614747 -0.038932141 0.13374358
-0.012238867 -0.0388797 0.13388497
-0.033516441 -0.020370999 0.13104022
-0.031970289 -0.023619715 0.13106751
-0.029759964 -0.027542638 0.13100666
-0.027247695 -0.031484865 0.13069895
-0.017494299 -0.038744014 0.12976447
-0.014037622 -0.038875896 0.12975529
-0.031929534 -0.02417795 0.12723455
-0.029075926 -0.027333751 0.12649116
-0.026510723 -0.031312563 0.12615266
-0.024528116 -0.035458315 0.12632903
-0.019459929 -0.038493257 0.12568361
-0.017327741 -0.039592341 0.12316877
-0.023873713 -0.035454467 0.12220067
-0.021406036 -0.038044877 0.12264162
-0.003294593 -0.0016527723 0.18271175
-0.0047120131 -0.0054129241 0.18300799
-0.034667768 -0.012043836 0.1337685
-0.033798575 -0.016213711 0.13304883
-0.034348242 -0.013421245 0.12912208
-0.033760682 -0.017494351 0.12855589
-0.032651074 -0.021568907 0.128281
-0.033709649 -0.018906306 0.12369078
-0.032601774 -0.023233188 0.1246525
-0.029479498 -0.026551194 0.12372163
-0.02717386 -0.029277461 0.12334815
-0.012911775 -0.038320839 0.12254485
-0.034036163 -0.020114271 0.11960316
-0.032968745 -0.023613144 0.1197772
-0.029583456 -0.026968256 0.1196236
-0.026327889 -0.030459592 0.1196059
-0.02390058 -0.034296799 0.11903727
-0.019836392 -0.037740421 0.11917436
-0.015837532 -0.038997632 0.11821914
-0.032989644 -0.024487445 0.1153605
-0.029956289 -0.027060386 0.11500913
-0.026892787 -0.030437971 0.11430937
-0.023800077 -0.034388535 0.11436528
-0.020407561 -0.037463013 0.1143136
-0.016146444 -0.039128732 0.11456054
-0.023263751 -0.035922393 0.11094004
-0.034218159 -0.010504364 0.12313947
-0.033953875 -0.014262284 0.12312639
-0.011701541 -0.038332168 0.11958873
-0.034359124 -0.016158588 0.11784077
-0.012263356 -0.038730457 0.11619014
-0.034341153 -0.018431671 0.11308491
-0.03366293 -0.022971978 0.11321366
-0.029948449 -0.026861709 0.11197776
-0.025540214 -0.03148051 0.11190468
-0.018205941 -0.037632398 0.11101937
-0.014376881 -0.038649507 0.11086237
-0.033489693 -0.023693211 0.10863042
-0.03046813 -0.02717603 0.10849571
-0.027169425 -0.030658664 0.10845649
-0.024210561 -0.034191821 0.10838205
-0.020090967 -0.037100457 0.10785341
-0.015457485 -0.038079724 0.10681593
-0.033089541 -0.024983838 0.10389912
-0.031174459 -0.027263748 0.10358536
-0.027674016 -0.03088077 0.10350573
-0.023947692 -0.03393957 0.10344183
-0.021006906 -0.036276143 0.10334754
0.0066438629 0.005091337 0.1830512
0.004083992 0.0036279538 0.18289542
-0.035572615 -0.011263064 0.11167127
-0.035088353 -0.015254369 0.11191213
-0.034759521 -0.016810767 0.10734487
-0.034097709 -0.021524748 0.10565722
-0.013857557 -0.038294621 0.10507298
-0.034832858 -0.018591896 0.10259873
-0.034014903 -0.022846924 0.10204929
-0.03051256 -0.027900694 0.10100746
-0.027565802 -0.03060966 0.10077
-0.023795888 -0.033610985 0.10022891
-0.019066576 -0.036454648 0.10039932
-0.014225719 -0.037994649 0.10092223
-0.034839738 -0.01952076 0.099107504
-0.033589378 -0.023228617 0.097533345
-0.030970741 -0.026955886 0.096807241
-0.027725087 -0.030541413 0.096855879
-0.024075195 -0.03368504 0.096453607
-0.020186525 -0.036303654 0.095897019
-0.015541662 -0.037685931 0.096775174
-0.033050328 -0.024333447 0.09461987
-0.030484829 -0.027358092 0.092763186
-0.027607992 -0.030173315 0.092619896
-0.024373952 -0.033779427 0.092688024
-0.020104935 -0.036898259 0.092424572
-0.034054033 -0.012007659 0.10381335
-0.034377296 -0.013214669 0.09962517
-0.034591295 -0.015722428 0.095431685
-0.033628702 -0.018728808 0.094710827
-0.013482867 -0.037551913 0.09377563
-0.032918394 -0.021051653 0.091096818
-0.03029127 -0.02525389 0.090059757
-0.02680541 -0.029182211 0.089655399
-0.023719572 -0.032967605 0.089901328
-0.020214548 -0.036299236 0.089675903
-0.014985785 -0.037934475 0.08960706
-0.032734226 -0.02229725 0.086369157
-0.030340161 -0.025611887 0.085753679
-0.026961084 -0.02910695 0.085685253
-0.023817852 -0.03284606 0.085878015
-0.020145062 -0.036016293 0.085473657
-0.016712911 -0.03805827 0.085015833
-0.024368253 -0.033150312 0.08131218
-0.021034088 -0.036230329 0.081253469
-0.017781962 -0.03802013 0.081163585
-0.034880091 -0.012677651 0.093127847
-0.034402672 -0.014278872 0.088445544
-0.033628177 -0.018294966 0.088470221
-0.034974158 -0.016207283 0.083422244
-0.034008939 -0.019291731 0.084211349
-0.032523021 -0.023065975 0.083629847
-0.014085175 -0.038436543 0.082825899
-0.033700164 -0.020092446 0.079347551
-0.030824168 -0.024542123 0.079397738
-0.027186505 -0.028982515 0.079688311
-0.024331778 -0.032940056 0.078143835
-0.020239532 -0.036309406 0.078110993
-0.015840746 -0.038241588 0.078151882
-0.027207816 -0.028317198 0.074605107
-0.024307489 -0.03268449 0.073925972
-0.02075343 -0.035363078 0.073614001
-0.016907576 -0.03755711 0.073652029
-0.034398124 -0.01108717 0.086497962
-0.034625314 -0.011991117 0.082636595
-0.034788553 -0.013226651 0.077681243
-0.034105159 -0.018388908 0.076977193
-0.013126292 -0.037671961 0.074266136
-0.03517564 -0.014519957 0.073479891
-0.033423267 -0.018237976 0.072858691
-0.03056033 -0.02270123 0.073173523
-0.027817929 -0.027207814 0.07163769
-0.018490855 -0.035951752 0.071317673
-0.014800509 -0.037455432 0.071026504
-0.03368444 -0.018558431 0.068640649
-0.031035591 -0.022885904 0.068425298
-0.027994346 -0.027970934 0.068398118
-0.024862247 -0.032050077 0.06802839
-0.019907661 -0.034864444 0.067452073
-0.015191603 -0.037075631 0.066944957
-0.030977512 -0.024130505 0.064268768
-0.028528491 -0.027411081 0.063849092
-0.024981096 -0.031313777 0.063068867
-0.020816069 -0.034377001 0.062828183
-0.016997248 -0.036392696 0.063506782
-0.03566378 -0.011589408 0.075266242
-0.03532901 -0.012320017 0.070541203
-0.035440899 -0.013917858 0.066799283
-0.033945955 -0.018631475 0.065744162
-0.01374129 -0.037830859 0.064456582
-0.033254288 -0.018290292 0.062571645
-0.031605612 -0.022242801 0.061533391
-0.029232936 -0.026454514 0.061082661
-0.022812039 -0.032788422 0.060803056
-0.016352691 -0.035927273 0.060216784
-0.012000115 -0.037115548 0.060986519
-0.03134679 -0.022506513 0.057552934
-0.028125096 -0.026264651 0.057214499
-0.024789749 -0.029862408 0.056201041
-0.021543104 -0.033322062 0.05646348
-0.017776798 -0.034520108 0.056724191
-0.035152506 -0.011381908 0.063533306
-0.034830421 -0.01200172 0.060222089
-0.032726191 -0.016894046 0.058903575
-0.034614902 -0.013231122 0.055387318
-0.033288315 -0.017228555 0.055252612
-0.030736793 -0.021643898 0.053901076
-0.027554212 -0.025445955 0.053299069
-0.019513804 -0.033744641 0.05315721
-0.015731312 -0.034675054 0.05386734
-0.033852551 -0.017490905 0.050503969
-0.031077271 -0.021756498 0.050192714
-0.027817894 -0.025539173 0.050372005
-0.024728609 -0.029432705 0.049667597
-0.021104895 -0.032807671 0.04940021
-0.015626334 -0.034627378 0.048985958
-0.011953874 -0.035395078 0.049591184
-0.033738378 -0.01955496 0.047398031
-0.031654347 -0.022372853 0.045900047
-0.028416079 -0.025865942 0.045668244
-0.025545763 -0.030009178 0.045238972
-0.021984454 -0.033461243 0.045053124
-0.017250801 -0.035444733 0.044643641
-0.031578898 -0.02415508 0.042391002
-0.029525325 -0.026751842 0.041575193
-0.025998875 -0.030254355 0.041440368
-0.022581883 -0.033499811 0.040772021
-0.018687129 -0.03582881 0.041250587
-0.03463421 -0.012397117 0.048536539
-0.03460668 -0.015694398 0.047845542
-0.034337737 -0.012722759 0.043900251
-0.03439153 -0.017315231 0.044152498
-0.033179525 -0.021123063 0.043739855
-0.01606578 -0.036784682 0.042320251
-0.012101375 -0.036354356 0.041797817
-0.033780072 -0.018278111 0.039660215
-0.032325607 -0.022039779 0.039252639
-0.029362807 -0.026375977 0.038088441
-0.025875516 -0.02993669 0.03801173
-0.021810059 -0.034088295 0.037922502
-0.017907005 -0.036419779 0.038397491
-0.01441757 -0.037263572 0.037364662
-0.031501792 -0.022781154 0.034488142
-0.028920528 -0.025692513 0.03423667
-0.025697298 -0.029559074 0.034499764
-0.022291847 -0.033480067 0.033884168
-0.018475186 -0.036098745 0.033060968
-0.034000907 -0.01054679 0.041055202
-0.035135262 -0.01315617 0.038260877
-0.034518931 -0.015715305 0.037934661
-0.035697222 -0.013478618 0.034526527
-0.034504652 -0.017018601 0.033703923
-0.032707933 -0.020753235 0.033342838
-0.024595791 -0.029412024 0.030541003
-0.022878895 -0.031237828 0.030546784
-0.016526768 -0.036653116 0.029787779
-0.012270876 -0.037228242 0.031425357
-0.035097476 -0.017633371 0.02861917
-0.032575034 -0.021933481 0.02895993
-0.028961563 -0.025404666 0.028755784
-0.025585096 -0.028742697 0.028008938
-0.022185173 -0.032761421 0.027799904
-0.018294029 -0.035932612 0.027248144
-0.014082783 -0.037402377 0.027003944
-0.032413714 -0.022718074 0.025030136
-0.02937085 -0.025585942 0.024826527
-0.025655864 -0.029218996 0.023118258
-0.022720069 -0.033042658 0.022931695
-0.018884871 -0.035997324 0.022553861
-0.022923646 -0.033610702 0.018545389
-0.019999517 -0.036030252 0.018690109
-0.034663539 -0.011293716 0.030495822
-0.035241172 -0.012401114 0.026114404
-0.03519059 -0.015916841 0.024908066
-0.03450314 -0.016695753 0.021917343
-0.032295883 -0.02079186 0.021046102
-0.028631549 -0.024572523 0.020532489
-0.026068639 -0.02791743 0.019832969
-0.016969718 -0.036598846 0.019287705
-0.013692102 -0.036340341 0.019786417
-0.033487111 -0.017334651 0.018196583
-0.031016722 -0.020738088 0.016500354
-0.027828621 -0.024079435 0.015944898
-0.025515117 -0.028690957 0.016233563
-0.023170307 -0.032613996 0.015181661
-0.018524058 -0.035569988 0.014959812
-0.025375392 -0.029201321 0.01257199
-0.022654215 -0.032835566 0.011074543
-0.019742416 -0.034987628 0.010668516
-0.034900695 -0.014004564 0.019276977
-0.03528044 -0.011638946 0.014847636
-0.033867791 -0.015068658 0.014912009
-0.031643443 -0.019436006 0.014486313
-0.028462972 -0.022796867 0.013947248
-0.011528847 -0.035286866 0.0129233
-0.033637639 -0.016894236 0.0093070269
-0.031685811 -0.019785097 0.0098113418
-0.028277362 -0.023572365 0.009930253
-0.025774661 -0.027458662 0.0099576712
-0.023577776 -0.030793766 0.0091197491
-0.01687485 -0.035445068 0.0093051195
-0.01313346 -0.035253569 0.0079073906
-0.032465853 -0.020287497 0.0051323175
-0.028998425 -0.024022138 0.0051854849
-0.025663648 -0.028155601 0.0047420859
-0.022750197 -0.032139245 0.0050289631
-0.018500041 -0.034727804 0.004157424
-0.022060286 -0.032404568 0.00035226345
-0.033576231 -0.012858634 0.0085938573
-0.010905157 -0.03474595 0.0056401491
-0.034015797 -0.014879095 0.0039359331
-0.012398633 -0.035097074 0.0019624233
-0.032129645 -0.019543568 -0.0010523796
-0.034408305 -0.012246651 0.0014823079
