# .PCD v0.7 - Point Cloud Data file format
VERSION 0.7
FIELDS x y z
SIZE 4 4 4
TYPE F F F
COUNT 1 1 1
WIDTH 637
HEIGHT 1
VIEWPOINT 0 0 0 1 0 0 0
POINTS 637
DATA ascii
0.036173474 -0.037511442 0.17799756
0.03732891 -0.036188509 0.17642206
0.037858121 -0.039002724 0.17350882
0.038574941 -0.037602618 0.17314324
0.054129954 -0.02906489 0.16140309
0.057340264 -0.026582621 0.16201976
0.059852228 -0.023841808 0.16158766
0.062676094 -0.021568626 0.16064766
0.055162903 -0.029867772 0.15893686
0.058712453 -0.028168641 0.15873119
0.061729372 -0.025039354 0.15831578
0.06405665 -0.022016909 0.15786287
0.0601772 -0.028648963 0.15516371
0.062973768 -0.026493203 0.15415055
0.065239608 -0.023372788 0.15453261
0.028619958 -0.033750124 0.18230677
0.03243503 -0.02977675 0.18241662
0.03603885 -0.026069421 0.18184063
0.037733421 -0.023475267 0.18133694
0.027011488 -0.038450662 0.18001658
0.031477198 -0.035835199 0.18075716
0.03481682 -0.031783883 0.18060797
0.037128173 -0.027289152 0.17928028
0.039041281 -0.024902903 0.17896691
0.029000141 -0.039578684 0.17658365
0.033222929 -0.038754955 0.1765193
0.037530933 -0.03354897 0.17643812
0.038256735 -0.028893732 0.17534038
0.029959012 -0.039879326 0.1731624
0.034137551 -0.03909656 0.1709978
0.039034966 -0.035438936 0.1711261
0.03981651 -0.031168563 0.17025012
0.034712747 -0.038468845 0.16730615
0.038420666 -0.036512639 0.16634709
0.041765563 -0.032630369 0.1657685
0.044807348 -0.029211786 0.1654478
0.048551477 -0.025707049 0.16523555
0.052787714 -0.022133114 0.1646297
0.055310659 -0.01863919 0.16385403
0.040277943 -0.036346711 0.16267774
0.043224424 -0.03402257 0.16186783
0.046701647 -0.031291351 0.16186014
0.051467717 -0.028958162 0.16286799
0.055038691 -0.024909159 0.16356578
0.057996608 -0.020426625 0.16184258
0.044759937 -0.03384427 0.1585868
0.048236553 -0.032573368 0.15750885
0.053017851 -0.031374384 0.15748674
0.05718898 -0.029154994 0.15646723
0.050282661 -0.033197772 0.15254605
0.054016117 -0.03124797 0.15254521
0.057958066 -0.028683633 0.1523028
0.065038487 -0.021299081 0.15172362
0.054998226 -0.03121838 0.1483995
0.058699265 -0.028639205 0.14794484
0.06283164 -0.026576823 0.14861131
0.064946212 -0.022851063 0.14795217
0.059453622 -0.02874844 0.14442876
0.062690347 -0.026188675 0.14390469
0.064422458 -0.022938523 0.14378184
0.019673785 -0.037670709 0.18163756
0.023180308 -0.034899145 0.18233931
0.02602195 -0.03121895 0.18271518
0.029608089 -0.026949778 0.18267977
0.033293318 -0.023309223 0.18275574
0.036948331 -0.020031257 0.18178555
0.03816355 -0.016627267 0.17973223
0.021760868 -0.039878979 0.17888713
0.024153693 -0.038061295 0.1806342
0.039623186 -0.022299889 0.17797691
0.039319031 -0.018282732 0.1763857
0.022516493 -0.039939824 0.1739296
0.02639745 -0.040066611 0.17486733
0.038987197 -0.027337195 0.17286822
0.039804272 -0.023805693 0.17333728
0.027646424 -0.040018149 0.16978142
0.031299882 -0.039383419 0.16805407
0.039709803 -0.028213214 0.16997424
0.041654982 -0.02589234 0.16879374
0.044358589 -0.022503085 0.16690469
0.047872175 -0.018157776 0.16594848
0.028115328 -0.039666664 0.16585553
0.032343343 -0.038497329 0.16442752
0.035835043 -0.037648745 0.16375116
0.050020058 -0.020375039 0.16525358
0.033672586 -0.038781472 0.16002971
0.038021915 -0.037593745 0.16064355
0.041811276 -0.035166908 0.15973341
0.03428727 -0.038760465 0.15624472
0.038833555 -0.037835184 0.15602678
0.043247912 -0.034895968 0.1563518
0.045980051 -0.033092074 0.15509248
0.040319912 -0.037022166 0.15199348
0.043483041 -0.035147637 0.15128028
0.047562499 -0.03325155 0.15129685
0.051390927 -0.032284979 0.14983031
0.044941653 -0.034663547 0.1470812
0.048361465 -0.033786871 0.14608186
0.053230546 -0.032151632 0.146137
0.056679524 -0.029159697 0.14516935
0.064907908 -0.020082477 0.1453093
0.04971575 -0.033177152 0.14206579
0.053067051 -0.031489223 0.14154947
0.057216343 -0.029228192 0.14137122
0.061781906 -0.026358446 0.14104754
0.064199694 -0.021413788 0.14048588
0.058581196 -0.028550832 0.13707098
0.062406033 -0.026609033 0.13728577
0.064180821 -0.022977931 0.13623002
0.05970794 -0.028410161 0.13317364
0.06235607 -0.026711596 0.13357157
0.014745957 -0.032157414 0.18292755
0.01784637 -0.029292686 0.18361896
0.021083761 -0.02638733 0.18380359
0.024244124 -0.022681585 0.18309966
0.028846089 -0.018373217 0.18286967
0.031294718 -0.014811572 0.18308002
0.034235783 -0.011242604 0.18226072
0.013779303 -0.038080372 0.18029797
0.01596158 -0.034852263 0.18215692
0.019456208 -0.031319533 0.18270087
0.023111982 -0.02840293 0.18287629
0.026024785 -0.024816114 0.18242526
0.030850079 -0.020906165 0.18262863
0.033490177 -0.018118132 0.18243638
0.03740162 -0.013596739 0.18015787
0.015360471 -0.040034141 0.17649937
0.019216023 -0.040073298 0.17583859
0.039500099 -0.015620223 0.17437699
0.017022591 -0.040452898 0.17141336
0.019227277 -0.039858643 0.1716325
0.040268302 -0.017886596 0.17068827
0.041909911 -0.013047555 0.16907364
0.021334279 -0.039923128 0.16781336
0.042194918 -0.019526614 0.1679399
0.04454761 -0.015216538 0.16656837
0.0225669 -0.040420808 0.16328448
0.02578898 -0.039406125 0.16315392
0.030000586 -0.038561966 0.16156667
0.023546334 -0.041055176 0.15988597
0.027020451 -0.039382245 0.15854731
0.030813798 -0.039042242 0.15802687
0.032135449 -0.03900253 0.15352345
0.033801928 -0.038661987 0.15040877
0.03735232 -0.03763805 0.14927065
0.038586985 -0.036830667 0.14488041
0.042872932 -0.035634425 0.14484286
0.046838369 -0.034586813 0.14328769
0.04345515 -0.035295393 0.14054096
0.047555801 -0.033623662 0.13915488
0.051120076 -0.031842452 0.13892752
0.048239529 -0.033801414 0.13530833
0.052288514 -0.031755585 0.13507065
0.05584266 -0.029511705 0.13499296
0.06400761 -0.019546071 0.13432899
0.053222198 -0.031297069 0.13010305
0.056863107 -0.029242316 0.13015902
0.061588459 -0.026068218 0.13002613
0.063686296 -0.021870628 0.12999573
0.056910783 -0.029714225 0.12635362
0.061135519 -0.026896689 0.12552083
0.064167835 -0.023390809 0.1251432
0.06196107 -0.026781568 0.12207764
0.064381994 -0.023748159 0.12164766
0.014881802 -0.021509809 0.18351033
0.018584931 -0.017523708 0.1832051
0.022225475 -0.013479648 0.18284732
0.026100017 -0.0096571995 0.18268842
0.011516748 -0.030461682 0.18312913
0.014910415 -0.027429044 0.18398082
0.018380303 -0.023755923 0.18417728
0.02121751 -0.019560914 0.18296185
0.024772868 -0.016465042 0.18268263
0.028926209 -0.012438479 0.18332413
0.014939047 -0.039821003 0.16504282
0.018594628 -0.040232338 0.16556975
0.015306015 -0.039605513 0.16102663
0.019313987 -0.040389888 0.16098067
0.021230221 -0.040855456 0.1568841
0.024087939 -0.039657313 0.15665707
0.021642312 -0.040481973 0.15253994
0.02568686 -0.039360054 0.1519683
0.029546991 -0.038861476 0.15039417
0.026031945 -0.038891565 0.14784256
0.030642921 -0.038279399 0.14663771
0.031601191 -0.037747152 0.14267409
0.035024181 -0.037327208 0.14244881
0.035620019 -0.036187254 0.13749924
0.039235003 -0.034666292 0.13718247
0.041096289 -0.034267586 0.13302264
0.047258344 -0.033423033 0.13224107
0.04645063 -0.033084854 0.1276204
0.050733782 -0.031844705 0.12831464
0.063482821 -0.019290045 0.12638512
0.048021894 -0.033040319 0.12275803
0.05161671 -0.031663436 0.12333432
0.055975795 -0.029892169 0.12341842
0.064269789 -0.020217357 0.12347913
0.049288265 -0.03392192 0.11957061
0.052353658 -0.031897388 0.11873907
0.056304712 -0.029987078 0.11905795
0.06063354 -0.027024485 0.1189965
0.064351261 -0.022403304 0.11844647
0.056868114 -0.029291257 0.11449289
0.059821218 -0.027123934 0.11448908
0.063203514 -0.0235433 0.11456722
0.010461016 -0.022376435 0.18338978
0.013011108 -0.018307623 0.18361673
0.015986057 -0.014963469 0.18369654
0.019673763 -0.012056408 0.18296745
0.023157362 -0.0071753031 0.18252498
0.013313319 -0.039722249 0.15833354
0.01595545 -0.039901428 0.15363908
0.019531965 -0.040122431 0.14967677
0.021268923 -0.039862972 0.14612061
0.024631925 -0.039114594 0.14529213
0.025037538 -0.038802464 0.14043051
0.029440843 -0.038007937 0.139902
0.030474173 -0.037940614 0.13558614
0.033790529 -0.036734298 0.13501588
0.031822737 -0.038523052 0.13104695
0.035340711 -0.037007891 0.13148201
0.038508087 -0.035744287 0.13140666
0.032860003 -0.039199471 0.12762168
0.036213052 -0.037866522 0.12688744
0.040675301 -0.034837607 0.12723073
0.037374958 -0.037316084 0.12310472
0.040811155 -0.035614479 0.12240675
0.04502371 -0.033984438 0.12129134
0.041653957 -0.035210516 0.1183458
0.046310447 -0.034273736 0.1169799
0.051003609 -0.032850999 0.11665881
0.048389498 -0.033363756 0.11304271
0.051873188 -0.032130536 0.1127665
0.055506546 -0.030223932 0.11238402
0.059541121 -0.026969833 0.11137533
0.06317611 -0.022149423 0.11121893
0.056227803 -0.029680707 0.10794997
0.059868932 -0.027451413 0.10795122
0.062677197 -0.023654886 0.10729146
0.064811252 -0.020483263 0.10701776
0.060463004 -0.02752082 0.10313004
0.063292861 -0.024468511 0.10280359
0.064999551 -0.021744566 0.10258263
0.010838272 -0.0088697635 0.1833955
0.012435311 -0.0071325442 0.18325549
0.0060218964 -0.018879978 0.18341941
0.0088966358 -0.014664127 0.18340361
0.012963429 -0.01201136 0.18385398
0.015869208 -0.0077814963 0.18265441
0.01437559 -0.038917582 0.14678675
0.01707536 -0.038932491 0.14248163
0.018125203 -0.038519233 0.13828939
0.022570219 -0.038761538 0.13829666
0.024044137 -0.038968604 0.13467088
0.027693551 -0.038214091 0.13317215
0.025079651 -0.038884599 0.12908015
0.028874436 -0.038761053 0.12888116
0.026104596 -0.039449181 0.12444305
0.029883571 -0.039020881 0.12390888
0.033724189 -0.038104996 0.12363625
0.031296168 -0.039316412 0.11923349
0.034897111 -0.037564278 0.11984354
0.038170401 -0.036143932 0.11902869
0.035329193 -0.037397556 0.11469531
0.039514989 -0.035752624 0.11539388
0.043253601 -0.034772441 0.11506134
0.036913671 -0.037567481 0.11143678
0.04049867 -0.036079627 0.11078233
0.044929557 -0.034187831 0.11129743
0.049603596 -0.031475306 0.10875356
0.04493599 -0.033442479 0.10632652
0.049729805 -0.031484138 0.10511357
0.054202095 -0.029982612 0.10512578
0.050570603 -0.03137796 0.10043573
0.054917064 -0.029429656 0.10064209
0.058795318 -0.028156241 0.10066402
0.063255042 -0.024526048 0.10031384
0.052472726 -0.031616218 0.096674383
0.055439658 -0.029861011 0.095848382
0.059445493 -0.027524104 0.096085966
0.062898442 -0.024321083 0.096097767
0.064500354 -0.020916134 0.095501781
0.059859283 -0.02699163 0.092075109
0.062728934 -0.024303293 0.09207201
0.0052609565 -0.011178168 0.18310159
0.0078538675 -0.0076391455 0.18300933
0.011631605 -0.0037329439 0.18249401
0.012918808 -0.038854465 0.14077497
0.015593138 -0.038827799 0.13598463
0.017195005 -0.037919924 0.13123459
0.020245366 -0.037821528 0.13034388
0.021133518 -0.038163893 0.12711358
0.024093777 -0.039270639 0.12287861
0.025764536 -0.039519753 0.11852384
0.028392145 -0.039878156 0.11808878
0.026088025 -0.04005884 0.11509883
0.030323857 -0.039238423 0.11317271
0.033145305 -0.038220186 0.11279464
0.031053171 -0.039383315 0.10879993
0.034895889 -0.038254432 0.10859543
0.038556274 -0.037107687 0.10910708
0.035604335 -0.036709286 0.10444349
0.039383564 -0.035722289 0.10413164
0.043033168 -0.034442179 0.10376143
0.043826837 -0.03370617 0.099436879
0.048465218 -0.032372776 0.09930408
0.045085076 -0.033964369 0.095408201
0.049370978 -0.032793377 0.095261931
0.05478292 -0.030745933 0.093476593
0.051300999 -0.031773303 0.092204094
0.054402664 -0.030040147 0.09005028
0.058786698 -0.027462779 0.08923167
0.061934657 -0.023598997 0.089020193
0.054951638 -0.028983304 0.086625814
0.0586363 -0.026609497 0.084766626
0.0612204 -0.023032494 0.084592819
0.003122532 -0.0024860331 0.18293753
0.0055812108 -0.0048672459 0.18314564
0.012029637 -0.038553491 0.1335201
0.01316835 -0.038134731 0.12903866
0.015407904 -0.037414316 0.1242215
0.019674186 -0.037700824 0.1242325
0.017110046 -0.037747785 0.12010217
0.019743459 -0.038020484 0.1205641
0.021659989 -0.038484491 0.11641824
0.023442633 -0.038535822 0.11099857
0.027580127 -0.039520688 0.11166525
0.029030776 -0.039534807 0.1075272
0.029681265 -0.038468167 0.10236609
0.033782355 -0.037306651 0.10187185
0.037029449 -0.036094908 0.10091484
0.033981062 -0.037062004 0.096911609
0.0384259 -0.035451457 0.097343922
0.041689645 -0.03426091 0.096414864
0.038869951 -0.035434101 0.092295289
0.043053247 -0.034335703 0.092567086
0.043428168 -0.033481233 0.087649107
0.047708035 -0.032014079 0.08818996
0.051512446 -0.031070512 0.087957501
0.048038654 -0.031996019 0.083203971
0.053471282 -0.03030131 0.084201217
0.057529591 -0.027248966 0.083044469
0.06086028 -0.022750299 0.082243323
0.049882442 -0.0320893 0.079692245
0.053051151 -0.029651923 0.079336166
0.057472344 -0.026696768 0.078696847
0.060598083 -0.022643542 0.07804054
0.062329814 -0.019848442 0.078357577
0.057932723 -0.026869435 0.075044632
0.060710464 -0.023487646 0.074086308
0.012561825 -0.037686236 0.11798418
0.01668787 -0.037573669 0.11688346
0.013730152 -0.037233986 0.11328799
0.017429832 -0.037669078 0.11300296
0.019919928 -0.037892733 0.10887933
0.021965945 -0.037721999 0.10431069
0.025419457 -0.037959792 0.10383743
0.022561777 -0.0376761 0.10024381
0.026310924 -0.037938993 0.10033917
0.02906177 -0.038067959 0.096393108
0.031690761 -0.037847579 0.096155465
0.029757343 -0.038492568 0.091533363
0.033290297 -0.03772933 0.091720879
0.037275627 -0.035860702 0.090038121
0.034339096 -0.037233163 0.087597013
0.03770541 -0.0356838 0.086607099
0.041432504 -0.033901449 0.084825516
0.038144503 -0.035681855 0.082077324
0.043057274 -0.033926476 0.081299007
0.047269002 -0.032802932 0.080683291
0.04297816 -0.034367628 0.076909065
0.047508284 -0.032419838 0.076324344
0.051843032 -0.030275973 0.07619679
0.054764166 -0.028138347 0.076049447
0.048844736 -0.03139418 0.072681069
0.051829949 -0.029875681 0.072428823
0.05657921 -0.027144916 0.071771562
0.06112808 -0.022997534 0.071309447
0.0565155 -0.026508987 0.067314327
0.060159985 -0.023481701 0.066386163
0.062671438 -0.020660389 0.06592834
-0.0039040586 0.0044499524 0.18448749
-0.0023198547 0.0028744913 0.18394864
0.012323693 -0.037788067 0.10764086
0.016712142 -0.037547961 0.10708046
0.016946614 -0.037375361 0.1021651
0.01985402 -0.037481286 0.097754538
0.024323747 -0.037356395 0.097009003
0.021771012 -0.037357055 0.093696356
0.024659157 -0.037573699 0.092994153
0.026679654 -0.037943009 0.088603616
0.028814642 -0.038011208 0.084762275
0.032452799 -0.037798241 0.084912896
0.033654131 -0.037849851 0.08052063
0.037580833 -0.036362864 0.08015871
0.034513958 -0.038098149 0.076139331
0.03847805 -0.036727522 0.076158285
0.041310217 -0.035090219 0.074736655
0.038330756 -0.036300436 0.071275532
0.04273269 -0.033936638 0.072010994
0.046202499 -0.031598728 0.070122659
0.051788218 -0.02886492 0.068774641
0.046766505 -0.030724518 0.067076445
0.050537277 -0.028884243 0.065716624
0.055253107 -0.027599167 0.065226078
0.058278307 -0.025389252 0.064253449
0.052278411 -0.028499816 0.062731206
0.056195982 -0.027229995 0.060784698
0.059764732 -0.024767686 0.060646951
0.062520027 -0.02100103 0.060196757
0.056152236 -0.026970703 0.056851685
0.059484821 -0.024693478 0.055326104
0.062718526 -0.021084586 0.055672288
0.012490607 -0.037305638 0.095873415
0.014992364 -0.036915105 0.095440626
0.017772486 -0.036801279 0.091710687
0.018905427 -0.037295539 0.087156832
0.021628171 -0.037110288 0.086973071
0.024189424 -0.037237078 0.082290947
0.026233898 -0.036721773 0.077599227
0.029447006 -0.036842652 0.077378094
0.031046797 -0.036963884 0.073251605
0.032965004 -0.036334358 0.067823648
0.036212701 -0.035490464 0.066877723
0.040139135 -0.032651845 0.06707418
0.037086453 -0.034587551 0.063285053
0.040352821 -0.032252543 0.062612712
0.04450281 -0.030136982 0.062836051
0.048250984 -0.029000815 0.062803626
0.041726958 -0.031825189 0.058768153
0.045006558 -0.030223208 0.058191419
0.04920255 -0.028163891 0.05848527
0.052974261 -0.027117819 0.05820334
0.046950411 -0.030383829 0.054687738
0.049804691 -0.028440762 0.053337216
0.053441837 -0.026283138 0.053165853
0.050317273 -0.029413693 0.049833238
0.05463177 -0.026141742 0.048944831
0.058140077 -0.023570856 0.048710465
0.06123013 -0.02008269 0.048620224
0.058558367 -0.024145124 0.045163214
0.061149448 -0.021019036 0.044746041
0.01171971 -0.037114829 0.088339984
0.014580971 -0.036958978 0.08923763
0.01154787 -0.037242163 0.084281445
0.015513251 -0.037168957 0.084006667
0.017606895 -0.037696343 0.079624414
0.020941488 -0.037462495 0.080253363
0.018546145 -0.037707336 0.076066971
0.022214949 -0.037039135 0.075363159
0.023069687 -0.036360234 0.070930004
0.026577372 -0.036166217 0.070853055
0.028673455 -0.03508427 0.066256285
0.031332754 -0.035025686 0.063075066
0.033770669 -0.035231646 0.061473966
0.036253866 -0.035596225 0.057939172
0.040387914 -0.033149652 0.057262063
0.044019975 -0.030854322 0.055364013
0.03713531 -0.035402283 0.052534223
0.040821791 -0.033870265 0.052706718
0.045264002 -0.03141081 0.05202198
0.04807239 -0.029413156 0.050608754
0.041499909 -0.033704061 0.048055768
0.046029523 -0.032099098 0.047960401
0.050236158 -0.029443718 0.047472537
0.053217854 -0.027114626 0.046648502
0.046266273 -0.032070391 0.04412663
0.050558586 -0.029981259 0.04305011
0.054632943 -0.027190525 0.042667687
0.058520652 -0.024230637 0.042073309
0.061147217 -0.019960258 0.041660726
0.050714049 -0.029146638 0.039490998
0.054843694 -0.027156033 0.037756801
0.059053496 -0.024936741 0.038205624
0.061320186 -0.020281253 0.037784517
0.058309048 -0.024311336 0.034676909
0.060614102 -0.022014037 0.034606934
0.013967924 -0.037678234 0.078696847
0.015438275 -0.037530534 0.073130429
0.0165358 -0.037670527 0.068413019
0.021250363 -0.036824875 0.068845093
0.017428149 -0.03739116 0.065031946
0.021018572 -0.036332835 0.064319372
0.025267173 -0.035027098 0.063419938
0.02245781 -0.036457833 0.060369372
0.026839092 -0.035184294 0.058862865
0.030945707 -0.034912538 0.058672071
0.027359199 -0.036256071 0.054353356
0.031089142 -0.035283461 0.054835618
0.028904743 -0.036490306 0.050165772
0.03330598 -0.035823703 0.050189257
0.030219631 -0.037190542 0.047166288
0.033623222 -0.035715926 0.045238018
0.038199268 -0.034421101 0.045197546
0.039522931 -0.03327243 0.041074872
0.043884665 -0.03176488 0.039616585
0.045003396 -0.031040814 0.035500228
0.049085245 -0.029162744 0.035840511
0.053048514 -0.028190127 0.036081493
0.049381919 -0.028747717 0.031616449
0.053422883 -0.026168911 0.031084299
0.057769988 -0.023905884 0.030940771
0.060410824 -0.019586761 0.030851841
0.057596177 -0.023432819 0.026518464
0.060039215 -0.02052406 0.026992917
0.013607685 -0.038123779 0.067496836
0.015429335 -0.03748966 0.06234169
0.019520519 -0.037322685 0.062011957
0.016712241 -0.037234291 0.057295799
0.020857928 -0.037359007 0.057941675
0.022144465 -0.037476551 0.053484321
0.02347865 -0.037371788 0.049703598
0.026557304 -0.0371968 0.0488379
0.028476315 -0.037092887 0.043590307
0.03227431 -0.03708693 0.044101119
0.029549493 -0.036956381 0.040343165
0.033133905 -0.035893362 0.039666176
0.037613992 -0.034553718 0.039351344
0.038518295 -0.03313522 0.035208702
0.041862193 -0.032457452 0.03493017
0.038858362 -0.032798782 0.030543804
0.043335941 -0.032029454 0.030603468
0.048248824 -0.029462297 0.029273868
0.051361289 -0.026839156 0.027893424
0.044139318 -0.03130126 0.026379526
0.047063924 -0.029128388 0.025909543
0.051645551 -0.026114877 0.024417281
0.057332225 -0.023737067 0.023863316
0.060025427 -0.019442704 0.023820877
0.05302994 -0.025301918 0.021541178
0.056597687 -0.024013385 0.020218909
0.060293455 -0.021047939 0.020038486
0.056660347 -0.023356704 0.016090691
0.059487831 -0.021543447 0.016121507
0.013176114 -0.037141323 0.059447646
0.013401744 -0.03725253 0.055471003
0.015011697 -0.03681257 0.050878167
0.018533507 -0.037185803 0.049935818
0.020615757 -0.037162263 0.045855463
0.021126132 -0.037465572 0.041697145
0.02492013 -0.036969818 0.041887403
0.022207545 -0.037676379 0.037938714
0.026920587 -0.036911994 0.037029028
0.030804798 -0.036118582 0.036337793
0.02719952 -0.036967203 0.033056259
0.032154698 -0.035066742 0.032504857
0.035221364 -0.033164259 0.032332063
0.0320867 -0.035116702 0.027548194
0.036658213 -0.033104599 0.027655542
0.040718108 -0.032500826 0.027214408
0.033722684 -0.035033576 0.024626613
0.036968224 -0.033638872 0.02355206
0.041893829 -0.031856578 0.022979856
0.045848001 -0.029130649 0.022299886
0.03905163 -0.033539407 0.020461082
0.042249769 -0.03157001 0.018461406
0.046140198 -0.029016312 0.018657207
0.050212819 -0.026404079 0.018124223
0.053860582 -0.025139213 0.017666101
0.04639636 -0.028865518 0.014956295
0.050642993 -0.026448142 0.012849629
0.055027679 -0.02445057 0.013374567
0.059248492 -0.021413153 0.012990773
0.055597015 -0.024325458 0.0090636015
0.058738314 -0.02105874 0.0083450675
0.012577515 -0.036879703 0.04955399
0.014226926 -0.03690799 0.044180453
0.015642248 -0.037460167 0.038969517
0.018709429 -0.038018625 0.040011406
0.019886151 -0.037968323 0.034649014
0.021601357 -0.03753674 0.031122148
0.024871679 -0.036919646 0.029813409
0.026857845 -0.03614933 0.025944173
0.029718224 -0.035687786 0.02585721
0.027386919 -0.036009021 0.021451235
0.031510778 -0.035381831 0.021375954
0.035080604 -0.034267142 0.020671248
0.0324241 -0.034205429 0.01687479
0.036434218 -0.033491701 0.016692758
0.040281139 -0.031511888 0.015612245
0.037327841 -0.032280542 0.012141049
0.041133553 -0.030595496 0.011943281
0.045112096 -0.028812883 0.011219621
0.045738451 -0.027595803 0.0070598125
0.049737263 -0.026119899 0.0071316361
0.053782858 -0.024355292 0.0063299537
0.050952863 -0.02581897 0.0017114282
0.054593556 -0.024164908 0.002363801
0.058317024 -0.020841833 0.0025158525
0.011325255 -0.036492534 0.038041651
0.014669398 -0.037624218 0.034257412
0.016186297 -0.038634531 0.029344797
0.019304637 -0.037628759 0.028407931
0.015576635 -0.03837993 0.024534881
0.019240219 -0.037287302 0.023862541
0.023779904 -0.036244623 0.023749948
0.021059763 -0.037002157 0.019372821
0.024671456 -0.036602642 0.019482255
0.029000524 -0.035473194 0.017771602
0.026385743 -0.036615025 0.014754593
0.0305763 -0.035300825 0.015157223
0.034326322 -0.033928141 0.013530612
0.027758148 -0.037045669 0.010436416
0.031319275 -0.035822421 0.010740221
0.035480246 -0.033366121 0.010406613
0.039161958 -0.030741289 0.0090209842
0.032066405 -0.035618059 0.006716013
0.035710853 -0.033046927 0.0057403445
0.03970769 -0.030633628 0.0054011941
0.04414133 -0.028252117 0.0050456524
0.047449827 -0.026324859 0.003668189
0.040685058 -0.030849775 0.00053238869
0.044912215 -0.028915916 0.0013238192
0.048843537 -0.026701819 0.0004222393
0.011645569 -0.036812685 0.026643038
0.013113202 -0.037338346 0.022439301
0.017037332 -0.037712183 0.020666778
0.014344419 -0.037581339 0.018985868
0.01830513 -0.036834747 0.01708138
0.020133918 -0.036583856 0.012042224
0.022396734 -0.036348972 0.01325947
0.024614127 -0.036914539 0.0086519718
0.025683019 -0.036566444 0.0044897795
0.030313957 -0.035280194 0.0032278895
0.033853434 -0.032951683 0.0017167926
0.011829497 -0.036268145 0.014490783
0.014245144 -0.035531968 0.013288498
0.015860643 -0.035858091 0.010532975
0.01888147 -0.036343459 0.0062109232
0.022105562 -0.036555856 0.0055743456
0.019588869 -0.036780771 0.00087660551
0.023403261 -0.03652003 0.0012244582
0.014320052 -0.036019634 0.0070750713
0.011534575 -0.035976555 0.0031554699
0.014522811 -0.035680659 0.0033146739
0.012017022 -0.036686946 -0.00051569939
