# .PCD v0.7 - Point Cloud Data file format
VERSION 0.7
FIELDS x y z
SIZE 4 4 4
TYPE F F F
COUNT 1 1 1
WIDTH 435
HEIGHT 1
VIEWPOINT 0 0 0 1 0 0 0
POINTS 435
DATA ascii
0.026529081 0.026232338 0.18020457
0.023172362 0.027494609 0.18070608
0.020868447 0.028101146 0.18055913
0.027226638 0.027771698 0.17783481
0.024253497 0.02923381 0.17786872
0.021709049 0.029918853 0.17751485
0.027632713 0.028448908 0.17478782
0.025129639 0.029261921 0.17453331
0.016165154 0.023495816 0.18235955
0.013798784 0.024741104 0.18243569
0.0098979725 0.025633063 0.18179521
0.0045165559 0.028248549 0.18182558
0.001311738 0.029209174 0.18235797
-0.0022494812 0.030255545 0.18174508
0.026578326 0.023096941 0.18039244
0.022193372 0.024283722 0.18145788
0.018558919 0.026571425 0.1809817
0.015124129 0.027892798 0.18040791
0.01037279 0.028447757 0.1801765
0.0059503587 0.029820273 0.17968684
0.0022757202 0.031308182 0.17951101
-0.0017673988 0.031851534 0.17859036
0.028992526 0.024531599 0.17673123
0.019489961 0.029556196 0.17655656
0.016055388 0.029735392 0.17557427
0.011690103 0.030039307 0.17549938
0.0071836384 0.030950816 0.17427701
0.0030993987 0.031784654 0.17523518
-0.00019423105 0.031936102 0.17550185
0.029051606 0.027386108 0.17232987
0.024380397 0.029365832 0.17201424
0.020619016 0.030090105 0.17181236
0.0165444 0.030452458 0.17073861
0.012710714 0.031056929 0.17013916
0.0097985594 0.031456813 0.17107317
0.029263075 0.028088184 0.16775337
0.024905182 0.029636918 0.16740039
0.020987099 0.030439535 0.1666742
0.017109228 0.031404939 0.16630387
0.014551857 0.032089423 0.16571099
0.029273374 0.028773334 0.16418761
0.025530819 0.030040806 0.1634717
0.022062328 0.031038372 0.16376388
-0.00069142226 0.024412394 0.18313313
0.020027738 0.019181803 0.18232778
0.016695498 0.020777673 0.18278563
0.012590723 0.021705342 0.1827884
0.0089514395 0.023280028 0.18199828
0.0049060606 0.024986092 0.18198457
0.00053987093 0.027448429 0.18368217
0.022457108 0.021187555 0.18099928
0.00243471 0.031770986 0.17220876
-0.0017952174 0.031765565 0.17281607
0.01123446 0.031135438 0.16764781
0.0076004728 0.031565562 0.16843277
0.0026391512 0.031505972 0.16731703
-0.001366823 0.03153171 0.16774234
0.017215712 0.031457055 0.1643039
0.012259469 0.03160793 0.16462523
0.0082687438 0.03180116 0.16361988
0.003939813 0.031623565 0.16314515
0.029719859 0.027584217 0.16096634
0.024967205 0.029892866 0.16068754
0.021011041 0.030310394 0.16052908
0.017291699 0.031233191 0.16047522
0.013327265 0.03149505 0.15987822
0.0099154096 0.031837478 0.15969875
0.02929499 0.027435765 0.15658283
0.025350366 0.029418563 0.15630323
0.021690022 0.029769354 0.15595219
0.017907038 0.030537469 0.15647802
0.025497586 0.029337954 0.15256923
0.01458 0.015711114 0.1822291
0.010528787 0.016406294 0.18233487
0.0067314473 0.018306851 0.18277973
0.0030996632 0.019953195 0.18255556
-0.0017175972 0.021202311 0.18291697
-0.0015367074 0.032182556 0.1646733
0.0059749009 0.031688727 0.16077036
0.0025053294 0.031438474 0.16069308
-0.0010655411 0.032129124 0.16062123
0.01227838 0.030858036 0.15669498
0.0079538319 0.031148948 0.15706134
0.0041290578 0.030923616 0.15652591
-0.00086153299 0.032342903 0.15711731
0.030712619 0.026303809 0.15401447
0.02049193 0.030140586 0.15395334
0.017135195 0.030639574 0.15389642
0.013108981 0.03031956 0.15308991
0.0093230139 0.030372288 0.1535027
0.029928165 0.027056042 0.1507183
0.025826095 0.029069439 0.15019912
0.021559536 0.02994661 0.14980838
0.01787311 0.030285977 0.14943552
0.013796096 0.030298281 0.14932436
0.030211188 0.026772246 0.14621294
0.026328299 0.028802909 0.14589959
0.021388551 0.029694155 0.14505762
0.01311335 0.01190249 0.18205041
0.009033978 0.012580691 0.18214017
0.0054480224 0.013861159 0.18295857
0.0011808788 0.015494844 0.18269119
0.002411806 0.030151084 0.15367046
-0.0012964448 0.030998841 0.15322572
0.011470431 0.029993761 0.15020311
0.0081489272 0.029443894 0.15003988
0.0035547861 0.030099303 0.1495086
-0.00099560525 0.030938819 0.148821
0.016335765 0.029741021 0.14664504
0.012777194 0.029754639 0.14617014
0.0087335408 0.02994634 0.14548254
0.0046858899 0.03065636 0.14462888
0.001342888 0.030830801 0.14488965
0.030595403 0.025631487 0.14296323
0.026291978 0.028299969 0.14269108
0.021857847 0.028883735 0.14207622
0.01747519 0.029753698 0.14263558
0.013279501 0.030009596 0.14139414
0.0092900116 0.030369258 0.14084092
0.0063119666 0.03078681 0.14148784
0.030391797 0.025756136 0.13867056
0.026325243 0.027871173 0.13859674
0.021604817 0.028630706 0.13753504
0.018325647 0.028936859 0.13790336
0.029548466 0.026353693 0.13477677
0.026589449 0.027988408 0.13401559
0.022733558 0.029210694 0.13359129
0.0071042441 0.0076600411 0.18206102
0.0034352511 0.0095480802 0.18306306
-0.00029897038 0.011140079 0.18293229
0.0080699464 0.010122536 0.18209627
-0.0024425099 0.031227309 0.14642209
-0.00069859065 0.031229647 0.14280522
0.008549206 0.030618157 0.1383279
0.0048730522 0.031073099 0.1390695
0.00025034789 0.031284675 0.13806108
0.017061174 0.029180145 0.13574353
0.013312432 0.02947321 0.13530517
0.0092525398 0.030186808 0.13443646
0.0053050267 0.030769248 0.13374901
0.0010077981 0.031537026 0.13451487
-0.0016754577 0.032115549 0.13402078
0.030973008 0.025504991 0.13248569
0.026703265 0.027923565 0.1311391
0.021479398 0.029081583 0.13133794
0.017683119 0.028981529 0.13071108
0.014209159 0.029430917 0.13080165
0.010000598 0.029864455 0.13062695
0.030185379 0.025476273 0.12705478
0.026749853 0.027526904 0.1270161
0.022426134 0.029035883 0.12688315
0.018890057 0.029143423 0.12677026
0.026342632 0.027901739 0.12330252
0.023810383 0.028877912 0.12315395
0.00093887036 0.003272847 0.18292612
0.0060009342 0.0049282801 0.18274903
0.0020942914 0.0062079239 0.18328893
0.0039410116 0.031273689 0.13149917
0.0010313271 0.031352036 0.13151339
0.012923186 0.029273838 0.12850893
0.0093348715 0.030325957 0.12826902
0.0054958276 0.031191558 0.12813279
0.0013651233 0.031805858 0.12715694
-0.0029324498 0.031558156 0.12741312
0.020775422 0.028657494 0.12384945
0.017593782 0.029316541 0.12451911
0.01381362 0.029586345 0.12404066
0.00962302 0.030013938 0.12289581
0.0056873471 0.030696932 0.12227654
0.0026681647 0.031063838 0.12319291
0.027105123 0.027551841 0.12119359
0.022454055 0.02934422 0.12085491
0.018406123 0.029641107 0.11989111
0.014496891 0.029565997 0.11909986
0.027385093 0.027783316 0.11582065
0.023019198 0.029251253 0.11564261
0.019344848 0.029667404 0.11538547
0.004307678 0.031185683 0.11998111
0.0011706296 0.030832974 0.12087864
0.013099444 0.029500771 0.11660945
0.0098134223 0.029468404 0.11696315
0.0054425299 0.030055448 0.1165992
0.001219715 0.030625954 0.11684513
-0.0027190745 0.031155786 0.11670786
0.021512542 0.029306691 0.11295348
0.018070407 0.029538946 0.11307418
0.014253402 0.029036557 0.11234742
0.0096420562 0.029075371 0.11244899
0.0066360263 0.029057534 0.11332625
0.028038703 0.026762782 0.10939306
0.023574572 0.028501509 0.10914713
0.01883233 0.029475734 0.10844731
0.015762866 0.029221503 0.1088649
0.027773894 0.026424769 0.1046046
0.023976788 0.028106021 0.10392141
-0.0030662008 -0.005736277 0.18397081
-0.0017368942 -0.0033810374 0.18350685
0.00047994312 0.030420473 0.11414868
0.012627885 0.028835699 0.1094048
0.0098570026 0.029389357 0.11015314
0.0054317177 0.030031893 0.1114431
0.0014462816 0.030684952 0.11077303
-0.0025983863 0.031661827 0.11008674
0.018652584 0.028701348 0.10556227
0.014334545 0.029121449 0.10663271
0.0098701734 0.029561799 0.1067661
0.0060318038 0.030606179 0.10644895
0.0020604357 0.031316396 0.10582322
-0.0025475211 0.031484481 0.10602909
0.028482977 0.026218761 0.10203034
0.023451746 0.028483039 0.1019969
0.019115625 0.029539218 0.10244238
0.014753675 0.029736131 0.10233253
0.010546152 0.030317994 0.10192424
0.0063202996 0.030909274 0.10185015
0.0030928506 0.031500585 0.10147828
0.028338037 0.026114112 0.098124444
0.024199948 0.028153216 0.097909391
0.019270739 0.029385937 0.097420037
0.01477023 0.030097617 0.09813118
0.027194856 0.026620205 0.09512502
0.024011321 0.027896786 0.094481826
0.019342151 0.029230827 0.094335318
0.00034723803 0.030994698 0.10273153
-0.0028694449 0.030433375 0.10212451
0.0059301336 0.029594623 0.097689927
0.0011778856 0.030199062 0.097768664
-0.0025487319 0.030363519 0.097781122
0.014702878 0.028791539 0.094271898
0.01022786 0.028847931 0.094671726
0.0058493493 0.02909915 0.094272196
0.0021200161 0.030236058 0.094015956
0.028268568 0.024618849 0.09165448
0.024252797 0.026971482 0.0911237
0.019898791 0.028370123 0.090845823
0.0148933 0.028874744 0.09040451
0.010996712 0.028516799 0.090685606
0.02859523 0.025320934 0.086571753
0.024847839 0.027219273 0.086726665
0.020184688 0.028576307 0.086097956
0.016787488 0.029368607 0.085479021
0.027684849 0.026402425 0.08308506
0.025316194 0.027948324 0.082662523
0.021863203 0.028678568 0.082776845
0.0058382289 0.028787831 0.091013432
0.0015301052 0.030209664 0.09107393
-0.0024251416 0.030707713 0.091526806
0.010221242 0.028730176 0.087987185
0.0062504224 0.029505808 0.087721229
0.0022174576 0.030642955 0.087150633
-0.0019578421 0.030970259 0.086125016
0.014562328 0.029334398 0.084621251
0.010915358 0.029483667 0.083382964
0.0066956878 0.029650068 0.082198441
0.0026432695 0.030388109 0.082558036
0.029228002 0.025769865 0.080866098
0.025431588 0.027924251 0.079954624
0.021149507 0.029021915 0.080190897
0.016542995 0.029521585 0.079632223
0.011460157 0.029486667 0.079030871
0.029453374 0.026160602 0.075434864
0.025808342 0.028422879 0.075943649
0.021572087 0.028951943 0.074777126
0.018359238 0.029331941 0.074385047
0.028560184 0.027311398 0.071982026
0.025969911 0.028355846 0.07187295
0.022561295 0.029166197 0.071253419
0.005216707 0.029965507 0.079623461
0.0023195902 0.030328967 0.080192506
-0.0021150969 0.030631768 0.080478132
0.012532629 0.029105531 0.076577544
0.0070830518 0.029525729 0.076763749
0.0022145016 0.030231044 0.076426744
-0.0018401593 0.030936167 0.075741172
0.015973784 0.028553549 0.072999358
0.012223403 0.028420001 0.07257241
0.0078693153 0.028869968 0.072321832
0.0031183157 0.029765036 0.072039247
-0.00064093526 0.031057069 0.071522355
0.029731309 0.026171338 0.069760799
0.025938828 0.027857479 0.068367362
0.021717604 0.028611967 0.068412781
0.017075624 0.028815212 0.06860292
0.013075721 0.029141698 0.067862511
0.0099638188 0.029396873 0.06766057
0.029931054 0.025542801 0.064591825
0.026014365 0.027532218 0.064006567
0.021644372 0.028395884 0.063828945
0.017476119 0.02897791 0.06503886
0.014661562 0.029443152 0.064351618
0.028901856 0.026752748 0.060325384
0.026556432 0.027732883 0.06046474
0.022804584 0.028582053 0.060565531
0.0073568253 0.028732702 0.069193482
0.0035788561 0.029545521 0.069259882
-0.00097176433 0.030972686 0.069372058
0.011711718 0.029767791 0.065555274
0.0079533635 0.029048389 0.065274
0.0037530549 0.028866846 0.064842463
-0.00027030613 0.030234043 0.064974546
0.017543444 0.028811941 0.061826825
0.012915313 0.02902217 0.060993195
0.0096097412 0.029385988 0.060701489
0.030453548 0.025504161 0.058518231
0.026105132 0.027996464 0.057718575
0.021907892 0.02842509 0.057414651
0.01761375 0.028536569 0.057471871
0.013892684 0.028719245 0.057223678
0.029390296 0.025262352 0.054031134
0.026392283 0.027291847 0.053786576
0.023138706 0.027962055 0.053233624
0.0038293279 0.028792063 0.061706007
2.6542693e-05 0.029515898 0.062242389
0.0075090709 0.028826248 0.059000731
0.0038364106 0.028533427 0.058374107
-0.00055183005 0.02951525 0.058299184
0.017485388 0.027817272 0.053678036
0.013015937 0.02811412 0.053930044
0.008408051 0.028661195 0.054447353
0.0043051112 0.028828185 0.053855717
0.00017548259 0.029561264 0.054190218
0.026246483 0.02648443 0.050204873
0.021573849 0.027500002 0.050125897
0.017621379 0.027840847 0.050615489
0.013036398 0.028297033 0.049662948
0.0088799177 0.028899949 0.0502069
0.0058742664 0.029065326 0.050223768
0.026466496 0.026644193 0.046761632
0.022417918 0.027933689 0.04629451
0.017969402 0.028220316 0.045837402
0.014476642 0.02844164 0.046055675
0.029664136 0.025250064 0.04293853
0.026612241 0.026959963 0.042096853
0.022964463 0.028347885 0.041875899
0.019425714 0.02893161 0.042127252
0.025895283 0.028118279 0.038350582
0.023989575 0.029125029 0.038487554
0.0027296208 0.028972022 0.051013112
-0.00050887186 0.029335983 0.05090487
0.0090127159 0.028952718 0.047155857
0.004333565 0.028822148 0.047308445
-6.431248e-05 0.028427698 0.046824455
0.013096281 0.028579084 0.043522835
0.0091199232 0.028831005 0.042874336
0.0052890475 0.028859977 0.042444468
0.02813459 0.026156027 0.039610982
0.021550022 0.028850706 0.039381146
0.018001288 0.028921518 0.039435267
0.013999007 0.028549455 0.038818955
0.0098649999 0.028375342 0.038534284
0.027252629 0.02682245 0.035343766
0.022849089 0.028282147 0.034541011
0.019039337 0.028440613 0.034467578
0.027328836 0.027068706 0.03160429
0.023217406 0.028271979 0.031028807
0.020353265 0.028726187 0.030279934
0.0024077934 0.02758405 0.043365359
-0.0013070153 0.028056387 0.044433355
0.0040654065 0.028510462 0.040065765
-0.00019928813 0.028595809 0.041105509
0.013035143 0.028293516 0.035475433
0.008921382 0.02875741 0.036904216
0.0046268455 0.029175965 0.036551297
0.00036049634 0.029049702 0.035616159
0.01777751 0.02823532 0.031998873
0.013968076 0.028434526 0.032778502
0.0095123369 0.028858358 0.03243494
0.0050846194 0.029388206 0.032202244
0.027065318 0.026783083 0.028244019
0.02312398 0.027735233 0.028364837
0.018291092 0.028526032 0.0285483
0.014378735 0.02846472 0.028234363
0.010265505 0.028407253 0.02805233
0.027508613 0.026695076 0.024551809
0.023436423 0.028107103 0.02453804
0.019479344 0.028447758 0.023951232
0.026527854 0.027743727 0.021165729
0.023568165 0.027953051 0.020141602
-0.0013871072 0.028816579 0.032311797
0.0050026453 0.028885096 0.028506279
0.00049514975 0.028875973 0.029099226
0.013013416 0.02711425 0.023691475
0.0090301884 0.028017178 0.025588095
0.0048849131 0.028286256 0.02469182
0.00040547084 0.028829619 0.025169671
0.028432062 0.024696065 0.021299064
0.017830808 0.027844789 0.020567775
0.014172999 0.027037894 0.0210706
0.0097486656 0.026577702 0.021876812
0.027372513 0.025516067 0.017651856
0.023571404 0.027557705 0.016529262
0.019594897 0.028024357 0.01712811
0.015567943 0.027133521 0.018264949
0.026963066 0.025929367 0.013159394
0.024039093 0.027515994 0.012555122
-7.293839e-05 0.028402792 0.022252142
0.012235799 0.026633849 0.018610537
0.0089427577 0.026802471 0.018968821
0.0048315893 0.027661344 0.018695772
0.00067127496 0.028930595 0.018158495
0.017242227 0.027051233 0.014533758
0.013809115 0.026781065 0.014773369
0.0095881214 0.02737863 0.013860285
0.0053777043 0.028525244 0.01318717
0.0013291268 0.029624179 0.012808621
-0.0021954747 0.02921252 0.012892425
0.028313708 0.024211396 0.01157099
0.022182528 0.027280889 0.010254979
0.018830398 0.027225196 0.010719359
0.01445028 0.027360348 0.0093004107
0.010376981 0.028380102 0.0088349581
0.006711693 0.028865825 0.008954823
0.027814865 0.025318518 0.006383419
0.023899732 0.027287384 0.0066011548
0.019508194 0.027880438 0.0053215027
0.015779618 0.027650759 0.0050103068
0.027834469 0.025579426 0.0013616085
0.02414012 0.027756341 0.00082796812
0.021381974 0.028199768 0.00091278553
-0.00037881266 0.029536154 0.0095659494
0.0088064941 0.028602438 0.0059242249
0.0046318742 0.028771691 0.0072745085
0.001849113 0.028987415 0.0066872835
-0.0023215069 0.028417435 0.0058962107
0.013742313 0.027630867 0.003406167
0.010155614 0.027742235 0.0023775101
0.0061016665 0.028153813 0.002907753
0.0026056701 0.028558465 0.0021987557
-0.00049537141 0.028715132 0.0021575093
0.029244717 0.024122717 -0.00075531006
0.018803502 0.027430825 -0.00090754032
0.010940094 0.027436368 -0.00089466572
0.0055826381 0.027889304 -0.00050109625
0.0023094211 0.028574944 -0.00067174435
-0.002110729 0.028450731 -0.00060647726
