# .PCD v0.7 - Point Cloud Data file format
VERSION 0.7
FIELDS x y z
SIZE 4 4 4
TYPE F F F
COUNT 1 1 1
WIDTH 398
HEIGHT 1
VIEWPOINT 0 0 0 1 0 0 0
POINTS 398
DATA ascii
-0.033182979 0.012673818 0.18340456
-0.033241689 0.0080984309 0.18356243
-0.033397019 0.0037581208 0.18369764
-0.033108294 -0.0012937043 0.1832206
-0.032360315 -0.0068296813 0.18315327
-0.032708764 -0.011677518 0.18366355
-0.032274723 -0.016292382 0.18324012
-0.035683274 0.018527269 0.18108064
-0.036186457 0.013090044 0.18121958
-0.036703944 0.008326605 0.18072948
-0.037363708 0.0038232724 0.18075165
-0.037158966 -0.0015559592 0.18044546
-0.036704838 -0.0070745912 0.18022472
-0.037019372 -0.011548765 0.18002948
-0.036302686 -0.016146496 0.17942518
-0.038003385 0.018553041 0.17635998
-0.038151205 0.01330021 0.17610085
-0.038413048 0.0088351034 0.17557678
-0.038774908 0.0040518413 0.17528987
-0.038937688 -0.001350435 0.17521977
-0.038588047 -0.0065900874 0.17519015
-0.038541019 -0.01134859 0.17464113
-0.038071632 -0.015957307 0.17419028
-0.039123774 0.016569842 0.1722638
-0.03882575 0.013495479 0.1719721
-0.039240777 0.0086763231 0.17077643
-0.039398432 0.0040728743 0.17043644
-0.039466083 -0.00067843357 0.17028144
-0.039529443 -0.0059706983 0.16980296
-0.039849699 -0.011175998 0.17001003
-0.038849533 -0.015780389 0.1692138
-0.040230989 0.0028601172 0.16703892
-0.040161669 0.00054342626 0.16691974
-0.04003334 -0.0071806242 0.16658965
-0.040319383 -0.011050307 0.16665366
-0.039736927 -0.014896923 0.16614982
-0.025494695 -0.0077466597 0.18294811
-0.026819348 -0.011665575 0.18363631
-0.029081166 0.013189144 0.18313798
-0.028874755 0.0089092888 0.18332219
-0.027146101 0.0039258446 0.18253696
-0.026742339 -0.00071947492 0.18213174
-0.027265847 -0.0053988532 0.18230104
-0.038183928 0.019277602 0.16973799
-0.038429022 0.013662897 0.16896582
-0.038866401 0.0098088682 0.16820836
-0.039460421 0.0059060599 0.16847095
-0.037622333 0.019319851 0.16417366
-0.038100779 0.013921857 0.16414797
-0.0389117 0.0092133656 0.16453159
-0.039757729 0.0047208215 0.16471463
-0.040034533 -0.00034209574 0.16444021
-0.039495885 -0.0052174167 0.16408837
-0.039244115 -0.010917307 0.16318828
-0.03880918 -0.015788976 0.16314313
-0.036647975 -0.019051254 0.16260898
-0.038716793 0.017189804 0.16095299
-0.038604736 0.014082242 0.16078082
-0.039078414 0.0093863038 0.16094661
-0.039547563 0.0044217664 0.1603587
-0.039483249 8.2104925e-05 0.15999395
-0.038960695 -0.0050631803 0.15917578
-0.038635731 -0.010390569 0.15956587
-0.038910151 -0.015458532 0.16005197
-0.037382722 -0.018535998 0.15894297
-0.023992956 0.0086715557 0.18256766
-0.022649765 0.0040111463 0.18249804
-0.02284503 -0.00090697251 0.18314081
-0.022479355 -0.0053880499 0.18299353
-0.02164185 -0.011318795 0.18301001
-0.038054943 0.020249967 0.1624673
-0.038108468 0.01503852 0.15769136
-0.038306713 0.0095659234 0.15765139
-0.038831353 0.0052740346 0.15740153
-0.039397478 0.00020836992 0.15715587
-0.038987577 -0.0060002864 0.15668783
-0.038316667 -0.010987412 0.15682775
-0.037595212 -0.015334655 0.15639618
-0.038295567 0.014880076 0.15421039
-0.038441122 0.0095382296 0.15360725
-0.038856149 0.0050786431 0.15321314
-0.038912952 0.00039230986 0.15310565
-0.038656354 -0.0048522656 0.15294001
-0.038516641 -0.010193851 0.15232354
-0.037599504 -0.014984254 0.15197754
-0.036136985 -0.01833012 0.15252939
-0.03867811 0.0013496368 0.14923048
-0.038549066 -0.0056835474 0.14892596
-0.038537681 -0.0095911771 0.14879769
-0.014539301 -0.00062815676 0.18378839
-0.014459908 -0.0045586824 0.18360722
-0.019082129 0.0087991506 0.18229434
-0.017221272 0.0040955096 0.18283108
-0.017980218 -0.0002745988 0.18360576
-0.017393589 -0.0057408456 0.18306309
-0.037623107 0.015862413 0.15121838
-0.037637711 0.010708768 0.15069312
-0.036126316 -0.016640149 0.14882493
-0.037508667 0.015615955 0.14699143
-0.037564635 0.010114916 0.14686
-0.037878275 0.0053893286 0.14692789
-0.037878931 0.0004837825 0.14623994
-0.037676036 -0.0038048108 0.14627218
-0.038055122 -0.0094697252 0.14565128
-0.036627948 -0.01495418 0.14545143
-0.038086712 0.015855029 0.1420978
-0.038042784 0.010157857 0.14175186
-0.038270533 0.0056335027 0.14153418
-0.038336277 0.00091307191 0.14143628
-0.038334668 -0.0038010874 0.14129248
-0.038334131 -0.0092975758 0.14112523
-0.03719753 -0.014767192 0.14017496
-0.035650074 -0.017946105 0.14091054
-0.038535595 0.00028353324 0.13775906
-0.039003789 -0.0038381447 0.13660115
-0.039342761 -0.0086450363 0.13633838
-0.038785577 -0.012765203 0.13563675
-0.040408552 -0.0082089426 0.13309693
-0.011262834 0.004202053 0.18288267
-0.010487795 -0.00089602929 0.1838989
-0.011537552 -0.0056977402 0.18317416
-0.038313031 0.015959453 0.13998008
-0.03812027 0.012030959 0.13972768
-0.037819386 0.016190894 0.1358313
-0.037546098 0.010675702 0.13547507
-0.037647307 0.0059307064 0.13540247
-0.038372993 0.0014109681 0.13522881
-0.039234042 -0.0027324953 0.13434497
-0.037870109 -0.015513025 0.13453379
-0.035351276 -0.018762264 0.13369811
-0.037570536 0.010070167 0.13164735
-0.037200868 0.0045473496 0.13122275
-0.037415862 0.001371806 0.13127917
-0.038995862 -0.0036015608 0.13087267
-0.040142655 -0.0081172856 0.13076052
-0.039225876 -0.013413404 0.13036996
-0.037042499 -0.016997818 0.12854981
-0.039553523 -0.0090916837 0.12527508
-0.039135396 -0.011901655 0.12633911
-0.0041089654 -0.00045560865 0.18302327
-0.0082551241 0.001044249 0.18372113
-0.036612391 0.016571175 0.12924153
-0.036470056 0.011274196 0.12843379
-0.036843419 0.0064481902 0.128865
-0.036948919 0.0015187985 0.12807184
-0.037345231 -0.002420329 0.1272732
-0.036689937 0.016529847 0.12388933
-0.036779284 0.011287287 0.12341195
-0.036846578 0.0065078321 0.12331924
-0.036667705 0.0017431187 0.1230514
-0.037422597 -0.00305621 0.12344846
-0.038697004 -0.0068941009 0.12386078
-0.038968801 -0.012825508 0.12371594
-0.036584496 -0.017136101 0.12267995
-0.03800106 0.010610137 0.12038893
-0.038214445 0.0069722454 0.11965954
-0.037688613 0.0022870447 0.11943591
-0.037633419 -0.0029051811 0.11973077
-0.038201571 -0.007656869 0.11903
-0.038565755 -0.012435745 0.11915326
-0.037382901 -0.016128235 0.11851764
-0.036571026 0.018574022 0.12153685
-0.036607087 0.017927568 0.11862457
-0.037318528 0.012680024 0.11762118
-0.03797853 0.0063894684 0.11684537
-0.0373438 0.00170052 0.1165421
-0.037128091 -0.0027657081 0.1164515
-0.037231863 -0.0075141271 0.11541539
-0.037558019 -0.012305871 0.11551338
-0.036395371 -0.017637435 0.11581606
-0.036060631 0.018170781 0.11432916
-0.037236392 0.011992197 0.11250317
-0.037950695 0.0069942283 0.11244601
-0.037151515 0.0022339742 0.11172557
-0.036925852 -0.0025565499 0.11142355
-0.037516177 -0.0073722643 0.11171699
-0.037260532 -0.012158498 0.11139286
-0.036289334 -0.016721155 0.11111259
-0.038038194 0.0063709612 0.10856879
-0.037666142 0.0039854343 0.10822707
-0.037270486 -0.0080144852 0.10759467
-0.037135959 -0.011213288 0.10740471
0.0076224804 -0.0011235139 0.18344918
0.0051276088 -0.00033500785 0.183088
-0.036446333 0.018299509 0.1116724
-0.036910951 0.01430846 0.11091584
-0.035978973 -0.016859524 0.10835999
-0.036107242 0.018530361 0.10749155
-0.036933601 0.01315077 0.10729074
-0.038342774 0.0072474065 0.10684967
-0.037813067 0.0021072957 0.10710096
-0.03776145 -0.0025562574 0.10638857
-0.037979305 -0.006909762 0.10561752
-0.037781417 -0.012168013 0.10532248
-0.036471963 -0.017013609 0.106188
-0.036260068 0.017115708 0.10361117
-0.037375808 0.012470115 0.10276788
-0.038630545 0.0074467431 0.10246152
-0.038384736 0.0027875076 0.10241151
-0.038599849 -0.0021614176 0.10150921
-0.038674593 -0.0071644341 0.10101241
-0.038468957 -0.011572361 0.10073555
-0.036963224 -0.016615443 0.10120326
-0.038543463 0.0084572732 0.098125696
-0.038658082 0.0025012339 0.097847581
-0.038527191 -0.0015857038 0.097337663
-0.038668573 -0.0064183143 0.097309709
-0.038142145 -0.012032993 0.096758068
-0.03714174 -0.014877293 0.097418785
-0.03609103 0.015145272 0.10012138
-0.035967648 0.014309682 0.095351994
-0.036629438 0.0091688782 0.094110131
-0.036431253 0.0030485387 0.093391716
-0.036514938 -0.0018053767 0.093321085
-0.036661446 -0.0066586589 0.093297899
-0.036484897 -0.011498671 0.09303087
-0.035449386 -0.016581863 0.093855143
-0.036171079 0.012874767 0.09146136
-0.037156343 0.0082106031 0.090520859
-0.03708601 0.003183085 0.090134323
-0.03681612 -0.0016524927 0.08954525
-0.036713541 -0.0065056761 0.089334786
-0.036748767 -0.011361536 0.08922863
-0.036062002 -0.015747219 0.088872731
-0.037535131 -0.0079980567 0.08590126
-0.037903011 -0.010824207 0.085603476
-0.036104321 0.014817223 0.089202523
-0.036411107 0.010859445 0.088238418
-0.036492527 0.0033103223 0.087423742
-0.035277128 -0.017772157 0.086926877
-0.036523759 0.014878869 0.083722055
-0.037534595 0.0099374205 0.084367871
-0.037924588 0.0042313854 0.084514976
-0.037675798 -0.0014380445 0.08417058
-0.037584186 -0.0060891663 0.083722293
-0.037863493 -0.01145428 0.082833707
-0.036812842 -0.016013529 0.083112121
-0.036663473 0.013440661 0.079737127
-0.03717649 0.0097661056 0.079528928
-0.037836611 0.0044156606 0.080406189
-0.037638009 -0.00075595686 0.078953266
-0.0382725 -0.0063035754 0.078681707
-0.038386226 -0.010969445 0.078392208
-0.037509143 -0.015612412 0.078166604
-0.035688281 0.01552283 0.077813327
-0.036879122 0.01107835 0.077807963
-0.036790729 0.0053716446 0.077587128
-0.036349714 -0.0026825764 0.074991226
-0.036974549 -0.0043376167 0.075435877
-0.036441982 -0.015735719 0.074717402
-0.036413372 0.015394837 0.073475361
-0.036402702 0.010482959 0.073336959
-0.035909951 0.0055982391 0.072821379
-0.035937607 0.00068722997 0.072713494
-0.036251962 -0.0050076586 0.071787596
-0.03658551 -0.010738473 0.07189852
-0.035799921 -0.015870076 0.071584582
-0.037244916 0.015597954 0.069008887
-0.037118196 0.010684848 0.068780422
-0.036575556 0.0057943682 0.068223357
-0.036919475 0.00068804016 0.06759119
-0.037057996 -0.0043527526 0.067518115
-0.036969304 -0.0099624246 0.066909432
-0.036733031 -0.014258906 0.067310691
-0.038041532 -0.0038910885 0.06399107
-0.037765324 -0.0096188523 0.063622713
-0.037896752 0.015710309 0.066443086
-0.037725508 0.010796338 0.066179454
-0.037554383 0.0058831978 0.065916002
-0.037451982 0.0026073526 0.065749645
-0.03569293 -0.016418196 0.065504253
-0.037268102 0.015906483 0.062847435
-0.037518859 0.010786071 0.06213975
-0.037433207 0.006074592 0.061691642
-0.037896097 0.0011219098 0.061936915
-0.038492143 -0.0037855622 0.061257124
-0.038408816 -0.0087043531 0.061064541
-0.03682059 -0.013820034 0.060431898
-0.034882367 -0.017464548 0.060424984
-0.037264764 0.0062685381 0.057414651
-0.037664413 0.0013064905 0.057611585
-0.037545025 -0.0036287797 0.057389796
-0.037874877 -0.0085738264 0.057530761
-0.036741793 -0.011833299 0.056532204
-0.035931587 0.01614888 0.058670163
-0.036259532 0.012825962 0.058849454
-0.036093533 0.016294681 0.055679739
-0.036632597 0.011302318 0.055988967
-0.036767304 0.0064340117 0.053889513
-0.036603153 0.0014850157 0.053631425
-0.036276698 -0.0034576398 0.05324167
-0.036494911 -0.008417286 0.053293586
-0.035541773 -0.013392318 0.053785026
-0.036089242 0.016504496 0.051499367
-0.036519408 0.011336934 0.050933719
-0.036947429 0.0066121216 0.049856067
-0.036852956 0.0016502156 0.049654901
-0.036714792 -0.0033085351 0.049417913
-0.036313415 -0.0082582161 0.04896605
-0.035456002 -0.013433486 0.048921227
-0.034060836 -0.01658614 0.050063133
-0.037177801 0.0067409719 0.046899796
-0.03723973 0.0013733371 0.046292186
-0.037476361 -0.0031714407 0.045849085
-0.03725028 -0.0081321746 0.045540035
-0.036588073 -0.012290817 0.045942903
-0.035777688 0.016683239 0.048099637
-0.036198556 0.013334431 0.048361421
-0.035967588 0.016882248 0.044042706
-0.036483049 0.011857748 0.044344783
-0.036757112 0.0069047767 0.043394983
-0.036918163 0.002254087 0.043203235
-0.037229359 -0.0030373042 0.042487562
-0.0373348 -0.0080184862 0.042452931
-0.036307871 -0.01325649 0.042980015
-0.034010589 -0.016991742 0.042015195
-0.036063135 0.015418589 0.039853871
-0.036055326 0.012108944 0.03923595
-0.036190987 0.0071235294 0.038696766
-0.036251247 0.0021212953 0.038625538
-0.036355376 -0.0028787223 0.038590789
-0.037259459 -0.0078591853 0.038162827
-0.036660552 -0.012832552 0.037541986
-0.03491962 -0.016157921 0.037070811
-0.037389994 -0.0085408688 0.03400898
-0.037050188 -0.011030022 0.033663392
-0.035471678 0.017524339 0.038137913
-0.036059618 0.012183763 0.037648618
-0.036126316 0.007269531 0.035457492
-0.035811365 0.00060575973 0.03503263
-0.035932302 -0.0027366919 0.035053372
-0.036636829 0.01736898 0.033996463
-0.0368433 0.012339186 0.03404969
-0.037060082 0.0073636505 0.033046365
-0.036466658 0.0025552618 0.033231199
-0.036570132 -0.0026349989 0.032394052
-0.036926746 -0.0072171954 0.032051802
-0.036678791 -0.012976948 0.032024622
-0.034339547 -0.017646503 0.031223655
-0.037315488 0.017373927 0.028762281
-0.037410617 0.012820229 0.02873522
-0.037317336 0.0073678489 0.02818203
-0.037035584 0.0025344561 0.028633416
-0.036768675 -0.0024739807 0.028288007
-0.037248075 -0.0074667973 0.027503669
-0.037152886 -0.012479797 0.02730453
-0.03568238 -0.016396612 0.027394176
-0.037864983 -0.012350075 0.023622811
-0.035624087 0.018707417 0.024588346
-0.036768317 0.011910565 0.025405228
-0.036896229 0.0093858019 0.025455117
-0.035887957 0.0027223299 0.024438024
-0.035321891 -0.0022903611 0.023837149
-0.033674896 -0.017754234 0.023793221
-0.035789371 0.017569054 0.022003233
-0.036295176 0.012932338 0.021787822
-0.036290467 0.0078850761 0.021666467
-0.035806835 0.0028626467 0.021134555
-0.035465539 -0.0021679704 0.020724535
-0.036453962 -0.0072040414 0.020374537
-0.036405802 -0.012231424 0.019946575
-0.034238398 -0.016161911 0.019706368
-0.035548627 0.01144417 0.017862558
-0.035639763 0.0080652907 0.017863154
-0.035575926 0.0046962197 0.017730176
-0.03584832 -0.0031499048 0.017060399
-0.036480665 -0.0074470048 0.015518963
-0.036749303 -0.011259813 0.016207159
-0.034648418 0.018367372 0.015067875
-0.035513282 0.013461359 0.015432119
-0.035705328 0.0082076117 0.014662504
-0.035254478 0.00291774 0.014965773
-0.035330117 -0.0013582003 0.014480293
-0.035859942 -0.0061024842 0.013380647
-0.035439849 -0.012434371 0.013415337
-0.03298825 -0.016605578 0.013137996
-0.035810709 0.01811555 0.0098319054
-0.036259353 0.013501815 0.0098076463
-0.035795093 0.0084470436 0.0092862844
-0.035539031 0.0033797468 0.0089477301
-0.036267161 -0.0017274288 0.0094699264
-0.036483765 -0.0068053124 0.0095444918
-0.036016226 -0.011859726 0.0090212226
-0.03401494 -0.015637212 0.0077328682
-0.036673903 0.01368425 0.0057899356
-0.036416173 0.010306284 0.0054873228
-0.036060333 0.0018437649 0.0049848557
-0.036654413 -0.0015702047 0.0054323673
-0.036927938 -0.0066178595 0.0044623017
-0.036576927 -0.011282176 0.0045980811
-0.033182561 -0.016874272 0.0064293146
-0.036634624 0.013765123 0.0041074753
-0.035903871 0.0083569735 0.0036718249
-0.035415888 0.003965735 0.0031430125
-0.036284447 -0.0014692922 0.0029091835
-0.035808861 -0.012476917 0.0022442937
-0.034006476 -0.01605814 0.0023338199
-0.03545922 0.018783733 -0.00046652555
