# .PCD v0.7 - Point Cloud Data file format
VERSION 0.7
FIELDS x y z
SIZE 4 4 4
TYPE F F F
COUNT 1 1 1
WIDTH 452
HEIGHT 1
VIEWPOINT 0 0 0 1 0 0 0
POINTS 452
DATA ascii
-0.028645461 0.03484305 0.18115589
-0.029915813 0.033941958 0.18088597
-0.028864324 0.036609352 0.17865822
-0.030431341 0.035436597 0.17828637
-0.029433701 0.037281949 0.1755726
-0.02620811 0.02867173 0.18418169
-0.0273258 0.027402449 0.18366519
-0.017335352 0.03520105 0.18054414
-0.021663958 0.033956662 0.18185118
-0.026029281 0.032784544 0.18232185
-0.030307297 0.030418148 0.18181551
-0.032650139 0.02857404 0.18005913
-0.018791867 0.037119206 0.17715883
-0.022946201 0.037407637 0.17786515
-0.026608458 0.036607251 0.17817038
-0.032275192 0.033938598 0.17777738
-0.033727139 0.031524356 0.17662984
-0.023122074 0.037841812 0.17294747
-0.02767832 0.037752733 0.17343572
-0.031672329 0.034938693 0.17281324
-0.024119727 0.038464177 0.16906682
-0.027778223 0.037907932 0.16922879
-0.030803036 0.03587592 0.16894764
-0.0017705364 0.034517236 0.18252856
-0.0050479537 0.033411361 0.18328682
-0.0089639872 0.032305989 0.1834518
-0.013667039 0.030121343 0.18302315
-0.019700812 0.028194586 0.18299362
-0.023201615 0.025513224 0.18350273
-0.027809337 0.023807544 0.18273139
-0.001912524 0.036694273 0.17984739
-0.0057902616 0.036171991 0.18071988
-0.010581346 0.035590541 0.18047854
-0.014717056 0.03387399 0.18146342
-0.0030271513 0.037959404 0.17756072
-0.0065628733 0.037632529 0.17609215
-0.010961013 0.037090879 0.17508939
-0.015506444 0.036974989 0.17573982
-0.011916891 0.037501901 0.1704264
-0.016711285 0.037243403 0.17095035
-0.02113295 0.037837289 0.17045754
-0.032765895 0.02975847 0.16987982
-0.016932804 0.038289506 0.16614243
-0.022122379 0.037958421 0.16647872
-0.027154427 0.036762066 0.16563568
-0.031496026 0.033791147 0.16598067
-0.032664925 0.029986292 0.16449553
-0.017041024 0.03890029 0.16286448
-0.022386312 0.037700385 0.16226164
-0.026895422 0.036520835 0.16174841
-0.030959252 0.034271292 0.16125566
-0.033207033 0.031547919 0.16190329
-0.027571805 0.036483508 0.15818703
-0.030340306 0.035105921 0.15794781
-0.017606668 0.020236146 0.1828844
-0.020571804 0.01925646 0.18292236
0.00093729235 0.032269783 0.18246004
-0.0031434083 0.030765567 0.18378744
-0.0080896476 0.028546898 0.18351012
-0.011979516 0.025894959 0.18275979
-0.016542125 0.0245959 0.18261731
-0.02085091 0.023861133 0.18385604
0.00082589127 0.035741549 0.17952234
0.0033955341 0.035400908 0.17465422
-0.00088533293 0.037305553 0.17488074
-0.0049791923 0.037198909 0.17294991
-0.0014361888 0.036578227 0.17027462
-0.0054225335 0.036789853 0.1688154
-0.009373717 0.037094235 0.1687935
-0.0069025708 0.036872603 0.16396224
-0.010848475 0.037574392 0.16457847
-0.011598147 0.037682187 0.16026402
-0.015492424 0.037624661 0.15955943
-0.020096833 0.037334859 0.15961617
-0.033528425 0.030135842 0.15887439
-0.021167964 0.036015511 0.15498519
-0.026250783 0.036181279 0.15530995
-0.030878421 0.034067743 0.15502933
-0.032764237 0.031068049 0.15502021
-0.022907674 0.036071215 0.15127817
-0.02616667 0.035917867 0.15006587
-0.029898021 0.034058355 0.15036345
0.002450943 0.026946872 0.18267626
-0.0012443224 0.024682701 0.18257275
-0.0051515242 0.022864092 0.18277228
-0.0096879387 0.020991694 0.18329829
-0.013895069 0.018644724 0.18302262
-0.018656895 0.015331226 0.18298301
0.0026183277 0.035663877 0.17129973
0.0016953545 0.035878595 0.16752675
-0.0033640005 0.036374085 0.16564956
-0.00041643344 0.036344241 0.16289455
-0.0045054099 0.036635935 0.16209176
-0.0085450951 0.037014626 0.16163719
-0.0015995288 0.037166886 0.15831715
-0.0053310171 0.036869824 0.158503
-0.0091738515 0.036396187 0.15705237
-0.013340294 0.036846824 0.15703773
-0.010568056 0.036436945 0.15278706
-0.014749411 0.036577988 0.15345874
-0.018686512 0.036564074 0.15310889
-0.032723486 0.02815005 0.15176433
-0.014919763 0.037039869 0.14840737
-0.020112801 0.036278188 0.14872029
-0.030809134 0.032426264 0.14765823
-0.031931415 0.029693546 0.14741412
-0.020266417 0.036516748 0.14469695
-0.025659997 0.036254898 0.1438182
-0.030191151 0.033981647 0.14413553
-0.032081939 0.030433901 0.14322445
-0.026155584 0.036985673 0.13894251
-0.029860077 0.035197485 0.13895768
-0.027122857 0.037617911 0.13539764
-0.029279236 0.036781225 0.13441628
-0.0075468337 0.012477936 0.18366042
-0.009614842 0.011328826 0.18341663
0.0013254443 0.020659046 0.1821799
-0.0026854221 0.017219512 0.18265724
-0.006930586 0.016066264 0.18331042
-0.011251035 0.013211716 0.18299565
0.0019545555 0.03579177 0.15614891
-0.0038700439 0.035741057 0.15494457
0.0011553327 0.03620252 0.15146595
-0.0040490106 0.035901506 0.1505807
-0.0080492003 0.036141396 0.15117931
-0.0053232918 0.036415674 0.14601612
-0.0092747714 0.036550839 0.1465477
-0.012872927 0.037033383 0.14581114
-0.01034723 0.0371846 0.14191455
-0.014413265 0.037026703 0.14239061
-0.018826365 0.036448661 0.14164037
-0.032665379 0.028944628 0.14098045
-0.015321464 0.036953546 0.13813686
-0.019144999 0.036628354 0.1375697
-0.023326486 0.036447927 0.1375047
-0.031357858 0.033325933 0.13737854
-0.031961691 0.029684104 0.13655627
-0.020050975 0.037189275 0.13340145
-0.024537513 0.037293456 0.13318169
-0.030612834 0.034842521 0.13318026
-0.032297872 0.031881671 0.13285121
-0.026229601 0.037028499 0.12838936
-0.030067421 0.035186823 0.12782499
-0.028802846 0.036552362 0.12459806
-0.00024136156 0.011636445 0.18244421
-0.0046998267 0.01069981 0.18317187
-0.0095842052 0.0082709594 0.18303609
0.0027292566 0.036343563 0.14931014
0.0020629596 0.035944022 0.14518684
-0.002663454 0.035887875 0.14420798
0.0009062048 0.035579912 0.14165929
-0.0039846329 0.035768881 0.13975257
-0.0075518098 0.036339615 0.13985246
-0.0089572426 0.035558693 0.13519675
-0.013173268 0.0362675 0.13526958
-0.014372963 0.035501152 0.13122913
-0.017831899 0.035919171 0.13029957
-0.032366719 0.029191306 0.1296525
-0.019198082 0.03522322 0.1264585
-0.022708984 0.036495835 0.12650794
-0.032477826 0.030873526 0.12552518
-0.024601901 0.035971377 0.121714
-0.029184449 0.03504676 0.12110531
-0.032582756 0.031960376 0.12088901
-0.028742749 0.035404298 0.11763132
-0.0018054771 0.0032143723 0.18275464
-0.0033814905 0.0068231444 0.18327177
0.0033847177 0.035116687 0.13848871
-0.0020317147 0.034933046 0.13716012
0.0022687772 0.035017479 0.13355863
-0.0024442235 0.034876049 0.1337986
-0.0070793675 0.03510835 0.13272947
-0.0023835935 0.035175808 0.12918699
-0.0076150587 0.034913428 0.12792006
-0.012225199 0.034837831 0.12834784
-0.0087172203 0.035591468 0.12323052
-0.012564135 0.034850016 0.1232917
-0.017340304 0.035157904 0.12403116
-0.0096019562 0.036428928 0.11974508
-0.013126059 0.035780542 0.11940563
-0.017695487 0.035175554 0.11896765
-0.021862021 0.035173126 0.11961943
-0.032809146 0.030286357 0.11748725
-0.0185386 0.035584059 0.11459631
-0.022952236 0.03579063 0.11487919
-0.028006274 0.035543423 0.11482441
-0.031518716 0.032276083 0.11463684
-0.023992386 0.036283389 0.11002332
-0.028138936 0.036255889 0.11067599
-0.031042121 0.033363167 0.10980636
-0.024741672 0.0367947 0.10626346
-0.027819596 0.035882812 0.10642356
0.00051578879 0.035072651 0.12670034
-0.001845235 0.034721453 0.12294611
-0.0063750227 0.035404809 0.12214237
-0.0028781574 0.034556631 0.11811227
-0.0072258902 0.035794623 0.1176126
-0.012266148 0.035904732 0.11664855
-0.0075254301 0.035420485 0.11317462
-0.012570647 0.035575509 0.11234891
-0.017011752 0.035865728 0.11264598
-0.032107804 0.029062681 0.11160558
-0.013439683 0.035883471 0.10795867
-0.01760909 0.036144562 0.10789657
-0.021591326 0.036269825 0.10851645
-0.032157734 0.03061947 0.10730875
-0.033102229 0.027736139 0.10604161
-0.01869911 0.036757823 0.10309458
-0.022443261 0.036268938 0.10308444
-0.027464174 0.035343777 0.10300487
-0.030896194 0.03164408 0.10253429
-0.022426005 0.036092408 0.099253476
-0.027095491 0.034776822 0.099550307
-0.030555224 0.032714207 0.099001884
0.0021447062 -0.0061277053 0.18414885
0.0014440569 -0.004413682 0.18338227
0.0011866745 0.034370743 0.12023818
-0.00025709812 0.035061736 0.11606449
-0.0014544865 0.035237238 0.11146665
-0.0061016069 0.035385743 0.11132008
-0.010466379 0.03555429 0.1095947
-0.0067934026 0.035875443 0.10734904
-0.011937034 0.03626918 0.10652852
-0.0082433634 0.0352333 0.10288304
-0.012328381 0.036637399 0.10227883
-0.016311878 0.036828075 0.10163414
-0.032188043 0.030289691 0.099698722
-0.012878232 0.037024736 0.098067403
-0.017690185 0.036601547 0.097574413
-0.022070857 0.035586938 0.095825911
-0.026962392 0.034740597 0.096518338
-0.031239789 0.03192272 0.096072972
-0.033551812 0.028005071 0.095667243
-0.018563827 0.035733223 0.094006598
-0.022639798 0.035947338 0.091918349
-0.027110307 0.035512742 0.092136562
-0.031404521 0.033321247 0.091714501
-0.033438928 0.029859947 0.090777397
-0.023739278 0.036206298 0.08773452
-0.027459968 0.036311574 0.087063074
-0.031662084 0.034408424 0.086572409
-0.029196631 0.037127893 0.083868504
-0.031179434 0.035647627 0.083330393
0.0017181672 0.03463928 0.10850483
0.00070237368 0.034310784 0.10416198
-0.003393936 0.034763116 0.10395253
-0.00063349213 0.034409057 0.099350095
-0.0051299259 0.035070293 0.099797785
-0.0063939914 0.035356693 0.095094383
-0.010578843 0.03505823 0.09461087
-0.014857681 0.035190959 0.094636023
-0.01171718 0.03489523 0.090391994
-0.016040562 0.03480925 0.09042716
-0.019674102 0.034671273 0.089545965
-0.016744655 0.035066504 0.085695505
-0.021045784 0.035310511 0.086073279
-0.025402382 0.036343023 0.084270418
-0.033641916 0.029943541 0.085484624
-0.021772664 0.035719745 0.081386685
-0.026399855 0.035703216 0.080853283
-0.031654995 0.033848271 0.080635071
-0.033826996 0.031717509 0.080176115
-0.027003661 0.035307433 0.07654953
-0.030883521 0.033950664 0.076201081
0.0031381324 0.033729721 0.10089868
0.0017219689 0.034480277 0.097506166
0.00084491074 0.034560919 0.092730165
-0.0033703307 0.034980118 0.092660308
-0.0043526581 0.034774963 0.088214517
-0.0089127095 0.034949467 0.088305831
-0.010051526 0.03495362 0.083319724
-0.014999917 0.035350617 0.083413064
-0.011476044 0.035114527 0.079585195
-0.016192483 0.035820507 0.079356194
-0.020433802 0.035531942 0.078282177
-0.016968813 0.035377841 0.074503779
-0.021149285 0.035528153 0.074412644
-0.02520068 0.035422195 0.074104309
-0.032231309 0.032673497 0.073348284
-0.033241495 0.030765073 0.07424897
-0.021741124 0.036024552 0.06950593
-0.026467722 0.036030129 0.070154905
-0.030901976 0.034013536 0.069896162
-0.033114053 0.03079373 0.070162356
-0.027218446 0.036165297 0.065354347
-0.030059971 0.03445882 0.065903187
0.0025663525 0.03330585 0.086425662
-0.001703891 0.03434968 0.086534262
0.0013608802 0.033684455 0.081585944
-0.002801327 0.033816203 0.082138062
-0.0034691393 0.034037713 0.077302098
-0.0078129126 0.034425799 0.077407002
-0.012110115 0.034754083 0.077463031
-0.0086858235 0.034442872 0.072502196
-0.013628134 0.034681294 0.072582245
-0.013754109 0.034935884 0.068082452
-0.018746767 0.035584349 0.067245066
-0.032398686 0.029383738 0.065838575
-0.015166092 0.035004564 0.064157248
-0.019727329 0.035378769 0.063150764
-0.025189538 0.035381585 0.062336326
-0.030216098 0.032988358 0.062443316
-0.032335915 0.029565284 0.061842263
-0.020368656 0.035146993 0.05954504
-0.025094409 0.034558479 0.058038354
-0.030128822 0.032288317 0.058105052
-0.032424275 0.030015133 0.059109092
0.0024731057 0.034391735 0.075260162
-0.0018756492 0.034726016 0.075325608
0.0014428645 0.034541763 0.070860624
-0.0027613873 0.034543324 0.070904136
-0.0064243008 0.034727309 0.070768654
-0.0081537552 0.03458165 0.066253424
-0.011697957 0.035118416 0.065328002
-0.0095537771 0.034629285 0.062293112
-0.013545082 0.034792725 0.061887264
-0.017037768 0.035549279 0.060967088
-0.018010281 0.03403369 0.056990385
-0.022372482 0.034591105 0.056243896
-0.029490449 0.031817585 0.055491507
-0.032005381 0.02783189 0.055261731
-0.023292763 0.034409974 0.051515996
-0.028195053 0.033296857 0.052088141
-0.030465838 0.03029293 0.050443828
-0.02460368 0.034823678 0.046469748
-0.028152922 0.033681273 0.046703517
-0.002011193 0.033239692 0.067421436
0.003235939 0.034501456 0.064567924
-0.0020304965 0.033618785 0.064605117
-0.0055204565 0.033598028 0.062459111
0.0026862537 0.034713183 0.060465336
-0.0021271696 0.033879388 0.059895575
-0.0067474497 0.033455852 0.059375584
-0.011179391 0.033278842 0.058281422
-0.0035582734 0.034103438 0.054996192
-0.0072266669 0.033706896 0.054959536
-0.012581608 0.033551175 0.054622054
-0.017035648 0.033142887 0.053431451
-0.0088162534 0.03413672 0.051297069
-0.01230321 0.0339523 0.050416827
-0.017741837 0.033517078 0.049815297
-0.03130208 0.026960444 0.049180925
-0.014099507 0.034439206 0.045713902
-0.017623926 0.034279268 0.0455724
-0.022200812 0.034992341 0.044947386
-0.028126083 0.03384826 0.044129848
-0.031055458 0.030467601 0.044888735
-0.019352727 0.034472331 0.042019129
-0.023613006 0.03561822 0.040562749
-0.028250184 0.034484204 0.040455103
-0.031470969 0.031463612 0.04010582
-0.023686251 0.035941362 0.036431193
-0.028386457 0.035237558 0.035808325
-0.031892706 0.032475557 0.035318971
-0.028428324 0.035600152 0.032929063
-0.031368122 0.03406303 0.032600045
0.00015872251 0.033689536 0.056762815
0.0027953265 0.033430502 0.052149892
-0.0008715298 0.033592075 0.052494943
-0.0050266972 0.033666935 0.051945686
-0.002063795 0.033592671 0.047881961
-0.0062677143 0.0333656 0.047606587
-0.011223941 0.033843219 0.047571898
-0.007410591 0.033183169 0.043139637
-0.01142702 0.033891037 0.043151021
-0.015724987 0.034312483 0.042933166
-0.012738755 0.033415053 0.038531721
-0.017083654 0.03370171 0.038630366
-0.031977225 0.026299503 0.037277162
-0.018235724 0.034018304 0.034268558
-0.02155282 0.034877397 0.033107877
-0.032581285 0.028193017 0.032570958
-0.02359697 0.034694225 0.029033005
-0.027986271 0.034874227 0.02902329
-0.031832423 0.031840272 0.028841853
-0.02796557 0.034114681 0.024666846
-0.030633729 0.032901946 0.025049329
-0.00030523818 0.033260323 0.046064258
0.002961386 0.034274828 0.042186677
-0.00094783865 0.03427827 0.042534351
-0.0057443948 0.0333823 0.04139328
0.0021183621 0.035574332 0.038654029
-0.0014756266 0.035042997 0.037438512
-0.0062416224 0.034411561 0.037825406
-0.010412579 0.033755239 0.037399113
-0.014789116 0.032899249 0.035195887
-0.0028295536 0.03496689 0.033246636
-0.0067888773 0.035196934 0.032740474
-0.011739223 0.034460876 0.033377945
-0.015575618 0.03361617 0.03244251
-0.0081808735 0.035182994 0.028598309
-0.011812557 0.035147138 0.02859652
-0.016994569 0.033986863 0.028442085
-0.020236123 0.033673 0.027839959
-0.03206668 0.027496697 0.025450349
-0.017772911 0.034006137 0.023417592
-0.021888901 0.034292061 0.023207724
-0.026627451 0.034315467 0.022806704
-0.031217936 0.030110754 0.022452235
-0.023281006 0.034941617 0.01839751
-0.027239716 0.0340016 0.018434167
-0.02994461 0.031675402 0.019549608
-0.025493562 0.034561593 0.01401943
0.00063422043 0.035271063 0.03459096
-0.00073834416 0.034688525 0.030617118
-0.0044495314 0.034923289 0.029413104
0.00062153768 0.034088012 0.027227283
-0.0060227858 0.034736913 0.025798738
-0.010915796 0.033555828 0.023833632
-0.014304367 0.032879651 0.024327576
-0.011145329 0.033321466 0.021016777
-0.01582567 0.033425044 0.020484149
-0.031311914 0.026165733 0.018766403
-0.016434364 0.033307821 0.016681015
-0.020464495 0.0342893 0.01601696
-0.029751614 0.02931691 0.015416622
-0.022124371 0.034509622 0.012048841
-0.026699588 0.033333533 0.011219919
-0.029646121 0.029422672 0.011123896
-0.023426211 0.034430638 0.0089095235
-0.027095683 0.032427598 0.0073313713
-0.029041305 0.030490611 0.0074458122
-1.9296072e-05 0.033832956 0.023980975
5.8860518e-05 0.03363933 0.019001722
-0.0048947656 0.03337907 0.019417524
-0.009419255 0.032778636 0.018427074
-0.0051406096 0.033534139 0.013633132
-0.010075127 0.032623153 0.014153421
-0.014367933 0.032649904 0.014057159
-0.010462377 0.032937974 0.0096156597
-0.015648235 0.033222865 0.0098327398
-0.019298799 0.033286225 0.008848846
-0.030638676 0.026467174 0.0084748268
-0.015929205 0.03351758 0.0049061179
-0.020860914 0.033576783 0.0049296021
-0.026112434 0.032489456 0.0046623945
-0.030320672 0.028872298 0.0040541887
-0.022137132 0.033945438 -0.00023639202
-0.02617351 0.033071507 -0.00010728836
-0.029868346 0.030979514 -0.00066286325
-0.031283051 0.027700124 -0.00073426962
0.0010894695 0.032614816 0.012876332
-0.00044214632 0.032345109 0.00874722
-0.0040951539 0.03295048 0.0075526237
-0.0086949095 0.032330737 0.0069212914
-0.0054375068 0.032794006 0.0024191141
-0.0094320057 0.032341227 0.0027578473
-0.013499538 0.033231542 0.0025789142
-0.011141324 0.032408617 -0.0010614395
0.0018155687 0.031798165 0.0057634115
0.0018806299 0.032697625 0.0014102459
-0.0031502005 0.033007316 0.0013180971
