# .PCD v0.7 - Point Cloud Data file format
VERSION 0.7
FIELDS x y z
SIZE 4 4 4
TYPE F F F
COUNT 1 1 1
WIDTH 396
HEIGHT 1
VIEWPOINT 0 0 0 1 0 0 0
POINTS 396
DATA ascii
-0.011207584 0.032557216 0.17968264
-0.013851815 0.032620873 0.17999113
0.0065996689 0.028018355 0.18247607
0.00327083 0.028348599 0.18258891
-0.00069390429 0.028181996 0.18231428
-0.0057331538 0.028133767 0.18244809
-0.009995494 0.028160129 0.18323657
-0.014126033 0.027804287 0.18310952
0.014978315 0.030163256 0.17936867
0.011111179 0.030074257 0.18000102
0.0072846152 0.030441437 0.18064541
0.0033008354 0.030764937 0.1807307
-0.0013160285 0.030579124 0.18041658
-0.005940015 0.0306249 0.18027288
-0.0095804036 0.031318955 0.18041745
-0.013916804 0.030891536 0.18197516
0.014949991 0.03136085 0.176759
0.011242719 0.031740852 0.17652062
0.0073015164 0.03220572 0.17612362
0.0034833439 0.03226345 0.17547405
-0.000865946 0.032102976 0.17545065
-0.0053843521 0.032226104 0.17485043
-0.0096002547 0.032783695 0.17482215
-0.013689739 0.03327702 0.17467144
0.0023210947 0.032649126 0.17114949
-0.00033077033 0.032682385 0.17107499
-0.0053978241 0.033007469 0.17051944
-0.0097324625 0.03341312 0.16967082
-0.013530617 0.033546004 0.16939968
-0.017491516 0.033229403 0.16901195
-0.010785453 0.034167562 0.16630554
-0.013427106 0.033880234 0.16598791
-0.0099723022 0.021932092 0.18287566
0.011182818 0.025052089 0.18208554
0.0074988347 0.025323885 0.18288878
0.003308244 0.025252359 0.18306416
-0.00065512053 0.024704065 0.18251258
-0.0050325352 0.024931414 0.18263736
-0.010009089 0.025703738 0.18378198
-0.012649172 0.025275961 0.18336964
0.011991087 0.027922973 0.18079415
0.011906783 0.031509519 0.17294344
0.0082439966 0.032055207 0.17275754
0.011604914 0.031129515 0.16873917
0.0077552982 0.031704888 0.16880041
0.0039186375 0.032173991 0.16878289
-0.00021168499 0.032301512 0.16803634
-0.0044116108 0.032510266 0.16773188
-0.0081664668 0.033074651 0.16740817
0.007689801 0.031435438 0.16416541
0.0037977721 0.031976938 0.1635561
-3.6594218e-05 0.032261457 0.16340074
-0.0047019231 0.032483239 0.16339734
-0.0091944179 0.0329035 0.16332188
-0.013331597 0.03327053 0.1627596
-0.016885122 0.033665046 0.1632387
0.0027434661 0.032873563 0.16027063
8.5636253e-05 0.032665882 0.16001236
-0.0039058786 0.032450132 0.15969884
-0.013240262 0.032904573 0.15970683
-0.01739045 0.033380475 0.15859699
0.0071103363 0.019966619 0.18258137
0.0034239148 0.019722717 0.18271962
-0.00060957839 0.019356303 0.18321422
-0.0047630621 0.019604189 0.18282422
-0.0097003132 0.018930981 0.1829167
0.013240033 0.03046024 0.16621777
0.012528376 0.031031014 0.16275406
0.0083669024 0.031951088 0.16208535
0.0053744866 0.032114778 0.16163725
0.012692006 0.031177694 0.15808189
0.0082311379 0.031568117 0.1575993
0.0043716468 0.031980362 0.15754503
0.00021876169 0.03201209 0.15672013
-0.004404393 0.031836033 0.15713772
-0.008877106 0.031497717 0.15673095
-0.013136336 0.031889576 0.15613627
-0.016458176 0.032679114 0.15569901
0.0070528467 0.031453677 0.15373242
0.0043610968 0.031627331 0.15377033
0.00035888163 0.031188369 0.15328127
-0.0029824995 0.030912587 0.15294391
-0.0096792551 0.030726569 0.15255481
-0.013456346 0.031642914 0.15188596
-0.017023068 0.032852311 0.15208232
-0.017239353 0.03272811 0.14776272
0.0078140143 0.016149299 0.18234023
0.0032382584 0.014959931 0.1827791
-0.00053950364 0.0142083 0.18319386
-0.0049015819 0.014346651 0.18266317
0.013740916 0.030511841 0.1551131
0.013222604 0.030751247 0.15152866
0.0086745676 0.031047208 0.15136153
0.0044900216 0.031293768 0.15070057
0.00047425495 0.030965924 0.15029711
-0.0037448006 0.030505044 0.15018386
-0.0079878448 0.030412061 0.15011832
-0.012047435 0.031038266 0.14958832
0.013450685 0.031134063 0.14618558
0.0085507203 0.031144023 0.14625412
0.0046775397 0.031305775 0.14600793
0.00063441636 0.031357732 0.14590466
-0.0033933166 0.031082563 0.14554167
-0.0081017585 0.03102478 0.14532682
-0.012812137 0.031168237 0.14527118
-0.016557606 0.032146402 0.14478469
0.0045721065 0.03163188 0.14172322
0.00079539989 0.03174581 0.14149049
-0.0032391294 0.031433754 0.1410968
-0.0079455934 0.031631112 0.14051878
-0.012389739 0.032266054 0.14030266
-0.016704626 0.032456417 0.14049256
-0.011884415 0.03262721 0.1370053
-0.017274007 0.032507148 0.13671833
0.0032869696 0.0095228637 0.18231592
-0.00047558208 0.010021602 0.18298239
-0.0047065672 0.0093780244 0.18305182
0.0049177781 0.012741055 0.18236312
0.01018166 0.030757274 0.14387742
0.013741043 0.030580658 0.14006221
0.0090014944 0.030585919 0.13989803
0.0052990778 0.031308994 0.13892362
0.00088291813 0.032199178 0.13901076
-0.0031611011 0.032044992 0.1387434
-0.0058584712 0.031994767 0.13860756
0.014611631 0.030273098 0.13602984
0.0044275103 0.030318363 0.13570809
0.00058918278 0.03131773 0.13510832
-0.0030119207 0.031665906 0.13462824
-0.007089918 0.032272134 0.13497901
-0.011791134 0.032334156 0.13391179
-0.01633467 0.032193966 0.13404676
-0.0035391632 0.032153506 0.13022381
-0.0071224365 0.032615051 0.13006732
-0.011664655 0.032655053 0.12977761
-0.016110674 0.032457385 0.128885
-0.00039456118 0.0029183456 0.18334156
-0.0004346605 0.0063817161 0.18318
-0.0031549169 0.0064635612 0.18312967
0.013977458 0.030071091 0.13375297
0.0092952121 0.029663596 0.13343173
0.0054194359 0.029893603 0.1329352
0.0020557509 0.030466676 0.13255447
0.014097145 0.030048151 0.12831569
0.0095343823 0.029734407 0.12772447
0.0054351073 0.029873729 0.12769693
0.0013144506 0.030573096 0.12812889
-0.0022167049 0.031108465 0.12767828
-0.0061535873 0.032133017 0.12723386
-0.0095446119 0.032037582 0.12703791
0.0051192902 0.030656116 0.12382394
0.0014699884 0.030334966 0.1240775
-0.0025929981 0.030847192 0.12297991
-0.0067007104 0.032035384 0.12327492
-0.010801415 0.032802496 0.12377429
-0.015551167 0.032648511 0.1234833
-0.0072537754 0.031978831 0.11933517
-0.010643551 0.032443747 0.11863923
-0.014884785 0.032707982 0.11798924
0.015413919 0.029383628 0.12321186
0.010420647 0.029771755 0.12294793
0.0056682266 0.030131988 0.12172568
0.0015806934 0.030145373 0.12120897
-0.0024908024 0.030478682 0.12018293
0.015413758 0.029373104 0.11889362
0.010442118 0.029612355 0.11812663
0.0060120858 0.030403785 0.11790681
0.0017247312 0.030009422 0.11742955
-0.0023763536 0.030170918 0.11700797
-0.006461157 0.030843973 0.11613595
-0.010531668 0.031553764 0.1149736
-0.013279495 0.032265086 0.11548257
0.010094175 0.029972434 0.11433148
0.0056302734 0.030321224 0.11398625
0.001533544 0.029833164 0.11343533
-0.0019566645 0.029809408 0.11300373
-0.0065044747 0.030641608 0.11154115
-0.010402539 0.031196747 0.11076188
-0.014519385 0.031542573 0.11091816
-0.013036519 0.031593613 0.10708743
-0.00065641903 -0.0060048276 0.18429238
-0.00032646605 -0.0033945015 0.1837787
0.015537261 0.029505987 0.11607945
0.012794952 0.029390728 0.11588949
0.015691387 0.029849157 0.11245269
0.010918271 0.030251846 0.11245584
0.0063310741 0.030758245 0.11173451
0.0022279234 0.03035244 0.11125141
-0.0025073891 0.030495644 0.11092067
-0.0055606435 0.030888626 0.10968113
0.015553441 0.029739365 0.10792422
0.010902072 0.030277595 0.10692918
0.0062286519 0.031068563 0.10727412
0.0021128883 0.030745268 0.10686058
-0.0020245486 0.030933687 0.10688508
-0.0061360095 0.031498075 0.10624892
-0.010075121 0.031925082 0.1057471
-0.014653367 0.031812329 0.10604101
0.005024455 0.030697756 0.10296309
0.0022892244 0.030959079 0.10210842
-0.0018585661 0.032056231 0.10193324
-0.0058159707 0.032223344 0.10170156
-0.010308355 0.032386627 0.10137916
-0.014249343 0.032115646 0.10157984
-0.006545024 0.031899743 0.097676337
-0.010254784 0.032238469 0.097057045
-0.014116757 0.032606058 0.097055197
0.013364343 0.028558733 0.10337341
0.012137715 0.028757012 0.099525571
0.0074325101 0.029593911 0.09991765
0.0023995908 0.030986104 0.09915781
0.011358553 0.029592942 0.095571697
0.0074269255 0.029774308 0.095269918
0.0023573206 0.030387232 0.095214009
-0.0015944499 0.03070225 0.094791055
-0.0055296002 0.030588321 0.093993545
-0.0095092924 0.030667458 0.093007565
-0.014000881 0.03097517 0.092634976
-0.0021387578 0.030473011 0.090569258
-0.0058747879 0.030887656 0.090013921
-0.0097301407 0.03119169 0.088955998
-0.013892307 0.031283244 0.08890444
-0.014482275 0.03182929 0.085352361
0.012868186 0.029062325 0.093151271
0.0082724029 0.029245274 0.091826439
0.0040837852 0.029516203 0.091930509
0.012428111 0.028775405 0.088092089
0.0082210768 0.02910958 0.088253677
0.0035406188 0.029530559 0.087901473
-0.0011485229 0.030333281 0.087891817
-0.0051542125 0.030710118 0.087165356
-0.0013463423 0.030578665 0.082878351
-0.0053809644 0.031603523 0.083418965
-0.0095583322 0.031734262 0.083405375
-0.013518021 0.031954512 0.082902193
-0.002429784 0.030885253 0.078812361
-0.0055777202 0.031548705 0.078806818
-0.0094028087 0.031755362 0.078367114
-0.01377891 0.032121062 0.078127205
0.01302718 0.028537327 0.083019972
0.0088476855 0.028134482 0.082526803
0.0044961814 0.028216379 0.081702411
0.0016711701 0.028753178 0.082094908
0.013087357 0.028790118 0.077398479
0.0088940971 0.028422628 0.076935053
0.0046794498 0.028459618 0.076836824
0.00029953313 0.029176712 0.076897264
-0.00446537 0.031126909 0.076934576
-0.012788568 0.031208139 0.074713588
0.01323972 0.029492551 0.073441446
0.0090200333 0.029137883 0.07349956
0.0044728369 0.029089706 0.072802782
0.00062173029 0.029192857 0.072265685
-0.0041038115 0.02999614 0.072015464
-0.0089173643 0.030206885 0.071669102
-0.013393332 0.030885711 0.07133615
-0.0027685165 0.030609982 0.068331957
-0.0092522604 0.030889597 0.066924214
-0.013258117 0.031057475 0.066626728
0.013335408 0.029855441 0.071006417
0.0091060745 0.029504862 0.071200252
0.0051823636 0.029677136 0.070592821
0.00069852447 0.029985564 0.06991756
0.013542937 0.029923696 0.066132128
0.0094814561 0.029813955 0.066165566
0.0049107005 0.02955074 0.065783024
0.00083245762 0.030328784 0.066121817
-0.0035997413 0.031086497 0.06610167
-0.0070502721 0.031222343 0.065888047
-0.013199799 0.031452961 0.064680576
0.0010067774 0.029749632 0.06145674
-0.0032307843 0.030723555 0.061201572
-0.0076302583 0.03133852 0.060867727
-0.011996415 0.03127512 0.060878277
0.0080385618 0.028885093 0.062936068
0.0066261366 0.028848462 0.062859416
0.013823356 0.029023854 0.060125411
0.0095736701 0.02898906 0.059965551
0.0053299014 0.028886471 0.059742332
0.00084814068 0.029299431 0.058123648
-0.003092513 0.029829588 0.057255685
-0.0059267394 0.029982653 0.057314992
-0.011583445 0.030130504 0.057285488
-0.015111485 0.030004874 0.057062387
0.014030888 0.029273478 0.05515492
0.0097642792 0.029356241 0.055106044
0.0054994998 0.029474258 0.055090606
0.0014622548 0.02960515 0.054498196
-0.0029800262 0.029643774 0.053956032
-0.0072456999 0.03012131 0.054281294
-0.011492278 0.030146649 0.054179728
-0.015922999 0.029989343 0.053453207
0.0091895899 0.029930234 0.051448226
0.0056415703 0.029833827 0.051252604
0.0010321114 0.030071549 0.050819278
-0.0028520562 0.030008094 0.050121069
-0.0071080611 0.029919608 0.049912155
-0.011523792 0.030138066 0.049204469
-0.015412311 0.030294655 0.048715949
-0.012658762 0.031136664 0.045665979
-0.015471693 0.031353798 0.044741452
0.014320711 0.028977515 0.048588693
0.010265513 0.02905098 0.047939539
0.0058161635 0.028789196 0.047109067
0.0018170727 0.029122557 0.047100902
-0.0027292843 0.029582057 0.04656738
-0.0070056552 0.029808538 0.046659827
-0.0098452903 0.02968158 0.04645586
0.01380686 0.028665408 0.044057488
0.010230118 0.028687732 0.043975592
0.0059588635 0.028372917 0.043549836
0.0013186736 0.028720174 0.043220639
-0.0027683105 0.029445853 0.042478383
-0.0068757022 0.029931972 0.042563915
-0.010971225 0.030296495 0.042534173
-0.015383397 0.031171253 0.041406512
-0.0074544493 0.029862592 0.038247585
-0.011740677 0.030019434 0.038277864
-0.015283473 0.029983111 0.037292719
0.014955586 0.028555412 0.042396843
0.010690759 0.028770091 0.041421056
0.006047185 0.028240852 0.041307569
0.0017662481 0.028541105 0.040767252
-0.0010565758 0.028827565 0.039549112
0.014763361 0.029149892 0.038186431
0.010281818 0.029345462 0.037983179
0.0061585861 0.029227393 0.038017333
0.0020571465 0.029106312 0.037517309
-0.002397144 0.029312663 0.036794305
-0.0063202451 0.029473798 0.036308289
-0.010616448 0.029730678 0.036436498
-0.01524542 0.029761024 0.035803497
0.014575798 0.029668044 0.03388983
0.010627216 0.030005541 0.033575058
0.0063693207 0.02989299 0.032275677
0.0020534585 0.029636417 0.032514036
-0.0022310831 0.029693127 0.031838834
-0.0065514292 0.030292818 0.032306015
-0.010850742 0.030455485 0.032345295
-0.015135373 0.030056475 0.031833231
-0.0073620696 0.030650649 0.027643561
-0.010707736 0.031021049 0.027560532
-0.015004108 0.030832987 0.027255535
0.010791501 0.029436659 0.029809475
0.0021774499 0.029108047 0.029245794
0.015007142 0.028612887 0.026102304
0.010926851 0.029366869 0.026520252
0.0065888502 0.029634578 0.026665509
0.0022882188 0.029219577 0.026135385
-0.0020199837 0.028919527 0.025718689
-0.0058150827 0.029289825 0.024185538
-0.010592557 0.030173063 0.023498237
-0.014900217 0.029850839 0.023059249
0.012554958 0.028538758 0.022505403
0.0082230177 0.028423497 0.022271872
-0.0025975879 0.028002057 0.021555603
-0.0068933689 0.02900454 0.020274699
-0.010726773 0.030150684 0.019874513
-0.014809836 0.029680353 0.019652963
-0.011840835 0.029960018 0.016765356
-0.013285301 0.030032514 0.01679939
0.011030537 0.028474486 0.019961834
0.0066936929 0.028350694 0.01971966
0.0025405667 0.027971711 0.019498587
-0.0015705157 0.027916074 0.018712044
-0.0057416889 0.028446488 0.018122315
-0.0089857671 0.028730903 0.017777264
0.011437862 0.028755838 0.014273107
0.0071011144 0.028598325 0.013724685
0.0025327818 0.028264251 0.013888717
-0.0016092098 0.028727429 0.013622165
-0.0059771142 0.029340301 0.014123559
-0.010102116 0.029680304 0.013735354
-0.014827877 0.029220851 0.01349318
-0.0018324973 0.029398749 0.0093816519
-0.0059830821 0.030037062 0.0085538626
-0.010143568 0.030009577 0.0081422925
-0.014292358 0.029507771 0.0081464648
0.011556053 0.028450985 0.011510611
0.0035737823 0.028148737 0.010991395
0.011737465 0.027677488 0.0074384212
0.0073684026 0.027538266 0.0071804523
0.0030040143 0.027336359 0.0068593025
-0.00066072639 0.02875701 0.0071145296
-0.0042624003 0.029778395 0.0058688521
0.011907805 0.027813641 0.0031758547
0.0078899646 0.027391383 0.0031897426
0.0016762953 0.027023945 0.0032023191
-0.0012417758 0.028280446 0.0028376579
-0.005586335 0.029036267 0.0017691255
-0.009681168 0.029360635 0.0022174716
-0.013366271 0.029101966 0.0020016432
0.011991716 0.028638637 0.00071156025
0.0073248488 0.027791927 0.00060236454
0.0033929441 0.027389798 0.0011365414
-0.0011378673 0.028075729 -0.00020927191
