# .PCD v0.7 - Point Cloud Data file format
VERSION 0.7
FIELDS x y z
SIZE 4 4 4
TYPE F F F
COUNT 1 1 1
WIDTH 627
HEIGHT 1
VIEWPOINT 0 0 0 1 0 0 0
POINTS 627
DATA ascii
0.035652477 0.028224334 0.17716438
0.055977415 0.0077602444 0.15672207
0.05562076 0.0090340851 0.15680367
0.032274645 0.019901033 0.1816853
0.030696332 0.023491658 0.18147361
0.034886502 0.01735986 0.17927819
0.034067839 0.020575866 0.17950878
0.033226702 0.024489883 0.17989981
0.031493813 0.026576504 0.17920282
0.036303028 0.017829819 0.17588064
0.035724252 0.021121129 0.17540151
0.035061643 0.025114803 0.17594767
0.034264497 0.027613357 0.17601547
0.036496259 0.021334125 0.17238483
0.034976348 0.024949713 0.17222336
0.044636503 0.011687552 0.1648578
0.043276113 0.014201773 0.16582915
0.041973997 0.016295474 0.16594902
0.049878646 0.0052486351 0.16152656
0.048631236 0.0079357317 0.16178021
0.046707641 0.011233322 0.16238147
0.045296084 0.014732971 0.16250157
0.043898407 0.016964065 0.16206217
0.054303721 0.00072448887 0.15773922
0.053123407 0.0044385884 0.15915388
0.051586941 0.008773284 0.15918165
0.049102359 0.011918349 0.15816915
0.047181528 0.015070941 0.15795177
0.056339737 -0.0022363979 0.1551511
0.056217641 0.00096821971 0.15436515
0.05662578 0.0054084817 0.15546221
0.054528344 0.010302182 0.15514356
0.051257383 0.012658579 0.15356651
0.048924122 0.014520627 0.15414989
0.057336796 0.002317246 0.15072012
0.057151787 0.0058282008 0.15064025
0.05542415 0.010068524 0.15050262
0.052906729 0.012342186 0.1495735
0.056838945 0.0069400603 0.14701396
0.055642188 0.0096047409 0.14637822
0.032424573 0.010849845 0.18014172
0.031246196 0.014686623 0.1819962
0.029290119 0.018687297 0.18291137
0.027164573 0.022048552 0.18226302
0.026061699 0.024714328 0.17989185
0.034269746 0.011290642 0.17731613
0.034717705 0.014397987 0.17841396
0.028583497 0.026728518 0.17718521
0.035993632 0.012009178 0.17326713
0.036495402 0.015700327 0.17411476
0.030176815 0.027276723 0.17392033
0.04071074 0.0096029416 0.16753083
0.039122649 0.012609227 0.16892922
0.038089614 0.01691856 0.16966385
0.036391679 0.020977423 0.16880476
0.034047466 0.024440048 0.16869086
0.032468155 0.026700597 0.1708695
0.04552814 0.0019599376 0.16397995
0.044187933 0.0058977176 0.16519251
0.043313675 0.0093890503 0.16571662
0.041811485 0.012681105 0.16670209
0.03983644 0.018188758 0.16488037
0.036161441 0.020870952 0.1638093
0.033605222 0.023425739 0.16536444
0.049522817 -0.0021648798 0.16110522
0.048688065 0.0023660008 0.16186833
0.046944089 0.0065749874 0.16263604
0.046069544 0.0093882959 0.16347367
0.040759604 0.018394355 0.16011581
0.054270525 -0.0044611562 0.15850654
0.052914985 -0.0011972804 0.15899026
0.045958869 0.016172741 0.15604511
0.04320104 0.017682949 0.15645552
0.056525137 -0.0038064886 0.15385038
0.055858545 -0.0010833684 0.15387416
0.047606125 0.015592912 0.1518029
0.04448013 0.0173661 0.1519312
0.056887344 -0.0034195948 0.14809644
0.056881957 0.00013033487 0.14856267
0.051095068 0.013389544 0.14763814
0.04851434 0.015044119 0.14684245
0.045644447 0.017119134 0.14774224
0.056264874 0.0010719337 0.14349964
0.056929585 0.0051127914 0.14433381
0.055097222 0.0098689217 0.1435208
0.052585043 0.012781442 0.14350978
0.049017817 0.014064933 0.14296481
0.057187542 0.0058530904 0.13994157
0.056154378 0.009876796 0.13987666
0.053792533 0.012373641 0.13873804
0.056662582 0.0070088599 0.13569939
0.055721909 0.0094787674 0.13567469
0.028761862 0.0047925711 0.18275878
0.02736906 0.0077922363 0.18252993
0.026125619 0.012317044 0.18277594
0.024680028 0.016738601 0.18285739
0.022166459 0.019986494 0.18282473
0.019910088 0.023031455 0.18183014
0.033686761 -0.0016291356 0.17974621
0.032469079 0.0014419872 0.18064347
0.031753007 0.0052799601 0.18041182
0.030543135 0.0087945377 0.18114316
0.028311647 0.011799855 0.18234664
0.022327548 0.024765922 0.17934224
0.034924243 -0.0010903087 0.17694804
0.03460703 0.0019971421 0.17612806
0.034409415 0.0062562581 0.17614818
0.034103204 0.0090305209 0.17663005
0.025047757 0.026621116 0.17466119
0.035634011 0.002919469 0.17068958
0.035543643 0.0065451842 0.17155042
0.035626512 0.0098724226 0.17245966
0.026342031 0.026635531 0.16965175
0.039567392 0.00079912972 0.1656248
0.038105227 0.0032913927 0.16682422
0.037733808 0.0071693328 0.16801998
0.037377048 0.010134526 0.16921604
0.028858684 0.025770715 0.16619813
0.044868298 -0.0041766642 0.16358319
0.042977352 -0.00046153925 0.16450638
0.041607089 0.0039178068 0.16608381
0.03524936 0.021075837 0.16043767
0.032012489 0.023558993 0.16187495
0.029252268 0.025068045 0.16170287
0.036311287 0.020695169 0.15743148
0.033018235 0.023307817 0.1567992
0.039966721 0.018871777 0.15365702
0.037153885 0.020695021 0.15273663
0.034816545 0.022780782 0.15317672
0.041280326 0.018427406 0.14942515
0.038559668 0.01985896 0.14822054
0.046339039 0.01583153 0.14418936
0.043268561 0.017829543 0.14491987
0.040809132 0.019234542 0.1446273
0.056391917 -0.0044434238 0.14155579
0.056061879 -0.0010738932 0.14188701
0.047882743 0.015073692 0.14026445
0.044688962 0.016997574 0.13989896
0.056803413 -0.0040243976 0.13698909
0.056562435 -0.000222506 0.13727182
0.056612771 0.0031866133 0.13704908
0.051379647 0.013397794 0.13713345
0.048440859 0.014918614 0.13525748
0.056616936 -0.00040389039 0.13349465
0.056616262 0.0044656899 0.13286182
0.055557132 0.0092573781 0.13265589
0.053121027 0.012515043 0.13261241
0.049936067 0.014688902 0.13165843
0.056496419 0.0054146657 0.12868208
0.055419359 0.008955718 0.12773073
0.053697124 0.012121225 0.12755686
0.016030394 0.01742181 0.18254793
0.027646651 -0.00081045832 0.18244997
0.026648365 0.0029464047 0.18319544
0.024508173 0.0065657087 0.18299359
0.022491831 0.010022053 0.18244791
0.020554733 0.014246848 0.18214232
0.018959932 0.018658152 0.18302473
0.03068725 -0.00098303054 0.18085781
0.035501689 -0.0031687208 0.16977724
0.035634432 0.00070896186 0.17012525
0.037966143 -0.0023134928 0.1656687
0.036611844 0.0010045506 0.16722444
0.025166189 0.025945365 0.16311371
0.026729159 0.025783435 0.15885973
0.030956544 0.024153642 0.15624124
0.028478269 0.025556613 0.15504915
0.03565722 0.021571061 0.1497581
0.033118252 0.023603307 0.15073192
0.030006107 0.025374286 0.15074688
0.036968451 0.021033101 0.14624673
0.033331372 0.023145393 0.14539477
0.038037926 0.020546626 0.1417428
0.035298984 0.022523504 0.14038146
0.042107586 0.01811197 0.13874704
0.03899496 0.019814562 0.13752213
0.043948669 0.017072214 0.13375935
0.055918992 -0.0051508527 0.12988833
0.055966821 -0.00089687295 0.12999207
0.048444483 0.015224392 0.128923
0.045898657 0.016810868 0.12906808
0.056221701 -0.0044518244 0.12565643
0.056100134 -0.0010932162 0.12528419
0.056056313 0.0033108629 0.1257475
0.052169643 0.013215449 0.1254313
0.049515519 0.014755794 0.12493879
0.046449572 0.016501214 0.12465924
0.056323797 -0.00022766925 0.1212669
0.056046322 0.0037896968 0.12097603
0.055346984 0.0086376835 0.12187034
0.053029999 0.011938315 0.12097931
0.050000098 0.013979211 0.1204046
0.056373313 0.0044505205 0.11665231
0.054938823 0.0081992494 0.11661768
0.053090211 0.011394712 0.11655444
0.021037137 0.00065968884 0.1828514
0.01886723 0.0041122967 0.18311879
0.017713612 0.0080001168 0.18326434
0.016067855 0.012081199 0.18275648
0.025864625 0.026240511 0.15209961
0.0232988 0.026990812 0.15180323
0.026464747 0.025758125 0.14736074
0.031581957 0.023947958 0.1426442
0.029374229 0.025123911 0.14449143
0.033372339 0.02385192 0.139274
0.031249821 0.025133358 0.13894802
0.037947904 0.020901732 0.13489154
0.035090879 0.023690362 0.13488308
0.032129664 0.025363304 0.13495842
0.04194745 0.017730657 0.13095257
0.039078604 0.019421186 0.131082
0.035616077 0.02271425 0.13040173
0.042492371 0.017225867 0.12704983
0.039989501 0.018218286 0.12764436
0.047999833 0.015597109 0.12181944
0.045123544 0.016714185 0.12251043
0.056866601 -0.0053253472 0.11913121
0.056996875 -0.0014864113 0.11951756
0.048782106 0.014790712 0.11774057
0.04609805 0.016421484 0.11764759
0.057323411 -0.0040041562 0.11581445
0.056975894 -0.0010380559 0.11505604
0.05668889 0.0030148588 0.11454767
0.054809384 0.0079928087 0.11356187
0.052394047 0.011601782 0.11344564
0.049566988 0.014258375 0.11363715
0.047367863 0.016446751 0.11387664
0.056485876 0.0031900443 0.11024779
0.055401087 0.0073487936 0.10998964
0.052882992 0.011151625 0.10931563
0.055417135 0.0081712715 0.10560602
0.054049537 0.010688751 0.10537672
0.010912664 0.0058267801 0.18365523
0.0095307101 0.0088999784 0.18345094
0.017570483 -0.00086984318 0.18288341
0.013808279 0.001894987 0.18283683
0.013748977 0.0063189538 0.18384233
0.011824008 0.010221022 0.18301076
0.022059359 0.026281163 0.14505512
0.026418921 0.025771569 0.14158502
0.023213733 0.026252717 0.1407133
0.027260933 0.025606759 0.13697281
0.029949764 0.0256023 0.13270473
0.034886502 0.023047784 0.12730831
0.030898903 0.025330517 0.12732089
0.037941523 0.018851172 0.12405208
0.034943275 0.022285795 0.12308976
0.032465696 0.025074851 0.12214857
0.041596808 0.017179668 0.12096214
0.038740233 0.018819334 0.11915427
0.035951905 0.021797093 0.11834997
0.034544192 0.024346534 0.11838961
0.043129016 0.017051544 0.11600095
0.040107261 0.018810572 0.11473846
0.055880733 -0.0019555818 0.11138618
0.048126508 0.014414837 0.11001062
0.04481902 0.017142847 0.1117183
0.04218192 0.018507252 0.11121643
0.055653702 -0.0022360049 0.10819799
0.055830788 0.0012517311 0.10715938
0.051435053 0.012021636 0.10619527
0.049134001 0.013807127 0.10701787
0.045557059 0.015957553 0.10680276
0.056064658 -0.0020944215 0.10342997
0.055753246 0.0019734893 0.10276961
0.055581331 0.0063561294 0.1031698
0.052904435 0.011531074 0.10272992
0.049650703 0.013517192 0.10224348
0.056041226 0.0022644363 0.098699927
0.055574249 0.0068503628 0.098291099
0.053523418 0.010915172 0.098087311
0.051097196 0.012996443 0.098405063
0.055654526 0.0079914723 0.093616605
0.054666407 0.010270327 0.093207359
0.0098317936 0.00014818297 0.18251991
0.0088815168 0.0038315943 0.18320802
0.022763737 0.02585027 0.13359821
0.026256245 0.025686366 0.1295467
0.023476707 0.026040912 0.13037288
0.027331827 0.026003538 0.12567917
0.029744346 0.026273381 0.1214968
0.03603049 0.022694223 0.11619574
0.032361373 0.025593843 0.11700988
0.038969338 0.020146092 0.11296999
0.036689926 0.022112293 0.11267817
0.034342643 0.024628852 0.11191785
0.039631542 0.019192619 0.1080817
0.0368331 0.021292303 0.1086567
0.043263584 0.016856037 0.10429716
0.041069075 0.017758427 0.10422379
0.056508843 -0.0029331502 0.10186291
0.047200788 0.0143377 0.10044014
0.04475534 0.015332607 0.10007203
0.056491509 -0.0026072115 0.097777724
0.056228481 0.0015377458 0.095973551
0.052466571 0.011982873 0.095318556
0.048931237 0.013428872 0.096142828
0.045469627 0.014887534 0.096205235
0.055826381 -0.0022048578 0.093642712
0.055945918 0.0019860212 0.091796279
0.056128368 0.0058343578 0.091974139
0.052904543 0.011396375 0.091167092
0.049722385 0.012568619 0.091184258
0.056187507 0.0028786473 0.087669909
0.055953618 0.006911871 0.086996675
0.054256186 0.010718267 0.086816967
0.0024914127 0.0018205366 0.18310651
0.0057593309 0.0028574164 0.18320298
0.0049428046 0.0054697711 0.18326741
0.023821447 0.025951322 0.12291723
0.024998398 0.027025305 0.11834478
0.027262563 0.026345909 0.11411798
0.030700035 0.025438547 0.11076647
0.027990559 0.025733963 0.10866416
0.036028121 0.021792646 0.10563576
0.032905687 0.02448722 0.1064133
0.038745988 0.018390106 0.10151088
0.035381041 0.021128934 0.10055017
0.033396371 0.023803782 0.10202843
0.042788178 0.016392907 0.097868443
0.039407954 0.0180576 0.096786737
0.036497932 0.020030029 0.098179936
0.047013726 0.013950365 0.093268633
0.043805573 0.01569989 0.092828989
0.041192215 0.017345531 0.092374682
0.0554737 -0.003510965 0.090371728
0.055418022 -0.00034506619 0.089929104
0.047658831 0.013467395 0.08930552
0.044853698 0.014657794 0.088178217
0.055479079 -0.0030427985 0.085789025
0.055855829 0.00073803216 0.086398423
0.055617336 0.0040065795 0.085554838
0.049360655 0.012957947 0.085288227
0.055579104 0.0011908989 0.082101107
0.055248901 0.0056095021 0.081103683
0.053078204 0.01032122 0.080854297
0.050769102 0.012435059 0.080601335
0.054748412 0.0069204578 0.076756239
0.053529099 0.0093581555 0.076493025
0.024137404 0.026829429 0.11126989
0.025551971 0.02616974 0.1071015
0.030184992 0.024986085 0.10335541
0.028397374 0.025724003 0.10309899
0.031465307 0.024372824 0.098635733
0.028989451 0.025794517 0.097683072
0.03784043 0.018995104 0.095024467
0.035431489 0.021151055 0.095412135
0.032553215 0.024000855 0.094390213
0.02984361 0.026042946 0.094503045
0.039371181 0.018507769 0.091201067
0.036023684 0.020846406 0.090352476
0.033555776 0.022989718 0.090690255
0.043224856 0.01588938 0.086280763
0.039884195 0.018229006 0.08631742
0.037266161 0.019937871 0.086879194
0.055446792 -0.0047062784 0.083219111
0.047352787 0.013595331 0.08150655
0.044527829 0.015187115 0.081827223
0.040740002 0.017256027 0.082318127
0.055176247 -0.0038315132 0.079159677
0.054776963 -5.0617382e-05 0.07828027
0.048190147 0.013198774 0.077692032
0.044735789 0.015282478 0.077435613
0.054148406 0.0008588694 0.07369411
0.054637447 0.0040757097 0.074411273
0.052850388 0.0096907821 0.073990583
0.049424674 0.012633715 0.072948337
0.054719001 0.004807204 0.069628179
0.053424273 0.0089733433 0.069206238
0.050340246 0.011849949 0.068776846
0.05395323 0.0082762735 0.065384746
-0.0086730998 0.00060555129 0.18806228
-0.0062627541 -0.0020466943 0.18507591
-0.00329107 -0.0010106238 0.18375605
0.023341659 0.026633421 0.10319895
0.024428269 0.026098106 0.1003629
0.025372012 0.026350152 0.096057951
0.031488393 0.025139866 0.091619134
0.028559308 0.026304565 0.091123044
0.035117596 0.022048105 0.087722778
0.032919142 0.024320569 0.088328063
0.029739458 0.026357137 0.086934388
0.036160558 0.021049444 0.084038019
0.033422045 0.023982506 0.083139181
0.030342359 0.025878716 0.082879186
0.039738443 0.018227356 0.079759479
0.036596272 0.02042729 0.078718424
0.054877367 -0.0051235836 0.07588017
0.045093827 0.015325787 0.074739754
0.040990338 0.018093916 0.075425267
0.038457472 0.019996881 0.074853301
0.054523814 -0.0047049876 0.072672069
0.054187663 -0.0010713171 0.072577477
0.045338653 0.015523608 0.071746826
0.042507175 0.017440712 0.070972919
0.054362826 -0.0046941526 0.068673313
0.054429024 -0.00044833496 0.06792742
0.054724947 0.0031733084 0.067049026
0.049817927 0.013032041 0.066679239
0.046192668 0.015057853 0.067127466
0.05455409 -0.00024108589 0.063522518
0.054989751 0.0042953398 0.063171327
0.053567216 0.0089773657 0.062558949
0.050898694 0.012625393 0.062334239
0.047526792 0.014374377 0.062700033
0.055014387 0.00091228634 0.05972743
0.055098552 0.0042269174 0.058489084
0.054002151 0.0090047233 0.057917595
0.05127538 0.01248149 0.0578686
0.054513544 0.0086207939 0.054555416
0.052449856 0.012139774 0.054440796
0.02327708 0.026304845 0.093116164
0.024056621 0.026521944 0.089829743
0.026623586 0.027047725 0.085125685
0.023928724 0.027795818 0.084094286
0.030954568 0.024508182 0.078931808
0.02800609 0.026653424 0.080734134
0.034310851 0.021291777 0.07572484
0.031818129 0.023277521 0.07624197
0.029220214 0.025809739 0.076242208
0.036128387 0.020669067 0.072028995
0.032850388 0.02314258 0.072307587
0.039772652 0.018190291 0.067893326
0.036885943 0.020363307 0.067646027
0.043725863 0.015799809 0.063865125
0.041035783 0.017157009 0.063628733
0.053889047 -0.001826141 0.060842872
0.045338366 0.01524741 0.05971092
0.041894209 0.016346989 0.059334874
0.054496974 -0.0040703956 0.056506634
0.054393891 -0.0012732018 0.05609262
0.054745235 0.002163507 0.056833684
0.049367223 0.013372786 0.055820882
0.046544887 0.014956225 0.055084109
0.055071283 -0.00049083121 0.051735163
0.054547541 0.0033491533 0.051909685
0.054119196 0.0073119542 0.051359773
0.05115556 0.012436742 0.051094413
0.04804191 0.014458738 0.05034101
0.055860069 0.00069616549 0.048044324
0.055089686 0.0034140516 0.048292756
0.054220702 0.0077306665 0.047200084
0.052269381 0.011391031 0.046888947
0.026297351 0.027068213 0.07779026
0.024344668 0.027796924 0.078382552
0.027588991 0.027113026 0.074346364
0.025140369 0.027961265 0.073019862
0.031470641 0.024436977 0.070221961
0.02902917 0.026432769 0.069769919
0.035311043 0.021347187 0.065417767
0.033199657 0.02333496 0.066520989
0.02962219 0.025041543 0.065739155
0.03881963 0.018141437 0.061302543
0.036828168 0.020544974 0.062135696
0.033799607 0.022674084 0.060827434
0.040187143 0.017511642 0.057903409
0.037640925 0.020082582 0.057081342
0.045116477 0.015910458 0.051789105
0.041718811 0.01738736 0.05293119
0.038784485 0.019308984 0.052381217
0.055180073 -0.0021047965 0.049194932
0.046306141 0.015534333 0.048603296
0.043083847 0.016923485 0.048206687
0.054920018 -0.0052065328 0.046125114
0.0556532 -0.00074476749 0.045676529
0.054687433 0.00305322 0.044671059
0.054453164 0.0059918212 0.044459701
0.051369131 0.012210691 0.043801904
0.048394702 0.014671724 0.044685721
0.045021933 0.016555788 0.043613315
0.055513453 -0.00059014559 0.041005969
0.054610554 0.0028035901 0.040331006
0.053878684 0.0072627245 0.040462673
0.052300368 0.010931729 0.040039003
0.049541853 0.014069288 0.039774299
0.053580124 0.0067411168 0.036238074
0.052484579 0.010420511 0.035310805
0.050153513 0.013623387 0.035844564
0.025297653 0.027878989 0.068023562
0.030740736 0.023877356 0.062227964
0.02703247 0.025697727 0.062451005
0.030927785 0.023314703 0.058080554
0.02755717 0.024765152 0.059714556
0.035870783 0.021199249 0.054542661
0.032862388 0.022530857 0.053922772
0.036935166 0.020218577 0.049979448
0.034320299 0.022175193 0.048697472
0.041455317 0.017703885 0.046985447
0.038587619 0.018948141 0.044788897
0.034632273 0.021921191 0.046388745
0.05434661 -0.0033191592 0.043128788
0.042822681 0.017176585 0.041269541
0.040398952 0.018408623 0.040507436
0.054300677 -0.0032050535 0.038406253
0.048038781 0.015066796 0.037523746
0.044456258 0.01612461 0.036943376
0.054103568 -0.002053272 0.034105778
0.053841908 0.0021494012 0.03411454
0.053511128 0.0062071979 0.033697844
0.05145523 0.011013049 0.032971263
0.048293326 0.013950026 0.032445967
0.045769993 0.015410105 0.03234899
0.054307628 0.0025291033 0.028654218
0.053849008 0.0065380186 0.029387236
0.0519979 0.01030956 0.029003561
0.049602497 0.012675278 0.028112888
0.054800101 0.0036731474 0.02499783
0.054288331 0.0065031052 0.024490774
0.052649155 0.010084881 0.024453342
0.050660174 0.012588833 0.024317503
0.02700704 0.024905231 0.056790411
0.024726845 0.025731344 0.054421425
0.028255209 0.024227267 0.051594138
0.031704772 0.023863457 0.049621403
0.029781066 0.024773331 0.047152102
0.034619596 0.022043908 0.043728352
0.031227067 0.023813345 0.042366803
0.03762766 0.019381937 0.03986299
0.035363749 0.02097884 0.039738595
0.042364251 0.017123446 0.035041809
0.03975866 0.018320998 0.03514421
0.053612314 -0.0027444717 0.031062365
0.042840157 0.016543237 0.030626774
0.040785324 0.017778618 0.029559076
0.053531557 -0.0029557608 0.027721286
0.054621968 0.00059631839 0.026878536
0.047682263 0.0136793 0.026116133
0.044404909 0.015126348 0.027064681
0.053056277 -0.0018398389 0.023412824
0.054947335 0.0017929431 0.023162484
0.054232411 0.0063223662 0.021172404
0.052282933 0.010479197 0.021369934
0.04813036 0.013228707 0.021691561
0.054569468 0.0028708782 0.018600345
0.054203499 0.0061541433 0.017871499
0.052603871 0.010076458 0.017788112
0.050213952 0.012141764 0.018380523
0.053677719 0.0065270029 0.014277577
0.052473027 0.0098666092 0.014361799
0.02365331 0.025507618 0.048693538
0.028140601 0.025267459 0.043738186
0.025622515 0.025805324 0.044794858
0.029282605 0.025007617 0.040058374
0.026660889 0.026099244 0.040575147
0.035934389 0.019046484 0.036069751
0.033451546 0.021590725 0.036079109
0.030507691 0.024231043 0.035600126
0.027403729 0.026295736 0.037097573
0.037114389 0.019024916 0.032396257
0.033859253 0.021099322 0.031691432
0.030918809 0.024107229 0.031618476
0.038034178 0.018843886 0.027348816
0.034764882 0.021138322 0.02749747
0.053531632 -0.0046559814 0.024966598
0.042713318 0.015805196 0.023569524
0.03960352 0.018350037 0.022860885
0.036873769 0.020535013 0.023662627
0.053650539 -0.0034484714 0.02098
0.046377387 0.013569246 0.018412471
0.043558706 0.015255746 0.019079149
0.040244058 0.017943896 0.019497037
0.053910907 -0.0033871066 0.016151607
0.053763285 0.00027590245 0.015875578
0.047940597 0.013004752 0.015113115
0.044578135 0.014717345 0.014948905
0.053958021 -0.0027365424 0.013206899
0.053689525 0.0013634078 0.011793256
0.052975073 0.0052682292 0.010591686
0.051456664 0.0092227692 0.0098831654
0.048992585 0.012305915 0.010433972
0.05345076 0.0022461042 0.0081056356
0.053066805 0.0055195112 0.006809175
0.051758897 0.0091753211 0.0058301091
0.049353912 0.012046651 0.0067212582
0.02154991 0.025736954 0.046364367
0.02229926 0.025937762 0.042893291
0.023874769 0.026403332 0.037082136
0.027410008 0.026202079 0.033890426
0.030134942 0.024874352 0.029565871
0.027407762 0.026039684 0.02850616
0.033850547 0.022395838 0.024687767
0.031362131 0.024470786 0.025231004
0.027937043 0.026141645 0.024759829
0.03482566 0.02139036 0.02095902
0.031680606 0.023694042 0.020963073
0.039064445 0.018636718 0.016827404
0.035946097 0.020667654 0.016381383
0.042578734 0.015747089 0.012961566
0.039548226 0.017129259 0.012416244
0.053328633 -0.0039940812 0.0095877647
0.053084768 -0.0002190005 0.008975029
0.046580672 0.013217187 0.0076890588
0.043487474 0.014494663 0.008032918
0.052843504 -0.003654873 0.0052531958
0.053265084 0.00023548491 0.0047059655
0.05330297 0.0041133529 0.0050544739
0.047772542 0.01252415 0.0035259724
0.053541429 0.0008292608 -0.00034040213
0.053482719 0.0050172461 0.00049543381
0.052047648 0.0090714972 0.00063353777
0.024172351 0.026313165 0.02987659
0.027989719 0.026099656 0.022648692
0.032949358 0.021773001 0.017160416
0.030513033 0.024295582 0.018460453
0.026986118 0.025562126 0.018276334
0.03469694 0.021220377 0.013767719
0.031164516 0.023539402 0.014663994
0.038312066 0.017945116 0.010078788
0.034942713 0.021011382 0.0095105767
0.032209732 0.02275772 0.0092294216
0.04126928 0.015524859 0.0055256486
0.038824689 0.017813746 0.0059047341
0.035956506 0.020041626 0.0056731701
0.053058989 -0.0048356652 0.0033772588
0.042731352 0.014647833 0.0019912124
0.039368059 0.016133599 0.0017058253
0.026494954 0.025248516 0.014451921
0.029000785 0.023828279 0.010892391
0.02555461 0.024737418 0.010106683
0.029581701 0.023412548 0.0065760016
0.034480885 0.02067248 0.0025765896
0.031794176 0.022894781 0.0026910305
0.02314481 0.0252611 0.0079975128
0.027660489 0.023851674 0.0041517615
0.024516588 0.024908043 0.0037041903
0.028969798 0.023881331 0.00049388409
0.026036922 0.02461661 -0.00043278933
