# .PCD v0.7 - Point Cloud Data file format
VERSION 0.7
FIELDS x y z
SIZE 4 4 4
TYPE F F F
COUNT 1 1 1
WIDTH 459
HEIGHT 1
VIEWPOINT 0 0 0 1 0 0 0
POINTS 459
DATA ascii
-0.032625541 0.029142855 0.18183732
-0.033265486 0.030984519 0.1793775
-0.03384674 0.032825023 0.17598924
-0.023196734 0.032911677 0.18050197
-0.026078783 0.031098137 0.18214136
-0.029505895 0.027345819 0.18299747
-0.033457085 0.023499828 0.18223804
-0.035581447 0.019198753 0.18086746
-0.02398752 0.033859283 0.17765972
-0.02808417 0.033491448 0.17834023
-0.035620749 0.025876559 0.17795715
-0.036659148 0.021211762 0.17678735
-0.028892746 0.034568183 0.17376029
-0.03455136 0.031505063 0.17384735
-0.035718843 0.026518229 0.17308825
-0.036368437 0.022569969 0.17306688
-0.030585654 0.034864016 0.16963547
-0.034846056 0.033083621 0.17019528
-0.03567626 0.028633509 0.16839448
-0.030971656 0.03495048 0.16573215
-0.034750041 0.032809585 0.16558167
-0.014887131 0.031249758 0.18256375
-0.017920148 0.029273447 0.18336841
-0.021118641 0.026418958 0.18383324
-0.024739664 0.023082342 0.18325189
-0.028839052 0.018458059 0.18317878
-0.031316943 0.014806206 0.1836049
-0.03422429 0.011187422 0.18313748
-0.0157113 0.034053843 0.18035856
-0.019990848 0.032162081 0.18130773
-0.022633456 0.029007223 0.18295741
-0.033968825 0.017513718 0.18235528
-0.036385592 0.013763427 0.17944229
-0.01736005 0.035374843 0.17621684
-0.02132576 0.03435621 0.17606902
-0.036985721 0.019499317 0.17429319
-0.036754567 0.014790188 0.17446727
-0.022482561 0.034720574 0.1712651
-0.03563394 0.024184912 0.1698736
-0.036733627 0.020639697 0.17024249
-0.036561016 0.016377535 0.17017779
-0.024154555 0.034720544 0.16718358
-0.027166387 0.034614317 0.16717699
-0.035639003 0.025442909 0.16682282
-0.036467124 0.021603562 0.16593224
-0.028347889 0.034321859 0.16277942
-0.033365805 0.032758471 0.1624186
-0.035926282 0.027656451 0.16278648
-0.03301179 0.032813493 0.15751556
-0.034781925 0.02982818 0.15754539
-0.034753334 0.032925315 0.15352151
-0.026676621 0.010206507 0.18317997
-0.01150126 0.030188123 0.18247524
-0.014838388 0.027278619 0.18360886
-0.017274089 0.022748221 0.18325162
-0.020768199 0.019267175 0.18236655
-0.023862343 0.015858028 0.18219545
-0.012471176 0.033365544 0.1807161
-0.014869143 0.035431601 0.1735732
-0.036946762 0.01299818 0.17239174
-0.016521366 0.035269268 0.16922438
-0.020086261 0.035044007 0.16830891
-0.036693826 0.013963233 0.16744107
-0.017714839 0.035258688 0.16367728
-0.021200493 0.034820929 0.16474202
-0.036255658 0.019368153 0.16290694
-0.03649348 0.015215478 0.16283512
-0.021960432 0.034520473 0.16026369
-0.025815543 0.033937052 0.15985253
-0.035488594 0.024595615 0.15989554
-0.035226204 0.020634975 0.15901503
-0.02299064 0.034334384 0.15630001
-0.02709154 0.033973172 0.15611711
-0.034942515 0.026724393 0.15545422
-0.035602629 0.022823859 0.15442947
-0.028341677 0.034839399 0.15180209
-0.032935601 0.033740629 0.15100098
-0.035215262 0.028103717 0.15083978
-0.036060244 0.023452708 0.15122354
-0.029670602 0.034852177 0.14748207
-0.032713205 0.033538185 0.14635667
-0.034838408 0.02950668 0.14660728
-0.01029153 0.022562023 0.18282986
-0.013649515 0.019280069 0.18288881
-0.016748246 0.015469142 0.18310151
-0.020097418 0.012238994 0.18282008
-0.022944365 0.0074438518 0.18297911
-0.010806023 0.034074638 0.16711125
-0.014513902 0.03496144 0.16304773
-0.036926694 0.013566494 0.16037157
-0.01687989 0.035386331 0.15826023
-0.019381639 0.03442353 0.15720126
-0.035535514 0.018237546 0.15677917
-0.036540195 0.0148428 0.15648621
-0.017081134 0.035329312 0.15412217
-0.021094564 0.034849476 0.15383184
-0.035456575 0.019474089 0.15269536
-0.036053646 0.016249752 0.15182862
-0.022615146 0.034976162 0.14943942
-0.025403056 0.034951482 0.14930362
-0.036209762 0.021292701 0.14810076
-0.026583109 0.034612343 0.14536095
-0.031927358 0.032986205 0.14289001
-0.03574938 0.027930968 0.14397633
-0.036537264 0.023226295 0.1438272
-0.031861462 0.032529227 0.13911879
-0.035320681 0.029975327 0.13917029
-0.037005495 0.026160745 0.13894522
-0.035676725 0.030012084 0.13509917
-0.037053701 0.027531456 0.13494217
-0.0070571145 0.019492533 0.18256283
-0.0093868189 0.015168862 0.18291807
-0.012562106 0.012200431 0.18331915
-0.016159952 0.0080549307 0.18289801
-0.010345771 0.034064531 0.16132975
-0.011781749 0.034479469 0.15640309
-0.014026145 0.03481286 0.15114245
-0.018657681 0.034891069 0.15087041
-0.036032207 0.013343837 0.14952746
-0.015456083 0.035016365 0.14695784
-0.019293647 0.03489548 0.14702466
-0.035386898 0.014890585 0.14500242
-0.020652004 0.034577817 0.14247262
-0.024471905 0.033480346 0.14153415
-0.036564108 0.020024698 0.14220965
-0.036067635 0.016498923 0.14056456
-0.025202652 0.033044375 0.13809854
-0.029078964 0.032723486 0.13763162
-0.036787562 0.021604704 0.13744304
-0.036817089 0.018290844 0.13765514
-0.026445987 0.033508409 0.13336155
-0.030489398 0.032455739 0.13382101
-0.034734767 0.030242607 0.13220119
-0.036767337 0.02488423 0.1327135
-0.037131749 0.021093447 0.13258612
-0.027782556 0.034188312 0.12919766
-0.030983198 0.03272092 0.12863415
-0.034870259 0.030198742 0.12766141
-0.036139145 0.026266512 0.12812236
-0.03118246 0.033376984 0.12466791
-0.034129903 0.030800184 0.12378249
-0.036260329 0.027304787 0.12489277
-0.0047816355 0.010742649 0.18271008
-0.0089328764 0.0081270719 0.18320701
-0.012252044 0.0047557261 0.18302444
-0.010684778 0.035208836 0.15003893
-0.01277788 0.035169974 0.14486098
-0.035637785 0.012389814 0.14264271
-0.013825122 0.034688681 0.14003134
-0.01725146 0.034336619 0.13954431
-0.035995927 0.013528562 0.13816491
-0.020065922 0.033756107 0.13618416
-0.022912033 0.03349242 0.13510582
-0.036561247 0.016324788 0.13462174
-0.036244031 0.01351555 0.13206935
-0.020939086 0.034086823 0.13064691
-0.023650913 0.0339012 0.13136923
-0.03659296 0.017505979 0.12978259
-0.025147315 0.034615569 0.12691435
-0.036330611 0.023732189 0.12649798
-0.036153421 0.020505683 0.12509987
-0.027259387 0.03495644 0.12300682
-0.030996133 0.03388346 0.12244031
-0.034615293 0.030303832 0.12151027
-0.035912462 0.025333313 0.1221379
-0.031354286 0.033745062 0.11781168
-0.034840308 0.030782839 0.11704886
-0.035666678 0.027166603 0.11680776
-0.031721845 0.034538817 0.11428654
-0.035085402 0.030698158 0.11308312
-0.036310185 0.027977161 0.11368239
-0.0029680952 0.0023435033 0.18281174
-0.0056302901 0.004912491 0.18318576
-0.012159453 0.033901654 0.13406917
-0.016393993 0.033397451 0.13340685
-0.01340717 0.033498224 0.13060418
-0.016790371 0.033333607 0.12865862
-0.036129117 0.015921146 0.12653932
-0.036265619 0.011531691 0.12679845
-0.0189029 0.033142388 0.12387577
-0.036015239 0.017095523 0.12324044
-0.036434609 0.013626575 0.12210548
-0.023461986 0.034463711 0.12001306
-0.035643164 0.023288921 0.1192441
-0.036043286 0.019116908 0.11879069
-0.026378561 0.034758054 0.11627233
-0.036053225 0.024274088 0.11544651
-0.036261912 0.020301351 0.11380786
-0.026734814 0.035004754 0.11203879
-0.030730698 0.034210768 0.11114377
-0.034852669 0.031185374 0.1103093
-0.036398321 0.025732204 0.11031806
-0.036801338 0.021906355 0.11064601
-0.031067215 0.034367707 0.10670632
-0.034907233 0.031441092 0.10681015
-0.036535576 0.027813472 0.10720247
-0.031667162 0.034069359 0.10292286
-0.033801004 0.031708349 0.10271382
-0.013162415 0.033478551 0.12758183
-0.01432564 0.032706112 0.12289217
-0.017828764 0.033065323 0.11797005
-0.036029018 0.016341982 0.1160599
-0.036961608 0.01273838 0.11622655
-0.018147094 0.033503782 0.11269164
-0.021632599 0.033695254 0.11334616
-0.036714554 0.01780813 0.11181521
-0.03718036 0.013946633 0.11144185
-0.023555178 0.034104407 0.10825878
-0.036990959 0.019722853 0.10735434
-0.025924928 0.034837507 0.10474324
-0.035859417 0.025104821 0.10340977
-0.036804166 0.021406531 0.10291302
-0.026733052 0.03497263 0.10089058
-0.029439688 0.033575583 0.098965943
-0.033343546 0.030034188 0.099014759
-0.034912881 0.026059026 0.098977208
-0.030456437 0.033312421 0.095949531
-0.03298774 0.030778501 0.095353603
0.0043693581 -0.0048791775 0.1841149
0.0030091687 -0.0035113702 0.18339384
-0.011694626 0.032578614 0.12058204
-0.012988139 0.032982521 0.11653787
-0.014230999 0.033404801 0.11148727
-0.017551947 0.033762343 0.10702723
-0.021201814 0.033808503 0.10533679
-0.037257686 0.013240815 0.10594249
-0.018934183 0.034060925 0.1023497
-0.022267874 0.034297664 0.10219389
-0.036472924 0.018314358 0.10065579
-0.036652684 0.013913335 0.1009801
-0.023206674 0.034002699 0.097752333
-0.035083223 0.024338186 0.09632802
-0.036132045 0.020018347 0.09660387
-0.024256676 0.033103582 0.092613876
-0.029051971 0.033577401 0.092808723
-0.03342136 0.030349519 0.092655718
-0.034991041 0.025611408 0.092014074
-0.035955865 0.020849066 0.092850208
-0.030475995 0.033798624 0.088260651
-0.033739656 0.031347554 0.088596225
-0.034976155 0.027214892 0.087312818
-0.03107518 0.033491433 0.084394693
-0.033392671 0.031735249 0.083823085
-0.03490169 0.028263286 0.083452225
-0.011190391 0.032932553 0.10874289
-0.012193623 0.032834973 0.10463613
-0.014770134 0.033023126 0.1001718
-0.036463089 0.011584825 0.097625375
-0.015198725 0.033157196 0.09597367
-0.018740624 0.03302902 0.094917655
-0.035411965 0.016851729 0.093342185
-0.03586027 0.012981014 0.093679249
-0.021289889 0.032604463 0.09079504
-0.035811484 0.01894309 0.090046048
-0.036108516 0.014558992 0.08882302
-0.023115791 0.032958061 0.086421192
-0.026480993 0.033369046 0.086914301
-0.034905851 0.024377737 0.085270107
-0.035638373 0.020051776 0.085474789
-0.036502875 0.01604295 0.085434675
-0.02381045 0.03331783 0.082453966
-0.027441027 0.033130568 0.081582606
-0.033222698 0.030745683 0.080448508
-0.034665123 0.025134426 0.080870748
-0.035654411 0.021521922 0.081359982
-0.029488225 0.032912884 0.077666044
-0.032486055 0.030812357 0.076551795
-0.034101471 0.027265016 0.076899767
-0.030171802 0.033254482 0.073666096
-0.033037655 0.030969078 0.073388517
-0.010049315 0.032398965 0.10093862
-0.011203399 0.032848317 0.097371101
-0.012928737 0.032988481 0.093117654
-0.013781605 0.032906394 0.088073909
-0.017586097 0.032791693 0.088572979
-0.036704704 0.012138775 0.086877227
-0.019195188 0.033284213 0.084041715
-0.036224373 0.018209802 0.082476497
-0.036993127 0.014088769 0.082321048
-0.020729251 0.033371452 0.079330206
-0.023735695 0.033436757 0.079445839
-0.035990439 0.019707631 0.078481913
-0.036842324 0.015830446 0.077807367
-0.025466779 0.033123747 0.075116158
-0.034443587 0.024639722 0.074659228
-0.035156798 0.021255244 0.073909044
-0.027904011 0.033138786 0.07032758
-0.032383423 0.03151162 0.070598483
-0.034784097 0.026853304 0.070675731
-0.035291605 0.022503864 0.070214629
-0.032219455 0.031626191 0.065871477
-0.034580611 0.02836596 0.065565884
-0.010066598 0.033092532 0.091303885
-0.012552762 0.032944169 0.08198607
-0.013696464 0.033019606 0.07692486
-0.016847027 0.033116709 0.078140736
-0.036634699 0.012788469 0.075558245
-0.018203726 0.033044565 0.073208451
-0.022878855 0.033102442 0.071667612
-0.035036892 0.01832043 0.071749032
-0.036341898 0.01390448 0.071372688
-0.020247912 0.032998558 0.069158912
-0.023866467 0.033145577 0.068131864
-0.034587774 0.024286654 0.066772699
-0.034950349 0.019673398 0.067217588
-0.035956144 0.01579513 0.067200184
-0.025253177 0.03287407 0.063590586
-0.028774014 0.032515172 0.063260674
-0.03385666 0.024932291 0.062637508
-0.034628592 0.020477401 0.063026786
-0.025532365 0.03300463 0.05969125
-0.030356949 0.031698551 0.059088707
-0.033138037 0.028205859 0.058235765
-0.033787142 0.023908436 0.05889833
-0.030744191 0.03152803 0.054468215
-0.033509657 0.028528646 0.053885281
-0.032011345 0.031813227 0.051195383
-0.033674534 0.030004045 0.05104959
-0.010152592 0.032930672 0.075407624
-0.013072076 0.033721291 0.071255565
-0.015893161 0.033309404 0.070068598
-0.013739906 0.033730425 0.067090094
-0.017497983 0.033171631 0.066739321
-0.036235087 0.01362742 0.065582573
-0.036436401 0.011161302 0.064262092
-0.019351916 0.032582272 0.062242448
-0.022030333 0.032906733 0.061835527
-0.03438545 0.019760774 0.06092447
-0.034786794 0.015995774 0.060387254
-0.023717804 0.033001736 0.057231247
-0.034389872 0.021647567 0.05656451
-0.024888365 0.032404289 0.053089857
-0.028456459 0.032242924 0.053088307
-0.034633931 0.027429411 0.052128077
-0.034764029 0.024072466 0.052273095
-0.029815445 0.032146491 0.048061013
-0.033912089 0.028930549 0.047853589
-0.034804959 0.024736231 0.047823489
-0.031753659 0.031927276 0.044847429
-0.033753414 0.029324315 0.04388684
-0.014927283 0.032851562 0.06308949
-0.011898746 0.033368062 0.060075343
-0.016311876 0.032510441 0.059496641
-0.034379348 0.013715685 0.057029486
-0.016907079 0.033003554 0.054906845
-0.021282438 0.032680277 0.054018378
-0.03403623 0.015434814 0.053585708
-0.01827563 0.033443697 0.050700188
-0.02260128 0.032685604 0.049883544
-0.034028452 0.019988805 0.049419403
-0.033991449 0.015674144 0.04892081
-0.019554961 0.033738375 0.047398031
-0.023819428 0.033027314 0.045782685
-0.027445871 0.032332856 0.044727266
-0.034711432 0.022780918 0.044774592
-0.034708306 0.01796573 0.044919372
-0.02411478 0.033428144 0.041801572
-0.029122995 0.032166783 0.041115463
-0.033387192 0.029138584 0.040724158
-0.034588426 0.023678832 0.040556788
-0.026110165 0.033784635 0.037459791
-0.029387066 0.032414541 0.036401391
-0.033246271 0.029223954 0.036682665
-0.034819901 0.02498395 0.036050677
-0.030270725 0.032280169 0.033653259
-0.033281893 0.029427646 0.033650637
-0.034951121 0.026458606 0.032791674
-0.0113756 0.03332096 0.053494334
-0.011696195 0.033019502 0.04887116
-0.015310535 0.033612512 0.048613369
-0.034289967 0.013334454 0.046643138
-0.017395075 0.03379783 0.044105053
-0.034967061 0.015164341 0.042432189
-0.034642495 0.011560568 0.041560471
-0.018284274 0.033786215 0.039667726
-0.022292726 0.033830691 0.039168119
-0.034972392 0.021504555 0.038245082
-0.034721207 0.017226808 0.037917614
-0.023083288 0.03372594 0.034607708
-0.034586277 0.02194622 0.033517361
-0.034780551 0.018410711 0.033412814
-0.025308242 0.033373658 0.03142792
-0.028141921 0.031600308 0.029499173
-0.031953864 0.028370416 0.029023051
-0.034194309 0.024724372 0.029142857
-0.029380534 0.030699376 0.025747657
-0.031602912 0.02821805 0.025512993
-0.011368667 0.033145905 0.04241997
-0.013937978 0.033325072 0.041861773
-0.011622841 0.033717051 0.037593007
-0.015458645 0.033689383 0.037426293
-0.034906149 0.014510191 0.035006404
-0.016282264 0.033852503 0.032880425
-0.035268579 0.015839618 0.031409144
-0.035590429 0.012394602 0.031443417
-0.01826296 0.033709668 0.028589547
-0.021768881 0.03321876 0.028548241
-0.025953379 0.03196229 0.026655257
-0.034008093 0.021884024 0.02727437
-0.03495159 0.017584626 0.02757442
-0.023434063 0.032936584 0.024056733
-0.027282599 0.031566031 0.023758769
-0.031533409 0.028269427 0.023358047
-0.034261983 0.023566695 0.023567796
-0.035510987 0.019301159 0.02225697
-0.027931536 0.031701956 0.01933074
-0.03202638 0.028956736 0.019779325
-0.034709908 0.024608325 0.018642485
-0.035677973 0.020871466 0.017947376
-0.029583802 0.031486981 0.015592933
-0.032624144 0.02955805 0.014306128
-0.034785137 0.026098767 0.014224708
-0.013699354 0.033937793 0.029294789
-0.015087046 0.033620544 0.026035666
-0.034784205 0.014936094 0.02342093
-0.03503003 0.01114488 0.024451673
-0.016573939 0.032540709 0.021489382
-0.020207765 0.032914963 0.021705627
-0.035582133 0.015898053 0.020174682
-0.034956504 0.012921304 0.019029558
-0.022040069 0.032631472 0.017208397
-0.0257836 0.032433167 0.016072452
-0.035854682 0.018391348 0.015408158
-0.022894476 0.032213286 0.012021482
-0.02708617 0.03160011 0.011984289
-0.030567646 0.030356718 0.011127234
-0.034924954 0.024261612 0.01118499
-0.035856124 0.020195477 0.011117876
-0.027478039 0.031774778 0.0075374842
-0.031789925 0.029379059 0.0079759359
-0.034001675 0.024997002 0.0067321658
-0.03532178 0.021006133 0.0080399513
-0.031611338 0.02824359 0.0038554668
-0.013294494 0.032261021 0.019382596
-0.015262287 0.032311894 0.014596522
-0.018366408 0.032350495 0.014837086
-0.034677804 0.012287022 0.013580441
-0.020051319 0.032303665 0.010364532
-0.035124473 0.015960796 0.0090768933
-0.034421146 0.012847219 0.0088683963
-0.02184429 0.032792777 0.0051909089
-0.025093604 0.032376572 0.005810678
-0.034336612 0.022606814 0.0040876865
-0.034900438 0.018773574 0.0041649938
-0.023073105 0.033085376 0.00063228607
-0.02691479 0.032067027 0.0012383461
-0.030574968 0.028912947 0.0008251667
-0.033520035 0.024373299 0.00033026934
-0.01116475 0.032397978 0.01603502
-0.011135108 0.031851895 0.012032032
-0.014277115 0.031934202 0.0088493824
-0.017856669 0.032362901 0.0068862438
-0.03386277 0.010569874 0.0065432787
-0.014650071 0.031780329 0.0045748949
-0.017930988 0.032630727 0.0038036108
-0.034726046 0.015883131 0.0022053719
-0.034372982 0.011918758 0.0016558766
-0.010013067 0.030810622 0.0055747032
-0.011318871 0.031513788 0.0011258721
