# .PCD v0.7 - Point Cloud Data file format
VERSION 0.7
FIELDS x y z
SIZE 4 4 4
TYPE F F F
COUNT 1 1 1
WIDTH 413
HEIGHT 1
VIEWPOINT 0 0 0 1 0 0 0
POINTS 413
DATA ascii
-0.036986385 -0.012843879 0.17997849
-0.035965532 -0.016642939 0.18108082
-0.033502303 -0.021448014 0.18128672
-0.031086911 -0.025416614 0.18093163
-0.029057682 -0.029115051 0.18005016
-0.037589155 -0.017371656 0.17693859
-0.035564963 -0.022112075 0.17656982
-0.032975726 -0.025631737 0.1771253
-0.035199605 -0.0012428742 0.18282154
-0.033703908 -0.0048556728 0.18360105
-0.032087691 -0.0092118988 0.18355632
-0.030249912 -0.013727343 0.18311149
-0.027871778 -0.019554485 0.18277216
-0.025634773 -0.023254247 0.18358544
-0.023636485 -0.027628103 0.18309167
-0.037359361 -0.0014284533 0.18027818
-0.036671016 -0.0060299765 0.18106788
-0.035879035 -0.010396047 0.18097454
-0.032909725 -0.015404442 0.18261927
-0.031172264 -0.020524692 0.18266413
-0.02746422 -0.029727459 0.1805883
-0.038771551 -0.0022086063 0.17665726
-0.03837217 -0.0064984635 0.17581445
-0.037883841 -0.01133483 0.17565009
-0.038503777 -0.014931801 0.1749824
-0.032809537 -0.026212687 0.17469579
-0.029864704 -0.029660977 0.17474777
-0.038686827 -0.0081136022 0.1717867
-0.038492154 -0.011565502 0.17081782
-0.037587229 -0.016871508 0.17119563
-0.035555501 -0.021866094 0.17104492
-0.033206314 -0.025872663 0.17048389
-0.030254008 -0.029621687 0.16949689
-0.027800355 -0.03235672 0.16905263
-0.03945414 -0.01281701 0.16640955
-0.038403586 -0.016986204 0.16622508
-0.036312714 -0.021966401 0.16603601
-0.033496723 -0.025813106 0.16606674
-0.031011404 -0.028969746 0.16614988
-0.039436791 -0.016438279 0.16306412
-0.037801001 -0.020338684 0.1624572
-0.020356048 -0.016808499 0.18279016
-0.019603297 -0.020725369 0.18315655
-0.032783445 0.00090360921 0.18329018
-0.030765934 -0.0035971748 0.18433559
-0.02786736 -0.0073663127 0.18341568
-0.02548247 -0.011789126 0.18247801
-0.024426324 -0.016464625 0.18250138
-0.021960698 -0.025078699 0.18361628
-0.036361184 0.00087283738 0.18124729
-0.038440108 -0.00090329163 0.17373881
-0.037862096 -0.0010296563 0.1692794
-0.03821389 -0.00584576 0.16893601
-0.038463511 -0.0095240306 0.16828874
-0.038099319 -0.0059446478 0.16381446
-0.038824026 -0.010167764 0.16460121
-0.033048145 -0.02549989 0.16295704
-0.030274661 -0.029640358 0.16347444
-0.027482772 -0.033269998 0.16307878
-0.038520485 -0.0074429787 0.16047341
-0.038596585 -0.011425225 0.16017824
-0.038270704 -0.015761608 0.15940827
-0.035781156 -0.021237675 0.15931508
-0.032373533 -0.024824785 0.1592128
-0.030126614 -0.029177418 0.15918425
-0.028054431 -0.033352427 0.15882781
-0.037534088 -0.015262824 0.15558106
-0.036063012 -0.019290613 0.15556967
-0.024757067 -0.00087197125 0.18299732
-0.022992775 -0.0052120239 0.18285966
-0.020901062 -0.009646167 0.18323708
-0.018504553 -0.013688806 0.18310177
-0.015571255 -0.018477703 0.18308598
-0.037318461 0.0013000518 0.166439
-0.037548151 0.00063454825 0.16249493
-0.038273573 -0.0039737355 0.16139919
-0.03826477 -0.00039566215 0.15873283
-0.038145885 -0.0052070245 0.15764251
-0.038091611 -0.009371629 0.15754178
-0.031507961 -0.025433699 0.15642077
-0.029641019 -0.028858403 0.15602273
-0.02767574 -0.033090722 0.15574586
-0.038250338 -0.0059152357 0.15324673
-0.0383115 -0.010399237 0.15356192
-0.03767959 -0.015208106 0.15314329
-0.034980752 -0.020625137 0.15309197
-0.032074787 -0.024682049 0.1528784
-0.029574374 -0.028687077 0.15221
-0.027366521 -0.032825932 0.15175742
-0.038664337 -0.010886125 0.1489037
-0.038256746 -0.015260447 0.14903206
-0.035957281 -0.01970287 0.14877707
-0.033115681 -0.024060592 0.14778009
-0.030130817 -0.027626079 0.14794841
-0.038312111 -0.015413214 0.14459246
-0.03620797 -0.019296084 0.14489776
-0.034538917 -0.021970939 0.14444691
-0.012783314 -0.0068217325 0.18368983
-0.01122498 -0.0095674312 0.18334743
-0.019560682 0.0010025906 0.18280271
-0.017727014 -0.0029241403 0.18299916
-0.016273368 -0.0070266635 0.18344942
-0.0134023 -0.011337464 0.18312311
-0.037377875 0.0017198008 0.15541595
-0.037834428 0.00087197684 0.15085074
-0.03790535 -0.0040946677 0.15092283
-0.03814923 -0.00082287285 0.14687026
-0.038198769 -0.0048477501 0.14657572
-0.038339697 -0.0089044534 0.14635378
-0.031505242 -0.025830742 0.14527816
-0.028711058 -0.028638866 0.14539197
-0.026645802 -0.032095794 0.1452626
-0.038036544 -0.0056937281 0.14225629
-0.03831698 -0.010050524 0.14243579
-0.037875868 -0.014309516 0.14149976
-0.035940308 -0.019045284 0.14183396
-0.032839205 -0.023927487 0.14174634
-0.029586954 -0.028260622 0.14083099
-0.027136059 -0.032328323 0.1402002
-0.03781601 -0.011129756 0.13833618
-0.037226614 -0.014840712 0.13756666
-0.036315881 -0.019002551 0.13733122
-0.033817995 -0.023902198 0.13686466
-0.030631164 -0.028021159 0.13603124
-0.027810901 -0.031629123 0.1366775
-0.036809731 -0.019367518 0.13317567
-0.03534995 -0.023266478 0.13255313
-0.032964975 -0.02649378 0.13248256
-0.012177069 -0.00050525274 0.18299213
-0.010001831 -0.0047619357 0.18352154
-0.0082576936 -0.0095783826 0.18302733
-0.03822355 0.0036664307 0.14840057
-0.038122967 0.0017596716 0.14475617
-0.037368044 0.0013308236 0.14049107
-0.037556969 -0.0036102785 0.13955489
-0.037784696 -0.0077306349 0.1394096
-0.036414616 -0.0046061026 0.13523018
-0.036868874 -0.0086097624 0.13496915
-0.037331633 -0.013061716 0.13530689
-0.028983297 -0.029460516 0.13406965
-0.027044754 -0.032313563 0.13388771
-0.036668181 -0.0096835019 0.13086754
-0.036773622 -0.013742249 0.13063997
-0.036910579 -0.01851739 0.13045657
-0.03512609 -0.024170466 0.13016802
-0.030999022 -0.028237529 0.12990174
-0.026928226 -0.031869236 0.12946802
-0.036729027 -0.014409377 0.12693372
-0.036313716 -0.018709505 0.12602586
-0.03501023 -0.023092773 0.12598959
-0.032276642 -0.026576996 0.12528917
-0.029585805 -0.029402424 0.1258319
-0.03418659 -0.024293877 0.12187922
-0.0034223648 -0.0019012804 0.18289176
-0.0071998457 -0.002683568 0.1833474
-0.037074544 0.0027060835 0.13800585
-0.036966983 0.0028076116 0.13407966
-0.0364911 -0.0027807411 0.13292757
-0.03677262 0.0015532188 0.13002071
-0.036756665 -0.0034490395 0.12837338
-0.036860123 -0.007924078 0.12864643
-0.026751902 -0.031691208 0.12642574
-0.036969882 -0.0048231231 0.12377855
-0.0377202 -0.0086518656 0.12425411
-0.036924765 -0.013258513 0.12430382
-0.036210056 -0.016603976 0.12326992
-0.03036797 -0.027908318 0.12309706
-0.027896367 -0.030898832 0.12313929
-0.038153671 -0.0096365698 0.11936623
-0.037286364 -0.013423018 0.11933345
-0.035751499 -0.017960705 0.11942422
-0.034012474 -0.022170134 0.11905277
-0.031536728 -0.026504677 0.11869746
-0.028603835 -0.030211829 0.1178776
-0.037075251 -0.014014769 0.11545026
-0.036122352 -0.017569413 0.11491513
-0.034174245 -0.022496838 0.11421305
-0.032291718 -0.026055265 0.11391538
-0.029554278 -0.029823691 0.11429304
-0.036572456 0.0004097363 0.12707531
-0.036372297 -0.0012072278 0.12281439
-0.036794595 -0.0024693552 0.11797607
-0.037808359 -0.0070472159 0.11761045
-0.027507065 -0.031606924 0.11529356
-0.036832746 -0.0036611287 0.11398292
-0.037949827 -0.0083945254 0.11292011
-0.037269633 -0.012854254 0.11277944
-0.035744738 -0.018064559 0.11214644
-0.034785748 -0.021544341 0.11188239
-0.031106532 -0.027194846 0.11143792
-0.028315995 -0.030310193 0.11105543
-0.037979905 -0.009745663 0.10911918
-0.037016563 -0.013008861 0.10788286
-0.035980124 -0.017534135 0.10776323
-0.034467466 -0.022107774 0.1078884
-0.031872571 -0.026193857 0.10713714
-0.028703643 -0.029478839 0.10643888
-0.037858225 -0.014606607 0.10240775
-0.036567371 -0.017581573 0.10326356
-0.034636602 -0.021984629 0.10325223
-0.032649338 -0.025508229 0.10356569
0.0071986304 0.0026389966 0.18345454
0.0047959895 0.0016205558 0.18313336
-0.036572915 0.00095988065 0.11721849
-0.037368868 -0.0010550655 0.11194932
-0.037577204 -0.006109871 0.10987967
-0.0374908 -0.002225399 0.10729855
-0.037734948 -0.0077727046 0.10680479
-0.037281375 -0.011874086 0.1052447
-0.027879804 -0.030794278 0.10423559
-0.038005065 -0.007304057 0.10219657
-0.03802399 -0.012694199 0.10202527
-0.037034277 -0.017662561 0.1006487
-0.034387991 -0.021759473 0.10035163
-0.031698857 -0.026111864 0.10051608
-0.028901506 -0.029678226 0.10061383
-0.0380706 -0.008349672 0.097949386
-0.037999161 -0.01302858 0.097336709
-0.036819473 -0.017173711 0.096648276
-0.034250516 -0.021550434 0.096728265
-0.031914812 -0.025440205 0.096297741
-0.028816674 -0.030106217 0.096925914
-0.037473068 -0.014050407 0.09404844
-0.0365046 -0.017102163 0.093170285
-0.036142662 0.0013167132 0.10370153
-0.036325619 4.9635768e-05 0.099762857
-0.036769688 -0.0034655733 0.099740624
-0.036935203 -0.0015347553 0.0953632
-0.036848504 -0.0054658186 0.095082641
-0.036130764 -0.0099546714 0.094008923
-0.029391559 -0.026387306 0.093565941
-0.027209884 -0.028953396 0.092696071
-0.036832012 -0.007875897 0.090451539
-0.036959384 -0.011697453 0.090806544
-0.035745528 -0.01700804 0.090403616
-0.033024233 -0.020783741 0.090664685
-0.030430892 -0.024928235 0.089916587
-0.027554633 -0.028958123 0.08893621
-0.037045456 -0.013047508 0.085958362
-0.035890315 -0.016501341 0.085552692
-0.03351048 -0.02053736 0.085175574
-0.0312283 -0.024815321 0.085005939
-0.028646352 -0.028405696 0.085551262
-0.036113542 0.0023055449 0.096783638
-0.036366705 0.0011331867 0.092972159
-0.036108859 -0.0027713617 0.092098534
-0.036082529 -0.00031046569 0.087904453
-0.036512118 -0.004313862 0.088520706
-0.036760602 -0.0049908403 0.083749652
-0.037022401 -0.009642154 0.084266186
-0.032733168 -0.022089828 0.082764864
-0.030513382 -0.02553542 0.082090318
-0.028415604 -0.029346392 0.083045542
-0.03685331 -0.011321019 0.079285622
-0.036393829 -0.016458584 0.079847813
-0.034431331 -0.020910341 0.079633176
-0.031835061 -0.025078252 0.078877926
-0.029029261 -0.029162949 0.077946246
-0.036122091 -0.016102361 0.074472189
-0.034026112 -0.020511141 0.074147701
-0.032120865 -0.024155103 0.074772
-0.035332009 0.0026167585 0.086759686
-0.03556405 0.0017982218 0.08215934
-0.036236759 -0.0022926545 0.081969321
-0.036116436 0.00071324222 0.07699424
-0.035919659 -0.0034947814 0.07774204
-0.03604747 -0.0082145985 0.077341616
-0.036837544 -0.00032653008 0.073714674
-0.036315121 -0.0036575971 0.073223054
-0.035787951 -0.0085526705 0.0729056
-0.036019038 -0.014533813 0.072125256
-0.033707745 -0.020237278 0.070774972
-0.030638013 -0.024304215 0.071680367
-0.028026469 -0.02853968 0.071950018
-0.03632642 -0.0093807634 0.068321824
-0.036068354 -0.014612878 0.068224251
-0.033833947 -0.020164525 0.067774415
-0.030665968 -0.024369277 0.067364991
-0.027925367 -0.028095018 0.066883564
-0.025837228 -0.031041332 0.067955256
-0.03634318 -0.014409798 0.064430177
-0.034924686 -0.018863412 0.0635373
-0.031763788 -0.023546053 0.063064814
-0.036327094 0.0033467766 0.076430321
-0.036632329 0.0019580992 0.070624173
-0.03650118 -0.0035857968 0.070263982
-0.036492985 0.0008274978 0.066283882
-0.036561083 -0.0033977171 0.066135943
-0.036753945 -0.0076682968 0.066102624
-0.027123827 -0.029671403 0.064414263
-0.036215715 -0.0090240799 0.061950445
-0.03636077 -0.013474548 0.06139195
-0.03426512 -0.020054676 0.060857654
-0.032659542 -0.02292626 0.06046474
-0.028577995 -0.026791541 0.060298979
-0.025620071 -0.030348688 0.060588121
-0.035799224 -0.0098046623 0.057018757
-0.03594375 -0.013832131 0.05744791
-0.034337956 -0.017891251 0.056405902
-0.031946313 -0.022127416 0.05679518
-0.028909493 -0.024767781 0.056084156
-0.036359031 0.0026521143 0.064296126
-0.036465243 0.0026161773 0.059972286
-0.035608195 -0.0026651891 0.060042977
-0.035234835 -0.0066321213 0.058461964
-0.036991064 0.0018069269 0.055297732
-0.0362975 -0.0027244845 0.055371106
-0.035824165 -0.0079063978 0.054757297
-0.035238255 -0.012554208 0.053735733
-0.033023573 -0.019225139 0.053450346
-0.030789874 -0.022306688 0.053158522
-0.027747547 -0.025990037 0.053817093
-0.036899194 -0.0039862012 0.051310539
-0.036134426 -0.007587397 0.050107479
-0.035307061 -0.012871401 0.050221384
-0.034027372 -0.017691586 0.049593329
-0.031416431 -0.02171253 0.049358904
-0.027760832 -0.026043007 0.049050331
-0.025281895 -0.029582346 0.049141705
-0.036483914 -0.0095705967 0.045965433
-0.0361198 -0.013007762 0.045639336
-0.034886431 -0.017858155 0.045058131
-0.031982422 -0.022248652 0.044890583
-0.0290034 -0.025747078 0.045457006
-0.03672301 -0.014874344 0.041389763
-0.035569027 -0.017633675 0.041519761
-0.03391815 -0.020919118 0.042051435
-0.037423585 0.0035574734 0.053031504
-0.036311973 0.002490689 0.048289478
-0.036668401 -0.001922504 0.048436403
-0.036598295 -0.002860711 0.0437361
-0.036754332 -0.0072723576 0.04414475
-0.028819792 -0.026374761 0.042655766
-0.025405169 -0.029997462 0.042343497
-0.03671854 -0.0077737039 0.038825512
-0.03684444 -0.012515884 0.039423823
-0.035093982 -0.018112035 0.03843683
-0.032079432 -0.022038123 0.038570642
-0.028570957 -0.025495056 0.037388206
-0.02578472 -0.029108878 0.038145781
-0.036929671 -0.0092171468 0.034564018
-0.036347866 -0.012951683 0.034374118
-0.034693338 -0.017310522 0.034166992
-0.032280117 -0.021340076 0.033689737
-0.036382228 -0.0011214083 0.041295648
-0.036879718 0.0020301426 0.038096428
-0.036738396 -0.0017552422 0.037966967
-0.036268398 -0.0071613174 0.035559416
-0.027473766 -0.026969833 0.034579873
-0.024993137 -0.029599285 0.035550237
-0.037622046 0.0014618244 0.03404659
-0.037359398 -0.0022639902 0.033084035
-0.037197493 -0.0068474612 0.033353031
-0.036132369 -0.012374644 0.031685889
-0.034322307 -0.01700104 0.030583084
-0.031658262 -0.021329628 0.03085053
-0.028815946 -0.025622405 0.032034397
-0.02546729 -0.029877245 0.031474769
-0.036900077 -0.0034320764 0.028522491
-0.037541576 -0.0073978445 0.029158592
-0.036366209 -0.012091865 0.028308272
-0.034330942 -0.016865412 0.027337193
-0.03210352 -0.021619089 0.027813613
-0.029488176 -0.025720581 0.027248323
-0.026557043 -0.029327843 0.02673012
-0.034025501 -0.01750624 0.024068892
-0.032737624 -0.021667724 0.022428811
-0.030612359 -0.025102086 0.022586584
-0.037346423 -3.578607e-05 0.029996693
-0.036113255 0.0026155803 0.02499187
-0.037056968 -0.0015508942 0.026284814
-0.036161739 -0.0065785176 0.0245893
-0.035821203 -0.0016969237 0.021747589
-0.035805847 -0.006632003 0.021298766
-0.034980576 -0.011629034 0.021143198
-0.033939891 -0.016160673 0.020814896
-0.033402614 -0.019801561 0.019963384
-0.029422168 -0.026151894 0.020013094
-0.025590781 -0.029029761 0.019302964
-0.03459473 -0.0092423651 0.01766336
-0.03384218 -0.016550768 0.01628089
-0.032745533 -0.021212364 0.016623616
-0.029922752 -0.025471065 0.015660048
-0.026083993 -0.028453339 0.015652061
-0.033882227 -0.017253419 0.012329578
-0.032581545 -0.020984931 0.01261878
-0.030378575 -0.024629332 0.012508929
-0.03592132 -8.8007189e-05 0.019528627
-0.035333704 -0.0041011889 0.01884377
-0.036631126 0.0029543573 0.014446676
-0.035943069 -0.00071941596 0.014561057
-0.035410952 -0.0057909205 0.015079618
-0.034293726 -0.010809502 0.014645636
-0.03356126 -0.014139427 0.013999581
-0.02490712 -0.029410556 0.013184369
-0.036269385 -0.0022314815 0.010301948
-0.036025744 -0.0060089165 0.0093696117
-0.034855448 -0.010819815 0.0096503496
-0.034137391 -0.015420486 0.0097812414
-0.032399159 -0.020783547 0.0094632506
-0.029512189 -0.025324939 0.0092157722
-0.025860837 -0.028496008 0.0081638098
-0.03548779 -0.011246845 0.0050444603
-0.034559529 -0.015980855 0.0044624209
-0.032820817 -0.020762092 0.004547298
-0.029902663 -0.024771322 0.0040413141
-0.026910303 -0.02747101 0.0040025711
-0.035120003 0.00077121053 0.0081123114
-0.035394344 -0.00037618261 0.0032864809
-0.035758104 -0.0051138718 0.0035727024
-0.036001455 -0.0091810906 0.003492713
-0.025670934 -0.028111218 0.0017174482
-0.035493821 0.0013860092 0.00082099438
