# .PCD v0.7 - Point Cloud Data file format
VERSION 0.7
FIELDS x y z
SIZE 4 4 4
TYPE F F F
COUNT 1 1 1
WIDTH 398
HEIGHT 1
VIEWPOINT 0 0 0 1 0 0 0
POINTS 398
DATA ascii
-0.028442554 0.010863272 0.18340456
-0.028492877 0.0069415118 0.18356243
-0.028626017 0.0032212466 0.18369764
-0.028378539 -0.0011088895 0.1832206
-0.027737413 -0.0058540129 0.18315327
-0.028036084 -0.010009302 0.18366355
-0.027664049 -0.013964899 0.18324012
-0.030585663 0.015880518 0.18108064
-0.031016963 0.011220038 0.18121958
-0.031460524 0.0071370895 0.18072948
-0.032026038 0.0032770906 0.18075165
-0.031850543 -0.0013336793 0.18044546
-0.031461291 -0.0060639353 0.18022472
-0.03173089 -0.009898942 0.18002948
-0.031116588 -0.013839854 0.17942518
-0.03257433 0.015902607 0.17635998
-0.032701034 0.01140018 0.17610085
-0.032925472 0.0075729452 0.17557678
-0.033235636 0.0034730069 0.17528987
-0.033375163 -0.0011575157 0.17521977
-0.03307547 -0.0056486465 0.17519015
-0.033035159 -0.0097273635 0.17464113
-0.032632828 -0.013677692 0.17419028
-0.033534665 0.014202721 0.1722638
-0.033279214 0.011567554 0.1719721
-0.033634953 0.0074368487 0.17077643
-0.033770084 0.0034910352 0.17043644
-0.033828072 -0.0005815145 0.17028144
-0.03388238 -0.0051177414 0.16980296
-0.034156885 -0.0095794266 0.17001003
-0.033299599 -0.013526049 0.1692138
-0.034483705 0.002451529 0.16703892
-0.03442429 0.00046579394 0.16691974
-0.034314293 -0.0061548208 0.16658965
-0.034559473 -0.0094716912 0.16665366
-0.034060225 -0.01276879 0.16614982
-0.021852596 -0.0066399942 0.18294811
-0.022988014 -0.0099990647 0.18363631
-0.024926715 0.011304981 0.18313798
-0.024749789 0.0076365327 0.18332219
-0.023268087 0.0033650098 0.18253696
-0.022922006 -0.00061669282 0.18213174
-0.023370726 -0.0046275887 0.18230104
-0.032729082 0.016523659 0.16973799
-0.032939162 0.011711054 0.16896582
-0.033314057 0.0084076012 0.16820836
-0.033823218 0.005062337 0.16847095
-0.032247715 0.016559873 0.16417366
-0.03265781 0.01193302 0.16414797
-0.033352885 0.0078971703 0.16453159
-0.034078054 0.0040464182 0.16471463
-0.034315314 -0.00029322493 0.16444021
-0.033853617 -0.0044720718 0.16408837
-0.033637814 -0.0093576908 0.16318828
-0.033265013 -0.013533408 0.16314313
-0.031412549 -0.016329646 0.16260898
-0.033185825 0.014734118 0.16095299
-0.033089776 0.012070493 0.16078082
-0.033495784 0.0080454042 0.16094661
-0.03389791 0.0037900854 0.1603587
-0.033842787 7.037566e-05 0.15999395
-0.033394881 -0.0043398691 0.15917578
-0.033116341 -0.0089062015 0.15956587
-0.033351559 -0.01325017 0.16005197
-0.032042332 -0.015887998 0.15894297
-0.020565391 0.0074327616 0.18256766
-0.019414084 0.0034381256 0.18249804
-0.019581454 -0.00077740499 0.18314081
-0.019268019 -0.0046183281 0.18299353
-0.018550158 -0.0097018247 0.18301001
-0.032618523 0.017357115 0.1624673
-0.032664403 0.01289016 0.15769136
-0.032834325 0.008199363 0.15765139
-0.033284016 0.0045206011 0.15740153
-0.033769269 0.00017860279 0.15715587
-0.033417925 -0.0051431027 0.15668783
-0.03284286 -0.0094177816 0.15682775
-0.032224469 -0.01314399 0.15639618
-0.032824773 0.012754351 0.15421039
-0.032949533 0.0081756255 0.15360725
-0.033305272 0.0043531228 0.15321314
-0.033353958 0.0003362656 0.15310565
-0.033134017 -0.004159085 0.15294001
-0.033014264 -0.0087375864 0.15232354
-0.032228146 -0.012843646 0.15197754
-0.030974559 -0.015711531 0.15252939
-0.033152666 0.0011568316 0.14923048
-0.033042058 -0.0048716119 0.14892596
-0.033032298 -0.0082210088 0.14879769
-0.012462258 -0.00053842011 0.18378839
-0.012394207 -0.0039074421 0.18360722
-0.016356111 0.0075421291 0.18229434
-0.01476109 0.0035104367 0.18283108
-0.015411615 -0.00023537042 0.18360576
-0.014908791 -0.0049207248 0.18306309
-0.032248378 0.013596354 0.15121838
-0.032260895 0.0091789439 0.15069312
-0.030965414 -0.014262985 0.14882493
-0.032150287 0.013385104 0.14699143
-0.032198258 0.0086699277 0.14686
-0.032467093 0.0046194247 0.14692789
-0.032467656 0.00041467074 0.14623994
-0.032293744 -0.0032612665 0.14627218
-0.032618675 -0.0081169074 0.14565128
-0.031395383 -0.012817868 0.14545143
-0.032645755 0.013590025 0.1420978
-0.032608099 0.0087067345 0.14175186
-0.032803316 0.0048287166 0.14153418
-0.032859668 0.00078263308 0.14143628
-0.032858286 -0.0032580751 0.14129248
-0.032857828 -0.0079693506 0.14112523
-0.031883597 -0.012657594 0.14017496
-0.030557208 -0.015382376 0.14091054
-0.03303051 0.00024302849 0.13775906
-0.033431821 -0.0032898383 0.13660115
-0.033722367 -0.0074100308 0.13633838
-0.033244781 -0.010941602 0.13563675
-0.034635901 -0.0070362361 0.13309693
-0.0096538579 0.0036017597 0.18288267
-0.008989539 -0.00076802511 0.1838989
-0.0098893307 -0.0048837774 0.18317416
-0.032839742 0.013679531 0.13998008
-0.032674517 0.010312251 0.13972768
-0.032416616 0.01387791 0.1358313
-0.032182369 0.0091506019 0.13547507
-0.03226912 0.0050834627 0.13540247
-0.032891139 0.0012094013 0.13522881
-0.033629179 -0.0023421389 0.13434497
-0.032460093 -0.013296879 0.13453379
-0.030301094 -0.01608194 0.13369811
-0.032203317 0.0086315721 0.13164735
-0.031886458 0.0038977282 0.13122275
-0.032070741 0.0011758337 0.13127917
-0.033425026 -0.0030870521 0.13087267
-0.034407992 -0.006957673 0.13076052
-0.033622179 -0.011497203 0.13036996
-0.031750713 -0.014569558 0.12854981
-0.033903021 -0.0077928714 0.12527508
-0.033544626 -0.010201418 0.12633911
-0.0035219705 -0.00039052169 0.18302327
-0.0070758206 0.00089507067 0.18372113
-0.03138205 0.014203865 0.12924153
-0.031260047 0.0096635967 0.12843379
-0.031580076 0.00552702 0.128865
-0.031670503 0.0013018274 0.12807184
-0.032010198 -0.0020745678 0.1272732
-0.031448517 0.01416844 0.12388933
-0.031525102 0.0096748173 0.12341195
-0.03158278 0.0055781417 0.12331924
-0.031429462 0.0014941018 0.1230514
-0.032076512 -0.0026196088 0.12344846
-0.03316886 -0.0059092296 0.12386078
-0.033401832 -0.010993293 0.12371594
-0.031358141 -0.014688087 0.12267995
-0.032572336 0.0090944031 0.12038893
-0.032755241 0.0059762103 0.11965954
-0.032304525 0.0019603239 0.11943591
-0.032257218 -0.0024901554 0.11973077
-0.032744203 -0.0065630306 0.11903
-0.033056363 -0.01065921 0.11915326
-0.032042488 -0.013824201 0.11851764
-0.031346593 0.015920591 0.12153685
-0.031377502 0.015366487 0.11862457
-0.031987309 0.010868592 0.11762118
-0.032553025 0.0054766871 0.11684537
-0.032008972 0.0014575886 0.1165421
-0.031824078 -0.0023706071 0.1164515
-0.031913027 -0.0064406805 0.11541539
-0.032192588 -0.010547889 0.11551338
-0.031196032 -0.015117802 0.11581606
-0.030909114 0.015574955 0.11432916
-0.031916909 0.010279027 0.11250317
-0.032529168 0.0059950529 0.11244601
-0.031844158 0.0019148351 0.11172557
-0.031650729 -0.0021913284 0.11142355
-0.032156724 -0.0063190837 0.11171699
-0.031937599 -0.01042157 0.11139286
-0.031105144 -0.014332419 0.11111259
-0.032604165 0.0054608239 0.10856879
-0.032285266 0.0034160865 0.10822707
-0.03194613 -0.0068695592 0.10759467
-0.031830821 -0.0096113896 0.10740471
0.0065335548 -0.00096301199 0.18344918
0.0043950933 -0.00028714957 0.183088
-0.031239714 0.015685294 0.1116724
-0.031637959 0.012264394 0.11091584
-0.030839119 -0.01445102 0.10835999
-0.030949065 0.015883166 0.10749155
-0.031657372 0.011272089 0.10729074
-0.032865234 0.0062120627 0.10684967
-0.032411203 0.0018062535 0.10710096
-0.032366958 -0.0021910779 0.10638857
-0.032553691 -0.0059226532 0.10561752
-0.032384071 -0.010429725 0.10532248
-0.031261683 -0.014583094 0.106188
-0.03108006 0.014670608 0.10361117
-0.032036409 0.01068867 0.10276788
-0.033111896 0.0063829226 0.10246152
-0.032901201 0.0023892922 0.10241151
-0.033085585 -0.0018526437 0.10150921
-0.033149652 -0.0061409436 0.10101241
-0.032973394 -0.0099191666 0.10073555
-0.031682763 -0.014241808 0.10120326
-0.033037253 0.0072490908 0.098125696
-0.0331355 0.0021439148 0.097847581
-0.033023305 -0.0013591746 0.097337663
-0.033144493 -0.0055014123 0.097309709
-0.032693267 -0.010313994 0.096758068
-0.03183578 -0.012751966 0.097418785
-0.030935168 0.012981662 0.10012138
-0.030829413 0.012265442 0.095351994
-0.031396661 0.0078590382 0.094110131
-0.031226788 0.0026130332 0.093391716
-0.031298518 -0.0015474657 0.093321085
-0.031424098 -0.0057074218 0.093297899
-0.031272769 -0.0098560043 0.09303087
-0.030385189 -0.014213026 0.093855143
-0.031003783 0.011035515 0.09146136
-0.031848297 0.0070376596 0.090520859
-0.03178801 0.0027283586 0.090134323
-0.031556673 -0.0014164223 0.08954525
-0.031468749 -0.0055762939 0.089334786
-0.031498943 -0.0097384593 0.08922863
-0.030910287 -0.013497617 0.088872731
-0.03217297 -0.0068554776 0.08590126
-0.032488294 -0.0092778923 0.085603476
-0.030946562 0.012700477 0.089202523
-0.031209521 0.009308096 0.088238418
-0.031279311 0.002837419 0.087423742
-0.030237539 -0.015233277 0.086926877
-0.031306081 0.012753316 0.083722055
-0.032172509 0.0085177887 0.084367871
-0.03250679 0.0036269017 0.084514976
-0.032293543 -0.0012326095 0.08417058
-0.032215018 -0.0052192854 0.083722293
-0.032454424 -0.0098179551 0.082833707
-0.031553864 -0.013725882 0.083112121
-0.031425834 0.011520566 0.079737127
-0.031865563 0.008370948 0.079528928
-0.032431383 0.0037848519 0.080406189
-0.032261152 -0.00064796302 0.078953266
-0.032805 -0.0054030647 0.078681707
-0.032902479 -0.0094023813 0.078392208
-0.032150693 -0.013382068 0.078166604
-0.030589955 0.013305283 0.077813327
-0.031610675 0.0094957286 0.077807963
-0.03153491 0.004604267 0.077587128
-0.031156898 -0.0022993514 0.074991226
-0.031692471 -0.0037179573 0.075435877
-0.031235985 -0.01348776 0.074717402
-0.031211462 0.013195574 0.073475361
-0.031202316 0.0089853937 0.073336959
-0.030779958 0.0047984906 0.072821379
-0.030803664 0.00058905425 0.072713494
-0.03107311 -0.004292279 0.071787596
-0.031359009 -0.0092044063 0.07189852
-0.030685646 -0.013602922 0.071584582
-0.031924214 0.013369676 0.069008887
-0.031815596 0.0091584409 0.068780422
-0.031350479 0.0049666013 0.068223357
-0.031645264 0.00058974879 0.06759119
-0.031763997 -0.0037309309 0.067518115
-0.031687975 -0.0085392212 0.066909432
-0.031485457 -0.012221919 0.067310691
-0.032607026 -0.0033352189 0.06399107
-0.032370277 -0.0082447305 0.063622713
-0.03248293 0.013465979 0.066443086
-0.032336149 0.0092540048 0.066179454
-0.032189474 0.0050427411 0.065916002
-0.032101698 0.0022348736 0.065749645
-0.030593941 -0.01407274 0.065504253
-0.031944089 0.013634128 0.062847435
-0.032159023 0.0092452038 0.06213975
-0.032085605 0.0052067931 0.061691642
-0.032482371 0.00096163701 0.061936915
-0.032993264 -0.0032447677 0.061257124
-0.032921843 -0.0074608745 0.061064541
-0.031560507 -0.011845743 0.060431898
-0.029899172 -0.014969613 0.060424984
-0.031941228 0.0053730328 0.057414651
-0.032283783 0.001119849 0.057611585
-0.032181449 -0.0031103827 0.057389796
-0.03246418 -0.0073489947 0.057530761
-0.031492967 -0.010142827 0.056532204
-0.030798504 0.013841897 0.058670163
-0.0310796 0.010993682 0.058849454
-0.030937314 0.01396687 0.055679739
-0.031399369 0.0096877012 0.055988967
-0.031514831 0.0055148671 0.053889513
-0.03137413 0.0012728707 0.053631425
-0.031094313 -0.0029636915 0.05324167
-0.031281352 -0.0072148172 0.053293586
-0.030464377 -0.01147913 0.053785026
-0.030933635 0.014146712 0.051499367
-0.031302352 0.0097173722 0.050933719
-0.031669226 0.0056675328 0.049856067
-0.031588249 0.0014144706 0.049654901
-0.031469822 -0.0028358873 0.049417913
-0.031125784 -0.0070784716 0.04896605
-0.030390859 -0.011514417 0.048921227
-0.029195003 -0.014216691 0.050063133
-0.031866688 0.005777976 0.046899796
-0.03191977 0.0011771462 0.046292186
-0.032122597 -0.0027183779 0.045849085
-0.031928811 -0.0069704358 0.045540035
-0.031361207 -0.010534986 0.045942903
-0.03066659 0.01429992 0.048099637
-0.031027334 0.011429512 0.048361421
-0.030829363 0.014470499 0.044042706
-0.031271186 0.010163784 0.044344783
-0.031506095 0.0059183799 0.043394983
-0.031644139 0.0019320747 0.043203235
-0.031910881 -0.0026034038 0.042487562
-0.032001257 -0.0068729888 0.042452931
-0.031121032 -0.011362706 0.042980015
-0.029151933 -0.01456435 0.042015195
-0.030911259 0.013215934 0.039853871
-0.030904565 0.010379096 0.03923595
-0.031020846 0.0061058826 0.038696766
-0.031072497 0.0018182532 0.038625538
-0.031161752 -0.0024674763 0.038590789
-0.031936679 -0.0067364452 0.038162827
-0.03142333 -0.01099933 0.037541986
-0.029931102 -0.013849647 0.037070811
-0.032048568 -0.0073207454 0.03400898
-0.031757303 -0.0094543044 0.033663392
-0.030404296 0.015020862 0.038137913
-0.030908244 0.010443226 0.037648618
-0.030965414 0.0062310267 0.035457492
-0.030695455 0.00051922264 0.03503263
-0.030799117 -0.0023457359 0.035053372
-0.031402998 0.014887697 0.033996463
-0.031579971 0.010576446 0.03404969
-0.031765785 0.0063117002 0.033046365
-0.031257138 0.0021902244 0.033231199
-0.031345829 -0.0022585706 0.032394052
-0.031651497 -0.0061861677 0.032051802
-0.031438965 -0.011123098 0.032024622
-0.029433899 -0.015125574 0.031223655
-0.031984705 0.014891937 0.028762281
-0.032066245 0.010988768 0.02873522
-0.031986289 0.0063152988 0.02818203
-0.031744786 0.0021723909 0.028633416
-0.031516008 -0.0021205549 0.028288007
-0.031926923 -0.0064001121 0.027503669
-0.031845331 -0.010696969 0.02730453
-0.030584898 -0.014054239 0.027394176
-0.032455701 -0.010585778 0.023622811
-0.030534932 0.016034929 0.024588346
-0.031515703 0.010209056 0.025405228
-0.031625338 0.008044973 0.025455117
-0.030761106 0.0023334257 0.024438024
-0.030275907 -0.0019631668 0.023837149
-0.028864197 -0.015217915 0.023793221
-0.030676603 0.015059189 0.022003233
-0.031110151 0.011084861 0.021787822
-0.031106114 0.0067586363 0.021666467
-0.030691573 0.0024536971 0.021134555
-0.030399034 -0.0018582604 0.020724535
-0.031246254 -0.0061748927 0.020374537
-0.031204972 -0.010484078 0.019946575
-0.029347198 -0.013853067 0.019706368
-0.030470252 0.0098092891 0.017862558
-0.030548368 0.006913106 0.017863154
-0.030493651 0.0040253312 0.017730176
-0.030727131 -0.0026999186 0.017060399
-0.031269141 -0.0063831471 0.015518963
-0.031499404 -0.0096512679 0.016207159
-0.029698644 0.015743462 0.015067875
-0.030439956 0.011538308 0.015432119
-0.030604567 0.0070350952 0.014662504
-0.030218124 0.0025009201 0.014965773
-0.030282957 -0.0011641717 0.014480293
-0.030737095 -0.0052307011 0.013380647
-0.030377014 -0.010658032 0.013415337
-0.028275643 -0.014233353 0.013137996
-0.030694894 0.015527614 0.0098319054
-0.031079445 0.011572985 0.0098076463
-0.030681508 0.0072403229 0.0092862844
-0.030462027 0.0028969259 0.0089477301
-0.031086139 -0.0014806532 0.0094699264
-0.0312718 -0.0058331252 0.0095444918
-0.03087105 -0.01016548 0.0090212226
-0.029155664 -0.013403324 0.0077328682
-0.031434774 0.011729358 0.0057899356
-0.031213863 0.0088339578 0.0054873228
-0.030908857 0.00158037 0.0049848557
-0.03141807 -0.0013458898 0.0054323673
-0.031652518 -0.0056724511 0.0044623017
-0.031351652 -0.0096704364 0.0045980811
-0.028442197 -0.014463662 0.0064293146
-0.031401105 0.011798677 0.0041074753
-0.030774746 0.00716312 0.0036718249
-0.030356476 0.0033992014 0.0031430125
-0.031100955 -0.0012593933 0.0029091835
-0.030693309 -0.010694501 0.0022442937
-0.029148409 -0.01376412 0.0023338199
-0.030393617 0.016100343 -0.00046652555
