# .PCD v0.7 - Point Cloud Data file format
VERSION 0.7
FIELDS x y z
SIZE 4 4 4
TYPE F F F
COUNT 1 1 1
WIDTH 529
HEIGHT 1
VIEWPOINT 0 0 0 1 0 0 0
POINTS 529
DATA ascii
0.035488531 0.030160075 0.17838043
0.032472055 0.032512654 0.17795545
0.036655411 0.031195791 0.17577195
0.033776164 0.033494502 0.1757504
0.037508447 0.031884987 0.1728597
0.035123397 0.033798415 0.17254457
0.036819026 0.019870929 0.18062845
0.034550902 0.022725739 0.18107569
0.0312839 0.025995018 0.18131459
0.026822124 0.02910177 0.18104911
0.02376328 0.031332005 0.17874056
0.038756303 0.021342993 0.17794561
0.03716588 0.025309997 0.1788969
0.033646382 0.028319262 0.17942047
0.029237321 0.031847116 0.17829636
0.024587732 0.03205131 0.17671543
0.040044215 0.022633966 0.17403179
0.038911942 0.026858296 0.17496538
0.030390738 0.03403198 0.17373195
0.040870197 0.024042353 0.16921023
0.039889216 0.027547764 0.17028275
0.03775312 0.03190314 0.1693477
0.032803807 0.034413841 0.16916683
0.052006543 0.018548882 0.16306061
0.048174869 0.021725003 0.16338357
0.04173379 0.024735752 0.16627875
0.040266629 0.027647616 0.16612452
0.03721837 0.031059781 0.16505307
0.033321992 0.033681631 0.16522676
0.056444611 0.01734693 0.15920231
0.053743474 0.018798076 0.16058695
0.050585039 0.022183603 0.16055149
0.057209171 0.018080696 0.15807796
0.055720031 0.018696131 0.15761131
0.028979242 0.017593529 0.18309441
0.025872011 0.02051717 0.18332633
0.022585791 0.024139639 0.18301135
0.01816001 0.028618438 0.1826748
0.014610506 0.031062685 0.18249956
0.011720031 0.033572741 0.1812968
0.037174162 0.013439565 0.17987698
0.035301626 0.016318064 0.18122914
0.031764515 0.019885775 0.18218508
0.028356019 0.023010619 0.18208778
0.023932686 0.026202252 0.18208677
0.020975588 0.030983297 0.18024808
0.017132953 0.033226207 0.17968833
0.012871238 0.034380771 0.17890272
0.038887359 0.015331526 0.17687836
0.039101798 0.018257279 0.17678046
0.023162436 0.033349998 0.17542577
0.018480461 0.03473061 0.1747123
0.014618407 0.035056371 0.17509201
0.040427826 0.016994052 0.17138991
0.040192574 0.019606218 0.17196053
0.024556689 0.033890706 0.17111826
0.020525672 0.035021093 0.17003539
0.042517807 0.017967641 0.16695991
0.041349806 0.021103647 0.16814485
0.025774051 0.034868941 0.16664445
0.02175555 0.035197739 0.16667193
0.050428942 0.01557993 0.16425747
0.046407871 0.01908917 0.16482881
0.043470666 0.023937231 0.16377228
0.040245656 0.027370531 0.1625278
0.037005965 0.030189093 0.16198426
0.031767391 0.033518501 0.16294411
0.027655683 0.034320921 0.16226441
0.052800506 0.020168751 0.15866676
0.047955565 0.02348806 0.15914088
0.044721778 0.025084276 0.15871379
0.040998764 0.0278439 0.15811181
0.036990166 0.030554036 0.15771291
0.033006594 0.032398656 0.1578398
0.05438729 0.019609343 0.15527779
0.050080068 0.022583373 0.15470695
0.045523439 0.025267337 0.15417489
0.041317612 0.027859524 0.1536473
0.038562097 0.030202679 0.15364724
0.054867618 0.019400774 0.15008402
0.050909337 0.022381838 0.14964402
0.056100771 0.0198787 0.14674324
0.053432908 0.022139933 0.14690512
0.013479648 0.022225475 0.18284732
0.0095525654 0.02599021 0.18259475
0.030362526 0.011972887 0.18252608
0.027126925 0.014669513 0.1834681
0.023284025 0.017862257 0.18374375
0.019387458 0.021029599 0.18280348
0.016442798 0.024749171 0.18266252
0.01254925 0.029042944 0.18342391
0.012870894 0.034839675 0.17279795
0.0175512 0.034871049 0.1677101
0.013405792 0.03437398 0.16816807
0.042779472 0.013881654 0.16591164
0.019472938 0.034559406 0.16343749
0.024333648 0.033719927 0.15928003
0.02132282 0.034324169 0.1586847
0.032007053 0.032792121 0.15494636
0.026580354 0.03283279 0.15550777
0.044406679 0.025313821 0.15124214
0.041261956 0.027590819 0.15070388
0.037092064 0.030751048 0.15129769
0.032906689 0.032581925 0.15102169
0.028900715 0.032677181 0.15053913
0.048379522 0.023614209 0.14780831
0.044765741 0.024261184 0.14719796
0.040906858 0.026917029 0.14646894
0.037542276 0.030135274 0.14625645
0.033725243 0.032131817 0.145868
0.055547856 0.02007548 0.1440236
0.050409526 0.02233585 0.1433939
0.045244057 0.024069551 0.14225897
0.04104232 0.026792524 0.14272666
0.038181227 0.029422741 0.14249611
0.055399608 0.018743526 0.13903022
0.051616888 0.020733315 0.1396656
0.057247397 0.018374588 0.13485843
0.022406038 0.010131411 0.18287474
0.019177772 0.013537202 0.18279546
0.015598252 0.016615003 0.18333474
0.011830972 0.020068463 0.18276453
0.0069477232 0.022760242 0.18293715
0.011214417 0.034093108 0.16508794
0.01627782 0.03377426 0.1606057
0.013217431 0.034514464 0.16090146
0.017422719 0.033599578 0.1564393
0.013788934 0.034408513 0.15688002
0.023526477 0.032891802 0.15261552
0.020039959 0.03356063 0.15211603
0.02565814 0.033121537 0.1493797
0.022373756 0.033878542 0.14743105
0.032284722 0.032739438 0.14353898
0.027642436 0.033266757 0.14454985
0.023880407 0.033919696 0.14482617
0.044488199 0.024534933 0.13966584
0.04112009 0.02667143 0.13988137
0.037412543 0.029894624 0.1398989
0.033438422 0.032178745 0.13946876
0.029666409 0.033243239 0.13953918
0.053696208 0.019249873 0.13625845
0.050233301 0.021029938 0.13695955
0.045759127 0.023633888 0.13593915
0.041373886 0.026606955 0.13524932
0.037816193 0.029654002 0.13485509
0.034017958 0.031956524 0.13540429
0.055256687 0.019009089 0.13289705
0.051577825 0.021236252 0.13231036
0.047133364 0.023293935 0.13144311
0.056263261 0.018725591 0.12839401
0.052090898 0.020870015 0.12811473
0.0096945781 0.010571312 0.18366143
0.0061300863 0.013667215 0.18330073
0.01825867 0.0057848417 0.18285561
0.015482423 0.0097313384 0.18320203
0.01162457 0.012543782 0.18350658
0.0084866667 0.016490988 0.18295532
0.011356022 0.033245794 0.15356106
0.016858272 0.033269167 0.15039933
0.013137057 0.033344511 0.148581
0.017825086 0.033414271 0.14530259
0.014949598 0.033858392 0.14500472
0.021475291 0.033812776 0.14143023
0.017150484 0.033640176 0.14128381
0.026885271 0.033464041 0.13821292
0.022679122 0.034226038 0.13702506
0.033238657 0.031980388 0.13244277
0.028216567 0.033470657 0.1333473
0.02454786 0.034469359 0.13263199
0.044897601 0.02418825 0.1292676
0.041243196 0.026038764 0.12919301
0.037623636 0.029044248 0.12874469
0.033843152 0.031604663 0.12823549
0.029071892 0.033497043 0.12855545
0.054978877 0.018544778 0.12516055
0.05147621 0.021015352 0.1252749
0.046513081 0.02328025 0.12489301
0.041923046 0.026378615 0.1239709
0.03829604 0.029392051 0.12352061
0.034196481 0.031630658 0.12353745
0.03077917 0.033066228 0.12517273
0.056063604 0.018271547 0.12176454
0.051908009 0.020647533 0.12071019
0.047074221 0.022869991 0.12075847
0.042296354 0.026513521 0.12038755
0.039293278 0.029707346 0.11958897
0.056655325 0.018452717 0.11638772
0.053052116 0.019988205 0.11649334
0.057834931 0.018281519 0.11306995
0.01132255 0.0051107588 0.18350169
0.0067026648 0.0075089154 0.18382874
0.0036405327 0.011115585 0.18297911
0.013275349 0.033742834 0.14268941
0.014713416 0.033865206 0.13872778
0.011251561 0.034268804 0.13763067
0.021009559 0.034911215 0.13434803
0.017258072 0.034493618 0.13412464
0.021927707 0.034735106 0.13053602
0.018182298 0.034846701 0.13030493
0.027788049 0.034584314 0.12625164
0.023641614 0.034234602 0.1260944
0.033408001 0.032134563 0.12130302
0.028740831 0.033341222 0.12205946
0.025347892 0.034111787 0.12184244
0.046024799 0.022689313 0.11745286
0.042245775 0.026240826 0.11732495
0.039035778 0.030298907 0.11713624
0.034395192 0.031797361 0.11780065
0.030163966 0.03277763 0.11827493
0.051679119 0.020640654 0.11413604
0.046802148 0.021555737 0.11342347
0.04180121 0.026085142 0.11361158
0.039118998 0.029108321 0.11338377
0.034920134 0.031316251 0.11364144
0.05679132 0.018390479 0.11004996
0.052754123 0.019894149 0.10980439
0.0022274123 0.0029022808 0.18365926
0.0077635078 0.0028797521 0.18336338
0.012901903 0.033560276 0.13527638
0.013634467 0.034130812 0.13209003
0.01066821 0.034191545 0.13251579
0.015880302 0.034331769 0.12719738
0.011629689 0.034189414 0.12819999
0.020968517 0.034288779 0.12347668
0.018043276 0.033556774 0.1225484
0.022294031 0.033501823 0.11895531
0.018377621 0.033702061 0.11891872
0.028003372 0.03265572 0.11511427
0.024659021 0.032982606 0.11412913
0.04436997 0.022312496 0.11164749
0.041966267 0.02437515 0.11137956
0.037190672 0.029722083 0.11147749
0.033319518 0.031192051 0.11128205
0.028769897 0.032112576 0.11030018
0.050918113 0.020016801 0.10690236
0.046414055 0.021899076 0.10815841
0.041913692 0.02521975 0.10786837
0.038665228 0.028723955 0.1078707
0.034560058 0.031281997 0.1069212
0.031127224 0.032299146 0.10653919
0.05206769 0.019432247 0.10364074
0.046655457 0.021629769 0.10297555
0.042278524 0.024705295 0.10339236
0.038457047 0.028219769 0.1035772
0.035403736 0.03077027 0.1031996
0.052216448 0.018701604 0.099899411
0.049246259 0.020775335 0.099812627
-0.0007639472 -0.00071490143 0.18412894
0.014351434 0.033190463 0.12140232
0.010874817 0.03307052 0.12049323
0.020351082 0.033261731 0.11586034
0.015663188 0.033108976 0.11621779
0.011336006 0.033358198 0.11697817
0.021648012 0.033261742 0.11265111
0.017348073 0.033191223 0.11148536
0.026917951 0.032614894 0.10734421
0.02291174 0.033115327 0.10738146
0.018844659 0.033567473 0.10737234
0.028442718 0.032333627 0.10382116
0.024340682 0.032819293 0.10341758
0.04605094 0.022107426 0.10069698
0.041778523 0.024134513 0.10002828
0.038032912 0.027541598 0.10003686
0.033913404 0.030488409 0.099693596
0.030305296 0.031946525 0.099405706
0.054305259 0.016561124 0.096491992
0.051363252 0.018580286 0.096688509
0.047123987 0.020883743 0.096455216
0.042722199 0.02320483 0.096193671
0.037462015 0.027263489 0.096110404
0.03385203 0.029862961 0.095942378
0.051825102 0.017939564 0.092091918
0.047945414 0.020008031 0.092734218
-0.010264946 -0.0032947902 0.18821582
-0.0051975399 -0.004090108 0.18455046
-0.0033145151 -0.001616329 0.18403131
0.013584844 0.033195544 0.11417985
0.014651488 0.033508282 0.11049139
0.011626391 0.033878468 0.11003906
0.016676178 0.033583604 0.10564584
0.022699933 0.033297718 0.10078543
0.018441834 0.033993904 0.10144764
0.027513275 0.032053795 0.097022951
0.023944704 0.032800801 0.09658879
0.01950109 0.033731896 0.097927749
0.041174233 0.024002835 0.093508065
0.038068317 0.02667506 0.09346056
0.034096655 0.029936884 0.093135893
0.0293264 0.031634208 0.092593729
0.050403401 0.018855162 0.089527369
0.047413103 0.020756729 0.090264261
0.04273342 0.023619879 0.089696765
0.038495764 0.027297409 0.089240313
0.034793403 0.030377593 0.088771641
0.03095511 0.031916525 0.08781302
0.052581385 0.018600596 0.086631775
0.048313543 0.021010101 0.085479081
0.043834206 0.024100188 0.084751368
0.039481748 0.027483102 0.083685935
0.035807539 0.030436935 0.0836519
0.031873833 0.03169154 0.08380115
0.05351359 0.019179184 0.081454933
0.049683437 0.022106215 0.08082521
0.045518596 0.023986865 0.079725027
0.054291282 0.019085366 0.077316344
0.050389558 0.021942357 0.076604068
0.013874967 0.032899775 0.10237104
0.010621308 0.032542795 0.10290951
0.014660854 0.032913074 0.098336279
0.011397629 0.032497805 0.097837687
0.02083917 0.032588113 0.094097018
0.01668347 0.032998897 0.094006002
0.022091556 0.031625107 0.0900442
0.018669963 0.032478441 0.089833796
0.027831184 0.031771876 0.086574078
0.023834502 0.031467553 0.085566759
0.033384144 0.030765383 0.081148028
0.028893983 0.031589523 0.081376553
0.025498947 0.031989947 0.081339002
0.043289308 0.024489481 0.077409208
0.039666004 0.026099347 0.07760334
0.034603089 0.029447138 0.077097297
0.030396013 0.031341702 0.077384591
0.052631691 0.018023372 0.073029757
0.049044654 0.020798065 0.072657585
0.044923656 0.023602061 0.073819637
0.039597526 0.026311465 0.07298857
0.034650695 0.029869555 0.073802769
0.052901037 0.017513536 0.069036245
0.048650488 0.020756686 0.069858611
0.045785557 0.022664633 0.070078075
0.01447027 0.032916024 0.090737283
0.010587255 0.032922372 0.091606259
0.016375232 0.033016995 0.087541282
0.012595656 0.033103496 0.085764587
0.021266282 0.0318712 0.083423734
0.017688576 0.033428639 0.08272922
0.022906991 0.032194871 0.078670681
0.019400086 0.033517137 0.07807219
0.028760798 0.031833977 0.074678898
0.024451349 0.032085191 0.074367166
0.035640612 0.028964266 0.071001172
0.030410746 0.031742197 0.07083112
0.026496405 0.03241536 0.070967317
0.048908196 0.020231433 0.067165852
0.044329256 0.023305142 0.067532778
0.04078662 0.025876123 0.067551017
0.03598009 0.028707735 0.066474438
0.032521781 0.030625993 0.06480062
0.05312667 0.017342351 0.063953638
0.049221668 0.020264152 0.06326592
0.045175612 0.023037039 0.062411547
0.041271798 0.025675604 0.062155724
0.036687605 0.028323233 0.062385499
0.05359859 0.016973779 0.059087455
0.049895003 0.019467922 0.059103012
0.011167715 0.032812349 0.080358088
0.016692141 0.033638023 0.076188803
0.013528156 0.033576172 0.076393783
0.022480946 0.031867247 0.071415782
0.017384006 0.032558829 0.07158345
0.013773147 0.033579763 0.071425855
0.023812674 0.03186854 0.068091631
0.020208852 0.032233458 0.066710353
0.029476125 0.030351158 0.063372016
0.025736375 0.031182943 0.062667549
0.021711729 0.0318425 0.063768506
0.040337998 0.026011843 0.059139371
0.036367476 0.027761986 0.058788359
0.031994313 0.030013392 0.058740497
0.027691076 0.031383973 0.058765531
0.053052172 0.017224072 0.056110024
0.048945554 0.01975642 0.056037009
0.044994392 0.022360571 0.055729449
0.040976245 0.025209565 0.054929197
0.036961962 0.028075008 0.05414027
0.032171499 0.030544441 0.054147005
0.028848076 0.031585447 0.055418789
0.053415172 0.016624456 0.051315069
0.049535021 0.019319275 0.051099777
0.045432203 0.022466704 0.050859094
0.04147163 0.02539628 0.050134182
0.037587229 0.02842148 0.049510479
0.03349508 0.03088541 0.050735891
0.054656874 0.01725829 0.046434104
0.049768746 0.019591058 0.046974301
0.04594373 0.022733629 0.047148347
0.04261807 0.025230091 0.047603607
0.010471615 0.032754358 0.074222505
0.012447682 0.032715786 0.068666101
0.01737823 0.032246482 0.065589786
0.014382483 0.032722771 0.065145195
0.019990928 0.031897403 0.060726464
0.024898872 0.031404175 0.056709111
0.021594575 0.031891797 0.055960715
0.027176067 0.032074645 0.05261761
0.032921184 0.031176588 0.047737479
0.028997554 0.03246427 0.047665834
0.049104158 0.019879524 0.04429096
0.046381705 0.022996813 0.04442668
0.041910198 0.025827963 0.044824302
0.038140252 0.028686695 0.044768691
0.033772681 0.030435514 0.043812513
0.030078549 0.032174114 0.043964982
0.054938283 0.017835919 0.041888416
0.050417934 0.019517679 0.040946126
0.046360068 0.022359611 0.04010129
0.041817926 0.025115654 0.040755451
0.03832927 0.027384412 0.039929986
0.051658601 0.018387439 0.036569953
0.010272685 0.0321525 0.065564215
0.012003851 0.03194705 0.061797917
0.016645489 0.031148361 0.058356643
0.013020285 0.031734187 0.058222055
0.018089021 0.031430826 0.053947091
0.014356956 0.031549729 0.053585827
0.024885813 0.031904202 0.049061954
0.020716826 0.031649455 0.049566269
0.025589231 0.03242211 0.045585692
0.021648206 0.032171465 0.044749856
0.031883255 0.030679109 0.040697873
0.028113915 0.032354672 0.040767848
0.02355561 0.032488655 0.041236758
0.048423048 0.019846413 0.037535846
0.04478417 0.023191702 0.037242651
0.041631296 0.024678506 0.037220836
0.037309393 0.027652638 0.036742508
0.033375394 0.030086633 0.036605835
0.028371355 0.032366809 0.036353946
0.054118361 0.016420882 0.03355211
0.04998133 0.019086901 0.033555448
0.046145245 0.021630766 0.033197761
0.041796215 0.024561556 0.033015609
0.037688665 0.02740849 0.032138586
0.03379887 0.030057061 0.03191793
0.030328784 0.031817418 0.033351421
0.050528035 0.018999008 0.028792262
0.046197094 0.021660009 0.028725028
0.042449027 0.024407761 0.029608786
0.03832845 0.027906921 0.029638767
0.051424958 0.018513434 0.025863469
0.0098539069 0.031267256 0.055490434
0.011481701 0.031514656 0.051350236
0.016583193 0.030481096 0.046443343
0.01376304 0.030853108 0.047428429
0.018020965 0.031726561 0.042735934
0.021752164 0.032296617 0.038445055
0.026021246 0.032168716 0.033024549
0.023005042 0.032488868 0.033907831
0.031699974 0.030668261 0.030335546
0.028085839 0.031300757 0.029529929
0.045494992 0.021954123 0.026324034
0.041835509 0.024633354 0.026476085
0.03820252 0.027552802 0.026147008
0.033494711 0.029529242 0.026051521
0.029543674 0.030583693 0.025737762
0.054481838 0.016637009 0.022384524
0.050482653 0.018828511 0.022700787
0.046232626 0.021214299 0.022057533
0.041852217 0.023469578 0.021255851
0.037953533 0.02702418 0.021922469
0.051315602 0.018169884 0.017707467
0.046656966 0.021373356 0.018117964
0.0097298864 0.030785119 0.047808409
0.01095401 0.030052848 0.043904901
0.013994182 0.031162458 0.041054368
0.017641183 0.03104753 0.036823213
0.014586512 0.031739194 0.036004364
0.018885044 0.032086428 0.032855809
0.015753707 0.032202832 0.031434655
0.02515782 0.030998472 0.027537704
0.021287335 0.032155626 0.027692378
0.031945817 0.029246096 0.022154629
0.02712157 0.031195506 0.02387166
0.023142187 0.032050546 0.023038864
0.041185334 0.024134189 0.01846385
0.038019743 0.026109893 0.019084096
0.033193879 0.029176546 0.019669294
0.028337996 0.031359136 0.018989801
0.049760737 0.018740455 0.014899731
0.046892747 0.020803435 0.015221655
0.042398103 0.024017066 0.015924215
0.037749968 0.026694834 0.015393496
0.033704106 0.029105823 0.014817297
0.029363312 0.031568386 0.014899373
0.051411435 0.018637722 0.011922538
0.047125943 0.021714777 0.01186198
0.043192141 0.02452857 0.011324704
0.039090749 0.026672747 0.010724664
0.035539567 0.028658001 0.011107445
0.051859424 0.018720612 0.0068209171
0.047773007 0.021747541 0.0071321726
0.043592855 0.024671385 0.0073193312
0.0098647298 0.030210685 0.032696605
0.011988696 0.03131146 0.028191328
0.015790984 0.032140266 0.024553955
0.020068845 0.03202828 0.020137012
0.016485143 0.032210819 0.019991159
0.02249293 0.031675041 0.016217053
0.017159253 0.031923026 0.016630292
0.031348366 0.029167177 0.010910153
0.028128922 0.031172704 0.010941744
0.023387369 0.03153326 0.011627078
0.037152279 0.026874769 0.0074224472
0.033258181 0.028524546 0.0077450871
0.029129231 0.02988706 0.0070176721
0.047530822 0.021219619 0.0033694506
0.043358181 0.024171103 0.0035787225
0.03831289 0.026228009 0.0037646294
0.034098331 0.027969474 0.004301548
0.051126905 0.016923651 -3.194809e-05
0.046479486 0.019842708 -0.00037014484
0.039113685 0.02563896 0.00062912703
0.010728763 0.030595208 0.022686422
0.013234147 0.03226582 0.018180966
0.019091282 0.031289544 0.013118565
0.015222725 0.03251718 0.013320744
0.020424552 0.031469766 0.0092703104
0.017336404 0.032308534 0.008800149
0.026451703 0.030255783 0.0047937632
0.022286253 0.031352021 0.0045260191
0.018196266 0.032350786 0.0044398904
0.032224134 0.027880136 0.0012034774
0.027912213 0.029587636 0.00047242641
0.023632677 0.030367466 0.0001155138
0.014535096 0.032458641 0.0076621175
0.011143677 0.031421185 0.0059922934
0.015917417 0.031767357 0.0020763278
0.013213513 0.032089628 0.0022003651
