# .PCD v0.7 - Point Cloud Data file format
VERSION 0.7
FIELDS x y z
SIZE 4 4 4
TYPE F F F
COUNT 1 1 1
WIDTH 648
HEIGHT 1
VIEWPOINT 0 0 0 1 0 0 0
POINTS 648
DATA ascii
0.060842872 -0.0012075595 0.16244534
0.060218096 0.0018554729 0.16322833
0.05991745 0.0061765322 0.16289085
0.059399962 0.0093941232 0.16204903
0.063413739 -0.013470897 0.15910548
0.063259602 -0.0089258486 0.1588611
0.062742591 -0.0032720985 0.15979552
0.062833786 0.0017502727 0.16006947
0.062661469 0.0062876483 0.15981278
0.062051058 0.0098902164 0.15891811
0.064774811 -0.016609691 0.15648142
0.065547585 -0.01352327 0.15692496
0.065411985 -0.0089828307 0.1566937
0.065189481 -0.0036899345 0.1563794
0.065291464 0.001615937 0.15629041
0.065756083 0.0061743157 0.15647644
0.064448595 0.010475553 0.15520829
0.065955043 -0.016725212 0.15363729
0.066977501 -0.013515157 0.15264958
0.06732589 -0.0091435956 0.15253466
0.067439079 -0.0036391437 0.15192553
0.067514241 0.0014332059 0.15143323
0.068202853 0.0060012182 0.15178129
0.066355705 0.0098708635 0.15128648
0.067454338 -0.0077973949 0.14890504
0.067621291 -0.0047795745 0.14831918
0.06828928 0.0050597107 0.14727363
0.053416014 -0.0027439273 0.16477242
0.052977681 0.001094243 0.16527274
0.052853584 0.0064235427 0.16484046
0.052569628 0.0094738249 0.16473782
0.055948019 -0.018151401 0.16146716
0.056217551 -0.013548401 0.16150808
0.055669665 -0.0083325962 0.16207483
0.056330502 -0.0039054055 0.16262043
0.056896865 0.00099545589 0.16439009
0.056687951 0.0067253117 0.16412383
0.055783689 0.011077876 0.16208157
0.05474031 0.01390254 0.16057509
0.059206665 -0.018936476 0.15913022
0.059167683 -0.013551404 0.15985578
0.059430957 -0.0089644687 0.15989512
0.059505463 -0.0051116766 0.16074115
0.059404492 0.011996566 0.15850213
0.057724953 0.013773887 0.15711319
0.062981486 -0.019781029 0.1553306
0.062036932 0.012192122 0.15554523
0.060724497 0.013613011 0.1527558
0.064348936 -0.019224156 0.1507428
0.065847754 -0.015407265 0.14983955
0.065487325 0.011460165 0.14940131
0.062773228 0.013827371 0.14818799
0.064593136 -0.017658584 0.14655209
0.065686107 -0.014087801 0.14598545
0.066494882 -0.0096662017 0.14619893
0.067534328 -0.0041461559 0.14562058
0.067327797 0.00064084603 0.14486906
0.067178667 0.0059005981 0.14407945
0.064959288 0.010282691 0.14505947
0.063301861 0.013309321 0.14441139
0.066515744 -0.013958634 0.1421183
0.066864073 -0.0095133232 0.14135474
0.067180276 -0.0051473239 0.14060152
0.067101538 9.561437e-05 0.13982764
0.06662792 0.0051999753 0.13977894
0.065935135 0.0085988035 0.14085665
0.040366113 -0.017288378 0.18110031
0.040016353 -0.013006641 0.18073857
0.039634228 -0.00994551 0.1805768
0.039207041 -0.0038192703 0.1801053
0.039356947 0.0023372413 0.18012896
0.039691448 0.0069849398 0.18096536
0.039813876 0.011750361 0.18154562
0.039874673 0.01621457 0.18168464
0.041688919 -0.016924856 0.17848483
0.041227639 -0.013111448 0.17806596
0.040982306 -0.0085125398 0.17776
0.041597128 0.0019094497 0.1767261
0.042615175 0.0068602096 0.17740017
0.0433864 0.011474622 0.17774558
0.043337822 0.016059542 0.17756587
0.042959571 0.021402789 0.1771501
0.042942166 0.003580099 0.17226303
0.043518364 0.0066701639 0.17253807
0.044479787 0.011297388 0.17301393
0.045167148 0.015904536 0.17331237
0.044177413 0.021244189 0.17249808
0.047504187 -0.0073348489 0.16738132
0.047691882 -0.0042557772 0.16740811
0.046374142 0.0011389685 0.16819736
0.046449542 0.0066595729 0.16831958
0.047007978 0.011124184 0.16829616
0.047472596 0.015727201 0.16845679
0.045833528 0.020903857 0.16784567
0.050469339 -0.022844819 0.16342357
0.050643027 -0.018401055 0.16523787
0.050374985 -0.013489055 0.16582152
0.05089426 -0.0090128761 0.16577667
0.051400721 -0.0044663562 0.16553447
0.050443888 0.0011080395 0.16632095
0.050002813 0.0061389995 0.1658707
0.0507285 0.011430768 0.16462064
0.050387979 0.015562778 0.16400209
0.047427297 0.020621212 0.16351804
0.052278399 -0.023685446 0.16099077
0.054175436 -0.019001814 0.16229418
0.05357945 -0.013572396 0.16247356
0.053844452 -0.0097302618 0.16253343
0.052279651 0.015855381 0.16002846
0.049848258 0.018458107 0.15896285
0.055333734 -0.023765692 0.15754384
0.053365946 0.016005477 0.15498006
0.05679518 -0.02379548 0.15337712
0.056109905 0.015101458 0.15135503
0.058786035 -0.02369331 0.14845464
0.062375486 -0.021764079 0.14757812
0.056615055 0.014917324 0.1461505
0.063177407 -0.020010246 0.14414513
0.063359439 0.010918851 0.14173585
0.061218143 0.013991761 0.1419833
0.064535379 -0.01884998 0.13995135
0.06636554 -0.014444512 0.13872987
0.066806614 -0.010262378 0.13783771
0.067205846 -0.0060549723 0.13753822
0.066394866 0.0015534248 0.1367304
0.066051006 0.0057648597 0.13682666
0.06482321 0.010221123 0.13837853
0.063882768 0.013089324 0.13831735
0.065519273 -0.01770103 0.13571402
0.066650331 -0.014851262 0.13497975
0.067600787 -0.010040064 0.13419434
0.067643404 -0.0054421993 0.13409421
0.067395806 -9.4483454e-05 0.13376004
0.066921771 0.0052446844 0.13326046
0.06467247 0.009817387 0.13274056
0.062586963 0.012922942 0.13364127
0.066409409 -0.013276857 0.13153669
0.067002535 -0.009492171 0.12998006
0.067504585 -0.0053520249 0.12947738
0.067569315 -0.0002910335 0.12919319
0.067160666 0.0050635794 0.12874019
0.065854192 0.0081265001 0.12863383
0.032656252 -0.01234193 0.18260962
0.032705247 -0.0080627259 0.18295339
0.032642603 -0.0041117356 0.18305585
0.033375561 0.0016007345 0.18259898
0.033678055 0.0070097479 0.1826095
0.03239131 0.011853719 0.18323368
0.0326401 0.016267324 0.18256217
0.036591589 -0.0189541 0.18166995
0.035993278 -0.013074687 0.18161756
0.037118196 -0.008130623 0.18110266
0.036988437 -0.0038236177 0.18087864
0.036414921 0.00098353415 0.18130487
0.036446214 0.0070263888 0.18253389
0.036468148 0.010100817 0.18244636
0.040805876 -0.019369433 0.17663404
0.041728139 -0.013221966 0.17566326
0.040959179 -0.0085950475 0.17611122
0.040531576 -0.0039669145 0.17641503
0.039885223 -0.00087872904 0.1768102
0.041845262 -0.018801926 0.17226854
0.041670322 -0.013414482 0.17198217
0.041806936 -0.0087815654 0.17192152
0.04196173 -0.0041525383 0.17187417
0.04233408 0.00078915618 0.171958
0.043018103 -0.019023294 0.16754353
0.04384619 -0.013564652 0.16791427
0.044333696 -0.0090928618 0.16832271
0.044392884 -0.0042470079 0.16889325
0.046730578 -0.024484364 0.16428834
0.047036648 -0.020060772 0.16582203
0.046536267 0.021612255 0.16062778
0.046959758 0.02050711 0.15625665
0.045056701 0.02306849 0.15743798
0.052942455 -0.026262494 0.15598482
0.048007846 0.018614268 0.15170056
0.053720772 -0.026168546 0.1504859
0.051423788 0.016542884 0.14806682
0.053985775 -0.026005497 0.14646912
0.052328169 0.016369006 0.14310619
0.05843544 -0.023764631 0.14205372
0.060483277 -0.022223024 0.1406557
0.056991637 0.015199794 0.13956675
0.06006676 -0.021952303 0.13659653
0.058954895 0.014509547 0.1347293
0.062875748 -0.019481899 0.13290229
0.061295331 0.013337783 0.13080966
0.063822031 -0.018123964 0.12883034
0.065221131 -0.0151966 0.12859258
0.066282928 -0.010758088 0.12806886
0.066456735 -0.0058246525 0.12632295
0.067149878 -0.00043298569 0.12605458
0.067203701 0.00495061 0.12594274
0.064766347 0.0097961789 0.12707552
0.06218642 0.012641615 0.12580413
0.065398514 -0.014726114 0.12389123
0.066443443 -0.010619906 0.12296775
0.066841125 -0.0061482014 0.12256956
0.067589223 -0.00057861843 0.12259358
0.067747533 0.0048181443 0.12256032
0.065234542 0.0094063794 0.12182295
0.06717217 -0.0061714547 0.11862832
0.067690969 -0.00073980057 0.11886847
0.067663491 0.0042562066 0.11823165
0.066067517 0.0076938858 0.11741203
0.025606394 -0.0023582715 0.1833545
0.02547586 0.00074809714 0.18317008
0.025247335 0.0061842343 0.18284732
0.025037706 0.011620824 0.18253621
0.029780388 -0.013390164 0.18318954
0.029940307 -0.0087879291 0.18370721
0.029455602 -0.0034511783 0.18350106
0.029275477 0.00078258978 0.18279427
0.029055178 0.0061971745 0.18247682
0.029285789 0.010112182 0.18339831
0.045489728 0.020637611 0.14907798
0.04652971 0.019368542 0.14482969
0.051392496 0.016350949 0.14245051
0.048867404 0.017853765 0.14063814
0.053297818 0.016163437 0.13722768
0.049605548 0.017741008 0.13739324
0.057210624 -0.024237508 0.13460594
0.058386326 -0.022701545 0.13351816
0.05505538 0.016101474 0.13565537
0.056622148 -0.024446515 0.13134536
0.058463037 -0.022309298 0.12939161
0.058904707 0.014276902 0.12809366
0.06078881 -0.019581197 0.12521634
0.057668865 0.014082248 0.12243873
0.06250906 -0.018574288 0.12121105
0.064962208 -0.016401824 0.12170869
0.061885297 0.013204659 0.11985683
0.064899683 -0.015605767 0.11717665
0.066019416 -0.010926233 0.11693376
0.065984488 -0.006324538 0.11582315
0.066515028 -0.0016911448 0.11513811
0.066583872 0.0038364839 0.11490101
0.064618111 0.0096277436 0.11599135
0.062696934 0.013054046 0.11568362
0.065047264 -0.014939194 0.11188805
0.065559506 -0.011190106 0.11178899
0.065417707 -0.0065333219 0.11155337
0.06577152 -0.0018944786 0.11073327
0.066194415 0.0035595642 0.11090744
0.064562321 0.008483748 0.11113441
0.06658268 -0.011731242 0.10824418
0.066153646 -0.0058942782 0.10824001
0.066174626 -0.0020238617 0.1076678
0.066356659 0.003384891 0.10659754
0.065966964 0.0072826622 0.10677284
0.023071826 -0.0086849956 0.18273193
0.023456991 -0.0042770831 0.18318763
0.021856189 0.00072191004 0.18367913
0.0217219 0.0050802538 0.18326762
0.021781266 0.010827792 0.18237942
0.045316577 0.021030167 0.14182711
0.046080351 0.020142959 0.13861677
0.043598235 0.022810725 0.13831174
0.047554076 0.018829519 0.1344952
0.053490579 -0.025257537 0.132909
0.052244186 0.01594892 0.1308116
0.048555434 0.017470295 0.12906972
0.054882288 -0.026663302 0.12892812
0.052710831 0.015763177 0.12544414
0.056649446 -0.026226601 0.12453556
0.057794094 -0.022502365 0.12356982
0.056591868 -0.025103888 0.11987942
0.058381736 -0.021788796 0.11847073
0.060281932 -0.021560324 0.11434865
0.061833262 -0.018982699 0.11399889
0.061480582 0.012922312 0.11188722
0.061936498 -0.021989511 0.11048865
0.063868463 -0.017995471 0.11041158
0.063701987 0.0099402135 0.1085096
0.061719775 0.012790709 0.1082077
0.065029621 -0.016348906 0.10615295
0.066478372 -0.011164856 0.1055333
0.0660882 -0.0070147151 0.10572952
0.066184819 -0.0021381872 0.10506332
0.066833854 0.003307543 0.1046437
0.064504325 0.0091925515 0.10434973
0.062178671 0.011847909 0.10373616
0.066161752 -0.015311305 0.10202986
0.067201674 -0.011662108 0.10144162
0.066874802 -0.0069944682 0.10106266
0.066856027 -0.0023112341 0.10092366
0.067019582 0.0029519603 0.10108888
0.066240966 0.0080711124 0.100169
0.066995859 -0.0016936184 0.097114325
0.067266941 0.0025974021 0.096724749
0.066854179 0.0061182575 0.096797049
0.014006793 0.00060750236 0.18346527
0.013836563 0.0037496227 0.18325549
0.017871857 -0.0091333902 0.18248141
0.017572403 -0.0040791547 0.18304586
0.017697752 0.00067449064 0.18387711
0.017193973 0.0057343198 0.18294132
0.04516542 0.019917658 0.13134328
0.045616746 0.019436421 0.12690729
0.049172759 0.015790051 0.12574723
0.047583044 0.018394059 0.12288004
0.050951242 0.015596738 0.12033749
0.049090445 0.01712914 0.11893129
0.056001365 -0.02531649 0.11655742
0.056301534 -0.026301188 0.11294007
0.05861038 -0.023309046 0.11330092
0.05783844 -0.026330123 0.10866195
0.060749948 -0.022931954 0.1069901
0.059237957 -0.025886094 0.10445231
0.060467243 -0.022547984 0.10293174
0.062962055 -0.019019233 0.10290009
0.061157882 0.012944221 0.10146022
0.063534021 -0.018023459 0.098319769
0.064403236 0.010025396 0.096730232
0.061577201 0.012229334 0.096817493
0.064659715 -0.01761825 0.093734205
0.066152453 -0.012015519 0.094761491
0.065582693 -0.0073386105 0.094189942
0.066072702 -0.0028546276 0.093897343
0.066759229 0.0017635851 0.093702018
0.065342903 0.0076373285 0.093390942
0.063006043 0.010626554 0.091690302
0.066294312 -0.016464245 0.089738369
0.066837788 -0.012263213 0.089402735
0.066380799 -0.007569422 0.088917136
0.066536069 -0.0028429562 0.088918686
0.067233682 0.0019013426 0.089351714
0.066759109 0.0065941317 0.088852167
0.064609826 0.00970555 0.088049531
0.066697478 0.0017165925 0.084974587
0.066638231 0.0056498135 0.084826171
0.011205733 -0.0042042206 0.18284795
0.010671377 0.00055435905 0.18328321
0.011172771 0.0055948352 0.18268114
0.044970632 0.020365445 0.12065452
0.045399666 0.018963588 0.11637187
0.043246031 0.02183198 0.11645901
0.053043842 -0.027131828 0.11440617
0.048510611 0.015315486 0.11178112
0.04622978 0.017738534 0.11294311
0.054430246 -0.028877025 0.11063522
0.056143939 -0.028490627 0.10704637
0.052013814 0.01502266 0.10369635
0.059872925 -0.022957331 0.09996748
0.055488288 0.014862674 0.099492669
0.059821844 -0.022598559 0.096970797
0.05812645 0.013897887 0.094683409
0.056519091 0.014616064 0.092422187
0.061557829 -0.022131214 0.09240067
0.060990453 0.012291501 0.089663565
0.057086289 0.014560989 0.090889335
0.063797355 -0.02239809 0.088567972
0.065042377 -0.019024875 0.087751508
0.063358903 0.011650338 0.085731626
0.065076888 -0.015781946 0.083126903
0.065920234 -0.012613256 0.082727671
0.066255093 -0.0078538032 0.082877159
0.066291273 -0.0031154351 0.082785249
0.066539288 0.0015866823 0.081871212
0.066218197 0.006549581 0.081910908
0.063712001 0.010664231 0.081851959
0.066027343 -0.0080518471 0.078711033
0.065968812 -0.0033059763 0.078543544
0.065664172 0.001427225 0.078176737
0.065181732 0.0053649237 0.077685952
0.0034982562 0.0001456497 0.18340838
0.0074834228 0.00050905382 0.18320295
0.043294609 0.020159846 0.11363071
0.045054257 0.018985564 0.11041713
0.046459198 0.016694499 0.10533905
0.044001043 0.020828327 0.10475743
0.047312796 0.016910536 0.10008389
0.051433384 0.016361689 0.096340179
0.053002775 0.015799062 0.091635108
0.058884561 -0.023525966 0.090333164
0.055090308 0.015389874 0.086922646
0.059705496 -0.023626612 0.088003576
0.056432784 0.014274704 0.08242929
0.06147635 -0.018757867 0.081310034
0.062096655 0.010937042 0.078383386
0.062620938 -0.016151724 0.077156067
0.064407885 -0.012955022 0.076517284
0.065713346 -0.0082089053 0.075455606
0.065540075 -0.0034587802 0.075195074
0.065314054 0.0012887485 0.074891686
0.064850986 0.0060541993 0.075063348
0.061644375 0.010153162 0.074292898
0.064635694 -0.012718321 0.071957111
0.065745354 -0.0084414044 0.070456862
0.0658167 -0.0036654891 0.070396245
0.065178752 0.0010755053 0.069754601
0.06451714 0.005848377 0.06976521
0.063022554 0.0090699336 0.070812404
0.066283226 -0.011737269 0.067952394
0.067013383 -0.0082764188 0.066651583
0.067031384 -0.0038604669 0.065596104
0.066501021 0.00054645829 0.066313803
0.0656389 0.005732513 0.066653013
0.045593083 0.018073695 0.098748326
0.043838024 0.020821905 0.098613024
0.047480881 0.017945101 0.095245898
0.045497894 0.019509489 0.0936867
0.05012399 0.017765092 0.0903427
0.047247469 0.019347033 0.08906889
0.052358389 0.017577911 0.085118711
0.053805709 0.016464999 0.080688596
0.057729602 -0.020279543 0.077338636
0.055317819 0.014912984 0.077517748
0.05959475 -0.018628744 0.074163556
0.061987162 -0.016348479 0.073629081
0.060028195 0.01235213 0.073328257
0.061079681 -0.018218501 0.068888843
0.062907517 -0.015873535 0.069925606
0.061284006 0.011023275 0.068040073
0.061773896 -0.018379932 0.065401793
0.064550638 -0.014558368 0.065572321
0.066666961 -0.010265616 0.065196276
0.067258477 -0.0039492445 0.063506246
0.066113234 0.0016618791 0.064444602
0.065073133 0.0060261441 0.063980103
0.062725604 0.010192065 0.064032912
0.065236747 -0.013067556 0.0608145
0.067031324 -0.0088401632 0.061399579
0.067425013 -0.0040747458 0.060597897
0.06636858 0.0007088884 0.060613275
0.065430701 0.0052740416 0.059972286
0.062958896 0.0086570969 0.059609294
0.066650748 -0.0090523297 0.057002902
0.066987872 -0.004321021 0.055125713
0.066282511 0.00053713762 0.056462944
0.065402508 0.0045038881 0.05562526
-0.0068693757 0.00077147939 0.18437299
-0.0038261414 0.00038653222 0.18385804
0.042503893 0.021724986 0.091736019
0.044667304 0.020913525 0.087032199
0.046799362 0.019794593 0.082706571
0.048660815 0.018989133 0.078154802
0.052235484 -0.023046872 0.074006021
0.05222404 0.016031316 0.074509859
0.055881858 -0.021031978 0.071823597
0.054222524 0.013880759 0.070609033
0.056822181 -0.024539707 0.066065788
0.058244586 -0.020779928 0.067648351
0.055521607 0.013702459 0.065572619
0.058501422 -0.024255963 0.062842607
0.061005056 -0.019863578 0.063105285
0.063119173 -0.016891034 0.062405527
0.061183274 0.011083572 0.060112119
0.057857692 0.013548153 0.061379433
0.05980593 -0.023570703 0.059811115
0.06183058 -0.019821221 0.058333158
0.064155579 -0.015681855 0.058570266
0.064386487 0.0069492077 0.056758404
0.06200707 0.0098909801 0.056738079
0.06231004 -0.01973206 0.054623485
0.064987659 -0.014379376 0.053876281
0.066955745 -0.0091768177 0.054189503
0.066387713 0.00041445636 0.053479791
0.065116107 0.0054222448 0.052721143
0.062862396 0.0090110889 0.051725864
0.065717816 -0.012661238 0.049097538
0.066504121 -0.0094428519 0.048660636
0.066408217 -0.0046208324 0.048465788
0.065377057 -0.00011279893 0.048718214
0.064108312 0.0042143194 0.048360348
0.042264879 0.021956088 0.080619276
0.044145584 0.021407226 0.076551914
0.049293935 -0.025590321 0.073745131
0.0493536 0.017132921 0.070663452
0.046407998 0.019365707 0.072314501
0.050458431 -0.024312036 0.069761515
0.050127327 0.016208546 0.067239642
0.047581136 0.018652653 0.06716311
0.053267598 -0.028383417 0.064788103
0.053768933 -0.025358355 0.066348076
0.051795483 0.015653068 0.06299299
0.054172695 -0.028599916 0.060403347
0.057503343 -0.026758788 0.062079847
0.058009207 -0.021928953 0.061354816
0.05513072 0.015097248 0.059088588
0.058529675 -0.025054937 0.057138324
0.059504032 -0.022145635 0.056441784
0.059508145 0.011696643 0.054599226
0.05601126 0.014103143 0.053673148
0.060567141 -0.021299252 0.051469266
0.062703192 -0.017442713 0.051808119
0.059523642 0.011552471 0.050491095
0.057586312 0.013155258 0.049854338
0.061185181 -0.020896209 0.048532128
0.062557399 -0.016063454 0.047166586
0.063948035 0.0017083725 0.046212673
0.06302774 0.0053238748 0.045858264
0.061186612 0.0094945757 0.045742452
0.063054025 -0.015174166 0.043067396
0.064524233 -0.010862448 0.042150795
0.064431429 -0.0049495893 0.04158783
0.063213885 -9.7514159e-05 0.041725993
0.062803984 0.0049441336 0.041256905
0.062005401 0.0085340543 0.041615307
0.064570546 -0.010753714 0.038711905
0.064685285 -0.0050740512 0.038681746
0.063983142 0.0013738694 0.037924469
0.064648807 0.0045579737 0.036338806
0.042742193 0.022137741 0.073396266
0.043237627 0.021361491 0.069328785
0.044784784 0.021045716 0.064849913
0.049886465 -0.025997983 0.066070557
0.049697459 0.016808258 0.060738027
0.046698034 0.019108521 0.060699463
0.050497651 0.016689876 0.05728364
0.048239887 0.018274764 0.055385709
0.052834153 0.01649992 0.051999092
0.050736129 0.018120283 0.051247418
0.057517767 -0.024551077 0.050700605
0.056195617 0.014979242 0.047601879
0.052829504 0.017991779 0.04780978
0.056576371 -0.024502357 0.04469794
0.0582515 -0.020409809 0.043940187
0.061264336 -0.017860306 0.044371128
0.059578001 0.011299542 0.043286562
0.057185829 0.014558359 0.043251812
0.058712721 -0.019723276 0.041182518
0.061824203 -0.0167548 0.040235043
0.062405407 -0.00023019414 0.038684011
0.062734485 0.0030273935 0.038894057
0.061022401 0.010050523 0.038645208
0.058060467 0.014131817 0.038788199
0.062564731 -0.016430603 0.035786808
0.064604998 -0.011710648 0.035622358
0.064383864 -0.0060391249 0.035300612
0.063756347 -0.00055680517 0.035414875
0.063832283 0.0045276685 0.035627365
0.062293291 0.0088937609 0.034486413
0.059454024 0.012631102 0.034782887
0.063984036 -0.015156229 0.032002151
0.064828277 -0.011730184 0.0308218
0.0645895 -0.0064747082 0.030422628
0.064322948 -0.00057834294 0.02986443
0.064871967 0.0043233437 0.03023845
0.063261867 0.0081146909 0.030143023
0.064174592 -0.0039314935 0.027697206
0.063695967 0.007456406 0.02702111
0.043165982 0.021111203 0.057364345
0.044279754 0.020287422 0.053115785
0.045888662 0.019709362 0.048216701
0.04902178 0.019030498 0.044942319
0.054247081 -0.023162151 0.040587306
0.052562058 0.017756863 0.040283442
0.056480706 -0.021851094 0.038266063
0.056777298 0.015968924 0.036592782
0.052811742 0.017628847 0.036301851
0.057880819 -0.021321809 0.033441782
0.060725391 -0.018432265 0.033440351
0.060008526 0.010907489 0.032148659
0.057443678 0.01445173 0.031943083
0.059779346 -0.020355364 0.028425455
0.06212765 -0.017494453 0.029718876
0.061080933 0.010363257 0.028351009
0.058667123 0.012786525 0.027234972
0.062054336 -0.016655689 0.024686694
0.063719273 -0.012478237 0.024755836
0.063928545 -0.007348367 0.024374187
0.063685238 -0.0019862251 0.024191737
0.063637555 0.0035997881 0.023723125
0.061890841 0.0091498895 0.02299726
0.059381723 0.012231852 0.023099303
0.062829316 -0.015755108 0.020385623
0.063879609 -0.012291231 0.019380927
0.063793182 -0.0075463848 0.020001173
0.063679814 -0.0026830034 0.01872611
0.063478351 0.0025588395 0.018645287
0.062791705 0.0062938845 0.017736256
0.042335153 0.021490345 0.051487207
0.043028295 0.021405393 0.0489344
0.046724737 0.019497028 0.041598678
0.048289418 0.019391173 0.038719356
0.054843664 -0.023454776 0.034785986
0.053081274 0.017533896 0.03337419
0.056640565 -0.023541661 0.032113791
0.055210114 0.015697988 0.027855754
0.057660043 -0.022867912 0.028748393
0.056782246 0.013951926 0.025023699
0.05956775 -0.021139951 0.02400434
0.061384141 -0.018157957 0.022350669
0.057965517 0.012964088 0.020232439
0.058781505 -0.020871395 0.019025207
0.061597049 -0.017780138 0.01810509
0.063497245 -0.014277061 0.016674638
0.063969851 -0.0076801972 0.016958117
0.062350452 0.0083093075 0.016761899
0.060207069 0.010915979 0.016747117
0.060882211 -0.017747333 0.014395237
0.062715113 -0.012399298 0.013244689
0.062872887 -0.0078854868 0.012752593
0.063289583 -0.0029271664 0.013024509
0.063341737 0.0020054756 0.012966335
0.062697351 0.0069140708 0.01227814
0.060836971 0.010221827 0.012676418
0.062550008 -0.0030995095 0.009126246
0.062969804 0.0018631043 0.0094032288
0.062712908 0.0051476834 0.0091000795
0.041854143 0.022352556 0.03574127
0.042797208 0.020901164 0.03190732
0.055177629 0.013772878 0.019346714
0.05849731 -0.021059619 0.015552938
0.056989312 0.013051408 0.014537215
0.057962835 -0.021267252 0.011842847
0.059561789 -0.017966593 0.010691941
0.061379969 -0.013797176 0.010449588
0.057929397 0.011770385 0.009375155
0.060180485 -0.01762305 0.0061926246
0.061783791 -0.013151088 0.0064747334
0.062066436 -0.0081719877 0.0066282153
0.062270403 -0.0032496201 0.005628705
0.062701106 0.0017241528 0.0059185028
0.061515391 0.0068720272 0.0055387616
0.059081197 0.0099441214 0.0046095848
0.062053144 -0.016656352 0.0024501681
0.062825799 -0.013173805 0.0011833906
0.063013196 -0.0084106596 0.00098502636
0.063159287 -0.0034350054 0.0010167956
0.063260436 0.0015331833 0.0010076165
0.062439859 0.0062696701 0.00042617321
0.060872912 0.00980563 0.00081670284
0.042988896 0.018920435 0.021433353
0.045220852 0.018823093 0.019075453
0.048303008 0.016734427 0.0153597
0.054597199 -0.022957111 0.013183951
0.049672663 0.015846832 0.010539353
0.054798424 -0.022337211 0.0090178251
0.055083454 0.013376112 0.0074205399
0.058784127 -0.019936329 0.004968226
0.056255877 0.012393757 0.0030730963
0.060139656 -0.018943606 0.00042617321
0.041459858 0.02050163 0.017917752
0.046661973 0.018614171 0.012789905
0.043106318 0.020330077 0.01286912
0.047890961 0.017911931 0.008474648
0.043620646 0.020207698 0.0089820027
0.049016535 0.016336432 0.0047269464
0.053697824 -0.021869158 0.0025621653
0.054758549 0.013114627 -0.00048929453
0.050933897 0.015677689 0.00035238266
0.042344987 0.020966819 0.0056552887
0.046675622 0.018280802 0.0019258261
0.04339242 0.019976886 0.0011349916
0.04958415 -0.02380432 -3.182888e-05
