# .PCD v0.7 - Point Cloud Data file format
VERSION 0.7
FIELDS x y z
SIZE 4 4 4
TYPE F F F
COUNT 1 1 1
WIDTH 454
HEIGHT 1
VIEWPOINT 0 0 0 1 0 0 0
POINTS 454
DATA ascii
-0.026412509 0.025895452 0.18012321
-0.027879046 0.023369551 0.18188792
-0.029077921 0.019776586 0.18177205
-0.030269867 0.016017316 0.18137196
-0.031441845 0.011489613 0.1805492
-0.031441044 0.007967839 0.18140516
-0.027776396 0.026534028 0.17761555
-0.030258836 0.024607139 0.17867666
-0.03188476 0.021005969 0.17862031
-0.03242759 0.017021907 0.17770791
-0.032866988 0.013153524 0.17698923
-0.028977921 0.027161527 0.17408544
-0.03085427 0.024843771 0.17422757
-0.032649621 0.02151804 0.17385855
-0.033246323 0.017723667 0.17355758
-0.033309426 0.014696592 0.17392218
-0.032501962 0.021629004 0.17014652
-0.021924973 0.020853315 0.18325466
-0.023594214 0.017290946 0.18350574
-0.025008373 0.013856573 0.18353868
-0.026541993 0.0099359406 0.18277064
-0.028290244 0.004723228 0.18312967
-0.029485052 0.001386256 0.18347132
-0.03086157 -0.0025016703 0.18292782
-0.02289716 0.026125312 0.18046933
-0.024091769 0.022427434 0.18246156
-0.025497627 0.018354926 0.18255904
-0.027329512 0.014807213 0.18265164
-0.029006084 0.010661351 0.18209022
-0.03183176 0.0066167139 0.18024835
-0.03290043 0.0029192958 0.17986867
-0.03367351 -0.00090304948 0.17941758
-0.024448503 0.027990662 0.17684466
-0.033063766 0.010623442 0.17562726
-0.033305161 0.0075313202 0.17525154
-0.034097772 0.0035992134 0.17452425
-0.034485679 -0.00051947683 0.17407173
-0.02762343 0.027813677 0.17199811
-0.030017802 0.025561128 0.17154229
-0.033117417 0.016877934 0.17084956
-0.033292443 0.01247404 0.1711989
-0.03368568 0.0078765517 0.17014286
-0.034323443 0.0040450003 0.16956609
-0.034369726 0.00099430885 0.17021424
-0.028678298 0.027369961 0.16754287
-0.03040356 0.025169443 0.16801947
-0.032509446 0.021723351 0.16812313
-0.033354502 0.01781708 0.16765898
-0.033836316 0.013261429 0.16666794
-0.034342173 0.0091248527 0.1657598
-0.031151174 0.029905969 0.16367853
-0.030945554 0.025613863 0.1630272
-0.032526467 0.022129621 0.16321576
-0.033420272 0.018240117 0.16255796
-0.034170199 0.015013158 0.16301733
-0.034430683 0.011325447 0.16259784
-0.032158144 0.024803519 0.15992317
-0.032434169 0.022798218 0.15945116
-0.022845194 0.0015591145 0.18281427
-0.024518711 -0.00065091439 0.18321505
-0.018916309 0.020330667 0.1835683
-0.020655423 0.016777163 0.18386668
-0.021171594 0.012359098 0.18327504
-0.023076747 0.0085600149 0.18260616
-0.02438207 0.005360093 0.18245837
-0.028510228 -0.0018897606 0.18361628
-0.034401789 -0.0018958868 0.17113513
-0.034502875 0.002588897 0.16715169
-0.034433722 -0.00051391963 0.16770306
-0.025700778 0.028136257 0.16526583
-0.034204699 0.007376215 0.16359985
-0.033950787 0.0039233612 0.16351891
-0.034360424 -0.00019344408 0.16245532
-0.02767881 0.028713439 0.16149426
-0.032237589 0.020542791 0.1604118
-0.033557802 0.016794657 0.16009966
-0.0333983 0.013395572 0.16009256
-0.033424921 0.0092432881 0.1595856
-0.03327816 0.0045068292 0.15954238
-0.02903299 0.028726211 0.15715697
-0.030897908 0.026043558 0.15735701
-0.032255061 0.021939788 0.1566537
-0.033072468 0.018184107 0.15651068
-0.032685284 0.014251178 0.15554249
-0.030876175 0.025250278 0.15209633
-0.032061636 0.022298474 0.15158162
-0.032810502 0.018772092 0.15155506
-0.0154492 0.014446802 0.18293318
-0.017293591 0.010848477 0.18301123
-0.01827378 0.0069023464 0.18333474
-0.01985457 0.0029284423 0.18312413
-0.020894889 -0.0017350526 0.1833916
-0.032854188 0.0070692864 0.15699518
-0.033066146 0.0035911268 0.15670049
-0.03417594 -8.5699372e-05 0.15679529
-0.032499794 0.012839676 0.15307546
-0.032440696 0.0091577377 0.15323287
-0.032804646 0.0043972032 0.15154505
-0.033796601 -9.8675489e-05 0.15232444
-0.027751956 0.026691681 0.14995939
-0.033110764 0.017543759 0.14948785
-0.032823846 0.014078057 0.1493586
-0.03261672 0.009911079 0.148341
-0.033165298 0.0065498287 0.14831951
-0.030089254 0.025240971 0.14590141
-0.031919476 0.022499636 0.14592683
-0.032988183 0.018628165 0.14538783
-0.033056036 0.014627859 0.14520627
-0.032735474 0.01134377 0.14461142
-0.031164341 0.022403982 0.14157307
-0.031950805 0.019840699 0.14127305
-0.012458287 0.0031078076 0.18390292
-0.012955954 0.00041723577 0.18339312
-0.011155074 0.012787985 0.18284348
-0.012569948 0.0089911567 0.18304005
-0.013945131 0.0051642642 0.18365705
-0.015330424 0.001377305 0.18337798
-0.033262089 -0.00022619404 0.14937037
-0.025570717 0.027221354 0.1466831
-0.032789178 0.0091474829 0.14579028
-0.033114508 0.0043577617 0.14587137
-0.033241183 -8.8679604e-05 0.14488101
-0.025920054 0.026523367 0.14265135
-0.032582868 0.013915951 0.14207274
-0.032740351 0.0098162005 0.14197049
-0.033338197 0.0053749108 0.14130282
-0.033677414 0.0010823309 0.14018816
-0.025368853 0.029903624 0.13759974
-0.027788378 0.026298832 0.13852721
-0.030800015 0.022403471 0.13846374
-0.031791791 0.0182737 0.1384863
-0.032285389 0.01433508 0.13773379
-0.033051111 0.010315955 0.13691765
-0.033840369 0.0067542801 0.13691032
-0.034349933 0.0028187595 0.13720393
-0.028389901 0.026021067 0.13398176
-0.030814463 0.02262025 0.13379404
-0.031677466 0.018810973 0.13335586
-0.032460954 0.014928531 0.13378775
-0.033375885 0.010580294 0.13344115
-0.03109096 0.02288672 0.13027531
-0.03191359 0.02031865 0.12999806
-0.0071644722 0.0068860441 0.18260047
-0.0093426406 0.0036399201 0.18317875
-0.010179974 -0.00069386628 0.1831173
-0.033779696 -0.000619784 0.13814506
-0.034015231 0.005446055 0.13468623
-0.03412313 0.0010684384 0.13414893
-0.033643048 -0.0030657006 0.13313723
-0.026106432 0.030109748 0.13325861
-0.027549546 0.027537204 0.13191485
-0.032089114 0.017438421 0.1310389
-0.032489732 0.014396464 0.13104558
-0.033397801 0.010696264 0.13063037
-0.034292035 0.0066696689 0.13085699
-0.034466118 0.002566563 0.12980253
-0.034172274 -0.0011540856 0.12933427
-0.027384438 0.030267458 0.1281389
-0.028350025 0.027029162 0.12773645
-0.031426497 0.023131346 0.12773988
-0.032212101 0.018905755 0.12757164
-0.032280777 0.014791183 0.12642115
-0.032942999 0.010925137 0.1262095
-0.033716947 0.0065876539 0.12656069
-0.028778596 0.027292415 0.12347901
-0.031822525 0.023483306 0.123357
-0.032446064 0.019570623 0.12269199
-0.032158248 0.016342998 0.12302202
-0.031681146 0.023353904 0.11856514
-0.032667246 0.021080982 0.11929226
-0.0032420724 0.00092745747 0.1829032
-0.0061466703 0.0020719543 0.18324316
-0.033986397 0.00081672706 0.12667525
-0.033985186 -0.0026274081 0.12675989
-0.032732747 0.010196628 0.12386924
-0.033649012 0.0066643422 0.12364551
-0.033758149 0.00230991 0.12316591
-0.0339416 -0.0018246239 0.12209857
-0.027153965 0.02711527 0.11951762
-0.032229528 0.017967734 0.11978477
-0.032000665 0.01475025 0.12016255
-0.032236762 0.010837328 0.11944312
-0.032942496 0.006533687 0.11919034
-0.033705555 0.0031475239 0.11954898
-0.028206769 0.025708754 0.11603695
-0.030541752 0.023722537 0.11519223
-0.032342527 0.019440364 0.11627311
-0.031771645 0.015255759 0.11513668
-0.03189132 0.011410827 0.11525142
-0.030667532 0.023261875 0.11190701
-0.032162443 0.019964047 0.11096048
-0.032046784 0.016777502 0.11143547
-0.034151968 -0.0033235 0.11955148
-0.031696167 0.0090834722 0.1162225
-0.032065734 0.0063051148 0.1155206
-0.032720476 0.0019113636 0.11585718
-0.033594627 -0.0017814348 0.11602068
-0.025072228 0.027190832 0.11365145
-0.031687647 0.014393318 0.11225522
-0.031853434 0.010555754 0.11240673
-0.032321427 0.0065399637 0.1118933
-0.032664903 0.0024496438 0.11094433
-0.033552852 -0.0018439908 0.11148834
-0.025897503 0.026255922 0.10905731
-0.028692454 0.024402967 0.10875612
-0.031929277 0.018345766 0.10799152
-0.031746469 0.015124564 0.10840058
-0.0319984 0.011018018 0.10736352
-0.032584146 0.0068122004 0.10729134
-0.03285037 0.0039457139 0.10745227
-0.029449992 0.023725044 0.10424608
-0.032078806 0.020012958 0.104783
-0.032373723 0.015758712 0.10346925
-0.032797717 0.011498436 0.10324341
-0.030404309 0.023223288 0.10067588
-0.031838898 0.020479608 0.10032314
-0.032585476 0.016722579 0.10003936
0.0052300864 -0.0024931617 0.18399075
0.0035346972 -0.0017938064 0.18339378
-0.033649307 -0.0032309964 0.10943419
-0.02368924 0.027441852 0.10775661
-0.032872364 0.0070256758 0.10464066
-0.033167649 0.0024622753 0.10568964
-0.033725135 -0.0016060183 0.1061396
-0.024774916 0.027750673 0.10279655
-0.027321573 0.02565714 0.10207516
-0.032659497 0.011558974 0.10019064
-0.033192541 0.0072858837 0.10103536
-0.033532556 0.0027405256 0.10106796
-0.033664592 -0.0014844155 0.10139447
-0.02549828 0.027792592 0.098426044
-0.028970703 0.024578163 0.097644448
-0.031534433 0.019830078 0.097165167
-0.03202248 0.015683243 0.096656144
-0.032265801 0.011812155 0.097190261
-0.033029489 0.0073644593 0.096968234
-0.033216067 0.003680829 0.097758532
-0.029612923 0.024551783 0.092758417
-0.031898629 0.020451149 0.092912197
-0.032133549 0.016453749 0.093119681
-0.031398263 0.012789824 0.093667626
-0.030323137 0.024451777 0.089119673
-0.031659588 0.021266546 0.089025021
-0.033304524 -0.0015436579 0.098410189
-0.031629521 0.0098579405 0.094770074
-0.031656157 0.006917167 0.093711376
-0.032521598 0.0025482308 0.094227076
-0.032937549 -0.0015504444 0.093629181
-0.024665324 0.026629217 0.091337085
-0.031461019 0.015171816 0.090601206
-0.031349752 0.011201154 0.090791404
-0.031543303 0.0070166057 0.089652419
-0.032622308 0.002978093 0.089033008
-0.032867551 -0.00044065621 0.089308143
-0.027814906 0.025570082 0.086812854
-0.031033451 0.021132749 0.086455762
-0.031584281 0.016109807 0.087038696
-0.031766307 0.011755764 0.085564256
-0.031878624 0.0082967933 0.085710227
-0.028994383 0.0249964 0.082194388
-0.031145528 0.021343317 0.082599103
-0.031936053 0.016652327 0.081740618
-0.032305643 0.013117219 0.081811607
-0.030688178 0.022090726 0.078458488
-0.031512581 0.019438136 0.078141212
-0.033434559 -0.0016475879 0.087310374
-0.023127586 0.02712981 0.084230602
-0.03231537 0.0070490893 0.083585739
-0.033167228 0.0033862097 0.083588541
-0.033760983 -0.00085843541 0.082490385
-0.02465307 0.027760739 0.080048919
-0.027187519 0.026578616 0.081294715
-0.032309756 0.015218259 0.079235196
-0.032535106 0.011798535 0.079481781
-0.032604199 0.0078423629 0.078723013
-0.033327505 0.0038419357 0.07839638
-0.033665691 -0.00038139895 0.078032374
-0.028351989 0.025785372 0.075875998
-0.031035446 0.022342676 0.07580018
-0.032074798 0.017314911 0.075589776
-0.032244138 0.012801792 0.074491858
-0.0320893 0.0092832949 0.074775636
-0.029117148 0.025278762 0.071569681
-0.031193597 0.02261664 0.070942938
-0.03202571 0.018261945 0.07074523
-0.032353744 0.015632728 0.069248974
-0.032558467 0.0034205886 0.074986577
-0.033367008 -0.0015762206 0.07581073
-0.023644157 0.027535338 0.074646354
-0.031430729 0.010639994 0.071677804
-0.031413596 0.0072838208 0.072227836
-0.032075673 0.0031074667 0.071839213
-0.032914802 -0.00087820552 0.071613669
-0.023706583 0.02725539 0.070496321
-0.026744571 0.025884528 0.068430543
-0.031704046 0.017706018 0.067444861
-0.03211832 0.013647427 0.067994773
-0.031868126 0.0091373194 0.067990363
-0.032222059 0.0046794503 0.067251801
-0.032942761 0.00076541491 0.068162501
-0.02712612 0.024842164 0.064237118
-0.030063884 0.022291847 0.063959658
-0.031267513 0.018448558 0.063503504
-0.032157596 0.014272993 0.063423455
-0.032588556 0.010161702 0.063234627
-0.030145103 0.022321921 0.059654593
-0.031291895 0.018933725 0.05932492
-0.032285601 0.014438028 0.060501873
-0.032725208 0.011610344 0.059782028
-0.022670092 0.027052119 0.066457689
-0.032535065 0.003749433 0.064845324
-0.032720912 0.00018611178 0.06543988
-0.024606565 0.025717065 0.062425256
-0.032209884 0.0083095757 0.061163306
-0.032461002 0.0053626033 0.061272621
-0.032304913 0.0011057835 0.061052024
-0.032165568 -0.002370405 0.060114145
-0.026513118 0.025392763 0.058061898
-0.029183924 0.023410294 0.057867587
-0.031376608 0.018004555 0.056964457
-0.031888336 0.014412925 0.057042062
-0.031702958 0.0098068081 0.056125283
-0.031744383 0.0059853909 0.056754947
-0.027375627 0.031030871 0.052348614
-0.02774344 0.026044194 0.051958561
-0.029809538 0.022844609 0.053338468
-0.030682363 0.019087993 0.052921057
-0.030988062 0.01460091 0.052693844
-0.028469328 0.030800324 0.050085306
-0.029125437 0.027538188 0.048924088
-0.030026242 0.023143295 0.048425317
-0.030202439 0.031027189 0.043329477
-0.029781153 0.029302092 0.044365704
-0.022428164 0.025819466 0.058527708
-0.031741962 0.00029463228 0.057458401
-0.024356302 0.025915792 0.056058586
-0.031265475 0.0082128104 0.053043365
-0.031471472 0.0052094841 0.053787827
-0.031655286 0.00068825204 0.0535779
-0.025049716 0.026509177 0.052300811
-0.029983083 0.016968004 0.050135612
-0.030560602 0.013878121 0.049215317
-0.031241868 0.010041269 0.049818873
-0.031309877 0.0052889548 0.049497485
-0.03157267 0.0011521727 0.050027251
-0.031971268 -0.0021356251 0.049612641
-0.027458191 0.029868182 0.04567945
-0.028485332 0.026485424 0.045243859
-0.029685659 0.023160771 0.044984698
-0.030412411 0.018831886 0.046008408
-0.030817673 0.014424985 0.045670152
-0.031772874 0.010015978 0.045216382
-0.032084685 0.006903389 0.045386672
-0.028276568 0.030238906 0.044451535
-0.028837824 0.027223129 0.042062402
-0.030211721 0.023523759 0.041385055
-0.031003553 0.019255234 0.041439414
-0.031506523 0.014876643 0.041193306
-0.032094218 0.010814191 0.04136312
-0.029320858 0.030931072 0.03828156
-0.028930798 0.02776365 0.037712812
-0.030725149 0.023928203 0.036722898
-0.031663001 0.019880952 0.037259996
-0.032038592 0.016740818 0.0381881
-0.029059738 0.030992743 0.034892678
-0.029081801 0.029504707 0.034309804
-0.03121553 0.024234217 0.034107804
-0.032252274 0.020837486 0.033671081
-0.03112274 0.0037584724 0.046985149
-0.031399451 0.00048871897 0.046782613
-0.031794876 0.0047757002 0.04334271
-0.031568602 0.0010175426 0.042078495
-0.031974517 -0.002508468 0.041465044
-0.032064125 0.010223862 0.038245797
-0.031648438 0.0060127638 0.038046956
-0.031136073 0.0025140699 0.038056135
-0.02919957 0.026451793 0.035305619
-0.031959336 0.018387876 0.0345397
-0.031449728 0.014920591 0.034539104
-0.031676698 0.010593131 0.034331501
-0.031752937 0.006778182 0.033932447
-0.028729659 0.027809205 0.030904174
-0.030687157 0.02418893 0.030415297
-0.031358134 0.019664146 0.029641867
-0.03173355 0.016123123 0.031291068
-0.028243726 0.02801392 0.026536047
-0.030169962 0.024148449 0.026720524
-0.030867893 0.020613132 0.02591449
-0.03125345 0.0042265849 0.034592092
-0.031574506 0.00088687614 0.036522329
-0.030941395 0.011199093 0.030716956
-0.031735133 0.0056801033 0.031875849
-0.032041471 0.0015336582 0.032084405
-0.032313198 -0.0020614313 0.03131181
-0.025254779 0.029829245 0.028833866
-0.030780513 0.014702671 0.028247237
-0.030893944 0.010300349 0.027557492
-0.031564843 0.0063587553 0.027793586
-0.032275442 0.0017919792 0.027048826
-0.032526065 -0.0012218757 0.027130544
-0.027119972 0.027734686 0.023241878
-0.029741639 0.024092708 0.024159133
-0.030791404 0.019515086 0.023784637
-0.030587578 0.015378324 0.023784995
-0.03056591 0.011575982 0.023379445
-0.027860211 0.026615368 0.020228624
-0.029426264 0.023926113 0.020106614
-0.030633997 0.020214582 0.01934725
-0.03122635 0.0053372104 0.024311841
-0.031798884 0.0017090579 0.023358107
-0.03168289 -0.002738677 0.024034619
-0.030230757 0.013625091 0.020316482
-0.030527469 0.010108797 0.020587683
-0.031182617 0.0062335315 0.020322621
-0.031877093 0.0018552048 0.019787848
-0.031398702 -0.0022772746 0.020293415
-0.025739707 0.026703225 0.017219067
-0.028132496 0.024576124 0.016395211
-0.030021004 0.018383307 0.015588462
-0.030134207 0.015283077 0.016579628
-0.030700872 0.010852047 0.016363144
-0.031120842 0.0066942642 0.015255749
-0.031841207 0.0023496868 0.016088486
-0.0257637 0.026145739 0.012665629
-0.028628485 0.024127115 0.013413727
-0.02989896 0.02023327 0.012516379
-0.029673209 0.016334202 0.011514783
-0.030746723 0.011391245 0.012825191
-0.028788388 0.023481421 0.0082797408
-0.029804073 0.020473432 0.0079788566
-0.031412873 0.0049963719 0.013522089
-0.032086585 0.0017559621 0.013353527
-0.031363722 -0.0024104388 0.012914598
-0.023722935 0.026219312 0.010794282
-0.029708313 0.014328608 0.0099866986
-0.03083509 0.010837479 0.009734273
-0.031314548 0.0066492958 0.0097520947
-0.031914458 0.0022305269 0.0084776282
-0.031374827 -0.0011549443 0.0087621808
-0.024837894 0.026124075 0.0052216053
-0.027165076 0.025027815 0.0064104199
-0.029869629 0.019246198 0.0056291819
-0.03004086 0.015667163 0.0057511926
-0.030742263 0.011483449 0.0049347878
-0.031469245 0.0068922169 0.0045228004
-0.031875506 0.0039081853 0.0047568679
-0.028513666 0.02440111 0.0016604662
-0.030120354 0.020563211 0.0012953281
-0.030147489 0.016215969 0.00080811977
-0.030952798 -0.002316731 0.0064260364
-0.022415392 0.026790559 0.0043178797
-0.031200308 0.0026593795 0.002132535
-0.031133739 -0.0012402954 0.0016332865
-0.023393679 0.026774831 -0.00072264671
