# .PCD v0.7 - Point Cloud Data file format
VERSION 0.7
FIELDS x y z
SIZE 4 4 4
TYPE F F F
COUNT 1 1 1
WIDTH 648
HEIGHT 1
VIEWPOINT 0 0 0 1 0 0 0
POINTS 648
DATA ascii
0.052151032 -0.001035051 0.16244534
0.05161551 0.0015904052 0.16322833
0.051357813 0.0052941707 0.16289085
0.050914254 0.0080521051 0.16204903
0.054354634 -0.011546482 0.15910548
0.054222517 -0.0076507274 0.1588611
0.053779364 -0.002804656 0.15979552
0.053857531 0.0015002337 0.16006947
0.053709831 0.0053894129 0.15981278
0.053186622 0.0084773283 0.15891811
0.055521268 -0.014236879 0.15648142
0.056183644 -0.011591374 0.15692496
0.056067415 -0.0076995692 0.1566937
0.055876698 -0.003162801 0.1563794
0.055964112 0.0013850888 0.15629041
0.056362357 0.0052922708 0.15647644
0.055241652 0.0089790458 0.15520829
0.056532893 -0.014335897 0.15363729
0.057409286 -0.01158442 0.15264958
0.057707906 -0.0078373672 0.15253466
0.057804927 -0.0031192661 0.15192553
0.057869349 0.0012284623 0.15143323
0.058459587 0.0051439013 0.15178129
0.05687632 0.0084607406 0.15128648
0.057818003 -0.0066834814 0.14890504
0.057961106 -0.0040967781 0.14831918
0.058533669 0.004336895 0.14727363
0.045785155 -0.0023519376 0.16477242
0.045409441 0.00093792257 0.16527274
0.045303073 0.0055058938 0.16484046
0.045059681 0.0081204213 0.16473782
0.047955446 -0.015558343 0.16146716
0.048186474 -0.011612916 0.16150808
0.047716856 -0.0071422257 0.16207483
0.048283286 -0.0033474907 0.16262043
0.048768744 0.000853248 0.16439009
0.048589673 0.0057645533 0.16412383
0.047814593 0.0094953217 0.16208157
0.046920266 0.011916462 0.16057509
0.050748572 -0.016231265 0.15913022
0.050715156 -0.01161549 0.15985578
0.050940819 -0.0076838303 0.15989512
0.051004682 -0.0043814373 0.16074115
0.050918136 0.010282771 0.15850213
0.049478531 0.011806189 0.15711319
0.053984132 -0.016955167 0.1553306
0.053174514 0.010450389 0.15554523
0.05204957 0.011668295 0.1527558
0.055156231 -0.016477849 0.1507428
0.056440935 -0.013206227 0.14983955
0.056131992 0.0098229991 0.14940131
0.053805623 0.011852033 0.14818799
0.055365548 -0.01513593 0.14655209
0.056302376 -0.012075257 0.14598545
0.056995615 -0.0082853157 0.14619893
0.057886567 -0.0035538478 0.14562058
0.057709541 0.00054929656 0.14486906
0.057581715 0.0050576557 0.14407945
0.055679388 0.0088137351 0.14505947
0.054258738 0.01140799 0.14441139
0.057013497 -0.011964543 0.1421183
0.057312064 -0.0081542768 0.14135474
0.057583094 -0.0044119922 0.14060152
0.057515606 8.1955179e-05 0.13982764
0.057109646 0.0044571217 0.13977894
0.056515832 0.007370403 0.14085665
0.034599528 -0.014818609 0.18110031
0.034299731 -0.011148549 0.18073857
0.033972196 -0.0085247224 0.1805768
0.033606037 -0.0032736603 0.1801053
0.033734526 0.0020033498 0.18012896
0.034021243 0.005987091 0.18096536
0.034126181 0.010071739 0.18154562
0.034178291 0.013898203 0.18168464
0.035733361 -0.01450702 0.17848483
0.035337977 -0.011238384 0.17806596
0.035127692 -0.007296463 0.17776
0.035654683 0.0016366711 0.1767261
0.036527295 0.0058801793 0.17740017
0.037188344 0.0098353913 0.17774558
0.037146706 0.013765322 0.17756587
0.03682249 0.018345248 0.1771501
0.036807571 0.0030686564 0.17226303
0.037301455 0.0057172836 0.17253807
0.038125534 0.0096834758 0.17301393
0.038714699 0.01363246 0.17331237
0.037866354 0.018209305 0.17249808
0.040717874 -0.0062870132 0.16738132
0.040878758 -0.0036478089 0.16740811
0.039749265 0.00097625877 0.16819736
0.039813895 0.0057082055 0.16831958
0.040292554 0.0095350156 0.16829616
0.040690798 0.013480458 0.16845679
0.039285883 0.017917592 0.16784567
0.043259434 -0.019581273 0.16342357
0.043408308 -0.015772333 0.16523787
0.043178558 -0.011562047 0.16582152
0.043623652 -0.0077253222 0.16577667
0.04405776 -0.0038283055 0.16553447
0.043237619 0.00094974815 0.16632095
0.042859554 0.0052619996 0.1658707
0.043481573 0.0097978022 0.16462064
0.043189697 0.013339525 0.16400209
0.04065197 0.017675325 0.16351804
0.044810057 -0.020301811 0.16099077
0.04643609 -0.016287269 0.16229418
0.045925245 -0.011633483 0.16247356
0.046152387 -0.0083402246 0.16253343
0.04481113 0.013590327 0.16002846
0.042727079 0.015821235 0.15896285
0.047428913 -0.020370593 0.15754384
0.04574224 0.01371898 0.15498006
0.048681583 -0.020396126 0.15337712
0.048094206 0.012944106 0.15135503
0.050388031 -0.020308552 0.14845464
0.053464703 -0.018654926 0.14757812
0.048527189 0.012786278 0.1461505
0.054152064 -0.017151639 0.14414513
0.05430809 0.0093590161 0.14173585
0.052472696 0.011992938 0.1419833
0.055316038 -0.016157128 0.13995135
0.056884751 -0.012381011 0.13872987
0.057262812 -0.008796324 0.13783771
0.057605013 -0.0051899762 0.13753822
0.056909885 0.0013315069 0.1367304
0.056615148 0.0049413084 0.13682666
0.055562753 0.0087609626 0.13837853
0.05475666 0.011219421 0.13831735
0.056159377 -0.015172312 0.13571402
0.057128854 -0.012729653 0.13497975
0.05794353 -0.0086057689 0.13419434
0.057980061 -0.0046647424 0.13409421
0.057767835 -8.0985817e-05 0.13376004
0.057361517 0.0044954438 0.13326046
0.055433545 0.0084149037 0.13274056
0.053645968 0.011076808 0.13364127
0.05692235 -0.011380163 0.13153669
0.057430744 -0.0081361467 0.12998006
0.057861075 -0.0045874501 0.12947738
0.057916556 -0.00024945728 0.12919319
0.057566285 0.0043402109 0.12874019
0.056446452 0.0069655715 0.12863383
0.027991073 -0.010578797 0.18260962
0.02803307 -0.006910908 0.18295339
0.027979374 -0.0035243449 0.18305585
0.028607624 0.0013720582 0.18259898
0.028866904 0.0060083554 0.1826095
0.02776398 0.01016033 0.18323368
0.027977228 0.01394342 0.18256217
0.031364221 -0.016246371 0.18166995
0.030851381 -0.011206876 0.18161756
0.031815596 -0.0069691059 0.18110266
0.031704374 -0.0032773865 0.18087864
0.03121279 0.00084302924 0.18130487
0.031239612 0.0060226191 0.18253389
0.031258412 0.0086578429 0.18244636
0.034976467 -0.016602371 0.17663404
0.035766978 -0.011333114 0.17566326
0.03510787 -0.0073671839 0.17611122
0.03474135 -0.0034002124 0.17641503
0.034187336 -0.00075319631 0.1768102
0.035867367 -0.016115936 0.17226854
0.03571742 -0.011498127 0.17198217
0.035834517 -0.0075270562 0.17192152
0.035967197 -0.0035593186 0.17187417
0.036286354 0.00067641959 0.171958
0.036872659 -0.016305679 0.16754353
0.03758245 -0.011626844 0.16791427
0.038000312 -0.0077938815 0.16832271
0.038051043 -0.0036402924 0.16889325
0.040054783 -0.020986598 0.16428834
0.040317126 -0.017194947 0.16582203
0.039888229 0.01852479 0.16062778
0.040251222 0.017577523 0.15625665
0.038620029 0.019772992 0.15743798
0.045379248 -0.022510709 0.15598482
0.041149583 0.015955087 0.15170056
0.046046376 -0.022430182 0.1504859
0.044077534 0.014179615 0.14806682
0.046273522 -0.022290425 0.14646912
0.044852719 0.014030577 0.14310619
0.050087519 -0.020369684 0.14205372
0.051842809 -0.019048305 0.1406557
0.048849974 0.013028394 0.13956675
0.051485796 -0.018816261 0.13659653
0.050532766 0.012436754 0.1347293
0.053893499 -0.01669877 0.13290229
0.052538857 0.011432385 0.13080966
0.054704599 -0.015534825 0.12883034
0.055903826 -0.013025657 0.12859258
0.05681394 -0.0092212176 0.12806886
0.056962915 -0.0049925596 0.12632295
0.057557039 -0.00037113062 0.12605458
0.057603173 0.0042433799 0.12594274
0.055514012 0.0083967252 0.12707552
0.053302646 0.010835671 0.12580413
0.05605587 -0.012622383 0.12389123
0.056951523 -0.0091027757 0.12296775
0.057292394 -0.0052698869 0.12256956
0.057933621 -0.00049595867 0.12259358
0.058069315 0.0041298377 0.12256032
0.055915322 0.0080626113 0.12182295
0.057576146 -0.0052898186 0.11862832
0.05802083 -0.00063411478 0.11886847
0.057997279 0.0036481773 0.11823165
0.0566293 0.0065947594 0.11741203
0.021948338 -0.0020213756 0.1833545
0.021836452 0.00064122613 0.18317008
0.021640573 0.0053007724 0.18284732
0.021460891 0.0099607063 0.18253621
0.025526047 -0.011477283 0.18318954
0.025663121 -0.0075325104 0.18370721
0.02524766 -0.0029581529 0.18350106
0.025093267 0.00067079125 0.18279427
0.024904439 0.0053118635 0.18247682
0.025102105 0.0086675854 0.18339831
0.038991198 0.017689381 0.14907798
0.039882608 0.016601609 0.14482969
0.044050712 0.0140151 0.14245051
0.041886348 0.015303227 0.14063814
0.045683846 0.013854375 0.13722768
0.04251904 0.015206578 0.13739324
0.04903768 -0.020775007 0.13460594
0.050045423 -0.019458467 0.13351816
0.047190327 0.013801264 0.13565537
0.048533268 -0.020954156 0.13134536
0.050111175 -0.019122256 0.12939161
0.05048975 0.012237344 0.12809366
0.052104697 -0.016783884 0.12521634
0.049430456 0.012070498 0.12243873
0.053579196 -0.015920818 0.12121105
0.055681892 -0.014058706 0.12170869
0.053044543 0.011318279 0.11985683
0.0556283 -0.013376372 0.11717665
0.056588072 -0.0093653416 0.11693376
0.056558132 -0.0054210327 0.11582315
0.057012882 -0.0014495527 0.11513811
0.057071891 0.0032884148 0.11490101
0.055386953 0.0082523525 0.11599135
0.053740229 0.011189182 0.11568362
0.055754799 -0.012805023 0.11188805
0.056193862 -0.0095915189 0.11178899
0.056072321 -0.0055999905 0.11155337
0.056375589 -0.0016238388 0.11073327
0.056738071 0.0030510554 0.11090744
0.055339132 0.0072717839 0.11113441
0.05707087 -0.01005535 0.10824418
0.056703124 -0.0050522387 0.10824001
0.05672111 -0.0017347386 0.1076678
0.056877136 0.0029013352 0.10659754
0.056543112 0.0062422818 0.10677284
0.019775851 -0.0074442821 0.18273193
0.020105992 -0.0036660712 0.18318763
0.018733876 0.00061878003 0.18367913
0.018618772 0.0043545035 0.18326762
0.018669657 0.0092809647 0.18237942
0.038842782 0.018025858 0.14182711
0.039497443 0.017265394 0.13861677
0.037369914 0.01955205 0.13831174
0.040760636 0.016139587 0.1344952
0.04584907 -0.021649318 0.132909
0.044780731 0.013670503 0.1308116
0.041618943 0.014974538 0.12906972
0.04704196 -0.022854259 0.12892812
0.045180712 0.013511294 0.12544414
0.048556671 -0.022479944 0.12453556
0.049537797 -0.019287741 0.12356982
0.048507318 -0.021517618 0.11987942
0.050041489 -0.018676111 0.11847073
0.051670227 -0.018480279 0.11434865
0.05299994 -0.016270885 0.11399889
0.052697644 0.011076267 0.11188722
0.053088427 -0.018848153 0.11048865
0.054744396 -0.015424688 0.11041158
0.054601703 0.0085201832 0.1085096
0.052902665 0.010963464 0.1082077
0.055739675 -0.014013348 0.10615295
0.056981463 -0.0095698768 0.1055333
0.056647029 -0.006012613 0.10572952
0.056729846 -0.0018327319 0.10506332
0.057286162 0.002835037 0.1046437
0.055289421 0.0078793308 0.10434973
0.053296003 0.010155351 0.10373616
0.056710072 -0.013123976 0.10202986
0.057601437 -0.0099960919 0.10144162
0.057321258 -0.0059952587 0.10106266
0.057305165 -0.0019810579 0.10092366
0.057445355 0.0025302516 0.10108888
0.056777973 0.0069180964 0.100169
0.057425022 -0.0014516729 0.097114325
0.05765738 0.0022263445 0.096724749
0.057303581 0.0052442206 0.096797049
0.012005823 0.0005207163 0.18346527
0.011859911 0.0032139623 0.18325549
0.015318735 -0.0078286203 0.18248141
0.01506206 -0.0034964185 0.18304586
0.015169501 0.00057813484 0.18387711
0.014737692 0.0049151308 0.18294132
0.038713217 0.017072279 0.13134328
0.03910007 0.016659791 0.12690729
0.04214808 0.01353433 0.12574723
0.040785465 0.015766336 0.12288004
0.043672495 0.013368633 0.12033749
0.042077526 0.014682121 0.11893129
0.04800117 -0.021699848 0.11655742
0.048258457 -0.022543876 0.11294007
0.050237469 -0.019979183 0.11330092
0.049575806 -0.022568677 0.10866195
0.052071385 -0.01965596 0.1069901
0.050775394 -0.02218808 0.10445231
0.051829066 -0.019326843 0.10293174
0.053967476 -0.0163022 0.10290009
0.052421041 0.011095046 0.10146022
0.054457732 -0.015448678 0.098319769
0.055202775 0.008593197 0.096730232
0.052780457 0.010482285 0.096817493
0.055422612 -0.015101357 0.093734205
0.056702103 -0.010299016 0.094761491
0.056213737 -0.0062902379 0.094189942
0.056633744 -0.0024468235 0.093897343
0.057222195 0.0015116443 0.093702018
0.056008205 0.0065462817 0.093390942
0.05400518 0.0091084754 0.091690302
0.056823697 -0.01411221 0.089738369
0.057289533 -0.010511326 0.089402735
0.056897826 -0.0064880759 0.088917136
0.057030916 -0.0024368195 0.088918686
0.05762887 0.0016297223 0.089351714
0.057222094 0.0056521129 0.088852167
0.055379853 0.0083190436 0.088049531
0.057169266 0.001471365 0.084974587
0.057118483 0.0048426972 0.084826171
0.0096049141 -0.0036036177 0.18284795
0.0091468953 0.00047516491 0.18328321
0.0095766615 0.0047955732 0.18268114
0.038546257 0.017456096 0.12065452
0.038913999 0.016254505 0.11637187
0.037068028 0.018713126 0.11645901
0.045466151 -0.023255853 0.11440617
0.041580524 0.01312756 0.11178112
0.039625525 0.015204458 0.11294311
0.046654496 -0.024751736 0.11063522
0.048123378 -0.024420537 0.10704637
0.044583268 0.012876566 0.10369635
0.051319651 -0.019677712 0.09996748
0.047561392 0.012739435 0.099492669
0.051275868 -0.019370193 0.096970797
0.049822673 0.011912474 0.094683409
0.048444934 0.012528054 0.092422187
0.052763853 -0.018969612 0.09240067
0.052277531 0.010535572 0.089663565
0.048931107 0.012480848 0.090889335
0.054683447 -0.019198364 0.088567972
0.055750608 -0.016307037 0.087751508
0.054307632 0.0099860048 0.085731626
0.055780191 -0.013527383 0.083126903
0.056503057 -0.010811362 0.082727671
0.05679008 -0.0067318315 0.082877159
0.056821093 -0.0026703728 0.082785249
0.057033677 0.0013600134 0.081871212
0.056758456 0.0056139263 0.081910908
0.054610286 0.00914077 0.081851959
0.056594867 -0.0069015832 0.078711033
0.056544695 -0.0028336938 0.078543544
0.056283578 0.0012233356 0.078176737
0.055870056 0.0045985063 0.077685952
0.0029985053 0.0001248426 0.18340838
0.0064143622 0.00043633184 0.18320295
0.037109666 0.017279869 0.11363071
0.038617935 0.01627334 0.11041713
0.039822169 0.014309571 0.10533905
0.037715182 0.017852852 0.10475743
0.040553827 0.014494746 0.10008389
0.04408576 0.014024305 0.096340179
0.045430951 0.013542054 0.091635108
0.050472483 -0.020165114 0.090333164
0.047220264 0.01319132 0.086922646
0.051176138 -0.020251382 0.088003576
0.048370957 0.012235461 0.08242929
0.052694015 -0.016078172 0.081310034
0.053225704 0.0093746064 0.078383386
0.053675089 -0.013844335 0.077156067
0.055206761 -0.011104304 0.076517284
0.056325726 -0.0070362049 0.075455606
0.056177206 -0.0029646687 0.075195074
0.055983476 0.0011046415 0.074891686
0.055586562 0.0051893136 0.075063348
0.052838035 0.0087027103 0.074292898
0.055402026 -0.010901418 0.071957111
0.056353159 -0.0072354898 0.070456862
0.056414314 -0.0031418477 0.070396245
0.055867501 0.00092186173 0.069754601
0.055300407 0.0050128945 0.06976521
0.054019332 0.0077742287 0.070812404
0.056814194 -0.010060516 0.067952394
0.057440042 -0.0070940736 0.066651583
0.057455473 -0.0033089716 0.065596104
0.057000875 0.00046839283 0.066313803
0.056261916 0.0049135825 0.066653013
0.039079785 0.015491739 0.098748326
0.03757545 0.017847348 0.098613024
0.040697899 0.015381516 0.095245898
0.038998194 0.01672242 0.0936867
0.042963419 0.015227222 0.0903427
0.040497832 0.016583171 0.08906889
0.044878621 0.015066781 0.085118711
0.04611918 0.014112856 0.080688596
0.049482517 -0.017382465 0.077338636
0.047415275 0.012782558 0.077517748
0.051081214 -0.015967496 0.074163556
0.053131852 -0.014012982 0.073629081
0.051452741 0.01058754 0.073328257
0.052354012 -0.015615857 0.068888843
0.053920731 -0.013605886 0.069925606
0.052529149 0.0094485208 0.068040073
0.052949056 -0.015754228 0.065401793
0.055329118 -0.012478601 0.065572321
0.057143111 -0.0087990994 0.065196276
0.057650123 -0.0033850665 0.063506246
0.056668486 0.0014244678 0.064444602
0.055776972 0.0051652663 0.063980103
0.053764805 0.0087360563 0.064032912
0.055917211 -0.011200761 0.0608145
0.05745542 -0.0075772828 0.061399579
0.057792868 -0.0034926392 0.060597897
0.056887355 0.00060761865 0.060613275
0.056083459 0.0045206072 0.059972286
0.053964768 0.007420369 0.059609294
0.057129212 -0.0077591399 0.057002902
0.057418175 -0.0037037323 0.055125713
0.056813583 0.00046040365 0.056462944
0.056059293 0.0038604757 0.05562526
-0.0058880365 0.00066126807 0.18437299
-0.0032795498 0.00033131335 0.18385804
0.036431909 0.018621417 0.091736019
0.038286261 0.017925879 0.087032199
0.04011374 0.016966794 0.082706571
0.04170927 0.016276401 0.078154802
0.044773273 -0.019754462 0.074006021
0.044763464 0.013741128 0.074509859
0.047898736 -0.01802741 0.071823597
0.04647645 0.011897793 0.070609033
0.048704728 -0.021034034 0.066065788
0.04992393 -0.017811367 0.067648351
0.04758995 0.011744964 0.065572619
0.050144076 -0.020790825 0.062842607
0.052290048 -0.017025923 0.063105285
0.054102149 -0.014478029 0.062405527
0.052442808 0.0095002046 0.060112119
0.049592309 0.011612702 0.061379433
0.051262226 -0.02020346 0.059811115
0.052997641 -0.016989619 0.058333158
0.054990496 -0.013441591 0.058570266
0.055188417 0.005956464 0.056758404
0.053148918 0.0084779821 0.056738079
0.053408608 -0.016913194 0.054623485
0.055703707 -0.012325179 0.053876281
0.057390638 -0.0078658434 0.054189503
0.056903753 0.00035524828 0.053479791
0.055813808 0.0046476382 0.052721143
0.053882055 0.0077237906 0.051725864
0.056329556 -0.01085249 0.049097538
0.057003532 -0.008093873 0.048660636
0.056921329 -0.0039607137 0.048465788
0.056037478 -9.6684795e-05 0.048718214
0.054949984 0.0036122738 0.048360348
0.03622704 0.018819505 0.080619276
0.037839074 0.018349051 0.076551914
0.042251945 -0.021934561 0.073745131
0.042303085 0.014685362 0.070663452
0.039778285 0.016599178 0.072314501
0.043250084 -0.020838888 0.069761515
0.04296628 0.01389304 0.067239642
0.04078383 0.015987989 0.06716311
0.04565794 -0.024328643 0.064788103
0.046087656 -0.021735733 0.066348076
0.044396129 0.013416916 0.06299299
0.046433739 -0.024514213 0.060403347
0.049288578 -0.022936104 0.062079847
0.04972218 -0.018796245 0.061354816
0.047254905 0.012940498 0.059088588
0.050168294 -0.02147566 0.057138324
0.051003456 -0.018981973 0.056441784
0.05100698 0.010025694 0.054599226
0.048009653 0.012088409 0.053673148
0.051914692 -0.018256502 0.051469266
0.053745594 -0.014950896 0.051808119
0.051020265 0.0099021178 0.050491095
0.049359698 0.011275935 0.049854338
0.052444443 -0.017911037 0.048532128
0.053620629 -0.013768674 0.047166586
0.054812603 0.0014643193 0.046212673
0.054023776 0.0045633214 0.045858264
0.052445669 0.0081382077 0.045742452
0.054046307 -0.013006428 0.043067396
0.055306487 -0.0093106693 0.042150795
0.055226941 -0.0042425054 0.04158783
0.05418333 -8.3583567e-05 0.041725993
0.053831987 0.0042378288 0.041256905
0.053147487 0.0073149037 0.041615307
0.055346183 -0.009217469 0.038711905
0.055444531 -0.004349187 0.038681746
0.054842696 0.0011776023 0.037924469
0.055413265 0.0039068344 0.036338806
0.036636166 0.018975208 0.073396266
0.037060823 0.01830985 0.069328785
0.03838696 0.018039186 0.064849913
0.042759828 -0.022283986 0.066070557
0.042597823 0.014407079 0.060738027
0.040026888 0.016378732 0.060699463
0.043283701 0.014305608 0.05728364
0.041348476 0.015664084 0.055385709
0.045286417 0.014142789 0.051999092
0.043488111 0.015531672 0.051247418
0.049300943 -0.021043779 0.050700605
0.048167672 0.01283935 0.047601879
0.045282431 0.015421526 0.04780978
0.048494034 -0.021002021 0.04469794
0.049929857 -0.017494122 0.043940187
0.052512288 -0.015308834 0.044371128
0.051066861 0.0096853217 0.043286562
0.049016424 0.012478593 0.043251812
0.050325189 -0.016905665 0.041182518
0.052992173 -0.014361258 0.040235043
0.053490348 -0.00019730926 0.038684011
0.053772416 0.0025949087 0.038894057
0.052304916 0.0086147338 0.038645208
0.049766116 0.012112985 0.038788199
0.053626914 -0.014083373 0.035786808
0.055375714 -0.010037699 0.035622358
0.055186171 -0.0051763928 0.035300612
0.054648299 -0.00047726158 0.035414875
0.054713387 0.0038808587 0.035627365
0.053394251 0.0076232236 0.034486413
0.050960593 0.010826658 0.034782887
0.054843459 -0.012991053 0.032002151
0.055567093 -0.010054443 0.0308218
0.055362429 -0.0055497498 0.030422628
0.055133957 -0.00049572252 0.02986443
0.055604544 0.0037057232 0.03023845
0.054224458 0.0069554495 0.030143023
0.055006795 -0.0033698517 0.027697206
0.054596543 0.0063912054 0.02702111
0.036999412 0.018095318 0.057364345
0.037954077 0.017389219 0.053115785
0.039333139 0.016893739 0.048216701
0.042018671 0.016311856 0.044942319
0.046497498 -0.019853272 0.040587306
0.045053191 0.015220168 0.040283442
0.048412032 -0.01872951 0.038266063
0.048666257 0.01368765 0.036592782
0.045267209 0.015110441 0.036301851
0.049612131 -0.018275836 0.033441782
0.052050337 -0.015799085 0.033440351
0.05143588 0.0093492754 0.032148659
0.049237438 0.012387197 0.031943083
0.051239438 -0.017447455 0.028425455
0.053252272 -0.014995245 0.029718876
0.052355085 0.0088827917 0.028351009
0.050286107 0.010959879 0.027234972
0.05318943 -0.014276305 0.024686694
0.054616518 -0.010695632 0.024755836
0.054795895 -0.0062986002 0.024374187
0.054587349 -0.0017024787 0.024191737
0.054546475 0.0030855327 0.023723125
0.053049292 0.0078427624 0.02299726
0.050898619 0.010484444 0.023099303
0.053853698 -0.013504377 0.020385623
0.054753952 -0.010535341 0.019380927
0.054679871 -0.00646833 0.020001173
0.0545827 -0.0022997174 0.01872611
0.054410014 0.002193291 0.018645287
0.053821463 0.0053947582 0.017736256
0.036287274 0.018420296 0.051487207
0.036881395 0.018347481 0.0489344
0.040049776 0.016711738 0.041598678
0.041390929 0.016621007 0.038719356
0.047008857 -0.020104093 0.034785986
0.045498237 0.015029054 0.03337419
0.048549056 -0.020178566 0.032113791
0.047322955 0.013455419 0.027855754
0.049422894 -0.019601068 0.028748393
0.048670497 0.011958794 0.025023699
0.051058073 -0.018119959 0.02400434
0.052614979 -0.015563963 0.022350669
0.049684729 0.011112074 0.020232439
0.050384149 -0.017889768 0.019025207
0.05279747 -0.015240118 0.01810509
0.054426212 -0.01223748 0.016674638
0.0548313 -0.0065830261 0.016958117
0.053443246 0.0071222638 0.016761899
0.051606059 0.0093565527 0.016747117
0.052184753 -0.015211999 0.014395237
0.053755812 -0.010627969 0.013244689
0.053891048 -0.0067589888 0.012752593
0.054248214 -0.0025089998 0.013024509
0.054292917 0.001718979 0.012966335
0.053740587 0.0059263464 0.01227814
0.052145977 0.0087615652 0.012676418
0.053614292 -0.0026567224 0.009126246
0.053974118 0.0015969465 0.0094032288
0.05375392 0.0044123 0.0091000795
0.035874981 0.019159334 0.03574127
0.036683321 0.017915284 0.03190732
0.047295112 0.011805324 0.019346714
0.050140552 -0.018051103 0.015552938
0.048847981 0.011186921 0.014537215
0.049682431 -0.018229073 0.011842847
0.051052961 -0.015399937 0.010691941
0.052611403 -0.011826152 0.010449588
0.049653769 0.010088901 0.009375155
0.051583275 -0.015105471 0.0061926246
0.052957535 -0.011272362 0.0064747334
0.053199802 -0.0070045609 0.0066282153
0.053374633 -0.0027853888 0.005628705
0.053743806 0.0014778452 0.0059185028
0.052727479 0.0058903089 0.0055387616
0.050641026 0.0085235322 0.0046095848
0.05318841 -0.014276873 0.0024501681
0.053850684 -0.011291833 0.0011833906
0.054011311 -0.0072091371 0.00098502636
0.054136533 -0.0029442904 0.0010167956
0.054223232 0.001314157 0.0010076165
0.053519879 0.0053740027 0.00042617321
0.052176781 0.0084048249 0.00081670284
0.036847625 0.016217517 0.021433353
0.038760729 0.01613408 0.019075453
0.041402578 0.014343794 0.0153597
0.0467976 -0.019677524 0.013183951
0.04257657 0.013582999 0.010539353
0.046970077 -0.019146182 0.0090178251
0.047214389 0.011465238 0.0074205399
0.050386395 -0.017088281 0.004968226
0.048219323 0.010623219 0.0030730963
0.051548276 -0.016237376 0.00042617321
0.035537023 0.017572826 0.017917752
0.039995976 0.015955005 0.012789905
0.036948271 0.017425781 0.01286912
0.041049395 0.015353085 0.008474648
0.037389126 0.017320884 0.0089820027
0.042014174 0.014002657 0.0047269464
0.046026707 -0.018744992 0.0025621653
0.046935901 0.011241108 -0.00048929453
0.043657627 0.013438019 0.00035238266
0.036295705 0.017971558 0.0056552887
0.040007677 0.01566926 0.0019258261
0.037193503 0.017123045 0.0011349916
0.042500701 -0.020403704 -3.182888e-05
