# .PCD v0.7 - Point Cloud Data file format
VERSION 0.7
FIELDS x y z
SIZE 4 4 4
TYPE F F F
COUNT 1 1 1
WIDTH 413
HEIGHT 1
VIEWPOINT 0 0 0 1 0 0 0
POINTS 413
DATA ascii
-0.031702615 -0.011009039 0.17997849
-0.030827597 -0.014265375 0.18108082
-0.028716262 -0.018384013 0.18128672
-0.026645925 -0.021785669 0.18093163
-0.024906587 -0.024955759 0.18005016
-0.032219276 -0.014889993 0.17693859
-0.030484255 -0.018953208 0.17656982
-0.028264908 -0.021970062 0.1771253
-0.030171091 -0.0010653213 0.18282154
-0.028889066 -0.0041620056 0.18360105
-0.027503734 -0.007895913 0.18355632
-0.025928497 -0.011766294 0.18311149
-0.023890097 -0.016760986 0.18277216
-0.021972666 -0.019932212 0.18358544
-0.020259842 -0.023681231 0.18309167
-0.032022312 -0.0012243893 0.18027818
-0.031432297 -0.0051685511 0.18106788
-0.030753464 -0.0089108991 0.18097454
-0.028208336 -0.013203807 0.18261927
-0.026719082 -0.017592592 0.18266413
-0.023540759 -0.025480678 0.1805883
-0.03323276 -0.001893091 0.17665726
-0.032890435 -0.0055701113 0.17581445
-0.032471862 -0.0097155692 0.17565009
-0.033003237 -0.012798687 0.1749824
-0.02812246 -0.022468016 0.17469579
-0.025598319 -0.025423694 0.17474777
-0.033160139 -0.0069545158 0.1717867
-0.032993279 -0.0099132871 0.17081782
-0.032217622 -0.014461294 0.17119563
-0.030476142 -0.018742368 0.17104492
-0.028462557 -0.022176567 0.17048389
-0.025932008 -0.025390018 0.16949689
-0.023828877 -0.027734332 0.16905263
-0.033817835 -0.010986008 0.16640955
-0.032917354 -0.014559603 0.16622508
-0.031125184 -0.018828344 0.16603601
-0.028711479 -0.02212552 0.16606674
-0.026581204 -0.024831209 0.16614988
-0.033802968 -0.014089955 0.16306412
-0.032400858 -0.017433159 0.1624572
-0.017448042 -0.014407285 0.18279016
-0.016802825 -0.017764602 0.18315655
-0.028100096 0.00077452231 0.18329018
-0.026370801 -0.0030832933 0.18433559
-0.02388631 -0.0063139829 0.18341568
-0.021842118 -0.010104965 0.18247801
-0.02093685 -0.014112536 0.18250138
-0.018823456 -0.021496028 0.18361628
-0.03116673 0.00074814539 0.18124729
-0.032948665 -0.00077425037 0.17373881
-0.032453224 -0.00088256318 0.1692794
-0.03275476 -0.005010651 0.16893601
-0.032968726 -0.0081634559 0.16828874
-0.032656554 -0.0050954125 0.16381446
-0.033277735 -0.0087152254 0.16460121
-0.028326983 -0.021857047 0.16295704
-0.025949713 -0.025406022 0.16347444
-0.023556666 -0.028517142 0.16307878
-0.033017561 -0.0063796965 0.16047341
-0.033082787 -0.0097930506 0.16017824
-0.032803461 -0.013509951 0.15940827
-0.030669561 -0.01820372 0.15931508
-0.027748741 -0.021278389 0.1592128
-0.025822811 -0.025009215 0.15918425
-0.024046658 -0.028587798 0.15882781
-0.032172073 -0.01308242 0.15558106
-0.030911155 -0.016534811 0.15556967
-0.021220341 -0.00074740406 0.18299732
-0.019708091 -0.0044674487 0.18285966
-0.017915197 -0.008268144 0.18323708
-0.015861044 -0.011733262 0.18310177
-0.01334679 -0.015838031 0.18308598
-0.03198725 0.0011143303 0.166439
-0.032184128 0.0005438989 0.16249493
-0.03280592 -0.003406059 0.16139919
-0.032798372 -0.00033913832 0.15873283
-0.032696471 -0.0044631637 0.15764251
-0.032649949 -0.0080328248 0.15754178
-0.027006822 -0.021800313 0.15642077
-0.025406588 -0.024735773 0.15602273
-0.023722066 -0.028363474 0.15574586
-0.032786004 -0.005070203 0.15324673
-0.03283843 -0.0089136325 0.15356192
-0.032296792 -0.013035519 0.15314329
-0.029983504 -0.017678691 0.15309197
-0.027492674 -0.021156043 0.1528784
-0.025349464 -0.024588924 0.15221
-0.023457021 -0.028136512 0.15175742
-0.033140864 -0.0093309656 0.1489037
-0.032791495 -0.013080382 0.14903206
-0.03082053 -0.016888175 0.14877707
-0.02838487 -0.020623365 0.14778009
-0.025826417 -0.023679497 0.14794841
-0.032838952 -0.013211326 0.14459246
-0.031035407 -0.016539501 0.14489776
-0.029604789 -0.018832233 0.14444691
-0.010957127 -0.0058471998 0.18368983
-0.0096214106 -0.0082006548 0.18334743
-0.016766297 0.00085936347 0.18280271
-0.015194585 -0.002506406 0.18299916
-0.013948601 -0.0060228542 0.18344942
-0.011487686 -0.0097178258 0.18312311
-0.032038178 0.0014741141 0.15541595
-0.032429513 0.00074740872 0.15085074
-0.032490306 -0.0035097152 0.15092283
-0.032699339 -0.00070531853 0.14687026
-0.0327418 -0.0041552139 0.14657572
-0.0328626 -0.0076323878 0.14635378
-0.027004492 -0.022140635 0.14527816
-0.02460948 -0.024547599 0.14539197
-0.022839257 -0.027510682 0.1452626
-0.032602753 -0.0048803389 0.14225629
-0.032843124 -0.0086147357 0.14243579
-0.03246503 -0.012265299 0.14149976
-0.030805981 -0.016324529 0.14183396
-0.028147887 -0.020509277 0.14174634
-0.025360245 -0.024223389 0.14083099
-0.02325948 -0.027709991 0.1402002
-0.032413725 -0.0095397914 0.13833618
-0.031908527 -0.012720609 0.13756666
-0.031127894 -0.016287901 0.13733122
-0.028986854 -0.020487599 0.13686466
-0.026255285 -0.024018137 0.13603124
-0.023837915 -0.027110677 0.1366775
-0.031551201 -0.01660073 0.13317567
-0.03029996 -0.019942693 0.13255313
-0.028255692 -0.022708956 0.13248256
-0.010437488 -0.00043307408 0.18299213
-0.0085729975 -0.004081659 0.18352154
-0.0070780236 -0.0082100425 0.18302733
-0.032763045 0.0031426549 0.14840057
-0.032676827 0.0015082899 0.14475617
-0.032029752 0.0011407062 0.14049107
-0.032191686 -0.0030945241 0.13955489
-0.032386884 -0.0066262591 0.1394096
-0.031212529 -0.0039480878 0.13523018
-0.031601895 -0.0073797973 0.13496915
-0.031998545 -0.011195757 0.13530689
-0.024842823 -0.025251869 0.13406965
-0.023181221 -0.02769734 0.13388771
-0.031429868 -0.0083001442 0.13086754
-0.031520247 -0.011779072 0.13063997
-0.031637643 -0.015872048 0.13045657
-0.030108072 -0.020717543 0.13016802
-0.026570592 -0.024203597 0.12990174
-0.023081336 -0.027316488 0.12946802
-0.031482022 -0.012350895 0.12693372
-0.031126039 -0.016036717 0.12602586
-0.030008767 -0.019793805 0.12598959
-0.027665691 -0.022780282 0.12528917
-0.025359262 -0.025202077 0.1258319
-0.029302791 -0.020823324 0.12187922
-0.0029334556 -0.0016296689 0.18289176
-0.0061712964 -0.0023002012 0.1833474
-0.031778179 0.0023194999 0.13800585
-0.031685986 0.0024065236 0.13407966
-0.031278089 -0.002383492 0.13292757
-0.031519391 0.0013313293 0.13002071
-0.031505711 -0.0029563196 0.12837338
-0.031594388 -0.0067920671 0.12864643
-0.022930201 -0.027163891 0.12642574
-0.031688467 -0.004134106 0.12377855
-0.032331601 -0.0074158842 0.12425411
-0.031649802 -0.011364441 0.12430382
-0.031037193 -0.01423198 0.12326992
-0.026029693 -0.023921417 0.12309706
-0.023911174 -0.026484713 0.12313929
-0.032703146 -0.0082599167 0.11936623
-0.031959739 -0.011505444 0.11933345
-0.030644141 -0.01539489 0.11942422
-0.029153552 -0.019002972 0.11905277
-0.027031481 -0.022718295 0.11869746
-0.024517573 -0.025895853 0.1178776
-0.03177879 -0.01201266 0.11545026
-0.030962013 -0.015059497 0.11491513
-0.029292211 -0.019283006 0.11421305
-0.027678614 -0.022333086 0.11391538
-0.02533224 -0.025563166 0.11429304
-0.031347819 0.00035120267 0.12707531
-0.031176254 -0.0010347664 0.12281439
-0.031538226 -0.0021165898 0.11797607
-0.032407161 -0.0060404707 0.11761045
-0.023577487 -0.027091652 0.11529356
-0.031570926 -0.003138111 0.11398292
-0.032528423 -0.0071953074 0.11292011
-0.0319454 -0.011017933 0.11277944
-0.030638348 -0.015483906 0.11214644
-0.029816356 -0.018466577 0.11188239
-0.026662741 -0.023309872 0.11143792
-0.024270853 -0.025980167 0.11105543
-0.032554206 -0.0083534261 0.10911918
-0.03172848 -0.011150453 0.10788286
-0.030840108 -0.015029258 0.10776323
-0.029543541 -0.018949522 0.1078884
-0.027319346 -0.022451878 0.10713714
-0.024603123 -0.025267577 0.10643888
-0.032449909 -0.012519949 0.10240775
-0.031343464 -0.015069919 0.10326356
-0.029688513 -0.018843967 0.10325223
-0.027985148 -0.021864196 0.10356569
0.0061702551 0.0022619972 0.18345454
0.0041108485 0.0013890479 0.18313336
-0.031348214 0.00082275365 0.11721849
-0.032030456 -0.00090434123 0.11194932
-0.032209035 -0.0052370331 0.10987967
-0.032134973 -0.0019074855 0.10729855
-0.032344241 -0.0066623189 0.10680479
-0.031955469 -0.010177788 0.1052447
-0.023896977 -0.026395096 0.10423559
-0.032575771 -0.0062606195 0.10219657
-0.032591991 -0.010880742 0.10202527
-0.031743664 -0.015139338 0.1006487
-0.029475424 -0.018650977 0.10035163
-0.027170451 -0.022381596 0.10051608
-0.024772717 -0.02543848 0.10061383
-0.032631941 -0.0071568629 0.097949386
-0.032570709 -0.011167355 0.097336709
-0.031559553 -0.014720324 0.096648276
-0.029357588 -0.0184718 0.096728265
-0.027355554 -0.02180589 0.096297741
-0.024700008 -0.025805328 0.096925914
-0.032119773 -0.012043207 0.09404844
-0.031289659 -0.014658997 0.093170285
-0.030979425 0.0011286112 0.10370153
-0.031136245 4.2544678e-05 0.099762857
-0.031516876 -0.0029704925 0.099740624
-0.031658746 -0.0013155043 0.0953632
-0.031584434 -0.004684987 0.095082641
-0.030969225 -0.0085325753 0.094008923
-0.025192766 -0.02261769 0.093565941
-0.023322757 -0.024817199 0.092696071
-0.0315703 -0.0067507685 0.090451539
-0.03167947 -0.01002639 0.090806544
-0.030639024 -0.01457832 0.090403616
-0.028306486 -0.017814636 0.090664685
-0.026083622 -0.021367058 0.089916587
-0.023618257 -0.02482125 0.08893621
-0.031753249 -0.011183579 0.085958362
-0.030763123 -0.014144007 0.085552692
-0.02872327 -0.017603451 0.085175574
-0.026767112 -0.021270275 0.085005939
-0.024554016 -0.024347741 0.085551262
-0.030954465 0.0019761799 0.096783638
-0.03117146 0.00097130239 0.092972159
-0.030950451 -0.0023754537 0.092098534
-0.03092788 -0.00026611332 0.087904453
-0.031296104 -0.0036975965 0.088520706
-0.03150909 -0.0042778621 0.083749652
-0.031733487 -0.0082647037 0.084266186
-0.028057002 -0.018934138 0.082764864
-0.026154328 -0.021887504 0.082090318
-0.024356233 -0.02515405 0.083045542
-0.031588551 -0.0097037312 0.079285622
-0.031194711 -0.014107358 0.079847813
-0.029512571 -0.017923152 0.079633176
-0.027287196 -0.021495644 0.078877926
-0.024882227 -0.024996813 0.077946246
-0.030961795 -0.013802024 0.074472189
-0.029165236 -0.017580977 0.074147701
-0.02753217 -0.020704376 0.074772
-0.030284578 0.0022429368 0.086759686
-0.030483471 0.0015413333 0.08215934
-0.031060081 -0.0019651325 0.081969321
-0.030956944 0.00061134994 0.07699424
-0.030788278 -0.0029955255 0.07774204
-0.03089783 -0.0070410836 0.077341616
-0.031575039 -0.00027988292 0.073714674
-0.031127244 -0.0031350832 0.073223054
-0.030675387 -0.0073308619 0.0729056
-0.030873461 -0.012457553 0.072125256
-0.028892355 -0.017346241 0.070774972
-0.026261156 -0.020832185 0.071680367
-0.024022689 -0.024462584 0.071950018
-0.031136932 -0.0080406554 0.068321824
-0.030915732 -0.012525325 0.068224251
-0.029000523 -0.017283879 0.067774415
-0.026285116 -0.020887952 0.067364991
-0.02393603 -0.024081446 0.066883564
-0.022146197 -0.026606854 0.067955256
-0.031151295 -0.012351255 0.064430177
-0.029935447 -0.016168639 0.0635373
-0.027226105 -0.02018233 0.063064814
-0.031137509 0.0028686654 0.076430321
-0.031399142 0.0016783718 0.070624173
-0.031286728 -0.0030735405 0.070263982
-0.031279702 0.0007092841 0.066283882
-0.031338073 -0.0029123286 0.066135943
-0.031503379 -0.0065728263 0.066102624
-0.023248997 -0.025432631 0.064414263
-0.031042039 -0.0077349255 0.061950445
-0.031166375 -0.011549613 0.06139195
-0.029370103 -0.017189721 0.060857654
-0.027993895 -0.01965108 0.06046474
-0.024495423 -0.022964178 0.060298979
-0.021960061 -0.026013162 0.060588121
-0.03068505 -0.0084039969 0.057018757
-0.030808931 -0.011856114 0.05744791
-0.029432533 -0.015335358 0.056405902
-0.027382556 -0.018966356 0.05679518
-0.024779567 -0.021229528 0.056084156
-0.031164883 0.0022732411 0.064296126
-0.031255923 0.0022424376 0.059972286
-0.030521313 -0.0022844486 0.060042977
-0.030201288 -0.0056846752 0.058461964
-0.031706627 0.0015487941 0.055297732
-0.031112144 -0.0023352718 0.055371106
-0.030706426 -0.0067769131 0.054757297
-0.030204218 -0.01076075 0.053735733
-0.028305922 -0.016478691 0.053450346
-0.026391324 -0.019120017 0.053158522
-0.023783611 -0.022277175 0.053817093
-0.031627882 -0.0034167441 0.051310539
-0.030972365 -0.0065034828 0.050107479
-0.030263197 -0.011032631 0.050221384
-0.02916632 -0.015164217 0.049593329
-0.026928371 -0.018610742 0.049358904
-0.023794997 -0.022322576 0.049050331
-0.021670194 -0.025356296 0.049141705
-0.031271927 -0.0082033686 0.045965433
-0.030959826 -0.01114951 0.045639336
-0.029902659 -0.015306992 0.045058131
-0.027413502 -0.019070273 0.044890583
-0.024860056 -0.022068925 0.045457006
-0.031476866 -0.012749437 0.041389763
-0.030487739 -0.015114578 0.041519761
-0.029072702 -0.017930672 0.042051435
-0.032077361 0.0030492628 0.053031504
-0.031124549 0.0021348763 0.048289478
-0.031430058 -0.0016478598 0.048436403
-0.031369969 -0.0024520382 0.0437361
-0.031503715 -0.0062334491 0.04414475
-0.024702679 -0.022606939 0.042655766
-0.02177586 -0.02571211 0.042343497
-0.031473033 -0.0066631748 0.038825512
-0.031580951 -0.010727902 0.039423823
-0.030080555 -0.015524602 0.03843683
-0.027496655 -0.018889818 0.038570642
-0.024489392 -0.021852903 0.037388206
-0.022101186 -0.024950467 0.038145781
-0.031654004 -0.0079004113 0.034564018
-0.031155311 -0.011101442 0.034374118
-0.02973715 -0.014837591 0.034166992
-0.027668674 -0.018291494 0.033689737
-0.03118477 -0.00096120778 0.041295648
-0.031611189 0.0017401222 0.038096428
-0.03149005 -0.0015044929 0.037966967
-0.031087199 -0.0061382721 0.035559416
-0.023548942 -0.023117002 0.034579873
-0.021422688 -0.025370818 0.035550237
-0.032247469 0.0012529921 0.03404659
-0.032022342 -0.0019405624 0.033084035
-0.031883564 -0.0058692517 0.033353031
-0.030970601 -0.010606837 0.031685889
-0.029419124 -0.014572321 0.030583084
-0.02713565 -0.018282538 0.03085053
-0.024699382 -0.021962062 0.032034397
-0.021829104 -0.025609069 0.031474769
-0.031628639 -0.0029417789 0.028522491
-0.032178495 -0.0063410099 0.029158592
-0.031171035 -0.010364455 0.028308272
-0.029426519 -0.014456068 0.027337193
-0.027517298 -0.018530646 0.027813613
-0.025275582 -0.022046214 0.027248323
-0.022763181 -0.025138151 0.02673012
-0.029164715 -0.015005348 0.024068892
-0.02806082 -0.018572336 0.022428811
-0.026239166 -0.021516075 0.022586584
-0.032011218 -3.0674972e-05 0.029996693
-0.030954218 0.0022419253 0.02499187
-0.031763118 -0.0013293382 0.026284814
-0.030995779 -0.0056387288 0.0245893
-0.030703887 -0.0014545061 0.021747589
-0.030690726 -0.0056845746 0.021298766
-0.029983355 -0.0099677444 0.021143198
-0.029091338 -0.013852006 0.020814896
-0.028630812 -0.016972767 0.019963384
-0.025218999 -0.02241591 0.020013094
-0.021934954 -0.024882652 0.019302964
-0.029652625 -0.0079220273 0.01766336
-0.029007584 -0.014186373 0.01628089
-0.028067598 -0.018182026 0.016623616
-0.025648076 -0.021832341 0.015660048
-0.02235771 -0.024388578 0.015652061
-0.029041911 -0.014788645 0.012329578
-0.027927041 -0.017987084 0.01261878
-0.026038779 -0.021110857 0.012508929
-0.030789701 -7.5435266e-05 0.019528627
-0.030286035 -0.003515305 0.01884377
-0.03139811 0.0025323061 0.014446676
-0.030808344 -0.00061664172 0.014561057
-0.030352244 -0.0049636462 0.015079618
-0.029394623 -0.0092652868 0.014645636
-0.028766792 -0.012119509 0.013999581
-0.021348961 -0.025209047 0.013184369
-0.031088049 -0.0019126981 0.010301948
-0.030879209 -0.0051504998 0.0093696117
-0.029876098 -0.009274126 0.0096503496
-0.02926062 -0.01321756 0.0097812414
-0.027770709 -0.017814469 0.0094632506
-0.025296161 -0.02170709 0.0092157722
-0.022166433 -0.024425151 0.0081638098
-0.030418105 -0.0096401535 0.0050444603
-0.029622454 -0.013697874 0.0044624209
-0.028132129 -0.017796079 0.004547298
-0.025630858 -0.021232562 0.0040413141
-0.023065973 -0.02354658 0.0040025711
-0.030102858 0.00066103693 0.0081123114
-0.03033801 -0.0003224425 0.0032864809
-0.030649802 -0.0043833191 0.0035727024
-0.03085839 -0.0078695063 0.003492713
-0.022003656 -0.02409533 0.0017174482
-0.030423276 0.0011880081 0.00082099438
