# .PCD v0.7 - Point Cloud Data file format
VERSION 0.7
FIELDS x y z
SIZE 4 4 4
TYPE F F F
COUNT 1 1 1
WIDTH 1268
HEIGHT 1
VIEWPOINT 0 0 0 1 0 0 0
POINTS 1268
DATA ascii
-0.0018240586 -0.032960415 0.027459655
-0.015888125 -0.030301996 0.029217664
-0.014130116 -0.031189024 0.029217664
-0.012372106 -0.031851888 0.029217664
-0.015888125 -0.030302741 0.030975673
-0.014130116 -0.031192034 0.030975673
-0.012372106 -0.031855203 0.030975673
-0.011742331 -0.032051414 0.029217664
-0.010614097 -0.03234151 0.029217664
-0.0088560879 -0.032673076 0.029217664
-0.011756182 -0.032051414 0.030975673
-0.010614097 -0.032352224 0.030975673
-0.0088560879 -0.032697521 0.030975673
-0.015888125 -0.030314066 0.032733683
-0.014130116 -0.031207778 0.032733683
-0.012372106 -0.031867124 0.032733683
-0.015888125 -0.030317694 0.034491692
-0.014130116 -0.031192042 0.034491692
-0.012372106 -0.031868108 0.034491692
-0.011789285 -0.032051414 0.032733683
-0.010614097 -0.0323615 0.032733683
-0.0088560879 -0.032714933 0.032733683
-0.011793464 -0.032051414 0.034491692
-0.010614097 -0.032366231 0.034491692
-0.0088560879 -0.032728188 0.034491692
-0.005340077 -0.032925174 0.029217664
-0.0035820678 -0.032967493 0.029217664
-0.0018240586 -0.033047915 0.029217664
-0.005340077 -0.032984637 0.030975673
-0.0035820678 -0.033045955 0.030975673
-0.0018240586 -0.033137061 0.030975673
-0.005340077 -0.033034347 0.032733683
-0.0035820678 -0.03309875 0.032733683
-0.0018240586 -0.033191897 0.032733683
-0.005340077 -0.033075914 0.034491692
-0.0035820678 -0.033154421 0.034491692
-0.0018240586 -0.033263385 0.034491692
-6.6049397e-05 -0.032624424 0.022185631
0.0016919598 -0.032643743 0.022185631
-6.6049397e-05 -0.032751054 0.02394364
0.0016919598 -0.032771878 0.02394364
0.003449969 -0.032628596 0.022185631
0.0052079782 -0.032603398 0.022185631
0.003449969 -0.032766201 0.02394364
0.0052079782 -0.032747671 0.02394364
-6.6049397e-05 -0.032868639 0.025701646
0.0016919598 -0.032899879 0.025701646
-6.6049397e-05 -0.032970011 0.027459655
0.0016919598 -0.033002801 0.027459655
0.003449969 -0.032895178 0.025701646
0.0052079782 -0.032878108 0.025701646
0.003449969 -0.033008128 0.027459655
0.0052079782 -0.033005193 0.027459655
0.0069659874 -0.032564931 0.022185631
0.0087239966 -0.032521389 0.022185631
0.0069659874 -0.032711245 0.02394364
0.0087239966 -0.032664493 0.02394364
0.010482006 -0.032476656 0.022185631
0.012240015 -0.032417119 0.022185631
0.010482006 -0.032610752 0.02394364
0.012240015 -0.032548808 0.02394364
0.0069659874 -0.032848574 0.025701646
0.0087239966 -0.032801218 0.025701646
0.0069659874 -0.032976747 0.027459655
0.0087239966 -0.032929666 0.027459655
0.010482006 -0.032747477 0.025701646
0.012240015 -0.032687746 0.025701646
0.010482006 -0.032875158 0.027459655
0.012240015 -0.032807261 0.027459655
-6.6049397e-05 -0.03306511 0.029217664
0.0016919598 -0.033104658 0.029217664
-6.6049397e-05 -0.033161834 0.030975673
0.0016919598 -0.033213764 0.030975673
0.003449969 -0.033123709 0.029217664
0.0052079782 -0.033120371 0.029217664
0.003449969 -0.033235542 0.030975673
0.0052079782 -0.033228546 0.030975673
-6.6049397e-05 -0.033242941 0.032733683
0.0016919598 -0.033302173 0.032733683
-6.6049397e-05 -0.03332188 0.034491692
0.0016919598 -0.033386104 0.034491692
0.003449969 -0.033327103 0.032733683
0.0052079782 -0.033333696 0.032733683
0.003449969 -0.033416554 0.034491692
0.0052079782 -0.033426054 0.034491692
0.0069659874 -0.033093624 0.029217664
0.0087239966 -0.033046983 0.029217664
0.0069659874 -0.033207409 0.030975673
0.0087239966 -0.033149488 0.030975673
0.010482006 -0.032986447 0.029217664
0.012240015 -0.032915145 0.029217664
0.010482006 -0.033083655 0.030975673
0.012240015 -0.033012904 0.030975673
0.0069659874 -0.033309214 0.032733683
0.0087239966 -0.03324008 0.032733683
0.0069659874 -0.033393189 0.034491692
0.0087239966 -0.033309326 0.034491692
0.010482006 -0.033167519 0.032733683
0.012240015 -0.033093229 0.032733683
0.010482006 -0.03323999 0.034491692
0.012240015 -0.033159301 0.034491692
-0.026920661 -0.017987348 0.0063635502
-0.026923381 -0.017987348 0.0081215594
-0.02643618 -0.018794462 0.0063635502
-0.02643618 -0.018779956 0.0081215594
-0.027896285 -0.016229339 0.0063635502
-0.027894706 -0.016229339 0.0081215594
-0.026902854 -0.017987348 0.0098795667
-0.02643618 -0.018753044 0.0098795667
-0.02787286 -0.016229339 0.0098795667
-0.025824502 -0.019745357 0.0063635502
-0.025807917 -0.019745357 0.0081215594
-0.025796227 -0.019745357 0.0098795667
-0.026909716 -0.017987348 0.011637576
-0.02643618 -0.018764235 0.011637576
-0.027873687 -0.016229339 0.011637576
-0.026946321 -0.017987348 0.013395585
-0.02643618 -0.018833458 0.013395585
-0.027908191 -0.016229339 0.013395585
-0.02580478 -0.019745357 0.011637576
-0.025852121 -0.019745357 0.013395585
-0.017896675 -0.028535396 0.016911604
-0.018114343 -0.028535396 0.018669613
-0.017646134 -0.028709449 0.016911604
-0.017646134 -0.028860845 0.018669613
-0.015888125 -0.029791966 0.016911604
-0.015888125 -0.02993878 0.018669613
-0.019404143 -0.027348325 0.016911604
-0.019404143 -0.027505495 0.018669613
-0.018273667 -0.028535396 0.020427622
-0.017646134 -0.028987087 0.020427622
-0.015888125 -0.030077666 0.020427622
-0.019404143 -0.027617253 0.020427622
-0.027017355 -0.017987348 0.015153594
-0.02643618 -0.018954761 0.015153594
-0.027969196 -0.016229339 0.015153594
-0.027144074 -0.017987348 0.016911604
-0.02643618 -0.019145519 0.016911604
-0.028078973 -0.016229339 0.016911604
-0.025933102 -0.019745357 0.015153594
-0.026050292 -0.019745357 0.016911604
-0.027315408 -0.017987348 0.018669613
-0.02643618 -0.019392468 0.018669613
-0.028217942 -0.016229339 0.018669613
-0.028194189 -0.016280875 0.018669613
-0.028194189 -0.016229339 0.018374924
-0.027461097 -0.017987348 0.020427622
-0.02643618 -0.019604921 0.020427622
-0.028357476 -0.016229339 0.020427622
-0.028194189 -0.016583562 0.020427622
-0.026201636 -0.019745357 0.018669613
-0.026342861 -0.019745357 0.020427622
-0.029967159 -0.010955311 0.0063635502
-0.029952198 -0.011007778 0.0063635502
-0.029952198 -0.010955311 0.0075822063
-0.030389577 -0.0091973022 0.0063635502
-0.030374341 -0.0091973022 0.0081215594
-0.029952198 -0.010934383 0.0081215594
-0.030333348 -0.0091973022 0.0098795667
-0.029952198 -0.010797374 0.0098795667
-0.030313782 -0.0091973022 0.011637576
-0.029952198 -0.01072789 0.011637576
-0.030318089 -0.0091973022 0.013395585
-0.029952198 -0.010764807 0.013395585
-0.030346945 -0.0091973022 0.015153594
-0.029952198 -0.010895707 0.015153594
-0.030007884 -0.010955311 0.016911604
-0.029952198 -0.011150725 0.016911604
-0.029952198 -0.010955311 0.015583985
-0.030409254 -0.0091973022 0.016911604
-0.030115008 -0.010955311 0.018669613
-0.029952198 -0.011496916 0.018669613
-0.030516058 -0.0091973022 0.018669613
-0.030249894 -0.010955311 0.020427622
-0.029952198 -0.012003154 0.020427622
-0.030623697 -0.0091973022 0.020427622
-0.028721213 -0.01447133 0.0063635502
-0.028680719 -0.01447133 0.0081215594
-0.028194189 -0.015629806 0.0063635502
-0.028194189 -0.015602872 0.0081215594
-0.029412873 -0.012713321 0.0063635502
-0.0293696 -0.012713321 0.0081215594
-0.028660744 -0.01447133 0.0098795667
-0.028194189 -0.01555489 0.0098795667
-0.029343314 -0.012713321 0.0098795667
-0.029946081 -0.010955311 0.0081215594
-0.029907368 -0.010955311 0.0098795667
-0.028659083 -0.01447133 0.011637576
-0.028194189 -0.015549585 0.011637576
-0.029329754 -0.012713321 0.011637576
-0.0286882 -0.01447133 0.013395585
-0.028194189 -0.015629157 0.013395585
-0.029345252 -0.012713321 0.013395585
-0.029886171 -0.010955311 0.011637576
-0.029897079 -0.010955311 0.013395585
-0.028744638 -0.01447133 0.015153594
-0.028194189 -0.015754245 0.015153594
-0.029396906 -0.012713321 0.015153594
-0.028840758 -0.01447133 0.016911604
-0.028194189 -0.0159849 0.016911604
-0.029477194 -0.012713321 0.016911604
-0.029935166 -0.010955311 0.015153594
-0.028968796 -0.01447133 0.018669613
-0.029586807 -0.012713321 0.018669613
-0.029120199 -0.01447133 0.020427622
-0.029744521 -0.012713321 0.020427622
-0.018420413 -0.028535396 0.022185631
-0.017646134 -0.029089987 0.022185631
-0.015888125 -0.030191861 0.022185631
-0.019404143 -0.027731329 0.022185631
-0.01851818 -0.028535396 0.02394364
-0.017646134 -0.029173523 0.02394364
-0.015888125 -0.030253507 0.02394364
-0.019404143 -0.027791552 0.02394364
-0.026466034 -0.019745357 0.022185631
-0.027588472 -0.017987348 0.022185631
-0.02643618 -0.019745357 0.021769136
-0.028490663 -0.016229339 0.022185631
-0.028194189 -0.016847208 0.022185631
-0.026571408 -0.019745357 0.02394364
-0.02768974 -0.017987348 0.02394364
-0.028624043 -0.016229339 0.02394364
-0.028194189 -0.017067462 0.02394364
-0.030027747 -0.012713321 0.02394364
-0.029952198 -0.012937576 0.02394364
-0.029952198 -0.012713321 0.023024078
-0.030418709 -0.010955311 0.022185631
-0.029952198 -0.012522124 0.022185631
-0.030764431 -0.0091973022 0.022185631
-0.030562587 -0.010955311 0.02394364
-0.030912988 -0.0091973022 0.02394364
-0.030289911 -0.012713321 0.027459655
-0.030378439 -0.012713321 0.029217664
-0.029952198 -0.013692088 0.027459655
-0.029952198 -0.013874434 0.029217664
-0.030418701 -0.012713321 0.030975673
-0.029952198 -0.01397939 0.030975673
-0.030804642 -0.010955311 0.027459655
-0.030901693 -0.010955311 0.029217664
-0.031158216 -0.0091973022 0.027459655
-0.031237163 -0.0091973022 0.029217664
-0.030924834 -0.010955311 0.030975673
-0.031276368 -0.0091973022 0.030975673
-0.030449264 -0.012713321 0.032733683
-0.029952198 -0.014041647 0.032733683
-0.03046155 -0.012713321 0.034491692
-0.029952198 -0.014078043 0.034491692
-0.030953281 -0.010955311 0.032733683
-0.031296976 -0.0091973022 0.032733683
-0.030969933 -0.010955311 0.034491692
-0.031315029 -0.0091973022 0.034491692
-0.031416133 -0.007439293 0.027459655
-0.031496137 -0.007439293 0.029217664
-0.031553335 -0.0056812838 0.027459655
-0.031631187 -0.0056812838 0.029217664
-0.031542689 -0.007439293 0.030975673
-0.031682655 -0.0056812838 0.030975673
-0.031613961 -0.0039232746 0.027459655
-0.031677134 -0.0039232746 0.029217664
-0.031730495 -0.0021652654 0.029217664
-0.031710207 -0.0031905249 0.029217664
-0.031710207 -0.0021652654 0.028644644
-0.03166312 -0.0021652654 0.027459655
-0.03173399 -0.0039232746 0.030975673
-0.031710207 -0.0046383888 0.030975673
-0.031710207 -0.0039232746 0.030200373
-0.031772494 -0.0021652654 0.030975673
-0.031563148 -0.007439293 0.032733683
-0.031707592 -0.0056812838 0.032733683
-0.031576619 -0.007439293 0.034491692
-0.031722389 -0.0056812838 0.034491692
-0.031710207 -0.0059687048 0.034491692
-0.031710207 -0.0056812838 0.033119868
-0.03177093 -0.0039232746 0.032733683
-0.031710207 -0.0055842772 0.032733683
-0.031802155 -0.0021652654 0.032733683
-0.031787068 -0.0039232746 0.034491692
-0.031806499 -0.0021652654 0.034491692
-0.029248632 -0.01447133 0.022185631
-0.029889137 -0.012713321 0.022185631
-0.029398203 -0.01447133 0.02394364
-0.028835848 -0.016229339 0.027459655
-0.028885446 -0.016229339 0.029217664
-0.029644273 -0.01447133 0.027459655
-0.029696815 -0.01447133 0.029217664
-0.028925247 -0.016229339 0.030975673
-0.029738516 -0.01447133 0.030975673
-0.028954849 -0.016229339 0.032733683
-0.029763721 -0.01447133 0.032733683
-0.02898372 -0.016229339 0.034491692
-0.029783376 -0.01447133 0.034491692
-0.015888125 -0.029203802 0.0098795667
-0.015888125 -0.02931089 0.011637576
-0.014130116 -0.030047417 0.0098795667
-0.014130116 -0.030142933 0.011637576
-0.015888125 -0.029458426 0.013395585
-0.014130116 -0.030287556 0.013395585
-0.015888125 -0.02961842 0.015153594
-0.015888125 -0.030280337 0.025701646
-0.015932634 -0.030293405 0.034491692
-0.015956454 -0.030293405 0.036249701
-0.015888125 -0.030330032 0.036249701
-0.015936509 -0.030293405 0.03800771
-0.015888125 -0.030319497 0.03800771
-0.015888125 -0.030293405 0.039009511
-0.014130116 -0.031191938 0.036249701
-0.012372106 -0.031871013 0.036249701
-0.014130116 -0.031177036 0.03800771
-0.012372106 -0.031847812 0.03800771
-0.011810325 -0.032051414 0.036249701
-0.010614097 -0.03237471 0.036249701
-0.0088560879 -0.032735094 0.036249701
-0.011731267 -0.032051414 0.03800771
-0.010614097 -0.032353483 0.03800771
-0.0088560879 -0.032700606 0.03800771
-0.015845068 -0.030293405 0.039765719
-0.014130116 -0.031122468 0.039765719
-0.012372106 -0.031804956 0.039765719
-0.015724562 -0.030293405 0.041523725
-0.014130116 -0.031062499 0.041523725
-0.012372106 -0.03172186 0.041523725
-0.011579446 -0.032051414 0.039765719
-0.010614097 -0.032303534 0.039765719
-0.0088560879 -0.032637864 0.039765719
-0.011260696 -0.032051414 0.041523725
-0.010614097 -0.03222087 0.041523725
-0.0088560879 -0.032562926 0.041523725
-0.005340077 -0.033105701 0.036249701
-0.0035820678 -0.033203028 0.036249701
-0.0018240586 -0.033323504 0.036249701
-0.005340077 -0.033116996 0.03800771
-0.0035820678 -0.033212766 0.03800771
-0.0018240586 -0.033339985 0.03800771
-0.0070980787 -0.032968268 0.03800771
-0.0070980787 -0.03290657 0.039765719
-0.005340077 -0.033094317 0.039765719
-0.0070980787 -0.032846078 0.041523725
-0.005340077 -0.033061236 0.041523725
-0.0035820678 -0.033208735 0.039765719
-0.0018240586 -0.033338211 0.039765719
-0.0035820678 -0.033179335 0.041523725
-0.0018240586 -0.03330759 0.041523725
-0.015509218 -0.030293405 0.043281734
-0.014130116 -0.030956596 0.043281734
-0.012372106 -0.03159105 0.043281734
-0.01523719 -0.030293405 0.045039743
-0.014130116 -0.030831277 0.045039743
-0.012372106 -0.031476565 0.045039743
-0.010796167 -0.032051414 0.043281734
-0.010614097 -0.032102123 0.043281734
-0.0088560879 -0.032445088 0.043281734
-0.010614097 -0.032051414 0.043987863
-0.010343783 -0.032051414 0.045039743
-0.0088560879 -0.032333501 0.045039743
-0.010614097 -0.03198199 0.045039743
-0.014824197 -0.030293405 0.046797752
-0.014130116 -0.030621119 0.046797752
-0.012372106 -0.031293534 0.046797752
-0.014415212 -0.030293405 0.048555762
-0.014130116 -0.030416176 0.048555762
-0.012372106 -0.031086966 0.048555762
-0.0095914677 -0.032051414 0.046797752
-0.0088560879 -0.032193527 0.046797752
-0.010614097 -0.031820655 0.046797752
-0.0089092925 -0.032051414 0.048555762
-0.0088560879 -0.032062612 0.048555762
-0.010614097 -0.031649888 0.048555762
-0.0070980787 -0.032722235 0.043281734
-0.005340077 -0.03295929 0.043281734
-0.0070980787 -0.032603435 0.045039743
-0.005340077 -0.032840081 0.045039743
-0.0035820678 -0.033080287 0.043281734
-0.0018240586 -0.033224434 0.043281734
-0.0035820678 -0.032994851 0.045039743
-0.0018240586 -0.033134319 0.045039743
-6.6049397e-05 -0.033388928 0.036249701
0.0016919598 -0.033454351 0.036249701
-6.6049397e-05 -0.03342098 0.03800771
0.0016919598 -0.033484101 0.03800771
0.003449969 -0.033484958 0.036249701
0.0052079782 -0.03348583 0.036249701
0.003449969 -0.033516303 0.03800771
0.0052079782 -0.033514753 0.03800771
-6.6049397e-05 -0.033418179 0.039765719
0.0016919598 -0.033484049 0.039765719
-6.6049397e-05 -0.033383526 0.041523725
0.0016919598 -0.033441968 0.041523725
0.003449969 -0.033514298 0.039765719
0.0052079782 -0.033500329 0.039765719
0.003449969 -0.033470526 0.041523725
0.0052079782 -0.033451058 0.041523725
0.0069659874 -0.03344804 0.036249701
0.0087239966 -0.033366807 0.036249701
0.0069659874 -0.033474423 0.03800771
0.0087239966 -0.03339383 0.03800771
0.010482006 -0.033296585 0.036249701
0.012240015 -0.033219047 0.036249701
0.010482006 -0.033321284 0.03800771
0.012240015 -0.03325624 0.03800771
0.0069659874 -0.033464454 0.039765719
0.0087239966 -0.033396356 0.039765719
0.0069659874 -0.033418179 0.041523725
0.0087239966 -0.033367284 0.041523725
0.010482006 -0.033334546 0.039765719
0.012240015 -0.033279181 0.039765719
0.010482006 -0.033321023 0.041523725
0.012240015 -0.033274375 0.041523725
-6.6049397e-05 -0.033305079 0.043281734
0.0016919598 -0.033358723 0.043281734
-6.6049397e-05 -0.03321892 0.045039743
0.0016919598 -0.033266552 0.045039743
0.003449969 -0.033382721 0.043281734
0.0052079782 -0.033376418 0.043281734
0.003449969 -0.033287294 0.045039743
0.0052079782 -0.033291832 0.045039743
0.0069659874 -0.033359624 0.043281734
0.0087239966 -0.033314005 0.043281734
0.0069659874 -0.033289373 0.045039743
0.0087239966 -0.033262089 0.045039743
0.010482006 -0.033275582 0.043281734
0.012240015 -0.033239014 0.043281734
0.010482006 -0.033226885 0.045039743
0.012240015 -0.033199422 0.045039743
0.0087239966 -0.03319516 0.046797752
0.010482006 -0.033156425 0.046797752
0.012240015 -0.033125244 0.046797752
0.0087239966 -0.033128224 0.048555762
0.010482006 -0.033091024 0.048555762
0.012240015 -0.033066511 0.048555762
-0.014165781 -0.030293405 0.055587798
-0.014466241 -0.030293405 0.057345808
-0.014130116 -0.030309454 0.055587798
-0.014130116 -0.030459307 0.057345808
-0.012372106 -0.031022087 0.055587798
-0.012372106 -0.031205304 0.057345808
-0.014854483 -0.030293405 0.059103817
-0.014130116 -0.030642428 0.059103817
-0.012372106 -0.031367816 0.059103817
-0.0095493421 -0.032051414 0.057345808
-0.0088560879 -0.032188177 0.057345808
-0.0088560879 -0.032051414 0.055804409
-0.010614097 -0.031617269 0.055587798
-0.010614097 -0.031784527 0.057345808
-0.0088560879 -0.032038249 0.055587798
-0.010231465 -0.032051414 0.059103817
-0.0088560879 -0.03234379 0.059103817
-0.010614097 -0.031947203 0.059103817
-0.015233845 -0.030293405 0.060861826
-0.014130116 -0.030840933 0.060861826
-0.012372106 -0.03154289 0.060861826
-0.015568301 -0.030293405 0.062619835
-0.014130116 -0.031032942 0.062619835
-0.012372106 -0.031730004 0.062619835
-0.010759428 -0.032051414 0.060861826
-0.010614097 -0.032092281 0.060861826
-0.010614097 -0.032051414 0.06039945
-0.0088560879 -0.03247834 0.060861826
-0.011336215 -0.032051414 0.062619835
-0.010614097 -0.032250941 0.062619835
-0.0088560879 -0.032625638 0.062619835
-0.0087853894 -0.032051414 0.055587798
-0.0070980787 -0.032340236 0.055587798
-0.0070980787 -0.032480799 0.057345808
-0.005340077 -0.032572329 0.055587798
-0.005340077 -0.032695815 0.057345808
-0.0070980787 -0.032632045 0.059103817
-0.005340077 -0.032838978 0.059103817
-0.0070980787 -0.032767162 0.060861826
-0.005340077 -0.032966986 0.060861826
-0.0070980787 -0.032881193 0.062619835
-0.005340077 -0.033057638 0.062619835
0.0087239966 -0.033062473 0.050313771
0.010482006 -0.033045553 0.050313771
0.012240015 -0.033037476 0.050313771
0.0087239966 -0.03302402 0.05207178
0.010482006 -0.033013575 0.05207178
0.012240015 -0.032996453 0.05207178
0.0087239966 -0.033003122 0.053829789
0.010482006 -0.03298115 0.053829789
0.012240015 -0.032966144 0.053829789
0.0087239966 -0.032996863 0.055587798
0.010482006 -0.032971345 0.055587798
0.012240015 -0.032952167 0.055587798
0.0087239966 -0.033018857 0.057345808
0.010482006 -0.032984108 0.057345808
0.012240015 -0.032945104 0.057345808
0.0087239966 -0.033055067 0.059103817
0.010482006 -0.033007868 0.059103817
0.012240015 -0.032955572 0.059103817
0.0087239966 -0.033105493 0.060861826
0.010482006 -0.033050194 0.060861826
0.012240015 -0.032994866 0.060861826
0.0087239966 -0.033159584 0.062619835
0.010482006 -0.03309793 0.062619835
0.012240015 -0.033043377 0.062619835
-0.018558212 -0.028535396 0.034491692
-0.018583208 -0.028535396 0.036249701
-0.017646134 -0.02921541 0.034491692
-0.017646134 -0.029219732 0.036249701
-0.019404143 -0.027851216 0.034491692
-0.019404143 -0.027891979 0.036249701
-0.018606149 -0.028535396 0.03800771
-0.017646134 -0.029226705 0.03800771
-0.019404143 -0.027912334 0.03800771
-0.018568084 -0.028535396 0.039765719
-0.017646134 -0.029183261 0.039765719
-0.015888125 -0.030270569 0.039765719
-0.019404143 -0.027896799 0.039765719
-0.018467799 -0.028535396 0.041523725
-0.017646134 -0.029116333 0.041523725
-0.015888125 -0.030206233 0.041523725
-0.019404143 -0.027826622 0.041523725
-0.018303528 -0.028535396 0.043281734
-0.017646134 -0.028978698 0.043281734
-0.015888125 -0.030082904 0.043281734
-0.019404143 -0.027719773 0.043281734
-0.018077821 -0.028535396 0.045039743
-0.017646134 -0.02881752 0.045039743
-0.015888125 -0.029924385 0.045039743
-0.019404143 -0.027563058 0.045039743
-0.030467704 -0.012713321 0.036249701
-0.029952198 -0.014119543 0.036249701
-0.030456275 -0.012713321 0.03800771
-0.029952198 -0.014096282 0.03800771
-0.030970216 -0.010955311 0.036249701
-0.0313254 -0.0091973022 0.036249701
-0.03096085 -0.010955311 0.03800771
-0.03131064 -0.0091973022 0.03800771
-0.03042528 -0.012713321 0.039765719
-0.029952198 -0.014017008 0.039765719
-0.030378401 -0.012713321 0.041523725
-0.029952198 -0.013899535 0.041523725
-0.030930765 -0.010955311 0.039765719
-0.031283751 -0.0091973022 0.039765719
-0.030894272 -0.010955311 0.041523725
-0.03124132 -0.0091973022 0.041523725
-0.031585626 -0.007439293 0.036249701
-0.03171923 -0.0056812838 0.036249701
-0.031710207 -0.0059366748 0.036249701
-0.031567246 -0.007439293 0.03800771
-0.031710207 -0.0056812838 0.03683858
-0.031691194 -0.0056812838 0.03800771
-0.031770937 -0.0039232746 0.036249701
-0.031789057 -0.0021652654 0.036249701
-0.031726874 -0.0039232746 0.03800771
-0.031710207 -0.004672952 0.03800771
-0.031754874 -0.0021652654 0.03800771
-0.031537741 -0.007439293 0.039765719
-0.031654119 -0.0056812838 0.039765719
-0.031493418 -0.007439293 0.041523725
-0.031622157 -0.0056812838 0.041523725
-0.031710207 -0.0039232746 0.0387129
-0.031692639 -0.0039232746 0.039765719
-0.031711869 -0.0021652654 0.039765719
-0.031710207 -0.0031725392 0.039765719
-0.031670906 -0.0039232746 0.041523725
-0.031710207 -0.0021652654 0.039921813
-0.031692535 -0.0021652654 0.041523725
-0.030311771 -0.012713321 0.043281734
-0.029952198 -0.013710603 0.043281734
-0.030231446 -0.012713321 0.045039743
-0.029952198 -0.013510577 0.045039743
-0.030828439 -0.010955311 0.043281734
-0.031181104 -0.0091973022 0.043281734
-0.030754827 -0.010955311 0.045039743
-0.031116694 -0.0091973022 0.045039743
-0.030139141 -0.012713321 0.046797752
-0.029952198 -0.013240747 0.046797752
-0.030042835 -0.012713321 0.048555762
-0.029952198 -0.012966834 0.048555762
-0.03067781 -0.010955311 0.046797752
-0.031044632 -0.0091973022 0.046797752
-0.030586392 -0.010955311 0.048555762
-0.030972637 -0.0091973022 0.048555762
-0.03144718 -0.007439293 0.043281734
-0.031588398 -0.0056812838 0.043281734
-0.031380489 -0.007439293 0.045039743
-0.031532131 -0.0056812838 0.045039743
-0.029004745 -0.016229339 0.036249701
-0.029803067 -0.01447133 0.036249701
-0.029006332 -0.016229339 0.03800771
-0.029797278 -0.01447133 0.03800771
-0.028983012 -0.016229339 0.039765719
-0.029767551 -0.01447133 0.039765719
-0.028929882 -0.016229339 0.041523725
-0.029717647 -0.01447133 0.041523725
-0.028849341 -0.016229339 0.043281734
-0.02963803 -0.01447133 0.043281734
-0.028756708 -0.016229339 0.045039743
-0.029560976 -0.01447133 0.045039743
-0.028638475 -0.016229339 0.046797752
-0.029440328 -0.01447133 0.046797752
-0.02854079 -0.016229339 0.048555762
-0.029350363 -0.01447133 0.048555762
-0.015888125 -0.029732116 0.046797752
-0.015888125 -0.029564276 0.048555762
-0.015888125 -0.029418766 0.055587798
-0.015888125 -0.029542334 0.057345808
-0.015888125 -0.029738031 0.059103817
-0.015888125 -0.029931635 0.060861826
-0.015888125 -0.030113034 0.062619835
-0.017143942 -0.030293405 0.073167883
-0.017328702 -0.030293405 0.074925892
-0.015888125 -0.031021215 0.073167883
-0.015888125 -0.031144053 0.074925892
-0.017457791 -0.030293405 0.076683901
-0.015888125 -0.03123191 0.076683901
-0.01753708 -0.030293405 0.07844191
-0.015888125 -0.031288818 0.07844191
-0.017594762 -0.030293405 0.08019992
-0.015888125 -0.031328358 0.08019992
-0.017554745 -0.030293405 0.081957929
-0.015888125 -0.031299196 0.081957929
-0.017466046 -0.030293405 0.083715938
-0.015888125 -0.031233355 0.083715938
-0.017351791 -0.030293405 0.085473947
-0.015888125 -0.031159408 0.085473947
-0.017151229 -0.030293405 0.087231956
-0.015888125 -0.031044044 0.087231956
-0.017072774 -0.030293405 0.088989966
-0.015888125 -0.030982748 0.088989966
-0.017083205 -0.030293405 0.090747975
-0.015888125 -0.030976556 0.090747975
-0.015864395 -0.030293405 0.064377844
-0.014130116 -0.031186961 0.064377844
-0.012372106 -0.031869657 0.064377844
-0.015888125 -0.030441523 0.066135854
-0.014130116 -0.031351879 0.066135854
-0.015888125 -0.030293405 0.064520441
-0.012372106 -0.032010749 0.066135854
-0.011812046 -0.032051414 0.064377844
-0.010614097 -0.032394029 0.064377844
-0.0088560879 -0.032757804 0.064377844
-0.012243062 -0.032051414 0.066135854
-0.010614097 -0.032512911 0.066135854
-0.0088560879 -0.032879196 0.066135854
-0.012658589 -0.032051414 0.067893863
-0.012372106 -0.032145232 0.067893863
-0.012372106 -0.032051414 0.066644847
-0.015888125 -0.030596063 0.067893863
-0.014130116 -0.031495318 0.067893863
-0.013016999 -0.032051414 0.069651872
-0.012372106 -0.032265276 0.069651872
-0.015888125 -0.030743361 0.069651872
-0.014130116 -0.031626083 0.069651872
-0.010614097 -0.03263361 0.067893863
-0.0088560879 -0.032988645 0.067893863
-0.010614097 -0.032763846 0.069651872
-0.0088560879 -0.033119917 0.069651872
-0.0070980787 -0.032970138 0.064377844
-0.005340077 -0.033128187 0.064377844
-0.0070980787 -0.033086456 0.066135854
-0.005340077 -0.033235773 0.066135854
-0.0035820678 -0.033126883 0.062619835
-0.0035820678 -0.033209451 0.064377844
-0.0018240586 -0.033189178 0.062619835
-0.0018240586 -0.033269122 0.064377844
-0.0035820678 -0.033312783 0.066135854
-0.0018240586 -0.033355512 0.066135854
-0.0070980787 -0.033178903 0.067893863
-0.005340077 -0.033321567 0.067893863
-0.0070980787 -0.033291414 0.069651872
-0.005340077 -0.03341791 0.069651872
-0.0035820678 -0.033400223 0.067893863
-0.0018240586 -0.033427119 0.067893863
-0.0035820678 -0.03348916 0.069651872
-0.0018240586 -0.033516601 0.069651872
-0.013396122 -0.032051414 0.071409881
-0.012372106 -0.032383859 0.071409881
-0.015888125 -0.030885488 0.071409881
-0.014130116 -0.031764954 0.071409881
-0.013670541 -0.032051414 0.073167883
-0.012372106 -0.032481194 0.073167883
-0.014130116 -0.03186997 0.073167883
-0.010614097 -0.032868735 0.071409881
-0.0088560879 -0.033240877 0.071409881
-0.010614097 -0.032957651 0.073167883
-0.0088560879 -0.033337295 0.073167883
-0.013930671 -0.032051414 0.074925892
-0.012372106 -0.032589376 0.074925892
-0.014130116 -0.031969368 0.074925892
-0.014118217 -0.032051414 0.076683901
-0.012372106 -0.032663725 0.076683901
-0.014130116 -0.032046542 0.076683901
-0.010614097 -0.033072717 0.074925892
-0.0088560879 -0.033418678 0.074925892
-0.010614097 -0.033128433 0.076683901
-0.0088560879 -0.033481807 0.076683901
-0.0070980787 -0.033392258 0.071409881
-0.005340077 -0.033509672 0.071409881
-0.0070980787 -0.03351289 0.073167883
-0.005340077 -0.033614241 0.073167883
-0.0035820678 -0.033590287 0.071409881
-0.0018240586 -0.033615708 0.071409881
-0.0035820678 -0.033683985 0.073167883
-0.0018240586 -0.033707097 0.073167883
-0.0045135692 -0.033809423 0.076683901
-0.0035820678 -0.033844955 0.076683901
-0.0035820678 -0.033809423 0.076033585
-0.0018240586 -0.033895232 0.076683901
-0.0018240586 -0.033809423 0.075164229
-0.005340077 -0.033717431 0.074925892
-0.0035820678 -0.033754796 0.074925892
-0.0018240586 -0.033796325 0.074925892
-0.005340077 -0.03376098 0.076683901
-6.6049397e-05 -0.033235461 0.062619835
-6.6049397e-05 -0.033321224 0.064377844
0.0016919598 -0.033244558 0.062619835
0.0016919598 -0.033333518 0.064377844
-6.6049397e-05 -0.033406056 0.066135854
0.0016919598 -0.033425942 0.066135854
0.003449969 -0.033249259 0.062619835
0.003449969 -0.033325188 0.064377844
0.0052079782 -0.033247039 0.062619835
0.0052079782 -0.033321828 0.064377844
0.003449969 -0.033422731 0.066135854
0.0052079782 -0.033413805 0.066135854
-6.6049397e-05 -0.033479795 0.067893863
0.0016919598 -0.033500619 0.067893863
-6.6049397e-05 -0.033573322 0.069651872
0.0016919598 -0.03360194 0.069651872
0.003449969 -0.033505976 0.067893863
0.0052079782 -0.033502571 0.067893863
0.003449969 -0.033611037 0.069651872
0.0052079782 -0.033607185 0.069651872
0.0087239966 -0.03323216 0.064377844
0.010482006 -0.033153445 0.064377844
0.012240015 -0.033089429 0.064377844
0.0087239966 -0.033311307 0.066135854
0.010482006 -0.033226721 0.066135854
0.012240015 -0.033148453 0.066135854
0.0087239966 -0.033397436 0.067893863
0.010482006 -0.0333023 0.067893863
0.012240015 -0.033208832 0.067893863
0.0087239966 -0.033508629 0.069651872
0.010482006 -0.033409752 0.069651872
0.012240015 -0.033308387 0.069651872
0.0021084249 -0.033809423 0.073167883
0.003449969 -0.033822805 0.073167883
0.003449969 -0.033809423 0.072968461
0.0052079782 -0.033820227 0.073167883
0.0052079782 -0.033809423 0.072995879
-6.6049397e-05 -0.033673495 0.071409881
0.0016919598 -0.033699177 0.071409881
-6.6049397e-05 -0.033763625 0.073167883
0.0016919598 -0.033802755 0.073167883
0.003449969 -0.033715501 0.071409881
0.0052079782 -0.033715047 0.071409881
-0.0014751852 -0.033809423 0.074925892
-6.6049397e-05 -0.033860579 0.074925892
-6.6049397e-05 -0.033809423 0.074028932
0.0016919598 -0.033903785 0.074925892
0.0016919598 -0.033809423 0.073273234
-6.6049397e-05 -0.033948444 0.076683901
0.0016919598 -0.033983134 0.076683901
0.003449969 -0.033933125 0.074925892
0.0052079782 -0.033930972 0.074925892
0.003449969 -0.0340124 0.076683901
0.0052079782 -0.034013957 0.076683901
-0.014245071 -0.032051414 0.07844191
-0.014130116 -0.03209886 0.07844191
-0.014130116 -0.032051414 0.076875292
-0.012372106 -0.03272225 0.07844191
-0.014311597 -0.032051414 0.08019992
-0.014130116 -0.032126166 0.08019992
-0.012372106 -0.032759316 0.08019992
-0.010614097 -0.033189252 0.07844191
-0.0088560879 -0.03354001 0.07844191
-0.010614097 -0.033214979 0.08019992
-0.0088560879 -0.033548512 0.08019992
-0.01425156 -0.032051414 0.081957929
-0.014130116 -0.032101102 0.081957929
-0.012372106 -0.032728389 0.081957929
-0.014130116 -0.032051414 0.083423622
-0.014096111 -0.032051414 0.083715938
-0.012372106 -0.032670453 0.083715938
-0.014130116 -0.032037444 0.083715938
-0.010614097 -0.03316205 0.081957929
-0.0088560879 -0.033501871 0.081957929
-0.010614097 -0.033115208 0.083715938
-0.0088560879 -0.033445522 0.083715938
-0.0054093078 -0.033809423 0.07844191
-0.005340077 -0.033814296 0.07844191
-0.005340077 -0.033809423 0.078333408
-0.0062025934 -0.033809423 0.08019992
-0.005340077 -0.033855766 0.08019992
-0.0070980787 -0.03365954 0.076683901
-0.0070980787 -0.033708706 0.07844191
-0.0070980787 -0.033750802 0.08019992
-0.0057553574 -0.033809423 0.081957929
-0.005340077 -0.033835113 0.081957929
-0.005340077 -0.033809423 0.083501324
-0.0070980787 -0.033722475 0.081957929
-0.0070980787 -0.033669494 0.083715938
-0.005340077 -0.033806697 0.083715938
-0.013896808 -0.032051414 0.085473947
-0.012372106 -0.032595418 0.085473947
-0.014130116 -0.031957552 0.085473947
-0.013634391 -0.032051414 0.087231956
-0.012372106 -0.032501429 0.087231956
-0.014130116 -0.031865552 0.087231956
-0.010614097 -0.033065863 0.085473947
-0.0088560879 -0.033392534 0.085473947
-0.010614097 -0.032982744 0.087231956
-0.0088560879 -0.033320718 0.087231956
-0.013484664 -0.032051414 0.088989966
-0.012372106 -0.032435358 0.088989966
-0.014130116 -0.031809919 0.088989966
-0.013449833 -0.032051414 0.090747975
-0.012372106 -0.032416634 0.090747975
-0.014130116 -0.031793758 0.090747975
-0.010614097 -0.032908574 0.088989966
-0.0088560879 -0.033270948 0.088989966
-0.010614097 -0.032885075 0.090747975
-0.0088560879 -0.033254936 0.090747975
-0.019404143 -0.02861689 0.073167883
-0.019404143 -0.028740734 0.074925892
-0.017646134 -0.029969446 0.073167883
-0.017646134 -0.030079991 0.074925892
-0.019404143 -0.02883853 0.076683901
-0.017646134 -0.030168474 0.076683901
-0.031766482 -0.0056812838 0.062619835
-0.031789251 -0.0056812838 0.064377844
-0.031900063 -0.0039232746 0.062619835
-0.031899624 -0.0039232746 0.064377844
-0.031973295 -0.0021652654 0.062619835
-0.03196732 -0.0021652654 0.064377844
-0.031800181 -0.0056812838 0.066135854
-0.031895906 -0.0039232746 0.066135854
-0.031948797 -0.0021652654 0.066135854
-0.031799071 -0.0056812838 0.067893863
-0.031883009 -0.0039232746 0.067893863
-0.03192126 -0.0021652654 0.067893863
-0.031783618 -0.0056812838 0.069651872
-0.031845115 -0.0039232746 0.069651872
-0.031883217 -0.0021652654 0.069651872
-0.031771109 -0.0056812838 0.071409881
-0.031818442 -0.0039232746 0.071409881
-0.031864487 -0.0021652654 0.071409881
-0.03177353 -0.0056812838 0.073167883
-0.031818047 -0.0039232746 0.073167883
-0.031864963 -0.0021652654 0.073167883
-0.031789958 -0.0056812838 0.074925892
-0.031842709 -0.0039232746 0.074925892
-0.031900316 -0.0021652654 0.074925892
-0.031825721 -0.0056812838 0.076683901
-0.031877398 -0.0039232746 0.076683901
-0.031924136 -0.0021652654 0.076683901
-0.019404143 -0.02889514 0.07844191
-0.017646134 -0.030220374 0.07844191
-0.019404143 -0.028912231 0.08019992
-0.017646134 -0.030258127 0.08019992
-0.019404143 -0.028873593 0.081957929
-0.017646134 -0.030230105 0.081957929
-0.019404143 -0.028826803 0.083715938
-0.017646134 -0.030171506 0.083715938
-0.023279883 -0.025019377 0.087231956
-0.023318224 -0.025019377 0.088989966
-0.022920161 -0.025421396 0.087231956
-0.022920161 -0.025436498 0.088989966
-0.024804316 -0.023261368 0.087231956
-0.024834886 -0.023261368 0.088989966
-0.024678171 -0.023411065 0.087231956
-0.024678171 -0.02345857 0.088989966
-0.023398355 -0.025019377 0.090747975
-0.022920161 -0.025511973 0.090747975
-0.024929851 -0.023261368 0.090747975
-0.024678171 -0.023569606 0.090747975
-0.019404143 -0.028742336 0.085473947
-0.017646134 -0.030087903 0.085473947
-0.019404143 -0.028675392 0.087231956
-0.017646134 -0.029970497 0.087231956
-0.019404143 -0.028668836 0.088989966
-0.017646134 -0.029940076 0.088989966
-0.019404143 -0.028669529 0.090747975
-0.017646134 -0.029936664 0.090747975
-0.021573879 -0.026777387 0.087231956
-0.021554187 -0.026777387 0.088989966
-0.021602757 -0.026777387 0.090747975
-0.026203871 -0.021503359 0.087231956
-0.026211999 -0.021503359 0.088989966
-0.02643618 -0.021174237 0.087231956
-0.02643618 -0.021195032 0.088989966
-0.026310399 -0.021503359 0.090747975
-0.02643618 -0.021330394 0.090747975
-0.031852409 -0.0056812838 0.07844191
-0.031894021 -0.0039232746 0.07844191
-0.031938277 -0.0021652654 0.07844191
-0.031881839 -0.0056812838 0.08019992
-0.031933792 -0.0039232746 0.08019992
-0.031990655 -0.0021652654 0.08019992
-0.030145735 -0.01447133 0.083715938
-0.030135885 -0.01447133 0.085473947
-0.029952198 -0.014984883 0.083715938
-0.029952198 -0.014937185 0.085473947
-0.030723639 -0.012713321 0.083715938
-0.030729681 -0.012713321 0.085473947
-0.030142419 -0.01447133 0.087231956
-0.029952198 -0.014967561 0.087231956
-0.030719839 -0.012713321 0.087231956
-0.031182729 -0.010955311 0.083715938
-0.031192556 -0.010955311 0.085473947
-0.031503975 -0.0091973022 0.083715938
-0.031506196 -0.0091973022 0.085473947
-0.031180032 -0.010955311 0.087231956
-0.031490445 -0.0091973022 0.087231956
-0.030186631 -0.01447133 0.088989966
-0.029952198 -0.015065119 0.088989966
-0.030760534 -0.012713321 0.088989966
-0.030260131 -0.01447133 0.090747975
-0.029952198 -0.01524508 0.090747975
-0.030840501 -0.012713321 0.090747975
-0.031205177 -0.010955311 0.088989966
-0.031508632 -0.0091973022 0.088989966
-0.031290703 -0.010955311 0.090747975
-0.031586863 -0.0091973022 0.090747975
-0.031722389 -0.007439293 0.083715938
-0.031710207 -0.00755243 0.083715938
-0.031710207 -0.007439293 0.084413506
-0.03170234 -0.007439293 0.085473947
-0.031876832 -0.0056812838 0.083715938
-0.031848371 -0.0056812838 0.085473947
-0.031710207 -0.0073522851 0.085473947
-0.031698935 -0.007439293 0.087231956
-0.031852014 -0.0056812838 0.087231956
-0.031710207 -0.0073381811 0.087231956
-0.031715289 -0.007439293 0.088989966
-0.031710207 -0.0074823648 0.088989966
-0.031710207 -0.007439293 0.088705592
-0.03185866 -0.0056812838 0.088989966
-0.031789906 -0.007439293 0.090747975
-0.031710207 -0.0081367791 0.090747975
-0.031925008 -0.0056812838 0.090747975
-0.031927422 -0.0039232746 0.087231956
-0.031903967 -0.0039232746 0.088989966
-0.03196273 -0.0021652654 0.087231956
-0.031939648 -0.0021652654 0.088989966
-0.031953275 -0.0039232746 0.090747975
-0.031980954 -0.0021652654 0.090747975
-0.029430479 -0.016229339 0.083715938
-0.029406048 -0.016229339 0.085473947
-0.029421084 -0.016229339 0.087231956
-0.029454581 -0.016229339 0.088989966
-0.029529296 -0.016229339 0.090747975
-0.015888125 -0.030279823 0.064377844
0.02278807 -0.030984811 0.0028475318
0.02278807 -0.031116478 0.004605541
0.024546079 -0.030623719 0.0028475318
0.024546079 -0.030773029 0.004605541
0.025757745 -0.030293405 0.0028475318
0.026196748 -0.030293405 0.004605541
0.02278807 -0.031166561 0.0063635502
0.024546079 -0.030819677 0.0063635502
0.026304081 -0.030311234 0.0063635502
0.026304081 -0.030293405 0.0056711175
0.026361272 -0.030293405 0.0063635502
0.026304081 -0.030129805 0.0028475318
0.026304081 -0.030259117 0.004605541
0.02806209 -0.029520296 0.0028475318
0.02806209 -0.029636338 0.004605541
0.029820099 -0.028774358 0.0028475318
0.029820099 -0.028895289 0.004605541
0.02806209 -0.029694311 0.0063635502
0.029820099 -0.028965607 0.0063635502
0.030336037 -0.028535396 0.0028475318
0.030614838 -0.028535396 0.004605541
0.031578109 -0.027919531 0.0028475318
0.031578109 -0.02807159 0.004605541
0.033336118 -0.026972167 0.0028475318
0.033336118 -0.027112149 0.004605541
0.030780002 -0.028535396 0.0063635502
0.031578109 -0.028147504 0.0063635502
0.033336118 -0.027225994 0.0063635502
0.053743407 -0.0056812838 0.0028475318
0.053830191 -0.0056812838 0.004605541
0.053733677 -0.0039232746 0.0028475318
0.053820133 -0.0039232746 0.004605541
0.053674951 -0.0021652654 0.0028475318
0.053749636 -0.0021652654 0.004605541
0.053952783 -0.0056812838 0.0063635502
0.053945109 -0.0039232746 0.0063635502
0.05387184 -0.0021652654 0.0063635502
0.013998024 -0.031794883 0.0098795667
0.013998024 -0.031830937 0.011637576
0.015756033 -0.031789467 0.0098795667
0.015756033 -0.031814143 0.011637576
0.013998024 -0.031878404 0.013395585
0.015756033 -0.031835638 0.013395585
0.017514043 -0.031728543 0.0098795667
0.017514043 -0.031752422 0.011637576
0.019272052 -0.031617135 0.0098795667
0.019272052 -0.031636082 0.011637576
0.017514043 -0.031766079 0.013395585
0.019272052 -0.031647861 0.013395585
0.02278807 -0.031197228 0.0081215594
0.024546079 -0.030836515 0.0081215594
0.026304081 -0.030321449 0.0081215594
0.02278807 -0.03120219 0.0098795667
0.024546079 -0.030844793 0.0098795667
0.026304081 -0.030326985 0.0098795667
0.02278807 -0.031196155 0.011637576
0.024546079 -0.030845754 0.011637576
0.026304081 -0.030340701 0.011637576
0.02278807 -0.031233907 0.013395585
0.024546079 -0.030850761 0.013395585
0.026304081 -0.030352399 0.013395585
0.013998024 -0.031933516 0.015153594
0.015756033 -0.031879909 0.015153594
0.012758426 -0.032051414 0.016911604
0.013998024 -0.032018498 0.016911604
0.015756033 -0.031953208 0.016911604
0.017514043 -0.031801343 0.015153594
0.019272052 -0.031676605 0.015153594
0.017514043 -0.031869568 0.016911604
0.019272052 -0.031722672 0.016911604
0.013998024 -0.032111622 0.018669613
0.013998024 -0.032051414 0.017535839
0.015369929 -0.032051414 0.018669613
0.015756033 -0.032034099 0.018669613
0.013998024 -0.032226004 0.020427622
0.015756033 -0.032130398 0.020427622
0.015756033 -0.032051414 0.019044552
0.017514043 -0.03193441 0.018669613
0.019272052 -0.031783365 0.018669613
0.017041706 -0.032051414 0.020427622
0.017514043 -0.032016285 0.020427622
0.019272052 -0.031862155 0.020427622
0.021030061 -0.031501956 0.013395585
0.021030061 -0.031537935 0.015153594
0.02278807 -0.031274036 0.015153594
0.021030061 -0.03154476 0.016911604
0.02278807 -0.031305075 0.016911604
0.024546079 -0.030888438 0.015153594
0.026304081 -0.030393548 0.015153594
0.024546079 -0.03093417 0.016911604
0.026304081 -0.030437656 0.016911604
0.021030061 -0.031598479 0.018669613
0.02278807 -0.031346023 0.018669613
0.021030061 -0.031664595 0.020427622
0.02278807 -0.031402305 0.020427622
0.024546079 -0.030972891 0.018669613
0.026304081 -0.030482732 0.018669613
0.024546079 -0.03103365 0.020427622
0.026304081 -0.030539274 0.020427622
0.026397258 -0.030293405 0.0081215594
0.026412681 -0.030293405 0.0098795667
0.026455745 -0.030293405 0.011637576
0.026488945 -0.030293405 0.013395585
0.026613981 -0.030293405 0.015153594
0.026752055 -0.030293405 0.016911604
0.026899666 -0.030293405 0.018669613
0.027071729 -0.030293405 0.020427622
0.013998024 -0.032339431 0.022185631
0.015756033 -0.032242179 0.022185631
0.013998024 -0.032462142 0.02394364
0.015756033 -0.032352678 0.02394364
0.017514043 -0.032120518 0.022185631
0.017514043 -0.032051414 0.021000478
0.018319279 -0.032051414 0.022185631
0.019272052 -0.031953461 0.022185631
0.017514043 -0.03222017 0.02394364
0.019254804 -0.032051414 0.02394364
0.019272052 -0.032049529 0.02394364
0.013998024 -0.032596 0.025701646
0.015756033 -0.032480754 0.025701646
0.013998024 -0.032717653 0.027459655
0.015756033 -0.03260792 0.027459655
0.017514043 -0.032337174 0.025701646
0.019272052 -0.032152109 0.025701646
0.019272052 -0.032051414 0.023978882
0.017514043 -0.03245277 0.027459655
0.019272052 -0.03226427 0.027459655
0.021030061 -0.0317524 0.022185631
0.02278807 -0.031484887 0.022185631
0.021030061 -0.031845175 0.02394364
0.02278807 -0.031570539 0.02394364
0.024546079 -0.031105764 0.022185631
0.026304081 -0.03061419 0.022185631
0.024546079 -0.031192891 0.02394364
0.026304081 -0.030699909 0.02394364
0.020113282 -0.032051414 0.025701646
0.021030061 -0.031934835 0.025701646
0.02278807 -0.031658143 0.025701646
0.020948321 -0.032051414 0.027459655
0.021030061 -0.03203965 0.027459655
0.02278807 -0.031755544 0.027459655
0.024546079 -0.031290315 0.025701646
0.026304081 -0.030800089 0.025701646
0.024546079 -0.031393096 0.027459655
0.026304081 -0.03090921 0.027459655
0.013998024 -0.03282474 0.029217664
0.015756033 -0.032698579 0.029217664
0.013998024 -0.03291849 0.030975673
0.015756033 -0.032794535 0.030975673
0.017514043 -0.032547288 0.029217664
0.019272052 -0.032366306 0.029217664
0.017514043 -0.0326441 0.030975673
0.019272052 -0.032460801 0.030975673
0.013998024 -0.032999076 0.032733683
0.015756033 -0.032876343 0.032733683
0.013998024 -0.033066027 0.034491692
0.015756033 -0.032954641 0.034491692
0.017514043 -0.03272561 0.032733683
0.019272052 -0.032556564 0.032733683
0.017514043 -0.032812037 0.034491692
0.019272052 -0.032636702 0.034491692
0.021030061 -0.032140888 0.029217664
0.021030061 -0.032051414 0.02766715
0.021645464 -0.032051414 0.029217664
0.02278807 -0.031866856 0.029217664
0.021030061 -0.032242343 0.030975673
0.022351809 -0.032051414 0.030975673
0.02278807 -0.031975292 0.030975673
0.024546079 -0.031501539 0.029217664
0.026304081 -0.031008035 0.029217664
0.024546079 -0.031584308 0.030975673
0.026304081 -0.031102888 0.030975673
0.021030061 -0.032342322 0.032733683
0.02278807 -0.032077238 0.032733683
0.02278807 -0.032051414 0.032288525
0.021030061 -0.032419905 0.034491692
0.02278807 -0.032159694 0.034491692
0.027274892 -0.030293405 0.022185631
0.027518049 -0.030293405 0.02394364
0.027797446 -0.030293405 0.025701646
0.02806209 -0.030312657 0.027459655
0.02806209 -0.030293405 0.02716741
0.028115496 -0.030293405 0.027459655
0.02806209 -0.030418873 0.029217664
0.028402701 -0.030293405 0.029217664
0.02806209 -0.030525155 0.030975673
0.028674304 -0.030293405 0.030975673
0.026304081 -0.031194292 0.032733683
0.02806209 -0.030618951 0.032733683
0.028887123 -0.030293405 0.032733683
0.026304081 -0.031259455 0.034491692
0.02806209 -0.030678138 0.034491692
0.029027432 -0.030293405 0.034491692
0.02806209 -0.029703185 0.0081215594
0.029820099 -0.02897907 0.0081215594
0.02806209 -0.029715888 0.0098795667
0.029820099 -0.028976642 0.0098795667
0.030841798 -0.028535396 0.0081215594
0.031578109 -0.028182738 0.0081215594
0.033336118 -0.027296282 0.0081215594
0.030843332 -0.028535396 0.0098795667
0.031578109 -0.028209284 0.0098795667
0.033336118 -0.027331181 0.0098795667
0.02806209 -0.029741645 0.011637576
0.029820099 -0.029002741 0.011637576
0.02806209 -0.029749006 0.013395585
0.029820099 -0.029028043 0.013395585
0.030888274 -0.028535396 0.011637576
0.031578109 -0.0282268 0.011637576
0.033336118 -0.027347445 0.011637576
0.030964524 -0.028535396 0.013395585
0.031578109 -0.028261311 0.013395585
0.033336118 -0.02739282 0.013395585
0.034174874 -0.026777387 0.0063635502
0.034316853 -0.026777387 0.0081215594
0.034373343 -0.026777387 0.0098795667
0.035094127 -0.026275918 0.0063635502
0.035094127 -0.026331767 0.0081215594
0.036852136 -0.025301047 0.0063635502
0.036852136 -0.025368758 0.0081215594
0.035094127 -0.026378453 0.0098795667
0.036852136 -0.02543813 0.0098795667
0.034435943 -0.026777387 0.011637576
0.034534454 -0.026777387 0.013395585
0.035094127 -0.026429653 0.011637576
0.036852136 -0.025511101 0.011637576
0.035094127 -0.026479118 0.013395585
0.036852136 -0.025568023 0.013395585
0.02806209 -0.029786266 0.015153594
0.029820099 -0.029068179 0.015153594
0.02806209 -0.02983579 0.016911604
0.029820099 -0.029114746 0.016911604
0.03105928 -0.028535396 0.015153594
0.031578109 -0.028301917 0.015153594
0.033336118 -0.027435601 0.015153594
0.031165406 -0.028535396 0.016911604
0.031578109 -0.028354846 0.016911604
0.033336118 -0.027509935 0.016911604
0.02806209 -0.029880255 0.018669613
0.029820099 -0.029166207 0.018669613
0.02806209 -0.029936254 0.020427622
0.029820099 -0.029228307 0.020427622
0.031318679 -0.028535396 0.018669613
0.031578109 -0.028423905 0.018669613
0.033336118 -0.027609915 0.018669613
0.031467319 -0.028535396 0.020427622
0.031578109 -0.028486855 0.020427622
0.033336118 -0.027673647 0.020427622
0.034628451 -0.026777387 0.015153594
0.034785479 -0.026777387 0.016911604
0.035094127 -0.026531354 0.015153594
0.036852136 -0.025633298 0.015153594
0.035094127 -0.0266179 0.016911604
0.036852136 -0.025728874 0.016911604
0.034976289 -0.026777387 0.018669613
0.035094127 -0.026801214 0.020427622
0.035094127 -0.026777387 0.019985598
0.035140455 -0.026777387 0.020427622
0.035094127 -0.026714742 0.018669613
0.036852136 -0.025822863 0.018669613
0.036852136 -0.025922187 0.020427622
0.02806209 -0.030012459 0.022185631
0.029820099 -0.029303804 0.022185631
0.02806209 -0.030098997 0.02394364
0.029820099 -0.029405706 0.02394364
0.031578109 -0.02856335 0.022185631
0.031578109 -0.028535396 0.02158311
0.031645179 -0.028535396 0.022185631
0.033336118 -0.027771145 0.022185631
0.031578109 -0.028658859 0.02394364
0.031865656 -0.028535396 0.02394364
0.033336118 -0.027873054 0.02394364
0.02806209 -0.030199192 0.025701646
0.029820099 -0.029510207 0.025701646
0.029820099 -0.029614009 0.027459655
0.031578109 -0.028754026 0.025701646
0.032084405 -0.028535396 0.025701646
0.033336118 -0.027963467 0.025701646
0.031578109 -0.028853431 0.027459655
0.032318905 -0.028535396 0.027459655
0.033336118 -0.028059833 0.027459655
0.035094127 -0.02689743 0.022185631
0.035333097 -0.026777387 0.022185631
0.035094127 -0.02700258 0.02394364
0.035536319 -0.026777387 0.02394364
0.036852136 -0.026026577 0.022185631
0.036852136 -0.026123047 0.02394364
0.035094127 -0.027088612 0.025701646
0.035712913 -0.026777387 0.025701646
0.035094127 -0.027177535 0.027459655
0.03589423 -0.026777387 0.027459655
0.036852136 -0.026212223 0.025701646
0.036852136 -0.026300609 0.027459655
0.029820099 -0.029726878 0.029217664
0.029820099 -0.02981355 0.030975673
0.031578109 -0.028964289 0.029217664
0.032537103 -0.028535396 0.029217664
0.033336118 -0.028157599 0.029217664
0.031578109 -0.029039197 0.030975673
0.032707706 -0.028535396 0.030975673
0.033336118 -0.028231144 0.030975673
0.029820099 -0.029885568 0.032733683
0.029820099 -0.029946968 0.034491692
0.031578109 -0.02909144 0.032733683
0.032820061 -0.028535396 0.032733683
0.033336118 -0.028281443 0.032733683
0.031578109 -0.029140644 0.034491692
0.032907739 -0.028535396 0.034491692
0.033336118 -0.028330244 0.034491692
0.035094127 -0.027274027 0.029217664
0.036064729 -0.026777387 0.029217664
0.035094127 -0.027343452 0.030975673
0.036203891 -0.026777387 0.030975673
0.036852136 -0.026382312 0.029217664
0.036852136 -0.0264524 0.030975673
0.035094127 -0.02739837 0.032733683
0.036330774 -0.026777387 0.032733683
0.035094127 -0.027465917 0.034491692
0.036481589 -0.026777387 0.034491692
0.036852136 -0.026518837 0.032733683
0.036852136 -0.026597925 0.034491692
0.043959782 -0.021503359 0.0063635502
0.044110402 -0.021503359 0.0081215594
