# .PCD v0.7 - Point Cloud Data file format
VERSION 0.7
FIELDS x y z
SIZE 4 4 4
TYPE F F F
COUNT 1 1 1
WIDTH 1301
HEIGHT 1
VIEWPOINT 0 0 0 1 0 0 0
POINTS 1301
DATA ascii
-0.0091872215 -0.051132709 0.25782576
-0.037905335 -0.036484361 0.25278726
-0.035535514 -0.039951891 0.25343692
-0.031879544 -0.042978644 0.25356564
-0.027765334 -0.045587271 0.25355014
-0.023153424 -0.048561901 0.25370154
-0.019065738 -0.051132262 0.25325489
-0.01559484 -0.051643044 0.25237006
-0.038188636 -0.039048821 0.24800751
-0.035960674 -0.041270167 0.24816525
-0.033154488 -0.04507637 0.24857134
-0.028976321 -0.047630906 0.24853465
-0.02375555 -0.049261659 0.24816751
-0.019318938 -0.051016867 0.2488946
-0.036467195 -0.042265713 0.24523038
-0.033001065 -0.045476496 0.24542785
-0.02874732 -0.047973573 0.2453686
-0.024893045 -0.049780667 0.24521962
-0.019745886 0.0035730898 0.32313991
-0.019928455 0.0013989508 0.32068342
-0.018402636 -0.00079575181 0.32026458
-0.020261645 0.00090718269 0.31656986
-0.018338978 -0.0027540028 0.31579185
-0.019167781 -0.005471766 0.31204996
-0.0015747547 -0.01914233 0.31125358
-0.023499548 -0.0050025582 0.30508387
-0.019827545 -0.008166194 0.30790788
-0.017159939 -0.01047343 0.30837613
-0.0020023584 -0.018911242 0.30754787
0.00058555603 -0.020557165 0.30661207
-0.024988711 -0.0064692795 0.30285099
-0.022242904 -0.0093250275 0.30520621
-0.0033496618 -0.021309435 0.30451006
-0.0004556179 -0.023507655 0.30359468
0.0047236085 -0.02584666 0.30155221
0.0068537593 -0.025921404 0.30213532
-0.028657913 -0.0059404373 0.29637611
-0.027186275 -0.0084197223 0.29972768
-0.00095880032 -0.026224434 0.30086768
0.0026407242 -0.02789095 0.29928312
0.007327795 -0.030174613 0.29774043
0.010520697 -0.032054901 0.29724094
-0.034086585 -0.0045482218 0.29318953
-0.03215313 -0.0072802305 0.29400748
-0.030281484 -0.0096854568 0.29711628
0.0018960238 -0.030813545 0.29661611
0.0050352812 -0.03315559 0.29536259
0.010082066 -0.035230935 0.29387054
0.01264888 -0.038030595 0.29300448
-0.039060354 -0.0041868389 0.28776333
-0.037579656 -0.0066327751 0.28976959
-0.035104811 -0.010366499 0.29147857
0.0052775741 -0.035542428 0.29285121
0.0081076622 -0.037954897 0.29040062
0.012654722 -0.039052576 0.28951219
0.016704857 -0.04205972 0.28800043
-0.041169226 -0.0062297583 0.28478554
-0.039945126 -0.0091046989 0.28630701
0.0071543455 -0.040677458 0.28670222
0.011367321 -0.042063475 0.28543097
0.015250444 -0.044366479 0.28516769
0.018056393 -0.046922147 0.28393921
-0.043679357 -0.0087833405 0.2811574
-0.043396592 -0.01183024 0.28164348
0.0060834885 -0.042767882 0.28455162
0.0092152357 -0.044779897 0.28140405
0.01371944 -0.047094256 0.28129831
0.016355038 -0.04982686 0.2804195
-0.045116901 -0.010466129 0.27664879
-0.04414165 -0.013037771 0.27878803
0.0076340437 -0.047009796 0.27723762
0.012328148 -0.049036592 0.27652797
0.015298843 -0.05159992 0.27795339
-0.046601176 -0.013077408 0.2727606
-0.045775652 -0.015714854 0.27234563
0.0069532394 -0.048474789 0.272834
0.011402965 -0.048648268 0.27313825
-0.048069298 -0.015230894 0.26856807
-0.046856821 -0.017126173 0.2703546
0.001611948 -0.050101399 0.26742417
0.0053836107 -0.049670309 0.26847777
-0.048367977 -0.016160637 0.26354775
-0.04661262 -0.020070225 0.26452264
0.00021505356 -0.050458163 0.26425561
0.0045764446 -0.050365329 0.26313213
-0.048253417 -0.017977923 0.25954223
-0.046919584 -0.021104246 0.25997597
-0.046070039 -0.024926633 0.2590116
-0.0054005384 -0.050642878 0.26012054
-0.00065553188 -0.051512778 0.25969025
-0.046533823 -0.022578925 0.25541264
-0.044513762 -0.026092559 0.25482467
-0.041417718 -0.030259609 0.25489649
-0.011192083 -0.050344795 0.25473428
-0.0064886808 -0.051300526 0.25511381
-0.0026196241 -0.052071691 0.25492713
-0.042970419 -0.026518315 0.25091377
-0.041100323 -0.030562669 0.25045827
-0.03901279 -0.033960581 0.25097451
-0.011236548 -0.050891727 0.25118488
-0.0074654818 -0.051017553 0.24996716
-0.041207671 -0.031970501 0.24588072
-0.039291799 -0.03613764 0.24653172
-0.017233968 -0.050435096 0.24546123
-0.014075994 -0.051317662 0.24648044
-0.03771013 -0.037250519 0.24273497
-0.034827113 -0.039396197 0.24137616
-0.031493247 -0.04292959 0.24162236
-0.027472496 -0.045975208 0.24154872
-0.022857308 -0.04815048 0.24154937
-0.018783212 -0.048591852 0.24198002
-0.03136903 -0.042961687 0.23821139
-0.027551591 -0.045893162 0.23830515
-0.02264154 -0.048902035 0.23826182
-0.01772356 0.0022619665 0.31439751
-0.019283772 -0.00082826614 0.31185994
-0.024645925 0.0024725199 0.30254075
-0.022673905 -0.0019547939 0.30494994
-0.018452525 -0.0029894412 0.30742884
0.0044487715 -0.021182418 0.30478418
-0.029203534 0.0028918386 0.29821691
-0.026266813 0.0012175143 0.29955393
-0.024919271 -0.0016108453 0.30004176
0.0053750277 -0.022746444 0.30336702
0.008685708 -0.026687384 0.30051202
-0.034690261 0.0035257936 0.29395154
-0.032397807 0.0013113618 0.29581046
-0.028549373 -0.0023589432 0.29685962
0.0099784732 -0.027931154 0.29901001
0.013253331 -0.029394239 0.29812559
-0.036894679 0.0017336607 0.29099378
-0.035069942 -0.0015954673 0.29295617
0.01427573 -0.033391625 0.29472092
0.01864785 -0.037762612 0.29024783
-0.039306998 -0.0010288954 0.28759009
0.017216444 -0.039033115 0.28850439
-0.04323709 0.00045481324 0.28231591
-0.042223096 -0.0027124584 0.28365752
-0.045024991 -0.0013996065 0.27846473
-0.044332385 -0.0052990615 0.27950796
-0.04668653 -0.0046221614 0.27424684
-0.045764565 -0.007622391 0.27539602
0.018156171 -0.049239844 0.27388889
0.021046877 -0.050311297 0.27469864
-0.048121393 -0.0054310262 0.26974759
-0.047029018 -0.0092874169 0.27054271
0.013714433 -0.048198879 0.26949009
0.017931581 -0.049327195 0.26993036
-0.048697472 -0.0073389709 0.2659159
-0.048008502 -0.010966241 0.26618335
0.0080839396 -0.048996836 0.2648423
0.013428271 -0.048163176 0.26510492
0.017002761 -0.051877081 0.26489311
-0.049566031 -0.010335654 0.25823864
-0.048549533 -0.012218624 0.26168439
0.0075579882 -0.050038427 0.26190349
0.012136936 -0.049780875 0.26082894
0.0167135 -0.052285284 0.26280171
-0.048916578 -0.014888763 0.25698754
-0.047282338 -0.019743204 0.25655773
0.0057652593 -0.05102846 0.25727487
0.010151386 -0.050652057 0.25768161
-0.04840064 -0.01700142 0.25213602
-0.047530651 -0.020535529 0.25313041
-0.0005466938 -0.052047193 0.25261912
0.0042857528 -0.051222116 0.2526308
-0.047260225 -0.021523893 0.24848282
-0.044175386 -0.026091337 0.24877003
-0.0061886311 -0.051564246 0.24843067
-0.00072026253 -0.051804543 0.24823964
0.0036578178 -0.051911891 0.24827063
-0.047605932 -0.022815675 0.24404025
-0.044653594 -0.026816577 0.24409056
-0.041605294 -0.030234158 0.24287522
-0.0096229315 -0.049814939 0.2439481
-0.0064883232 -0.050792903 0.24404997
-0.0025376081 -0.051935524 0.24391431
-0.043094277 -0.027322233 0.2397598
-0.040399551 -0.030526757 0.23936704
-0.038049102 -0.034115583 0.23917013
-0.035915375 -0.03733474 0.23845184
-0.017656922 -0.049979717 0.24049807
-0.014001966 -0.051447034 0.24037758
-0.0086567998 -0.050441563 0.23866603
-0.037328482 -0.035141826 0.2344299
-0.034668684 -0.038876742 0.23535258
-0.030762196 -0.042556345 0.23462
-0.026371062 -0.045387417 0.23477411
-0.022192538 -0.047744989 0.23501796
-0.017549336 -0.050088644 0.23535621
-0.01391083 -0.052056819 0.23491782
-0.034384012 -0.039736599 0.23087269
-0.031085134 -0.042383492 0.23082507
-0.027468681 -0.045020252 0.23027751
-0.022092819 -0.047428817 0.23134243
-0.018804193 -0.049607366 0.23003787
-0.014768481 -0.051518351 0.23118758
-0.026912689 0.0067270398 0.30056182
-0.021697402 0.0022280514 0.30386093
-0.031814098 0.0076596439 0.29670328
-0.029132545 0.0057934523 0.29871583
-0.02659893 0.0036774278 0.30098376
-0.03417182 0.0067861974 0.29370663
-0.03673768 0.006172955 0.2897968
-0.040673018 0.0048447549 0.28487897
-0.038792253 0.0030336678 0.28814253
-0.043263793 0.0037025809 0.28097981
-0.04562223 0.0011612177 0.2764999
-0.046775222 0.000446558 0.27196476
-0.047870517 -0.0011211038 0.2675648
0.020348072 -0.049210399 0.26740387
0.022191703 -0.050117642 0.26847032
-0.048128486 -0.0050363839 0.26295874
-0.048494577 -0.0064739585 0.25917831
0.014178753 -0.050920427 0.25964352
0.016358972 -0.051085621 0.25972503
-0.049429834 -0.00946334 0.25436035
-0.049416542 -0.013156444 0.25393
0.011427045 -0.050502598 0.25474709
0.015703917 -0.051038861 0.25570813
-0.049664378 -0.010803699 0.25079674
-0.048805475 -0.013695359 0.25011137
0.0067641735 -0.050895303 0.25008681
0.010368884 -0.049613893 0.2509819
-0.048107624 -0.015978962 0.24621919
0.0058817863 -0.051510245 0.24545383
-0.048698246 -0.017770261 0.24178076
-0.047425508 -0.021744937 0.24121663
-0.0006531477 -0.050334066 0.24038929
0.0026752949 -0.051723629 0.24267218
-0.046777129 -0.022017688 0.23750943
-0.044082701 -0.025670588 0.23687148
-0.04126513 -0.028951615 0.23713344
-0.005615592 -0.050992697 0.23713282
-0.001028657 -0.049685478 0.23703134
-0.043081522 -0.026907176 0.23285282
-0.040300727 -0.029933393 0.23237839
-0.03821826 -0.033134133 0.23280734
-0.0074154139 -0.051175922 0.23292255
-0.036764026 -0.034771204 0.22860724
-0.034894764 -0.037862867 0.22849637
-0.03059572 -0.041756362 0.22803664
-0.025516629 -0.04466939 0.22794339
-0.022085786 -0.046542078 0.22832978
-0.016539812 -0.049436539 0.22769654
-0.012856543 -0.051385254 0.22814023
-0.033810496 -0.038488835 0.22466075
-0.029964209 -0.04152301 0.22441161
-0.025933862 -0.043693602 0.22401685
-0.020711422 -0.046157211 0.22493404
-0.017106414 -0.04930982 0.22527963
-0.035057783 0.012844026 0.29063228
-0.03360343 0.010619968 0.29273763
-0.039060175 0.014148563 0.2863777
-0.037467599 0.011471599 0.28684098
-0.046452761 0.012688935 0.2810185
-0.041690707 0.012099475 0.28155807
-0.040001154 0.0096974373 0.28281322
-0.045027971 0.013786644 0.27827343
-0.042596459 0.010355353 0.27778316
-0.042073607 0.0074384809 0.27822119
-0.047053695 0.010705441 0.27179104
-0.044170022 0.0080789328 0.2735323
-0.043662548 0.0052673221 0.27476701
-0.045997739 0.0055489838 0.2693592
-0.047027647 0.0038167834 0.26495141
-0.047383964 -0.00020301342 0.26411912
-0.048151374 0.0017139912 0.26029608
-0.047153711 -0.00044745207 0.26090446
-0.052249491 0.0028124452 0.25523344
-0.049784899 -0.0003451407 0.25634524
-0.04878211 -0.0034026504 0.25640199
-0.050709963 -0.0021559 0.2522572
-0.04976964 -0.0056036413 0.25248826
0.014160335 -0.049217254 0.25203693
0.017647266 -0.050028026 0.25201759
0.020501494 -0.051133484 0.25159648
-0.05058372 -0.0035853386 0.24811572
-0.049801946 -0.0072347224 0.24772519
-0.048856854 -0.011329979 0.24700123
0.012378693 -0.049676538 0.24796584
0.016835749 -0.050837845 0.24793872
0.020498574 -0.051600307 0.24924424
-0.050212741 -0.0088670254 0.24361533
-0.049250126 -0.013151348 0.24383634
0.0082042217 -0.051033378 0.24259597
0.011426091 -0.051122069 0.24381423
0.016158879 -0.052326351 0.24342555
-0.050667405 -0.011428624 0.23949331
-0.049546719 -0.01486662 0.23941845
0.0019179583 -0.049848139 0.23911572
0.0060037374 -0.050576121 0.23928991
0.010576487 -0.052011997 0.23899215
0.014455914 -0.053637922 0.23900604
-0.049198508 -0.015872031 0.23488939
-0.047561467 -0.019726932 0.23516047
-1.8119812e-05 -0.050430119 0.23507878
0.0050570369 -0.051053166 0.23482734
0.010077298 -0.052752286 0.23469296
0.013319552 -0.054322839 0.23519361
-0.048616171 -0.017386407 0.23128778
-0.04702872 -0.021255046 0.23080751
-0.044645071 -0.025001228 0.23074025
-0.0043826103 -0.05076009 0.23034048
-0.00086808205 -0.051377147 0.23055893
0.0038797855 -0.052212119 0.23008883
-0.047005773 -0.022236198 0.22626975
-0.044503689 -0.02628684 0.22660419
-0.041049242 -0.029657573 0.22685432
-0.037956059 -0.032089204 0.22661614
-0.0059312582 -0.050585121 0.2257753
-0.0016822815 -0.051431 0.22596306
-0.046363413 -0.024243295 0.22227323
-0.044364095 -0.027168751 0.22202018
-0.041213095 -0.030593425 0.22212535
-0.037487626 -0.033708006 0.22228026
-0.034850359 -0.037542403 0.22177112
-0.030054212 -0.040833294 0.22169632
-0.027212024 -0.043020755 0.22121981
-0.022051215 -0.045694083 0.22224152
-0.01716888 -0.048949033 0.22217691
-0.012043238 -0.050594747 0.22233659
-0.0077546835 -0.050822258 0.22207904
-0.043317556 -0.028800189 0.21787083
-0.040802956 -0.030993462 0.21716487
-0.037377 -0.034676015 0.21716845
-0.03481257 -0.038588315 0.21802533
-0.031520009 -0.042084038 0.21833962
-0.027294993 -0.044724643 0.21831095
-0.022227585 -0.046618402 0.21797818
-0.017990232 -0.049258888 0.2179473
-0.012838244 -0.050953001 0.21722132
-0.0086628199 -0.05141145 0.21869218
-0.034140587 -0.039299935 0.21290344
-0.030876696 -0.042622209 0.21276492
-0.027254105 -0.045365542 0.21312833
-0.022291124 -0.047368735 0.21283078
-0.017562151 -0.049360275 0.21338025
-0.026040435 -0.046072483 0.21009848
-0.036242723 0.016288966 0.28893596
-0.038482487 0.016685814 0.28350458
-0.044906616 0.017195165 0.27902418
-0.041706502 0.014017075 0.28027791
-0.052223802 0.017518461 0.27441636
-0.045974255 0.016355693 0.27552602
-0.043142319 0.013030976 0.27577922
-0.049669147 0.017126739 0.26934102
-0.047245145 0.014372408 0.27160832
-0.04455018 0.010917991 0.27146605
-0.050653577 0.015781611 0.26726118
-0.048288345 0.012990892 0.26699653
-0.046374857 0.0095400214 0.26706976
-0.049174786 0.010472298 0.26268801
-0.047485173 0.0077262223 0.26266599
-0.049753845 0.008220017 0.25796548
-0.04847306 0.0053827763 0.2591573
-0.051168323 0.0062138736 0.25443965
-0.050624073 0.0029920042 0.2545028
-0.051259518 0.0054267049 0.24968836
-0.050705791 0.0014995039 0.24936804
-0.050118506 0.00029319525 0.24546808
-0.050216794 -0.0036965609 0.24481207
0.02243638 -0.050459772 0.24630591
-0.049489081 -0.0010325015 0.24169916
-0.050044417 -0.0050853789 0.24063343
-0.049572706 -0.0079359412 0.23678273
-0.049032152 -0.0091489851 0.23176086
-0.04823643 -0.011279911 0.231695
0.01110661 -0.052696705 0.23157454
0.014971256 -0.052525789 0.23126221
-0.047495663 -0.013612241 0.22808692
-0.047319114 -0.017421037 0.22752088
0.0064781904 -0.052449346 0.22831795
0.010041475 -0.052865744 0.22765601
0.015872657 -0.053590506 0.2272104
-0.047144532 -0.015488952 0.22373417
-0.046791852 -0.019122064 0.2231136
0.00086182356 -0.051502585 0.22394317
0.0048991442 -0.051855832 0.2231876
0.0091058016 -0.052337795 0.2240274
-0.046796918 -0.020999491 0.21909213
-0.044599891 -0.025369346 0.21851891
-0.0047454834 -0.049992532 0.21860212
-0.0010601282 -0.050093055 0.21946135
0.0031061172 -0.051244169 0.22021547
-0.046082497 -0.02195859 0.21529996
-0.043678164 -0.025787055 0.2148976
-0.040748596 -0.030359596 0.21366423
-0.037418365 -0.033876896 0.21398184
-0.010574937 -0.050781697 0.21382737
-0.0058853626 -0.050391793 0.21502039
-0.042792439 -0.026985884 0.21150118
-0.040419698 -0.029713243 0.21031016
-0.03773272 -0.034014732 0.21087849
-0.034814656 -0.037217438 0.21001592
-0.031019449 -0.040837288 0.2096197
-0.0202865 -0.047388375 0.20950621
-0.016283154 -0.049056441 0.21011573
-0.011924446 -0.050008208 0.21025699
-0.0079439878 -0.051212162 0.21016169
-0.037125945 -0.034433275 0.20590732
-0.033514142 -0.03711313 0.20574397
-0.030020595 -0.039497644 0.2064423
-0.025144577 -0.043487757 0.2070874
-0.02090615 -0.045958102 0.20617062
-0.016535401 -0.047829896 0.20585975
-0.012482285 -0.050336033 0.20609573
-0.0088116527 -0.051642805 0.20619023
-0.0343256 -0.037922204 0.20227265
-0.046862721 0.021628171 0.27147529
-0.044596732 0.020872653 0.27459735
-0.048304319 0.02024284 0.26971462
-0.050470471 0.016262293 0.26362595
-0.049773812 0.017066538 0.26121625
-0.048695564 0.013359338 0.26095229
-0.04964304 0.010428458 0.25589594
-0.049937963 0.0085841715 0.25081512
-0.050946474 0.0065580606 0.24695361
-0.049995661 0.0033258498 0.24252498
-0.049809456 0.00086513162 0.23866069
-0.049266934 -0.0017656386 0.23519504
-0.049047947 -0.0037477911 0.23364571
-0.048939586 -0.0064053833 0.22969478
0.018137217 -0.051239103 0.22886693
-0.049193263 -0.0091374516 0.22511691
-0.047685027 -0.011770785 0.22604069
0.015175581 -0.053111255 0.22620422
-0.049728751 -0.010397822 0.22045264
-0.048190236 -0.013737261 0.22172812
0.010971248 -0.052587271 0.22149879
0.01454711 -0.054055989 0.2210083
0.017466068 -0.055909991 0.21913257
-0.051207364 -0.011797547 0.21662554
-0.048671484 -0.01558876 0.21659917
0.0017927885 -0.05033797 0.21685362
0.005635798 -0.051403821 0.21744972
0.0091606379 -0.052679718 0.21627775
0.014037669 -0.054906636 0.21773708
-0.048232436 -0.015893042 0.21308336
-0.046338379 -0.020167947 0.21245074
-0.043661833 -0.023070961 0.2123878
-0.0030939579 -0.049613506 0.21239024
-0.00026810169 -0.050243974 0.21277383
0.0042285919 -0.051607013 0.21285194
0.0084024668 -0.053235352 0.21315461
-0.04514128 -0.021615744 0.20889658
-0.042955935 -0.024771541 0.20818353
-0.041013241 -0.028061002 0.20811021
-0.0042318106 -0.051489234 0.20795804
-0.0018481016 -0.050202817 0.20896178
-0.04023248 -0.029325396 0.20425963
-0.038191855 -0.032397538 0.20322207
-0.027657509 -0.039566696 0.20456141
-0.024413586 -0.041606396 0.2041184
-0.020786285 -0.044388294 0.20379627
-0.016230583 -0.047888041 0.20392448
-0.011105895 -0.051034093 0.20302701
-0.0066095591 -0.052414864 0.20424062
-0.0037206411 -0.052252322 0.20128295
-0.040360928 -0.030341119 0.19952726
-0.037677646 -0.034557253 0.19949508
-0.033568144 -0.03858456 0.20002633
-0.029320717 -0.040817201 0.20005918
-0.025150239 -0.04335013 0.20024192
-0.02087307 -0.046220839 0.20026028
-0.016591072 -0.048696607 0.20017806
-0.012917995 -0.050368667 0.19939861
-0.0090087056 -0.051481515 0.19897509
-0.03677094 -0.035955429 0.19524062
-0.034680307 -0.038858384 0.19534725
-0.030278087 -0.04156518 0.19445178
-0.026256979 -0.045343488 0.19490081
-0.022333264 -0.048463434 0.19545627
-0.017729759 -0.050645947 0.19488856
-0.013445199 -0.051416814 0.19458216
-0.0093429685 -0.051907629 0.19530278
-0.03454566 -0.038318813 0.19091621
-0.030094683 -0.043191671 0.19056943
-0.027460456 -0.045152843 0.19080281
-0.023439646 -0.048837364 0.19133294
-0.019474149 -0.050395697 0.19035137
-0.048065424 0.019542217 0.25726241
-0.046425939 0.017675281 0.25741169
-0.048675835 0.018462867 0.25424203
-0.046889901 0.01632455 0.25310543
-0.050032794 0.016163975 0.24823868
-0.048562884 0.013845623 0.24933285
-0.049493253 0.011423707 0.24496052
-0.049817801 0.0088332593 0.24054348
-0.049889922 0.0071594715 0.23506188
-0.049685359 0.0033337176 0.23625642
-0.04964447 0.0024448633 0.23234862
-0.050286651 0.00054037571 0.22709504
-0.048477113 -0.0020621121 0.22763371
-0.051624894 -0.0013861656 0.22205943
-0.049042225 -0.0046625137 0.22376084
-0.052508593 -0.004150331 0.21775714
-0.050158024 -0.0062137842 0.21956438
-0.052785039 -0.0053744614 0.21413422
-0.051467896 -0.0086779296 0.21420884
0.012727678 -0.052286834 0.21480078
0.015314102 -0.053269535 0.2146354
-0.049623132 -0.010496736 0.21117863
-0.047828019 -0.013290465 0.21014863
-0.045901716 -0.016291559 0.21028087
0.0065670013 -0.050072491 0.20964348
0.011140585 -0.05123955 0.21056694
0.015218496 -0.053894937 0.21183592
-0.046634793 -0.015346974 0.20592329
-0.045113325 -0.018188685 0.20615774
-0.043339252 -0.021536469 0.20520246
0.0013626218 -0.049876809 0.20668268
0.0045508146 -0.049432606 0.205219
-0.04511416 -0.019460738 0.20178503
-0.042620122 -0.023628473 0.20219761
-0.040625572 -0.026505589 0.20088404
0.00062525272 -0.050354958 0.20181149
-0.044872284 -0.021765083 0.1986886
-0.042541921 -0.02446568 0.19641554
-0.040215373 -0.028230011 0.19726729
-0.010064662 -0.050099015 0.1966711
-0.0053068399 -0.051299751 0.19755381
-0.0030599833 -0.05229038 0.19777465
-0.039572716 -0.02936089 0.19269079
-0.037320852 -0.033088714 0.19321537
-0.010735512 -0.050760448 0.19239026
-0.0063829422 -0.051432073 0.19297343
-0.0029934645 -0.052331865 0.19320863
-0.038842082 -0.031175762 0.18979144
-0.036955953 -0.034023196 0.18935096
-0.033775091 -0.037454844 0.18846017
-0.029946446 -0.04001075 0.18821019
-0.025288463 -0.043586761 0.1877057
-0.021174192 -0.046519667 0.18733972
-0.015993595 -0.049131721 0.1881662
-0.012298107 -0.050990403 0.18919989
-0.0078442097 -0.051660448 0.1889838
-0.028909981 -0.041546494 0.18449081
-0.025325358 -0.044178396 0.18448494
-0.021285772 -0.046588987 0.18496566
-0.017885804 -0.048238873 0.18550329
-0.046790481 0.022998601 0.25479922
-0.04771173 0.02137512 0.25024486
-0.046740532 0.017617583 0.25085124
-0.048738122 0.020289302 0.24600795
-0.04879725 0.015836239 0.24231607
-0.049296379 0.013057232 0.23793265
-0.048871994 0.010424852 0.2333937
-0.049198151 0.0080169737 0.23030967
-0.049346685 0.0067670047 0.22835633
-0.050360382 0.0060606897 0.22528201
-0.050614715 0.0050184727 0.22554758
-0.051282704 0.0036373436 0.22088099
-0.052170634 0.00067391992 0.21693987
-0.051895022 -0.0017383099 0.21167678
-0.050960422 -0.0047408044 0.2108767
-0.051120162 -0.0029273033 0.20791268
-0.049601436 -0.0069566369 0.20797154
-0.047820449 -0.01050213 0.20664707
0.013132811 -0.049430847 0.20710397
0.017728925 -0.051306456 0.20785558
-0.048926592 -0.0076294541 0.20304894
-0.047161281 -0.011995286 0.20331678
0.0082563162 -0.04883796 0.20329022
0.01217258 -0.048941255 0.20417565
-0.046414971 -0.013205171 0.19895053
-0.045725822 -0.017091244 0.19880313
0.0022128224 -0.049607664 0.19794935
0.005974412 -0.049295694 0.19897366
0.010466456 -0.048374206 0.19973624
-0.047330141 -0.015491605 0.19408119
-0.045774221 -0.018580824 0.19460523
-0.043763936 -0.021220684 0.19494092
0.0020140409 -0.050388336 0.19474274
0.0058012009 -0.050091475 0.19438565
-0.045075655 -0.019493192 0.1902386
-0.042602539 -0.023168027 0.19007695
-0.040305555 -0.026486188 0.19020194
-0.0046670437 -0.050913841 0.18911123
-0.001219213 -0.051565289 0.19007632
0.0041415691 -0.050411671 0.19008309
-0.044574261 -0.021006823 0.18639258
-0.042714357 -0.023796618 0.18680352
-0.039376795 -0.027710795 0.18552385
-0.036299527 -0.031341404 0.18545578
-0.03281343 -0.035335213 0.18467338
-0.015109777 -0.047962844 0.18494986
-0.010994136 -0.049153417 0.18498494
-0.0053453445 -0.050349444 0.18512799
-0.00084769726 -0.051307052 0.18596791
-0.038871646 -0.027770311 0.18198369
-0.035264611 -0.032559782 0.18089317
-0.033107996 -0.036156952 0.1814786
-0.029685497 -0.039443046 0.1815431
-0.025691748 -0.042895555 0.18068518
-0.021272302 -0.045441628 0.18102573
-0.01622051 -0.047359496 0.18151991
-0.011053264 -0.049028009 0.18127827
-0.0061199665 -0.050302714 0.18140839
-0.031873047 -0.036504567 0.17671721
-0.029525816 -0.04038018 0.17677347
-0.025859952 -0.043688118 0.17702125
-0.02140069 -0.04627946 0.17693211
-0.016156197 -0.047572881 0.17739551
-0.012752295 -0.048312396 0.17681716
-0.028111041 -0.041876704 0.17344339
-0.024481773 -0.043023527 0.17310445
-0.02103442 -0.045440137 0.17314886
-0.045887709 0.026205093 0.25324926
-0.046030998 0.0257186 0.25086114
-0.049854279 0.025561631 0.24385208
-0.048616529 0.023236096 0.24415395
-0.050539851 0.024515092 0.24163294
-0.04961735 0.020440131 0.24065626
-0.048677266 0.01908645 0.23547858
-0.048351169 0.016160578 0.23548275
-0.047284484 0.015040904 0.23107132
-0.048641443 0.0097204745 0.22677112
-0.049058557 0.010087937 0.22217214
-0.049026906 0.0090309381 0.21797508
-0.050644398 0.0032092333 0.21323249
-0.050258875 0.0022119284 0.20913124
-0.050190628 -0.0010036826 0.20439368
-0.048425317 -0.0030800402 0.2040993
0.018550992 -0.049140871 0.20378527
0.02185905 -0.050298572 0.20525871
-0.050813437 -0.0027253926 0.20043346
-0.048560739 -0.0054689944 0.19982582
0.01420188 -0.047750473 0.20070004
0.018674254 -0.047334284 0.20103276
-0.048836112 -0.0063976347 0.19549549
-0.046555698 -0.010252178 0.19694799
0.012477875 -0.04809019 0.19623721
-0.049232602 -0.0081256926 0.19209847
-0.047570944 -0.01218617 0.19176853
0.007894814 -0.050123394 0.19110972
0.011749864 -0.048847377 0.1910072
-0.046992481 -0.014293641 0.18737048
-0.044900537 -0.017617762 0.18729898
0.0060845613 -0.049938649 0.18703061
0.010265827 -0.04981187 0.18715951
-0.044075608 -0.017850816 0.18286909
-0.04145968 -0.021986187 0.18263738
-0.039383888 -0.023708314 0.18099163
0.00041949749 -0.051143736 0.18252309
-0.044143558 -0.019333482 0.17890744
-0.041833758 -0.022797734 0.17838182
-0.039291024 -0.027074367 0.17911176
-0.036002517 -0.02934593 0.17870729
-0.0050846338 -0.049865037 0.17849521
-0.0011059642 -0.051044464 0.17911009
0.0024770498 -0.050926447 0.17744939
-0.041237712 -0.02423948 0.17446195
-0.039372921 -0.027560234 0.17350061
-0.035683095 -0.031357169 0.17445634
-0.033289552 -0.035056472 0.17512126
-0.015920758 -0.047183573 0.17445593
-0.010703981 -0.04886204 0.1747285
-0.0063838959 -0.049891144 0.17414276
-0.0015989542 -0.050715119 0.17460923
-0.039225578 -0.030252635 0.16872703
-0.036502957 -0.0324139 0.16918437
-0.032883406 -0.035602927 0.17065848
-0.028681934 -0.039406538 0.17076088
-0.024113774 -0.042020679 0.17013066
-0.020595431 -0.044387281 0.17014848
-0.015968084 -0.047030985 0.17027961
-0.011142731 -0.049033076 0.16947882
-0.0076559782 -0.050355107 0.17033242
-0.035523415 -0.034141541 0.1656145
-0.032559991 -0.036894679 0.16672532
-0.029157758 -0.039761305 0.16624527
-0.025320649 -0.042551965 0.16575132
-0.020651698 -0.045165867 0.16597886
-0.01629591 -0.047278523 0.16621183
-0.012012601 -0.049608141 0.16563766
-0.047361851 0.022937685 0.23224077
-0.046594501 0.021944165 0.22809213
-0.046455145 0.018673658 0.22843114
-0.047124267 0.016232252 0.22449997
-0.049285412 0.017916381 0.21995515
-0.048986197 0.014503062 0.21981543
-0.050815701 0.015655547 0.21554208
-0.04958117 0.012269586 0.21505511
-0.047724009 0.008872658 0.21405464
-0.04749763 0.011248291 0.21175611
-0.046976566 0.0091490448 0.2104407
-0.047076106 0.00674209 0.20584714
-0.048523903 0.0047749281 0.20170209
-0.050055027 -0.00084841251 0.19777778
0.020976305 -0.045871466 0.19776908
0.023736477 -0.046369106 0.1976757
-0.050214052 -0.0014934838 0.19449541
-0.048901081 -0.0049012005 0.1951322
0.01470077 -0.047872454 0.19374174
0.019293785 -0.046758413 0.19409657
-0.050422192 -0.002188772 0.19122598
-0.048754811 -0.0053260028 0.1891306
0.013836861 -0.049227029 0.19075659
0.018242836 -0.048715889 0.18884462
-0.048142493 -0.0063384473 0.18550508
-0.04803586 -0.010872394 0.18564461
0.012303829 -0.050139785 0.185445
0.016773224 -0.050385356 0.18533181
-0.046439171 -0.012017429 0.1810814
-0.045010328 -0.016314 0.18087803
0.0069727302 -0.049401969 0.18150769
0.011556566 -0.049206674 0.18110158
-0.046316862 -0.014737159 0.17629994
-0.045388997 -0.01822269 0.17685644
-0.042642534 -0.021740496 0.1766638
0.00072038174 -0.050579995 0.17591377
0.0069352388 -0.049214005 0.1766427
-0.0440979 -0.018702298 0.17228656
-0.041797996 -0.022487074 0.17210357
-0.040317059 -0.026187181 0.17131673
-0.003125906 -0.050171554 0.17297836
-0.00048530102 -0.050146401 0.17205761
0.0051531196 -0.049269438 0.17300992
-0.043546557 -0.020326436 0.16851489
-0.041926503 -0.02427581 0.16780429
-0.040187061 -0.027740806 0.16820098
-0.0057672858 -0.050390601 0.16788341
-0.0010932684 -0.050153047 0.16766874
-0.04158318 -0.025013745 0.16415493
-0.039035916 -0.0292207 0.16335444
-0.037044227 -0.033318043 0.16367517
-0.033316851 -0.03664428 0.16364442
-0.029402137 -0.039677352 0.16295819
-0.024166465 -0.043363065 0.16259031
-0.020599723 -0.045703679 0.16259216
-0.016090631 -0.048162729 0.16333573
-0.011384189 -0.050076038 0.16353334
-0.0059940219 -0.049640208 0.1631154
-0.038139284 -0.030593872 0.15977697
-0.036048532 -0.033192724 0.16013108
-0.032430768 -0.036699504 0.16001423
-0.028806329 -0.039178163 0.15893389
-0.024797916 -0.041693866 0.15890269
-0.019975007 -0.044703931 0.15914659
-0.016149879 -0.047073722 0.15837772
-0.012246847 -0.049613386 0.15881886
-0.007417202 -0.049795777 0.15951703
-0.047493875 0.023737609 0.22646713
-0.047623515 0.021117538 0.22294885
-0.049747944 0.019079059 0.21847808
-0.050742328 0.017405689 0.21323764
-0.049480677 0.016323686 0.21001911
-0.048473597 0.012873501 0.20922607
-0.04835391 0.012019932 0.20421454
-0.047435284 0.0078498423 0.20477566
-0.054947972 0.01428476 0.20181078
-0.049918234 0.010016322 0.20030749
-0.049012482 0.005423665 0.19954109
-0.047671437 0.0056417882 0.19604039
-0.047840238 0.0030039549 0.19123453
0.021058857 -0.047136307 0.19076705
0.023443818 -0.046647221 0.19373861
-0.04827714 0.00088322163 0.18658817
-0.0478791 -0.0026397705 0.18655035
-0.049330831 0.00017186999 0.1825534
-0.048289299 -0.0046624839 0.18240543
0.018358827 -0.049058259 0.18179442
-0.048576117 -0.0054298341 0.17811881
-0.04684639 -0.0090206861 0.17750074
0.014997184 -0.047858953 0.17750667
0.018296361 -0.048208892 0.1786444
-0.048453689 -0.0067377687 0.17393123
-0.04644084 -0.010615766 0.17379664
0.0099549294 -0.047199428 0.17247312
0.012742043 -0.047360241 0.17408846
-0.045676887 -0.013585001 0.1698664
-0.044493914 -0.01598686 0.16895847
0.0035916567 -0.048747361 0.17138134
0.0059483051 -0.048413277 0.16874062
-0.045907974 -0.013541937 0.16528024
-0.044008553 -0.017207444 0.16466199
-0.042312145 -0.020828217 0.16488276
0.0021215081 -0.049229711 0.16380496
0.0054657459 -0.049202383 0.16442703
-0.044041276 -0.018807262 0.15964352
-0.042087793 -0.02214396 0.16076596
-0.039741635 -0.025972664 0.16142021
-0.0051686168 -0.04972899 0.16085477
0.00019335747 -0.049134433 0.16027449
-0.041473925 -0.023241907 0.15679799
-0.03823179 -0.026658237 0.1565152
-0.034490168 -0.029701203 0.1554812
-0.032265186 -0.034218103 0.15686356
-0.029705703 -0.036950201 0.15645806
-0.022015333 -0.041193277 0.15622811
-0.019935846 -0.042672694 0.15626262
-0.0093203187 -0.049868315 0.15633498
-0.0046232343 -0.048932999 0.1560614
-0.0011405945 -0.049060017 0.15633391
-0.034259796 -0.031640559 0.1513
-0.031335771 -0.03448838 0.15247305
-0.027880549 -0.038105488 0.15287144
-0.023259163 -0.040658504 0.15273289
-0.018677473 -0.04293552 0.15274505
-0.015369475 -0.045863211 0.15274464
-0.011156976 -0.048274934 0.15204509
-0.0075280666 -0.048771024 0.15298723
-0.034529805 -0.033156455 0.14730822
-0.031463146 -0.03541401 0.14760797
-0.028050065 -0.038431644 0.14787392
-0.024368525 -0.040284365 0.14745076
-0.019887149 -0.042983204 0.14738084
-0.015381753 -0.045514852 0.14815651
-0.011849046 -0.047524899 0.14836641
-0.033640921 -0.035742164 0.14430574
-0.028592825 -0.039054751 0.14430836
-0.049119055 0.019785285 0.20690364
-0.048617125 0.016738832 0.20632479
-0.050734401 0.018111318 0.20255795
-0.049095511 0.015781999 0.20314723
-0.051670074 0.015644103 0.19805807
-0.049255967 0.012803048 0.19647056
-0.048212469 0.011995673 0.19314104
-0.047792196 0.0083220899 0.19339815
-0.046824217 0.0072680414 0.18873703
-0.04809773 0.0050739944 0.18336563
-0.048948467 0.0026287436 0.17954956
0.02234149 -0.04798767 0.18024084
-0.048782051 -0.00026515126 0.17549895
-0.049807549 -0.0037914515 0.1757376
0.020326972 -0.047655374 0.17578591
0.023075879 -0.048021436 0.17658421
-0.048358321 -0.0043526888 0.17107026
0.015349329 -0.046304643 0.17097448
0.019003749 -0.047762364 0.17212819
-0.047842622 -0.0066618323 0.16728519
-0.045988441 -0.0095776021 0.16775404
0.010520577 -0.047191471 0.16971026
0.014315724 -0.046782255 0.16690971
0.017486632 -0.049222916 0.16723429
-0.048303843 -0.0080597103 0.16275434
-0.046351254 -0.011612862 0.1628135
0.0066848993 -0.049845189 0.16224514
0.012507796 -0.048282743 0.1627733
0.016633391 -0.050324678 0.16352628
-0.046312451 -0.013789147 0.15827523
-0.045523286 -0.017198265 0.15865533
0.003172338 -0.04942283 0.15741543
0.0070859194 -0.049048007 0.15836446
0.012595296 -0.049510479 0.15926339
-0.046346903 -0.01433903 0.15484677
-0.045011282 -0.018706918 0.15406246
-0.042152524 -0.023122191 0.1537271
-0.03872335 -0.026227802 0.15326135
-0.002853632 -0.048963457 0.15304492
0.0013496876 -0.048610061 0.15357439
0.0053813457 -0.048686564 0.15439002
-0.044068158 -0.019665152 0.1499602
-0.041685224 -0.022232324 0.14905439
-0.038175523 -0.026592672 0.14950185
-0.035611272 -0.029605299 0.15006141
-0.0044487715 -0.047945559 0.14909135
-0.00089287758 -0.047740281 0.14960597
-0.041838288 -0.023779899 0.14532827
-0.039566875 -0.027224064 0.14471035
-0.036459446 -0.030566633 0.14510469
-0.031662941 -0.035915285 0.14577101
-0.022909284 -0.041651875 0.14487068
-0.014859855 -0.04565388 0.14448754
-0.0099983215 -0.047063828 0.1444938
-0.0060212612 -0.047170341 0.14531295
-0.03967464 -0.028765291 0.14002022
-0.036531806 -0.032643616 0.14097634
-0.032227039 -0.035318434 0.14117882
-0.027414918 -0.037283212 0.14081886
-0.023419976 -0.040448368 0.14098528
-0.019658804 -0.043813169 0.14126119
-0.014404535 -0.045377374 0.14087215
-0.011306643 -0.046467483 0.14040473
-0.036499083 -0.032646269 0.13667831
-0.022631168 -0.041595101 0.13663861
-0.019414902 -0.044336677 0.13683584
-0.049332738 0.022457272 0.20480192
-0.050458014 0.017541736 0.19623536
-0.051079035 0.017003983 0.19107023
-0.049031973 0.013347566 0.19117993
-0.050199509 0.015743613 0.18723899
-0.048457742 0.012576967 0.18667835
-0.049334645 0.010935605 0.18221889
-0.047391772 0.0087246895 0.18442903
-0.049354017 0.0084390938 0.17951612
-0.048220575 0.0067982078 0.17708389
-0.048353434 0.003641963 0.17349075
-0.048532367 0.0006082058 0.1693431
-0.047975838 -0.00057715178 0.16742168
-0.049865663 -0.00055217743 0.16417073
-0.04911983 -0.0031182766 0.16510577
-0.04941678 -0.0049862266 0.16038923
0.015333056 -0.049061716 0.16042207
0.017885864 -0.048986763 0.16052987
-0.049091101 -0.0069725811 0.15624259
-0.046739995 -0.0098294318 0.15593402
0.012516737 -0.048881799 0.15601228
0.015414894 -0.049795389 0.15611808
-0.049347401 -0.0094828308 0.15039347
-0.046824336 -0.01169765 0.15107493
-0.046011209 -0.01571098 0.15157811
0.0075958967 -0.048549145 0.15227537
0.011068702 -0.048550397 0.15146355
-0.050368547 -0.01112178 0.14653967
-0.047593772 -0.013037264 0.14747675
-0.045052588 -0.017024904 0.14790653
0.0026209354 -0.047444612 0.14793311
0.0069630742 -0.048132002 0.14729531
0.010002136 -0.049412549 0.14799328
-0.047772586 -0.013727337 0.14408347
-0.04484272 -0.018245995 0.14304468
-0.042495966 -0.022341669 0.14321163
-0.0027884245 -0.046889782 0.14277714
0.0016186237 -0.047775209 0.14277998
0.0048353672 -0.048170149 0.14317659
-0.044688284 -0.019726664 0.13872674
-0.042296886 -0.023644984 0.13871703
-0.040615618 -0.02684775 0.13845167
-0.029970407 -0.035497695 0.13805935
-0.027070284 -0.037400842 0.13806087
-0.024097085 -0.039238214 0.13802737
-0.014596224 -0.045359045 0.1379973
-0.0091044307 -0.046648711 0.13850191
-0.004054904 -0.047756702 0.13866401
0.00031137466 -0.04865405 0.13829246
-0.041877151 -0.024361432 0.13446936
-0.039037347 -0.028621465 0.13434625
-0.035526156 -0.032100827 0.13396397
-0.03139323 -0.034393251 0.13461778
-0.027262688 -0.036634594 0.13421327
-0.023441076 -0.039866596 0.13398424
-0.020104229 -0.043631464 0.13383934
-0.014708757 -0.045261711 0.13411257
-0.009881258 -0.046720803 0.13407224
-0.0055844784 -0.048107743 0.13336763
-0.0020370483 -0.049165219 0.1348072
-0.038607001 -0.029378116 0.12999249
-0.035844326 -0.032375455 0.12993121
-0.032081485 -0.034975857 0.12892452
-0.02809763 -0.03750053 0.12916067
-0.023832142 -0.040458918 0.12921345
-0.019908309 -0.043401152 0.12956148
-0.014882803 -0.045852304 0.12998518
-0.010516047 -0.047182888 0.12980887
-0.0078151226 -0.048438638 0.13025972
-0.031088054 -0.036231607 0.12570301
-0.02890116 -0.037666649 0.12570414
-0.050632358 0.022004634 0.18691528
-0.054644108 0.020093203 0.1862843
-0.050309539 0.019407272 0.18396129
-0.050134063 0.017451525 0.1794403
-0.04974407 0.013394326 0.17888226
-0.046940446 0.012279272 0.17496936
-0.046665668 0.011401266 0.17111786
-0.047184646 0.0083195567 0.17113464
-0.047614098 0.0059414804 0.16646616
-0.04917407 0.0034715533 0.16256608
-0.049225628 0.00054964423 0.15833984
-0.049202919 -4.9173832e-05 0.15397818
-0.048680067 -0.0047270656 0.15250646
-0.04916048 -0.0057064295 0.14925145
0.014190078 -0.048680335 0.14969416
0.016138196 -0.048459977 0.1474378
-0.050403953 -0.0082423985 0.14451979
-0.046579719 -0.012437731 0.14437394
0.0086262822 -0.048346579 0.14400372
0.012939274 -0.048144192 0.14431661
-0.049785376 -0.009362191 0.14012304
-0.046798825 -0.012370944 0.14005962
-0.045393169 -0.014573485 0.13839167
0.0071606636 -0.048050702 0.13957635
0.010763884 -0.04785341 0.14008448
-0.044941664 -0.016957462 0.13588783
0.0018478632 -0.049386293 0.13591996
0.0054039955 -0.048951656 0.13598761
-0.044252753 -0.01979351 0.13206059
-0.042386115 -0.022764951 0.13175288
-0.039373755 -0.026632071 0.13173434
-0.0035349131 -0.048865199 0.13135043
0.00053429604 -0.048760056 0.13100722
0.0040708184 -0.048671931 0.13157415
-0.041978955 -0.022480339 0.12820402
-0.038959682 -0.026402444 0.12789637
-0.035644412 -0.030938655 0.12680724
-0.017474294 -0.044105798 0.12721294
-0.014386773 -0.045868069 0.12713051
-0.0095681548 -0.047508806 0.127262
-0.0051965714 -0.048651308 0.12825122
-0.00037133694 -0.04898873 0.1270515
-0.036762893 -0.02761358 0.12413225
-0.034626961 -0.030413181 0.12365592
-0.031274915 -0.034391284 0.12330419
-0.026859879 -0.037651062 0.12289521
-0.023155332 -0.04003951 0.12367469
-0.018660545 -0.041564733 0.12272415
-0.014147878 -0.044292897 0.12349871
-0.010255814 -0.04563877 0.12373087
-0.020161748 -0.04091084 0.11935529
-0.050738335 0.019905955 0.17854802
-0.046910763 0.016540259 0.17338933
-0.04662019 0.013703465 0.16905089
-0.046096444 0.011489213 0.16739045
-0.047467113 0.012067676 0.16385992
-0.046923935 0.010166138 0.1642841
-0.048698425 0.010706544 0.1590143
-0.04820025 0.0074749887 0.15937357
-0.048234105 0.0056051612 0.1553636
-0.048049688 0.0027494431 0.15022297
-0.048246622 -0.00068312883 0.1512536
-0.04807508 0.0011629164 0.14519958
-0.048562527 -0.001498729 0.14790432
-0.049113035 -0.00037249923 0.14218399
-0.049166501 -0.0028530657 0.14293256
0.016288579 -0.046949655 0.1423907
-0.050362468 -0.0023695529 0.13750842
-0.050255299 -0.0057061613 0.13813123
-0.044966519 -0.011777461 0.13745442
0.013943195 -0.047061741 0.13783732
-0.04946053 -0.0077378452 0.13369748
-0.046406686 -0.011309177 0.13391843
-0.043933153 -0.013947964 0.13239127
0.0085613728 -0.048164129 0.13372901
0.012186408 -0.047775626 0.13333812
-0.046135604 -0.012138844 0.12919685
-0.043983579 -0.01571539 0.12925774
0.0057889223 -0.048634022 0.12936631
-0.047112703 -0.013300151 0.12543777
-0.043886602 -0.01734063 0.12604889
-0.039746523 -0.020899087 0.12353587
-0.037762403 -0.023732871 0.124026
-0.0035972595 -0.046193421 0.12359309
0.0013697743 -0.04786405 0.12416986
0.0047109127 -0.049080193 0.1260263
-0.039559484 -0.021266371 0.11989355
-0.037561774 -0.025411069 0.1205548
-0.033913255 -0.030171007 0.12064791
-0.031344712 -0.032432675 0.12083581
-0.01392436 -0.043271333 0.12127146
-0.0085079074 -0.045559376 0.12024468
-0.0040563941 -0.04673332 0.11968166
-0.00071763992 -0.048164517 0.12036863
-0.036883116 -0.025322139 0.1159766
-0.034194529 -0.029216081 0.11646613
-0.030372143 -0.032163858 0.11644605
-0.026639223 -0.035617262 0.11715043
-0.022346616 -0.038609296 0.11720952
-0.017633557 -0.04154709 0.11692828
-0.01348412 -0.043534458 0.11668894
-0.0098965168 -0.045378208 0.1164467
-0.0051676035 -0.046078146 0.11597475
-0.029144049 -0.033868849 0.11338297
-0.02649343 -0.036608934 0.1120787
-0.022579551 -0.039706558 0.11202294
-0.01790899 -0.0410842 0.11240056
-0.013755977 -0.043786973 0.11270764
-0.010541201 -0.045909494 0.11240155
-0.029978812 -0.035643578 0.10759786
-0.027721286 -0.038265347 0.1075803
-0.023507714 -0.039989501 0.10857338
-0.046910584 0.021719456 0.17382593
-0.045743287 0.022679955 0.17156361
-0.047003508 0.018551767 0.17016624
-0.046864152 0.017154336 0.16635327
-0.047736168 0.015369624 0.16209184
-0.049057126 0.01352483 0.15719692
-0.048133612 0.01096499 0.1537305
-0.047392488 0.0080994964 0.15312897
-0.047241688 0.010341704 0.14971043
-0.047516227 0.0063284039 0.1487193
-0.048008919 0.0048939884 0.14408758
-0.048992455 0.0018886626 0.13927385
-0.050083041 0.00077170134 0.1351136
0.018951535 -0.04584983 0.1350874
-0.05005163 -0.0022061467 0.13184872
-0.049657166 -0.0042998493 0.13055959
0.015336454 -0.047328681 0.13256559
-0.048272371 -0.0066071153 0.12781432
-0.04671371 -0.0093547404 0.12658623
-0.044169724 -0.012576759 0.12645763
0.0089100599 -0.04740864 0.12648532
0.013133764 -0.047946602 0.12764224
-0.04791975 -0.0068490803 0.12356111
-0.045722365 -0.010229468 0.12268379
-0.042641282 -0.014066994 0.12257975
-0.04065001 -0.017017752 0.12248492
0.0074272156 -0.047936469 0.12261894
0.012905836 -0.04831472 0.12361822
-0.045038223 -0.012201756 0.11812437
-0.041923642 -0.015195072 0.11843231
-0.03973043 -0.018796504 0.11819723
-0.038514793 -0.0230501 0.11745182
0.0021853447 -0.047584862 0.11816701
0.0069147348 -0.048076808 0.11832526
-0.038992047 -0.021022081 0.11361378
-0.036733687 -0.024022281 0.11310911
-0.034463763 -0.027825922 0.11316028
-0.031021118 -0.030953199 0.11282489
-0.006909132 -0.045810103 0.11345518
-0.0034104586 -0.047113568 0.1140658
0.00086915493 -0.047910273 0.11340645
-0.038640976 -0.021900654 0.10959807
-0.035921335 -0.025738418 0.10965523
-0.033905745 -0.029524505 0.10922423
-0.030008256 -0.032774866 0.11039743
-0.027546167 -0.035299242 0.10976392
-0.017748833 -0.041392297 0.10965666
-0.014086246 -0.043255597 0.11022893
-0.0084961653 -0.045148998 0.10888562
-0.0041909814 -0.047293246 0.11054271
-0.00016272068 -0.047188252 0.10963055
-0.034069657 -0.030198038 0.10407043
-0.031337738 -0.034092635 0.10616547
-0.027277648 -0.038238883 0.10505626
-0.02321136 -0.040167212 0.10574836
-0.018921375 -0.041898608 0.10632423
-0.014165878 -0.044149518 0.10546598
-0.031416893 -0.034296781 0.10212012
-0.027768493 -0.037621021 0.10117932
-0.024158359 -0.040613919 0.10139616
-0.018929482 -0.042809844 0.10097541
-0.015441418 -0.044280529 0.10069691
-0.044884682 0.026057214 0.17052154
-0.045585096 0.025726318 0.16729327
-0.045543253 0.024311632 0.16290186
-0.044753015 0.022741139 0.16410114
-0.04697001 0.02374053 0.16056754
-0.045297623 0.021463931 0.15905963
-0.046970606 0.019031703 0.15453778
-0.047205031 0.01513049 0.15053777
-0.047433674 0.012128651 0.14554413
-0.047195792 0.010018975 0.14703651
-0.047995389 0.0085961223 0.14299479
-0.048122168 0.0067900717 0.13837418
-0.048790336 0.0050755739 0.13308105
-0.049536705 0.0013115704 0.12842605
-0.049428225 0.00027179718 0.12386754
-0.048725605 -0.0035428405 0.1241765
-0.046995163 -0.0046766996 0.11919788
-0.045362651 -0.0078920126 0.11961693
-0.042462349 -0.011714667 0.1202344
0.01474452 -0.047335774 0.11964768
0.017329454 -0.047940433 0.11929923
-0.047410846 -0.0067426264 0.11466655
-0.045252442 -0.0098082721 0.11583084
-0.041937113 -0.013289213 0.11613032
-0.039444864 -0.016809195 0.11561805
0.0090768337 -0.048086852 0.11545995
0.013939261 -0.047953039 0.11588508
0.017093182 -0.04896006 0.1149781
-0.048417151 -0.0084760487 0.1115182
-0.046137571 -0.01177597 0.11164078
-0.041853487 -0.014565676 0.11163625
-0.039287925 -0.017644554 0.11178344
0.0047392845 -0.046994954 0.1113292
0.0083717704 -0.047098696 0.11152151
0.012743473 -0.048341244 0.1121226
0.016552687 -0.049906582 0.1125735
-0.048941493 -0.010316163 0.10704088
-0.046810865 -0.013223559 0.10659894
-0.042767346 -0.015349686 0.10642502
-0.039798856 -0.018505901 0.10682991
-0.036507905 -0.02261278 0.10694268
-0.03491497 -0.026048154 0.10639715
-0.005425036 -0.043347329 0.10572249
-0.0020805001 -0.04432869 0.106451
0.0022883415 -0.045912176 0.10640141
0.007729888 -0.047170192 0.10790583
-0.044320464 -0.016179472 0.10325283
-0.040545762 -0.020038754 0.10182376
-0.03695035 -0.023784488 0.10229652
-0.035164356 -0.026843667 0.10293865
-0.0069536567 -0.043358803 0.10203697
-0.0023105145 -0.044510692 0.10258369
0.00030136108 -0.045647323 0.10238929
-0.040912271 -0.022270143 0.097913399
-0.037533343 -0.025429934 0.097831473
-0.033804655 -0.028782874 0.097600803
-0.029865384 -0.031932861 0.097254321
-0.026429296 -0.034679413 0.096701458
-0.022103727 -0.037048012 0.095907107
-0.019308805 -0.040310502 0.096404031
-0.013332844 -0.043588847 0.097451046
-0.0085926056 -0.043973505 0.097529456
-0.033074737 -0.029852808 0.09399496
-0.029722929 -0.032839417 0.092906997
-0.026472926 -0.035334617 0.092216268
-0.022280455 -0.037655056 0.093296453
-0.017645001 -0.041004986 0.093405053
-0.014106631 -0.042598337 0.093471959
-0.030365467 -0.034093887 0.089122787
-0.045677066 0.027564377 0.16234677
-0.045672894 0.023462981 0.15765809
-0.046562552 0.021951497 0.15364037
-0.046233535 0.021688759 0.14903532
-0.046409369 0.017887533 0.14799856
-0.045607924 0.017155766 0.14419869
-0.045672774 0.013857871 0.13960198
-0.045606434 0.01274538 0.13572642
-0.04564178 0.012337863 0.13305137
-0.048223197 0.0066301823 0.13062754
-0.049324274 0.0050248504 0.12760517
-0.050078154 0.0028369427 0.12234917
-0.048530817 0.00090029836 0.11784148
-0.04783392 -0.00174734 0.11691093
0.021315217 -0.047158778 0.11633024
-0.047847748 -0.0024382174 0.11299968
0.020130634 -0.048809946 0.11333981
0.020840526 -0.050770611 0.1119376
-0.048488855 -0.0049079061 0.1086233
0.013688803 -0.04840517 0.10954615
0.01803863 -0.048814237 0.10848674
-0.049061358 -0.0087982714 0.10513696
0.0046365857 -0.045957625 0.10438558
0.0080703497 -0.047365636 0.10505241
0.013260961 -0.048123717 0.10549745
-0.046266317 -0.011780053 0.10092537
-0.043766975 -0.015990585 0.10062094
-0.0017681122 -0.044514567 0.099611208
0.0028814077 -0.046537936 0.10089548
0.0076807737 -0.047093719 0.10066934
0.011630774 -0.047080636 0.10131688
-0.04540658 -0.013321251 0.09584628
-0.043199182 -0.016443551 0.096012667
-0.041300058 -0.020731121 0.09575294
-0.037713885 -0.024430633 0.095075533
-0.0072692633 -0.044557273 0.095142856
-0.0028957129 -0.044989675 0.096210614
0.0013637543 -0.046690404 0.09621723
0.0052398443 -0.046890765 0.095987573
-0.039740145 -0.021236122 0.091744766
-0.037239552 -0.025284111 0.091244861
-0.033896267 -0.028982162 0.091647401
-0.031418681 -0.03124997 0.090278462
-0.021952093 -0.037807316 0.090405002
-0.017932832 -0.039988667 0.090246394
-0.012561679 -0.043044657 0.09152101
-0.0087331533 -0.044505894 0.091393158
-0.0036839247 -0.044893891 0.091889933
-0.037159324 -0.026805371 0.086834356
-0.034844518 -0.029811889 0.08644785
-0.031856894 -0.032575965 0.087331489
-0.026656389 -0.035677254 0.086902097
-0.021993816 -0.038293928 0.087708667
-0.017426729 -0.040528506 0.086476967
-0.013672709 -0.043278128 0.086306706
-0.0094732642 -0.044899404 0.086822674
-0.034806967 -0.029630661 0.082797214
-0.030938804 -0.033497453 0.084046766
-0.027118266 -0.034344554 0.082681969
-0.044598222 0.02624923 0.15021406
-0.0458318 0.024956852 0.14570425
-0.044056952 0.023316056 0.14351299
-0.044658065 0.021256566 0.14086595
-0.044917226 0.018486381 0.13730749
-0.045095086 0.016770959 0.13254276
-0.044870734 0.015124053 0.12829432
-0.045240879 0.012120932 0.12834594
-0.046284318 0.010320127 0.12346098
-0.046822906 0.0090264976 0.11830297
-0.047809601 0.0059856474 0.11530474
-0.047989845 0.003426224 0.11112303
-0.048458934 0.0014263988 0.10626999
-0.048537612 -0.0023003817 0.1061863
-0.048552096 -0.00022342801 0.10263316
-0.048051178 -0.0042622089 0.10169043
0.01559639 -0.046939552 0.10134749
0.017843246 -0.047130853 0.10187207
-0.047759175 -0.0054213405 0.09654291
-0.045706272 -0.0090558529 0.09796454
0.010775566 -0.046370506 0.096480086
0.014118552 -0.046469867 0.09710972
0.017729282 -0.046767414 0.097943291
-0.048501849 -0.0072739124 0.092730418
-0.045838177 -0.010773659 0.093831375
-0.042451859 -0.014514029 0.092711613
0.0051330924 -0.045202315 0.092549816
0.0088768005 -0.045729309 0.093325332
0.012448013 -0.046574146 0.093292043
0.020566583 -0.052124858 0.093373269
-0.048201442 -0.0095017254 0.089387253
-0.046350539 -0.01199466 0.089146122
-0.043040752 -0.014745295 0.088834062
-0.040178418 -0.018216848 0.088993177
-0.0015077591 -0.044190496 0.088580474
0.003153801 -0.045274317 0.089173332
0.0075273514 -0.04574883 0.090268537
-0.046756387 -0.012436748 0.085254088
-0.043881059 -0.015952349 0.084450319
-0.040251493 -0.019827306 0.084429845
-0.037851095 -0.023384869 0.084750131
-0.020620704 -0.036342889 0.083804324
-0.0066511631 -0.04503724 0.084286228
-0.0021044016 -0.045069516 0.08452411
0.0019837618 -0.045511276 0.085020468
-0.044617832 -0.0174191 0.079745159
-0.040426731 -0.021476924 0.079524949
-0.037055373 -0.024860352 0.079671428
-0.033459544 -0.028806806 0.079277709
-0.029733777 -0.031969786 0.079733446
