# .PCD v0.7 - Point Cloud Data file format
VERSION 0.7
FIELDS x y z
SIZE 4 4 4
TYPE F F F
COUNT 1 1 1
WIDTH 1315
HEIGHT 1
VIEWPOINT 0 0 0 1 0 0 0
POINTS 1315
DATA ascii
-0.008813113 -0.036622167 0.2935138
-0.0058375001 -0.033363223 0.29557312
-0.010899544 -0.041068733 0.28925553
-0.007671386 -0.038560331 0.2899704
0.047798187 0.01221323 0.28854868
0.050229251 0.016013324 0.28856471
-0.013033271 -0.045177221 0.28600404
-0.010663092 -0.042149782 0.28480646
-0.0064994693 -0.040165305 0.28523195
0.049034894 0.010426044 0.28565973
0.051249057 0.014797688 0.2853519
-0.013106704 -0.04564178 0.28198868
-0.0090274215 -0.042879283 0.28057721
-0.0049137473 -0.041841507 0.28100356
0.050655782 0.009287715 0.28168681
0.052831233 0.013201237 0.28088316
-0.0063231587 -0.044010103 0.27602106
-0.0034149289 -0.044163942 0.27725345
0.05253309 0.0089841485 0.27834055
0.053665578 0.011394083 0.27761069
-0.0041371584 -0.045919001 0.27230224
-0.0020593405 -0.046154022 0.27264804
-0.0026146173 -0.048103213 0.26734516
-0.00015509129 -0.048307776 0.26854637
-0.0011360943 -0.050082207 0.26280078
0.0016396642 -0.050297916 0.26440433
0.00071293116 -0.052289367 0.25824106
0.0028442144 -0.051401734 0.26002201
0.060361922 0.00043827295 0.25880238
0.061676651 0.0029258728 0.25858727
0.0025160611 -0.053628206 0.25437865
0.0051042438 -0.053375244 0.25499871
0.061810136 -0.0011116266 0.25506243
0.062953472 0.0014770031 0.25472173
0.0072466433 -0.053028584 0.25066015
0.010698676 -0.052932501 0.25042456
0.061897784 -0.0031632185 0.25011873
0.064244837 0.00070798397 0.24981949
0.0083733201 -0.051806867 0.24662265
0.012501895 -0.052520275 0.24585542
0.057951987 -0.011829615 0.24514815
0.059157938 -0.0075480938 0.24563739
0.061942875 -0.0024319887 0.24678853
0.014584482 -0.053010941 0.24148664
0.017661154 -0.052569985 0.24154338
0.055807054 -0.016876757 0.24035868
0.057856262 -0.011922717 0.24116805
0.014778346 -0.052799821 0.2382561
0.019312739 -0.052212119 0.23734069
0.023365617 -0.050769746 0.23714906
0.054556161 -0.02150476 0.23618302
0.056297928 -0.017616987 0.23713246
0.057810366 -0.014162183 0.23737678
0.020629197 -0.05175072 0.23296219
0.024508446 -0.05067277 0.23313895
0.029175967 -0.049002647 0.23286149
0.051870823 -0.028360248 0.23218265
0.054457426 -0.023204565 0.23280123
0.05646944 -0.019350171 0.23287871
0.025871515 -0.051096201 0.22915253
0.029838383 -0.049346209 0.22900477
0.033927143 -0.047335505 0.22839713
0.038751155 -0.043881834 0.22796494
0.043730438 -0.039904177 0.22810474
0.046261549 -0.036448479 0.22788739
0.049084842 -0.031833351 0.22891125
0.051991343 -0.02786243 0.22886571
0.054089099 -0.023835003 0.22845513
0.056585371 -0.02039957 0.2298632
0.030435085 -0.049093843 0.22465396
0.034487426 -0.046928883 0.2245214
0.038507819 -0.044725418 0.22463858
0.042356104 -0.040491819 0.22486189
0.045940816 -0.03654772 0.22423324
0.048294812 -0.032896698 0.22375908
0.051213384 -0.02895844 0.22568867
-0.014223516 -0.044228971 0.27807131
-0.011416256 -0.043413043 0.27874377
-0.013504684 -0.043967366 0.27378047
-0.0099707842 -0.043806434 0.2742725
-0.012176812 -0.045259774 0.26941136
-0.0082941949 -0.045255423 0.2699928
-0.0068927407 -0.047267437 0.26558268
-0.0058082342 -0.048905373 0.26061606
-0.0038307905 -0.050678611 0.25643176
-0.00098109245 -0.052051365 0.25184157
0.0006544292 -0.052733898 0.2480531
0.0034124851 -0.052329063 0.24774775
0.001195997 -0.05235815 0.24387893
0.00539428 -0.051626682 0.24345741
0.0088878274 -0.051369965 0.2434096
0.058832765 -0.0046737194 0.24344322
0.060460627 -0.0017280579 0.24298027
0.063256681 0.0019977689 0.24369571
0.0069774389 -0.052837372 0.23849455
0.010532588 -0.052264154 0.23947808
0.059333354 -0.0068260431 0.23969182
0.061821759 -0.0029742122 0.23859692
0.063910812 0.00095951557 0.23842624
0.0080499053 -0.052513897 0.23537451
0.012298346 -0.051966369 0.23476872
0.01587683 -0.051360846 0.23385757
0.058067262 -0.011802137 0.23527023
0.058987588 -0.0078763962 0.23458788
0.061511159 -0.0036920309 0.23563379
0.013374925 -0.051089466 0.231177
0.017881632 -0.051504612 0.23009661
0.056805819 -0.016561687 0.23158184
0.057488203 -0.01332283 0.23072442
0.019566953 -0.051336467 0.2263878
0.023927391 -0.050788462 0.22594431
0.054345369 -0.022916734 0.22560427
0.056321651 -0.019183874 0.22631261
0.057371557 -0.01480794 0.2264497
0.024928987 -0.050952315 0.22220433
0.029209495 -0.048508704 0.22110829
0.03401351 -0.045567214 0.22088653
0.037678003 -0.042410493 0.22094473
0.040944517 -0.038602173 0.22079119
0.044386208 -0.036617577 0.22104836
0.048871636 -0.031744123 0.220911
0.05107969 -0.028022349 0.22220638
0.053756654 -0.023598015 0.22201875
0.056276977 -0.019767404 0.222334
0.025024176 -0.050491989 0.21851808
0.029719263 -0.048515081 0.21737918
0.033994853 -0.04596144 0.2172358
0.038088679 -0.042462409 0.21775612
0.040846556 -0.037449658 0.2174544
0.045046151 -0.035513401 0.21766791
0.048657894 -0.032255232 0.21769515
0.051435709 -0.027747095 0.21811992
0.053113133 -0.024487853 0.21859115
0.034521282 -0.045189977 0.21433571
0.03853333 -0.0424909 0.21414924
0.046304911 -0.034772038 0.21392116
0.04815203 -0.032684088 0.2138457
-0.017547488 -0.042299509 0.27611026
-0.014897943 -0.043799698 0.27156177
-0.013035804 -0.045456767 0.2674
-0.011784434 -0.046978056 0.26313177
-0.010482103 -0.048263073 0.25896814
-0.0090762973 -0.049161434 0.25532326
-0.0073162615 -0.048946559 0.25261545
-0.0055446625 -0.049987197 0.25039914
-0.0035073161 -0.051433563 0.24492881
-0.0015678704 -0.052423 0.24057057
0.0031698346 -0.052061796 0.24173602
0.0018542409 -0.053256452 0.23684958
0.0044445097 -0.053263068 0.23731184
0.061825365 0.00066393614 0.23485604
0.063033521 0.0036085844 0.2369549
0.0065691471 -0.052067399 0.23236755
0.0096542835 -0.051404715 0.23137239
0.059097946 -0.0050618649 0.23220047
0.059951872 -0.0017567277 0.23198667
0.061771035 0.0028343797 0.23279443
0.0079748034 -0.05141443 0.22860953
0.012108147 -0.051341772 0.22826642
0.057318926 -0.010445416 0.22802523
0.058087885 -0.0070744753 0.22804484
0.013380736 -0.050617218 0.22329745
0.016689688 -0.051464081 0.22434089
0.058056474 -0.013013303 0.22441542
0.05849579 -0.0090267658 0.22344872
0.014349073 -0.050783396 0.21980551
0.01876092 -0.050487876 0.22017992
0.022366703 -0.05107069 0.21976554
0.05454421 -0.020971358 0.21978477
0.056509972 -0.018069625 0.21983936
0.057735682 -0.013809979 0.21933445
0.059717655 -0.00991714 0.21960494
0.019557178 -0.049123585 0.21551117
0.024127364 -0.050115347 0.2155146
0.028271675 -0.049380302 0.21453086
0.040260792 -0.038345635 0.21457621
0.043024957 -0.036124766 0.2141051
0.04957962 -0.029993534 0.21410903
0.051376611 -0.027601779 0.21494958
0.053533316 -0.022838891 0.21558005
0.0551745 -0.018713832 0.21472254
0.056946069 -0.0147807 0.21566567
0.024990588 -0.048729599 0.21097803
0.028879136 -0.047668219 0.21042499
0.032928675 -0.04505837 0.21068063
0.036951482 -0.04276824 0.21079308
0.040181398 -0.038493037 0.21073303
0.04430145 -0.035422564 0.21090308
0.049001813 -0.032203376 0.21095303
0.051347673 -0.028202176 0.21053568
0.053142458 -0.023674011 0.2103987
0.029095531 -0.047434032 0.2070958
0.033275336 -0.044287145 0.20659822
0.037193269 -0.041535437 0.2062763
0.040708482 -0.038441539 0.20605332
0.044630438 -0.035595715 0.20602813
0.047978997 -0.03226757 0.20619518
0.051061809 -0.028447211 0.20678294
0.052819252 -0.024614692 0.20697328
0.040085375 -0.039828598 0.20268679
0.045016438 -0.035573721 0.20276916
0.048045874 -0.032829404 0.20279086
-0.019711137 -0.040620089 0.27235192
-0.018947601 -0.041087687 0.26773033
-0.020774245 -0.043541014 0.26301911
-0.018382668 -0.042921185 0.26489627
-0.018950284 -0.046479464 0.26055816
-0.016241968 -0.045682549 0.26084846
-0.018103421 -0.047547877 0.25634411
-0.014471889 -0.047575235 0.25628194
-0.013390094 -0.047155142 0.25164655
-0.010724843 -0.047065854 0.24657902
-0.0076888204 -0.048644483 0.24737215
-0.0080672503 -0.050307751 0.24272308
-0.0064062774 -0.050200939 0.24543107
-0.0026489198 -0.051622152 0.23445168
-0.00048106909 -0.050884962 0.23023981
0.0028497577 -0.051733911 0.23068491
0.058850288 0.0019584894 0.22859886
0.060859978 0.0045083165 0.23011461
0.004697144 -0.051423728 0.22586188
0.0084140003 -0.050687492 0.22580689
0.05825156 -0.0037640333 0.22605035
0.058231056 0.00066649914 0.22516325
0.0056999922 -0.049921274 0.22128567
0.0099290907 -0.050781548 0.22205654
0.059045255 -0.0054157972 0.22207981
0.061139822 -0.00054728985 0.21850601
0.011442661 -0.050724387 0.21757457
0.015311658 -0.049809515 0.21675614
0.058493823 -0.011420012 0.21692309
0.059576035 -0.0076287389 0.21700832
0.059266031 -0.0033615828 0.21706161
0.01290831 -0.050373733 0.21196741
0.016810954 -0.049449801 0.21263781
0.020312667 -0.048507333 0.21187809
0.056058258 -0.015681744 0.21236077
0.05788219 -0.01260674 0.2129024
0.059417367 -0.0088057518 0.21240395
0.018458515 -0.049056351 0.20695102
0.022181332 -0.048263252 0.20753467
0.054053098 -0.020714223 0.20804316
0.055190563 -0.017536402 0.20851246
0.057324886 -0.012266994 0.20855334
0.023831844 -0.04906106 0.20398471
0.028419107 -0.047733963 0.20383656
0.032702565 -0.044525743 0.20323667
0.036448509 -0.041740775 0.20318937
0.040698647 -0.037899613 0.20322171
0.049022615 -0.030099213 0.20405918
0.051344961 -0.026603878 0.20348924
0.0531829 -0.022431493 0.20418304
0.028777987 -0.047596991 0.19925973
0.032596767 -0.045479298 0.19902909
0.037394524 -0.042200923 0.19956225
0.041599512 -0.038689792 0.19995981
0.044602394 -0.035215199 0.199588
0.047839671 -0.031524241 0.19973436
0.050324619 -0.02749896 0.20096356
0.03801316 -0.042895138 0.19623452
0.040322691 -0.039757133 0.19488949
0.042266756 -0.035908699 0.19555217
-0.024944633 -0.035670877 0.26920232
-0.027136773 -0.04338634 0.26525494
-0.025773525 -0.039732397 0.26584485
-0.022116005 -0.038127363 0.2683951
-0.023424089 -0.042665362 0.26311681
-0.02078104 -0.045772374 0.25853661
-0.019119203 -0.046450615 0.25296354
-0.018531084 -0.046328962 0.2492325
-0.01415801 -0.046704352 0.24838993
-0.013685495 -0.045900464 0.24526224
-0.01253891 -0.047805965 0.2409144
-0.0096575618 -0.048392534 0.23668525
-0.008571744 -0.048329711 0.23323843
-0.0071073771 -0.048244417 0.23128101
-0.0020737052 -0.050411105 0.22779477
0.059734941 0.0068899393 0.22710606
0.061138123 0.011121631 0.22611669
-0.00064972043 -0.050911307 0.22393534
0.0022929907 -0.051039755 0.223353
0.059037387 0.0020304322 0.22256026
0.059836447 0.0063516498 0.22371057
0.062455416 0.0095773935 0.22002193
0.0010556281 -0.051526248 0.21906373
0.0041680336 -0.051217437 0.2190415
0.059081763 0.0010598898 0.21872786
0.061327249 0.0049978495 0.2188631
0.06397742 0.0091001987 0.21790782
0.0054944754 -0.051243544 0.21507099
0.0096243024 -0.050692201 0.2152209
0.058968335 -0.0053123832 0.21408013
0.059203267 -0.0009726882 0.21405312
0.0073982179 -0.051956892 0.20989177
0.01123634 -0.051473379 0.21079412
0.01461181 -0.049752355 0.21050546
0.059040725 -0.0060091019 0.20978686
0.059510648 -0.0023688078 0.21106109
0.011860728 -0.05112046 0.20588946
0.016668558 -0.05013448 0.20682067
0.057203472 -0.013098001 0.20619851
0.059522212 -0.0073771477 0.20542651
0.014493585 -0.051118314 0.20154893
0.018018901 -0.050818205 0.20187515
0.0220384 -0.049632311 0.20166451
0.053160697 -0.020888925 0.2012049
0.055043548 -0.017633617 0.20234454
0.057983637 -0.013094544 0.20182407
0.059350848 -0.009367466 0.20162141
0.018978119 -0.049880743 0.19799131
0.023301005 -0.049126506 0.19727352
0.027065277 -0.047627091 0.19722307
0.047586828 -0.029424131 0.19689846
0.04930076 -0.026152611 0.19736448
0.052419305 -0.022081852 0.19794893
0.055571139 -0.017677844 0.19677868
0.058193237 -0.013851643 0.19759816
0.024413824 -0.047929704 0.19334626
0.028089315 -0.046162844 0.19254875
0.032246679 -0.043859184 0.19268388
0.036706746 -0.041835546 0.19318309
0.040718138 -0.037883639 0.19330838
0.043477356 -0.03401947 0.19347966
0.0468297 -0.030616641 0.19363162
0.049949169 -0.026186824 0.19243985
0.052493513 -0.021966875 0.19388413
0.02978611 -0.045307636 0.18824446
0.032574952 -0.043554306 0.18802032
0.036762118 -0.04098177 0.18791029
0.040225863 -0.038132906 0.18866497
0.043563962 -0.033758521 0.18941423
0.047286958 -0.03044647 0.18909192
0.050565839 -0.026343524 0.18836743
-0.029398501 -0.037680924 0.26724198
-0.029448748 -0.038842499 0.26579782
-0.025945187 -0.036684692 0.26597854
-0.023193061 -0.044231832 0.25055847
-0.025229245 -0.046354771 0.24484459
-0.022341847 -0.04416424 0.24617282
-0.018161058 -0.044993401 0.24578372
-0.02021879 -0.045640171 0.24226287
-0.017250001 -0.045995533 0.24365321
-0.019034982 -0.045768142 0.239187
-0.015546083 -0.046516538 0.23794469
-0.013853431 -0.046091557 0.23386189
-0.011913896 -0.045881808 0.22885159
-0.0080801845 -0.04747653 0.22874796
-0.0076212287 -0.047132432 0.2248821
0.061991274 0.014198542 0.22400674
-0.0053842068 -0.048285961 0.22052225
0.060560942 0.0094861388 0.22051445
0.061967015 0.012717605 0.2215198
0.063835412 0.014626503 0.22037563
-0.0030790865 -0.049288869 0.21647713
0.059712231 0.0074970126 0.21490449
0.062205315 0.011017859 0.21591577
0.063867241 0.01462096 0.21591809
-0.0016875565 -0.049423933 0.21139911
0.0023021102 -0.051209211 0.21222195
0.059017956 0.0016468167 0.21095496
0.058729887 0.0060452819 0.21123353
0.0034310222 -0.050945878 0.20768413
0.059041679 0.0011861324 0.20735639
0.059900701 0.0042309165 0.20721525
0.0054122806 -0.051215529 0.20307934
0.0094722509 -0.05128938 0.2030825
0.060510188 -0.00064706802 0.2033245
0.061500251 0.0025812387 0.20282334
0.0068618953 -0.051295102 0.19916111
0.010791123 -0.050829589 0.19923842
0.014448225 -0.05052346 0.19803023
0.05893445 -0.0056274533 0.19859397
0.060311556 -0.0018569231 0.19974059
0.012123376 -0.050935268 0.19423789
0.016523421 -0.050531983 0.19486892
0.0194965 -0.048631549 0.19443399
0.057535291 -0.011957586 0.19392538
0.058009803 -0.0072075129 0.19493443
0.013379335 -0.051753044 0.19071776
0.017017007 -0.050149381 0.18999553
0.021562576 -0.048484325 0.19038236
0.025284201 -0.046701252 0.18985575
0.052324176 -0.021003485 0.19057184
0.054157734 -0.016660988 0.19009301
0.055654168 -0.013389051 0.19072935
0.018590152 -0.049939036 0.18630356
0.022123635 -0.047833025 0.18565959
0.026933968 -0.046605468 0.1862168
0.031557202 -0.044108868 0.18579686
0.034221351 -0.04258734 0.18517447
0.040352941 -0.037028909 0.18522003
0.041837037 -0.033355474 0.18553445
0.045951128 -0.030216098 0.18570423
0.049567789 -0.026625156 0.18548685
0.052019596 -0.021572113 0.18564951
0.053676307 -0.017562211 0.18642855
0.027987838 -0.046569943 0.1815539
0.032400548 -0.045226038 0.18197772
0.0363051 -0.042246699 0.1821413
0.039929748 -0.03881681 0.18213409
0.042217374 -0.033149242 0.18129095
0.046002597 -0.02996254 0.18137744
0.048960388 -0.025925875 0.1815668
0.052134573 -0.022200167 0.18218535
0.029575109 -0.046268106 0.17815989
0.033138484 -0.045155108 0.17719463
0.036916167 -0.042299628 0.17714655
0.041125715 -0.039816618 0.17750415
0.043308675 -0.034400582 0.17689961
0.046899855 -0.030606985 0.17744187
0.04869467 -0.027412415 0.17793629
0.034766704 -0.044415474 0.17372838
0.037374437 -0.042416334 0.17383838
0.041605651 -0.039270043 0.17280868
-0.025780529 -0.042466938 0.24240467
-0.024873793 -0.046149969 0.23907974
-0.023405522 -0.04430753 0.23982403
-0.025631011 -0.044757366 0.2362017
-0.02128318 -0.044098437 0.23572564
-0.019454181 -0.044086993 0.23048851
-0.016068757 -0.045361578 0.23133525
-0.018042088 -0.045489252 0.22599199
-0.014585853 -0.045990646 0.22719643
-0.012504905 -0.046769857 0.22286025
-0.010416746 -0.047598004 0.21859327
-0.0073679686 -0.04805547 0.21842498
-0.0094593763 -0.04734236 0.21366948
-0.0059471428 -0.048521936 0.21402943
0.060032487 0.012408197 0.21226671
-0.0044097304 -0.048667431 0.20957991
0.058955669 0.009524703 0.21181378
0.060916811 0.011211753 0.2110028
-0.0016671419 -0.049190998 0.20526928
0.0012705922 -0.049805999 0.2044706
0.060155094 0.0071366429 0.20664573
-0.00052678585 -0.049604356 0.2006644
0.0016710758 -0.049799085 0.20030642
0.06207341 0.0051201582 0.20153946
0.0047934055 -0.050425828 0.19647142
0.0083721876 -0.050220013 0.19668883
0.06015867 -1.0728836e-05 0.19632381
0.062180221 0.0034067035 0.19647008
0.0069122314 -0.051055312 0.19187734
0.0092608333 -0.051063895 0.19365937
0.05644992 -0.0083913803 0.19060785
0.057794809 -0.005377233 0.19259882
0.058765888 -0.0014784932 0.19209203
0.0082992017 -0.051713705 0.18761307
0.011643291 -0.051861048 0.18794441
0.05577752 -0.0099101663 0.18824399
0.056430936 -0.0060896873 0.18750393
0.013118356 -0.05135709 0.18400225
0.017022192 -0.04978025 0.18325093
0.020255923 -0.047882855 0.18247074
0.054466128 -0.015282512 0.18435389
0.055550963 -0.012460709 0.1836412
0.017896861 -0.048366249 0.17947549
0.022644401 -0.047004819 0.17944759
0.025518179 -0.046265185 0.17896116
0.049615026 -0.024504483 0.17916408
0.052642465 -0.021132708 0.17932272
0.054926038 -0.017607033 0.17956305
0.055465221 -0.013610005 0.17872655
0.023828089 -0.047022581 0.17473251
0.02807495 -0.046429753 0.17475238
0.031662762 -0.044686675 0.17365342
0.044869661 -0.033053279 0.17498988
0.047029316 -0.030299127 0.1748113
0.050242543 -0.025946498 0.17511049
0.053328604 -0.022192895 0.17513582
0.054802597 -0.018783927 0.17377561
0.02915746 -0.046276152 0.17000183
0.033085465 -0.044194877 0.1698218
0.037396818 -0.041857123 0.17046425
0.040721536 -0.039414167 0.17041624
0.044261187 -0.034364581 0.17084947
0.047439098 -0.030826509 0.1710569
0.049289823 -0.026806474 0.17014408
0.052894741 -0.021805823 0.17061049
0.037092268 -0.041985154 0.1664876
0.041129589 -0.039078951 0.16717446
0.042731553 -0.036996782 0.16507238
-0.025175154 -0.043094873 0.2329106
-0.02365005 -0.043759108 0.22883812
-0.021064699 -0.045393646 0.22458178
-0.019147724 -0.044099569 0.22719881
-0.019229323 -0.045940161 0.21997175
-0.01689586 -0.045771539 0.22121757
-0.015343904 -0.045978785 0.2162466
-0.012582898 -0.045361221 0.21011081
-0.0092163086 -0.047357798 0.2111831
-0.0087420046 -0.046801865 0.20734125
-0.0053341389 -0.04779464 0.20355237
-0.004154712 -0.048542678 0.19883323
-0.00032883883 -0.049539208 0.19813377
-0.0019059181 -0.049565315 0.19352853
0.00087714195 -0.049619436 0.19464093
0.062332392 0.0065934658 0.19359303
0.0027111769 -0.050238431 0.19015115
0.056888103 -0.0025060177 0.18935347
0.058596998 0.0022344589 0.18966544
0.06118843 0.004242003 0.19130927
0.0042085648 -0.051047325 0.18551725
0.0083726645 -0.05144465 0.18498832
0.056911707 -0.0038239956 0.18564886
0.057404995 0.00075566769 0.18526691
0.0063483715 -0.050880134 0.18095499
0.0095526576 -0.050635338 0.18103266
0.013719499 -0.049776971 0.1806041
0.055370152 -0.0085211992 0.18137947
0.056455493 -0.0051266551 0.18159544
0.01165849 -0.050637066 0.17688459
0.015550882 -0.049374461 0.17724362
0.019230813 -0.046973109 0.17684785
0.055793643 -0.010117114 0.17709643
0.05692625 -0.0062102675 0.17727989
0.01307103 -0.050625503 0.17285848
0.016410321 -0.049198031 0.17262247
0.020852447 -0.047626019 0.17282394
0.024239689 -0.046164513 0.17172605
0.054934323 -0.015341699 0.17252758
0.055876672 -0.011703014 0.17263591
0.018942744 -0.049595356 0.16786075
0.021948516 -0.048150003 0.16820365
0.026221633 -0.046565771 0.16822803
0.04918009 -0.025351405 0.1675809
0.051857263 -0.021626413 0.16808531
0.054327071 -0.016917467 0.168569
0.055875063 -0.012158632 0.16891158
0.023298144 -0.04905808 0.16400829
0.027731359 -0.04714942 0.16407827
0.031792402 -0.04430896 0.16432452
0.035549045 -0.041538 0.16320562
0.039920151 -0.037646353 0.16325828
0.042691678 -0.032771468 0.16373992
0.045675635 -0.029108524 0.16377026
0.04911232 -0.025226951 0.16360357
0.051285833 -0.02116245 0.16484135
0.025699019 -0.049537957 0.16070098
0.028803885 -0.047617137 0.15941995
0.032723159 -0.044888556 0.15944484
0.03684622 -0.042152524 0.15973711
0.040534079 -0.0387128 0.15974164
0.043570101 -0.034179151 0.15930617
0.047093749 -0.030450821 0.15919727
0.049862027 -0.027446151 0.15944299
0.030461967 -0.046901882 0.15590313
0.033783674 -0.045123577 0.15581238
0.037784487 -0.042371035 0.15497333
0.041422367 -0.039188981 0.15481377
0.043893635 -0.036906242 0.15482304
-0.027255833 -0.043903768 0.22400436
-0.024882555 -0.044069111 0.22193348
-0.022751927 -0.044464946 0.21859881
-0.020506889 -0.043879151 0.21303758
-0.016384423 -0.043203056 0.21233076
-0.015775919 -0.044015527 0.20920631
-0.01459077 -0.04436326 0.2045967
-0.010136753 -0.045078695 0.20371246
-0.011954337 -0.04491663 0.19987988
-0.0095629096 -0.04546237 0.20048374
-0.0075620115 -0.046919525 0.19562909
-0.0061162114 -0.047417045 0.19164503
-0.0028167367 -0.048866689 0.18714303
0.058834285 0.006644845 0.18652213
-0.0017316341 -0.049071491 0.18265596
0.0015162826 -0.049991727 0.18228036
0.057631075 0.0028837323 0.18274426
0.058320343 0.0070578456 0.18270212
-0.00072792172 -0.049272597 0.17900783
0.0033063889 -0.049879074 0.1780566
0.0079037547 -0.049710095 0.17755491
0.056548059 -0.0025791526 0.17806432
0.05827564 0.00086259842 0.17850018
0.06055969 0.0049657822 0.1776861
0.0043700933 -0.0499053 0.17331696
0.0087797344 -0.049706399 0.17383426
0.056383967 -0.0040245056 0.17352027
0.059471965 -3.9994717e-05 0.17375484
0.062123358 0.0027968884 0.17483464
0.0096119642 -0.049504638 0.16916776
0.014738202 -0.048546016 0.16895127
0.056184769 -0.0095653534 0.16921532
0.05611524 -0.0055447817 0.16951981
0.060366213 -0.00060427189 0.16972357
0.010929674 -0.04940176 0.1654993
0.01519537 -0.048563123 0.16458192
0.053404301 -0.015871882 0.16444626
0.055452973 -0.011201859 0.16557181
0.056614667 -0.0063605309 0.1658898
0.062776864 -0.00050854683 0.1658715
0.0186719 -0.049605966 0.1607877
0.022183686 -0.048784018 0.16054004
0.05029428 -0.023251832 0.1598736
0.051259398 -0.020363092 0.16112351
0.053481996 -0.015962541 0.16053164
0.054375857 -0.011255026 0.16131037
0.019031048 -0.049610138 0.1573495
0.02250725 -0.048134863 0.15588307
0.027386487 -0.047294021 0.15583995
0.043749571 -0.032183528 0.15531307
0.050475061 -0.025914907 0.15620428
0.052045882 -0.022240281 0.15651333
0.054210752 -0.01707834 0.15595269
0.023082137 -0.047357857 0.15244225
0.026922941 -0.046313703 0.15151784
0.031897962 -0.043836534 0.15156463
0.036900997 -0.04151082 0.15121877
0.03973484 -0.038925827 0.15079585
0.044098705 -0.032970428 0.15251303
0.046599448 -0.030417442 0.15281904
0.049691021 -0.026995659 0.15223098
0.052234054 -0.022320271 0.15233696
0.027266085 -0.046859264 0.14801997
0.032001883 -0.044113696 0.14687186
0.036447316 -0.041992307 0.14702106
0.040293515 -0.03843689 0.14790159
0.043278098 -0.034980059 0.14767152
0.04655695 -0.02974999 0.14783677
0.049054444 -0.026738524 0.14810261
0.033928931 -0.044041634 0.14359924
0.036910295 -0.041667342 0.14326757
0.040460438 -0.038631141 0.14290097
0.043224692 -0.035346329 0.14360479
-0.02490747 -0.043298781 0.21583477
-0.023124427 -0.042968154 0.21055511
-0.020914733 -0.044145286 0.20694438
-0.019649863 -0.043593884 0.20579165
-0.020553589 -0.045930982 0.20215172
-0.017200112 -0.044555783 0.2016117
-0.019393206 -0.047534704 0.19979781
-0.01598233 -0.043641925 0.19775021
-0.011767894 -0.044731259 0.19643307
-0.011620224 -0.044487 0.19295043
-0.0097986758 -0.045558453 0.18894824
-0.0075423121 -0.046851993 0.18496877
-0.0047789812 -0.047739923 0.17984664
0.058764756 0.0089204311 0.18193069
-0.003033042 -0.049117208 0.17495933
-0.00029367208 -0.049556434 0.17655307
0.060493469 0.0085555315 0.17803991
-0.0012019873 -0.050366104 0.170405
0.00018519163 -0.049661517 0.17230734
0.0032445788 -0.050488055 0.16793746
0.0072677135 -0.050239682 0.16705108
0.056785405 -0.0024181008 0.16846657
0.059464723 -3.7550926e-05 0.16674101
0.0050085187 -0.050619483 0.16344476
0.0085114837 -0.049496651 0.16304559
0.054318875 -0.0081967711 0.16228738
0.055846184 -0.0043715239 0.16256499
0.058887839 -5.8531761e-05 0.16396621
0.062129736 0.001323998 0.16261572
0.0097754002 -0.049358964 0.15881622
0.013929904 -0.048411846 0.15934664
0.054781497 -0.0094759464 0.15883422
0.062865674 0.00062906742 0.16031471
0.015550137 -0.048560381 0.15446168
0.055290401 -0.014432073 0.1543895
0.055731922 -0.0103724 0.15432888
0.017545581 -0.049025714 0.15009168
0.021603525 -0.048211277 0.15030235
0.052361935 -0.020536959 0.14950088
0.054445684 -0.016316712 0.15048826
0.056595504 -0.012379229 0.14972755
0.019229054 -0.049650908 0.14585805
0.02256754 -0.048511863 0.14549905
0.027312219 -0.046485901 0.1452575
0.043273032 -0.030911565 0.1442011
0.045727938 -0.029330194 0.14510918
0.049370199 -0.024691045 0.14534041
0.051951885 -0.021457195 0.14563197
0.05425185 -0.017600775 0.14539889
0.05665189 -0.013787866 0.14594933
0.023947299 -0.049463749 0.14096129
0.027972877 -0.046790481 0.14103836
0.03222537 -0.044499338 0.14127713
0.036190808 -0.041490853 0.1406211
0.040679395 -0.03849113 0.14023775
0.043547392 -0.033863604 0.14119795
0.045889318 -0.029129446 0.14131427
0.049259305 -0.025905609 0.14104027
0.051927537 -0.022187769 0.14164889
0.025863469 -0.049128652 0.13754714
0.029591233 -0.047519565 0.1368697
0.033414543 -0.045127273 0.13660112
0.037139654 -0.041627884 0.13660002
0.040868938 -0.038134933 0.13660058
0.043953001 -0.035185456 0.13658446
0.044415653 -0.031429052 0.13746276
0.034966588 -0.043830156 0.13304535
0.037608624 -0.04174614 0.13315573
0.041389108 -0.038324714 0.13319021
0.044901073 -0.035905838 0.13253394
-0.021283984 -0.042773306 0.19404513
-0.018211722 -0.042871416 0.19556779
-0.022896111 -0.045970619 0.19093195
-0.016665518 -0.04302901 0.19122744
-0.014849842 -0.043435812 0.18593979
-0.010720789 -0.044884384 0.18627763
-0.012924761 -0.044181585 0.18214393
-0.0098352134 -0.045607209 0.18226624
-0.0086304545 -0.045990169 0.17779976
-0.0068508983 -0.04752171 0.17372072
-0.0053505599 -0.048475206 0.16935089
-0.0026823282 -0.049597442 0.16457742
0.0014832616 -0.050375402 0.16397232
-0.0013854206 -0.049449563 0.15995985
0.0026804805 -0.04956758 0.15991509
0.055758059 -0.0014615655 0.15974504
0.058301538 0.0018549562 0.15980488
0.0044319928 -0.049680829 0.15587068
0.0083099306 -0.049080014 0.15520924
0.055604577 -0.0035177469 0.15633929
0.056849569 0.0019053221 0.15588516
0.0062865019 -0.049491227 0.15065739
0.0096770525 -0.048250377 0.15151983
0.013395399 -0.048043311 0.15202063
0.056096554 -0.004783392 0.151627
0.010259271 -0.048758864 0.1471422
0.013995588 -0.048199654 0.14714342
0.057699621 -0.01055783 0.14773405
0.057628214 -0.0070312023 0.14677799
0.016602874 -0.048328519 0.14259931
0.055594832 -0.015744209 0.14322448
0.057214022 -0.012061 0.14353591
0.057216644 -0.0084625483 0.1416679
0.018000007 -0.048313022 0.13889956
0.020692229 -0.04849416 0.13723576
0.045614541 -0.028903902 0.13887489
0.049976349 -0.024823725 0.13887748
0.052489638 -0.022015035 0.13947222
0.0548518 -0.017165661 0.13917348
0.056035936 -0.012344003 0.13881585
0.023459673 -0.048325241 0.13579881
0.02626279 -0.04660058 0.13364258
0.044992864 -0.028684914 0.13459563
0.048553526 -0.025407076 0.13528991
0.051915228 -0.02166158 0.13598394
0.028284788 -0.046007454 0.13008395
0.031864166 -0.044149995 0.1296826
0.036117256 -0.041353047 0.12975755
0.039500564 -0.037924349 0.12986571
0.043246865 -0.035143435 0.12962061
0.04471305 -0.030512869 0.13005963
0.033619583 -0.043887079 0.12727392
0.036070943 -0.041303515 0.12628275
0.039657831 -0.037512004 0.12616026
0.043753922 -0.03402698 0.12587181
-0.023494184 -0.042560756 0.19354632
-0.022339165 -0.04317975 0.18845734
-0.018831104 -0.042459309 0.18750256
-0.019520879 -0.042254686 0.18415082
-0.01640439 -0.043114901 0.17973608
-0.013247907 -0.044142604 0.17552346
-0.0109936 -0.045629919 0.17233923
-0.01068002 -0.04574126 0.169779
-0.0087388158 -0.047262132 0.16615245
-0.0070820749 -0.048640966 0.16224721
-0.0044885576 -0.048956573 0.15776196
-0.0020498633 -0.049248099 0.15439072
0.00055450201 -0.049140751 0.15364867
0.056741029 0.0030307174 0.15408087
0.058659375 0.0057349205 0.15444303
0.0022804141 -0.049228191 0.14983249
0.055988103 -0.0017150044 0.14945501
0.056613505 0.0032132864 0.14973053
0.059403896 0.0054672956 0.15021101
0.0052140355 -0.050588012 0.14551818
0.0093889236 -0.049385726 0.14466566
0.057301283 -0.0030250549 0.14563185
0.056947768 0.0010539889 0.14446133
0.0055114627 -0.051388979 0.14016664
0.009427309 -0.049621105 0.14068082
0.013584316 -0.048957944 0.14110488
0.056299031 -0.0098217726 0.1400001
0.057287365 -0.0041281581 0.14025539
0.0067741871 -0.051242828 0.13682425
0.010843992 -0.050044954 0.13633066
0.015127361 -0.048609734 0.13620818
0.019238234 -0.048115373 0.13555127
0.055905104 -0.010435402 0.13584727
0.057472229 -0.0057845712 0.13630307
0.016217321 -0.048257649 0.13143417
0.020819098 -0.047240496 0.13186795
0.024773091 -0.046519995 0.13111699
0.044971585 -0.027041316 0.13156974
0.048389524 -0.024045229 0.1316281
0.05063656 -0.019708097 0.1316067
0.053184986 -0.015397906 0.13144857
0.055138707 -0.011032104 0.13187951
0.01788494 -0.048006773 0.12789723
0.022015095 -0.047892749 0.12713635
0.026832461 -0.047175407 0.12748805
0.045558661 -0.028292358 0.12783822
0.048069596 -0.024948776 0.12729588
0.050463915 -0.020059228 0.12680593
0.052780986 -0.016495585 0.1276288
0.023237824 -0.048079908 0.122297
0.027759701 -0.046600997 0.12283114
0.031961501 -0.043775201 0.12315203
0.036346674 -0.041103363 0.12265594
0.040060937 -0.03767401 0.12358389
0.043940842 -0.034181535 0.12271307
0.046165556 -0.029885828 0.12298746
0.048228443 -0.025107563 0.12216655
0.050635576 -0.021077156 0.1225724
0.028478682 -0.046381116 0.11856822
0.032549858 -0.043411136 0.11823875
0.036544859 -0.040609837 0.1179908
0.040377349 -0.03735131 0.11900309
0.043655664 -0.034188151 0.11874849
0.046309769 -0.030760825 0.1180932
0.047670454 -0.02674365 0.11882258
0.03679949 -0.041825175 0.11382482
0.039685041 -0.038447797 0.11362536
0.042598903 -0.035713971 0.11393166
-0.024026752 -0.041450918 0.18235716
-0.020764709 -0.041981936 0.18170834
-0.022849679 -0.041307569 0.17578572
-0.020028353 -0.041798115 0.17784739
-0.018918484 -0.042039931 0.17326513
-0.015227646 -0.042202592 0.16878664
-0.014451057 -0.042761803 0.16463244
-0.012711763 -0.044500649 0.15918666
-0.0078325868 -0.047939122 0.1558128
-0.0049842596 -0.047566473 0.1505543
-0.0033401847 -0.047871888 0.14652073
8.5651875e-05 -0.049095571 0.14723361
0.056755781 0.0040017366 0.14724457
0.05842334 0.005741477 0.14659613
-0.0017409027 -0.048688293 0.14124042
0.0010892749 -0.049975872 0.1431976
0.057486236 0.0037563443 0.14297047
0.058710814 0.0052242279 0.14198053
0.0018647909 -0.050261497 0.13711971
0.058042645 0.0023106337 0.13805512
0.059052557 0.0054783225 0.13836592
0.0045312047 -0.05012548 0.13381681
0.0085619092 -0.049397349 0.13374665
0.057255298 -0.0036414862 0.13402173
0.057765692 -0.00016373396 0.13410786
0.010368526 -0.047904849 0.12954351
0.013274312 -0.047547877 0.12929165
0.055594683 -0.0089735985 0.13005793
0.056075215 -0.0050712228 0.12954825
0.011914492 -0.048171818 0.12636334
0.015282929 -0.04784447 0.12512791
0.053402126 -0.014962196 0.12568438
0.053940475 -0.010903955 0.1251314
0.017417312 -0.047863305 0.12131874
0.020260096 -0.048286498 0.1200645
0.051713407 -0.019568682 0.12077753
0.052757561 -0.014853954 0.12080211
0.021815032 -0.047311008 0.11669735
0.026392579 -0.045971274 0.11554525
0.031482518 -0.043346643 0.11556292
0.046588033 -0.029152691 0.11555306
0.048415393 -0.024305463 0.11647303
0.050576717 -0.020295203 0.11562745
0.051914752 -0.017068446 0.11623827
0.026933253 -0.045690298 0.11191673
0.03091538 -0.043410838 0.11173213
0.03543818 -0.042221487 0.11190296
0.04005295 -0.038548172 0.11099062
0.043352425 -0.033334434 0.11158813
0.045574397 -0.028827071 0.111713
0.047517926 -0.025182903 0.11186583
0.031844765 -0.042665303 0.1080649
0.036088556 -0.04057014 0.1081673
0.039482623 -0.037378073 0.10700376
0.043201029 -0.033697844 0.10694516
0.045691133 -0.029500604 0.10800917
-0.026641428 -0.040365577 0.17889029
-0.026259363 -0.040911734 0.17494676
-0.023454428 -0.041023195 0.17058933
-0.019545734 -0.040672719 0.16923475
-0.021980226 -0.041234612 0.16523433
-0.018861175 -0.041215301 0.16593778
-0.017229497 -0.041936696 0.16139776
-0.014389396 -0.043447256 0.15762913
-0.012413263 -0.044235885 0.15378362
-0.011732817 -0.044765949 0.15046248
-0.010053635 -0.045121551 0.14878225
-0.0076794028 -0.046224833 0.14456725
-0.0053301454 -0.04641521 0.13973284
-0.0020672083 -0.048742592 0.13607201
0.058679312 0.0068215728 0.13516951
0.00085437298 -0.048933566 0.13040334
0.0061582029 -0.047977924 0.13029546
0.05592972 -0.00062263012 0.13010353
0.057244122 0.0034222603 0.13161409
0.058524787 0.0062332749 0.13163015
0.0034091473 -0.049404085 0.1270895
0.007288754 -0.04880631 0.12678713
0.055607498 -0.0025550127 0.12642908
0.055970132 0.0013188124 0.12589628
0.005220294 -0.049918115 0.12139539
0.0088185072 -0.048888206 0.12243194
0.012519479 -0.04855603 0.12296037
0.053881645 -0.0067816973 0.12284008
0.054642081 -0.0032387376 0.12175832
0.0061306357 -0.05077523 0.11818672
0.010007143 -0.049301267 0.11722333
0.013753176 -0.047842443 0.11870823
0.053195417 -0.013098478 0.11820192
0.053855747 -0.0093237162 0.11820904
0.012045324 -0.049463272 0.1129253
0.015399188 -0.048045218 0.11412735
0.019691288 -0.047585845 0.11417199
0.052693039 -0.013793707 0.11430261
0.054364622 -0.01006186 0.11393274
0.013917089 -0.051517785 0.10847098
0.016634583 -0.049545944 0.10957379
0.021546781 -0.047701597 0.11039463
0.025575936 -0.046425343 0.10990459
0.047968388 -0.024275064 0.11005259
0.050531626 -0.020077229 0.1102599
0.052949369 -0.014552653 0.1095231
0.018306345 -0.050139189 0.10537473
0.022185683 -0.047824323 0.10502724
0.026639163 -0.045272827 0.1055171
0.030706137 -0.04249692 0.10529912
0.035242677 -0.040210068 0.10531086
0.041023314 -0.035853505 0.1048894
0.044823349 -0.032298923 0.10489167
0.046130776 -0.02969873 0.10540424
0.047237873 -0.023858488 0.10511435
0.050705254 -0.020125747 0.10585556
0.052908987 -0.016627371 0.10617135
0.023289859 -0.047374606 0.10146717
0.026691258 -0.044743776 0.10163758
0.031504869 -0.042095065 0.10056991
0.035644829 -0.039424598 0.10070712
0.039686501 -0.037226915 0.10146195
0.042943358 -0.03395772 0.10112847
0.04587853 -0.030027807 0.10076762
0.046830773 -0.025311708 0.10146827
0.032078207 -0.042746842 0.096952863
0.035865039 -0.039119959 0.096928813
0.038874447 -0.03750211 0.097302265
0.042329013 -0.033327103 0.097011454
0.045020193 -0.031190038 0.097131111
-0.027329624 -0.03942287 0.16853809
-0.025601387 -0.040708959 0.16376832
-0.023999155 -0.040794969 0.16015613
-0.021268129 -0.040778399 0.15942568
-0.01873523 -0.041043758 0.15510297
-0.016753882 -0.04222697 0.15042299
-0.014947265 -0.043464899 0.14616677
-0.013912112 -0.043569386 0.14141721
-0.011200726 -0.044363141 0.14138106
-0.0093130767 -0.044740081 0.13697684
-0.0064754188 -0.046050549 0.13201064
-0.0040613413 -0.046824872 0.12915838
0.056332946 0.0056207776 0.12847418
0.058098078 0.0097874403 0.12925011
-0.0031496882 -0.04743886 0.12402243
0.00073692203 -0.048946857 0.12423898
0.05627957 0.00527668 0.12449551
0.056665331 0.0091943741 0.12479369
-0.0022004247 -0.048356414 0.12082354
0.0015650988 -0.049080372 0.12017772
0.055098355 -0.0013523102 0.11964548
0.055944055 0.0028069019 0.12028999
0.0040589869 -0.049987197 0.11554102
0.0075831711 -0.049459875 0.11541671
0.055172592 -0.0028125048 0.11575554
0.056214362 0.0020846128 0.11555109
0.0067077279 -0.050602615 0.11085618
0.0094590783 -0.050084591 0.11146382
0.054524779 -0.0082193613 0.1103344
0.055197954 -0.0050737858 0.11083407
0.0077818632 -0.051573336 0.10676987
0.011065453 -0.051135421 0.10715605
0.054603219 -0.013150334 0.10747052
0.055296063 -0.00919801 0.10648034
0.013274342 -0.050364971 0.10251666
0.016339451 -0.04991895 0.10250396
0.048378348 -0.021591306 0.10264907
0.050605595 -0.018778622 0.10305244
0.052333891 -0.014448643 0.10254133
0.054032773 -0.011530161 0.10401601
0.017858446 -0.049265981 0.098921515
0.021599054 -0.047763765 0.098686762
0.026086271 -0.044933438 0.098708637
0.02890107 -0.042815089 0.097930558
0.046420366 -0.02723074 0.098189183
0.046790063 -0.022765815 0.098422118
0.049511254 -0.019377768 0.098541118
0.051561892 -0.016302288 0.099129029
0.022119641 -0.047213376 0.094812758
0.025504231 -0.044941664 0.094373502
0.02981925 -0.042036653 0.094190128
0.034071684 -0.039502263 0.094406404
0.038602948 -0.036541522 0.094102629
0.042081177 -0.032380521 0.093821116
0.045659959 -0.028558433 0.094617166
0.0465644 -0.025045216 0.093787082
0.048746228 -0.020688653 0.094955631
0.031304538 -0.041513205 0.090053208
0.034972906 -0.039614201 0.089277007
0.038795739 -0.036459088 0.089648612
0.042022288 -0.032624066 0.089786895
0.044981122 -0.029143155 0.089689799
0.047072172 -0.026665092 0.089715697
0.037004262 -0.038979411 0.08588881
0.038202822 -0.037648082 0.085822262
-0.031058162 -0.037592888 0.16501081
-0.030197144 -0.038288593 0.16084111
-0.030950069 -0.039825022 0.15740603
-0.025387347 -0.040242672 0.15661514
-0.024281383 -0.040205479 0.152219
-0.022012472 -0.039687157 0.15277565
-0.023095489 -0.041375995 0.14624465
-0.020954102 -0.040581882 0.14808303
-0.018376589 -0.042230964 0.14455485
-0.015651852 -0.043152571 0.13950029
-0.013996959 -0.044162214 0.13511842
-0.012586772 -0.045262456 0.13060004
-0.0095154643 -0.045411706 0.13105679
-0.011576355 -0.044987559 0.12670559
-0.0076900721 -0.045576692 0.12639228
0.057185113 0.014886916 0.12519342
-0.0056126714 -0.046630502 0.12128861
0.057142556 0.011646807 0.12218735
0.057991087 0.015581429 0.12118105
-0.0029908121 -0.048360467 0.11782233
0.056411088 0.0045896769 0.1176763
0.056664526 0.0089855194 0.11834765
-0.0017952919 -0.048801482 0.11407215
0.00094968081 -0.048819363 0.11342166
0.056921721 0.0037696362 0.11385689
0.058818877 0.0077849627 0.11314008
0.002497375 -0.048679948 0.10950128
0.055747271 -0.0012594461 0.11023686
0.057857573 0.0017045736 0.10930572
0.060453355 0.0054402351 0.1094575
0.0054267049 -0.049445927 0.10453964
0.055642545 -0.0032869577 0.10518438
0.05862391 0.00094157457 0.10491661
0.060818642 0.0034222603 0.10519437
0.009280473 -0.049775004 0.10007478
0.052738607 -0.011884809 0.099999197
0.053638279 -0.0084816217 0.10016266
0.011394918 -0.049884558 0.095519699
0.014711559 -0.049622774 0.095546789
0.051799983 -0.013973951 0.095273204
0.052996159 -0.0097864866 0.095652796
0.016703248 -0.048913956 0.091313787
0.020426005 -0.047467947 0.092506714
0.025479794 -0.044508934 0.091802277
0.028057277 -0.042140007 0.091817059
0.047085583 -0.022134006 0.092651315
0.050271064 -0.018631935 0.092236467
0.051738739 -0.015011907 0.091219999
0.018005252 -0.048254848 0.086977072
0.021739334 -0.046794415 0.087894298
0.025832415 -0.044455528 0.08809603
0.029853642 -0.042117178 0.087917455
0.040127397 -0.03454566 0.087306567
0.042688012 -0.032150567 0.087308116
0.045152694 -0.029592812 0.08722923
0.047725707 -0.023177683 0.087585993
0.050209999 -0.019448638 0.087730654
0.022551835 -0.046743155 0.084038772
0.026509404 -0.04469496 0.083207108
0.030963153 -0.041593432 0.083244778
0.035318792 -0.039550304 0.083423801
0.039014399 -0.035883427 0.083596326
0.042175621 -0.033461332 0.083532549
0.045805514 -0.02996397 0.083740301
0.04832691 -0.025350809 0.083654352
0.03456977 -0.038940549 0.079420455
0.037896544 -0.036114693 0.079515316
0.042389393 -0.032755911 0.079026319
0.046212077 -0.029729545 0.07901606
0.048750579 -0.027271152 0.078990251
-0.033606648 -0.036351204 0.15867734
-0.029453069 -0.038707137 0.15565288
-0.028191835 -0.038337469 0.15036762
-0.025651753 -0.03985846 0.14630973
-0.024027944 -0.040249884 0.14081711
-0.020970464 -0.040709615 0.14107323
-0.021019518 -0.042195678 0.13745266
-0.019655228 -0.042012572 0.13681757
-0.018538952 -0.043337762 0.13338172
-0.019630641 -0.044618011 0.12917924
-0.016254902 -0.045224905 0.12866086
-0.015538812 -0.044536769 0.12508816
-0.011410832 -0.043798804 0.12331653
-0.0099492073 -0.044873655 0.11964465
0.058282793 0.016542196 0.1197421
-0.0081200004 -0.04612875 0.11533878
0.056910336 0.011206269 0.11403913
0.057222039 0.014531732 0.11550922
-0.0051512122 -0.047129571 0.11070339
-0.0039911866 -0.046927989 0.10587356
-0.0012146235 -0.047287464 0.10655845
0.0016067326 -0.046819746 0.10267759
0.055179447 0.00016248226 0.10175929
0.057336718 0.0015641451 0.101946
0.0026436448 -0.046149075 0.098030992
0.0064238906 -0.048316002 0.096922733
0.053227156 -0.0055951476 0.097274639
0.053670645 -0.0019872785 0.098574705
0.056233615 0.0024442077 0.098528214
0.058440328 0.0053265095 0.099230506
0.0078225136 -0.048588634 0.09323255
0.053158194 -0.0065619349 0.092996992
0.054028153 -0.0026711226 0.092807181
0.010428131 -0.049536645 0.089192696
0.013858259 -0.048654675 0.08873371
0.052193165 -0.012910724 0.089269675
0.053490371 -0.0092123747 0.088966079
0.012032568 -0.04847914 0.084317304
0.015947223 -0.048345566 0.084245391
0.019377172 -0.046891928 0.085044779
0.050302863 -0.018005311 0.085077174
0.052702278 -0.014295518 0.084611304
0.053648889 -0.009994328 0.083525069
0.017673135 -0.048569202 0.079709418
0.021538734 -0.046317101 0.080728002
0.026425004 -0.044162154 0.08055339
0.028975368 -0.041713655 0.080534585
0.049020171 -0.022751033 0.081115842
0.050628364 -0.019500434 0.081829518
0.052499473 -0.015504777 0.081108481
0.019074917 -0.048471093 0.077799119
0.021198928 -0.046805918 0.076942451
0.025442243 -0.044202089 0.07674817
0.028859556 -0.040928006 0.076644547
0.033256114 -0.038494825 0.076406635
0.0376091 -0.035123408 0.076227643
0.041713625 -0.032652974 0.076198168
0.045981646 -0.028782248 0.075760454
0.048563689 -0.024106622 0.07646215
0.050258875 -0.020678759 0.076983005
0.037932247 -0.033591628 0.071777262
0.041309059 -0.031570971 0.07202632
0.044585168 -0.028537154 0.072167486
0.046020269 -0.025070667 0.072625875
-0.033931792 -0.035029948 0.15094119
-0.031734824 -0.03610146 0.14712054
-0.028915763 -0.038170576 0.14463073
-0.028200537 -0.038538873 0.1393486
-0.026227951 -0.040717304 0.13483763
-0.024096161 -0.043122709 0.13043338
-0.022031933 -0.044914722 0.12584686
-0.01787293 -0.041609466 0.12132988
-0.014869153 -0.042299747 0.11761478
-0.013541281 -0.043532968 0.1126665
-0.010021687 -0.045473814 0.11323021
-0.012191296 -0.044917881 0.10870523
-0.0087698698 -0.045872808 0.10849876
-0.0071558356 -0.046098948 0.1035331
-0.0047698617 -0.046195984 0.099178679
-0.0015172958 -0.045805335 0.099597104
-0.0032545328 -0.046638429 0.09554819
0.00023621321 -0.04630965 0.095353015
0.05362761 0.00071394444 0.095460989
0.056015283 0.003498435 0.095294006
0.05782485 0.0071219206 0.095656492
0.0026889443 -0.046880424 0.091598339
0.054102004 0.00072574615 0.09177918
0.056399852 0.0036859512 0.091529198
0.058199912 0.0073387623 0.091880329
0.0037716031 -0.048094094 0.086929359
0.0064682364 -0.04836303 0.085506566
0.054228038 -0.002237618 0.087235399
0.055601299 0.002448976 0.087851711
0.0088016987 -0.048188746 0.082303204
0.053656131 -0.0065005422 0.082413673
0.054034889 -0.0027563572 0.082620323
0.0099683106 -0.047680378 0.077671446
0.013473719 -0.048115551 0.077906676
0.052426845 -0.013379693 0.077518225
0.053910613 -0.0086190701 0.077392042
0.01578185 -0.04834348 0.073168345
0.020127356 -0.047032237 0.073314734
0.02387622 -0.044074059 0.073980577
0.028430313 -0.039876878 0.074003883
0.047018886 -0.019918561 0.071236044
0.049679875 -0.017229438 0.07271862
0.051933318 -0.013439596 0.073524773
0.053856313 -0.010476172 0.073468
0.017460763 -0.047876239 0.06840945
0.020785511 -0.0462901 0.069643803
0.025004506 -0.043614209 0.070309885
0.028814435 -0.039850354 0.070246585
0.033011675 -0.036716819 0.070512004
0.036970496 -0.034703076 0.070107229
0.041745245 -0.030695558 0.069294997
0.044281542 -0.028184295 0.069250286
0.046748608 -0.023805022 0.070111752
0.048336625 -0.018879056 0.068584114
0.021603912 -0.045790792 0.066092141
0.025432408 -0.042891264 0.065543957
0.028952241 -0.040755749 0.064766236
0.032296926 -0.037876546 0.064852186
0.036643982 -0.03497541 0.065245695
0.041194618 -0.032433212 0.065825023
0.044999361 -0.028657019 0.065754443
0.047372282 -0.024142683 0.064984173
0.031031191 -0.041478038 0.059819199
0.033300757 -0.03867501 0.060565837
0.036673725 -0.035334885 0.060830303
0.041546822 -0.032123685 0.060965396
0.045533121 -0.028629541 0.061047971
0.047382534 -0.025113344 0.061418265
0.035384953 -0.03956604 0.056649335
0.037263334 -0.03762269 0.056586333
-0.033316106 -0.035154581 0.14465249
-0.032202005 -0.036314845 0.14150864
-0.030876905 -0.037668407 0.13753515
-0.025482416 -0.043544888 0.12458298
-0.02271089 -0.04078871 0.11983622
-0.020274073 -0.039909184 0.11802913
-0.018212318 -0.041011393 0.11400232
-0.016422689 -0.043239295 0.10991121
-0.014764547 -0.04410404 0.10643727
-0.012591064 -0.045056641 0.10198555
-0.0090934038 -0.045292795 0.097306915
-0.0065624118 -0.045931578 0.092856742
-0.0032494664 -0.046264112 0.092566527
-0.0052843392 -0.045886636 0.08802069
-0.002117157 -0.046104014 0.088429458
0.057994604 0.008620739 0.087587424
-0.00036621094 -0.047049403 0.085002013
0.054692328 0.0014023781 0.084068157
0.055260926 0.005290091 0.084937878
0.057082832 0.0071398616 0.085857339
0.0021560192 -0.046941996 0.080405898
0.0051745474 -0.047318518 0.079977103
0.054281771 -0.0014418364 0.079704046
0.054227322 0.0026760697 0.081598759
0.0031388998 -0.047029555 0.076369829
0.0071587563 -0.0473364 0.075466014
0.054708123 -0.0066781044 0.075072497
0.054330587 -0.0015555024 0.075624317
0.0097718239 -0.047281265 0.071181841
0.012454808 -0.047163785 0.070510395
0.050741196 -0.012483716 0.069935381
0.054470956 -0.0081501007 0.071212977
0.054830313 -0.0036762953 0.070245743
0.010519654 -0.046992898 0.066933431
0.01409483 -0.047102451 0.066519238
0.04990387 -0.016993642 0.06630531
0.051481485 -0.013453007 0.066835463
0.054172456 -0.0093464255 0.06645453
0.055099845 -0.0056673288 0.067084432
0.017508119 -0.047219753 0.063332148
0.020611763 -0.045941055 0.063323326
0.025011957 -0.04327929 0.062910743
0.048806369 -0.018352509 0.063244194
0.050643176 -0.014185369 0.062668532
0.054007471 -0.0095408559 0.062167138
0.01979658 -0.045314014 0.059499808
0.024067372 -0.043165505 0.05872903
0.028903425 -0.04177916 0.059241183
0.033319056 -0.038489819 0.059251733
0.037303746 -0.034344077 0.058738209
0.041408181 -0.031349897 0.057724752
0.044734389 -0.028424799 0.057790577
0.047130764 -0.023532033 0.058451355
0.047408223 -0.018240154 0.059093565
0.030228376 -0.041027069 0.054504193
0.034550011 -0.039481163 0.054060526
0.037880659 -0.03492713 0.053891666
0.04091683 -0.031504452 0.053691305
0.044236451 -0.028011799 0.054347456
0.04632771 -0.024329245 0.054277837
0.035962522 -0.038885474 0.0491281
0.03816855 -0.036040962 0.048461333
0.042045176 -0.032302439 0.048424557
0.03976199 -0.036281943 0.045116052
0.04314065 -0.033409357 0.045220114
-0.023724973 -0.038975954 0.1162293
-0.025254369 -0.039201736 0.11018259
-0.022404611 -0.039229035 0.11323465
-0.020884156 -0.040742874 0.10836679
-0.018680573 -0.043156862 0.10317946
-0.017883599 -0.043710351 0.098581888
-0.015303254 -0.044175506 0.095218487
-0.011467159 -0.044166565 0.094379105
-0.013659716 -0.044922233 0.090516843
-0.010030717 -0.044945657 0.090696223
-0.0082802176 -0.045352221 0.085743375
-0.0054420531 -0.046087861 0.081658639
-0.0024546087 -0.045913696 0.081129678
0.053091526 0.0083075166 0.079477876
0.05489409 0.0099974871 0.081418961
-0.0035242736 -0.046985686 0.077269264
-0.00080695748 -0.046272516 0.077854462
0.053521633 0.0057296157 0.077834487
-0.0023458004 -0.048105061 0.073112734
0.0009894073 -0.047088742 0.073551424
0.054564834 0.00068545341 0.072637379
0.054360062 0.0041977763 0.073385924
-0.001403451 -0.048870564 0.068761952
0.0023605824 -0.047626495 0.068775363
0.0065812171 -0.046627462 0.069109865
0.055003285 -1.0669231e-05 0.068607837
0.055996716 0.0043758154 0.067963332
0.0041538477 -0.047939479 0.064616688
0.0083887279 -0.04704994 0.064087071
0.012773514 -0.0466609 0.063614942
0.053154409 -0.0084506869 0.063492745
0.055016458 -0.0028606057 0.063776046
0.056628585 0.0012712479 0.064606398
0.008540988 -0.047342539 0.059894539
0.012976289 -0.046404064 0.059667148
0.017138481 -0.046056926 0.058906443
0.048124492 -0.015992701 0.058558553
0.050343633 -0.011946023 0.059201479
