# .PCD v0.7 - Point Cloud Data file format
VERSION 0.7
FIELDS x y z
SIZE 4 4 4
TYPE F F F
COUNT 1 1 1
WIDTH 1315
HEIGHT 1
VIEWPOINT 0 0 0 1 0 0 0
POINTS 1315
DATA ascii
-0.018013299 -0.03897354 0.29428658
-0.014296412 -0.039546639 0.29596597
-0.0095566511 -0.039209634 0.2981813
0.022011638 -0.034841448 0.29858801
0.025773942 -0.033728838 0.29782212
0.030042768 -0.032770365 0.29606992
0.033884764 -0.03077966 0.29506201
-0.018385053 -0.041875005 0.29116803
-0.015156806 -0.043349922 0.29287475
0.031064272 -0.035939664 0.29283646
0.034665227 -0.033430576 0.29159123
-0.018368781 -0.045216233 0.28735548
-0.015196025 -0.046547502 0.28898364
0.032935858 -0.038342655 0.28866979
0.035699666 -0.036791533 0.28763872
-0.01818639 -0.047104478 0.2830784
-0.014736593 -0.049251646 0.28393751
0.036140203 -0.039369613 0.28356868
-0.016914129 -0.049863696 0.27879971
-0.01443547 -0.050712019 0.28072932
0.036517382 -0.041989237 0.27920282
0.039135575 -0.038674921 0.27778497
-0.017012775 -0.052103728 0.27425081
0.033577502 -0.046364397 0.2742787
0.036878407 -0.044735461 0.27486882
0.039403498 -0.040571749 0.27465922
-0.015487373 -0.053595275 0.26990309
-0.012133777 -0.054934204 0.27018693
-0.0091571212 -0.055519551 0.26993737
0.029322803 -0.049248785 0.27066043
0.032644331 -0.048005551 0.27068722
0.036801279 -0.045019716 0.27020419
-0.011460841 -0.055233747 0.26516572
-0.0075375438 -0.057282716 0.26595137
0.024918675 -0.052339435 0.26593581
0.028364241 -0.050455272 0.26660144
0.032728195 -0.047810584 0.26578888
0.035838664 -0.045837879 0.26644468
-0.010352671 -0.056051701 0.26133427
-0.006146431 -0.057894379 0.26128057
-0.0014017224 -0.059015274 0.26106337
0.024144471 -0.053758889 0.26101291
0.02765429 -0.051291972 0.26204139
0.030576885 -0.049372226 0.26133445
-0.0057250857 -0.057771206 0.25762722
-0.00057816505 -0.058443278 0.25749102
0.0039023161 -0.058551043 0.25753719
0.0086947083 -0.059708148 0.25701788
0.013927877 -0.059150547 0.25693801
0.019529104 -0.057026058 0.25725165
0.022892833 -0.054799497 0.25679162
0.0054422617 -0.058458716 0.25320122
0.0091683269 -0.059282929 0.25300106
0.014152586 -0.058534414 0.25330403
0.017831504 -0.057648212 0.25390404
0.022616744 -0.055256456 0.25382209
-0.011646211 -0.014643878 0.33190203
-0.0099333525 -0.017593592 0.32828915
-0.011600733 -0.017702311 0.32408306
-0.0095891356 -0.018436819 0.32496855
-0.0110026 -0.020821899 0.32082063
-0.0076442361 -0.020620883 0.32100073
-0.0098420382 -0.021326572 0.31358156
-0.005736351 -0.022518367 0.31585369
-0.0020620227 -0.022790372 0.31574371
0.017058194 -0.020451218 0.31566137
-0.010066867 -0.0236803 0.30838341
-0.0070136786 -0.023253471 0.31065947
-0.0017380118 -0.024422795 0.31202281
0.0014905334 -0.024398059 0.31312415
0.017621458 -0.022368759 0.31183895
-0.014796019 -0.026927739 0.30462956
-0.011646688 -0.026630342 0.30588973
-0.0065200925 -0.026388139 0.30762577
-0.0018180609 -0.026432514 0.30891699
0.019507408 -0.023622125 0.30820698
0.023452103 -0.021668941 0.30719361
0.028409064 -0.02009359 0.30538732
-0.018832266 -0.030657291 0.30100325
-0.015224397 -0.030917615 0.30247143
-0.010781586 -0.030878812 0.30395553
-0.0071315765 -0.029716879 0.30545393
0.020879686 -0.025261134 0.30548045
0.023581266 -0.024820536 0.30463344
0.028334081 -0.023745328 0.30241472
0.033074677 -0.021578997 0.30159271
0.036682665 -0.020966679 0.30059248
-0.019665301 -0.033290893 0.29797575
-0.015758276 -0.034434021 0.29938132
0.029857814 -0.027196407 0.29911438
0.033938587 -0.024798185 0.29846179
0.038876832 -0.023584157 0.29762545
0.043181956 -0.024250001 0.29667598
-0.023120999 -0.037285 0.29230538
-0.020562828 -0.036962897 0.29454556
-0.017123342 -0.03666231 0.29665679
0.035348356 -0.028624237 0.29506999
0.03937763 -0.026969612 0.29371148
0.043808877 -0.023815781 0.29460803
-0.023750484 -0.039302796 0.2895883
-0.020914912 -0.040454805 0.29095113
0.036494911 -0.030750364 0.2915931
0.03975445 -0.028819621 0.28985262
0.044220865 -0.027486265 0.2878738
-0.02725625 -0.040663332 0.28287518
-0.023788512 -0.042576611 0.28554183
0.040163517 -0.032022923 0.28578019
0.044553339 -0.029246122 0.28456989
-0.026969075 -0.042432517 0.27969581
-0.023432195 -0.045129091 0.2816053
-0.019955158 -0.04664132 0.28025383
0.040188372 -0.035225898 0.28159958
0.044531167 -0.031863183 0.2805022
-0.026681781 -0.044202 0.27651617
-0.023334622 -0.047270745 0.27681646
-0.019726753 -0.048048109 0.27772593
0.041298687 -0.037137657 0.27685675
0.044523239 -0.034405738 0.27515301
-0.022487998 -0.049207896 0.27223548
-0.019298136 -0.050444841 0.27304605
0.041750729 -0.038618773 0.27161658
-0.021604121 -0.051074505 0.26755396
-0.018182397 -0.052366525 0.26875484
0.038161337 -0.043858349 0.26796538
0.041572154 -0.040428549 0.26746932
-0.020911932 -0.053085059 0.26349366
-0.017049253 -0.054458559 0.26426238
-0.013564706 -0.055130154 0.2635704
0.033589303 -0.047767311 0.26307675
0.037822068 -0.044899642 0.26390523
0.040886641 -0.041755527 0.26341155
-0.019928932 -0.054207295 0.25993851
-0.017088234 -0.056272209 0.25924116
-0.011904001 -0.056624174 0.25967064
0.02831167 -0.050589889 0.25901046
0.033143103 -0.048996717 0.25975549
0.037422538 -0.046073824 0.25831383
0.039716721 -0.043859035 0.26026222
-0.016492188 -0.057330161 0.25556272
-0.011303663 -0.057449996 0.25524041
-0.0065249801 -0.05800575 0.25486335
-0.0016642809 -0.057959706 0.25461185
0.0032661557 -0.05804792 0.25372061
0.025139511 -0.053454071 0.25453469
0.028365552 -0.051718682 0.25529924
0.032660782 -0.049889147 0.2551882
0.036405146 -0.047225207 0.25466982
-0.0057586432 -0.057115495 0.25043663
-0.0010589957 -0.058692753 0.25034678
0.0040547252 -0.059366852 0.25101021
0.0088995099 -0.059159011 0.25018397
0.014047801 -0.058169603 0.25043526
0.01880765 -0.056687325 0.25093287
0.022936404 -0.055816919 0.25106087
0.028171957 -0.05216822 0.24993345
0.031184971 -0.050724238 0.24902174
0.00010091066 -0.058831871 0.24629167
0.0043470263 -0.060442418 0.24615344
0.0091933012 -0.060275942 0.24671453
0.014069498 -0.059031993 0.24641538
0.019066215 -0.056692839 0.24580398
0.023466527 -0.055661768 0.24608517
0.026414037 -0.05427745 0.2471042
0.0046440959 -0.060291439 0.24234393
0.0091433525 -0.060232431 0.2419908
0.013940454 -0.058719784 0.24188218
0.018281519 -0.056991369 0.2423254
-0.016203225 -0.020055503 0.30817521
-0.012431562 -0.021417201 0.30945361
-0.009129107 -0.020976961 0.31165451
-0.021749258 -0.024302185 0.30314815
-0.017118394 -0.023786157 0.30448139
-0.012746871 -0.02330187 0.30680281
0.030334294 -0.018142611 0.30292219
0.032786012 -0.016547114 0.3038978
0.035654008 -0.014342755 0.30303404
-0.024086237 -0.026942074 0.29718363
-0.021159828 -0.026352376 0.29973763
-0.01879704 -0.027154148 0.30169791
-0.025007129 -0.028959632 0.29442638
-0.022075891 -0.029494852 0.29665208
-0.029677451 -0.031929076 0.28944135
-0.026107728 -0.032400906 0.29169077
0.044210374 -0.022528976 0.29147577
0.047119081 -0.020623118 0.29115945
-0.029933453 -0.034339219 0.28605652
-0.026905775 -0.035721987 0.28751445
0.045180917 -0.025054485 0.28920448
0.047658443 -0.022387236 0.28869569
-0.034417927 -0.036028355 0.28296828
-0.029476225 -0.037874728 0.28274035
-0.026034772 -0.038876325 0.28538775
0.046557486 -0.027883619 0.28270775
0.04826957 -0.024898529 0.28279686
-0.032496154 -0.038505107 0.27781695
-0.029748619 -0.040016621 0.27775735
0.046480775 -0.029633909 0.27878204
0.04813683 -0.026883066 0.27746204
-0.028457522 -0.043026358 0.2735168
0.046333849 -0.031908005 0.27497718
0.049573243 -0.029408067 0.27274686
-0.028002441 -0.045055032 0.26962605
-0.024546087 -0.046632588 0.26921281
0.04627192 -0.034339994 0.27048674
0.050228536 -0.032083422 0.26935303
-0.027897179 -0.046403199 0.26502207
-0.024545193 -0.047669679 0.26546219
0.043796241 -0.038745373 0.26494285
0.046536922 -0.036206275 0.26542449
0.050263345 -0.034470975 0.264548
-0.027093291 -0.047760993 0.26085243
-0.024060547 -0.049784452 0.2609776
0.042283475 -0.040375918 0.26115704
0.045737386 -0.038150221 0.26076689
0.050342798 -0.036942929 0.2603533
-0.02244395 -0.051538199 0.25632229
0.041834116 -0.0412018 0.25616685
0.046222627 -0.039093822 0.25651237
0.05037719 -0.038180888 0.25647482
-0.02108264 -0.052526116 0.25182322
-0.016959071 -0.054790497 0.25152892
-0.012711942 -0.054711074 0.25059271
0.034773171 -0.047873229 0.2523222
0.037532568 -0.045421511 0.25195006
0.040380359 -0.042768896 0.25115836
-0.016316593 -0.054253191 0.24733385
-0.011557579 -0.055085778 0.2480168
-0.0071498156 -0.055755883 0.24768987
0.033203721 -0.048602343 0.24844372
0.03685993 -0.045742273 0.24756557
0.039965153 -0.043678582 0.24842617
-0.011595309 -0.0554398 0.24343014
-0.0068746209 -0.055880517 0.24303499
-0.0022118688 -0.05723545 0.2430709
0.025504887 -0.05405727 0.24329671
0.028694034 -0.051513135 0.24324694
0.03305012 -0.049438268 0.24305448
0.036017478 -0.047617584 0.24341336
-0.0060485005 -0.056633919 0.2392666
-0.0009111762 -0.057495862 0.23897973
0.0035965443 -0.058272451 0.23872295
0.0090211034 -0.058530867 0.23872206
0.014032841 -0.057493806 0.23844376
0.018947721 -0.05655542 0.23955193
0.023907542 -0.055051535 0.23964441
0.028647959 -0.052765816 0.23881367
0.032370746 -0.050779223 0.23878923
-0.00075024366 -0.058301657 0.23523015
0.0042732954 -0.058608621 0.23406991
0.0091742277 -0.058436483 0.23410955
0.013746202 -0.057543188 0.23423809
0.018744707 -0.057168096 0.23404834
0.023664355 -0.056340575 0.2341902
0.027356565 -0.055187643 0.23402384
0.0095655322 -0.05908677 0.2305747
0.013880372 -0.058862388 0.23072225
0.018959224 -0.058105052 0.23074397
0.023385823 -0.056771487 0.23055533
-0.016461611 -0.017308384 0.30976123
-0.020418823 -0.018967777 0.30568254
-0.01848042 -0.01706472 0.30708188
-0.022165835 -0.020859987 0.30187213
-0.030317724 -0.023854196 0.29486772
-0.027425766 -0.022164911 0.2973634
-0.023714662 -0.023992628 0.29896468
-0.030252993 -0.025114089 0.29254118
-0.02720052 -0.026736051 0.29463589
-0.031073034 -0.028788239 0.28941295
-0.03537339 -0.031811446 0.28395528
-0.032431066 -0.031324685 0.28558761
0.049834847 -0.021480948 0.28423804
-0.038355768 -0.034018427 0.27870893
-0.035024464 -0.035172313 0.28056657
0.050414026 -0.021138638 0.28055024
0.052147686 -0.019689173 0.27954721
-0.038056314 -0.035523623 0.27542296
-0.034599364 -0.037314981 0.27609333
0.050181091 -0.024451941 0.27593765
0.053160608 -0.022101253 0.27490166
-0.037595332 -0.03852585 0.27030703
-0.034331977 -0.040121466 0.27156863
-0.031387925 -0.039634854 0.27376106
0.050143063 -0.026497453 0.27380535
0.052588463 -0.025040597 0.27281532
-0.032898486 -0.043136597 0.26778412
-0.032780468 -0.043756932 0.26299992
-0.030657172 -0.044788092 0.26188383
-0.032045305 -0.044979483 0.25743842
-0.028795004 -0.046021909 0.25830123
-0.031803966 -0.046186745 0.25480369
-0.027283549 -0.048400611 0.25441495
-0.024536014 -0.05067566 0.25412092
0.043892562 -0.039919227 0.25349268
0.047159851 -0.039041251 0.25376835
0.050456345 -0.038733423 0.25346124
-0.026371777 -0.049292266 0.24994498
-0.022937119 -0.050921351 0.24906534
0.042626321 -0.040688783 0.24978819
0.045946002 -0.039103299 0.2509484
0.050295353 -0.037087649 0.25077251
-0.02516377 -0.050794631 0.24594519
-0.022438407 -0.0515095 0.2447789
-0.018271327 -0.053365916 0.24550268
0.038431823 -0.045120627 0.24479583
0.041233182 -0.041781038 0.24571249
-0.016515076 -0.05336538 0.24075481
-0.012795091 -0.055074066 0.24057779
0.037878394 -0.045769662 0.2414718
0.039588869 -0.04353869 0.24090454
-0.016231358 -0.054514498 0.23619556
-0.01180166 -0.055632144 0.23659173
-0.0065814853 -0.05620113 0.23641494
0.033172667 -0.050009757 0.23650119
0.036442816 -0.047142595 0.23640555
-0.010561585 -0.056451231 0.23196641
-0.0059192181 -0.056589693 0.23245972
-0.0014913082 -0.058122367 0.23223415
0.0022254586 -0.059013814 0.23168924
0.029725373 -0.053194255 0.23353589
0.032823622 -0.05030188 0.23224643
-0.0054283738 -0.057943791 0.22776717
-0.001241982 -0.057822913 0.22799176
0.0036408305 -0.057844192 0.22747386
0.0086948276 -0.057750493 0.22750857
0.013867021 -0.057605892 0.22717717
0.018749297 -0.056872398 0.22733355
0.023703992 -0.055122226 0.22745231
0.028017402 -0.053614408 0.22769675
0.031977892 -0.050456136 0.22904071
0.003886044 -0.058247775 0.22397593
0.0089812875 -0.057681888 0.2240594
0.014148772 -0.057293922 0.22344342
0.01878494 -0.056590825 0.22288987
0.023298979 -0.055246264 0.22364694
-0.021577179 -0.014697492 0.30406997
-0.02561307 -0.018967301 0.2997691
-0.0322119 -0.021149069 0.29603094
-0.035494447 -0.023137659 0.29066479
-0.033125103 -0.02314648 0.29068238
-0.036336184 -0.026180834 0.28587633
-0.033733547 -0.025330186 0.28733626
-0.0383389 -0.028359145 0.28286761
-0.038478911 -0.031233698 0.28024107
-0.038736761 -0.033431262 0.27244088
0.054204166 -0.019846469 0.27527776
-0.039521635 -0.035594016 0.2692053
-0.03724581 -0.036257118 0.26680586
-0.035945237 -0.038190991 0.26527801
-0.03466469 -0.04045257 0.25983831
-0.033939898 -0.042705268 0.25568566
-0.030435503 -0.044692725 0.25594741
-0.032535851 -0.045065254 0.25169951
-0.030126572 -0.046046346 0.25260764
-0.031948864 -0.046006531 0.24878004
-0.028950751 -0.047234178 0.24721512
0.046529949 -0.036389738 0.24742398
0.050632536 -0.033474535 0.24668536
-0.027226686 -0.048298389 0.24326333
-0.023638427 -0.05035612 0.24176869
0.042788684 -0.038525492 0.24185634
0.045600772 -0.036585152 0.24368599
0.049375832 -0.034443438 0.24400428
-0.025891364 -0.048068076 0.23911563
-0.021945894 -0.05053106 0.2386269
-0.018591344 -0.052247435 0.23842278
0.038564265 -0.043580979 0.23786232
0.041388571 -0.040252119 0.23895708
-0.020724773 -0.051086098 0.23457715
-0.018127799 -0.053115398 0.2337552
0.038734615 -0.044223219 0.23413733
0.041285157 -0.042071521 0.2340934
-0.015809536 -0.053879231 0.23005861
-0.012580335 -0.055694073 0.22993314
-0.0089297891 -0.056207865 0.2287586
0.034503162 -0.048791975 0.22916028
0.03727001 -0.045784324 0.23014405
0.039745927 -0.04244712 0.23001197
-0.011800826 -0.056037247 0.22567374
-0.0076163411 -0.057319492 0.22591737
-0.0020068288 -0.057528108 0.22496656
0.029571235 -0.051604837 0.22472245
0.032613695 -0.048853815 0.22523251
0.036320269 -0.045978755 0.22635615
-0.010216475 -0.057199031 0.22240904
-0.0061505437 -0.058344871 0.22135362
-0.0013219118 -0.058164865 0.22160324
0.0034673214 -0.057795107 0.22152746
0.0085844994 -0.057099551 0.22157148
0.013728201 -0.057073742 0.22106865
0.020354688 -0.055664569 0.22096333
0.024285257 -0.054544836 0.2214202
0.02860254 -0.052758306 0.22143379
0.031551301 -0.049567789 0.22189331
-0.0047530532 -0.057169944 0.21707082
-0.00052171946 -0.058493704 0.21794
0.0040730834 -0.058190614 0.21730688
0.0088734031 -0.058121264 0.21748337
0.013941228 -0.057608873 0.21725541
0.018776357 -0.056572348 0.2175273
0.023609996 -0.055078894 0.21717986
0.027535498 -0.053785115 0.21690956
0.010324955 -0.056954652 0.21318898
0.014118075 -0.057321131 0.21248648
0.018491566 -0.056237727 0.21236418
-0.036336541 -0.020536005 0.28957918
-0.040206432 -0.021181375 0.28372437
-0.037905872 -0.021526963 0.28535408
-0.039823115 -0.027169257 0.27923924
-0.03964752 -0.028251439 0.27729475
-0.040506601 -0.031072527 0.27056119
-0.040690005 -0.031778961 0.26613024
-0.039021909 -0.032996982 0.26243612
-0.037122428 -0.03402552 0.26178703
-0.037956178 -0.034396857 0.25886083
-0.036939561 -0.035468876 0.25738874
-0.037368119 -0.038019866 0.25235054
-0.036737859 -0.037623316 0.25352296
-0.035244524 -0.04060021 0.24920073
-0.032841325 -0.04164204 0.24481055
-0.030731738 -0.044755161 0.24397627
0.052921534 -0.029569328 0.24454173
-0.02942425 -0.045051903 0.23996511
0.046853185 -0.03400144 0.239988
0.049731612 -0.031474084 0.23977119
-0.027922511 -0.046404719 0.23610643
-0.024781525 -0.048039824 0.23537293
0.045302689 -0.035685927 0.2361618
0.048462868 -0.032412678 0.23656866
-0.026856244 -0.0477992 0.23108914
-0.023407221 -0.04900682 0.23177436
0.042662501 -0.040574461 0.23110971
0.046019971 -0.036849231 0.23136958
0.049817085 -0.034947485 0.23052537
-0.022330582 -0.050249577 0.2273421
-0.017955482 -0.051838964 0.22714856
0.041632354 -0.041456014 0.2275151
0.045189738 -0.038172096 0.22847107
-0.020003796 -0.051902682 0.22381458
-0.017235398 -0.052369803 0.22256726
-0.013695717 -0.053792685 0.2228125
0.034678757 -0.046722442 0.22192013
0.037739635 -0.044526964 0.22322378
0.041383743 -0.042047232 0.22263348
-0.015788496 -0.053386688 0.21835083
-0.011815727 -0.054875225 0.21864954
0.03319782 -0.048406184 0.21931091
0.037279069 -0.045754164 0.2183674
0.040492237 -0.04325515 0.21881527
-0.014416575 -0.056188911 0.21160826
-0.011550248 -0.055782616 0.21373764
-0.0067690015 -0.056539953 0.21429518
-0.0014305711 -0.056285232 0.21388033
0.0032964349 -0.05632624 0.21311834
0.025235176 -0.052914649 0.21265797
0.028337419 -0.052066475 0.21357273
0.032362759 -0.049546391 0.2147105
0.036182165 -0.047252744 0.21478388
-0.01059705 -0.056349128 0.21031672
-0.0060591698 -0.057409316 0.20950463
-0.00098919868 -0.057314396 0.20960811
0.0034169555 -0.056935608 0.209721
0.0084602833 -0.056945771 0.21043935
0.013377249 -0.057397217 0.20948866
0.018851817 -0.055829078 0.20967452
0.02345866 -0.053980976 0.21018042
0.028591216 -0.052405804 0.20957725
0.031627834 -0.050388902 0.20984529
-0.0036872029 -0.058929294 0.20690134
-0.0010783672 -0.058839947 0.20612711
0.003765285 -0.058097124 0.20625368
0.0089449883 -0.057824641 0.20598039
0.013868093 -0.057151824 0.20555761
0.018577456 -0.056415319 0.20572378
0.02344358 -0.054512322 0.20623578
0.028266132 -0.052402169 0.2064548
-0.041814804 -0.015829444 0.28540552
-0.039674222 -0.016141623 0.28629044
-0.04220432 -0.018948406 0.28412634
-0.040267408 -0.018387258 0.28456202
-0.044158161 -0.027246743 0.2620022
-0.042523086 -0.027808189 0.2644597
-0.041736901 -0.030203134 0.25985804
-0.04044348 -0.032022566 0.25542694
-0.039628208 -0.033945739 0.25096056
-0.038203835 -0.035464644 0.2455678
-0.036817253 -0.038430303 0.2464537
-0.034788549 -0.039085895 0.24218091
0.054321587 -0.025689662 0.2409853
-0.033516824 -0.039768904 0.23761192
-0.031624675 -0.041223556 0.23837653
0.05149591 -0.029848903 0.23748633
0.053466976 -0.028384835 0.23898157
-0.03253901 -0.041750163 0.23237306
-0.030648589 -0.043220818 0.23315552
0.050678194 -0.031327635 0.23406914
0.05328089 -0.029815942 0.2352753
-0.032182693 -0.043917805 0.22843134
-0.029304147 -0.045832664 0.22915205
0.050685346 -0.034382075 0.22993883
-0.027906954 -0.046960145 0.22482613
-0.02433759 -0.048333049 0.22350636
0.043723345 -0.038954049 0.22455189
0.046754897 -0.036382675 0.22544506
0.050443232 -0.033937663 0.22465658
-0.022284985 -0.048769504 0.22071442
-0.019526422 -0.050336152 0.21949968
0.042586267 -0.041436404 0.22065732
0.044916749 -0.037240058 0.2213057
-0.021157086 -0.049433887 0.21629116
-0.017714918 -0.051334977 0.21604735
0.041823089 -0.04203108 0.21656147
-0.020276845 -0.051510572 0.21208915
-0.017170012 -0.053027421 0.21169046
-0.014572024 -0.053417355 0.21379063
0.033788443 -0.04797712 0.21148978
0.037809312 -0.045850486 0.21224581
0.040749431 -0.041342467 0.21279334
-0.016057551 -0.05406943 0.20801881
-0.01190871 -0.055054218 0.20714685
-0.0066223741 -0.056708246 0.2075468
0.033364356 -0.047419608 0.20765416
0.036563098 -0.045682549 0.20854814
-0.010583401 -0.055072576 0.203657
-0.0065808892 -0.056178361 0.20346975
-0.0012519956 -0.057173342 0.2026563
0.0039107203 -0.055797607 0.20224953
0.0083672404 -0.056060463 0.20230988
0.013190508 -0.055775315 0.20209146
0.018346965 -0.055298716 0.20221624
0.0236637 -0.052403241 0.2023011
0.02831167 -0.051342249 0.20328914
0.031950235 -0.049274623 0.202475
-0.00472188 -0.056556731 0.19926682
-0.0012634397 -0.05637157 0.19929299
0.0034814477 -0.055516809 0.19877073
0.0084454417 -0.055699944 0.19866571
0.013610065 -0.055324048 0.19882703
0.018375695 -0.054410607 0.19863608
0.023367941 -0.052476287 0.19878338
0.028871417 -0.051037222 0.19914483
0.0314731 -0.050589204 0.19976471
0.0098218322 -0.056744486 0.19461688
0.014017999 -0.055986255 0.19515342
0.017006099 -0.055417538 0.19512433
-0.045208991 -0.025806636 0.25706586
-0.043830574 -0.027719527 0.25837597
-0.044765532 -0.027154058 0.25213197
-0.043395281 -0.029433936 0.25355664
-0.041707933 -0.030697793 0.24866018
-0.040227234 -0.032527298 0.24496579
-0.038500965 -0.034656674 0.24075404
-0.037497938 -0.035475999 0.23797312
-0.035619438 -0.037488014 0.23601326
-0.034726322 -0.038843125 0.23096409
-0.034098923 -0.041170329 0.22640145
-0.032106638 -0.043719739 0.2237452
-0.030027628 -0.044616163 0.22141823
0.047660887 -0.032878131 0.22131917
0.050664544 -0.032283187 0.22128627
0.053578973 -0.032316893 0.22144499
-0.028352857 -0.045307249 0.21791643
-0.024686992 -0.046323478 0.21842712
0.046099424 -0.034303695 0.21754906
0.050644398 -0.03168571 0.21888018
0.053685129 -0.03391847 0.21962854
-0.027261734 -0.047066987 0.21378353
-0.023219407 -0.047617823 0.21394041
0.046094954 -0.034676671 0.21559283
-0.025950372 -0.047903866 0.20982656
-0.021859705 -0.050133497 0.20960274
-0.019892097 -0.051691204 0.2082704
0.041497946 -0.039840728 0.20961224
-0.020997345 -0.050530583 0.20468748
-0.017951906 -0.052720457 0.20524141
0.034186184 -0.045466095 0.20443945
0.037449718 -0.043232948 0.20498513
0.040173411 -0.04104504 0.20641814
-0.016338885 -0.052775145 0.20098427
-0.012260616 -0.054064482 0.2006512
-0.008749783 -0.054718167 0.20050144
0.034563124 -0.046633035 0.20093219
0.037007272 -0.044633508 0.20038401
-0.011280894 -0.05484128 0.19630423
-0.0070545673 -0.056058019 0.19691131
-0.0015516281 -0.056013018 0.1961104
0.0033271909 -0.055377454 0.19574568
0.006616056 -0.055624008 0.19538972
0.020076573 -0.053126454 0.19528219
0.023347974 -0.051975101 0.1956958
0.028158069 -0.05101949 0.1960557
0.032796323 -0.049451947 0.19674717
0.035678506 -0.046338171 0.19642811
-0.0094559193 -0.055745393 0.19292977
-0.0059800148 -0.056520492 0.19204497
-0.0012377501 -0.056943119 0.19224399
0.0039301515 -0.056848615 0.19251046
0.0082013607 -0.056685954 0.19224831
0.013967991 -0.055944592 0.19209242
0.019116938 -0.05398199 0.19217184
0.02355206 -0.051767647 0.19183873
0.027881384 -0.050104111 0.19195144
0.032175839 -0.048933774 0.19252132
-0.00094234943 -0.056984514 0.18791375
0.0038381815 -0.058501601 0.1874975
0.0088633299 -0.057987183 0.18787724
0.013286889 -0.056490451 0.18759501
0.01745671 -0.054311216 0.18743187
0.0056385994 -0.058224589 0.18357787
0.0087864995 -0.058116853 0.1842576
-0.046585023 -0.023344368 0.2556071
-0.046620071 -0.02585879 0.2504358
-0.045184016 -0.026248723 0.24667987
-0.043411672 -0.02742514 0.24539986
-0.042315483 -0.028695732 0.24158254
-0.040093124 -0.030358344 0.23699787
-0.038549125 -0.032610029 0.2332432
-0.037033379 -0.034292907 0.23303556
-0.03810668 -0.034413576 0.228376
-0.036654174 -0.035856903 0.22887763
-0.037777662 -0.03530702 0.22477308
-0.036207259 -0.037578434 0.22398335
-0.033714712 -0.040780574 0.22009107
-0.03315264 -0.04149422 0.21521178
-0.031040609 -0.042989999 0.21657708
0.049598575 -0.02993089 0.21582097
-0.032375991 -0.042577147 0.21088985
-0.029556215 -0.04501766 0.21130636
-0.02452004 -0.045873195 0.2108061
0.045702279 -0.031144887 0.21183054
0.047830999 -0.029649585 0.21172123
-0.028231561 -0.046813399 0.2069889
-0.024179459 -0.046841413 0.2072162
0.043386281 -0.037231684 0.20689376
0.04394114 -0.034640789 0.20448695
-0.027409136 -0.047542244 0.201754
-0.02349335 -0.04821533 0.20259181
0.041487277 -0.038213342 0.20258935
0.044203818 -0.035117 0.202289
-0.022975147 -0.048168331 0.19864729
-0.018994153 -0.049662977 0.1979939
0.040970564 -0.03963396 0.19832756
-0.017053485 -0.051864862 0.19372556
-0.01348418 -0.053390175 0.19398344
0.037596405 -0.044044048 0.19326659
0.040343463 -0.040710062 0.19446765
-0.016129136 -0.053255886 0.18900782
-0.012040377 -0.053680927 0.18966153
-0.0075014234 -0.054444879 0.1890043
0.029149592 -0.049565583 0.18979199
0.033269286 -0.047651023 0.18914758
-0.014593363 -0.053418547 0.1854237
-0.011333048 -0.054358035 0.18455383
-0.0063514709 -0.055354804 0.18501022
-0.0014358163 -0.05658713 0.18479162
0.015360534 -0.054906517 0.18453765
0.019471765 -0.052971333 0.18527234
0.022988915 -0.051656425 0.18638305
0.027721524 -0.05038777 0.18601827
0.031852841 -0.048337668 0.18517713
0.035147846 -0.046025038 0.1856779
-0.0096042752 -0.05594629 0.18022127
-0.0067179203 -0.056283563 0.17993407
-0.0015961528 -0.056499422 0.18065943
0.0035466552 -0.056946427 0.18118085
0.0086126924 -0.057135969 0.18129869
0.013712466 -0.055231839 0.18121316
0.01883024 -0.053657442 0.18108495
0.023390591 -0.052494138 0.18092883
0.027993083 -0.05101797 0.18066016
0.030951679 -0.049233884 0.18178707
-0.0048573613 -0.056973338 0.17767008
-0.0011159778 -0.056752205 0.17781498
0.0042006969 -0.056664169 0.17718507
0.0089238882 -0.056652993 0.17645608
0.013545096 -0.05606702 0.17622103
0.018662989 -0.054725915 0.17584454
0.023763537 -0.053665698 0.17736918
0.027541399 -0.052058697 0.17780373
-0.045384943 -0.024090499 0.2420834
-0.045182049 -0.024158478 0.23979381
-0.043571651 -0.025707483 0.23875722
-0.041669071 -0.026575178 0.2344431
-0.040563285 -0.029100507 0.23056838
-0.040058672 -0.031125993 0.22618416
-0.039622724 -0.032684237 0.22185102
-0.037492156 -0.035326928 0.22167149
-0.036469877 -0.036028296 0.21757522
-0.035507202 -0.037508219 0.2131913
0.050615489 -0.025926411 0.21197964
0.052703202 -0.024828702 0.2119994
-0.032927155 -0.041185528 0.20883319
0.046106279 -0.029255062 0.20835184
0.049749494 -0.027033448 0.20861046
0.05237478 -0.025081486 0.20890485
-0.032313824 -0.041892171 0.20466676
-0.031299353 -0.043670446 0.20341125
0.046437919 -0.03087309 0.20494969
0.049425542 -0.030653447 0.2050391
-0.032528579 -0.042278558 0.20049408
-0.030215859 -0.044748157 0.19986066
0.045883358 -0.033178955 0.19998248
0.049175024 -0.031176209 0.20012052
-0.027062476 -0.045968682 0.19576171
-0.023195326 -0.047206372 0.19532111
-0.019927859 -0.048321635 0.19449815
0.043356717 -0.036926538 0.19650964
0.045158923 -0.034765214 0.19559948
-0.022794306 -0.047039896 0.19129059
-0.019666433 -0.049411327 0.1917018
0.041871905 -0.038719267 0.19173069
0.043973327 -0.036366522 0.19236092
-0.021728992 -0.048102707 0.18738088
-0.018837154 -0.050314605 0.18630174
0.037414312 -0.042222768 0.18764688
0.040959537 -0.039911598 0.18725671
-0.016450107 -0.051578194 0.1833604
-0.01386869 -0.053088039 0.18213235
0.033670902 -0.045960516 0.18181938
0.036652148 -0.043084711 0.18277326
-0.011635721 -0.054237366 0.17849799
0.029962122 -0.050326258 0.17730349
0.032865584 -0.047125131 0.17843887
0.036285877 -0.043625385 0.17842719
-0.0067178607 -0.054059356 0.17484827
-0.0015175939 -0.054480195 0.17388321
0.0029366612 -0.055126935 0.17401908
0.0076995492 -0.055797309 0.17315175
0.022862494 -0.051969767 0.17344409
0.027346432 -0.049613804 0.17471984
0.032005966 -0.047330052 0.17468745
0.0035364032 -0.05425939 0.17068507
0.0088525414 -0.05499056 0.16999383
0.013803184 -0.055303186 0.16993521
0.018145502 -0.053733528 0.17030795
0.021762908 -0.051123977 0.17062023
-0.046875298 -0.016204268 0.24138173
-0.044308126 -0.020839691 0.23553208
-0.043751299 -0.021663249 0.23215112
-0.04339546 -0.024232358 0.22822064
-0.042197645 -0.026334196 0.22340581
-0.040286481 -0.030016154 0.21911469
-0.038419545 -0.032723427 0.21531561
-0.036982238 -0.032906622 0.21069741
-0.035012186 -0.03618145 0.20709315
0.052105606 -0.024110526 0.20619734
-0.034804881 -0.038147986 0.20183489
0.052327991 -0.025738865 0.20356588
-0.033767164 -0.040859133 0.19755065
0.050572634 -0.030404568 0.19706796
-0.032254159 -0.041786402 0.19354066
-0.029773653 -0.043918699 0.19369441
0.04726392 -0.031489402 0.19325228
0.050287306 -0.029313713 0.19329314
0.053529561 -0.026834249 0.19440798
-0.027920187 -0.044751614 0.18905479
-0.024293959 -0.046695948 0.18927908
0.045971334 -0.033269495 0.18909441
0.048962951 -0.030658513 0.1887695
-0.027270198 -0.045064449 0.18489954
-0.023483872 -0.047117621 0.18482554
-0.020367146 -0.04789713 0.18389502
0.042274535 -0.038212925 0.18448292
0.045522988 -0.035544485 0.1843185
0.048771977 -0.033774614 0.18367113
-0.023005188 -0.048193097 0.17980002
-0.018357217 -0.049799651 0.18030475
0.038036644 -0.040647596 0.18107712
0.040963113 -0.038567722 0.18008685
0.044668972 -0.035743743 0.18035859
-0.022163093 -0.048864394 0.17630486
-0.017141283 -0.050061315 0.1761146
-0.013633907 -0.05264321 0.17632879
0.037147105 -0.042980343 0.17607841
0.040429533 -0.038901836 0.17638776
-0.011909962 -0.051706076 0.17186828
-0.007181108 -0.053678781 0.17224039
-0.0033380985 -0.053651959 0.17165424
0.024819016 -0.048593491 0.17147306
0.028161943 -0.047340512 0.17185453
0.032775104 -0.04566136 0.17131615
0.036364019 -0.043475837 0.17140684
-0.0096908212 -0.053918928 0.16728
-0.0066831708 -0.053999573 0.16749986
-0.0017614961 -0.053922385 0.16801141
0.0034062266 -0.053872138 0.16711809
0.0082239509 -0.053584427 0.16623341
0.013173282 -0.053213567 0.16599371
0.018095553 -0.052132368 0.16629346
0.022809625 -0.050114125 0.16771576
0.027781844 -0.04831475 0.1674073
0.032195807 -0.046565861 0.16716352
-0.006965518 -0.054296374 0.16295294
-0.001257956 -0.0534105 0.16310667
0.0031668544 -0.053615868 0.16270502
0.008231163 -0.054015666 0.16271608
0.013545632 -0.053352535 0.16279508
0.018172204 -0.05204913 0.16257842
0.022868276 -0.050157219 0.16213644
0.026579499 -0.048642248 0.1634241
0.0078773499 -0.053776115 0.15930955
0.013246357 -0.053663641 0.15878718
0.018599033 -0.052701622 0.15875082
0.023174942 -0.051528275 0.15899277
-0.047678173 -0.014459044 0.23878214
-0.04696697 -0.016660124 0.23369566
-0.046527684 -0.018729955 0.23004952
-0.046236157 -0.021197885 0.22561392
-0.043866396 -0.023788661 0.22492358
-0.045481145 -0.023112386 0.2214843
-0.043596148 -0.024127096 0.22188416
-0.044777989 -0.024237067 0.21789959
-0.04177314 -0.025643438 0.21649945
-0.039768636 -0.026849836 0.21340302
-0.037020624 -0.030665249 0.20838848
-0.03657341 -0.032617897 0.20345154
-0.040507615 -0.032302082 0.20032668
-0.036909997 -0.033046454 0.1987581
-0.036045849 -0.036323637 0.19481134
-0.034048498 -0.039904267 0.1912351
-0.031534076 -0.041714549 0.18993375
-0.033366978 -0.040980786 0.18665943
-0.030503154 -0.042493731 0.18703416
0.050830364 -0.028316349 0.18589248
-0.03224647 -0.042198628 0.18114276
-0.028856993 -0.043868929 0.18243255
0.050575137 -0.028821081 0.18199465
-0.031850398 -0.043681026 0.17680652
-0.02836889 -0.045586318 0.17806147
0.042903066 -0.036795765 0.17792943
0.046052754 -0.033937305 0.17869678
0.048420727 -0.032218367 0.17902437
-0.027828872 -0.047068089 0.1736608
-0.023270965 -0.048241436 0.17342164
-0.018082798 -0.048347771 0.17241515
0.04122889 -0.037145525 0.17333311
0.043717325 -0.033916056 0.17364725
-0.02656889 -0.047141343 0.16939084
-0.022729158 -0.049120605 0.16906194
-0.017630875 -0.048502713 0.1686493
-0.013943732 -0.049458712 0.16899522
0.037705719 -0.042502999 0.16831776
0.040228903 -0.038630098 0.16864035
-0.022340775 -0.049988657 0.16497524
-0.017382801 -0.049279571 0.16451795
-0.012423992 -0.050734431 0.16506125
0.033459902 -0.045684874 0.16435221
0.036772609 -0.043128282 0.16500872
0.039774179 -0.041419625 0.16474327
-0.016067803 -0.050486326 0.16088434
-0.012148201 -0.051959902 0.15984516
-0.007810533 -0.053690225 0.16032816
-0.002450645 -0.053064555 0.16071953
0.0024979115 -0.052833945 0.16023947
0.027918696 -0.047667474 0.16101089
0.03246218 -0.045890242 0.16024709
0.037112355 -0.043852806 0.16057089
0.040186226 -0.04245612 0.16104719
-0.010742903 -0.052311212 0.15586801
-0.0066961646 -0.053852737 0.15624665
-0.0021873713 -0.053591162 0.15629484
0.0031264424 -0.052827388 0.1559784
0.0082556605 -0.05298695 0.15631522
0.012880743 -0.053657442 0.15545763
0.018263221 -0.052504122 0.15534599
0.023623705 -0.050884873 0.15566614
0.028082013 -0.048741609 0.15635946
0.031854272 -0.046664923 0.15471888
-0.0053288341 -0.054884642 0.15101986
-0.0018848777 -0.055075377 0.15090846
0.0032592416 -0.054264933 0.15107055
0.0085685849 -0.053428829 0.15076353
0.013420224 -0.05307132 0.15110536
0.018031895 -0.052234799 0.15107115
0.022653461 -0.05132097 0.15100437
0.027011812 -0.050322145 0.15136278
0.030353069 -0.048052996 0.15185264
0.0041261315 -0.054760605 0.1472884
0.0084992647 -0.054217041 0.14707895
0.013881683 -0.053323895 0.14707153
0.017961979 -0.052525491 0.14729448
0.023816466 -0.051301211 0.14773953
-0.048729897 -0.010654241 0.23584375
-0.049135447 -0.011832565 0.23168901
-0.049231946 -0.013932794 0.22702062
-0.047587991 -0.020829171 0.21451613
-0.043947041 -0.023377508 0.21422827
-0.048892081 -0.023984998 0.21203685
-0.04214853 -0.02265501 0.20982721
-0.039419651 -0.024660081 0.20953694
-0.04062748 -0.023194045 0.20579341
-0.038588881 -0.026046246 0.20601502
-0.040816069 -0.028588384 0.20109525
-0.038113117 -0.028389394 0.20358777
-0.040522337 -0.031229317 0.1973758
-0.038247347 -0.03152132 0.19656068
-0.040035009 -0.031752199 0.19357142
-0.037516534 -0.033233672 0.19273034
-0.036819756 -0.033918053 0.18807212
-0.034933925 -0.03679654 0.18378654
-0.033566892 -0.038556516 0.17893372
0.051051557 -0.028647274 0.17869759
-0.03270334 -0.041214049 0.17503209
0.046345055 -0.030775905 0.17482904
0.049325883 -0.028054655 0.17509839
-0.031469345 -0.043632656 0.17271079
-0.029697597 -0.043955892 0.17019604
0.042720079 -0.03338781 0.17010275
0.0455001 -0.031589717 0.17124423
0.048504293 -0.029269248 0.17111051
-0.027415872 -0.045667619 0.16630526
-0.02476573 -0.04794994 0.16651557
0.042970777 -0.034853697 0.16737455
0.045342505 -0.032548755 0.16697589
-0.026889324 -0.046668202 0.16202892
-0.023455441 -0.048224479 0.16174282
-0.018925011 -0.049173087 0.16156985
0.042068124 -0.037951857 0.16321713
0.043648243 -0.035592467 0.16190729
-0.021878779 -0.049079627 0.15774848
-0.017950475 -0.0496943 0.15747996
-0.014721096 -0.051004678 0.15758251
0.036920488 -0.04279539 0.1568284
0.040857136 -0.04020378 0.15730211
-0.020450652 -0.050099999 0.15352179
-0.016393661 -0.050051808 0.15404423
-0.012300611 -0.051263839 0.15334968
-0.0082427859 -0.052908659 0.15377624
0.033466458 -0.045453817 0.1526736
0.036464751 -0.042119712 0.15340573
0.039812982 -0.039534062 0.15405238
-0.011440814 -0.051962823 0.14934422
-0.0080108047 -0.053406358 0.14961492
0.028592646 -0.04730612 0.14809176
0.032474816 -0.046499759 0.15036169
0.035535455 -0.042619497 0.14999339
-0.010482013 -0.052447677 0.1459166
-0.0066424012 -0.053400308 0.14572616
-0.0014579296 -0.054775864 0.14489843
0.0026933551 -0.054755658 0.14511608
0.0080260634 -0.054207176 0.14453153
0.013341367 -0.054100245 0.14484634
0.018923044 -0.05247432 0.14566441
0.022699475 -0.050151259 0.1449548
0.027331471 -0.047810197 0.14569858
-0.00073307753 -0.054210156 0.14057453
0.0044141412 -0.054735214 0.14072372
0.0084502101 -0.054777622 0.14059584
0.01315999 -0.053973824 0.14100082
0.018049479 -0.052601218 0.14166139
0.020941913 -0.050354213 0.14043532
-0.050794482 -0.0078960359 0.23260286
-0.052158177 -0.0092838109 0.23055801
-0.050548315 -0.0094128549 0.22987732
-0.050301969 -0.010929614 0.22715178
-0.047349036 -0.019994348 0.21166608
-0.046878934 -0.019993633 0.20798862
-0.043827355 -0.022303492 0.20695096
-0.046176553 -0.020475507 0.2040877
-0.042760432 -0.02281788 0.20362344
-0.042761624 -0.024784654 0.20081642
-0.04262352 -0.025201142 0.19337872
-0.040917754 -0.028807491 0.18959931
-0.039940298 -0.030682236 0.18583509
-0.038832307 -0.031760901 0.18152903
-0.036530375 -0.034566373 0.18183778
-0.03612119 -0.035027057 0.17730089
-0.034208715 -0.037177056 0.17246313
0.050533354 -0.026410013 0.17292014
0.052402556 -0.023031026 0.17260751
-0.032957077 -0.039849252 0.1688963
-0.030984104 -0.040993571 0.16762488
0.049665213 -0.028015584 0.16874444
0.052877843 -0.024558991 0.16823646
-0.03218025 -0.039943129 0.1638294
-0.02986145 -0.04176268 0.16383393
0.046364486 -0.031038523 0.16336834
0.048894942 -0.028784543 0.1648809
-0.02819711 -0.043800563 0.15972777
-0.025603831 -0.046676666 0.15934335
0.045832336 -0.030943245 0.15982762
-0.026848316 -0.047188908 0.15612827
-0.024265528 -0.047853023 0.15600057
0.042776883 -0.036615103 0.15642607
-0.026361048 -0.046880662 0.15100987
-0.023204386 -0.049087256 0.15164317
-0.017697036 -0.048978776 0.15185778
0.038633645 -0.040333778 0.15094942
0.041177511 -0.038584232 0.15088937
-0.02213943 -0.050143778 0.14705373
-0.017489731 -0.050079823 0.14700033
-0.013390481 -0.05076763 0.14671363
0.032108366 -0.044027686 0.14614341
0.036831439 -0.04186222 0.14697161
0.040248096 -0.039279789 0.14625666
-0.02093488 -0.050272852 0.1426325
-0.017802 -0.050543338 0.14227821
-0.012417495 -0.052137822 0.14228882
-0.0069920421 -0.052543074 0.14198126
-0.0038824677 -0.053086817 0.1415761
0.02393961 -0.047890335 0.14213884
0.027054369 -0.0472202 0.14207071
0.031760633 -0.045040816 0.14232513
0.0361045 -0.042999178 0.14201194
-0.010938942 -0.052302837 0.13839872
-0.0065672994 -0.052778959 0.13788082
-0.0022121072 -0.05377391 0.13811709
0.0023486018 -0.053715289 0.13787447
0.015096009 -0.051917046 0.13731407
0.018455088 -0.051038355 0.1378497
0.02301681 -0.049090236 0.138143
0.027490735 -0.047977686 0.138192
0.032253265 -0.046277672 0.13780203
0.03552264 -0.044424266 0.13724381
-0.0051659942 -0.053298503 0.13423733
-0.0018315911 -0.05431807 0.1336007
0.0030671954 -0.054115742 0.13402517
0.0082373023 -0.053582281 0.13431101
0.013124645 -0.052709997 0.1341234
0.018073082 -0.051251203 0.13368909
0.023304522 -0.050119191 0.13372356
0.027988255 -0.04912734 0.13362452
0.031687677 -0.046680123 0.13396975
-0.00086814165 -0.055187076 0.12967117
0.0035092235 -0.054411888 0.1299278
0.0077360272 -0.053694099 0.13034131
0.0129022 -0.053188473 0.12920611
0.018109739 -0.052353889 0.1293665
0.02280885 -0.051416576 0.12875646
-0.052233934 -0.015786678 0.20442948
-0.049923599 -0.017463237 0.20508322
-0.051070213 -0.01721859 0.20006636
-0.04747504 -0.018173307 0.20083794
-0.044752717 -0.019677311 0.19957584
-0.0461362 -0.018188447 0.19738147
-0.044524372 -0.018907636 0.19688863
-0.043700099 -0.021517575 0.19207758
-0.045710564 -0.024446577 0.18694177
-0.043740451 -0.024871022 0.18829462
-0.045495629 -0.025361657 0.18452457
-0.042793512 -0.027712554 0.18357614
-0.041340113 -0.029850394 0.17897196
-0.040481985 -0.030935347 0.17434956
-0.037842691 -0.032470286 0.1748261
-0.038958609 -0.032599688 0.16982396
-0.03667295 -0.034022659 0.1704879
0.054468632 -0.021595925 0.16971788
-0.035518408 -0.036098391 0.16633596
0.05249095 -0.024358332 0.16564277
-0.034097016 -0.037716061 0.16139777
0.05005002 -0.024116457 0.16122422
0.052362084 -0.021466821 0.16286895
-0.033608794 -0.039156735 0.15674008
-0.030554414 -0.040655673 0.15742354
0.046636343 -0.027855426 0.15574259
0.049017727 -0.026132911 0.15740749
-0.032759607 -0.040529817 0.15312289
-0.029453695 -0.042452365 0.15274613
0.044520676 -0.031273842 0.15342227
0.047064245 -0.02719155 0.15298361
-0.028672397 -0.044354767 0.14815931
0.044414699 -0.033822566 0.14870426
-0.027297139 -0.045942456 0.14449151
-0.024890184 -0.047258675 0.14366539
0.041826785 -0.036946207 0.14416873
0.04384625 -0.034537107 0.14388004
-0.026823997 -0.047432154 0.13935976
-0.023206532 -0.048690349 0.13997291
-0.017534792 -0.049807996 0.13970299
0.038497627 -0.040622711 0.14009675
0.041020572 -0.037923932 0.13999197
-0.026566803 -0.048775107 0.13652842
-0.022457659 -0.050243914 0.13557871
-0.016951501 -0.049730688 0.13526143
-0.013045251 -0.050845146 0.13605307
-0.0093975663 -0.051817685 0.13558252
0.037903488 -0.042087942 0.13676187
0.040042341 -0.039677709 0.13469705
-0.021052897 -0.05151847 0.13166
-0.01803869 -0.051233321 0.13107546
-0.011881649 -0.050555497 0.13167228
-0.0075328946 -0.051802427 0.13120715
-0.004142046 -0.052853823 0.12956862
0.028571308 -0.047693253 0.12963691
0.03278476 -0.045572132 0.13093922
0.03615737 -0.043076783 0.13102993
-0.0066887736 -0.052717477 0.1261142
-0.0023235679 -0.054256111 0.12666743
0.0034881234 -0.054051995 0.12622668
0.0087533593 -0.052768916 0.12680458
0.013280451 -0.053339511 0.12587886
0.017931163 -0.052774131 0.1259626
0.024461329 -0.051049948 0.12695614
0.027681351 -0.048910469 0.12689123
0.031930268 -0.046401054 0.12637368
-0.005797863 -0.05368498 0.12294663
-0.0018649697 -0.053927481 0.12247439
0.0027709603 -0.053807914 0.12275459
0.008272171 -0.053160727 0.12234758
0.013413429 -0.0530608 0.12215693
0.018388569 -0.0522376 0.12232251
0.023101032 -0.051194698 0.12219927
0.027757168 -0.049740225 0.12275246
0.030993938 -0.047338873 0.12278521
0.0082599521 -0.054654449 0.11699739
0.013222754 -0.053838402 0.11764479
0.018320858 -0.052949637 0.11767647
0.022512734 -0.051617831 0.11832105
0.0082972646 -0.055477113 0.11440209
0.011386096 -0.055408835 0.11459926
-0.051540434 -0.012183547 0.20494369
-0.049478829 -0.015218377 0.19949946
-0.047558367 -0.014581144 0.19529334
-0.045279443 -0.015518636 0.19326273
-0.045463622 -0.019586116 0.1896826
-0.0455634 -0.017630488 0.1906625
-0.045365691 -0.021609128 0.18873036
-0.044668376 -0.025241882 0.1809506
-0.044343889 -0.02657631 0.17729674
-0.04314965 -0.027197868 0.17259596
-0.041085362 -0.0305112 0.16844542
-0.038650274 -0.032119513 0.16632472
-0.037943661 -0.031397849 0.16274185
-0.036516905 -0.035144776 0.16005133
0.051368713 -0.022587985 0.15820035
0.052413881 -0.021666199 0.15959236
-0.035521209 -0.036625177 0.15479089
0.050433815 -0.024795741 0.15520927
0.052832544 -0.024059564 0.15507415
-0.033440948 -0.03860718 0.15028928
0.045782387 -0.028719187 0.15012768
0.049326897 -0.025115758 0.15040529
0.053099453 -0.022553414 0.15018347
-0.03254813 -0.039827496 0.14650531
-0.030510187 -0.042523414 0.14560391
0.046106279 -0.02968958 0.14714929
0.049190223 -0.026287585 0.14700228
-0.02994591 -0.042841524 0.14188118
0.045838416 -0.029114842 0.14179453
-0.028876364 -0.045253128 0.13797311
0.044016302 -0.033399731 0.13745874
-0.027040958 -0.047331661 0.13331933
-0.024656117 -0.049699485 0.1327755
0.042041481 -0.037408203 0.13370201
-0.025854647 -0.047196418 0.12904643
-0.022956789 -0.049733847 0.12861551
-0.017589629 -0.050998896 0.12824948
-0.013037026 -0.050257623 0.12839185
0.037840843 -0.040974349 0.12910089
0.040485799 -0.038338155 0.12849483
-0.020762324 -0.048808545 0.12492116
-0.017409921 -0.050712436 0.12447543
-0.012189984 -0.051412135 0.12493749
-0.008192122 -0.052201658 0.12384535
0.033395827 -0.044692963 0.12351665
0.036355555 -0.042224497 0.12471578
-0.017233253 -0.050486863 0.12071379
-0.012228549 -0.051245183 0.12071468
-0.0074315667 -0.051937103 0.12032682
-0.0022643805 -0.052624077 0.11927649
0.0031601191 -0.052502126 0.11961526
0.0062456131 -0.052539021 0.1198554
0.02742064 -0.048716575 0.11968563
0.031757414 -0.045643181 0.12001456
0.034688175 -0.043051422 0.12029059
-0.0059142709 -0.052018672 0.11700645
-0.0017408133 -0.053117007 0.11622441
0.0034211874 -0.053893834 0.11679497
0.007163465 -0.053054005 0.11842287
0.019931912 -0.052595496 0.11568698
0.024136364 -0.050584346 0.11647402
0.027334392 -0.048671514 0.1161917
0.030265212 -0.045896024 0.11689796
-0.00078099966 -0.053005248 0.11260709
0.003446281 -0.053768784 0.11251971
0.0083495975 -0.054463297 0.11150688
0.013324201 -0.053994358 0.11177823
0.017991424 -0.052956611 0.11223194
0.022354901 -0.051343471 0.11286505
0.026010573 -0.048184603 0.11239503
-0.04719311 -0.013689548 0.19089743
-0.045762599 -0.013643116 0.19261095
-0.045757055 -0.022808641 0.17503233
-0.045300901 -0.024682969 0.16987844
-0.043692827 -0.026171297 0.16968052
-0.044911087 -0.026380628 0.16548418
-0.042942107 -0.027690589 0.1656699
-0.044581175 -0.027592719 0.16174121
-0.041368842 -0.027795851 0.16116948
-0.03975594 -0.029413551 0.15638395
-0.037892103 -0.031541616 0.15774225
-0.039022505 -0.031750381 0.15266459
-0.037081897 -0.033681661 0.15311776
-0.038531899 -0.032754809 0.14712425
-0.036372364 -0.034510583 0.14832692
0.055179119 -0.020973593 0.14849949
-0.034876049 -0.037088007 0.14368494
0.049850345 -0.024474353 0.14324442
0.053458989 -0.021597236 0.14368528
-0.033068836 -0.037777722 0.13922931
-0.031491578 -0.039625674 0.13923536
0.045952976 -0.027802199 0.13783863
0.049023926 -0.026227564 0.13911042
-0.030568898 -0.04132238 0.13484962
0.046226442 -0.02917707 0.13499194
0.049216032 -0.028268665 0.13503084
-0.028708458 -0.043481618 0.13028304
0.045278668 -0.03178826 0.13085711
0.049062252 -0.029594988 0.13105085
-0.027804077 -0.044634551 0.12642755
-0.025061905 -0.04712221 0.12619235
0.041467071 -0.036379486 0.1256474
0.044915617 -0.033570588 0.12669587
-0.026839614 -0.045008928 0.1228386
-0.023078442 -0.047570199 0.12232627
-0.018911362 -0.049595177 0.12193461
0.037873447 -0.039553791 0.12157845
0.041122198 -0.036548764 0.12222794
-0.022234678 -0.047597557 0.11849815
-0.018253982 -0.049481362 0.11787575
-0.013465106 -0.049689144 0.11715493
-0.0090479255 -0.04975763 0.11750653
0.033536375 -0.04250738 0.11736007
0.036777675 -0.039996952 0.11771895
0.04110831 -0.037576884 0.11876534
0.044787586 -0.035638243 0.11860894
-0.016923428 -0.050101668 0.11359701
-0.012378514 -0.050383478 0.11300808
-0.007227242 -0.050717324 0.11347342
-0.0033183098 -0.051489621 0.11231259
0.028708577 -0.046479791 0.11240123
0.032414377 -0.043505043 0.11336453
0.034460783 -0.042080969 0.11024405
-0.011609375 -0.051547676 0.10880652
-0.006542623 -0.051607192 0.10804018
-0.0018299818 -0.051214546 0.10821131
0.0026314855 -0.051778764 0.10830286
0.0067933798 -0.052772433 0.10782084
0.013320506 -0.052106589 0.10800305
0.017861724 -0.050600976 0.10764888
0.022883236 -0.048809797 0.10845052
0.027648211 -0.046554387 0.10827179
0.031438351 -0.044448704 0.10817333
-0.0061928034 -0.05177024 0.10462409
-0.0010472536 -0.051536232 0.10446277
0.0035306811 -0.051891297 0.10387176
0.0080190897 -0.052080512 0.10407916
0.012752712 -0.051377088 0.10410926
0.017506242 -0.049452752 0.10445449
0.022298276 -0.048219204 0.10424313
0.02655375 -0.046888083 0.10424034
0.0052677393 -0.052305996 0.10044867
0.0076371431 -0.05198428 0.10047847
-0.046523988 -0.021287143 0.16518687
-0.041191578 -0.026941627 0.15449025
-0.040384233 -0.029348463 0.14993475
-0.039565563 -0.031435609 0.14524676
-0.03863138 -0.032599896 0.14219742
-0.037130058 -0.034694165 0.14027818
0.053127229 -0.021119207 0.14072773
-0.034894407 -0.034889191 0.13681324
0.052584827 -0.02281335 0.13794446
-0.033099473 -0.036213249 0.13369663
-0.031600654 -0.038192779 0.13174124
0.052838683 -0.024350375 0.135151
-0.031390905 -0.039102525 0.12817429
0.047115266 -0.029380441 0.12823084
0.049610436 -0.02812919 0.12787032
-0.030441523 -0.041678637 0.12331595
0.046575785 -0.030264914 0.12393856
0.049962223 -0.028107017 0.12527871
-0.027705491 -0.043772519 0.11940265
-0.02482307 -0.045893639 0.11814094
0.045352817 -0.032948762 0.12060703
0.048457146 -0.031423777 0.11701144
-0.026936889 -0.04395467 0.11537948
-0.023405313 -0.045407683 0.11433011
0.03727293 -0.039054364 0.1143425
0.041010559 -0.037090361 0.11526667
0.045721769 -0.034454823 0.11484428
0.048424959 -0.033367872 0.11611737
-0.022229314 -0.046286255 0.11078787
-0.018645823 -0.048134655 0.11007673
0.036851168 -0.039780051 0.11113189
0.040795267 -0.036669463 0.11060067
0.045843542 -0.034590989 0.1112078
-0.01737994 -0.049382895 0.10621023
-0.012991488 -0.051324934 0.10637406
-0.0094810724 -0.051444322 0.10598791
0.032423079 -0.044215292 0.10667484
0.036033034 -0.040700942 0.10679804
-0.01602304 -0.050577611 0.10191399
-0.012269199 -0.051160127 0.10233533
-0.007779181 -0.052156746 0.10269839
-0.0026487708 -0.052207679 0.10267031
0.0019803643 -0.051980108 0.10181203
0.017841399 -0.049152762 0.101695
0.022628725 -0.048053145 0.10154441
0.027568281 -0.046673506 0.10245182
0.032248795 -0.043726742 0.10202126
0.035446763 -0.04121235 0.10286646
0.050410688 -0.041523486 0.10237138
-0.015055776 -0.051311731 0.098427832
-0.01235199 -0.051009357 0.097899556
-0.0068819523 -0.052019686 0.097832173
-0.0021109581 -0.052814037 0.098528087
0.0030876994 -0.053088605 0.098526806
0.0088941455 -0.051958948 0.098286867
0.013354003 -0.051341206 0.098843694
0.018164814 -0.050000995 0.098580033
0.023011804 -0.048384041 0.098187134
0.027706265 -0.046241254 0.097757056
0.031086087 -0.044040799 0.09853442
-0.0059399605 -0.052498251 0.094352245
-0.0019392967 -0.05254057 0.093969405
0.0027390122 -0.053135425 0.094439149
