# .PCD v0.7 - Point Cloud Data file format
VERSION 0.7
FIELDS x y z
SIZE 4 4 4
TYPE F F F
COUNT 1 1 1
WIDTH 1321
HEIGHT 1
VIEWPOINT 0 0 0 1 0 0 0
POINTS 1321
DATA ascii
0.014711395 0.03483516 0.29935902
0.011510253 0.032157958 0.30150086
0.013622865 0.036081135 0.29537246
0.011012152 0.034305453 0.29868621
0.011810273 0.038057446 0.29132938
0.010002181 0.040607393 0.28697139
0.011412993 0.042968869 0.28188598
0.0083690286 0.043282151 0.28280893
0.0093511641 0.04431659 0.27799234
0.0063145608 0.045205235 0.27860969
0.0081965774 0.04536289 0.27511525
0.0040191859 0.046180367 0.27431321
0.0021150112 0.046724081 0.26988351
0.0010014325 0.047323227 0.26552156
-0.0024058819 0.046612144 0.26740995
-0.055607691 -0.013675392 0.26442814
-0.0018098354 0.047932208 0.26104435
-0.004191637 0.048125327 0.2614958
-0.054948941 -0.0055382848 0.26021391
-0.055454567 -0.009000361 0.26020423
-0.05507274 -0.013040185 0.26146108
-0.0031934828 0.049058914 0.25578013
-0.0055232197 0.04925102 0.2570478
-0.054350659 -0.0041275024 0.25709155
-0.055699125 -0.0073868036 0.25633353
-0.008024618 0.049696743 0.25237101
-0.055266008 -0.0018670559 0.25181764
-0.056579605 -0.0065327287 0.25261706
-0.058550969 -0.010032952 0.25198483
-0.01073809 0.050666094 0.24847046
-0.013746753 0.050291777 0.2481586
-0.054989055 0.0032817125 0.2486788
-0.054708019 0.00026649237 0.24810705
-0.012185112 0.051155329 0.24358991
-0.015526071 0.050296545 0.24386629
-0.018216655 0.047495782 0.24280149
-0.054493293 0.0096671581 0.24315709
-0.055033699 0.0048662424 0.24405411
-0.01612176 0.049512506 0.23966888
-0.020155206 0.046682119 0.23915139
-0.024318114 0.044790983 0.23900053
-0.048888996 0.018934548 0.23879299
-0.050915554 0.014651299 0.23888966
-0.052873805 0.010149181 0.23984697
-0.05432497 0.0064834356 0.24009404
-0.021588877 0.045626879 0.23407295
-0.025195941 0.044785738 0.23464468
-0.028106824 0.04323101 0.23577124
-0.034415975 0.037911713 0.2344203
-0.044854835 0.027567029 0.2346265
-0.046504453 0.024006546 0.23496273
-0.048916414 0.019556522 0.23501989
-0.050437823 0.015558779 0.23552409
-0.026583865 0.043523192 0.23055989
-0.030410722 0.043180108 0.23094919
-0.034235194 0.039186895 0.23049197
-0.037271187 0.035829604 0.2304866
-0.040566042 0.032345712 0.23001546
-0.043842569 0.028466344 0.23073468
-0.046566382 0.024137974 0.23103607
-0.048274234 0.020266652 0.23121575
-0.031547621 0.043110788 0.22653297
-0.034321502 0.040785313 0.22667006
0.020533636 0.03478688 0.29659322
0.019223616 0.03493911 0.29600501
0.019675404 0.037153125 0.2928789
0.01875034 0.038598418 0.28872845
0.015701085 0.038245797 0.28897804
0.017254055 0.040631115 0.28426006
0.014504984 0.03933686 0.28610635
0.021439567 0.046118438 0.28116441
0.015589744 0.042598069 0.27973771
0.013205037 0.044192672 0.27574158
0.010253802 0.045055807 0.27170271
0.0079632699 0.046305239 0.26721159
0.004909128 0.046433508 0.26233602
-0.055049524 -0.015640795 0.26185501
0.0031493604 0.046962619 0.25858426
-0.05523093 -0.016269624 0.25832158
0.0012502521 0.047194481 0.25425926
-0.056160107 -0.0089132786 0.25336778
-0.056630388 -0.013434768 0.25433832
-0.0013130158 0.048294306 0.250673
-0.0041506439 0.048429012 0.24930853
-0.055230781 -0.0041508079 0.24908864
-0.055803791 -0.0073008537 0.24947882
-0.057654306 -0.013924897 0.25116494
-0.0043722689 0.048381627 0.24522868
-0.05469586 -0.003444612 0.24558964
-0.055118784 -0.0073352456 0.24605587
-0.0076401383 0.049190044 0.24104616
-0.054060712 0.0016081929 0.23999605
-0.054304108 -0.00179106 0.24150577
-0.01020737 0.049712956 0.2377831
-0.013714626 0.04933387 0.23588797
-0.018257514 0.047007859 0.23613688
-0.052559033 0.0083512664 0.23636994
-0.053850248 0.0038993359 0.23672926
-0.015248373 0.048631012 0.23272195
-0.019209519 0.046545148 0.23251787
-0.050808981 0.013259172 0.23264074
-0.051972285 0.0082365274 0.23200211
-0.054006889 0.004330337 0.23330215
-0.015453473 0.049060524 0.22875455
-0.019416407 0.046759605 0.22817919
-0.024555281 0.044737577 0.22804332
-0.043594673 0.026565492 0.22756442
-0.046377853 0.023519099 0.22756621
-0.049408391 0.019247949 0.22857419
-0.051529989 0.014177859 0.22819892
-0.051872566 0.0096414089 0.22774968
-0.025434211 0.04438132 0.22364029
-0.029159859 0.042837441 0.22264662
-0.033804372 0.038073659 0.22396356
-0.035526946 0.034348726 0.22319075
-0.03948845 0.0307917 0.22348291
-0.043130144 0.027396977 0.22396097
-0.046393052 0.023269475 0.22335455
-0.049828306 0.019293368 0.22381714
-0.05208908 0.015772521 0.22311559
-0.052430645 0.012351692 0.22336826
-0.029953673 0.042458534 0.21920988
-0.033059731 0.039593458 0.21843639
-0.036324278 0.033596039 0.21903154
-0.039602354 0.031024814 0.21839386
-0.042449132 0.027719259 0.21895739
-0.045208529 0.023805976 0.21986276
-0.04872115 0.020362079 0.22022244
-0.034293845 0.039628148 0.21474262
0.025074497 0.039212286 0.29011568
0.023483828 0.040724933 0.28734285
0.021271542 0.039409459 0.28669268
0.021644548 0.042574644 0.28293422
0.021045506 0.043948829 0.27800405
0.018172368 0.042202413 0.27869433
0.019817367 0.043518186 0.27326915
0.015771419 0.044392109 0.27292275
0.01484549 0.044532061 0.2690317
0.013179109 0.045274258 0.26499835
0.010847345 0.046191096 0.26049685
0.0097401738 0.045737982 0.25646055
0.005837664 0.046595335 0.25538188
0.004011482 0.04687053 0.25197637
-0.055843785 -0.018294692 0.25503159
0.0016110837 0.047158003 0.24686059
-0.053570941 -0.011946917 0.2457951
-0.053475752 -0.015575886 0.24714041
-0.0010116547 0.048246682 0.24291119
-0.0038369 0.048785865 0.24189338
-0.053862855 -0.0099345446 0.24255651
-0.00143224 0.048366308 0.23803177
-0.0051664561 0.049377739 0.23852786
-0.052991733 -0.0049076676 0.23862702
-0.053553298 -0.0076498389 0.23908046
-0.0070596486 0.049593925 0.23416162
-0.053054139 -0.002393961 0.23410034
-0.0080987364 0.049402595 0.22977707
-0.011709824 0.049162209 0.2302303
-0.052980915 0.0030741692 0.22960964
-0.052864745 -0.0018740892 0.22998205
-0.0095163137 0.048944831 0.22639373
-0.013728961 0.048584163 0.22580114
-0.018590465 0.046441317 0.22445551
-0.052426383 0.0084935427 0.22564209
-0.052779749 0.0042356849 0.22557798
-0.014839485 0.046991765 0.22125286
-0.019056961 0.046700954 0.22124907
-0.02262117 0.045094609 0.22127673
-0.036375359 0.031261742 0.2202647
-0.052660987 0.0094121695 0.22096351
-0.019582137 0.046362936 0.21751
-0.024381235 0.044838965 0.21698187
-0.02786018 0.042873561 0.21622713
-0.035038069 0.034753144 0.21709068
-0.038366809 0.031694233 0.21674629
-0.04229553 0.027651131 0.21663119
-0.04546769 0.023811877 0.21719132
-0.048602298 0.019523144 0.21702351
-0.050689802 0.014588118 0.21671112
-0.052466497 0.01079154 0.21747293
-0.02475135 0.044456661 0.21248646
-0.029072657 0.042243063 0.21243037
-0.033440515 0.040051639 0.21247275
-0.03554149 0.034547985 0.21231054
-0.039241865 0.031258285 0.21246596
-0.042861596 0.02787894 0.21258576
-0.046179906 0.024133682 0.21256487
-0.048766091 0.019473553 0.21219911
-0.050466046 0.015715361 0.21224262
-0.029740289 0.041441321 0.20903157
-0.034184054 0.039829135 0.20821448
-0.036627427 0.035334706 0.20763154
-0.040228441 0.031915665 0.2077405
-0.043615445 0.028240561 0.20774935
-0.046884224 0.024420142 0.20770212
-0.04983519 0.020554543 0.20778616
-0.035356894 0.039427698 0.20422365
-0.037358299 0.035866678 0.20450749
-0.048780844 0.023750961 0.20459519
0.023292005 0.042786717 0.27090427
0.020503834 0.043308914 0.2664414
0.019135654 0.045044899 0.26230326
0.016346067 0.046348333 0.25805384
0.014756694 0.046681225 0.25296286
0.011995137 0.045700908 0.25371367
0.010183156 0.045244098 0.24969053
0.0069030076 0.045049727 0.24915856
0.007744953 0.046272218 0.24422702
0.0055156201 0.046292663 0.2454814
-0.053053752 -0.018564582 0.24489197
0.006904915 0.047875166 0.23999622
0.0028420091 0.04745543 0.24084648
-0.053527609 -0.012860239 0.23981836
-0.053863779 -0.016381621 0.24009648
0.0052935332 0.048404992 0.23672351
0.0019062012 0.048291564 0.23569396
-0.052022502 -0.0074250698 0.23548803
-0.05301787 -0.011699796 0.23593712
-0.053996637 -0.015462637 0.23610792
-0.0009458065 0.049337864 0.23198596
-0.052106991 -0.0072923303 0.23092535
-0.051578656 -0.011077404 0.232227
-0.0023719221 0.049610615 0.22706383
-0.0050302595 0.049047768 0.2271668
-0.052938059 -0.0043796301 0.22701362
-0.0076680034 0.048552036 0.22320089
-0.011381045 0.047416091 0.22256973
-0.052522078 0.00087237358 0.22286788
-0.052989438 -0.0026451945 0.22313961
-0.0092380494 0.048137784 0.21944335
-0.012604728 0.047440052 0.21875545
-0.052556589 0.0021855831 0.21830374
-0.014380291 0.047391236 0.21459363
-0.018606618 0.046358407 0.21434025
-0.052617446 0.0082710385 0.21437944
-0.019826248 0.045721292 0.21002574
-0.023648903 0.043786049 0.20928003
-0.051383123 0.013159692 0.21029501
-0.052852347 0.0089232326 0.20976578
-0.021195963 0.045302272 0.2053486
-0.024669126 0.043850899 0.20519413
-0.028795674 0.041588962 0.20578863
-0.032081261 0.04004395 0.2058747
-0.050606325 0.019061148 0.20460518
-0.051360384 0.015028536 0.20571731
-0.026364282 0.043269753 0.20182908
-0.029872641 0.041774988 0.20109966
-0.033859387 0.039682031 0.20127991
-0.037173286 0.035365403 0.20156771
-0.040366247 0.031544685 0.20258971
-0.043485507 0.027519345 0.20246337
-0.046858802 0.024104834 0.20231007
-0.049323812 0.020004094 0.20223241
-0.034430936 0.038758397 0.19717586
0.021700248 0.044624805 0.25967303
0.023786128 0.044572592 0.25432158
0.020846993 0.045299053 0.25579065
0.021558017 0.048300147 0.25033748
0.018433481 0.045957804 0.25134784
0.016040817 0.045615733 0.24756506
0.012865275 0.044676185 0.2471616
0.014085948 0.047216177 0.24185193
0.011235014 0.046182454 0.24355277
-0.051945433 -0.022536039 0.24199784
0.012363389 0.048255086 0.23699644
0.0098561645 0.047955036 0.23868763
-0.053617284 -0.021443546 0.23957995
0.011620402 0.048853397 0.23388204
0.0078192502 0.048262954 0.2339634
-0.053881004 -0.017779052 0.23342994
-0.054791585 -0.02002275 0.23460823
0.0055018812 0.04836458 0.22995183
0.0036472082 0.048365831 0.22779384
-0.051880047 -0.012610376 0.22998804
-0.054000869 -0.016505361 0.228912
0.0046129674 0.048385143 0.22506461
0.00098872185 0.049301326 0.22496498
-0.052942023 -0.010929585 0.22494397
-0.055520847 -0.01500386 0.22420326
-0.0012304336 0.048514605 0.22078869
-0.0043040961 0.047825813 0.22088012
-0.052450582 -0.005556345 0.22120318
-0.053819641 -0.0095206499 0.22067219
-0.056149647 -0.013625383 0.22086313
-0.0062572509 0.04743135 0.21640836
-0.052830532 -0.0036766529 0.21698041
-0.0090511888 0.047491312 0.21333511
-0.011279836 0.047320068 0.21165724
-0.052047685 0.0013887286 0.21270116
-0.052250281 -0.0022984147 0.21286704
-0.013215914 0.046388984 0.20826842
-0.016882792 0.045720696 0.20788167
-0.052234545 0.0074660778 0.2071404
-0.053621367 0.0029799938 0.20760562
-0.017842636 0.045685649 0.20347013
-0.022656366 0.044225931 0.20289232
-0.052359566 0.0095047355 0.20395173
-0.053924784 0.0051380396 0.20361926
-0.01995407 0.045476913 0.19978842
-0.023849919 0.043980598 0.19899639
-0.028026596 0.041065514 0.19831958
-0.038539901 0.030281246 0.19847935
-0.041006818 0.026737571 0.19830248
-0.044365272 0.022965193 0.19828427
-0.048015103 0.018942654 0.19871002
-0.050670937 0.014748693 0.19951367
-0.052720383 0.010029733 0.19942397
-0.054094926 0.0062540174 0.20045477
-0.023696944 0.043092132 0.19544363
-0.028644368 0.041142762 0.1951943
-0.033319667 0.038381934 0.19451302
-0.036007866 0.033740282 0.19539809
-0.038675562 0.030620456 0.19489521
-0.041687563 0.027193904 0.19511575
-0.044792369 0.023100972 0.19496897
-0.048012629 0.019143164 0.19487852
-0.050737008 0.014997244 0.19512466
-0.052575722 0.011732459 0.19609118
-0.028835073 0.041388631 0.19168305
-0.032957509 0.038721383 0.19100463
-0.036281869 0.035167933 0.18980026
-0.039363936 0.031684697 0.19035584
-0.042773023 0.027918279 0.19000334
-0.045330271 0.023823559 0.19110766
-0.048062369 0.020127237 0.1916486
-0.035463646 0.037085652 0.18713582
-0.039762273 0.031806171 0.18701172
0.02292344 0.045211554 0.2495769
0.022018865 0.044851065 0.24800923
0.024685532 0.04851228 0.24309775
0.02009432 0.044224501 0.24448749
0.020922467 0.051611006 0.23929873
0.01909779 0.046262443 0.24039951
0.019171268 0.050921381 0.23783138
0.016914919 0.047587812 0.23575297
0.015923247 0.051639438 0.23353413
0.0149315 0.048472881 0.23118541
0.011575416 0.047907174 0.23090568
-0.053864107 -0.021776199 0.23073766
0.014169499 0.050657749 0.22693211
0.010682106 0.047495246 0.22648814
0.008062005 0.048255444 0.22263029
0.0047278404 0.048095047 0.2224398
0.0070099533 0.048849881 0.21818486
0.0030914396 0.047907412 0.21791971
-0.053389087 -0.01089704 0.21740128
-0.055287793 -0.01514715 0.21783522
0.0018443018 0.047841787 0.21382608
-0.0023973733 0.047144175 0.2139606
-0.051791981 -0.0072414875 0.21321674
-0.053024009 -0.011494875 0.21400161
-0.054226175 -0.014882684 0.21338268
-0.00016275048 0.047550082 0.20969822
-0.0038588196 0.046550751 0.20944853
-0.0080282241 0.04603219 0.20854749
-0.051426366 -0.0054055452 0.20915906
-0.051069662 -0.0094186068 0.21034308
-0.0054650009 0.046479583 0.20497383
-0.0095722228 0.045783043 0.20483278
-0.052933052 -0.003839016 0.20499294
-0.0072121769 0.047017932 0.19995192
-0.010790542 0.045963466 0.20054799
-0.014624521 0.045149088 0.20039123
-0.053977683 0.0015265346 0.20073351
-0.054104075 -0.0023454428 0.2003895
-0.01230894 0.046477318 0.19639182
-0.016781464 0.045040011 0.19605422
-0.052812532 0.0076133609 0.19584596
-0.053524062 0.0031542778 0.19646579
-0.054307118 -0.0018719435 0.19707334
-0.014142826 0.046474814 0.1919015
-0.017394617 0.044997811 0.19148144
-0.022106364 0.043022037 0.19195342
-0.025355831 0.041270375 0.19169611
-0.048386589 0.016531169 0.19094586
-0.050303176 0.013126433 0.19135714
-0.052007958 0.0082321167 0.19196174
-0.052894577 0.0044751763 0.19114602
-0.01903607 0.044031501 0.1881817
-0.022687629 0.042646945 0.18722951
-0.027229235 0.040492415 0.18763238
-0.031478658 0.038141489 0.18709844
-0.035721734 0.034792244 0.18669176
-0.042369023 0.027085543 0.18660086
-0.044937059 0.022057414 0.18735519
-0.047357753 0.017502725 0.18743449
-0.049094453 0.012592256 0.18735749
-0.051003054 0.0088502169 0.18816048
-0.024571493 0.042785466 0.1826973
-0.028248265 0.04121381 0.18281043
-0.032072738 0.037930489 0.18301457
-0.035280809 0.033920527 0.18290454
-0.038844779 0.030337989 0.18297824
-0.04267396 0.027081251 0.18318969
-0.045031562 0.02201575 0.18263561
-0.047073558 0.018179178 0.18262964
-0.026069656 0.043536127 0.17929459
-0.028687313 0.041334987 0.17856961
-0.032821789 0.038321078 0.17803758
-0.03580679 0.034453332 0.17840487
-0.039357856 0.030105829 0.17802069
-0.042993531 0.026901662 0.17797929
-0.045465365 0.023103178 0.17843506
-0.047819689 0.019729614 0.17930862
-0.034525797 0.038617969 0.17414311
-0.036232486 0.036726236 0.17413872
-0.041649058 0.030181289 0.17487973
-0.043938562 0.027675271 0.17488122
0.024628162 0.045401692 0.24089095
0.024271235 0.042575479 0.24216175
0.025341958 0.044505477 0.2380619
0.021465108 0.046013176 0.2365272
0.022375822 0.047378898 0.23404869
0.020774081 0.046655178 0.23508012
0.020905957 0.048616469 0.22860727
0.018403515 0.047793329 0.22861508
0.016675279 0.047450781 0.22384003
0.014696419 0.047838211 0.21946594
0.011383101 0.04829073 0.22024104
0.0093171746 0.04851687 0.21500553
0.0077012479 0.048606634 0.21207179
0.0035002083 0.047807992 0.21038435
-0.052329466 -0.013278604 0.20985128
-0.054203406 -0.016971171 0.21153395
0.0024282932 0.04662472 0.20635836
-0.051829055 -0.011620164 0.20696743
-0.053286329 -0.015984297 0.2060665
0.00032706559 0.047145367 0.20216991
-0.0029128045 0.04708153 0.20314284
-0.052221462 -0.010888815 0.20224215
-0.0011177063 0.047783017 0.19785196
-0.0044912696 0.047517121 0.19819462
-0.053807989 -0.0049478412 0.19862485
-0.053026989 -0.008807838 0.19706267
-0.0072928816 0.047189951 0.19410205
-0.010526672 0.046881735 0.19432771
-0.053406313 -0.0031502247 0.19333375
-0.0079413205 0.047077954 0.18969429
-0.0117075 0.046986699 0.18959427
-0.052819982 0.0014548302 0.18902045
-0.053334936 -0.0014595389 0.18909609
-0.013941094 0.0457775 0.18559021
-0.017180637 0.044479549 0.18497163
-0.021259442 0.043727517 0.18515962
-0.049759194 0.012245715 0.18511456
-0.05081667 0.0079407692 0.18476844
-0.052224025 0.0040616989 0.18565723
-0.017907336 0.043457627 0.18077534
-0.021584615 0.04287982 0.18066877
-0.048295721 0.016265869 0.18215191
-0.048893407 0.012620628 0.18123227
-0.051446989 0.009111464 0.1798192
-0.023371175 0.042393029 0.17631036
-0.028597429 0.04099679 0.17583394
-0.036903784 0.033857107 0.17628625
-0.03868331 0.032052159 0.17632008
-0.046465322 0.022236168 0.17719978
-0.047719166 0.018434405 0.17664626
-0.049954578 0.013802886 0.17638394
-0.051236227 0.0103122 0.17626297
-0.028715983 0.040492237 0.17272383
-0.032733425 0.038916588 0.17169774
-0.036686793 0.033783674 0.1724402
-0.039745644 0.030641079 0.17251986
-0.043605581 0.027361333 0.17251945
-0.045887575 0.024147213 0.17181498
-0.048337594 0.019779146 0.17205489
-0.050609902 0.015759587 0.17293984
-0.033928111 0.037491858 0.16931583
-0.035457179 0.035287559 0.16830586
-0.038727239 0.031385183 0.16911887
-0.041684166 0.028338432 0.16916524
-0.046993211 0.022743702 0.1683328
0.018947616 0.046546161 0.22091901
0.018166542 0.046722293 0.21681038
0.014707908 0.048099577 0.21348852
0.014621258 0.048615456 0.21014845
0.010637283 0.046159744 0.2077104
0.0096906126 0.046123147 0.20395754
0.0055480897 0.046030462 0.20381208
-0.053308472 -0.01921159 0.20507343
-0.054274991 -0.021212578 0.2034945
0.0043565482 0.046009481 0.19920072
-0.052644238 -0.013354301 0.20009464
-0.052961394 -0.016480207 0.2006833
0.0016838014 0.047149122 0.19585794
-0.053918973 -0.011796415 0.19664297
-0.053986564 -0.01576072 0.19670379
-6.2733889e-06 0.047182798 0.19170475
-0.0040288568 0.047013342 0.19190761
-0.054107979 -0.0056065321 0.19101036
-0.053775445 -0.0099554658 0.19175291
-0.0015222132 0.047518194 0.18739098
-0.0054239631 0.046996653 0.18710664
-0.053500399 -0.0045825839 0.18758327
-0.054469004 -0.009665966 0.18759131
-0.0064456612 0.04664737 0.18280166
-0.01090844 0.045495152 0.18278822
-0.052426174 0.0010422468 0.18269944
-0.052627102 -0.0032134056 0.18239385
-0.012023613 0.045335948 0.17820531
-0.017042086 0.043945074 0.17840624
-0.052059188 0.0062408447 0.17819166
-0.052399471 0.0022959709 0.17885882
-0.016800299 0.043810248 0.17390758
-0.021966413 0.042515755 0.17309999
-0.051809445 0.0077177882 0.17382437
-0.051906064 0.0029555559 0.17475599
-0.017784402 0.043754518 0.17019697
-0.021872416 0.042286158 0.169513
-0.025756583 0.03973639 0.16862939
-0.028483436 0.037617803 0.16794519
-0.048548833 0.018050194 0.16851939
-0.050260201 0.01318711 0.16908829
-0.051318571 0.0087636709 0.17002265
-0.022990808 0.041508317 0.16566132
-0.026533946 0.039268076 0.16497956
-0.030991271 0.037621856 0.16503428
-0.035024241 0.034084082 0.16473548
-0.03771697 0.029803634 0.1649289
-0.041387454 0.026264548 0.16504483
-0.044814363 0.022745371 0.16488002
-0.047460184 0.017623603 0.16457693
-0.048649386 0.013897538 0.16578965
-0.031303719 0.037659228 0.16155653
-0.03477253 0.034687042 0.16116028
-0.0410126 0.025425673 0.16117744
-0.044524923 0.021675706 0.16120233
0.019573286 0.046787202 0.21479815
0.019149825 0.047094226 0.21234921
0.014952168 0.047433317 0.20637056
0.014536902 0.04762578 0.20213772
0.010189787 0.046571255 0.20158362
-0.054296747 -0.022852778 0.20142519
0.014303386 0.046410441 0.19844037
0.0096407384 0.046295285 0.19771457
-0.052914277 -0.019597888 0.19828743
-0.053375736 -0.021532476 0.19974196
0.008044526 0.046489775 0.19373101
0.0046383142 0.046290874 0.19271654
0.0035960972 0.046513915 0.18860775
0.00043357909 0.047761321 0.18477327
-0.05321987 -0.010412633 0.18360361
-0.054969415 -0.013705254 0.18330377
0.00088657439 0.046996117 0.18051314
-0.0035534948 0.046977818 0.17959175
-0.052478954 -0.0063006878 0.18078983
-0.053594127 -0.010163665 0.17954126
-0.055699751 -0.013251662 0.18003517
-0.0061329156 0.046222448 0.17672837
-0.0084655136 0.045747995 0.1748305
-0.052102193 0.00068473816 0.176063
-0.052251056 -0.003733933 0.17611384
-0.010528967 0.045802772 0.17179942
-0.014165565 0.045014381 0.17223918
-0.051839545 0.00067812204 0.17155033
-0.051574364 -0.0032435656 0.17147797
-0.012295291 0.045208752 0.16824453
-0.015469864 0.044095516 0.16730593
-0.01988633 0.043280959 0.16706137
-0.050802782 0.0068910122 0.16707878
-0.051499352 0.0032052994 0.1679443
-0.016797736 0.043913782 0.16283323
-0.021459773 0.042503715 0.1634881
-0.025432423 0.040196061 0.16330539
-0.049152866 0.012635946 0.16347705
-0.050157025 0.0077451468 0.16316079
-0.018235579 0.043411076 0.15949695
-0.022089854 0.042145014 0.15892337
-0.025943473 0.039091349 0.15869246
-0.031425133 0.037552774 0.15887748
-0.034729883 0.033138394 0.15898518
-0.037547067 0.029049873 0.15934102
-0.041525081 0.025835991 0.15939598
-0.04499127 0.02194947 0.15870319
-0.047390953 0.017275453 0.15933065
-0.048997119 0.013015509 0.15850507
-0.050119296 0.0095171332 0.15885882
-0.027151391 0.038377166 0.15464018
-0.031729355 0.037496567 0.15445124
-0.035231128 0.033710718 0.15446506
-0.037790015 0.028791547 0.15394758
-0.041631535 0.025412023 0.15415348
-0.044678226 0.021861434 0.15435995
-0.047073409 0.01823771 0.15363191
-0.048602298 0.01516968 0.15441953
-0.032755777 0.037475109 0.14956819
-0.035786822 0.034633279 0.14968915
-0.038179979 0.028893173 0.15046529
-0.042160466 0.026133418 0.15014006
-0.044488296 0.023029745 0.1498227
-0.03467311 0.037489235 0.14621733
-0.036294207 0.035433829 0.14614753
0.018621579 0.046827078 0.19755395
0.016196445 0.046750426 0.19544129
0.015071481 0.045270979 0.19274363
0.012316734 0.045051694 0.19085422
0.008177042 0.044907928 0.19072464
0.010154724 0.04496932 0.18495876
0.0075725168 0.045343578 0.18742076
0.008767724 0.046257734 0.18200862
0.005538404 0.046563029 0.18240467
0.0036374331 0.046414971 0.17793536
-0.05396454 -0.013116896 0.176974
-0.054767892 -0.014872313 0.17677867
0.0022751987 0.045929193 0.17399204
-0.0023318827 0.045762181 0.17330766
-0.051760986 -0.0073268414 0.17297536
-0.052361563 -0.011388183 0.17428881
-0.053832665 -0.01495713 0.17474353
-0.0036108792 0.045689344 0.16906206
-0.0079223067 0.045520842 0.16809912
-0.052319542 -0.0053067207 0.16940324
-0.052419439 -0.0082209706 0.16696079
-0.005976066 0.045669734 0.16404305
-0.0097074956 0.044987202 0.16461878
-0.051119938 0.00017261505 0.16463183
-0.051129207 -0.0047240257 0.16429533
-0.010807261 0.045518398 0.15985255
-0.015374884 0.044533789 0.15961383
-0.050568357 0.0056817532 0.15955739
-0.050652757 0.0011849999 0.16006763
-0.013128236 0.045816183 0.15556739
-0.016833022 0.044130206 0.15569113
-0.021201625 0.041734695 0.15519027
-0.049355581 0.010854542 0.15537332
-0.050590441 0.0066456795 0.15535711
-0.051298216 0.0024961233 0.15567155
-0.014301732 0.046184659 0.15189295
-0.017698541 0.044380128 0.15077625
-0.021728531 0.041457951 0.15091906
-0.025488749 0.038953781 0.15177177
-0.04737772 0.015834868 0.14972903
-0.049017385 0.012343407 0.15132336
-0.050361767 0.0080448389 0.15163754
-0.018813089 0.04436636 0.14721234
-0.022674695 0.041763365 0.14631931
-0.026946381 0.039202213 0.14693765
-0.030307189 0.037880898 0.14783339
-0.036469057 0.0319103 0.14803116
-0.03829433 0.029308915 0.14806236
-0.041255251 0.026876211 0.14717855
-0.044733301 0.021944702 0.1468976
-0.046857581 0.017821193 0.14710735
-0.049007252 0.012637734 0.14683281
-0.028781876 0.038326561 0.14297299
-0.031841174 0.036933064 0.143243
-0.035342529 0.034784257 0.14244197
-0.037201121 0.030093431 0.14374895
-0.04102169 0.025891423 0.14345311
-0.043838397 0.022010803 0.14332889
-0.046591684 0.01811409 0.14280345
-0.035342827 0.034466743 0.13907483
0.018499494 0.044020295 0.18991949
0.015070394 0.043330669 0.18819731
0.01303415 0.043759882 0.18401659
0.010656819 0.045347095 0.17912355
0.0094409287 0.045137882 0.17533866
0.0065114349 0.045655966 0.17437857
0.0046976656 0.045522988 0.17030643
-0.052014247 -0.012221634 0.17132863
-0.053636953 -0.015963912 0.17124051
0.0015304685 0.046256363 0.16676588
-0.0012558997 0.04577446 0.16556083
-0.052629784 -0.012043834 0.16702656
-0.053918555 -0.015168667 0.16753499
-0.0022009611 0.044853747 0.16197549
-0.051170662 -0.0070800781 0.16149519
-0.052169517 -0.010845423 0.16327958
-0.0058877021 0.045837224 0.15864144
-0.050456122 -0.0010223389 0.15731917
-0.050381139 -0.0047518015 0.15858211
-0.0061326772 0.045138717 0.15399884
-0.010332331 0.046113968 0.15407918
-0.05126144 0.00017976761 0.15374018
-0.051076427 -0.0035007 0.15325169
-0.01155512 0.04586488 0.14902489
-0.016325369 0.045594811 0.14865972
-0.050816491 0.0065689683 0.14973094
-0.05129768 0.0021377802 0.14922301
-0.013795957 0.04575038 0.1448115
-0.01802583 0.044966578 0.1448002
-0.022272334 0.042794526 0.14412318
-0.049192563 0.012042105 0.14442496
-0.050485864 0.0074695349 0.14458747
-0.051588193 0.0033611059 0.14534287
-0.017619267 0.043882966 0.141277
-0.021745637 0.041906714 0.14031847
-0.025906816 0.039753556 0.14047576
-0.030642524 0.037529171 0.1396357
-0.037649438 0.029365301 0.1402456
-0.040476158 0.025878668 0.13987212
-0.04346092 0.020734489 0.13966708
-0.046878412 0.016855359 0.14042781
-0.048174158 0.012499332 0.14035176
-0.050093189 0.0091189146 0.14088441
-0.026258543 0.039205313 0.13576803
-0.030824736 0.037410617 0.13598689
-0.035141483 0.034426808 0.13552374
-0.037232444 0.028957069 0.13561806
-0.040497854 0.024792135 0.13546732
-0.043999955 0.02091217 0.13545772
-0.046395674 0.017026782 0.13513109
-0.047791168 0.014636397 0.13490906
-0.027645901 0.03950882 0.1313262
-0.031576291 0.037792146 0.13077623
-0.035623476 0.034560204 0.13109493
-0.038181379 0.02954495 0.13051271
-0.041421399 0.025002003 0.13078102
-0.044653431 0.021557331 0.13080761
-0.047767952 0.01693809 0.1318118
-0.048944131 0.01565069 0.13181254
-0.035924807 0.034565926 0.12748837
0.02131471 0.04145664 0.1855994
0.017829746 0.041928828 0.18517347
0.019548506 0.042378783 0.18038024
0.016676471 0.042962432 0.18208708
0.01563938 0.043177724 0.17789233
0.01262252 0.043524384 0.1728493
0.010610566 0.043473721 0.16836374
0.009294495 0.044626594 0.16442369
0.0056001544 0.045350969 0.1641676
-0.053334489 -0.015749097 0.16364066
0.0032521933 0.044930935 0.15967877
-0.0010803491 0.045150518 0.15903805
-0.05057396 -0.013133526 0.15955041
-0.052536532 -0.016236305 0.15932541
0.0012050122 0.044972479 0.15475406
-0.0020773113 0.044946909 0.15524809
-0.050338253 -0.008528769 0.1551223
-0.050445721 -0.012951553 0.15491174
0.00070348382 0.045283258 0.15130405
-0.0036087483 0.045046508 0.15033738
-0.050918534 -0.0074127316 0.15088861
-0.051009342 -0.0094803572 0.14995192
-0.0056260973 0.045296073 0.14567237
-0.051382974 -0.0011379719 0.14752306
-0.051237836 -0.0046821833 0.14678888
-0.0074978322 0.045820951 0.14263915
-0.010072693 0.046020091 0.14234583
-0.052023783 0.00055712461 0.14248823
-0.051659361 -0.004204452 0.14224403
-0.01082851 0.0457955 0.13802743
-0.015129879 0.043868124 0.1382131
-0.019367531 0.042958081 0.13785535
-0.048085049 0.011291802 0.13781402
-0.04983516 0.0057751536 0.13812014
-0.050815478 0.0011534691 0.138753
-0.01248081 0.045509636 0.13472268
-0.015770718 0.043497682 0.1338124
-0.020304576 0.041094601 0.13394931
-0.024082735 0.039171159 0.13329563
-0.048711315 0.012234211 0.13454777
-0.050063208 0.0072165728 0.13389546
-0.017637089 0.043031454 0.129987
-0.0213985 0.041564643 0.12935898
-0.025550559 0.039568305 0.12888509
-0.040873423 0.025833189 0.12846255
-0.044724807 0.020990789 0.12829891
-0.046697512 0.017615497 0.1292128
-0.049366012 0.012815118 0.12910488
-0.050678566 0.00849998 0.12981799
-0.023087457 0.040885031 0.12542
-0.026795402 0.039389431 0.12447694
-0.031476691 0.037168682 0.1250239
-0.035592511 0.033902586 0.12443009
-0.037936077 0.029050469 0.12497956
-0.040214077 0.025197327 0.12411863
-0.04365851 0.022012115 0.12454316
-0.046863154 0.017743528 0.12457463
-0.04960604 0.013518572 0.12513486
-0.028977528 0.039171338 0.12016678
-0.031829342 0.03715992 0.12046954
-0.035956755 0.033889771 0.11987728
-0.038427308 0.031436563 0.11994779
-0.041639373 0.025400996 0.11988783
-0.036984399 0.033404827 0.11631346
0.027403787 0.039500535 0.18511529
0.025376305 0.039823294 0.18325542
0.025920674 0.043158412 0.17722426
0.023750052 0.041723549 0.17923789
0.020669267 0.041532397 0.17496248
0.018110827 0.040935695 0.17318852
0.01904653 0.042347074 0.17055264
0.016355455 0.041759014 0.17017625
0.016789421 0.044305563 0.16336372
0.014324293 0.043483675 0.16598307
0.011652529 0.044103026 0.16188149
0.0095435828 0.044787049 0.15740816
0.0064132363 0.044788837 0.15882818
0.0047270805 0.044992208 0.15383212
-0.051513329 -0.013874829 0.15360023
-0.052774087 -0.016364634 0.1542493
0.0033028722 0.04492557 0.14905439
0.00069746375 0.045046091 0.14757572
-0.051666811 -0.012312114 0.1491733
-0.05303593 -0.015369296 0.149056
-0.0010663271 0.045448482 0.14446832
-0.050832465 -0.0077441335 0.14389728
-0.051378205 -0.011698008 0.1453694
-0.053333417 -0.015497684 0.14542274
-0.0040212423 0.046317995 0.14022456
-0.051583037 -0.0063018799 0.1394784
-0.0054729134 0.046619296 0.1361213
-0.0090988427 0.046126842 0.13454235
-0.050970629 0.00087738037 0.13502809
-0.051207617 -0.0035840273 0.13533953
-0.010586634 0.044736922 0.13101423
-0.015155986 0.044311047 0.13146639
-0.050935581 0.0045816898 0.1322695
-0.050489441 0.00029122829 0.13133648
-0.015557691 0.043161988 0.12755981
-0.020410314 0.041938663 0.12678182
-0.051395044 0.0073359609 0.12801567
-0.051461026 0.0045515299 0.12683302
-0.017205432 0.042025089 0.12306944
-0.02146177 0.041831851 0.12309781
-0.025497571 0.040700555 0.12234965
-0.046782151 0.017403424 0.12236339
-0.050143078 0.012642324 0.12254074
-0.051291719 0.0082983375 0.12348691
-0.051624492 0.0044079423 0.12404203
-0.022270754 0.041548848 0.11900291
-0.026519552 0.039638162 0.11835608
-0.031893864 0.03698045 0.11763573
-0.038270637 0.028527319 0.11910862
-0.040494695 0.026643753 0.11894876
-0.044091716 0.021935225 0.11905244
-0.046941087 0.017174125 0.11860645
-0.049485639 0.01207149 0.11851478
-0.050809577 0.0083019733 0.11922744
-0.028070226 0.039378822 0.11401376
-0.032556489 0.037420869 0.11420491
-0.036597148 0.03445226 0.11407354
-0.038734153 0.030194581 0.11445698
-0.041152433 0.025660574 0.11379507
-0.044239655 0.02160573 0.11431706
-0.046792284 0.017201841 0.11434546
-0.031761065 0.036136031 0.10983917
-0.035093412 0.033316135 0.11007246
-0.037769571 0.03107667 0.11026683
0.030238688 0.040539682 0.18045999
0.026923224 0.039816141 0.18168835
0.028485999 0.041975319 0.17635204
0.026290804 0.042475104 0.17153548
0.024179906 0.041341603 0.17270716
0.024834111 0.043830752 0.16854906
0.022163197 0.041924477 0.16817069
0.018284515 0.040426493 0.16757834
0.020202503 0.043660641 0.16441154
0.019100919 0.044776678 0.16032305
0.015547454 0.043302596 0.15868746
0.018424422 0.044716001 0.15570429
0.013823286 0.04395479 0.1548764
0.0098543465 0.04339391 0.15394025
0.011886045 0.04485935 0.15007232
0.0088368505 0.044275701 0.15073858
0.009844318 0.045441508 0.14520924
0.0071673244 0.044737101 0.14612718
0.005111739 0.045128226 0.14208834
-0.050635591 -0.013705492 0.14235978
-0.05102773 -0.016189992 0.14092137
0.0030437708 0.045773208 0.13786629
-0.0003733784 0.045553982 0.13782939
-0.050085381 -0.012199461 0.13794544
0.0016473532 0.045759499 0.13452706
-0.0021086037 0.045377195 0.13299718
-0.050348446 -0.0078431368 0.1335417
-0.0043875575 0.044751763 0.12896881
-0.0080939084 0.044183791 0.1284788
-0.049795404 -0.0018680692 0.12808833
-0.049513593 -0.005741477 0.12917835
-0.0053946376 0.044922948 0.12508678
-0.0091754645 0.043401957 0.12443951
-0.013286576 0.042109191 0.12350705
-0.050752416 -0.00072395802 0.12429628
-0.011871889 0.043716311 0.11913684
-0.014807537 0.042642951 0.12002823
-0.050657824 0.0055227876 0.12030917
-0.051188484 0.0019564033 0.11950409
-0.013015822 0.044660091 0.11501652
-0.016677007 0.04322052 0.11642587
-0.021165326 0.041267872 0.11605987
-0.047736213 0.01237762 0.11565927
-0.05070205 0.0065909624 0.11577308
-0.051141962 0.0028402805 0.11596173
-0.018364504 0.043486536 0.11195669
-0.022287086 0.041546345 0.11223122
-0.026070401 0.039568722 0.11157498
-0.038014963 0.027458906 0.11122113
-0.038725778 0.025576115 0.11091462
-0.043881193 0.020853698 0.11117363
-0.046145216 0.016322374 0.11123404
-0.04818286 0.012094855 0.11194167
-0.050304368 0.0087694526 0.11292693
-0.022046521 0.04180187 0.10781281
-0.025791422 0.039448619 0.10727622
-0.02985315 0.036736727 0.10729112
-0.033703849 0.033175766 0.10717313
-0.037201121 0.028389454 0.10690643
-0.039518312 0.023763418 0.10709943
-0.041484788 0.019077837 0.1080534
-0.027435139 0.038657665 0.10352518
-0.030601218 0.035604715 0.10364427
-0.034448072 0.032868743 0.1023999
-0.037681714 0.030224323 0.10241963
-0.035774365 0.033043802 0.098816171
-0.038550809 0.030896425 0.099074796
0.027720481 0.040954471 0.1708491
0.025972664 0.042473316 0.16521603
0.024513707 0.043879688 0.16315013
0.020401821 0.043993711 0.15686688
0.018970609 0.04482168 0.15251142
0.017510161 0.042947412 0.15275472
0.017690673 0.045763731 0.14921802
0.015757531 0.044570625 0.14897829
0.016939715 0.045582771 0.14333409
0.014037609 0.044804811 0.14392404
0.011146113 0.04557389 0.13957809
-0.049092844 -0.016117156 0.1385484
0.0092971772 0.045416772 0.13511005
0.0065563619 0.045730412 0.13501552
-0.049501464 -0.016096056 0.13493332
-0.050603464 -0.018672943 0.13333762
0.0038004965 0.044520617 0.13079652
-0.048706666 -0.013457358 0.13070068
0.0025380701 0.044229746 0.12544212
-0.0011515617 0.044654965 0.12717491
-0.049503043 -0.008084476 0.12715948
-0.049718574 -0.012898147 0.12549397
0.0015033782 0.045125246 0.12220135
-0.0028002262 0.044861913 0.12220141
-0.007619068 0.043180227 0.12151101
-0.049558505 -0.0076451302 0.12249199
-0.049881235 -0.011625051 0.12304512
-0.0047172904 0.045980036 0.11786985
-0.0086411983 0.04405731 0.11827463
-0.05096744 -0.0023536682 0.12016603
-0.050700709 -0.0047119856 0.11718783
-0.006725654 0.046186805 0.11307573
-0.010355726 0.04498893 0.11309227
-0.014674529 0.043665886 0.11240545
-0.051185712 0.00090110302 0.11317512
-0.05089201 -0.0033099055 0.11326405
-0.011670604 0.04486835 0.10917068
-0.015211478 0.042891502 0.10817666
-0.046912983 0.010561585 0.10828748
-0.049652115 0.0056672096 0.10871112
-0.050845578 0.0015620589 0.10841054
-0.018742248 0.042522073 0.10763408
-0.02016817 0.041772723 0.10481788
-0.023612335 0.039766371 0.10455595
-0.041400149 0.019478917 0.10509826
-0.044107333 0.015142739 0.10585578
-0.047245219 0.010249138 0.10449301
-0.049199954 0.0059273839 0.10388191
-0.021567002 0.041130304 0.1004882
-0.025289521 0.039012194 0.10081057
-0.029250577 0.035537481 0.10075174
-0.032650962 0.033598065 0.099900618
-0.037631229 0.026035249 0.101209
-0.039544657 0.024215519 0.10128881
-0.041755542 0.019979596 0.10077108
-0.044508234 0.015375257 0.10055877
-0.04630591 0.011725783 0.10079946
-0.022362813 0.040386736 0.096693888
-0.025901094 0.038965583 0.096031114
-0.030014411 0.035584033 0.095809564
-0.03478305 0.033385754 0.096141651
-0.038321152 0.030336618 0.095972732
-0.040095285 0.025681019 0.096144274
-0.042453036 0.020596087 0.095661119
-0.044740871 0.016658902 0.096288994
-0.030783251 0.036077023 0.09158729
-0.036038056 0.034001589 0.091513917
-0.039342299 0.031095982 0.091724679
-0.040744647 0.025935829 0.091210946
-0.042567328 0.022743702 0.092237428
-0.036439493 0.034116387 0.087826684
-0.039264902 0.030622482 0.087709382
0.010905623 0.044921517 0.13360098
0.011097506 0.043115497 0.12837827
0.0077933073 0.043342471 0.12795481
-0.048739329 -0.017218053 0.12833223
-0.048827842 -0.020666838 0.12793735
0.0060671866 0.044249773 0.12348953
-0.050607815 -0.015540898 0.1236414
-0.050423637 -0.019352436 0.12306103
0.0039898157 0.045427144 0.11947608
-0.049601391 -0.0096138716 0.11971521
-0.050464585 -0.012690961 0.12009582
-0.051630631 -0.015638947 0.11870351
0.0013207793 0.046219647 0.11591351
-0.002366811 0.046200037 0.11510178
-0.05071117 -0.0086720586 0.11650208
-0.052120402 -0.011163235 0.11624697
-0.052937046 -0.014573812 0.11461896
0.0003568083 0.04564935 0.11128402
-0.0035453439 0.046169043 0.11126134
-0.051102832 -0.0068964958 0.11112383
-0.052031174 -0.011399329 0.11171561
-0.0050121397 0.045911133 0.10724474
-0.0078321546 0.043564439 0.10506018
-0.012160257 0.043058932 0.10576732
-0.05016838 -0.0014416575 0.10561879
-0.051178798 -0.004598856 0.10759915
-0.0094361454 0.042449415 0.10188518
-0.013762191 0.041910768 0.10211067
-0.017679527 0.040853858 0.10111256
-0.049488977 0.0059452653 0.10110708
-0.050146207 0.0013094544 0.10191475
-0.015232727 0.041163087 0.097074106
-0.017724171 0.040602565 0.097214803
-0.045584276 0.013310432 0.098151579
-0.046925083 0.010359406 0.098366871
-0.048504904 0.0060346723 0.097223565
-0.016219541 0.04128015 0.093079641
-0.020526066 0.040773451 0.09374924
-0.025892273 0.038744926 0.093494788
-0.043796435 0.018874168 0.09342669
-0.045402631 0.014858186 0.094311282
-0.046846643 0.011153042 0.094081298
-0.047733977 0.007060051 0.09317936
-0.022108749 0.040579379 0.089344047
-0.026722744 0.039386392 0.090094171
-0.031109348 0.03622818 0.089133635
-0.040806487 0.025755644 0.088699147
-0.042926446 0.019805849 0.089319512
-0.04460676 0.015339315 0.089758411
-0.045291021 0.012060404 0.089986369
-0.023122445 0.040316701 0.085330985
-0.027181968 0.039086461 0.084901802
-0.030867949 0.036360204 0.085015967
-0.034044996 0.033737719 0.084028311
-0.03806366 0.030269444 0.084309287
-0.04001148 0.025234103 0.085867509
-0.034906641 0.033021927 0.080210693
-0.037971064 0.029777288 0.08024589
0.013458148 0.042249918 0.12654281
0.011524051 0.043285847 0.1212866
0.0090306848 0.044620037 0.11702746
0.0059567988 0.045215666 0.11618209
0.0087556541 0.044630468 0.11233279
0.0048402846 0.045510232 0.11229748
0.0034002066 0.045676649 0.10782553
-0.051981702 -0.012780488 0.10877481
0.0019258857 0.046170831 0.1046298
-0.0015551299 0.045236588 0.10360692
-0.049745813 -0.0077565908 0.10372891
-0.051547304 -0.011620045 0.1047246
0.001099214 0.046748281 0.099842414
-0.0029272437 0.04580456 0.099856094
-0.0071249753 0.043208718 0.10014762
-0.049878404 -0.0033470392 0.10051836
-0.049976364 -0.0072219968 0.099841133
-0.0043196231 0.045755148 0.096414104
-0.00792934 0.042954445 0.094809964
-0.0122834 0.041381598 0.095342144
-0.049327567 0.0036043525 0.094617501
-0.049322709 -0.0004735589 0.095374778
-0.049697474 -0.004199326 0.095394388
-0.0098647326 0.042161703 0.091316663
-0.014015749 0.041323304 0.090453766
-0.018418208 0.040790558 0.089769058
-0.046507671 0.0089280605 0.090106085
-0.048601642 0.0046823621 0.090587124
-0.049692586 -8.3446503e-05 0.091086134
-0.01618953 0.040721416 0.08611723
-0.018941358 0.04023242 0.086539082
-0.044377491 0.014728367 0.086598232
-0.046517506 0.010423422 0.086991206
-0.048840061 0.0055214763 0.085601524
-0.049867347 0.0031013489 0.084941819
-0.020531401 0.039887428 0.082410261
-0.025476709 0.038639486 0.081710652
-0.039303854 0.022843957 0.082300313
-0.041665331 0.019407392 0.083214648
-0.044127539 0.015398026 0.082824387
-0.047403529 0.010974824 0.0825767
-0.049010918 0.0072876215 0.082003303
-0.025746718 0.038383603 0.078208104
-0.029327825 0.035960495 0.078271873
-0.032917306 0.032973289 0.077779271
-0.038123325 0.029674709 0.077340938
-0.039097294 0.024072111 0.077917106
-0.04160054 0.020574331 0.078248866
-0.044311389 0.015849352 0.078627951
-0.047760502 0.011629343 0.078495808
-0.028945103 0.035164118 0.073986359
-0.034275874 0.032246947 0.073200472
-0.038416103 0.029645681 0.073515631
-0.03978993 0.024918675 0.073836304
-0.041269615 0.022110939 0.07412786
-0.039083526 0.028670311 0.069513626
0.02364333 0.037847519 0.13016503
0.021852136 0.040371418 0.12622802
0.019895747 0.038968801 0.12673639
0.020397365 0.04085803 0.12326576
0.017103121 0.040632188 0.12280665
0.018058375 0.042999864 0.11779879
0.016205683 0.042351067 0.11816287
0.013348058 0.042628884 0.11619329
0.0087094456 0.044506431 0.10943416
0.0091771781 0.043762445 0.1052358
0.0054449439 0.045712471 0.10111524
-0.051285937 -0.014211535 0.10079093
-0.050451919 -0.016910672 0.098809853
0.0025856048 0.046750188 0.097125754
-0.05030562 -0.0088410378 0.097166345
-0.050760552 -0.012127876 0.097924843
0.001598984 0.045890093 0.094601408
-0.0020471215 0.044787645 0.092930898
-0.049844936 -0.0079068542 0.093131796
-0.051851943 -0.011717796 0.092948094
-0.054049805 -0.013495386 0.09118332
-0.0026915222 0.043551564 0.089441113
-0.0076872855 0.042267501 0.088707827
-0.011398032 0.040908098 0.087551318
-0.049605772 -0.0014849901 0.088057801
-0.049825802 -0.0055713654 0.088723496
-0.052863792 -0.012382329 0.089178756
-0.0091394633 0.042131305 0.083276019
-0.013089135 0.040581286 0.083818391
-0.049460128 -0.00079679489 0.083658196
-0.010059133 0.042886555 0.079878524
-0.014372602 0.041202903 0.07907097
-0.018445268 0.040054142 0.079822108
-0.048754558 0.0045669079 0.079147376
-0.049089804 0.0015028715 0.079321422
-0.015277043 0.041499972 0.07429938
-0.018370882 0.039660275 0.075753167
-0.022133842 0.037806988 0.075951532
-0.041691318 0.018602133 0.075161494
-0.043810412 0.013650894 0.075146563
-0.046401694 0.010351062 0.075204261
-0.048218086 0.006613493 0.076314904
-0.019196793 0.039575458 0.071572319
-0.024205998 0.037384927 0.071351543
-0.029088631 0.035072923 0.071056701
-0.031453744 0.03233403 0.071011789
-0.039769903 0.023690045 0.070830293
-0.041769221 0.019312441 0.071223445
-0.043214574 0.013828576 0.071753599
-0.02585198 0.037508845 0.066169985
-0.029923692 0.03562212 0.066577464
-0.033327594 0.031702042 0.066765994
-0.03640826 0.028912902 0.066042632
-0.039064214 0.024990201 0.066884011
-0.040120974 0.020081818 0.06720078
-0.030902162 0.035443783 0.062236428
-0.033353463 0.032386959 0.062782228
-0.036025658 0.028599322 0.062512219
-0.038949713 0.026516557 0.062866151
0.027397633 0.037741363 0.12814377
0.024826735 0.036467612 0.1275811
0.02592878 0.039564133 0.12551336
0.022242039 0.036599398 0.12833394
0.023415536 0.040955544 0.12120245
0.021171018 0.042325139 0.11710401
0.018886864 0.041999698 0.11537479
0.017093971 0.041060567 0.11179657
0.01525788 0.041378319 0.10662721
0.0098738968 0.043002248 0.10481782
0.0067251474 0.042935491 0.092155598
-0.050469264 -0.017420709 0.094782189
0.0031359792 0.04394877 0.089660726
-0.052897528 -0.016223133 0.091985658
-0.00088186562 0.043105721 0.086220704
-0.0052421987 0.042086363 0.08592122
-0.048744366 -0.009354949 0.085810378
-0.051097289 -0.01168865 0.08661668
-0.053498134 -0.014760196 0.086733475
-0.0027540922 0.043655515 0.081376031
-0.0060381442 0.042705417 0.082441285
-0.049632594 -0.0032413006 0.081030227
-0.049549475 -0.0074813962 0.081710882
-0.051774785 -0.011791289 0.082143433
-0.054291859 -0.014248788 0.08321581
-0.0047243983 0.044891775 0.076759353
-0.0093195587 0.043616295 0.077326551
-0.049243852 -0.0018116832 0.077396341
-0.050002947 -0.005517602 0.076040454
-0.0065397769 0.045227766 0.072521225
-0.0099436194 0.043908 0.072512105
-0.013010815 0.042482853 0.072854951
-0.045697346 0.0079104304 0.073244341
-0.047472373 0.0033844709 0.072128542
-0.048806503 -0.00037753582 0.072252966
-0.049978331 -0.0037930012 0.073092408
-0.010105237 0.043449223 0.068216659
-0.014044479 0.042095542 0.068879284
-0.018548504 0.039853096 0.068769999
-0.022207096 0.037970424 0.068635888
-0.043092623 0.01360482 0.068844199
-0.045463338 0.0096458793 0.069496907
-0.047584251 0.0044029355 0.068280637
-0.014597848 0.0414204 0.065136231
-0.019270852 0.039435565 0.064371951
-0.023257867 0.03813529 0.064585634
-0.038617775 0.022180259 0.064367056
-0.041122183 0.017883062 0.06462723
-0.04329057 0.013817132 0.064349264
-0.045480832 0.0097626448 0.064082056
-0.047784403 0.0056935549 0.064679831
-0.025082126 0.037385583 0.060075767
-0.029189184 0.035306573 0.059874922
-0.032649115 0.032092452 0.05926314
-0.036021516 0.028306127 0.059434444
-0.038544074 0.022618175 0.059255809
-0.04078652 0.018970847 0.059527695
-0.043131545 0.015276253 0.060271204
-0.045260683 0.011526763 0.060324669
-0.029650941 0.034332991 0.055136174
-0.032863215 0.032467365 0.054666549
-0.037194863 0.029239655 0.055155367
-0.039657995 0.024128914 0.054632217
-0.041402832 0.020303667 0.054770082
-0.034327522 0.033751547 0.050590865
-0.03828837 0.030075908 0.050807767
-0.040595248 0.027223706 0.050702862
-0.03951551 0.03051275 0.047875039
-0.041851625 0.028352141 0.04750412
0.029362172 0.039364338 0.12322126
0.028793454 0.039769709 0.11963926
0.02528733 0.040651798 0.11701874
0.022382259 0.040792108 0.1121069
0.015253052 0.041100025 0.10169895
0.014664903 0.041081905 0.09829773
0.010955572 0.04111284 0.092273138
0.0085209906 0.041826248 0.087743364
0.0049567968 0.042674661 0.083215341
0.0032785535 0.043103337 0.078550413
0.00063069165 0.043453217 0.0814863
-0.051609948 -0.012404203 0.078953303
-0.054148808 -0.014843166 0.080042131
-0.00077793002 0.044562936 0.075361863
-0.050616756 -0.008325994 0.075893857
-0.051161125 -0.011692762 0.075458832
-0.052513286 -0.015925467 0.076222219
-0.0033028722 0.044265747 0.070158616
-0.048885927 -0.0026506782 0.070101209
-0.049788818 -0.00642699 0.07074035
-0.051171079 -0.011073172 0.071283467
-0.0073100179 0.043371081 0.065589078
-0.049050763 -0.0014725327 0.066540927
-0.049005583 -0.005807817 0.066188753
-0.0096912235 0.043241143 0.062033422
-0.013600066 0.041855454 0.062368073
-0.017161205 0.039928973 0.061562635
-0.046731636 0.0078321695 0.06166622
-0.048397884 0.0043208599 0.062634587
-0.049157217 0.00097680092 0.062350452
-0.010526791 0.043213725 0.058308192
-0.014007017 0.041062057 0.058030136
-0.018935576 0.038901508 0.057852305
-0.023616537 0.037243366 0.056954809
-0.041325048 0.017668843 0.05690524
-0.043355629 0.013967633 0.057237029
-0.046022102 0.009368062 0.057906508
-0.048013464 0.0052732229 0.058638364
-0.048784569 0.0014734268 0.058375299
-0.019801751 0.038553238 0.052692771
-0.024007484 0.037366152 0.053120673
-0.026950315 0.03462553 0.052990735
-0.041096106 0.022463858 0.052349053
-0.042653158 0.019545496 0.053463571
-0.04464443 0.015619338 0.053405635
-0.046309546 0.01082468 0.052854709
-0.022247806 0.039075553 0.048016697
-0.024720594 0.038007855 0.047945172
-0.028486565 0.035188437 0.048544258
-0.040745333 0.023657084 0.049932413
-0.043015555 0.021066666 0.049363188
-0.045567945 0.016170681 0.048450105
-0.046533361 0.011763573 0.048804753
-0.030642584 0.03470546 0.04656627
-0.033913776 0.032344759 0.046159111
-0.037859097 0.029521346 0.044231735
-0.041305527 0.025692999 0.045427583
-0.043315843 0.021607459 0.045818172
-0.04556562 0.018655419 0.045659088
-0.038750365 0.027802467 0.040479057
-0.040743247 0.026397347 0.040399991
0.022426829 0.03989011 0.096252054
0.020254597 0.039653063 0.098808467
0.021424577 0.040751398 0.092863828
0.017299101 0.040595531 0.094090074
0.019730538 0.042301953 0.088895552
0.015779018 0.04083097 0.090131454
0.017552182 0.045017719 0.084921949
0.01367718 0.043183506 0.086111985
0.0098399967 0.041854739 0.08496996
0.016133189 0.046505988 0.081017986
0.012267098 0.044047534 0.081124261
0.0082928538 0.042602062 0.081235364
0.01068674 0.043097496 0.076142058
0.007138595 0.042857289 0.076229498
0.0054027885 0.042621315 0.072746411
0.0038107783 0.042073429 0.071114376
-0.051177636 -0.013765454 0.072460569
-0.050841048 -0.017051101 0.072354324
0.001746431 0.042707801 0.067499526
-0.048981026 -0.0093485117 0.068421841
-0.049543962 -0.013532877 0.067500114
-0.0013462156 0.043552518 0.063961096
-0.0054071695 0.043350875 0.062606849
-0.048982248 -0.003398478 0.062928587
-0.0485733 -0.0084466934 0.06282708
-0.049214497 -0.011451483 0.064524353
-0.0037681907 0.04398185 0.058228917
-0.0064543337 0.043384373 0.059634693
-0.04883872 -0.003349781 0.058884233
-0.048674956 -0.0069982409 0.059698135
-0.0077639967 0.042726159 0.055522092
-0.012559816 0.040453196 0.054622956
-0.046954051 0.0038301945 0.054970115
-0.048954234 -0.0010426641 0.055293709
-0.049474254 -0.0040211678 0.052849494
-0.0094103068 0.04152298 0.051341534
-0.013693348 0.040717959 0.050565481
-0.018234983 0.039359331 0.050385237
