# .PCD v0.7 - Point Cloud Data file format
VERSION 0.7
FIELDS x y z
SIZE 4 4 4
TYPE F F F
COUNT 1 1 1
WIDTH 1354
HEIGHT 1
VIEWPOINT 0 0 0 1 0 0 0
POINTS 1354
DATA ascii
0.0076771975 0.039758801 0.30580267
0.0029917359 0.039545 0.30629966
-0.0016704798 0.040173888 0.30668464
-0.0070050359 0.040334523 0.3070572
-0.011858582 0.039047718 0.30646348
-0.016117454 0.037483275 0.30626392
0.021785498 0.04387477 0.30116367
0.017995775 0.044661105 0.30236644
0.012943923 0.045310706 0.30316469
0.008019805 0.044924915 0.30357811
0.0030912161 0.044433981 0.30397284
-0.0021298528 0.044159114 0.3035607
-0.0066536665 0.043401301 0.3037596
-0.01192528 0.042435288 0.30308363
-0.016260326 0.040844083 0.30208123
0.022458613 0.046613634 0.29765549
0.017672062 0.048503458 0.29861769
0.01450026 0.047953993 0.30043128
-0.0086550117 0.044792473 0.30106211
-0.012787461 0.044831812 0.30074412
-0.018336654 0.042955369 0.29877558
-0.021374583 0.042112142 0.29654476
0.026238739 0.04922235 0.29166651
0.02248019 0.049614221 0.29361352
0.01749146 0.050735056 0.29504636
-0.018881977 0.047162473 0.29530519
-0.021780252 0.044486463 0.29325718
0.02609247 0.051023126 0.28880143
0.02196008 0.053322494 0.28964418
0.018232644 0.054258525 0.28989431
-0.022727489 0.04794988 0.28912327
-0.026344717 0.046389073 0.28728032
0.026496768 0.054070979 0.28436065
0.021918416 0.056377769 0.28530931
0.01771152 0.056100428 0.28641877
-0.020931065 0.052530229 0.28677419
-0.023693562 0.051190555 0.2849569
-0.026852369 0.048931122 0.28416574
0.026010811 0.056142688 0.28037786
0.021665454 0.058300793 0.28099427
0.016762435 0.058200896 0.28155443
0.012561798 0.058795244 0.28014857
-0.019621134 0.054823995 0.28158483
-0.022924423 0.053494632 0.2808964
-0.027060151 0.050841749 0.28051957
0.024605334 0.057927012 0.27649757
0.021065652 0.058191389 0.27601677
0.016412616 0.059806228 0.27624586
0.011379242 0.060391188 0.27679345
0.00815624 0.061238348 0.27509886
-0.020047188 0.056167305 0.27622285
-0.0234586 0.054946512 0.27603695
-0.026868284 0.053030878 0.27651644
0.020249903 0.059394062 0.27284035
0.016117036 0.061274707 0.27170298
0.011294127 0.062957436 0.27216488
0.0080150366 0.063042879 0.27225104
-0.020452261 0.056951046 0.27153596
-0.023824871 0.05614391 0.27143291
0.015604317 0.062356472 0.26727483
0.010950983 0.063812762 0.26748988
0.0065189004 0.064811736 0.2680065
0.0010558367 0.065219194 0.26638606
-0.0088273287 0.064737856 0.26649138
-0.013574362 0.062913656 0.26734903
-0.018586576 0.06116128 0.267535
-0.022364199 0.057509214 0.26844376
0.014762521 0.064209163 0.26342168
0.010622978 0.064931899 0.26285702
0.0057669282 0.066040188 0.26321155
0.00089907646 0.066816837 0.26349351
-0.0038642883 0.066413403 0.26383159
-0.0093970299 0.065636635 0.26363248
-0.013789296 0.062443972 0.26306155
-0.018423498 0.060550719 0.26413807
0.013707221 0.06571871 0.25969759
0.010365248 0.067031384 0.25843504
0.0054234266 0.067046642 0.25854847
0.0006043911 0.06849432 0.25898904
-0.0043287277 0.068411678 0.25908044
-0.0094310045 0.066488683 0.25875089
-0.012836635 0.063610911 0.25980261
0.0090677738 0.068694592 0.25502536
0.0049413443 0.068800032 0.2545183
0.00042712688 0.068265796 0.25449499
-0.0051721334 0.067327499 0.25516394
-0.009365797 0.067599297 0.25507653
-0.012888253 0.026714027 0.32267097
0.012896001 0.029994577 0.31630197
0.010062575 0.031929433 0.31681573
-0.011362493 0.029533207 0.31913999
0.016325772 0.031502187 0.31267938
0.013475716 0.031689942 0.31252813
0.0088618994 0.031760693 0.31341815
0.0032205582 0.033403754 0.31320125
0.018029451 0.034909427 0.30821142
0.012666225 0.035295546 0.30904892
0.0079758167 0.03536278 0.30947807
0.0037779808 0.034991682 0.31091544
-0.018740952 0.032731771 0.30867589
-0.021274328 0.030857682 0.30808121
0.025849879 0.038134992 0.3032735
0.022622049 0.038247377 0.30441394
0.018210292 0.038852811 0.30592301
0.012876272 0.038090944 0.30694339
0.0078998804 0.037158698 0.30739716
-0.018974304 0.035182387 0.30431896
-0.021495938 0.032800794 0.30426577
0.026715994 0.040940434 0.30007279
0.023006737 0.041934907 0.30199406
-0.019052923 0.038372397 0.30089009
-0.021888614 0.036904991 0.30019736
-0.025338173 0.035024107 0.29879564
0.027194858 0.043629646 0.29622209
-0.023071527 0.039280117 0.2971226
-0.026646614 0.038612515 0.29505751
-0.031327307 0.03769654 0.29456979
-0.034651518 0.036738396 0.29525635
0.030127168 0.045474708 0.29007611
0.027085543 0.046938419 0.29309288
-0.024469972 0.042379171 0.29290989
-0.027572036 0.041360378 0.29116568
-0.031309545 0.039192438 0.29082286
0.030789852 0.048072398 0.28652722
0.028506935 0.049774468 0.28851426
-0.024603009 0.044218749 0.29004666
-0.02872479 0.04420501 0.28743705
-0.031721294 0.042499155 0.28662273
0.030603051 0.051477492 0.28234997
0.028373957 0.051843822 0.28569752
-0.029308975 0.04703635 0.28359312
-0.03207618 0.043902457 0.28204936
0.030199945 0.053391993 0.2782048
0.027963102 0.055500269 0.2783573
-0.028543115 0.049732476 0.27910897
-0.0313344 0.046532542 0.27737045
0.02923429 0.054984748 0.27334887
0.026205122 0.056685746 0.27394965
0.022701442 0.057878077 0.27328041
-0.028478861 0.05205363 0.27455965
-0.031698585 0.0482409 0.27398732
0.025232375 0.057579458 0.26932374
0.021023035 0.05902043 0.26969334
-0.028214872 0.053663194 0.2698276
0.024187326 0.059088945 0.26494178
0.020395756 0.060953915 0.2653529
0.017310381 0.062297463 0.2653906
-0.021011889 0.057058752 0.26586834
-0.024030983 0.056128174 0.265816
-0.027861357 0.05447197 0.26571736
0.01998812 0.061550021 0.26071933
0.016046286 0.063129157 0.260928
-0.016239226 0.060901344 0.26089749
-0.018746555 0.060550034 0.26087287
-0.021561861 0.056509554 0.26084098
0.01474005 0.063855082 0.25650945
0.011720777 0.066704512 0.25504661
-0.01490128 0.062263489 0.25658396
-0.019157767 0.061279476 0.25612244
0.013121009 0.064980656 0.25296196
0.010318995 0.067403495 0.25194868
0.0058204532 0.068805963 0.25238633
-0.00092536211 0.067883283 0.25149822
-0.0048722029 0.066913307 0.25197527
-0.010677755 0.06678167 0.25228354
-0.014660716 0.063727379 0.25219977
-0.018660665 0.061768353 0.25237817
0.0089023113 0.067930251 0.24776998
0.00476861 0.068261147 0.24837849
-0.00025618076 0.06807375 0.24773034
-0.0054879189 0.066690624 0.24765977
-0.0096715689 0.066687405 0.24820167
9.1075897e-05 0.068154454 0.24409601
-0.0024569631 0.067407072 0.24397227
0.01782763 0.026845694 0.31348732
0.019083977 0.028888345 0.31060678
0.027928829 0.031188548 0.30497101
0.024142504 0.031654596 0.30618548
0.020125806 0.032024443 0.30791581
-0.025827467 0.027511299 0.30534494
0.028646588 0.034391999 0.30176398
-0.022740066 0.032246888 0.30226761
-0.025833607 0.029111445 0.3017675
-0.031086862 0.028609753 0.30096519
0.031946599 0.036436111 0.29643172
0.029751897 0.037638307 0.2978178
-0.027813077 0.031285286 0.29816371
-0.031586051 0.031151086 0.29793701
0.032619834 0.039210558 0.29288927
0.030270755 0.041170359 0.29410389
-0.02823329 0.035054982 0.29482985
-0.031615376 0.034711897 0.29450464
-0.035691917 0.035049617 0.29227304
0.036417305 0.04102093 0.28667256
0.033486009 0.042621732 0.2888622
0.030171394 0.042765409 0.29198313
-0.033489525 0.037001789 0.29044676
-0.036144257 0.035622418 0.28861177
0.036341667 0.044576347 0.2841146
0.034062088 0.045328915 0.28463104
-0.033816755 0.039415032 0.28524858
-0.036739707 0.03645587 0.28391185
0.036492586 0.046965301 0.27929333
0.033720016 0.048343092 0.28084797
-0.034234047 0.041062623 0.27989432
-0.036927581 0.039323896 0.27959627
0.035847664 0.048974395 0.27522478
0.033101976 0.050410658 0.27627653
-0.033954918 0.043641537 0.276337
-0.037131786 0.042051077 0.27525547
0.035632253 0.050591946 0.2714726
0.032379448 0.052446693 0.27193049
-0.033631086 0.046678156 0.27124587
-0.036528528 0.04385519 0.27152553
0.035268068 0.054051369 0.26482812
0.031912804 0.054287851 0.26692465
0.028216958 0.055607408 0.26827368
-0.033198714 0.04843235 0.2675142
0.035155952 0.05411914 0.2631965
0.031340003 0.056341201 0.26235873
0.027319252 0.057716012 0.2636129
-0.023203135 0.054296881 0.26284498
-0.028869867 0.05223459 0.26250598
-0.032196224 0.049986303 0.26306459
0.030325651 0.058477342 0.25808778
0.026681304 0.059557259 0.25910112
0.022386312 0.060274035 0.25924939
-0.023927569 0.055083871 0.25912836
-0.028526127 0.053859472 0.25824955
-0.032188714 0.051833779 0.25836459
0.029682994 0.059364259 0.2545816
0.026006937 0.060764551 0.25443652
0.021404505 0.06156978 0.2544516
0.016898632 0.061876416 0.25450718
-0.023886979 0.056669831 0.25410452
-0.028090477 0.054912001 0.25351816
0.020815313 0.062407732 0.24906731
0.015941441 0.062996805 0.24971685
0.012881279 0.06443435 0.25035721
-0.015591264 0.062046796 0.24961588
-0.019532919 0.060537636 0.24934444
-0.024212122 0.057320654 0.25034639
0.014918566 0.064594328 0.24453279
0.01196754 0.065093726 0.24555621
0.0025756955 0.066349447 0.24525449
-0.0040852427 0.06602186 0.24533185
-0.0091183782 0.065342307 0.24528441
-0.014567018 0.063039005 0.24567977
-0.018149376 0.06045121 0.24596635
0.01467067 0.06488657 0.24127147
0.0093883872 0.066327572 0.24217209
0.0055821538 0.066877425 0.24114802
0.00072705746 0.066987365 0.24079275
-0.0045725703 0.066706359 0.24112323
-0.0094732642 0.065691352 0.24121517
-0.013773143 0.063876688 0.24114552
-0.0014442205 0.066773832 0.23711517
-0.0043891668 0.066828132 0.23678204
-0.0081472397 0.066239268 0.23714375
0.029015005 0.024810612 0.30775622
0.024013758 0.02480644 0.30824077
0.020862222 0.026049465 0.31010592
0.032072783 0.026580423 0.30275929
0.030101478 0.027387083 0.30414441
0.036920488 0.028671861 0.29899323
0.033825696 0.029632479 0.29942098
0.030469716 0.031873703 0.30128932
-0.028417349 0.025697589 0.30121028
0.036615968 0.032259971 0.29314891
0.033866286 0.033752233 0.29639405
0.037158847 0.035119504 0.29009026
0.035023272 0.036917984 0.29241779
0.041199088 0.037493497 0.28426513
0.038449168 0.037600279 0.28620604
-0.037462831 0.03290993 0.28811806
-0.039775133 0.029763997 0.28510842
0.041438401 0.039255977 0.2809214
0.038788021 0.041123867 0.2820805
-0.039862394 0.032734156 0.28160247
0.040788949 0.041237473 0.27681652
0.038576186 0.043090105 0.27822021
-0.041915774 0.035513669 0.27775276
0.040589094 0.043248713 0.27311844
0.037994981 0.045048475 0.27319118
-0.040638089 0.039011538 0.27387348
0.037271261 0.047606617 0.26805857
-0.038259268 0.042155445 0.26939157
-0.041428864 0.039988726 0.26833478
0.036558747 0.049824744 0.26497295
-0.037987709 0.043896019 0.26462576
-0.042071521 0.041933537 0.26325795
0.035756946 0.052633286 0.2603716
0.033309937 0.054166496 0.26076815
-0.033976018 0.047771454 0.26079375
-0.037527442 0.046169817 0.26023445
-0.042357206 0.043554097 0.26044494
0.034673214 0.054962724 0.25594154
0.032470226 0.055663228 0.25615221
-0.03382194 0.049350739 0.25562087
-0.036845624 0.047278017 0.25626513
0.030628979 0.057050288 0.25131688
0.026941299 0.059526116 0.25136051
-0.030193627 0.052787632 0.25273702
-0.032061994 0.050800323 0.25097975
0.029700935 0.057896852 0.24623457
0.025799155 0.059584856 0.24723098
0.022357404 0.06020847 0.24579257
-0.024230838 0.055636764 0.246849
-0.028168321 0.053940147 0.24712846
0.024910688 0.059764981 0.24167478
0.020502925 0.061118245 0.24299026
0.017271399 0.062297106 0.24391404
-0.020102918 0.058735847 0.24359185
-0.023465872 0.056328416 0.24201921
-0.027449906 0.054758072 0.24256629
0.019588292 0.061907351 0.23798338
0.015480161 0.062256455 0.23779687
0.011016011 0.063053548 0.23859534
-0.015811324 0.061980665 0.23876867
-0.019411504 0.060197175 0.23876649
-0.022064209 0.058765829 0.23727039
0.015377402 0.063276649 0.23356509
0.010442078 0.063812554 0.23392537
0.0054445267 0.065093517 0.23413375
0.00045150518 0.065207571 0.23442796
-0.0054857135 0.065228313 0.23413312
-0.010136068 0.0644297 0.23505196
-0.014248013 0.06307435 0.23387036
-0.018746316 0.061257571 0.23337907
-0.022289932 0.059785843 0.2341648
0.0095315576 0.06490463 0.22962394
0.0062057376 0.064815998 0.23010716
0.00058996677 0.064883262 0.22984269
-0.0041128993 0.064770341 0.2297205
-0.0091514587 0.064344525 0.22933224
-0.013707757 0.063445866 0.22898185
-0.018346608 0.062262118 0.22963616
0.028939128 0.020245612 0.30901089
0.026431203 0.020579755 0.30910698
0.0326913 0.02229023 0.30551761
0.030118883 0.022196829 0.30689347
0.03694737 0.026581407 0.30024531
0.034552336 0.025625706 0.30255154
0.038129866 0.026934445 0.29768527
0.042056084 0.029598355 0.2914699
0.038438559 0.029415965 0.29320234
0.047487199 0.03328976 0.28715485
0.043437302 0.032000273 0.28807792
0.039727747 0.032905161 0.28913575
0.046807408 0.03445226 0.28323683
0.043117285 0.035546809 0.28478479
-0.043575168 0.028252244 0.28242674
0.046802402 0.036637068 0.27988505
0.04343307 0.037387967 0.27982453
-0.042555094 0.03014034 0.28081033
0.043120563 0.038781703 0.27461883
-0.045343876 0.032563388 0.27757278
0.042067051 0.041458488 0.27056664
0.041039824 0.044553339 0.26677188
0.038699031 0.04508841 0.26941833
-0.044347167 0.036700487 0.26768935
-0.044767499 0.036308289 0.26429558
0.04076916 0.046184361 0.26214954
0.038316548 0.04816106 0.26263893
-0.043552279 0.040009528 0.26424786
-0.046550155 0.038362145 0.26145729
0.039810896 0.047576964 0.25998315
0.038490295 0.049074918 0.25772813
-0.042964578 0.042392254 0.25728366
-0.045746803 0.040276051 0.25686651
0.036813438 0.050984502 0.25366876
-0.038730979 0.044834286 0.25341079
-0.042078853 0.041760892 0.25322205
0.034852624 0.053510129 0.24942473
0.032552719 0.055576265 0.24946484
-0.034563541 0.047813296 0.24999976
-0.037126184 0.045061231 0.24940878
0.032844186 0.055550694 0.24462903
-0.030387461 0.050629139 0.2447066
-0.033223987 0.048553437 0.24463034
0.030536056 0.057296216 0.24068978
0.027801394 0.059143007 0.24037063
-0.024569631 0.055658311 0.23991925
-0.029492974 0.052671731 0.24001715
-0.032489121 0.050733715 0.24057338
0.026444197 0.058948368 0.23634732
0.022655725 0.060486078 0.23627815
-0.024967253 0.055122018 0.23642197
-0.027605176 0.0532417 0.23685798
0.025595725 0.059859693 0.23300108
0.021119356 0.061113477 0.23222175
0.016864061 0.06234163 0.23159534
0.012963057 0.063022107 0.23158652
-0.024050653 0.057139277 0.23217747
0.020247817 0.061567783 0.22848114
0.015801191 0.063080907 0.22750226
0.011170208 0.063566446 0.22732246
0.0059126616 0.064243197 0.22699749
0.00082701445 0.064546496 0.22635952
-0.0041609406 0.065076292 0.22662756
-0.0075317025 0.064857066 0.22665563
-0.01517117 0.063782096 0.22656593
-0.01972729 0.061370909 0.22725597
-0.022969246 0.059715331 0.22738841
0.014058053 0.063364565 0.22400337
0.010113835 0.064518124 0.22327653
0.0056019425 0.064855307 0.22291598
0.00053155422 0.064556301 0.22296676
-0.0045423508 0.064197898 0.22300169
-0.0095779896 0.064232141 0.2231414
-0.014734864 0.062983274 0.22293958
-0.019658566 0.061837465 0.22297183
-0.023244023 0.061083049 0.2235018
0.0053423047 0.065211296 0.21960396
0.00028133392 0.066005528 0.21909884
-0.0048261881 0.065305054 0.21904176
-0.0095489621 0.064978749 0.21924815
-0.014142573 0.063741714 0.21971539
0.048980594 0.031717479 0.28216502
0.048780084 0.033030748 0.2763676
0.045754135 0.035262674 0.27715471
0.048319101 0.034810811 0.27179894
0.045498967 0.035627395 0.27309203
0.047288537 0.035949051 0.26771504
0.044501662 0.036701709 0.26784816
0.044139802 0.039637089 0.26397982
0.043079138 0.042971373 0.25971922
0.051155984 0.044658184 0.2523706
0.047113717 0.04403156 0.25332722
0.041961074 0.044603765 0.25508305
-0.047087073 0.038562357 0.25650725
0.045925498 0.045819342 0.2502279
0.041276693 0.045101225 0.251008
0.038799703 0.04762429 0.25122967
-0.042637587 0.039473027 0.25023812
0.037736535 0.048910767 0.24668339
-0.03795886 0.043351054 0.24633035
-0.041181922 0.040886164 0.24682853
0.036137164 0.05043295 0.24225643
-0.038046718 0.043436587 0.24229789
0.035082936 0.051102042 0.23905477
0.032675028 0.053517282 0.23767295
-0.03330934 0.049194425 0.23809794
-0.03655386 0.044817597 0.23921099
0.031408191 0.055293739 0.23339233
0.028095961 0.058065355 0.23332915
-0.029130757 0.051267415 0.23351297
-0.032226682 0.048408866 0.23433837
0.030027747 0.056022465 0.22963521
0.026106656 0.058306128 0.22918627
0.022198081 0.059786379 0.22910178
-0.024840593 0.055601776 0.22890988
-0.027471602 0.052049607 0.22924584
0.024966776 0.058726966 0.22505525
0.020739675 0.060022265 0.22464901
0.017391205 0.061674833 0.22431979
-0.025202155 0.056197584 0.22481146
-0.027163029 0.053717256 0.22420323
0.019113421 0.060129255 0.22000673
0.015394032 0.061706513 0.22044215
0.010894597 0.062952459 0.21998402
-0.019475698 0.060922205 0.21908692
-0.023946106 0.059803873 0.22032693
0.015077233 0.061429143 0.21659634
0.0091733932 0.061867446 0.21687296
0.0054894686 0.063339531 0.21584544
0.00030273199 0.064150453 0.21503517
-0.0048674345 0.064315259 0.21551368
-0.0096057653 0.063791037 0.21583834
-0.01433152 0.06207028 0.21602198
-0.019003153 0.059757054 0.21617848
-0.024047852 0.059601337 0.21663731
0.00629282 0.0630624 0.21210977
0.0012183189 0.063178599 0.21227935
-0.0038386583 0.063429147 0.21248606
-0.0088617802 0.063530505 0.21308017
-0.013240814 0.06232208 0.21242973
0.052881777 0.029087543 0.27465671
0.05062294 0.031050891 0.27454546
0.053104818 0.032339871 0.27095142
0.050512195 0.032647073 0.27237794
0.052177072 0.033204436 0.26594225
0.049527347 0.035483718 0.26681831
0.048047245 0.036666751 0.26262495
0.04627037 0.038259685 0.257763
0.044564843 0.038303196 0.25780889
0.051114917 0.039318204 0.25283393
0.048357248 0.041286409 0.25390753
0.044327915 0.040920794 0.25335044
0.050987482 0.042225182 0.25012276
0.048006117 0.044468164 0.24877873
0.042927802 0.043794811 0.24841502
-0.044921398 0.035794914 0.24824747
0.046141088 0.044297397 0.24506935
0.041564226 0.044697165 0.24470466
0.038688898 0.047729045 0.24323729
-0.042972922 0.038542926 0.24419656
-0.046981096 0.035146475 0.24341413
0.040104628 0.046121359 0.23941216
0.038020611 0.048081756 0.23951635
-0.038430691 0.043256819 0.23887059
-0.042861164 0.040130198 0.23990777
-0.046839595 0.037222654 0.2398586
0.03629899 0.049798787 0.2355099
-0.035181344 0.045186639 0.23586974
-0.038207948 0.04311198 0.23579997
-0.041911006 0.041642636 0.23557016
-0.045835495 0.0396595 0.23645279
0.035372317 0.051610678 0.23064825
-0.03048712 0.048037112 0.2296513
-0.033255339 0.046293497 0.23063913
-0.037570417 0.042404413 0.23180944
0.034877479 0.053059995 0.22703347
0.03129679 0.054907382 0.22665015
-0.028818309 0.050924182 0.22693589
-0.032022476 0.047073603 0.22658285
0.029817581 0.055096656 0.22311237
0.027038693 0.056986332 0.22217935
-0.02908659 0.051640928 0.2237021
-0.031089544 0.050471008 0.22172293
0.024941206 0.0591425 0.21872595
0.021353364 0.060231477 0.2192024
-0.028650045 0.05417636 0.21871927
-0.031829059 0.051964521 0.21740142
0.02495271 0.059130371 0.21310744
0.021198571 0.060299873 0.21423781
0.016756415 0.060933948 0.21345547
0.01151377 0.061531186 0.21450219
0.0080758333 0.062320799 0.21358123
-0.019350708 0.058813334 0.21334061
-0.024555445 0.057633787 0.21315193
-0.028389037 0.055386662 0.21349362
-0.031666219 0.053156257 0.2138311
0.015657902 0.060919225 0.20981085
0.011135042 0.061519444 0.20981303
0.0061017275 0.062673092 0.21005866
0.00097221136 0.062897027 0.209613
-0.0041558146 0.062427402 0.20962003
-0.0093351007 0.061406553 0.20947215
-0.014727354 0.060385466 0.20970127
-0.019123077 0.058285832 0.20950541
-0.023180902 0.056758553 0.21056065
0.0099902153 0.062333584 0.20573375
0.0053043365 0.062841207 0.20494434
0.0005685091 0.062518179 0.20517683
-0.0045511723 0.062296927 0.20525542
-0.0096119642 0.061637551 0.20457202
-0.014276206 0.060692549 0.20564333
-0.016702056 0.05963254 0.20482573
-0.0005568862 0.062826753 0.20181254
-0.0048475266 0.062871367 0.20150945
0.053391576 0.031456351 0.26369551
0.056582749 0.03169924 0.2594634
0.052848697 0.031928658 0.26026794
0.049959481 0.03205204 0.25798973
0.056421459 0.033387065 0.2564559
0.051124632 0.033906668 0.254145
0.048815727 0.034701735 0.2555618
0.05078423 0.040441841 0.24716571
0.049756527 0.039903164 0.24450824
-0.047221541 0.033284366 0.2451624
0.047016382 0.040828109 0.24171892
0.043274045 0.041887641 0.24115068
0.042645931 0.042534292 0.23744664
-0.047739148 0.036607742 0.23745164
0.040730596 0.04561466 0.23345247
0.039065897 0.046704948 0.23216781
-0.042932868 0.039491624 0.23205885
0.041134834 0.045923471 0.2290509
0.038584888 0.048016548 0.22878715
-0.038145781 0.042244077 0.22883877
-0.041874588 0.039907426 0.22887096
0.036593437 0.049755871 0.22411612
0.034085572 0.05251348 0.22404322
-0.03409636 0.045377254 0.22447011
-0.037737548 0.042161286 0.22443607
0.03544724 0.049900234 0.21985734
0.032409608 0.05234623 0.21972159
-0.034038067 0.047031045 0.22088084
-0.037594914 0.043895066 0.2195572
0.030509472 0.053049803 0.21562633
0.027793705 0.055734396 0.21608329
-0.034276366 0.049580753 0.21638384
-0.036142111 0.046842813 0.21452641
0.02983135 0.054227471 0.21161762
0.026912451 0.05620718 0.21112558
0.022200227 0.059163153 0.21058804
-0.029435158 0.05347243 0.21038762
-0.033161044 0.050932884 0.2111685
0.025475502 0.057128787 0.20713851
0.021041691 0.058445543 0.20693293
0.016279757 0.060167938 0.20650849
0.012495279 0.060592115 0.20603713
-0.020194292 0.057129592 0.20594737
-0.02388835 0.055022627 0.20697269
-0.027712822 0.052589655 0.20704138
0.019869208 0.058683306 0.20266303
0.015418351 0.060220778 0.2025736
0.010750294 0.061128229 0.20224881
0.0064972639 0.061562777 0.20182848
0.0019752383 0.062539041 0.20165759
-0.014016509 0.059573621 0.20167884
-0.019049406 0.057240903 0.20223412
-0.023741663 0.0548639 0.20294818
0.0144732 0.060056776 0.19882765
0.010139167 0.060792148 0.19791114
0.0055589676 0.061152369 0.19764504
0.00029814243 0.062540054 0.19802913
-0.0045907497 0.062396348 0.19830188
-0.0088670254 0.061706305 0.19800028
-0.013989985 0.059240669 0.19763669
-0.018064439 0.057257026 0.19833964
0.0047340393 0.061660171 0.19430235
0.0010448098 0.0627321 0.19347149
-0.0039022565 0.062560171 0.193059
-0.0088276863 0.061627388 0.19342485
-0.00070112944 0.063540697 0.18973485
-0.0041542649 0.063213408 0.1897364
0.054858983 0.027091742 0.26018491
0.05645895 0.030489922 0.25750574
0.052805662 0.030316263 0.25414801
0.050377131 0.03506285 0.24162766
0.04858166 0.038177669 0.23984364
0.046585798 0.03980577 0.23513058
0.044047296 0.041232824 0.2355465
0.046265602 0.041625828 0.22955558
0.04383564 0.043078244 0.23170927
-0.045145869 0.036220074 0.23042387
0.046077311 0.042515755 0.22632384
0.042912126 0.044997573 0.22682545
-0.043804228 0.037056118 0.22628704
-0.045529008 0.036190927 0.22697023
0.042169094 0.045207977 0.22241035
0.038572311 0.047758818 0.22224307
-0.038748562 0.041746497 0.22132578
-0.04254365 0.039114296 0.22224364
-0.046389759 0.037627876 0.22173297
0.040419817 0.04647702 0.21794322
0.037217379 0.049056172 0.21763054
-0.038981795 0.043608367 0.2174899
-0.042500496 0.04016459 0.21774095
-0.04675287 0.038514912 0.21762577
0.036516488 0.050293386 0.2131905
0.032677174 0.052935809 0.21345052
-0.038128436 0.043498695 0.21351656
-0.041387677 0.040249586 0.21402687
0.035412788 0.051718414 0.20849627
0.031545997 0.053769946 0.2086055
-0.032823741 0.047836274 0.20714948
-0.036250353 0.045508027 0.2092149
0.034505606 0.052756488 0.2049512
0.030461073 0.05412513 0.20427951
0.02677846 0.055920064 0.20430669
-0.029524446 0.049838632 0.20411912
-0.031982899 0.047291458 0.20463219
0.029016554 0.055271029 0.199662
0.025438786 0.056816548 0.19968161
0.021384478 0.057864308 0.200335
0.017122149 0.059124798 0.20023695
-0.024466753 0.053863764 0.19986925
-0.027832866 0.05173102 0.19984472
0.020247281 0.058918774 0.19612554
0.016149998 0.060254931 0.19657624
0.012538731 0.060905337 0.19561484
-0.019384742 0.057000279 0.19668898
-0.022952437 0.054519951 0.19532064
-0.02761817 0.051767021 0.19581762
0.016680777 0.060537398 0.19149932
0.011406183 0.060990393 0.19214243
0.0064884424 0.061514556 0.19222233
0.0019403696 0.06257689 0.19113126
-0.010127485 0.061679006 0.1912111
-0.014463961 0.059413701 0.1924175
-0.018931746 0.057577848 0.19199494
-0.022635877 0.056595206 0.19003507
0.015207052 0.061880171 0.1873416
0.011058688 0.062067389 0.18716615
0.0058962703 0.062057972 0.18731597
0.00095266104 0.062259674 0.18730143
-0.004365921 0.062787086 0.18762013
-0.0095818639 0.061784744 0.18768796
-0.014885306 0.060139179 0.18734077
-0.019244373 0.059449553 0.18725786
-0.022876859 0.057560563 0.18678555
0.009055078 0.062123179 0.18368641
0.0053377748 0.063158631 0.18284693
0.00038766861 0.063277513 0.18252358
-0.0047712326 0.063267112 0.18267605
-0.0093894601 0.062286168 0.18310186
-0.014259338 0.061122358 0.18407235
-0.017777026 0.060298741 0.18392152
0.051913023 0.029577434 0.23941395
0.051785946 0.030681133 0.23708811
0.049433231 0.032613873 0.23617047
0.049052775 0.034336209 0.23146349
0.048290431 0.03708005 0.22835097
0.046722651 0.038960338 0.22364855
0.043022931 0.04362011 0.21885821
-0.047942281 0.035204917 0.22156894
0.042108595 0.044439495 0.21450964
-0.044053257 0.038768709 0.21456766
-0.046006799 0.037675619 0.2134465
0.041626215 0.046049237 0.20991391
0.038287818 0.049351573 0.21091631
-0.039189816 0.040199578 0.2104471
-0.041934729 0.038134396 0.21083203
-0.045538127 0.036123365 0.21125352
0.037989259 0.04914242 0.20647311
-0.037827849 0.04183948 0.20559415
0.035988688 0.050712109 0.20197576
0.032553375 0.052477419 0.20184276
-0.033834338 0.045493752 0.20211315
-0.036419868 0.043053806 0.20148769
0.036342323 0.052346587 0.19630209
0.032323062 0.05339992 0.19814107
0.028872669 0.056115448 0.1972644
-0.030284524 0.048628688 0.19762257
-0.032125473 0.046026647 0.19868594
0.031432211 0.053696543 0.19352373
0.026880383 0.05588156 0.19370985
0.022998452 0.056642711 0.19360495
-0.02525115 0.053033501 0.19258493
-0.027941108 0.051247865 0.19301528
-0.030730903 0.047852635 0.19386134
0.030007184 0.055390537 0.18902716
0.026330709 0.056501925 0.18880144
0.021397233 0.057594508 0.18905312
-0.025421023 0.054669112 0.18953249
-0.028263152 0.052321911 0.18890432
0.024567902 0.057031214 0.185222
0.020800173 0.057776332 0.18428567
0.016518176 0.060514778 0.18415239
0.011618853 0.061794221 0.1835075
-0.020461798 0.059259892 0.18367895
-0.024349689 0.056232512 0.18412918
-0.028315723 0.052982509 0.18494549
0.019087672 0.059099048 0.18065542
0.015105724 0.060598612 0.17970905
0.01045239 0.061521828 0.17988363
0.0055579543 0.061942905 0.17909104
0.00087350607 0.062389672 0.17865989
-0.0098243356 0.0610677 0.17916325
-0.01396054 0.058758676 0.1797519
-0.019232333 0.056975603 0.18024805
-0.023669362 0.055013388 0.18066391
0.010114968 0.060803384 0.17607993
0.00493747 0.061521649 0.17601794
0.00064146519 0.062000692 0.17615169
-0.0041893721 0.062137127 0.17694119
-0.0086382627 0.060738266 0.17591539
-0.012549102 0.058883071 0.17616248
0.054644644 0.028577328 0.23858914
0.058589995 0.03252244 0.2339102
0.053347707 0.029261231 0.23422396
0.056681335 0.034066677 0.23086461
0.052621245 0.03080225 0.23014438
0.051233888 0.033467859 0.22736123
0.050228 0.034299195 0.2249774
0.048412919 0.035835207 0.22069168
0.045581937 0.037346661 0.21975756
0.052249193 0.037422925 0.21433032
0.049119353 0.038413703 0.21665755
0.045483828 0.03938508 0.21766874
0.047916889 0.039729953 0.21254471
0.045201004 0.040825456 0.21278739
0.044918537 0.04064104 0.20833215
-0.042423725 0.03571561 0.20841429
-0.046013594 0.033905566 0.20889035
0.041966319 0.045042574 0.20468175
0.039520502 0.046939015 0.20404664
-0.039096236 0.040017664 0.2033473
-0.041042447 0.03672418 0.2042383
-0.044592142 0.034508824 0.20548409
0.040987372 0.044237614 0.20057806
0.038539231 0.047629744 0.19948661
-0.037683606 0.040878832 0.199568
-0.040326595 0.03774333 0.19918248
0.038513482 0.049335241 0.19455665
-0.033730447 0.043782383 0.19505686
-0.036744297 0.041744977 0.19534507
0.035950541 0.05152297 0.19072711
0.03315872 0.053861618 0.19115004
-0.032763362 0.045073628 0.19041994
0.035041749 0.05272308 0.18717986
0.031554997 0.054649055 0.18652239
0.028131008 0.056342512 0.18669352
-0.031455398 0.048597276 0.18607894
0.029496789 0.055179119 0.18181571
0.026358128 0.056654394 0.1830385
0.021773338 0.058262289 0.18210614
-0.029169381 0.052623093 0.18247366
0.024968445 0.056750715 0.17884418
0.020836711 0.058196723 0.17829865
0.01719594 0.059838414 0.17825323
-0.019521296 0.05664283 0.17746124
-0.02395469 0.054788947 0.17790744
-0.028167486 0.052336693 0.17867678
0.019519985 0.058569044 0.17507997
0.015484333 0.060135782 0.17389992
0.010001957 0.06178993 0.17408589
0.0058995485 0.061743766 0.17351198
0.0012181997 0.061587632 0.17300627
-0.0040176511 0.061091214 0.17300856
-0.0097248554 0.059749603 0.17320329
-0.014275968 0.057646543 0.17401913
-0.018428862 0.056043208 0.17340836
-0.022904873 0.054636627 0.17392334
0.01486361 0.060236871 0.1703392
0.011305511 0.061155081 0.16893831
0.0061249137 0.061615884 0.16925064
0.00089639425 0.061368942 0.16933402
-0.0044115186 0.060173512 0.16911077
-0.0094282031 0.059637636 0.16931897
-0.013751268 0.058625996 0.16863975
-0.018271148 0.057339638 0.16913852
-0.021990538 0.056159139 0.17016578
0.0093615055 0.062313259 0.16575453
0.0058230162 0.062491924 0.16501793
0.00030529499 0.062225938 0.16471633
-0.0045034885 0.061159998 0.16451609
-0.0091924071 0.06060639 0.16396287
-0.01329577 0.060035408 0.16442356
-0.018797934 0.058413774 0.16536042
0.056107163 0.026534349 0.23190922
0.054645538 0.027840018 0.22672382
0.052733421 0.029851556 0.22377133
0.052985251 0.03105104 0.21791232
0.050805569 0.033158749 0.22028288
0.053301513 0.034928709 0.21469033
0.052891254 0.036367536 0.2104896
0.049646914 0.037924081 0.20981982
0.047554493 0.037468493 0.20631766
0.044733226 0.040081859 0.20552203
-0.043011546 0.032550544 0.20578066
-0.04663372 0.032103747 0.20486543
0.043328702 0.041307658 0.20145991
-0.043328881 0.033811331 0.20170093
-0.045394242 0.030477881 0.20170373
0.041607261 0.04351002 0.1967856
-0.042880237 0.03502813 0.19668576
0.040482402 0.044566303 0.192651
-0.038541198 0.038789093 0.19319004
-0.040828347 0.037614942 0.19236982
0.038122416 0.048370689 0.18891597
-0.035054684 0.04276979 0.18979642
-0.037515819 0.041087896 0.18910763
0.036219537 0.049856186 0.18483821
0.033038497 0.052398682 0.18355027
-0.033646107 0.044664383 0.18494421
-0.037107289 0.042774439 0.1846945
0.034539998 0.050948441 0.18035495
0.031349182 0.052699655 0.18008986
0.027520895 0.054380476 0.1789262
-0.033011913 0.045555353 0.18015528
-0.035951257 0.042997181 0.18089661
0.030732512 0.052415788 0.17549893
0.027076483 0.054718226 0.17523131
0.022879481 0.056429476 0.17429551
-0.028932393 0.050571471 0.17492113
-0.031833768 0.047229588 0.17485651
0.026555598 0.054683357 0.17135748
0.021517158 0.056062758 0.17082101
0.01765126 0.057712018 0.17003796
-0.024931729 0.053355157 0.17079911
-0.028027534 0.050595492 0.17082104
0.01966691 0.056641668 0.16629124
0.016442597 0.058336467 0.16626444
-0.019648969 0.056931496 0.16671637
-0.023265004 0.054809183 0.16704318
-0.026203096 0.052620828 0.16550732
0.014953136 0.059892088 0.16258827
0.011073709 0.061113596 0.1632556
0.0055152178 0.061375439 0.16192743
0.0011608601 0.061409771 0.16207883
-0.0058206916 0.061200202 0.16223302
-0.014634252 0.059960902 0.16210189
-0.01914978 0.057493627 0.16233397
-0.023524284 0.055648983 0.16368449
0.014083743 0.061129034 0.15974271
0.010221839 0.060946912 0.15849844
0.0052170753 0.06136331 0.15827861
-1.680851e-05 0.061401069 0.15846202
-0.0043888688 0.061275244 0.15856168
-0.0087905526 0.060784549 0.15853858
-0.013899028 0.059556782 0.15851784
-0.017733157 0.05762881 0.15867755
-0.003012836 0.060637116 0.15463471
-0.0091870427 0.060003579 0.15462086
-0.012661636 0.060205489 0.15480426
0.054366469 0.026820362 0.22207174
0.054104805 0.028822511 0.21729672
0.053000808 0.033159018 0.20783338
0.051604986 0.032788247 0.20419613
0.048502564 0.034427524 0.20269129
0.046036959 0.034677029 0.19950247
0.044833064 0.037182182 0.19845247
-0.04576689 0.029827893 0.19884786
0.045781732 0.037081033 0.19480747
0.044498742 0.039101779 0.19497845
-0.046098232 0.031021804 0.19471505
0.04235673 0.041320533 0.19074258
-0.042538524 0.03460449 0.19207165
-0.04549706 0.031617105 0.19001383
0.040950179 0.044361264 0.18628088
-0.042174459 0.035891026 0.18613872
-0.046141863 0.033551991 0.18555006
0.040855944 0.045767725 0.18164566
0.037716269 0.046649814 0.18104342
-0.039116561 0.040345132 0.18077499
-0.042691946 0.036337912 0.18085718
-0.045303106 0.035693586 0.18164399
0.040749848 0.047595382 0.17761764
0.037514687 0.048012316 0.17640617
0.033427477 0.049797207 0.177315
-0.034722149 0.04254967 0.17619029
-0.037488818 0.040572017 0.17656216
-0.042023659 0.039522529 0.17606899
0.035719514 0.048791349 0.17238083
0.032861233 0.051382661 0.17394069
-0.033810735 0.043270975 0.17305484
0.032205522 0.052392781 0.16871271
0.027120113 0.053724527 0.16857335
0.023258924 0.05470112 0.16828117
-0.0296489 0.049006641 0.16899511
-0.031496465 0.04732874 0.16942081
0.030876875 0.052734762 0.16465959
0.02646476 0.0538252 0.16423932
0.021772146 0.055581689 0.16470376
-0.029271603 0.048613727 0.1642876
-0.031933248 0.046708107 0.16557959
0.024837136 0.054789901 0.15956396
0.02094543 0.056550443 0.15981743
0.017045677 0.057962418 0.15995762
-0.019623995 0.055383205 0.15889946
-0.023649335 0.053044468 0.15897709
-0.027576923 0.051048934 0.15990397
0.020605445 0.057643592 0.1546782
0.015443802 0.059431791 0.15545523
0.010521293 0.060547411 0.15489408
0.0065952539 0.060388744 0.15423366
0.0013052225 0.059951782 0.15425798
-0.0092639923 0.059175283 0.15433985
-0.016330004 0.057586372 0.15494794
-0.019178629 0.056590617 0.15525338
-0.022919834 0.053319931 0.15536776
0.015656292 0.058734655 0.15090701
0.011298597 0.059413552 0.15028429
0.0061194897 0.05994159 0.15077618
0.0009893775 0.059835672 0.15054134
-0.0044286251 0.059690595 0.15103999
-0.0097782016 0.059292138 0.1509423
-0.014116049 0.058462203 0.15109459
-0.018356919 0.056698859 0.15033081
-0.022070944 0.055359572 0.15160903
0.0059933662 0.060282648 0.14683172
0.00070530176 0.060123444 0.14695382
-0.0050688982 0.059832424 0.14658299
-0.0087393522 0.060142249 0.14635083
-0.013160825 0.058988422 0.14628127
-0.017038465 0.058142245 0.14685676
0.053358495 0.030100942 0.2042971
0.056727171 0.028963566 0.20119569
0.053776145 0.030108809 0.20129541
0.051282227 0.030590951 0.19909945
0.048894882 0.032497942 0.19700414
0.045902729 0.033951968 0.19750282
0.054529846 0.033155441 0.19342658
0.048646271 0.035665214 0.19225374
0.045572698 0.037494332 0.19132829
0.04846561 0.035203695 0.18830836
0.044632554 0.037893832 0.18749309
-0.047715545 0.030552328 0.18831542
0.044393599 0.039465845 0.18325201
-0.047074556 0.031759828 0.18503687
0.043160617 0.041810632 0.18000057
0.04243511 0.044266462 0.17485839
-0.042212427 0.03726545 0.17628035
0.040842533 0.045764565 0.17034662
0.03787452 0.047879755 0.17085072
-0.033605516 0.0426552 0.16981059
-0.037450075 0.04030776 0.17077744
-0.041683674 0.037874728 0.1707274
0.04059422 0.046894312 0.166127
0.037063122 0.048371792 0.16602519
-0.033979535 0.042620242 0.16614497
-0.037948132 0.040480196 0.16610071
-0.041957378 0.039152324 0.16588354
0.031876206 0.051690489 0.16152975
-0.032439649 0.045508474 0.16152808
0.030220509 0.052745879 0.1569272
0.027109265 0.053842694 0.15834543
-0.029804766 0.048698932 0.15882275
-0.031608105 0.046278536 0.1574564
0.029755175 0.053465784 0.15233943
0.025766432 0.055318713 0.1537185
-0.024741292 0.052537471 0.15350029
-0.028443813 0.050024629 0.15368852
0.025445044 0.054267466 0.14966124
0.021400213 0.056311011 0.14890686
0.017214239 0.057708263 0.1486477
0.013113678 0.059354275 0.14812174
-0.0206213 0.05577141 0.1480023
-0.023561418 0.053255677 0.14870986
-0.027062118 0.05067122 0.14923108
0.015715122 0.05777666 0.14438549
0.011082709 0.059616089 0.14456812
0.0057784319 0.06040743 0.14409885
0.00044709444 0.059795499 0.14406341
-0.0039994121 0.059259206 0.14402464
-0.0084427595 0.059652537 0.14338592
-0.01424998 0.058250546 0.14355144
-0.019138992 0.056462467 0.14447966
-0.02287674 0.05397591 0.14419609
0.014291167 0.059070468 0.1405395
0.010140419 0.06009534 0.13980153
0.0057249069 0.060741574 0.14009526
0.00096052885 0.060005844 0.13946179
-0.0037543774 0.059404671 0.13940933
-0.0087720156 0.059625655 0.13966054
-0.013676167 0.057694882 0.14053938
-0.018706024 0.055462897 0.14038292
0.053854704 0.028999448 0.19767669
0.053510904 0.029886901 0.19468448
0.05096823 0.030806601 0.19375145
0.052993834 0.032324672 0.19005549
0.050856769 0.032626927 0.19156504
0.052323759 0.032847553 0.18613574
0.048984766 0.033519566 0.18491152
0.047131598 0.035039395 0.18101007
0.046527743 0.036223918 0.1781877
0.044719219 0.038823575 0.17720959
0.043952823 0.040184647 0.17169723
-0.044810116 0.03418535 0.17112052
0.043264866 0.042231947 0.16730526
-0.043203473 0.03602007 0.16797957
0.041670501 0.044683546 0.16260788
0.036838591 0.046252847 0.16327283
-0.037219167 0.039151698 0.16327876
-0.04245913 0.038001001 0.16491094
0.040140152 0.045761168 0.15930685
0.036620557 0.046805263 0.15976411
0.033028483 0.048731208 0.15866718
-0.034700334 0.040438294 0.1608505
-0.037278235 0.038878441 0.15922755
-0.041132808 0.039130986 0.15969774
0.037241936 0.046133995 0.15581146
0.033651829 0.048320413 0.1548017
-0.032650232 0.044469535 0.15441325
-0.037076592 0.039902329 0.15537211
-0.041806459 0.039700806 0.15558121
0.032223403 0.051136792 0.15022346
0.028020024 0.052629828 0.14901212
-0.029876053 0.048348129 0.14945284
-0.03267014 0.04548499 0.15042192
0.030408621 0.052155018 0.14503393
0.026929379 0.053708583 0.14569202
0.023485422 0.054487705 0.14701071
-0.029107392 0.049015343 0.14593235
-0.032622457 0.046475142 0.14563236
0.02666527 0.054871559 0.14143324
0.021440089 0.055606008 0.14280522
0.017247438 0.056255639 0.14193091
-0.02443105 0.051974118 0.14183208
-0.028543711 0.049770832 0.14181545
-0.032490373 0.047396064 0.14173743
0.025284052 0.055737883 0.13834915
0.021102905 0.056776702 0.13761163
0.016030073 0.057610124 0.13785115
0.011655986 0.058563739 0.13732913
0.0051156282 0.058620512 0.13695154
-0.0037602186 0.058257818 0.13712797
-0.014520526 0.055719793 0.13752267
-0.01856792 0.054336965 0.13697764
-0.023585677 0.052736044 0.13770121
-0.027292013 0.051216304 0.13728455
0.019639194 0.057474166 0.133526
0.015250027 0.058406115 0.13299742
0.010695457 0.059029907 0.13341698
0.0063762665 0.059004635 0.13305578
0.0013020635 0.059041619 0.13348189
-0.0040545464 0.05854094 0.13348693
-0.0094230175 0.057901114 0.13344154
-0.01400876 0.056234479 0.13299397
-0.018573165 0.054884732 0.13266224
-0.022151351 0.0537242 0.13330707
0.013470531 0.05959934 0.12949023
0.010733247 0.059639245 0.12865713
0.0060074925 0.059590667 0.12809822
0.00066834688 0.059458017 0.12823865
-0.0044579506 0.059416831 0.12816924
-0.0092756152 0.059105396 0.12849483
-0.013684511 0.05815959 0.12779608
-0.017594457 0.056854188 0.12894773
-0.0011252165 0.060584545 0.12470277
-0.0051584244 0.060613811 0.12438502
-0.0091915131 0.060618997 0.12405892
-0.013664424 0.060213506 0.1240679
0.05029881 0.031877548 0.18225041
0.049206972 0.031590879 0.17898509
0.046947837 0.03388083 0.17377523
0.047401011 0.035450876 0.16908315
0.047068536 0.037592143 0.16570005
0.045610487 0.039091229 0.16251868
0.044463396 0.040964127 0.16093382
0.042425811 0.04247725 0.15665919
0.039826512 0.043761134 0.154935
0.037840605 0.044800609 0.15161434
-0.037849545 0.038725734 0.15170762
-0.041073263 0.038697153 0.15211359
0.037095249 0.045669079 0.14678386
0.034076571 0.047597945 0.14801455
-0.037086368 0.039597511 0.14855146
-0.041382015 0.039325267 0.14860046
0.032535911 0.04932785 0.14444801
-0.034224987 0.045325994 0.14388135
-0.036382139 0.040526122 0.14415881
0.030458152 0.051201761 0.13953641
0.028213501 0.054153562 0.13831022
-0.033481121 0.046114683 0.13881209
-0.041408658 0.044210434 0.13840684
0.029724717 0.051253378 0.13533601
0.026139557 0.053636909 0.13442579
0.022515714 0.055123866 0.13320169
-0.028433919 0.049628466 0.13411492
-0.0319345 0.047334164 0.13542369
-0.040450811 0.046544373 0.13417476
-0.041540265 0.046259671 0.13537061
0.024091601 0.053771555 0.13076332
0.021979213 0.055268049 0.12980378
0.017902732 0.057129502 0.13031521
-0.023902953 0.05245021 0.13082525
-0.02688688 0.049650073 0.13041294
0.020295739 0.055874407 0.1269252
0.016512096 0.056945473 0.12674317
0.011824727 0.058753371 0.12592372
0.0078474879 0.059693217 0.12594208
0.0024860501 0.059375346 0.12601545
-0.019405603 0.055658162 0.12692925
-0.022890925 0.052946359 0.12604618
0.011118114 0.058163047 0.12287813
0.0057730675 0.058781803 0.12282749
0.00074374676 0.058498114 0.12271257
-0.0037320852 0.058031678 0.12079408
-0.0087921619 0.057988644 0.12020125
-0.014043093 0.058946609 0.12075525
-0.018255889 0.057425946 0.12261488
-0.0098977685 0.057476521 0.1181389
-0.014295101 0.058102757 0.11853831
-0.017920971 0.057474464 0.11843144
0.052478671 0.026521981 0.17934516
0.052633643 0.026381135 0.17683712
0.051024795 0.027764082 0.17484078
0.053158879 0.028434485 0.17004076
0.049975395 0.02959919 0.1720458
0.056722522 0.031101942 0.16891184
0.053026199 0.031655908 0.16734114
0.049522281 0.033262551 0.16888362
0.053291976 0.033887506 0.16272387
0.050367415 0.035538912 0.16245997
0.052523553 0.035078168 0.1581969
0.048971593 0.03696835 0.15892562
0.047543049 0.03743118 0.15507159
0.044690967 0.039450347 0.15474084
0.043088317 0.041208804 0.15022895
0.042284369 0.042433798 0.14529839
0.037825465 0.045140386 0.14573216
-0.03845638 0.036514491 0.14472029
-0.040912151 0.036156356 0.14436406
0.040733218 0.043719709 0.14080492
0.037178695 0.04600811 0.14101556
0.033696413 0.047432482 0.14233872
-0.037905455 0.039585352 0.14168581
-0.041222811 0.038918346 0.14187792
0.036912739 0.046665102 0.13669688
0.032661557 0.047881961 0.13743627
-0.037745118 0.042139024 0.13817593
-0.041016161 0.041573316 0.13871679
0.036742091 0.047573209 0.13377503
0.031490684 0.048983216 0.13232604
0.027685106 0.051500678 0.13170826
-0.033575177 0.04490605 0.13287151
-0.037519753 0.043415725 0.13270661
-0.040977716 0.043878675 0.13133457
0.031039178 0.049268752 0.12887827
0.027438402 0.051767766 0.12801293
0.023874283 0.054671705 0.12730515
-0.029067516 0.04772377 0.12788492
-0.03268826 0.045053482 0.1281437
-0.03770268 0.043039531 0.12901291
0.026530862 0.052587301 0.12326124
0.02200985 0.054531097 0.12327179
0.01829499 0.055828393 0.12412747
-0.025114357 0.051017165 0.12293281
-0.027952015 0.048763305 0.12314712
-0.03134656 0.046654761 0.12375792
0.021159232 0.055286288 0.11923709
0.016225398 0.055890083 0.12040766
0.010790825 0.056331187 0.11962491
0.0063055754 0.057031065 0.11928924
0.0017800331 0.056364775 0.11920132
-0.019814253 0.054697424 0.11935463
-0.023261905 0.052285731 0.12023845
-0.027970076 0.049762994 0.11905923
0.019540966 0.05596751 0.11648747
0.01586318 0.056871086 0.11504718
0.010492563 0.057112932 0.11533781
0.006034255 0.057450593 0.11563005
0.0015060306 0.056826472 0.11555754
-0.0038819313 0.05664584 0.11568605
-0.0090160966 0.056904852 0.11542695
-0.013843894 0.056212008 0.11492833
-0.018601298 0.055504799 0.11524247
-0.023621082 0.052961767 0.11554941
-0.027519822 0.051190376 0.11638757
0.014233589 0.058580637 0.11047783
0.011083603 0.059025347 0.11028673
0.0065846443 0.058882236 0.1103993
0.0011601448 0.05834356 0.11039224
-0.0042529106 0.057945967 0.11043947
-0.0094128251 0.057616353 0.11074483
-0.013880014 0.056530178 0.10997232
-0.018242896 0.055910736 0.1104446
0.010851383 0.059909999 0.1067849
0.0066529512 0.059844702 0.10614487
0.001791954 0.058925509 0.10673936
-0.0045461059 0.058293223 0.10672977
0.053326905 0.0244115 0.17343268
0.054372311 0.025796175 0.17042163
0.052338362 0.034120679 0.15507481
0.048165262 0.035779268 0.15162167
0.047399163 0.036881387 0.14768064
0.04626137 0.038518488 0.14354795
0.044473946 0.040886998 0.14347878
0.042727768 0.042254627 0.13927874
0.041247845 0.042803705 0.13477036
0.037847281 0.045143068 0.13286576
0.037356138 0.046518266 0.12956354
0.034627855 0.046131909 0.12951872
0.036783636 0.046869636 0.12525001
0.032373369 0.048816025 0.12643874
-0.034267128 0.044229239 0.12646726
-0.037734151 0.042170644 0.12646934
-0.041329265 0.04100123 0.12600538
0.031298578 0.049740672 0.12177565
0.028198838 0.052560866 0.12127825
-0.033334374 0.046567351 0.1218833
-0.037122011 0.042686224 0.12169047
-0.040248871 0.04161948 0.1228449
0.026296377 0.051797807 0.11802085
0.022409618 0.052936822 0.11586943
-0.02938807 0.049680591 0.1168411
-0.032468438 0.047519207 0.11773386
-0.036864281 0.044683456 0.1181049
0.020251274 0.056270599 0.1136946
-0.024132609 0.052731812 0.113009
-0.027965069 0.050216436 0.11250108
-0.0315696 0.048731804 0.11367246
0.019932568 0.056730866 0.10906186
0.016575634 0.058244467 0.1093918
-0.020825088 0.054322809 0.10868182
-0.023448229 0.052108586 0.1092691
0.018781185 0.057235718 0.10543283
0.01557225 0.058704853 0.10535701
0.011500716 0.059477627 0.10368591
0.0056334138 0.059772849 0.1035425
0.00045740604 0.059196293 0.10440939
-0.0044486523 0.058327556 0.10480436
-0.0088769197 0.05786097 0.1045109
-0.013798058 0.057128906 0.10468443
-0.017923474 0.05584389 0.10481723
-0.021323502 0.052114129 0.10493072
0.010025084 0.059461206 0.10017654
0.0057660341 0.05912903 0.099882506
0.00032156706 0.058192611 0.100203
-0.003841579 0.057411492 0.099563681
-0.0093386173 0.057778597 0.099226676
-0.013794839 0.056501955 0.10006823
-0.0099965334 0.058723032 0.095456563
0.054577589 0.029609293 0.15225288
0.053826928 0.030205548 0.14963523
0.05019033 0.031748533 0.14963865
0.055472434 0.031053543 0.14639038
0.048097849 0.03563717 0.14439479
0.047263563 0.035482734 0.14056918
0.046463132 0.037713528 0.1369262
0.044837356 0.038403779 0.13499501
0.043762922 0.03934449 0.13211611
0.042438567 0.041372836 0.12790611
0.039942205 0.043286741 0.12830302
0.041399598 0.043232501 0.12246706
0.038900197 0.045038879 0.12283637
0.034209728 0.046561658 0.12298854
0.037582874 0.046801627 0.11878439
0.03346014 0.046956688 0.11834829
-0.039183736 0.0388152 0.11790889
-0.040626287 0.040150821 0.12039038
0.036235809 0.048154056 0.11444791
0.031617284 0.0473212 0.11444499
0.026803136 0.049384832 0.11448636
-0.033580542 0.045273125 0.11435395
-0.035383582 0.043633372 0.11572709
0.035695076 0.049295604 0.10995954
0.029787898 0.048746526 0.11045202
0.026664138 0.049490005 0.11015903
0.023270726 0.050862074 0.11014801
-0.029368222 0.047661245 0.10931274
-0.033095002 0.044965208 0.11034658
0.026574969 0.051290154 0.10513883
0.023119152 0.051731676 0.10505142
-0.024584711 0.049147546 0.10453438
-0.027974129 0.047313869 0.10523897
-0.031388283 0.045317769 0.10588633
0.025642037 0.052944005 0.10153323
0.021763027 0.053871065 0.10148825
0.017125189 0.056390822 0.10176118
-0.019818485 0.05181706 0.10183807
-0.023076832 0.049744427 0.10081413
-0.027414978 0.047537953 0.10140737
0.019901097 0.055110395 0.09674909
0.016335666 0.056150347 0.097303562
0.011562169 0.057750911 0.097480647
0.0063192248 0.057540834 0.096297286
0.0018111467 0.057217121 0.096829079
-0.0036343932 0.05693543 0.096926473
-0.0072215796 0.056745976 0.097476624
-0.013939381 0.055977553 0.097101294
-0.018297613 0.053367585 0.097521178
0.015155852 0.057504892 0.09300109
0.010614038 0.058470547 0.092590563
0.0060430169 0.057943583 0.092554174
0.0014899969 0.057626367 0.092602961
-0.0039801002 0.057170451 0.092630945
-0.009126544 0.057922125 0.0925804
-0.013996422 0.056434482 0.092722289
-0.017547965 0.054914892 0.092633925
0.0094222426 0.058681399 0.088795684
0.0065894127 0.0592511 0.0871742
0.0011184216 0.058649808 0.087388687
-0.0039522648 0.057821929 0.088182382
-0.009152174 0.05764246 0.088445567
-0.012233496 0.056976646 0.088292442
0.052700639 0.027314544 0.14616689
0.049917042 0.027856112 0.14548913
0.054375052 0.027663112 0.14337051
0.050387383 0.029473126 0.14284536
0.048956335 0.031118304 0.1390014
0.048056781 0.032705456 0.13383448
0.045384228 0.037902057 0.12904951
0.04457283 0.039301544 0.12541321
0.04403007 0.040275604 0.12128349
0.042342603 0.042635858 0.11668649
-0.041506469 0.036229849 0.11508616
0.040722966 0.044308186 0.11126854
0.038970888 0.046218157 0.11206057
