# .PCD v0.7 - Point Cloud Data file format
VERSION 0.7
FIELDS x y z
SIZE 4 4 4
TYPE F F F
COUNT 1 1 1
WIDTH 1342
HEIGHT 1
VIEWPOINT 0 0 0 1 0 0 0
POINTS 1342
DATA ascii
0.057932317 0.0057603568 0.23987868
-0.011187851 0.057299197 0.24076328
0.057727695 0.0033624917 0.23692608
0.057240546 0.007581383 0.23653665
0.056668103 0.011730462 0.23549548
-0.0069072247 0.056908965 0.23691723
-0.0096762776 0.057577968 0.23665205
0.057202697 0.0090704113 0.23179504
0.056322098 0.012535274 0.23213562
-0.0054860115 0.057737947 0.23213491
-0.008923173 0.058495164 0.23191479
0.056895494 0.010186806 0.22801903
0.056265175 0.013487235 0.22700867
0.00097954273 0.058238029 0.22786251
-0.005338788 0.057563186 0.22776839
0.055630028 0.015761897 0.22289601
0.0563519 0.019317433 0.22373483
0.0049283504 0.057836831 0.22385183
0.00080794096 0.057773501 0.22341105
0.056063116 0.017011464 0.21911135
0.05642122 0.021229416 0.21902043
0.0099785328 0.056389689 0.21946058
0.0066396594 0.0576832 0.21954614
0.055360317 0.023862764 0.21480237
0.054270506 0.028319135 0.2135898
0.016447961 0.055519283 0.21467526
0.012314141 0.056052625 0.21488877
0.0080821514 0.055494249 0.21503039
0.055023134 0.023550346 0.21089797
0.053331196 0.027887076 0.21022435
0.050746799 0.032509342 0.21031936
0.046763361 0.03622441 0.20990582
0.044755995 0.037925228 0.20942475
0.026411295 0.051700622 0.21001454
0.023208201 0.053595424 0.21015944
0.018333077 0.05526489 0.21046163
0.013932526 0.056177855 0.21017878
0.052011371 0.029409647 0.20577104
0.050512075 0.032810077 0.2053789
0.048038721 0.037135139 0.20662673
0.04490155 0.039982319 0.20653509
0.040804565 0.044329345 0.20549913
0.035818458 0.047528803 0.20577307
0.032097697 0.049802452 0.20604999
0.027352214 0.051580906 0.20639952
0.022847176 0.05323422 0.20577605
0.018227816 0.055040747 0.20674826
0.050354421 0.034798399 0.20078672
0.048130631 0.037261546 0.20133097
0.044543147 0.040933967 0.20176692
0.041030407 0.044712842 0.20175965
0.036242127 0.048022509 0.20202233
0.031998932 0.05038631 0.20154791
0.027445495 0.051728964 0.2014143
0.04822737 0.0382047 0.19721161
0.043574393 0.042376518 0.19741075
0.041060388 0.044268489 0.19741939
0.037911594 0.047366619 0.19809385
0.033725381 0.05014807 0.19754215
0.055515051 -0.018147334 0.26976451
0.055560768 -0.017810538 0.26516393
0.056751549 -0.01609987 0.25994155
0.055944562 -0.013837039 0.26027903
0.057950616 -0.014411122 0.25523171
0.057541907 -0.011759043 0.25676391
0.058052719 -0.0095167905 0.25135061
0.0584234 -0.0076391995 0.24712917
0.058513582 -0.0059462637 0.24258918
0.057615161 -0.0019515455 0.24284911
0.05951345 -0.0039957166 0.23820767
0.058320165 -0.00028166175 0.23897853
0.060386002 -0.0018142015 0.23459914
0.05888474 0.0015863925 0.23389873
-0.014190435 0.055829167 0.23570183
0.05909574 0.0027428269 0.22964272
0.05779928 0.0062853098 0.23044798
-0.011380911 0.057520032 0.22966728
0.057473063 0.0083882511 0.22546723
-0.0066690445 0.058097482 0.22519299
-0.010063469 0.058857739 0.22501194
0.057551444 0.0097449273 0.22104082
0.056373656 0.013424441 0.22117677
-0.0020545125 0.057801992 0.22178128
-0.0051623583 0.058110535 0.22129363
-0.0085830092 0.059399068 0.21937868
0.058122158 0.011450008 0.2168182
0.056830406 0.015174612 0.21664722
0.00049543381 0.056585968 0.21665724
-0.0042877197 0.057787448 0.21774855
-0.0078413486 0.05922845 0.2178579
0.056650162 0.017041579 0.21196534
0.055756152 0.020091116 0.21297915
0.0055621862 0.055995584 0.21253036
0.0018323064 0.056239069 0.21243127
0.056359768 0.018196374 0.20814998
0.055611014 0.022073627 0.20819815
0.054326892 0.025423437 0.20720161
0.010671735 0.056003362 0.20783372
0.0069906712 0.056304961 0.2085584
0.055313528 0.023560703 0.20316358
0.053645968 0.027290061 0.2038237
0.052314818 0.030604705 0.20249261
0.02118814 0.053833187 0.20308717
0.017213166 0.055223942 0.20355524
0.012340188 0.05587697 0.2035857
0.055026472 0.024461776 0.19975401
0.053928316 0.028286025 0.1991335
0.051827073 0.032009214 0.19928177
0.045593619 0.037515789 0.19894083
0.044195414 0.039514542 0.19838713
0.025896907 0.052423567 0.19875921
0.022272646 0.05385679 0.19950856
0.017358184 0.055624425 0.19900395
0.012997985 0.055604219 0.19976605
0.053314626 0.029994622 0.19517682
0.051623225 0.033976793 0.19510598
0.047504544 0.037625685 0.19506688
0.044045806 0.040521473 0.1951596
0.040570021 0.044010341 0.19479866
0.036684573 0.047205001 0.19472314
0.032891631 0.050278842 0.19523294
0.027844548 0.052502453 0.19521351
0.022457063 0.054280519 0.19495969
0.018471658 0.055870652 0.19503845
0.050541759 0.034267172 0.19168387
0.047511578 0.037581623 0.19143401
0.04336226 0.040819436 0.19085385
0.039889574 0.043980896 0.18995045
0.036182642 0.046294451 0.19089885
0.03242141 0.049537033 0.19055681
0.028826714 0.051793635 0.19099255
0.025288284 0.053322732 0.19178624
0.057111144 -0.015033469 0.24943969
0.058124065 -0.013490707 0.24357536
0.058850765 -0.01021412 0.24361292
0.058790982 -0.012487322 0.239914
0.058898091 -0.0099627823 0.2404907
0.060416341 -0.010293067 0.23507059
0.060315013 -0.0074333996 0.23610342
0.063076019 -0.0071149766 0.233841
0.061591506 -0.0045859814 0.23234025
0.061333954 -0.0039567798 0.22865787
0.058069468 -0.00030447543 0.22626698
0.057052314 0.0022602975 0.22454879
0.057349622 0.0039415061 0.22258732
0.057644188 0.0057830364 0.21823892
-0.012136698 0.054926485 0.21925196
0.057983816 0.0082802474 0.21385346
-0.0023900867 0.055614173 0.21364553
-0.006783247 0.05635035 0.21441819
-0.0083642006 0.058960617 0.21607788
0.057063222 0.010288239 0.20983262
0.056883693 0.013310507 0.20983793
-0.00090444088 0.056032866 0.2102374
-0.0054299831 0.056964636 0.20962007
0.056448162 0.014919743 0.20568533
0.055347562 0.019672558 0.20508189
0.0047302246 0.056039035 0.20602177
0.00034540892 0.055268645 0.20505537
0.055610716 0.017128348 0.20091589
0.055310488 0.020425603 0.20102157
0.0086901188 0.055461198 0.20214929
0.0059001446 0.055048674 0.20102231
0.054251134 0.022168294 0.19663604
0.054122448 0.026129812 0.19592504
0.010458648 0.054766029 0.19621773
0.0075701475 0.054989725 0.19687767
0.053937554 0.023823589 0.19278701
0.053074956 0.027618513 0.1924177
0.051458955 0.031812802 0.19119023
0.021197736 0.053726614 0.19105701
0.01741159 0.055039942 0.19174118
0.013521135 0.05571419 0.19201161
0.052393734 0.02903147 0.18771477
0.050165474 0.031881377 0.18763705
0.047277272 0.035435513 0.18782978
0.04394275 0.039773047 0.18762006
0.040979743 0.04290852 0.18717901
0.035339952 0.046523094 0.18768133
0.031886756 0.049350083 0.18709768
0.026460946 0.05123955 0.18759777
0.022126317 0.05244571 0.18841223
0.01821214 0.054007173 0.1883157
0.052709103 0.030247778 0.18439318
0.051562309 0.031336978 0.18446161
0.046678126 0.036231041 0.1837187
0.043318391 0.038786888 0.18401535
0.039941192 0.042972505 0.18381731
0.03506887 0.045779169 0.18327154
0.031354785 0.048374832 0.18394737
0.02659744 0.050430357 0.18422242
0.038608253 0.043388426 0.18017869
0.059238732 -0.0056507885 0.22482625
0.057468414 -0.0032694191 0.22411099
0.058037043 -0.0049194843 0.22219515
0.056984901 -0.0017058253 0.22061566
0.057541847 3.7714839e-05 0.21626188
0.058414459 0.0021073967 0.21188511
0.057869136 0.0053603053 0.21085365
-0.0090048313 0.054468602 0.21239458
-0.01228714 0.05505091 0.21165754
0.058790803 0.0042862594 0.20665847
0.058134079 0.0076993108 0.20761581
-0.0077906847 0.055178553 0.20748682
-0.0093527436 0.056576252 0.21041401
0.059115469 0.0048704892 0.20358236
0.05823195 0.008758679 0.2027797
0.056860447 0.012839049 0.20249034
-0.0019904971 0.055019081 0.20289834
-0.0054938793 0.056054592 0.20302399
0.057369769 0.010471851 0.19894384
0.05644542 0.013955131 0.19865875
0.0039856434 0.054962516 0.19835259
-0.0011706948 0.05505383 0.19845624
-0.0052001476 0.05775547 0.19838215
-0.0072319508 0.060255945 0.19782276
0.055635154 0.015453845 0.19456454
0.054975867 0.019299716 0.19451217
0.0049481392 0.055177867 0.19454594
-0.00027573109 0.055929959 0.1949016
-0.0037909746 0.059653401 0.19421221
-0.0063339472 0.061379969 0.1958252
0.055962801 0.016738296 0.19042046
0.054780662 0.02101557 0.19011427
0.052570403 0.024947196 0.18950959
0.010266304 0.055644512 0.19058298
0.0059170723 0.05529815 0.1900108
0.054475427 0.022304401 0.18536471
0.053278446 0.025742769 0.18572791
0.020138979 0.052168548 0.18543522
0.016103864 0.054354459 0.18631633
0.011620462 0.055865139 0.1860276
0.052464962 0.027889967 0.18116792
0.049772501 0.031965807 0.18176608
0.04711926 0.034561098 0.18167092
0.042679906 0.038364202 0.18126445
0.028993249 0.048432678 0.18180211
0.025512993 0.050601065 0.18179612
0.021585286 0.052696645 0.18195684
0.017132998 0.05520016 0.18150182
0.012766778 0.055855483 0.18159886
0.051789165 0.029833302 0.17740448
0.049775124 0.032928839 0.17675401
0.047253191 0.036633879 0.17757066
0.043125093 0.03920275 0.17742805
0.039636552 0.042240024 0.17733328
0.035608053 0.045096397 0.17752452
0.031209588 0.047730207 0.17753594
0.026691198 0.050717801 0.17723919
0.021943867 0.053684801 0.17639492
0.01749593 0.055651814 0.17686187
0.049267352 0.034665972 0.17155851
0.047676921 0.037589252 0.17207845
0.043517113 0.040141314 0.17192163
0.039809644 0.043154716 0.17200203
0.035927594 0.045991302 0.17199107
0.03200233 0.048486769 0.17207943
0.027845502 0.050989985 0.17217927
0.023005188 0.053093791 0.17294265
0.020337641 0.054915249 0.17289735
0.047800303 0.038622916 0.1686282
0.04234314 0.041522354 0.16870679
0.039191663 0.043978691 0.16874401
0.035904765 0.046299279 0.16871031
0.033420324 0.048299968 0.16875897
0.057867289 -0.0091611296 0.22168979
0.057317376 -0.0079335719 0.21807781
0.059737206 -0.0098348558 0.21477391
0.057805359 -0.0067816824 0.21373786
0.05793941 -0.0019933879 0.2131082
0.057443917 -0.0048498362 0.21065994
0.057700157 -0.0011748374 0.20889248
0.058062613 0.0010862201 0.20569603
-0.01021868 0.054286122 0.20474111
-0.013080537 0.053816319 0.2040693
0.05851531 0.0031754375 0.20054503
-0.0099804997 0.054811835 0.20245077
-0.010864735 0.056239903 0.20182694
0.05753839 0.0035698861 0.19631012
0.057314575 0.0077027082 0.19620584
0.055459738 0.011045665 0.19458
0.056570649 0.009153977 0.19129403
0.055774093 0.012812838 0.19179888
-0.0016868711 0.055742919 0.19143523
-0.0041178465 0.05870229 0.19056614
0.056951702 0.010785714 0.18814643
0.055801034 0.014110908 0.18695189
0.054662108 0.017995745 0.18633939
0.003524363 0.054832637 0.1881436
-0.00067102909 0.05506283 0.1867191
-0.0037095547 0.056759745 0.18719245
0.056025505 0.015753463 0.18320449
0.054956555 0.019186586 0.18297474
0.0089126825 0.055830896 0.18245007
0.005094111 0.055315048 0.18317385
-0.0004529953 0.05537039 0.18370898
-0.0022135973 0.058256954 0.18247749
0.056025386 0.017683819 0.17899586
0.054792821 0.021123007 0.17888142
0.053148329 0.024658367 0.17912938
0.011202514 0.055606008 0.17840387
0.0065956116 0.055277288 0.17911829
-0.0028695464 0.062660724 0.17771368
0.054982901 0.022370741 0.17447479
0.052450001 0.026033536 0.17475699
0.050493479 0.029472828 0.17421977
0.017518342 0.055318087 0.17408238
0.011986434 0.055343717 0.17457144
0.052160978 0.027135447 0.16995449
0.050413609 0.031257659 0.17079665
0.030057847 0.049265623 0.16998841
0.026768327 0.051588088 0.16995482
0.022773862 0.053143561 0.17037882
0.017456949 0.055091739 0.17006566
0.012889683 0.05640316 0.17049779
0.050669789 0.032876611 0.16626461
0.047930479 0.03639777 0.16521157
0.043064892 0.039768457 0.16579901
0.039380193 0.04273358 0.16517796
0.035172224 0.045903206 0.16504125
0.031108558 0.048718959 0.16646616
0.027071714 0.051133096 0.1665038
0.022468626 0.053006887 0.16625248
0.018504262 0.054514527 0.16674097
0.050216734 0.034223631 0.16147886
0.047757506 0.036927119 0.16089867
0.044924974 0.03914398 0.16121961
0.039296985 0.042472303 0.16152994
0.035774231 0.04458645 0.1613781
0.046716809 0.040320098 0.15659808
0.056629777 -0.013720393 0.21901146
0.058221102 -0.01170978 0.21650197
0.056186855 -0.008688733 0.2094629
0.054618359 -0.0070037991 0.20628221
0.055960774 -0.00070288777 0.19652937
0.056836784 0.002961427 0.19350664
0.056999087 0.0054257214 0.19002889
0.056872845 0.0080115199 0.18484415
-0.0063070059 0.056149691 0.18523134
0.056350231 0.010176659 0.18045999
0.055954099 0.013273284 0.1802455
-0.0012279153 0.054958045 0.1809075
-0.0042080879 0.057558537 0.18144073
0.05565393 0.015068889 0.17605422
0.0038772821 0.054971695 0.17609005
-0.0005235672 0.056213498 0.17635225
-0.0031585693 0.059185803 0.17664845
0.05516839 0.017327443 0.1710998
0.054733634 0.020692557 0.17131864
0.0092221498 0.055114925 0.17221476
0.0051430464 0.055109978 0.17188911
-0.0036364794 0.059266686 0.17233486
0.05371511 0.021276474 0.16787182
0.052514911 0.025272608 0.16744004
0.01129806 0.056017935 0.16683359
0.0071908832 0.055980682 0.16693048
0.051095009 0.026290044 0.16322975
0.050067782 0.030015171 0.16242637
0.029623389 0.047303379 0.16251804
0.025391579 0.049854815 0.16234024
0.020754695 0.052529395 0.16253422
0.016142547 0.054044247 0.16323335
0.011976123 0.055523783 0.163314
0.050805092 0.027869731 0.15965749
0.049340904 0.031136796 0.15861781
0.047729492 0.035395235 0.1578583
0.042135477 0.03875953 0.15847205
0.039280534 0.041562676 0.15868558
0.03483361 0.044183969 0.15884425
0.03048265 0.046684206 0.15928103
0.025972307 0.049981833 0.1589417
0.02139014 0.05234313 0.15902226
0.018384695 0.053069592 0.15831475
0.048597336 0.033047199 0.15475355
0.047365189 0.036468729 0.1546822
0.04340595 0.039976805 0.15461954
0.039909363 0.042598486 0.15487526
0.035569191 0.045046985 0.15463419
0.031218648 0.047494262 0.15439096
0.026977062 0.050035357 0.15441743
0.023245931 0.052320719 0.15462631
0.046480417 0.037011757 0.15120932
0.043528855 0.039799869 0.15071204
0.039911151 0.04300347 0.15070704
0.035738349 0.045632124 0.15056044
0.031742275 0.048440933 0.15051299
0.02723664 0.050666213 0.15102163
0.054018199 -0.013582572 0.20783181
0.054179907 -0.011541873 0.20476748
0.053519309 -0.0088881999 0.20309903
0.053811729 -0.010843202 0.20014422
0.05401814 -0.0068968385 0.20036896
0.054682255 -0.0045909882 0.19580556
0.055552423 -0.0025414973 0.19068871
0.057270288 -0.0010013282 0.18664135
0.056391954 0.0029236078 0.18670018
0.057391047 0.0012633651 0.18264742
0.057345927 0.0042669326 0.18305458
0.057038367 0.0017321855 0.17889054
0.057046831 0.0066928267 0.17860372
0.05693692 0.0083466768 0.17430104
0.056102157 0.011447683 0.17425545
-0.0014155507 0.055696487 0.17347051
0.057568252 0.010386258 0.16958
0.055974364 0.013438046 0.17013092
-0.0013660192 0.055063695 0.16989066
-0.0044312477 0.056296468 0.16901727
0.057776749 0.010915294 0.16550614
0.056531191 0.014644191 0.16533194
0.053903103 0.019200176 0.16513218
0.0029918551 0.054253042 0.1654823
-1.1384487e-05 0.053450882 0.1662931
0.056567967 0.016242906 0.16117863
0.053935289 0.020028532 0.16090305
0.051387429 0.024392337 0.1610076
0.0092730522 0.053672254 0.15928395
0.005785346 0.055165648 0.16210009
0.053404212 0.021345511 0.15651856
0.05164516 0.024940327 0.15636756
0.04935658 0.028966382 0.15623297
0.015765786 0.053409696 0.15747665
0.011436164 0.053916991 0.15621887
0.051176906 0.027026922 0.15303281
0.049166679 0.030339539 0.15173548
0.026672721 0.049939066 0.1523819
0.021059334 0.052570999 0.15155426
0.016973913 0.053857982 0.15221289
0.012910962 0.054426491 0.15144521
0.048960745 0.031710982 0.14713898
0.046633124 0.035669267 0.14751792
0.042987168 0.039542913 0.14724445
0.03948617 0.042898536 0.14711994
0.035550356 0.045779884 0.14710972
0.031291723 0.048343599 0.14692
0.026988387 0.050716817 0.14815167
0.022275627 0.052367032 0.14750972
0.017442703 0.053667665 0.14793861
0.045719087 0.036696032 0.14296189
0.042895317 0.039439142 0.14305875
0.038776994 0.042856991 0.14281625
0.03577745 0.04642573 0.14303893
0.031597793 0.049078852 0.14289537
0.027083278 0.05141151 0.14256594
0.022954941 0.052518189 0.14309165
0.044369936 0.039385974 0.13933522
0.034961581 0.047173619 0.13873374
0.031494617 0.049325734 0.1394698
0.027860224 0.051403165 0.13926759
0.053188086 -0.015394971 0.20136769
0.054862201 -0.016997114 0.19790994
0.053951502 -0.013040021 0.19792272
0.053761959 -0.011499897 0.19275047
0.053759217 -0.0079718828 0.19332741
0.05579561 -0.0093626976 0.18687643
0.054787755 -0.0066004246 0.19052427
0.05665648 -0.0070235431 0.18418123
0.056852579 -0.0060317069 0.18007217
0.057375789 -0.0017129481 0.18053775
0.055792034 0.00057376921 0.17488928
0.056293249 0.0035613775 0.17585148
0.056038976 0.001133427 0.17082293
0.056188226 0.0045818388 0.17128505
0.056061506 0.005437389 0.16642003
-0.004181087 0.052878439 0.16520385
-0.0070306063 0.054920316 0.16575544
0.057053268 0.0094952881 0.1623434
-0.0026890039 0.052613676 0.16270085
0.056554258 0.014180973 0.15790536
0.0036799312 0.053101122 0.15806942
-0.0018782616 0.052533031 0.15871431
0.055350125 0.015211359 0.15333334
0.054151297 0.019237936 0.15406278
0.0076411963 0.053492576 0.15339139
0.0044911504 0.053154707 0.15386042
0.054962277 0.016249195 0.1500935
0.05279398 0.019592136 0.14947981
0.051252246 0.024032071 0.14944667
0.0095866919 0.0542624 0.14950144
0.0052025914 0.053714484 0.15029231
0.052790582 0.021558821 0.14516687
0.051423669 0.02492699 0.14504957
0.04983151 0.028596818 0.14541474
0.01985544 0.053012013 0.14482805
0.015947819 0.053917676 0.1454294
0.010925651 0.053840935 0.14587113
0.051680624 0.025895938 0.1404008
0.048979342 0.029862255 0.14082342
0.046342015 0.033853114 0.14098999
0.041636884 0.039467275 0.14102286
0.039699256 0.041391581 0.14060217
0.021151423 0.05320406 0.14113683
0.016187668 0.053682566 0.14092451
0.051643074 0.028299198 0.13657659
0.049525619 0.030869231 0.13602957
0.046433032 0.034689158 0.13653573
0.043051362 0.038710028 0.13703862
0.038900077 0.041674376 0.13700202
0.035431743 0.04398334 0.1363323
0.031140566 0.048105866 0.13635495
0.026707053 0.050863326 0.13676438
0.021790147 0.053009123 0.13761443
0.018309236 0.053495109 0.13674793
0.04559058 0.035292178 0.13301593
0.042952836 0.037685767 0.13257661
0.038385928 0.040714741 0.1330457
0.034355879 0.044186354 0.13276902
0.031217694 0.046784759 0.1328612
0.026435256 0.049427032 0.13300046
0.052912474 -0.019571811 0.20276834
0.049984515 -0.020525858 0.20365931
0.05375421 -0.019655943 0.19953854
0.051755488 -0.018410027 0.20284607
0.055000067 -0.018163532 0.19476189
0.054191828 -0.015079126 0.19490658
0.055886388 -0.01662226 0.19059528
0.054444909 -0.013890684 0.19061683
0.056813478 -0.015263736 0.18604399
0.055330813 -0.011776179 0.18737324
0.057258785 -0.014104545 0.18246807
0.056606531 -0.010451332 0.18186195
0.055587173 -0.0081727207 0.17749991
0.055584669 -0.0047784746 0.17674388
0.055870831 -0.0067043155 0.17282392
0.055622697 -0.0032874942 0.17374922
0.056699157 -0.0055559874 0.16988541
0.056789041 -0.0011080652 0.16922732
0.056823134 0.0011809319 0.1649823
0.05668211 0.0048053116 0.16430263
-0.010931849 0.054127097 0.16581179
-0.011783838 0.053564072 0.16373269
0.056972384 0.0015740097 0.16167374
0.056483626 0.0058183223 0.16076185
-0.0044572353 0.052041084 0.16058065
-0.0081017613 0.053272992 0.16078691
-0.011766016 0.053897947 0.16124205
0.055711985 0.0074400306 0.1564749
-0.0033127069 0.052065372 0.15564485
-0.0081372857 0.053567588 0.1558799
0.055447698 0.0092720538 0.15150788
0.055588841 0.01185292 0.1523436
0.0022093654 0.052831501 0.15193138
-0.0013920069 0.052732527 0.15164855
0.055380225 0.014821038 0.14799753
0.053816855 0.018429905 0.14761063
0.0028432012 0.053289592 0.14698878
-7.6174736e-05 0.053219616 0.14890787
0.055679083 0.016904086 0.14392284
0.054043531 0.01991187 0.14381206
0.0095686913 0.053563893 0.14313057
0.0055931211 0.053670615 0.14288247
0.055806041 0.01799877 0.13948053
0.054339528 0.021293372 0.13932163
0.05347538 0.025283352 0.13866326
0.010697246 0.054162979 0.13891935
0.0063857436 0.054100931 0.13756272
0.054419637 0.02291283 0.13547462
0.05281353 0.026394531 0.13469163
0.024548531 0.049671441 0.13437572
0.021639943 0.051365852 0.13422284
0.016085446 0.053571761 0.13402635
0.012200475 0.054229558 0.13496509
0.052023053 0.028218329 0.1299676
0.049712777 0.031575322 0.1301443
0.046164632 0.03475444 0.12980112
0.042207778 0.038203955 0.12982053
0.038101137 0.040694475 0.13008025
0.034651101 0.04393819 0.12945068
0.030402482 0.047506988 0.12981474
0.026165009 0.049459487 0.13005564
0.021523476 0.051436901 0.13033465
0.017564118 0.053013474 0.13082287
0.049148798 0.031352192 0.12549818
0.045786679 0.035009339 0.12500927
0.042954981 0.039198071 0.12483898
0.037996709 0.04140991 0.12455919
0.034866095 0.044926822 0.12474918
0.030796528 0.04750663 0.12495455
0.026049674 0.049392462 0.12510818
0.042595387 0.040756226 0.12113747
0.03776443 0.042395771 0.12105888
0.035089433 0.045097411 0.12059599
0.031844378 0.046864688 0.12108871
0.052803457 -0.023240149 0.19843622
0.053632975 -0.02325055 0.19350149
0.056353092 -0.017508984 0.17905475
0.05440557 -0.015451938 0.17750512
0.054620743 -0.011783078 0.17421366
0.055844903 -0.010404095 0.17089535
0.056154966 -0.0085414797 0.16717102
0.055981874 -0.0061443001 0.1661004
0.057392657 -0.0068237334 0.16273744
0.05647254 -0.0036689043 0.16260041
0.055789173 -0.00079089403 0.15791778
0.055580139 0.0015453398 0.15701069
-0.012591422 0.053467095 0.15832521
0.054958344 0.0031951815 0.15301055
-0.0082724094 0.053864181 0.15245607
-0.012110233 0.054116875 0.15689112
0.055489063 0.0063153505 0.14859703
-0.0042526722 0.053017855 0.14962292
-0.0083053112 0.054255664 0.14907154
0.055816054 0.0070789903 0.1443322
0.055370629 0.010896146 0.1450001
-0.0039618611 0.051947296 0.14430767
-0.0083577037 0.05323118 0.14463747
0.056389749 0.0086565465 0.14012128
0.055314302 0.012425512 0.14019725
0.002088666 0.053529084 0.14030743
-0.0021024346 0.052870601 0.13997498
0.055633545 0.014773026 0.13573927
0.054693758 0.019536987 0.13530952
0.0039412975 0.054808199 0.13606647
-0.00059109926 0.054278612 0.13593051
0.055222511 0.01539661 0.13229898
0.053633988 0.020184666 0.13150319
0.0093370676 0.053917348 0.13144642
0.0051748157 0.054929197 0.13205743
0.053217232 0.020964429 0.12743968
0.052313685 0.024209961 0.12716642
0.019799352 0.051467508 0.12672466
0.01541549 0.053094119 0.1274431
0.010256171 0.053752422 0.1274741
0.0059254766 0.054775268 0.12792596
0.051689267 0.026197091 0.12299022
0.049116254 0.030869797 0.12252593
0.04561013 0.03505671 0.12231168
0.03920567 0.040204763 0.12245199
0.02528578 0.049916565 0.12269217
0.020715952 0.051594764 0.1234405
0.015618801 0.05318445 0.1229133
0.011372805 0.053768873 0.12360027
0.052075148 0.026968196 0.11878395
0.049386263 0.030662373 0.11834428
0.045904279 0.035210446 0.11868939
0.042853832 0.038846314 0.11875418
0.038651049 0.042010486 0.11885735
0.034251094 0.045530707 0.11811957
0.029882908 0.04770717 0.11886629
0.025226355 0.049393117 0.11869892
0.021035075 0.051267654 0.11864451
0.017592669 0.052465469 0.11847359
0.048910022 0.031988904 0.1149343
0.046352863 0.035391912 0.1138944
0.042835593 0.039180309 0.11408854
0.038122654 0.041947424 0.11405665
0.034325898 0.044849396 0.11494234
0.030790627 0.046406746 0.1146881
0.026996493 0.048362136 0.11498666
0.043705344 0.039427698 0.11008701
0.041736424 0.041738868 0.10931101
0.055640817 -0.019096956 0.17731829
0.055336058 -0.017450377 0.17224105
0.053460956 -0.016521722 0.17340983
0.055970013 -0.012706131 0.16939525
0.055930614 -0.0099354833 0.16498198
0.05500859 -0.0094046593 0.15970294
0.055615604 -0.006117776 0.15907015
0.05514133 -0.005412668 0.15532599
0.05472815 -0.0025978535 0.15152642
0.054707229 0.00098484755 0.15051833
0.054741263 -0.0012212247 0.14631632
0.055563211 0.0021676123 0.14756677
0.056165636 0.0041971505 0.14270458
-0.0081102848 0.053572774 0.14230564
-0.010788679 0.05483076 0.14339897
0.055909812 0.0053164512 0.13804385
-0.0036373138 0.053272784 0.13841119
-0.0075839162 0.053977132 0.13857868
-0.010215819 0.055779159 0.14030355
0.05566138 0.00828439 0.13361549
0.056190491 0.0113803 0.13387331
-0.0025723577 0.054270685 0.13411614
-0.0073324442 0.05484277 0.13359168
0.054521024 0.012786955 0.1298342
0.053514123 0.016174331 0.12946787
0.0031753182 0.05414027 0.12970161
-0.0012362599 0.054407597 0.12959221
-0.0054971576 0.05472523 0.13043496
0.053421259 0.013831526 0.12597948
0.052908063 0.017874062 0.12542537
0.0085961223 0.053201377 0.12449303
0.004565537 0.054088116 0.12505761
-0.0004979372 0.054085582 0.12549531
0.052764177 0.020312995 0.12129486
0.052544951 0.023204282 0.12088743
0.010375679 0.053842545 0.1209859
0.0054297447 0.054454446 0.1207906
0.052405179 0.020842716 0.11733964
0.052632451 0.025295809 0.11654896
0.020646334 0.051144004 0.11610892
0.015732408 0.052737534 0.11659095
0.011110604 0.053641081 0.11656877
0.051348507 0.02653116 0.11220127
0.049631298 0.03022635 0.11247346
0.047617674 0.033244625 0.11233982
0.034456491 0.043401539 0.11158523
0.029579639 0.045897841 0.11190969
0.025472522 0.048580825 0.11234939
0.021298766 0.051010728 0.11262998
0.016089916 0.052459478 0.11229429
0.0120157 0.054123789 0.11250517
0.048573375 0.030328915 0.10838953
0.046462536 0.034799963 0.108073
0.044114649 0.039002597 0.10760525
0.038520932 0.041993737 0.10854644
0.034788489 0.044073969 0.10830045
0.030233681 0.046506107 0.10796252
0.025835156 0.04910177 0.1077244
0.021389961 0.051282585 0.10784331
0.017372966 0.052176178 0.10839397
0.044255793 0.035208315 0.10400236
0.042559385 0.039094239 0.10374546
0.039031446 0.04183957 0.10318825
0.034463823 0.044264853 0.1028392
0.030873597 0.045175195 0.10402346
0.041001618 0.041812479 0.10007286
0.052760541 -0.01177676 0.1558627
0.054368496 -0.0063983649 0.14886254
0.055789649 -0.0074361116 0.14283773
0.055152297 -0.0042425692 0.14419928
0.055530012 -0.00098283589 0.13999137
0.055918097 0.0002463311 0.13506949
0.055573106 0.003062591 0.13456252
0.056394637 0.0018376857 0.12899002
0.055508375 0.0046723932 0.13111636
-0.009647131 0.054266721 0.1292645
0.055676222 0.0076975226 0.12678552
0.054345727 0.010580048 0.12750646
-0.0050783753 0.053410351 0.12562123
-0.0079823732 0.053723752 0.12626284
0.056240857 0.0091335177 0.12195185
0.054291129 0.012312144 0.12274453
0.052589536 0.01563707 0.12279415
-0.0018175244 0.054661512 0.12272665
-0.0054571629 0.054705203 0.12146273
0.054269612 0.013628125 0.11738247
0.052684903 0.016884416 0.11874506
0.0027499795 0.054327607 0.11800662
-0.00060665607 0.054677844 0.11967644
0.053572297 0.014907807 0.11376682
0.052572727 0.018832296 0.11342868
0.0077706575 0.053625941 0.11363479
0.0041593313 0.053529382 0.11356962
0.052872837 0.020809636 0.1083968
0.051617444 0.023904026 0.1094687
0.013897657 0.052526295 0.10880914
0.0096842051 0.053389609 0.10861042
0.053374767 0.022977382 0.1038399
0.051120222 0.025651127 0.10456699
0.048169732 0.029285893 0.10449851
0.045283914 0.0326989 0.10336766
0.027201116 0.046191216 0.10340503
0.025098801 0.047599077 0.10335103
0.019439995 0.050546855 0.10362846
0.01498884 0.052026093 0.10558483
0.011483312 0.052557945 0.10423484
0.050861776 0.027113706 0.10040203
0.048286319 0.030416921 0.099921972
0.044852316 0.03375341 0.099983901
0.042625666 0.03720279 0.10027912
0.034077823 0.044052184 0.10083431
0.028838515 0.04580763 0.10042125
0.023976266 0.048476994 0.10032341
0.020853758 0.050136089 0.099932343
0.048867702 0.03209196 0.095705062
0.045563757 0.03495346 0.095124006
0.042069554 0.038709372 0.095924854
0.038188159 0.041543186 0.096764714
0.03386867 0.044189304 0.097170442
0.029756904 0.045613199 0.095960289
0.048550963 0.033566579 0.091754183
0.042652607 0.039860845 0.090866879
0.040422797 0.042052925 0.090840578
0.050100207 -0.017361253 0.15448114
0.051991165 -0.01297614 0.15046799
0.053941548 -0.012071982 0.14652592
0.055685937 -0.01009424 0.14223239
0.055131435 -0.0078464895 0.13719535
0.054802299 -0.005695954 0.13780564
0.055239081 -0.0075042546 0.13374344
0.055201769 -0.0038825274 0.13275105
0.056068122 -0.0018230379 0.12885758
0.056276083 0.0013433844 0.12474599
0.055915177 0.00409621 0.12512657
-0.0095971823 0.053842247 0.12374255
-0.01215142 0.053530991 0.1248053
0.056599736 0.0025947392 0.12117973
0.056025743 0.0055993944 0.11988223
-0.0065957904 0.053663373 0.12082413
0.055996299 0.0080944002 0.11591411
0.054937005 0.011267766 0.11557341
-0.0027444363 0.051621825 0.1144565
0.056080997 0.0097021312 0.11123237
0.054558992 0.013352707 0.11143389
0.0043128729 0.052849591 0.11064908
-0.0014821291 0.052633822 0.11125067
0.056649745 0.011228919 0.10781166
0.055457652 0.014513806 0.10683689
0.0533849 0.017690971 0.1074217
0.0040302873 0.053303182 0.10686198
-0.0011872053 0.052461088 0.10724825
0.055472016 0.01634939 0.10274139
0.054162741 0.020156339 0.10303155
0.014104962 0.050780594 0.10155061
0.0094028115 0.052655995 0.10218847
0.0048400164 0.054055393 0.1023131
0.05346489 0.021403998 0.098406374
0.051626921 0.025073677 0.097854018
0.049141347 0.028769016 0.097487777
0.024874568 0.046773553 0.09750098
0.018825591 0.050048649 0.097975582
0.015441358 0.051300228 0.098432541
0.010153413 0.052829623 0.097788334
0.051080942 0.026538953 0.093743533
0.049495816 0.030716524 0.093711436
0.035956979 0.040754437 0.092795491
0.032646179 0.043275714 0.093281895
0.028267384 0.045861304 0.093957126
0.025273323 0.047841489 0.094099075
0.020920098 0.05023998 0.094022065
0.015962541 0.0520702 0.093567997
0.012493968 0.053465784 0.094747156
0.048960328 0.03065668 0.089454278
0.045948505 0.03535457 0.089671686
0.04373312 0.038473338 0.088569775
0.036995411 0.041504323 0.090137631
0.03411448 0.043564588 0.089647859
0.030612767 0.046647549 0.089602649
0.026392877 0.049172103 0.089606345
0.021498203 0.05105412 0.089179724
0.017583072 0.052117765 0.089182407
0.045800328 0.034217447 0.08521764
0.042940259 0.038742185 0.085156664
0.039518237 0.041956484 0.084773421
0.034931362 0.044115424 0.084531277
0.031273961 0.047521472 0.084798515
0.026637554 0.049964249 0.084419012
0.022338033 0.051078022 0.084866881
0.042229533 0.038776219 0.080836877
0.040438771 0.041800022 0.080561697
0.033420205 0.045312345 0.08084166
0.031385899 0.048034936 0.080845833
0.028282464 0.049611509 0.081032842
0.049257994 -0.022244826 0.15461275
0.052889943 -0.024200156 0.14948529
0.050112724 -0.021063238 0.15159559
0.053426862 -0.020710424 0.14530492
0.051243365 -0.018611029 0.14826167
0.053565443 -0.020450264 0.14362448
0.053718925 -0.016970396 0.14294675
0.055404127 -0.018041223 0.13941312
0.054915309 -0.015294537 0.13836679
0.053918719 -0.013075739 0.13613921
0.054044247 -0.0086813718 0.13037091
0.054890633 -0.0074512661 0.12645718
0.055361509 -0.0030183047 0.12224284
0.055105746 -0.0014628321 0.11760974
0.055165887 0.0011815876 0.11761507
-0.011597574 0.051545084 0.11702529
0.055663884 -0.00049066544 0.11260411
0.055586934 0.0029734969 0.11341628
-0.0083376765 0.049434811 0.11256817
-0.011347771 0.050007105 0.11245236
-0.013628423 0.051252395 0.11275679
0.056625724 0.00081433356 0.10963824
0.056148469 0.0051381141 0.10896438
-0.0059020519 0.051453233 0.10932401
-0.0092843771 0.051285982 0.10899851
0.056250691 0.0067116171 0.10488179
0.055785537 0.010535195 0.10367212
-0.003641963 0.052724749 0.10433835
-0.006770432 0.051832944 0.10556152
0.055733383 0.0081044286 0.10094523
0.054846525 0.01227513 0.10006014
0.0022189617 0.054396927 0.099668235
-0.0021893978 0.053279489 0.099923193
-0.0057002902 0.053456068 0.10089645
0.053982496 0.01353915 0.095514238
0.053579152 0.01725395 0.095933646
0.0078097582 0.053414762 0.09529224
0.0040415525 0.05392921 0.096532434
-0.00092959404 0.054115176 0.09548372
0.052663088 0.018420815 0.091161117
0.051006675 0.021935761 0.091316715
0.013377309 0.052411437 0.090902776
0.0089750886 0.05294472 0.091505438
0.004219234 0.053368449 0.091823667
0.052366972 0.019780219 0.087015793
0.050128102 0.023520038 0.086790904
0.049019575 0.027860209 0.086648449
0.018789649 0.051259726 0.086413771
0.014367163 0.052135587 0.087097555
0.0099489689 0.052739859 0.086729109
0.049994826 0.025327042 0.082076266
0.047795534 0.028544843 0.082216427
0.045617938 0.033154786 0.082246974
0.043473363 0.036298871 0.082100078
0.019831538 0.051169693 0.082329303
0.015246034 0.05204308 0.082607716
0.05084753 0.027240083 0.07790719
0.048577368 0.03009887 0.077660784
0.045820594 0.034220487 0.078234032
0.042660236 0.03788732 0.078214958
0.037536383 0.041161716 0.077799201
0.034287751 0.043721616 0.078371912
0.030625105 0.047528774 0.077911049
0.025545597 0.049772292 0.07820791
0.020702064 0.051056623 0.077816069
0.044800937 0.035144538 0.073924407
0.042611182 0.038620234 0.073400453
0.039313495 0.041249394 0.07347393
0.029197752 0.046376199 0.074423999
0.026277721 0.048206598 0.074293792
0.042164683 0.039691657 0.069930047
0.039599419 0.04187426 0.070042491
0.050046265 -0.026475668 0.15352675
0.047976851 -0.025088593 0.15526621
0.052060604 -0.025264785 0.15098837
0.052869976 -0.023627654 0.14667195
0.05321157 -0.020702183 0.14076969
0.052372754 -0.015408024 0.13195494
0.052606583 -0.013461009 0.1280162
0.053475976 -0.011481911 0.12295976
0.054153204 -0.0080560744 0.1224421
0.054229021 -0.01035659 0.11895216
0.053857565 -0.0074988455 0.11844859
0.054225087 -0.0061372966 0.11396539
0.055626512 -0.0042245984 0.10946542
-0.012302518 0.048972249 0.11322436
0.056387961 -0.00014019012 0.1067917
-0.01154691 0.050817728 0.10616186
0.056104541 0.00064687431 0.10299534
0.055794597 0.0036448538 0.10120782
-0.0098162889 0.052465916 0.10277489
0.054969311 0.0061331093 0.098180264
0.054118752 0.0090929419 0.097172081
-0.0041858554 0.052797377 0.099216014
-0.0078804493 0.053484678 0.09847787
0.054998279 0.0077980459 0.093221694
0.054494143 0.010784954 0.093809009
-0.0031620264 0.053763568 0.093046814
-0.0061807632 0.054486334 0.094969481
0.054244339 0.012374401 0.089114919
0.053660572 0.016861662 0.088764206
0.0026032925 0.052899927 0.088724405
-0.0017661452 0.053035051 0.089558572
0.054046929 0.01413554 0.085359916
0.052954137 0.018070027 0.084667727
0.050909281 0.021746278 0.084241077
0.0082932711 0.052800238 0.08405003
0.00397861 0.052829653 0.084955335
0.05242312 0.019934565 0.080231741
0.050621152 0.022737101 0.080419496
0.013476551 0.052446634 0.080702782
0.0096536875 0.052874982 0.080449492
0.0051832199 0.053219438 0.080835462
0.052480996 0.020734385 0.076169029
0.05103457 0.024370298 0.075639114
0.049913943 0.028924331 0.075477615
0.018276811 0.051735997 0.077115089
0.015594184 0.052179396 0.076245934
0.010930598 0.052744508 0.076335222
0.049900055 0.026606709 0.072683856
0.047185898 0.029575244 0.071800455
0.045842171 0.03395766 0.071878091
0.035776377 0.041261017 0.072446525
0.032850146 0.04308778 0.072312266
0.028766334 0.045734406 0.071409732
0.024865746 0.048379481 0.071797282
0.020515323 0.050133288 0.071252972
0.01611501 0.050898641 0.071768701
0.044618368 0.034592047 0.067001566
0.04291755 0.039126933 0.067499772
0.037944913 0.041960478 0.067160189
0.033635259 0.043693244 0.067386925
0.029808223 0.045660615 0.066534191
0.025755107 0.048050761 0.067068368
0.022377074 0.049659789 0.068066716
0.045000017 0.036303103 0.063104257
0.042742252 0.039655447 0.063465908
0.038939178 0.041799545 0.063194096
0.034597278 0.043328106 0.063463807
0.03162992 0.045133352 0.063305616
0.051555514 -0.025335103 0.14165276
0.052424073 -0.021295637 0.13498148
0.051312089 -0.022412479 0.13163903
0.050728858 -0.020279706 0.12853941
0.051652312 -0.017728597 0.12593976
0.053083003 -0.015502304 0.12116408
0.055168092 -0.016969949 0.11604401
0.054326355 -0.013480976 0.11674607
0.057502627 -0.014856353 0.1118131
0.055507779 -0.011098161 0.11259413
0.058479071 -0.012617484 0.10821104
0.056767821 -0.0093453079 0.10798055
0.056905866 -0.0069555938 0.10376015
0.055745959 -0.0039791465 0.10367119
0.057093203 -0.0057932884 0.099108696
0.055149138 -0.0028086752 0.09904018
0.058047771 -0.0044382811 0.095185697
0.054140091 -0.0011210889 0.095338821
0.053824604 0.0024656057 0.094687432
-0.010359406 0.051670104 0.09715724
0.054687023 0.0050557256 0.090262637
-0.0090622306 0.053041756 0.089927703
0.054940403 0.0069105178 0.086334929
-0.004706502 0.052567542 0.086892098
-0.0075554252 0.052801251 0.086189628
0.054720223 0.0081876069 0.08299531
0.053883255 0.011373147 0.081946537
0.0012255907 0.053076029 0.082169592
-0.0027527809 0.052344739 0.083032995
0.053025663 0.013096273 0.077784494
0.052612662 0.01640749 0.078934804
0.0024998188 0.053221703 0.078194052
-0.002084136 0.052512944 0.079140902
0.053472877 0.015237957 0.073062226
0.052572131 0.018481791 0.073432937
0.0080398321 0.052282184 0.073625535
0.0031654239 0.052795559 0.073810577
0.054212928 0.016306952 0.069897667
0.052339315 0.019394308 0.069207385
0.049851656 0.023443162 0.069111124
0.047125936 0.027213275 0.06896098
0.013441622 0.050536931 0.069205791
0.0082417727 0.050713718 0.070039839
0.050652862 0.023355499 0.064572826
0.047491789 0.02800642 0.065122709
0.045502126 0.031693831 0.064568028
0.02411145 0.048202813 0.064201981
0.019009233 0.048943102 0.064886183
0.014158428 0.04994607 0.065760285
0.050346553 0.02549015 0.060974311
0.047916174 0.029365718 0.060719598
0.045870543 0.033921599 0.060417522
0.04241395 0.038360506 0.05998965
0.03857106 0.0404827 0.059694987
0.033904731 0.042898923 0.060225736
0.029644132 0.046043277 0.060936216
0.024665177 0.04794085 0.060449373
0.020160496 0.048090041 0.0610728
0.045417666 0.033750638 0.056626428
0.042010427 0.037348494 0.055868018
0.037851691 0.040096939 0.05549271
0.032954931 0.042858362 0.056576442
0.029268563 0.045808852 0.056187045
0.024875522 0.048122942 0.055994552
0.036647916 0.041635454 0.051919173
0.05107373 -0.022478014 0.12791193
0.052074313 -0.021127254 0.12493035
0.051196575 -0.019429564 0.12344033
0.053233147 -0.019439533 0.11934236
0.051202714 -0.019316331 0.12164351
0.054932058 -0.017239273 0.11589476
0.05722034 -0.015611947 0.1114839
0.057175875 -0.010081142 0.10189235
0.057264566 -0.0080801249 0.096656352
0.055204868 -0.0038892627 0.096492738
0.057285607 -0.007270515 0.092456967
0.054580867 -0.0033774674 0.092532724
0.053414047 0.00086462498 0.092124626
0.05648756 -0.0058537424 0.088621452
0.053727925 -0.0020350069 0.088645086
0.053621411 0.00072935224 0.087906644
0.053959906 0.0014096946 0.08354269
-0.010816455 0.052266598 0.08367911
-0.013643444 0.052490622 0.083452225
0.054267108 0.0070362538 0.079604819
-0.0047963262 0.05219698 0.079200059
-0.0091091394 0.052429497 0.079021364
0.05377233 0.0089914352 0.074526474
-0.0039869547 0.052332819 0.074745953
-0.0081110001 0.052609026 0.074945599
0.0542202 0.011869043 0.071651503
0.0018258691 0.052595049 0.07081759
-0.0019823313 0.053257465 0.070291609
0.054893315 0.013936967 0.067259386
0.053991675 0.017593846 0.066533849
0.010954559 0.050196111 0.066822916
0.0079066157 0.050703287 0.067083061
0.003205061 0.051674545 0.067284971
-0.00085115433 0.052735806 0.067236871
0.054629326 0.014707953 0.062707737
0.053254962 0.018625349 0.063145563
0.051377714 0.022712052 0.062075775
0.016458094 0.049029231 0.062258843
0.013360858 0.049483478 0.062476818
0.0085838437 0.050372183 0.062613398
0.0049237609 0.051693499 0.063735723
0.051609755 0.019353032 0.05887695
0.050549507 0.023364916 0.058259446
0.048667908 0.027268067 0.057999391
0.018780291 0.048911691 0.059077512
0.014105439 0.049837023 0.057809304
0.0091782808 0.051125526 0.0585366
0.049708068 0.02401118 0.054423142
0.047066391 0.028362408 0.054118086
0.045011878 0.032442138 0.053373445
0.042995393 0.035805568 0.05337568
0.032893896 0.041957647 0.053596597
0.028951168 0.04576987 0.053195279
0.023829162 0.048424363 0.053206485
0.019248247 0.049160212 0.053556722
0.01553911 0.049785197 0.053971808
0.045925677 0.029178083 0.049603928
0.04415834 0.033108994 0.049034555
0.041693568 0.037234232 0.049715836
0.038161159 0.04063946 0.049803417
0.032582164 0.042551905 0.049120229
0.028653741 0.045844018 0.049278926
0.024597824 0.048301637 0.049327444
0.020361543 0.049538314 0.049228381
0.04340297 0.034427226 0.045202214
0.040916264 0.037325978 0.044870179
0.037209392 0.040856302 0.045200091
0.033084273 0.043407708 0.045764368
0.028891325 0.046444952 0.045735698
0.025331616 0.047724605 0.04516561
0.026458621 0.056272388 0.033598553
0.032013357 0.053653091 0.031317454
0.030442238 0.055256933 0.03183658
0.056724072 -0.013825253 0.093324989
0.057228684 -0.013144046 0.091821268
0.057747602 -0.0084300637 0.089904115
0.056916654 -0.009150669 0.085636392
0.053974152 -0.0059405565 0.085475966
0.053407848 -0.004344672 0.081241176
0.05340749 -0.0010328442 0.081055924
0.053622782 -0.0031908751 0.077452943
0.053313434 0.0014281571 0.076971456
-0.012488008 0.051920414 0.077879757
-0.015617609 0.051480114 0.075881094
0.052980542 0.0025535077 0.072462365
-0.010444462 0.051532924 0.071325451
-0.013479233 0.052720636 0.07314533
0.053553343 0.0053139329 0.067314491
0.054308176 0.00875929 0.0679221
-0.0052405596 0.05297488 0.06892392
-0.0078778267 0.053821921 0.068109959
-0.010804176 0.054783583 0.068021655
0.054751158 0.0070109367 0.062567815
0.054401994 0.0091847181 0.063325331
0.00022214651 0.051843047 0.063369244
-0.003279686 0.05196619 0.063349754
-0.0069726706 0.052661061 0.063825786
0.054510534 0.011728451 0.059881914
0.053304553 0.016003162 0.059955884
0.0063608885 0.051130116 0.060100745
0.0021004677 0.051237524 0.060481112
0.053972125 0.013796926 0.05589335
0.051870346 0.016958371 0.055818904
0.050471723 0.020929039 0.055324364
0.0078998804 0.05124861 0.055603575
0.0031620264 0.051411122 0.055887323
0.05396378 0.014725327 0.051915336
0.051507056 0.018080026 0.051250804
0.049148142 0.02199924 0.050943006
0.046512365 0.025455177 0.050824422
0.012674034 0.049604356 0.051094633
0.0079936981 0.051044166 0.051149022
0.0038728714 0.051963806 0.051972847
0.04915911 0.023460537 0.046561439
0.046603024 0.027268797 0.046838868
0.045015216 0.030934528 0.047148813
0.019146383 0.049202353 0.046291482
0.014607608 0.050017774 0.046685051
0.048600554 0.024977058 0.042849023
0.047077715 0.028516963 0.041913945
0.044373989 0.03284131 0.042650569
0.041077495 0.036616355 0.041997951
0.036786199 0.03957051 0.041903149
0.03251183 0.041899979 0.042035323
0.028442264 0.043884397 0.041599791
0.023517966 0.046175659 0.041675787
0.018966675 0.04868108 0.043586742
0.014651835 0.050459325 0.042991143
0.04698503 0.029972583 0.038596053
0.043885469 0.033876032 0.037976969
0.040604234 0.036791623 0.037777197
0.03731811 0.039390028 0.037323814
0.035017073 0.041217178 0.037655365
0.040703773 0.037638322 0.033029478
0.037323594 0.0407013 0.033598345
0.026702106 0.051123232 0.031926315
0.022506952 0.053455174 0.03306083
0.031897545 0.050289989 0.028822169
0.028093398 0.052500784 0.026585832
0.055648327 -0.0091690272 0.083388165
0.054991901 -0.010631219 0.080126688
0.053823173 -0.007328108 0.079384044
0.053788781 -0.0054819584 0.07472299
0.053522468 -0.003502056 0.070129409
0.053362012 0.00052690506 0.069877252
-0.013969839 0.051461428 0.06965214
0.053576231 0.0014815181 0.065825418
-0.011617184 0.051523387 0.06843397
-0.014695287 0.051025599 0.067355245
0.054777265 0.003181234 0.061060023
-0.0053128004 0.051464975 0.060630333
-0.0101614 0.051933944 0.060933385
0.055070519 0.0064584762 0.056648124
-0.0046670437 0.050489545 0.056322586
0.053983271 0.010426432 0.053659756
0.00082439184 0.051137447 0.053623807
-0.0021252036 0.05072999 0.052571487
0.05339992 0.012973621 0.049084414
0.052705526 0.016977951 0.049222637
0.0024740696 0.05171904 0.048856836
-0.0027070045 0.052467585 0.049407285
0.052465439 0.013510108 0.045117427
0.052580893 0.018855646 0.045420993
0.050372481 0.021615118 0.044915337
0.011218071 0.050326675 0.045769583
0.0086427331 0.051420122 0.045430433
0.0042103529 0.051675379 0.044560712
0.052283645 0.019281164 0.040202517
0.050025821 0.023827791 0.040611733
0.02162838 0.046884 0.039757293
0.018431246 0.048457682 0.040398281
0.013964057 0.050753653 0.04055671
0.0095338821 0.051190317 0.04013915
0.051254153 0.020678744 0.035984654
0.04960525 0.024535254 0.036321212
0.04782027 0.028373286 0.03565653
0.044273496 0.031152248 0.03481089
0.030791998 0.040632635 0.03606547
0.027300358 0.043216437 0.036065411
0.023285568 0.046487987 0.036193561
0.01901722 0.049512357 0.03613494
0.014462948 0.050806344 0.035637867
0.010625958 0.050785959 0.035991084
0.046953619 0.028283507 0.030392665
0.044082761 0.031313121 0.030388791
0.042235255 0.036149159 0.031611282
0.03858155 0.039705038 0.031605672
0.032732487 0.04102385 0.031612497
0.02805692 0.044513524 0.030967247
0.024931014 0.048068643 0.032684844
0.020733714 0.0503681 0.033121239
0.017130852 0.050673217 0.030129235
0.04107666 0.036447674 0.026292965
0.038199127 0.04058966 0.026609883
0.035195768 0.042453587 0.026451841
0.030525208 0.045691222 0.026354864
0.037835956 0.04253757 0.021906361
0.035124123 0.044629395 0.021732315
0.027337551 0.049562454 0.023061231
0.03854996 0.044435978 0.01653035
0.054831445 -0.013328031 0.077163503
0.054621875 -0.012078002 0.072694764
0.053710222 -0.0080571771 0.071803406
0.054768443 -0.010209739 0.068711355
0.053981543 -0.0064517707 0.068259224
0.053226888 -0.0045693368 0.064009443
0.053596854 -0.0020149648 0.058656681
-0.013011694 0.051365137 0.058323514
0.054082811 -0.0011704117 0.054270137
0.05496943 0.0024745762 0.055019546
-0.011492491 0.049714476 0.054223906
0.052896261 0.0050661266 0.050087322
0.05317533 0.0087565482 0.049236435
-0.0056711435 0.050950646 0.051594924
-0.010081053 0.050505936 0.049110632
0.053187847 0.006387949 0.04533397
0.052655518 0.0092652291 0.046030242
-0.0038579702 0.052747577 0.046537112
0.053753078 0.0072021335 0.042898137
0.052459002 0.011074916 0.042144347
0.00035262108 0.051338553 0.042348962
-0.0032858849 0.051477522 0.04308502
-0.0063985586 0.052433819 0.043180656
0.052490175 0.0131367 0.038428236
0.052383542 0.016659513 0.036600698
0.0063916445 0.05045259 0.037141453
0.0032346249 0.051140964 0.039068799
0.051330745 0.017689764 0.033254404
0.049905419 0.021498919 0.032753933
0.012545228 0.050646842 0.032598864
0.0075434446 0.049932599 0.033075165
0.051758647 0.019105971 0.029546157
0.049681067 0.022439197 0.028905883
0.047851443 0.02590695 0.028759643
0.029812455 0.040722311 0.028568432
0.011601329 0.048765361 0.029509738
0.05662328 0.019648746 0.025394991
0.048585057 0.023789316 0.024601832
0.046793044 0.027398288 0.023860142
0.043444991 0.031133339 0.024162605
0.041617393 0.035626948 0.023560092
0.030813277 0.041733503 0.024709806
0.052386165 0.026023373 0.016858116
0.046616793 0.028958291 0.019592687
0.04390502 0.032384887 0.019140914
0.041050434 0.03661789 0.019833252
0.038306653 0.039782107 0.019940779
0.028483629 0.045864761 0.021798506
0.043910265 0.033671156 0.015470162
0.04071784 0.037177518 0.015182152
0.03877908 0.041621506 0.016535655
0.036244631 0.044480205 0.016777888
0.054999828 -0.011572763 0.065997109
0.053723097 -0.011049211 0.062275391
0.052805185 -0.0071186572 0.061275702
0.052219868 -0.0061641484 0.056610215
0.053349197 -0.0032353699 0.052251447
0.053743839 -0.0011185259 0.047337819
0.053200483 0.0019571185 0.048033852
-0.012650132 0.050377756 0.049263608
0.054077148 -0.00050236285 0.043754894
0.05378598 0.0026566982 0.04299565
-0.010073066 0.051068634 0.044439714
0.054121375 0.0052026212 0.03922509
0.052684069 0.0088801086 0.039330173
-0.004550159 0.050953507 0.040183138
0.054509521 0.0071239769 0.037186701
0.052402675 0.0093548894 0.035490323
0.00072658062 0.049867094 0.035117548
-0.0036892891 0.050264835 0.035882603
0.051993847 0.011383116 0.030272294
0.051914692 0.014927953 0.03136735
0.0053694248 0.049687684 0.030894201
0.0011921525 0.049169302 0.030837875
0.0543015 0.013614833 0.026496485
0.052284896 0.016952023 0.026548222
0.049983025 0.021318093 0.025964424
0.010919631 0.047990382 0.026306853
0.0061392784 0.048023969 0.026778653
0.0027758479 0.048755825 0.026684031
0.056830049 0.017307743 0.024438009
0.053769648 0.020006552 0.022634462
0.050133228 0.02274175 0.022403821
0.0479967 0.025999695 0.021396801
0.053146422 0.021449313 0.01907374
0.050929666 0.024311289 0.017863914
0.047977328 0.028019488 0.017624512
0.04524529 0.031140208 0.016780898
0.049635053 0.025800928 0.013839979
0.046701908 0.028453991 0.013552416
0.044014752 0.032024398 0.013259549
0.040937006 0.034521148 0.012855548
0.042090535 0.032122597 0.01014461
0.039901733 0.036118746 0.011220504
