# .PCD v0.7 - Point Cloud Data file format
VERSION 0.7
FIELDS x y z
SIZE 4 4 4
TYPE F F F
COUNT 1 1 1
WIDTH 1348
HEIGHT 1
VIEWPOINT 0 0 0 1 0 0 0
POINTS 1348
DATA ascii
0.035436392 0.024250984 0.29294175
0.032832563 0.025832772 0.29466999
0.040002644 0.027320594 0.28653246
0.036555707 0.027789533 0.2897687
0.03990376 0.029247642 0.28304189
0.037259281 0.030928493 0.28594869
-0.044096351 0.029487908 0.28475487
-0.046206832 0.026670694 0.28418589
0.037738085 0.033400685 0.28160948
-0.04365766 0.029578984 0.28166312
-0.046356201 0.028343558 0.28064957
0.039842427 0.035171092 0.27573243
0.038101614 0.036306351 0.27795082
-0.043823361 0.031652093 0.27743983
-0.047562122 0.031704545 0.27655664
0.039770126 0.037976503 0.27166092
0.038393974 0.039052606 0.2734834
-0.040370345 0.036064357 0.27161151
-0.044124246 0.034178525 0.27311873
-0.047656178 0.03337425 0.27348602
0.039547086 0.039167762 0.26722336
0.037592947 0.041664183 0.26894364
-0.040396452 0.038228959 0.268453
-0.043284833 0.035440475 0.26821679
0.036657989 0.043784559 0.2637915
-0.039473057 0.039719582 0.26400244
-0.042334676 0.036768973 0.26288939
0.03570056 0.045451105 0.25915504
-0.039177477 0.040861249 0.25889274
0.035840213 0.046287328 0.2549521
0.032286286 0.048634648 0.25537878
-0.037915587 0.04302752 0.25485641
0.03433466 0.047648907 0.25193715
0.030447543 0.049655914 0.25090265
0.026694596 0.052804708 0.25016412
-0.034916639 0.046776474 0.25036141
0.029744625 0.051308393 0.24608332
0.025799155 0.053572595 0.2465173
-0.026107013 0.051879585 0.2458393
-0.02966845 0.050052226 0.24598682
-0.032839656 0.049077928 0.24599147
0.029175758 0.05262652 0.24132362
0.025389671 0.054365724 0.24183321
0.020400465 0.056132555 0.24197033
-0.021278262 0.054410398 0.24325776
-0.024976969 0.052451432 0.24220741
-0.029395938 0.050799251 0.24134439
0.023300529 0.055480421 0.23762554
0.019723892 0.056797206 0.23776099
0.015728414 0.057894945 0.23754114
0.011382341 0.058659524 0.23704654
-0.015931129 0.057330161 0.23758715
-0.020341456 0.056348324 0.23791245
-0.024945855 0.054316282 0.23720938
-0.028579116 0.051751375 0.23784879
0.018330097 0.057133734 0.2333248
0.014530241 0.058202058 0.23292068
0.0099310279 0.059202224 0.23352343
0.0055262446 0.059682906 0.23371744
0.00084400177 0.060280919 0.23290658
-0.0049499273 0.060494721 0.2324349
-0.010844231 0.06016618 0.23253161
-0.015661001 0.058806896 0.23366341
-0.020169795 0.057476163 0.23319629
-0.024865866 0.055497527 0.2329286
0.013667762 0.058795661 0.22955585
0.0093658566 0.059628844 0.22944656
0.0049409866 0.060010791 0.22840652
0.00030505657 0.06092608 0.22873014
-0.0047394037 0.061024487 0.22898966
-0.0098440051 0.060218632 0.22867185
-0.014219761 0.058774799 0.22913221
-0.018367112 0.057157815 0.22954199
0.0032064319 0.06107986 0.22550571
6.633997e-05 0.061346799 0.22562689
-0.0051060319 0.061153412 0.22499746
-0.0096213222 0.0602988 0.22546411
0.030990362 0.014165521 0.30880526
0.02214992 0.011777103 0.31076121
0.019694686 0.010655344 0.31135297
0.030952096 0.014950216 0.3074117
0.029350042 0.014873266 0.30741242
0.03650856 0.015801966 0.29997966
0.032846451 0.016898751 0.30210915
0.039793551 0.017796874 0.29395372
0.036778331 0.018605262 0.29569492
0.033849359 0.01961422 0.29823965
0.040642977 0.020748436 0.29141736
0.037772298 0.022325754 0.29207101
0.03381145 0.02216661 0.29486823
0.044617355 0.025346279 0.28607738
0.041724384 0.025149405 0.28781953
0.044990063 0.025694013 0.28176856
0.042152166 0.027012348 0.28332716
0.044821978 0.027449846 0.27743885
0.041254878 0.029559433 0.27918777
0.044067025 0.030699819 0.27233726
0.042253554 0.031607598 0.27491957
0.041942179 0.034678996 0.2704404
-0.045379162 0.032521039 0.26981854
-0.047097325 0.0318349 0.26968187
0.040799081 0.036053479 0.26569781
-0.044783413 0.034435272 0.26552713
-0.047129154 0.033639789 0.26694673
0.03943193 0.038579136 0.26171798
-0.044801533 0.035355896 0.26188064
-0.047284365 0.035293013 0.2633884
0.038780749 0.03937757 0.25619847
-0.044123888 0.03861469 0.25733817
-0.047613382 0.038507223 0.25624314
0.038638592 0.040267676 0.25322926
0.036728084 0.044571102 0.25166494
-0.040022254 0.04106766 0.25348669
-0.044298172 0.041198105 0.2536878
-0.048153579 0.040260017 0.25376797
0.034817755 0.046842992 0.24854138
0.032488525 0.048645347 0.24743587
-0.036507368 0.044335663 0.24800837
-0.039283335 0.039597392 0.24870187
0.034416914 0.047827542 0.24354088
0.032315016 0.049275547 0.24440429
-0.035036206 0.046174049 0.24446845
-0.037124991 0.043930352 0.24310827
0.033460677 0.048329115 0.23932272
0.031040907 0.050507903 0.23933029
-0.031260371 0.050219059 0.23961234
-0.034664035 0.047743231 0.2396062
0.029307961 0.0516662 0.23576021
0.025701225 0.053388834 0.23492765
0.022536814 0.055314422 0.23491326
-0.029949129 0.051482171 0.23538142
-0.033213675 0.049027205 0.23556334
0.024117708 0.053119719 0.23051921
0.020777941 0.055589318 0.23076031
0.017542362 0.056839019 0.23056784
-0.025912225 0.054318815 0.22965708
-0.028503895 0.052137673 0.23070002
0.019446433 0.055505872 0.22611654
0.015726507 0.056751132 0.22629976
0.010390103 0.058641076 0.22617716
-0.015100479 0.056500226 0.22561163
-0.020172477 0.054183513 0.22751459
-0.023524046 0.054827064 0.22895873
0.014534354 0.057352901 0.22264898
0.010332704 0.058324993 0.22182685
0.005128324 0.059495896 0.22223994
-0.00043946505 0.059902251 0.2219741
-0.0050994158 0.05948776 0.22145647
-0.010215878 0.058282018 0.22196844
-0.015042603 0.056833923 0.22149694
0.0042552948 0.05928117 0.21724245
0.00071179867 0.05994302 0.21708196
-0.0047158003 0.059491992 0.21717656
-0.008912921 0.05864656 0.2184734
0.0013290048 0.060772151 0.21404743
0.041311145 0.016834885 0.29375038
0.039595425 0.014407158 0.29485199
0.047471046 0.025894731 0.27623275
0.046607673 0.026533604 0.27199385
0.043707132 0.029671609 0.26815566
0.041860998 0.03130126 0.26299095
0.040189922 0.034873247 0.25828019
0.039913058 0.035511971 0.25364101
0.039771378 0.037010908 0.25000051
0.037957251 0.04001075 0.24957135
-0.044092834 0.03583467 0.24914664
-0.047466159 0.034932464 0.24896115
0.039578736 0.039780796 0.24426225
0.037462115 0.042315036 0.24574679
-0.040232182 0.038626432 0.2454688
-0.04382354 0.03594929 0.24579468
0.036893785 0.043737113 0.24105895
-0.039883077 0.04003185 0.24172205
-0.042708397 0.038017333 0.24082685
0.034707904 0.045338511 0.23770204
0.033121645 0.047334313 0.23583043
-0.038832664 0.0424698 0.23710132
-0.043247759 0.039282113 0.23792943
0.03074789 0.048510909 0.23233145
-0.035158634 0.046024203 0.23218066
-0.037553668 0.043700635 0.2325514
0.029076993 0.049561262 0.22946101
0.026219249 0.050967962 0.22766787
-0.030915141 0.048488796 0.2280919
-0.033033609 0.04658708 0.22742674
0.024312019 0.051895082 0.2248593
0.021264613 0.053798467 0.22362584
-0.020107627 0.051894248 0.22418141
-0.0245471 0.05130583 0.22391132
-0.028556228 0.049738526 0.22352096
0.019475043 0.054439545 0.22030476
0.015043378 0.055692971 0.21921918
0.011021554 0.057087839 0.21935976
-0.019745946 0.0527789 0.21927226
-0.024221301 0.051550627 0.21907097
0.014511347 0.055916667 0.21451163
0.0098907948 0.057269752 0.21533298
0.0061501265 0.058687299 0.21545899
-0.0054224133 0.05838412 0.21343082
-0.0099698305 0.057686627 0.21542183
-0.014376402 0.05700928 0.21538955
-0.018506765 0.055040181 0.21536326
0.0084583163 0.057605326 0.21079384
0.0047536492 0.059643507 0.21069725
1.6391277e-05 0.060197026 0.21093731
-0.0045150518 0.059910715 0.21091841
-0.0096313357 0.059155852 0.21043666
-0.014660895 0.057780892 0.21009405
-0.018006444 0.056433976 0.21056063
0.0030202866 0.059921324 0.20718046
-0.00053578615 0.060212314 0.20666258
-0.0050358772 0.06031251 0.20659713
-0.0099675655 0.059575349 0.20644484
-0.013187468 0.059012324 0.20714737
0.046902895 0.019377768 0.27851933
0.050824642 0.023008168 0.2729283
0.054782987 0.024536043 0.27004749
0.051043868 0.023563325 0.26947162
0.047727704 0.024748534 0.26911384
0.056177855 0.024159372 0.26676041
0.049877524 0.024667859 0.26407194
0.046498775 0.024571896 0.26478481
0.043299913 0.027509689 0.26448515
0.050022364 0.026279092 0.25963771
0.044845283 0.02593863 0.26025963
0.043069303 0.027985752 0.26060241
0.044334352 0.027657032 0.2556923
0.042192757 0.030904174 0.25650007
0.044221044 0.031957746 0.24948859
0.042104244 0.033604801 0.25234115
0.044158578 0.032485902 0.24800447
0.041493773 0.035296828 0.24753267
0.041368723 0.036909342 0.24315017
-0.044968247 0.03467977 0.24322277
-0.047066212 0.033720046 0.24380952
0.03993845 0.040102661 0.23913631
0.0376845 0.042236745 0.23764598
-0.043894768 0.036759555 0.23856699
-0.047338605 0.032689363 0.23948976
0.039392292 0.041035742 0.23445541
0.036108077 0.04308933 0.23444104
-0.040147841 0.041684896 0.23366332
-0.043350458 0.039547205 0.23495784
0.035421789 0.04349947 0.23007679
0.03251946 0.044954717 0.23031205
-0.039334059 0.040845633 0.23016265
-0.043171346 0.039415061 0.23145598
0.034334838 0.044321835 0.22629339
0.03091073 0.046721935 0.22571602
-0.035489917 0.043855309 0.22563091
-0.038598061 0.041519642 0.22624832
0.029181123 0.048105299 0.22108585
0.026138365 0.050802588 0.22176376
-0.030332088 0.048415601 0.22125715
-0.033961177 0.045719147 0.22186187
0.028559089 0.049737662 0.21530384
0.025565863 0.050825298 0.21731687
0.021420956 0.052641571 0.21735978
0.017668366 0.053484797 0.21656597
-0.024544716 0.051172495 0.21650064
-0.029686868 0.048549294 0.21712041
-0.033116758 0.046162188 0.21845311
0.025478125 0.052566051 0.21227811
0.020664096 0.053771257 0.21331072
0.01624167 0.055025399 0.21309111
-0.020620167 0.053144932 0.21290863
-0.02495569 0.051000267 0.21282542
-0.02837491 0.049154878 0.21348459
0.024103165 0.054840147 0.20778723
0.020402193 0.055489957 0.20804204
0.015617013 0.055683464 0.20866944
0.011020839 0.055971622 0.20895059
0.0076271892 0.05719161 0.20792665
-0.020603538 0.053769171 0.20834257
-0.024192691 0.051679552 0.20893569
0.01960063 0.056839705 0.20320697
0.015342534 0.057281792 0.20345978
0.010532498 0.057455003 0.20381553
0.0055201054 0.058024585 0.20413218
0.00044816732 0.058337778 0.20299812
-0.005151391 0.058605433 0.20263387
-0.010462284 0.058449924 0.20278604
-0.015424311 0.057676524 0.20405503
-0.018673301 0.056471288 0.20395644
0.013470888 0.057879567 0.19973673
0.0099757314 0.058838129 0.19942601
0.0054383874 0.059427798 0.19868194
0.00056397915 0.059251368 0.19870265
-0.0046377182 0.058932304 0.19884993
-0.0097754598 0.058538079 0.19863816
-0.014923215 0.057815343 0.19932486
-0.019143283 0.056182921 0.19970991
0.053480029 0.019991934 0.26664352
0.052724004 0.021170616 0.26311135
0.052011013 0.024266839 0.25841463
0.046919703 0.024609983 0.25863516
0.050686002 0.026746988 0.25426558
0.046203852 0.025492996 0.25344133
0.049883068 0.027970672 0.24896568
0.046528101 0.028413802 0.24983647
0.04624927 0.030067444 0.24525827
0.044540107 0.032520264 0.24151087
0.043654084 0.033588737 0.23935568
0.045038939 0.032659382 0.23664057
0.042851686 0.036178529 0.23678103
-0.048134446 0.032346636 0.23777992
0.041698694 0.038595915 0.23265576
0.039963245 0.040400624 0.22840741
0.037418842 0.041862369 0.22665805
-0.041349769 0.038217425 0.22782695
-0.044279456 0.037234455 0.22782815
-0.046810448 0.035021245 0.22701567
0.035288155 0.042488515 0.22325787
-0.039899707 0.040177196 0.22369719
-0.043536723 0.038208246 0.22291672
-0.047572374 0.036552995 0.22305614
0.034753144 0.042020708 0.21959138
0.03170681 0.045032918 0.21917504
-0.035795271 0.043718994 0.21943256
-0.038804471 0.040360451 0.21878174
-0.043072701 0.038381219 0.21965367
0.030705214 0.046859622 0.21459123
-0.031821787 0.047407687 0.21384451
-0.034585416 0.044504255 0.2146821
-0.037496686 0.040832579 0.21530771
0.029483914 0.048425198 0.21013089
-0.027031183 0.050136983 0.20961799
-0.029823124 0.048144609 0.21038656
-0.032872319 0.045547009 0.21040036
0.029023826 0.050170511 0.20656721
0.026720941 0.052589446 0.20567234
-0.024836421 0.051179409 0.20602246
-0.029221714 0.048884004 0.20594127
-0.032685816 0.046611249 0.20696975
0.023999095 0.055531383 0.20217524
0.021100938 0.056951344 0.20155214
-0.020895898 0.053293824 0.20216896
-0.023893356 0.051176846 0.20211367
-0.027992249 0.048662245 0.20251213
0.023371696 0.055068076 0.19813545
0.019936264 0.056676686 0.19712128
0.015197039 0.058351249 0.19797821
0.010525405 0.05894351 0.19719516
-0.014390469 0.05764395 0.19675471
-0.019553185 0.054899037 0.19735704
-0.023105502 0.051830828 0.19839759
0.01777792 0.056660831 0.19425164
0.014656067 0.057258308 0.1929967
0.0096415877 0.05829221 0.19238059
0.0050204396 0.058630109 0.19306929
3.5703182e-05 0.058953822 0.1932546
-0.0047163963 0.059497684 0.19384439
-0.0098538399 0.057882667 0.19306631
-0.014677525 0.056167185 0.19340627
-0.019155502 0.054270923 0.1940697
-0.0019220114 0.058546066 0.1901262
-0.0051341653 0.058801293 0.19026174
-0.0085802078 0.05748257 0.18988551
0.053792596 0.019289702 0.25923613
0.053636968 0.019880414 0.25613996
0.051730812 0.0223158 0.24943691
0.055031419 0.024618745 0.24752378
0.051899016 0.023787349 0.24539524
0.049928069 0.026096761 0.24305964
0.047364235 0.028926492 0.24272686
0.049785256 0.026913166 0.23999536
0.047079921 0.029612362 0.23885661
0.046719134 0.031261116 0.23378229
0.044706225 0.032597244 0.23169923
0.043146074 0.035327017 0.22998908
0.042087615 0.036368608 0.22533908
-0.048162818 0.033214211 0.22488147
0.039452136 0.03810209 0.22089076
0.037253857 0.039426118 0.22080237
-0.045744359 0.036128342 0.22070414
-0.048817694 0.0346919 0.22075054
0.036239743 0.040671349 0.21641359
-0.039971232 0.03961277 0.21664858
-0.043415189 0.038581252 0.21639705
-0.047874391 0.035347253 0.21573067
0.03902328 0.04088825 0.21170963
0.03576684 0.043151438 0.21192439
0.032884836 0.045625925 0.21236722
-0.039433599 0.03902775 0.21290129
0.035527587 0.044842631 0.20729251
0.032367468 0.046842843 0.20840235
-0.035681546 0.043477178 0.2085702
0.033928156 0.045747459 0.20402659
0.030994296 0.048335463 0.20337148
0.027556896 0.04976517 0.20200284
-0.030638576 0.046958327 0.20286335
-0.033591509 0.044775248 0.20407803
0.029509187 0.049207956 0.19955768
0.026511848 0.050734818 0.19944014
-0.026015759 0.049180508 0.19895114
-0.028951406 0.047273964 0.19915457
0.024871945 0.051500261 0.19484596
0.021632493 0.054803431 0.1935931
-0.021907687 0.051855385 0.19417934
-0.024494886 0.050484657 0.19462399
-0.027324259 0.047720462 0.19463231
0.020522475 0.054567635 0.19015335
0.016062021 0.056197047 0.18974252
0.012501836 0.056878626 0.18934678
0.0035584569 0.057031155 0.18954138
0.0011082292 0.056978077 0.18956359
-0.01212883 0.055566281 0.18931516
-0.015805185 0.054556549 0.18972011
-0.019599557 0.053641796 0.19049694
-0.023057938 0.05012536 0.19054033
0.018539786 0.053936273 0.18658634
0.015219569 0.056228578 0.18590929
0.010602951 0.057011366 0.18603219
0.005711019 0.057062864 0.18613006
0.00046765804 0.056795239 0.18629684
-0.0048717856 0.057194114 0.18634619
-0.0098609924 0.056540459 0.18621142
-0.014382422 0.055137336 0.18560798
-0.018677473 0.053753674 0.18599902
0.0045564771 0.056755662 0.18264727
-2.5033951e-05 0.057504892 0.18151389
-0.0044313073 0.057865798 0.18146561
-0.0095030069 0.056728512 0.18116577
-0.013365269 0.055713594 0.18202592
-0.017844319 0.05461669 0.18230037
-0.0014641881 0.057927787 0.17802443
-0.0047457814 0.058141172 0.17772497
0.051402092 0.021392584 0.24512666
0.05129385 0.023944974 0.2408534
0.05022186 0.024713576 0.23612481
0.050838709 0.026019365 0.23149878
0.049121499 0.025854468 0.23065066
0.045913339 0.030096352 0.22769669
0.04544121 0.030638844 0.22307366
0.042972147 0.032839 0.22184801
0.041619241 0.034593612 0.21855399
-0.05145669 0.031860471 0.21956882
0.04036814 0.036949754 0.21450871
0.040697932 0.038889706 0.21025695
-0.04028827 0.037035137 0.21005665
-0.044031382 0.035226941 0.21020342
-0.047944069 0.034324229 0.20986749
0.039469361 0.04118973 0.2059197
0.037760973 0.042357922 0.20377283
-0.039656162 0.037488937 0.20632015
-0.044129431 0.036037028 0.20645489
-0.047685862 0.037256002 0.20715435
0.035883725 0.043839335 0.20122026
-0.03509748 0.041920662 0.20109408
-0.037669301 0.039599717 0.20069535
0.033844292 0.045342207 0.19757713
0.031184673 0.047282398 0.19683783
-0.030635357 0.04540664 0.19733144
-0.034500778 0.042769492 0.19678988
0.030060053 0.047496408 0.192241
0.026131392 0.049482346 0.19214778
-0.02988863 0.046805501 0.1928973
-0.033342242 0.044250131 0.19277169
0.024366856 0.050481677 0.18800469
-0.025174975 0.049484432 0.18826185
-0.028571725 0.047451079 0.18834169
0.023362339 0.051505089 0.18271638
0.020371675 0.053989291 0.18430246
0.016800642 0.055374622 0.18368699
-0.020555198 0.053310603 0.18418129
-0.024559617 0.05008775 0.1834579
-0.028471828 0.04780823 0.18362169
0.019319296 0.05458045 0.17910428
0.014824033 0.055465996 0.17947833
0.0098897815 0.055400372 0.17953856
0.00537467 0.056446373 0.18033616
0.0018643737 0.056680799 0.18010826
-0.015215039 0.055414855 0.18024929
-0.020106196 0.054372072 0.17969193
-0.024398029 0.050734878 0.17939235
0.015287042 0.055386454 0.17515595
0.0098080635 0.055471122 0.17458935
0.0045266151 0.056410313 0.17506276
-8.9943409e-05 0.056800812 0.17480688
-0.0051217675 0.057605565 0.17433257
-0.009991467 0.057263434 0.17536892
-0.01507622 0.056206584 0.1750914
-0.019659281 0.054565728 0.17517833
0.0043030381 0.056578457 0.17058687
-0.00093477964 0.057228267 0.17021407
-0.0054784417 0.05775249 0.17030342
-0.010199904 0.05685997 0.17024477
-0.013819993 0.056411922 0.17084081
0.050731719 0.023392946 0.23245978
0.051247358 0.024175555 0.22933996
0.048974931 0.026002824 0.22820085
0.051232219 0.02585268 0.22479504
0.048786521 0.026293755 0.22495019
0.050935507 0.024734229 0.22114146
0.047201216 0.027267873 0.21989077
0.045449138 0.028456956 0.21596944
0.043500721 0.030186772 0.21607113
0.04548347 0.030550927 0.21222265
0.043260694 0.031262994 0.21133824
0.042580307 0.035077691 0.2070743
0.041941226 0.037448168 0.20281856
-0.040090442 0.033796549 0.20148967
-0.04345578 0.032811999 0.20225661
-0.047674417 0.032399923 0.20202519
0.040432334 0.03875953 0.19839396
0.038123727 0.041224062 0.19834594
-0.040163875 0.03545773 0.19860817
-0.043418348 0.034249604 0.19700529
-0.047073185 0.033789903 0.19819565
0.039391279 0.039596677 0.19441314
0.036243916 0.041921318 0.19434197
-0.039446652 0.037974775 0.19427712
-0.04288125 0.036443412 0.19270881
0.035550296 0.043163866 0.18987216
0.032379746 0.046297491 0.18954952
-0.035155177 0.042285085 0.19004132
-0.03890264 0.039367795 0.1898752
0.034222841 0.044332892 0.18660225
0.031029761 0.046679139 0.1857049
0.027189612 0.04809922 0.18589105
-0.030763865 0.045155019 0.1862051
-0.03362447 0.042432964 0.18570404
-0.037446737 0.040534496 0.18651767
0.030242205 0.047097176 0.18095084
0.026193202 0.049588501 0.18138792
-0.029504955 0.046410084 0.18088643
-0.032545328 0.043874562 0.18152387
0.028940678 0.049136102 0.17710216
0.025743604 0.050759792 0.17684339
0.022234261 0.052907109 0.17720108
-0.024741113 0.050275981 0.17666383
-0.028688788 0.047206819 0.17712326
0.028782368 0.050627589 0.17329259
0.025320113 0.052191556 0.1723751
0.02073586 0.053834796 0.17280419
0.015840471 0.054891586 0.17239119
0.011280179 0.054983139 0.17206939
0.0070473552 0.055091083 0.17232294
-0.019852996 0.053643286 0.17170538
-0.023996174 0.050807446 0.17252125
0.020122528 0.053758144 0.16808893
0.015534699 0.055243313 0.1681935
0.010661125 0.055897474 0.16850795
0.0059578419 0.056347251 0.16853179
0.0013959408 0.056874275 0.16843618
-0.0041713715 0.057075202 0.16745056
-0.0091717839 0.056685925 0.16740002
-0.014396548 0.055617571 0.16834967
-0.019408464 0.05344069 0.16816498
-0.02276659 0.053087562 0.1680993
0.014185905 0.055917561 0.16440399
0.0097830892 0.055973291 0.16358991
0.0053901672 0.056854784 0.16373356
0.0006287694 0.058240891 0.16431339
-0.004327178 0.058179915 0.16437884
-0.0094359517 0.057102621 0.16408278
-0.014678538 0.055239141 0.16350885
-0.019770265 0.054099858 0.16368939
-0.023054838 0.053998947 0.16408421
0.0051190257 0.057741284 0.1595272
0.00017303228 0.058305621 0.15912201
-0.0048438311 0.057923466 0.15907277
-0.010039806 0.05759111 0.15926333
-0.01325053 0.05594179 0.16025086
-0.0017160773 0.058855772 0.15586103
-0.010065913 0.058359504 0.15582974
0.050731778 0.022440046 0.21746856
0.04806304 0.023342609 0.21658105
0.049522936 0.025389552 0.21122678
0.047333241 0.025555372 0.21333861
0.045972109 0.028690338 0.20885272
0.044779897 0.030305743 0.20383082
0.044761956 0.033298522 0.20047821
0.04257524 0.033688098 0.19849952
-0.044015467 0.030947328 0.19982584
0.044088006 0.034501851 0.19530816
0.041939855 0.035309792 0.19559534
-0.044419765 0.03202641 0.19846089
-0.047345161 0.031341553 0.19914635
0.039654851 0.038368225 0.19145407
-0.044697404 0.034543902 0.19384588
0.038843334 0.039364696 0.18663312
0.037387073 0.04154107 0.1873603
-0.040272355 0.038128436 0.18663903
-0.043382764 0.036339164 0.18839861
0.035351276 0.042860299 0.18323667
-0.035719633 0.040735781 0.18311782
-0.039274931 0.038920283 0.1828234
-0.043448091 0.035971284 0.18340312
0.034471631 0.044600308 0.17807315
0.032155395 0.046357363 0.178701
-0.034928679 0.042221904 0.17916514
-0.037897229 0.040211111 0.17779912
0.033374131 0.045630217 0.17323686
0.030773997 0.047562599 0.17468388
-0.030727029 0.045958877 0.1740828
-0.033591986 0.043906629 0.1748157
0.029263735 0.049150169 0.1701708
0.026807845 0.050690472 0.16901
-0.026469707 0.048628628 0.17007543
-0.029634714 0.047003686 0.17014442
-0.032173097 0.045483172 0.16733672
0.028116941 0.049202025 0.16585271
0.024662733 0.051678419 0.16591014
0.02118814 0.053265572 0.16508053
-0.025700927 0.05044511 0.1659786
-0.029404402 0.04917255 0.16509576
0.023812771 0.051511288 0.16149844
0.019495606 0.053618431 0.16145189
0.015362918 0.055299997 0.16145037
0.011687994 0.055515081 0.16139908
-0.019988239 0.05413115 0.16146319
-0.025563359 0.051991403 0.1610833
-0.028871417 0.050615728 0.16035552
0.018384933 0.054093719 0.15667851
0.014474154 0.056184471 0.15656041
0.0096665621 0.056837559 0.15730314
0.0045841336 0.057579756 0.15737967
-0.0084120631 0.057271272 0.15715145
-0.015381157 0.055640489 0.15731545
-0.020164847 0.054650128 0.15751769
-0.023332775 0.054097593 0.15713294
0.013547659 0.056192398 0.15284495
0.0090572834 0.056673378 0.15239985
0.0047112107 0.058120638 0.15259887
-0.00019919872 0.058616042 0.15287293
-0.005390048 0.058031142 0.15298982
-0.010284662 0.057471216 0.15287136
-0.01409781 0.055647939 0.15182538
-0.018313825 0.054471731 0.15278845
-0.00044059753 0.058683753 0.1480339
-0.0048146248 0.05833441 0.14798371
-0.0092738271 0.057548672 0.14759351
0.049553514 0.021817923 0.21528143
0.050424576 0.022557735 0.21242952
0.050130785 0.023873389 0.20907731
0.04805696 0.023395181 0.20589735
0.051344275 0.025388896 0.20011152
0.047082961 0.026896387 0.20285608
0.047498405 0.029161006 0.19853081
0.046649575 0.030985415 0.19417192
0.042240679 0.033759356 0.19339044
0.044565916 0.032971025 0.19138677
0.041939914 0.033158332 0.18947528
0.040095568 0.034889817 0.1851656
0.0379498 0.038383424 0.18071105
-0.043619752 0.034142017 0.18064107
0.037027597 0.040586412 0.17712028
-0.040232897 0.037553966 0.17651169
-0.042749882 0.034953833 0.17611499
0.03566736 0.043513209 0.17247589
0.033246517 0.04437089 0.17281006
-0.035591125 0.04129988 0.17204942
-0.038916111 0.038193405 0.17191504
0.034963489 0.044011742 0.16785689
0.0318349 0.046045721 0.16792925
-0.035093904 0.042054772 0.16793753
-0.038020611 0.038652241 0.16856016
0.034443736 0.045765996 0.16453512
0.030947149 0.047411174 0.16364016
0.027353108 0.049270511 0.16297396
-0.033314705 0.044692338 0.16393103
0.029802501 0.048117042 0.15959205
0.026188076 0.04981339 0.1588708
0.022157609 0.051142991 0.15847014
-0.031287789 0.046837151 0.15815778
-0.032738447 0.046484113 0.16069658
0.024593115 0.050007641 0.15507747
0.021047652 0.052236557 0.15455808
0.016822219 0.054575562 0.15395065
-0.025790811 0.050197393 0.15443452
-0.028674841 0.047809094 0.15523197
0.020414114 0.053604573 0.15021445
0.016032755 0.055677891 0.15062381
0.011143923 0.056139827 0.15004654
0.0075027347 0.056787729 0.14964901
-0.015435278 0.055190206 0.15006243
-0.019730985 0.053716511 0.15026407
-0.023861766 0.052195072 0.15027829
0.019322991 0.054915607 0.1463656
0.015231848 0.055731624 0.14578651
0.010497808 0.056439161 0.14592035
0.0055458546 0.056867748 0.14617424
0.0011664629 0.057021171 0.14560454
-0.0049142838 0.057438195 0.14525665
-0.0097740889 0.056995541 0.14591779
-0.014650822 0.055648506 0.1460893
-0.019709051 0.053895056 0.14574267
-0.024288952 0.051786602 0.14658786
0.010186017 0.056302905 0.14231975
0.0048878193 0.057166696 0.14203762
0.00013172626 0.057294458 0.14110689
-0.0048254132 0.057678849 0.1413485
-0.0098922253 0.057302713 0.14129932
-0.014407039 0.056544363 0.14168759
-0.018459857 0.05486387 0.14230813
-0.0051040053 0.057986617 0.13790627
-0.01023066 0.057269096 0.13772531
0.052369058 0.019035518 0.20933928
0.050816715 0.019675523 0.20398332
0.048823595 0.022050261 0.2034335
0.051185846 0.021372914 0.20147891
0.048826993 0.023412228 0.20212613
0.051043868 0.024918795 0.19566979
0.04862684 0.027559161 0.19479854
0.05065608 0.026695549 0.19219606
0.047696173 0.026579946 0.18989794
0.045662403 0.028826714 0.1865934
0.042186558 0.031607687 0.1863835
0.046127379 0.030774653 0.18199648
0.041952014 0.033043385 0.18255325
0.045318782 0.032635719 0.17738362
0.041194558 0.033627808 0.17778017
-0.044692934 0.031937182 0.17775424
-0.046453059 0.031472623 0.17762847
0.04515934 0.033389091 0.17413564
0.040944397 0.034698218 0.17289205
0.037832618 0.037441313 0.17386945
-0.041378379 0.035429835 0.17276312
-0.044461608 0.033808202 0.17357619
-0.046801209 0.03120172 0.17492391
0.040267587 0.036420614 0.16939078
0.037599385 0.038751096 0.16906263
-0.039884269 0.037600815 0.16822861
-0.043628931 0.035673261 0.16916163
0.036624074 0.041092962 0.16461615
-0.038592815 0.037611187 0.16469504
-0.042229891 0.035545647 0.16491742
0.034411132 0.043388784 0.16061561
0.032410502 0.045310497 0.16001125
-0.03547132 0.040009379 0.15931235
-0.037020802 0.039135635 0.16167922
0.033796012 0.044231534 0.15694936
0.030642867 0.045631737 0.15551673
0.027094603 0.046938419 0.15450509
-0.033226967 0.042692482 0.15581162
0.029606998 0.046209902 0.15123482
0.025835097 0.048781991 0.15165545
-0.029769778 0.046045601 0.15129946
-0.032444894 0.042907715 0.15232934
0.028315306 0.048072278 0.14689843
0.024958968 0.050065756 0.14716797
0.02197367 0.052137554 0.14764298
-0.02819556 0.046754718 0.14773966
0.024534047 0.050878465 0.14284162
0.020369112 0.052964687 0.14283617
0.016783059 0.054310262 0.14321829
-0.023602486 0.050817609 0.14300068
0.018329084 0.052904129 0.13772993
0.014708161 0.053980887 0.13865979
0.0099696517 0.05514282 0.13852759
0.0053223372 0.056329012 0.13929914
-0.016460896 0.055226862 0.13943593
-0.019743264 0.052862644 0.13821085
-0.022688448 0.051150471 0.13828005
0.0097768307 0.055532068 0.13487203
0.0048601627 0.056597769 0.13489182
-3.7252903e-05 0.057024837 0.13474484
-0.0050241351 0.057226181 0.13467528
-0.009935081 0.056563437 0.13457491
-0.014327884 0.055366337 0.1342711
-0.019065976 0.053140998 0.13404243
0.0041062236 0.056385934 0.12991585
0.00072360039 0.056837797 0.12925871
-0.0043445826 0.056594551 0.12944148
-0.0094299912 0.055902541 0.12998797
0.05262202 0.016786337 0.20180698
0.053339362 0.019199073 0.19733854
0.053228736 0.021156013 0.19361229
0.051880717 0.023516119 0.18903174
0.050346613 0.024867356 0.18438037
0.047997594 0.026520967 0.18582024
0.050082684 0.027837157 0.1799257
0.047885895 0.029131949 0.18143363
0.049300194 0.030415058 0.17570384
0.047778726 0.031796455 0.17706586
0.046557188 0.032940269 0.17142273
-0.047318101 0.030050695 0.17191495
0.044737637 0.033079565 0.16787733
0.041305482 0.035096794 0.16698901
-0.047536731 0.030469775 0.16942321
0.040422022 0.036653757 0.16299887
-0.041076779 0.033746332 0.16250201
-0.044056475 0.033303618 0.16284005
-0.046329379 0.031105638 0.16432618
0.041853368 0.036345422 0.15931843
0.03663063 0.039111465 0.15861411
-0.038822174 0.036032915 0.15848528
-0.043260336 0.033694208 0.15808688
0.035040438 0.041004598 0.15398745
-0.035246074 0.039217055 0.15459247
-0.037432432 0.036431938 0.15362339
-0.043508768 0.034467876 0.15480663
0.034778297 0.0408656 0.15037151
0.032144725 0.044365019 0.14932223
-0.033936799 0.041455626 0.14968561
-0.036812246 0.038369417 0.14895912
-0.043618917 0.0370363 0.15038244
0.030843735 0.045949042 0.14516513
-0.030530453 0.044220984 0.14475201
-0.034045577 0.041707516 0.14513002
-0.044517159 0.03989917 0.14608307
0.029031813 0.047666669 0.14165927
0.025937498 0.04931891 0.13995208
-0.025699973 0.047947228 0.14039733
-0.029526293 0.044592261 0.14173548
0.025511146 0.049929678 0.13625266
0.021350503 0.052142799 0.13670449
-0.025285244 0.049265504 0.13644509
0.024790943 0.051772296 0.13166855
0.020520687 0.053005993 0.13205366
0.015725374 0.054478556 0.1323189
0.011188507 0.05482769 0.13168783
0.0066455007 0.055346608 0.13125937
-0.01621604 0.054452181 0.13134979
-0.020113826 0.05282259 0.13150387
-0.024659872 0.050178707 0.13189353
0.023943007 0.052894473 0.12814228
0.020036101 0.054072589 0.12747769
0.01561904 0.055242449 0.12742604
0.010556459 0.055291295 0.12754424
0.0057855844 0.056055307 0.12771644
0.00051099062 0.057003289 0.12661721
-0.0045357943 0.056787014 0.12708209
-0.0096775293 0.055925727 0.12729044
-0.014821589 0.054808915 0.12784918
-0.019931555 0.053051829 0.12747492
-0.023641586 0.051903248 0.1277705
0.018708706 0.055152804 0.1236978
0.014902532 0.056676328 0.12282924
0.010313511 0.056854308 0.12273313
0.0052667856 0.05703786 0.12290834
0.00024187565 0.057337344 0.12312894
-0.0048453808 0.057172716 0.12316342
-0.010051489 0.056226254 0.12288354
-0.015074849 0.055010855 0.12271829
-0.018708169 0.053792655 0.12389041
0.010171354 0.058051348 0.11958207
0.0050324202 0.058144957 0.11881141
-5.4001808e-05 0.058050901 0.11887546
-0.0051627755 0.057789862 0.11887132
-0.0099656582 0.05721736 0.11891569
-0.015463948 0.056208014 0.11934243
0.055245936 0.019629836 0.18613137
0.05355233 0.020419478 0.18553449
0.055909157 0.019877762 0.18269397
0.053418398 0.021410912 0.18234675
0.051965535 0.022876352 0.17800982
0.051463008 0.026305854 0.17342223
0.051266611 0.027905285 0.16865681
0.048850715 0.030248672 0.1686088
0.050168812 0.027524829 0.16499434
0.046888649 0.030410647 0.16426553
0.04356873 0.032673687 0.16333117
0.044972241 0.03056699 0.16079368
0.042463243 0.032703519 0.15935831
0.040976524 0.034437239 0.15534373
0.038201511 0.03613323 0.15574314
-0.043677926 0.033564925 0.15448479
0.041247368 0.035470009 0.15097703
0.037251413 0.037341058 0.15047286
-0.039791346 0.035334766 0.15282203
-0.043834209 0.034318626 0.15207897
0.035464168 0.039729953 0.14671372
-0.039734602 0.037212074 0.14807309
-0.043854594 0.036969751 0.14834772
0.034830153 0.04128775 0.14244522
0.032796085 0.044226617 0.1426876
-0.035719872 0.039823115 0.14139719
-0.038624644 0.037663221 0.14289089
-0.044268131 0.037977815 0.14326419
-0.047227144 0.040020347 0.14438371
0.031281769 0.043657482 0.13788967
-0.030004203 0.042540014 0.1384138
-0.0333336 0.040549725 0.13892044
0.029377341 0.045357764 0.13324542
0.027448654 0.04851225 0.1345063
-0.029839635 0.043174684 0.13479663
0.026765227 0.049457908 0.12990601
-0.028073668 0.046370208 0.1302072
0.0252949 0.051005065 0.1255448
0.021478117 0.053097874 0.12524311
-0.024737597 0.050384223 0.12555002
-0.027893066 0.047354817 0.12513001
0.023900509 0.051501632 0.1215121
0.020193458 0.052893639 0.12070026
0.016804338 0.055179536 0.1210124
-0.017207861 0.054789424 0.12062199
-0.020156145 0.05245173 0.12118904
-0.024332702 0.049830616 0.12109686
0.018060565 0.053276151 0.11746629
0.014595985 0.055581033 0.11717148
0.0097020864 0.056166381 0.11607225
0.0044400096 0.0554941 0.1149856
0.00015616417 0.055231392 0.11496387
-0.0041492581 0.054822803 0.11488222
-0.009167254 0.05533731 0.11519729
-0.014612913 0.054794192 0.11668499
-0.019179821 0.052950054 0.11661507
-0.023118019 0.05086267 0.11730571
0.0093129873 0.055489123 0.1121261
0.0059161186 0.055789769 0.11192663
0.0011869669 0.054903984 0.11250879
-0.006095767 0.054266304 0.11285238
-0.009409368 0.054851711 0.11316381
-0.014652848 0.053917199 0.11288188
0.053949654 0.019940972 0.17834376
0.053826749 0.022459418 0.17387141
0.051614225 0.02419287 0.16382532
0.050441861 0.025616527 0.16195311
0.048354089 0.028887987 0.16193344
0.046609759 0.028717577 0.15810652
0.049564242 0.028140485 0.15448596
0.045597911 0.029426992 0.15381445
0.042855144 0.031778753 0.15320684
0.044312596 0.031515181 0.14948757
0.041049898 0.034126222 0.14933635
0.044139922 0.032825977 0.14545424
0.040836811 0.035491943 0.14468892
0.037617564 0.037604809 0.14552988
0.040650904 0.037332833 0.13994853
0.037004888 0.039781302 0.14048494
-0.039896667 0.036047786 0.13914634
-0.043294787 0.033830136 0.13909553
-0.04741323 0.032312185 0.13787322
0.039762855 0.038756698 0.1354173
0.035470843 0.040642798 0.13585533
-0.034391224 0.037971556 0.13493721
-0.038274944 0.03460139 0.1362976
0.034998715 0.041652203 0.13101901
0.031555355 0.044006169 0.13131629
-0.031603217 0.040188253 0.13149478
-0.033802271 0.038993657 0.13107206
0.033364773 0.043599188 0.12701561
0.03062439 0.045278877 0.12681623
-0.030032992 0.042657614 0.12695824
-0.032782078 0.040374517 0.1264766
0.029676914 0.046776175 0.12230296
0.02645278 0.047879636 0.12152721
-0.030447006 0.043511957 0.12181251
0.02884531 0.048106581 0.11881657
0.025468171 0.049723804 0.11770143
-0.02581358 0.048926353 0.11840384
-0.029506326 0.046248972 0.11790915
0.025235534 0.05006355 0.11416139
0.020414591 0.051412582 0.11462791
0.01592654 0.052081406 0.11333875
-0.021063447 0.051390409 0.11441769
-0.025092721 0.049195588 0.11429353
-0.027227283 0.048339188 0.11358894
0.015539348 0.052880168 0.11021651
0.011345387 0.055007875 0.11069779
0.0057623982 0.056115836 0.109697
0.00024676323 0.055192262 0.11016051
-0.0043042898 0.054686904 0.11091812
-0.0096848011 0.054705381 0.11034502
-0.014987051 0.053221762 0.11022653
-0.019783974 0.051695645 0.11047821
-0.023088098 0.050293863 0.10969602
0.014669657 0.053534865 0.10657416
0.010430217 0.054999113 0.10542668
0.0054543018 0.056123108 0.10600804
0.00023007393 0.055374265 0.10579877
-0.0049758554 0.054784387 0.10565655
-0.010118008 0.054643989 0.10570346
-0.015374422 0.053215146 0.10613479
-0.018795907 0.052623123 0.10688283
0.010198593 0.055532634 0.10194339
0.0051461458 0.056426316 0.10196809
0.001015842 0.055507064 0.10150523
-0.0035557151 0.05505693 0.1020288
-0.0087225437 0.054808527 0.10203092
0.050479949 0.024115682 0.15934099
0.049542606 0.025844723 0.15637137
0.049298525 0.02689907 0.15134229
0.047594845 0.027748585 0.15077414
0.046293259 0.029323041 0.14674456
0.044830143 0.031284332 0.14160557
0.044578493 0.032613903 0.13901149
0.04367727 0.033482015 0.13753299
0.042149186 0.036317676 0.13381471
-0.039372921 0.034233332 0.13371791
-0.043782532 0.031027257 0.13366891
0.040816486 0.037556469 0.12908758
0.037895203 0.038837433 0.12918399
-0.035713613 0.037318647 0.12862919
-0.039137244 0.034917891 0.12981834
-0.043512821 0.03262037 0.12878121
0.040198028 0.039093733 0.12464856
0.036194563 0.040300608 0.12474208
-0.035427809 0.038947552 0.12513991
-0.03948617 0.037518561 0.12511267
-0.043061614 0.036706716 0.12486203
0.039601326 0.040226489 0.12096186
0.035351217 0.042096615 0.11994757
0.033044219 0.044812679 0.12108307
-0.034253955 0.039969712 0.12069584
-0.041484952 0.038112879 0.12170838
-0.043237209 0.037904561 0.12165953
0.034923971 0.043636858 0.11626597
0.031268775 0.046040714 0.11585249
0.027748227 0.048328072 0.11524345
-0.033067226 0.041570961 0.11554973
0.03078568 0.045797288 0.11229147
0.025608361 0.04711473 0.11077483
0.02180016 0.049492151 0.11091276
-0.030047596 0.045441061 0.11125664
0.024233878 0.047715843 0.10702534
0.020331621 0.049499542 0.10661195
0.017088234 0.051712364 0.10668196
-0.025020838 0.048728406 0.1066048
-0.028586984 0.046451718 0.10680671
0.018768966 0.050494641 0.10193898
0.015315294 0.052288085 0.10254206
-0.014511228 0.052341819 0.10183917
-0.019794405 0.05090636 0.10266067
-0.024457514 0.048232794 0.10281293
0.013986647 0.053141952 0.098343119
0.0096994042 0.054010242 0.097561821
0.0047441721 0.055016756 0.098852202
-0.00071942806 0.054705173 0.099579766
-0.0051347017 0.054301649 0.099638745
-0.0096300244 0.053602457 0.098262683
-0.014531672 0.05214417 0.098205581
-0.01864779 0.051270902 0.098227635
0.012874544 0.054282874 0.093862966
0.010301948 0.054359078 0.093951538
0.005576551 0.054858774 0.094271049
0.00092101097 0.054927886 0.094401076
-0.0042820573 0.054588974 0.094364658
-0.0089211464 0.053822219 0.094754711
-0.0027943254 0.05526191 0.09086968
0.050901353 0.021993995 0.1540861
0.048817277 0.025063396 0.14524736
0.047058284 0.029401183 0.14050107
0.045968533 0.030732483 0.13553901
0.044838369 0.031661272 0.13040431
0.043179631 0.03378576 0.12941815
0.044580281 0.033347845 0.12461151
0.043083727 0.034682006 0.12700768
0.042330027 0.03663528 0.12225027
0.037945747 0.038383305 0.1239516
0.040416241 0.039393634 0.11839338
0.037791431 0.04061541 0.11930512
-0.039244354 0.035524309 0.11851503
-0.042322874 0.03521347 0.11778934
0.039552689 0.039940834 0.11389621
0.036362708 0.0419873 0.11371078
-0.035201132 0.039226502 0.11463578
-0.038189292 0.035807312 0.11367483
0.034461021 0.04278785 0.11035569
0.030410171 0.04406935 0.1087939
0.027133405 0.046338737 0.10887344
-0.034340858 0.039792508 0.10973547
-0.037734032 0.036890775 0.11000805
0.029609025 0.04463914 0.10500185
0.025703907 0.046645701 0.10467927
-0.030290484 0.044872016 0.10477813
-0.032264352 0.042886645 0.10491581
0.028242946 0.046174347 0.10036771
0.024854124 0.047444075 0.10004063
0.020884454 0.049233735 0.10051407
-0.025180876 0.047856569 0.1003301
-0.029443979 0.045553744 0.10010253
-0.032675862 0.042728096 0.10111208
0.019965649 0.050522983 0.096020922
0.015424311 0.052229941 0.095730737
-0.014838099 0.051865578 0.095279112
-0.020427644 0.050444841 0.096282259
-0.024390221 0.048153222 0.095478848
-0.028055191 0.046476424 0.096355066
0.020227432 0.052085906 0.090855554
0.015718818 0.053377002 0.09152095
0.010586023 0.054423869 0.090962335
0.0075134039 0.054534554 0.09126623
0.0022697449 0.05455482 0.090447024
-0.0063642263 0.054385304 0.090559289
-0.010100305 0.053269565 0.091492757
-0.015208066 0.051749557 0.091471687
-0.019706845 0.050577015 0.091052696
-0.022479296 0.049457043 0.090619221
0.020036459 0.052875876 0.087426499
0.015750051 0.05439353 0.086301327
0.01065129 0.055066347 0.086713731
0.0054460764 0.055451244 0.088652775
0.00028771162 0.055524796 0.088798121
-0.005086422 0.054560363 0.087461546
-0.010006189 0.053383678 0.086954713
-0.014339685 0.052565813 0.087406531
-0.018181264 0.051560611 0.087674513
0.0054869652 0.05632633 0.085499436
-0.00017988682 0.05563587 0.084048659
-0.0035169125 0.054823488 0.083124071
0.050055265 0.018220931 0.14364637
0.049963355 0.019829273 0.14056684
0.048482537 0.023010254 0.1417643
0.049847424 0.021827757 0.13671227
0.048305154 0.023572505 0.13830955
0.047555506 0.025578678 0.13356026
0.046228409 0.026970565 0.12949975
0.044573963 0.031280488 0.12657721
0.044280887 0.032585323 0.12060897
0.042391837 0.035520077 0.11530648
-0.041173816 0.033723682 0.1143779
-0.043051779 0.03291443 0.11408703
0.041259289 0.036558032 0.11014707
-0.040437162 0.034653366 0.11194466
-0.042749107 0.03319931 0.11008556
0.039199412 0.038413048 0.10782884
0.036436796 0.039240837 0.10614346
-0.036196828 0.036919177 0.10811932
-0.038797617 0.035201401 0.10579158
-0.043248653 0.03344506 0.10619752
0.03526175 0.040104598 0.10272886
0.031939864 0.042661309 0.10237096
-0.034906626 0.037723899 0.10279848
0.030337691 0.043388546 0.098571137
0.028017163 0.04593423 0.097448125
-0.033756256 0.040978193 0.09851028
0.029326558 0.043786228 0.093660489
0.026053548 0.046304435 0.093873575
0.022778749 0.048668891 0.094026282
-0.030276299 0.044722021 0.093755499
-0.033489048 0.042497158 0.093488321
0.025581956 0.047551155 0.088981286
0.022622287 0.050344646 0.09003745
-0.025510311 0.046851546 0.089537427
-0.029269457 0.045131505 0.0888616
-0.032629251 0.043373525 0.089428887
0.024284303 0.04921478 0.084277481
0.020844579 0.051809907 0.08449176
-0.010578156 0.052702188 0.084225714
-0.01460439 0.051553875 0.084273607
-0.019733071 0.050275683 0.084695488
-0.023955107 0.047857374 0.084631234
-0.026930273 0.045796126 0.085302383
0.019045234 0.050961226 0.080247253
0.015110135 0.052772999 0.07987994
0.0098900795 0.052702188 0.079963177
0.0047649741 0.053313643 0.080353975
-8.0823898e-05 0.054165542 0.080214232
-0.0052016973 0.053596318 0.080229133
-0.009319067 0.051860005 0.080009878
-0.014222741 0.050441563 0.079748124
-0.019155025 0.048885852 0.080792218
0.013980806 0.053070903 0.076216578
0.0052102804 0.052512705 0.076157719
0.00064754486 0.053570658 0.075376004
-0.0038808584 0.053817093 0.076193154
-0.0095869899 0.052355111 0.076417506
-0.01314646 0.051798403 0.076242417
0.051682293 0.016749501 0.14308189
0.052340508 0.016761482 0.13939561
0.054703116 0.01612711 0.1354229
0.051632524 0.019347787 0.13483037
0.050311208 0.020151913 0.13145556
0.04851234 0.021603048 0.12925823
0.047045827 0.023161948 0.12523662
0.046423733 0.026025206 0.12226559
0.045896471 0.028401315 0.11798836
0.04534322 0.028744161 0.11345427
0.043714285 0.030798882 0.1133749
0.040897608 0.036553353 0.10451926
-0.042847395 0.033938617 0.10388668
0.040204406 0.037387311 0.099691227
0.036654174 0.039103568 0.099386916
-0.039149046 0.034538448 0.099658445
-0.043443799 0.034823298 0.099869028
0.039554596 0.038069427 0.095729992
0.036120892 0.039685071 0.095136359
0.032417655 0.041344881 0.096804962
-0.03555119 0.037932813 0.096298382
-0.038265407 0.035218537 0.094718352
0.035714686 0.041034251 0.091383174
0.031392515 0.042905778 0.092016086
-0.035892963 0.038760155 0.091919109
-0.038082302 0.036284864 0.090893611
0.0341326 0.042771727 0.088364676
0.030704319 0.044687599 0.087372363
0.027369082 0.047391504 0.086733848
-0.034283221 0.041591525 0.086937249
0.029394805 0.045744479 0.082520485
0.026435018 0.047953874 0.08280766
-0.025341272 0.047133297 0.082049966
-0.029197574 0.045224637 0.082949907
-0.033390462 0.04236412 0.083279908
0.023348272 0.048782289 0.077888548
0.020666122 0.051146567 0.078382075
-0.016694784 0.049652994 0.078215837
-0.020207942 0.049055159 0.078660458
-0.024273455 0.047089845 0.078178853
-0.028640151 0.044216931 0.078895241
0.023130655 0.050558746 0.072935671
0.019817948 0.052112848 0.073724955
0.01495862 0.053467333 0.073909968
0.010297537 0.052669436 0.074195504
0.0061581135 0.052745283 0.073775172
0.0014740229 0.052973866 0.072614849
-0.005006671 0.053009629 0.0732584
-0.0098281503 0.05246675 0.073596925
-0.014935434 0.050762355 0.073888034
-0.019127131 0.049646676 0.073227614
-0.023237824 0.048406124 0.073375851
0.022957206 0.051497638 0.069515407
0.019891262 0.052691102 0.069367379
0.015511394 0.053122103 0.068508297
0.010751486 0.052978873 0.06855011
0.0057701468 0.052693486 0.069083124
0.00016033649 0.053543746 0.069296747
-0.0047228932 0.052918822 0.069116801
-0.010094643 0.051982105 0.068802804
-0.014241338 0.051166743 0.068276316
-0.020086646 0.049870253 0.069738746
-0.022763133 0.049514174 0.069634169
0.054562986 0.012811869 0.13604881
0.053689539 0.016436756 0.13277633
0.052245438 0.016622633 0.12791105
0.051326632 0.018605173 0.12339403
0.049033701 0.020711213 0.12425192
0.057559609 0.02154243 0.11879785
0.050514936 0.021445096 0.11889566
0.048905492 0.023276627 0.11964674
0.050271749 0.022582114 0.11370783
0.048246861 0.024722129 0.11460216
0.047070682 0.026094735 0.11078353
0.045574784 0.02772373 0.10681845
0.043287277 0.02997154 0.10740717
0.044677258 0.029143512 0.10230578
0.042652786 0.032108486 0.10215901
0.04445219 0.031288594 0.09655191
0.042213082 0.034076393 0.097396508
0.040335 0.036713451 0.092850044
-0.040038586 0.033492148 0.092587456
-0.043387055 0.032083809 0.093548909
0.040011466 0.038814723 0.088418975
0.037544429 0.040566504 0.089235678
-0.039447129 0.034685254 0.088317856
0.039295018 0.039478481 0.083454877
0.035740256 0.041066051 0.085030079
-0.03691268 0.037479341 0.083740443
0.035635352 0.041595161 0.080531865
0.031460345 0.043451726 0.080587894
-0.034536779 0.040657401 0.079985112
0.026402295 0.044726551 0.075981796
-0.026217997 0.045283616 0.075479835
-0.029547036 0.043328196 0.076205075
-0.032698989 0.040427268 0.075344771
0.02626586 0.047235638 0.071336299
-0.025987387 0.046570837 0.071725637
-0.029382169 0.044351816 0.071263164
0.025604606 0.049359232 0.066799521
0.021434367 0.051823318 0.066315264
0.017545879 0.052572072 0.066271484
0.0041936636 0.050855517 0.065772921
0.0015984178 0.051079035 0.06593743
-0.0071715117 0.05093056 0.066069126
-0.015940607 0.050751925 0.066186845
-0.019267559 0.049450845 0.067036778
-0.024644434 0.047525316 0.067202479
-0.028749347 0.045159519 0.067747146
0.024138212 0.050768316 0.062355842
0.020314217 0.05101192 0.062754393
0.015373945 0.051547468 0.061953034
0.010356903 0.051193953 0.06245878
0.0058699846 0.049675465 0.062586844
0.0012070537 0.049423993 0.063225627
-0.0044265985 0.049769104 0.062739015
-0.0095854402 0.050142258 0.062422927
-0.014460444 0.05131346 0.062534153
-0.019689858 0.049583584 0.062392678
-0.023664713 0.047462881 0.062875152
-0.010553002 0.050516874 0.058166888
-0.014423013 0.051317573 0.058151808
0.055923998 0.011684179 0.13001709
0.054205716 0.012311995 0.13028635
0.0558182 0.013853014 0.12616561
0.054126382 0.01411739 0.12723382
0.0554986 0.013830185 0.12052833
0.053472698 0.015579224 0.12218399
0.055407643 0.016213834 0.11674441
0.052859187 0.01758638 0.11733453
0.052748978 0.020418346 0.11279739
0.051212192 0.022554278 0.10827698
0.04823339 0.024734646 0.1070583
0.050171554 0.023837745 0.10332866
0.047676682 0.026091456 0.10383125
0.046624303 0.026834607 0.099264935
0.045734167 0.029087305 0.095594421
0.04447794 0.030239284 0.090845004
0.042479873 0.032957315 0.091573194
-0.044496536 0.02888912 0.089742556
0.043919802 0.033325106 0.085942835
0.042340815 0.035426557 0.086892396
-0.040958345 0.032315284 0.085397393
-0.042873621 0.0298118 0.087227255
0.041426063 0.037386298 0.081617892
-0.039461613 0.033095658 0.0818564
0.040238261 0.039041758 0.077940404
0.036231816 0.039658129 0.076853037
0.032491446 0.039591223 0.076100439
-0.038655281 0.033656299 0.077582836
0.035901964 0.040293545 0.073436737
0.030990839 0.040949225 0.07361275
-0.035447836 0.037695646 0.073779345
0.035156071 0.041532576 0.069809794
0.031097889 0.043014139 0.069284767
-0.03418535 0.040590465 0.069884181
-0.036745787 0.038590848 0.066829979
0.030030251 0.045086384 0.064425409
0.027637661 0.048094064 0.064912438
-0.025499821 0.045870125 0.06411618
-0.02923888 0.043627858 0.064774603
-0.033619106 0.04112944 0.065334618
0.028940916 0.045692921 0.060826715
0.026072145 0.048595011 0.060028043
0.020839334 0.0503878 0.059814837
0.0088713169 0.049977303 0.059409942
0.0048835278 0.04826802 0.059340443
0.00076448917 0.048000753 0.059635188
-0.0040140748 0.048725784 0.059602942
-0.0088077784 0.049294263 0.059496697
-0.020281315 0.048939526 0.059595134
-0.024671376 0.046452224 0.059817728
-0.028631151 0.043964565 0.059774544
0.024699628 0.049237013 0.055421498
0.020066857 0.050318658 0.055394139
0.01483798 0.050824046 0.055760469
0.010447681 0.050946116 0.05592322
0.0059758425 0.050426334 0.055778977
0.00062668324 0.049944818 0.055673148
-0.004540503 0.050736874 0.056174662
-0.0095771551 0.050979108 0.055850144
-0.015517354 0.05092144 0.055346753
-0.019728959 0.049197406 0.055791255
-0.024437249 0.04734692 0.055013444
-0.028181911 0.044933885 0.055909719
0.023373604 0.050842613 0.051638748
0.01983881 0.05084312 0.051722851
0.014871895 0.051150322 0.051201697
0.010999441 0.051964402 0.050507631
0.0059304237 0.053043038 0.052138653
0.00055658817 0.052374125 0.051941153
-0.0047718883 0.052046299 0.051908161
-0.010037959 0.052139163 0.052078333
-0.015062988 0.051390111 0.052029755
-0.01928401 0.049911201 0.050229665
-0.023679495 0.04885301 0.051790502
0.0090272427 0.052170306 0.047698643
