# .PCD v0.7 - Point Cloud Data file format
VERSION 0.7
FIELDS x y z
SIZE 4 4 4
TYPE F F F
COUNT 1 1 1
WIDTH 1358
HEIGHT 1
VIEWPOINT 0 0 0 1 0 0 0
POINTS 1358
DATA ascii
0.025036216 0.017228983 0.33963022
0.021960318 0.020933948 0.33973056
0.018757641 0.024075888 0.33887392
0.014786065 0.026641302 0.33963916
0.0095104575 0.027179539 0.33891526
0.0049583316 0.030198902 0.34044793
0.017579138 0.024078898 0.33485529
0.014740884 0.027148776 0.33472413
0.010345876 0.028296828 0.3348203
0.012669206 0.030339777 0.32861325
0.012075722 0.032269895 0.32730851
0.0094393492 0.035808176 0.32656044
0.039734542 0.030522525 0.30320495
0.035784781 0.03345269 0.30315459
0.031883061 0.036575377 0.30378392
0.027847767 0.039167583 0.30379796
0.02390784 0.041569531 0.30334932
0.019744813 0.043927759 0.30282637
0.015321493 0.046632081 0.30220073
0.04396975 0.030485064 0.29938257
0.041078031 0.033238083 0.29954323
0.037290394 0.036135703 0.29963452
0.033742368 0.039316416 0.29979873
0.029948115 0.042190462 0.2998859
0.025442243 0.04421109 0.2997545
0.021220148 0.046577036 0.2997112
0.016834557 0.048756242 0.29961982
0.012361586 0.050957978 0.29859319
0.045453966 0.032781094 0.29528078
0.042714536 0.035719931 0.29549357
0.038554609 0.038155973 0.2954677
0.035368741 0.041773647 0.29574975
0.031739473 0.044840395 0.29588982
0.027486265 0.047154486 0.29583323
0.022709668 0.048860461 0.29561546
0.018397272 0.051121712 0.2955431
0.014603198 0.051575005 0.29521438
0.046505868 0.034863323 0.29213274
0.044562995 0.037718892 0.29160902
0.038719118 0.039773583 0.29173008
0.035856068 0.043140173 0.29082295
0.032434881 0.046178132 0.29154995
0.028401434 0.048759907 0.29156294
0.023758948 0.050664186 0.2910786
0.0190413 0.052330285 0.2919434
0.03869462 0.041790366 0.28679159
0.036654174 0.044419914 0.28599837
0.03312701 0.047513366 0.28720203
0.02888447 0.05014205 0.28663325
0.025673687 0.050969243 0.28698751
0.037736058 0.047437757 0.28225228
0.034627616 0.049900204 0.28235218
0.030446529 0.052122414 0.28181246
0.026887894 0.05310908 0.28126988
0.0383569 0.048599929 0.2786307
0.035668314 0.051738322 0.27734175
0.031341374 0.053584874 0.27762899
0.02808255 0.054958135 0.2778407
0.015206397 0.0083472952 0.3530533
0.013144672 0.01299464 0.35364684
0.019251525 0.0082470402 0.35003585
0.016226292 0.011946701 0.35174596
0.02526468 0.0088789687 0.34678245
0.022524476 0.010160469 0.34648088
0.0046818852 0.021735273 0.34616601
0.029985607 0.0097170696 0.34246805
0.027679741 0.0097834095 0.34112334
0.02406466 0.011032246 0.3401584
0.030261815 0.0080764219 0.33622587
0.028523028 0.011028461 0.33646575
0.023445189 0.014612012 0.33633161
0.020809352 0.018065237 0.33599859
0.0068898797 0.025968455 0.33817697
0.0039821863 0.028186947 0.33649829
0.028283775 0.012139522 0.33263832
0.023063362 0.01475092 0.33346936
0.020533144 0.018391781 0.3324542
0.018012583 0.023149185 0.33242926
0.0088130832 0.028443784 0.33237439
0.0039137006 0.029018372 0.33226234
0.021330416 0.020626031 0.32787743
0.018451571 0.02486407 0.32835332
0.014234781 0.027418107 0.32855991
0.0099610686 0.029985875 0.32924718
0.0053872466 0.031499118 0.32891414
0.021843374 0.022396557 0.32346579
0.018315256 0.0252847 0.32305402
0.014904857 0.027590692 0.32319072
0.010651708 0.030614883 0.32409129
0.007683754 0.033549219 0.32443625
0.01799053 0.027979732 0.31804392
0.015762568 0.029177666 0.31845546
0.034191608 0.0212337 0.31276616
0.020338833 0.029546201 0.31365788
0.01701659 0.031593174 0.31387594
0.01377517 0.033494681 0.31308749
0.038914144 0.021851681 0.30829725
0.036101162 0.023308627 0.30979794
0.031542838 0.02590286 0.30883285
0.02657634 0.02908203 0.30943197
0.022419035 0.031812251 0.30979848
0.018295586 0.034341902 0.30979326
0.014267564 0.036683351 0.30932641
0.041321397 0.023349576 0.30545923
0.037973046 0.026772492 0.30633721
0.032959223 0.028699547 0.30647817
0.029075325 0.032763422 0.30674219
0.024965107 0.035289407 0.30673766
0.020223975 0.037067324 0.30655074
0.01568681 0.03909862 0.30642498
0.011798203 0.041692048 0.30523798
0.00784868 0.044248372 0.30453506
0.0033879876 0.047046363 0.30415136
0.00048446655 0.048560679 0.30410436
0.045117557 0.022730105 0.30053449
0.043404758 0.025914691 0.30183378
0.039426863 0.029019624 0.30357176
0.033940852 0.032294452 0.30432263
0.021391332 0.03994447 0.30481339
0.017491758 0.042143077 0.30439103
0.013994396 0.044907063 0.30332765
0.009845674 0.047854841 0.30203506
0.0046536326 0.048875391 0.30147731
0.00086355209 0.049385637 0.30117235
0.046852469 0.024273627 0.29677194
0.045942664 0.027989 0.29761782
0.011768818 0.050226599 0.29882053
0.0064860582 0.051543653 0.29745325
0.001552701 0.050560981 0.29832676
0.048734128 0.026238732 0.29294369
0.047356427 0.030200183 0.29348356
0.012533545 0.052380234 0.29377088
0.0070694089 0.052792668 0.29305777
0.050168157 0.028497696 0.28858557
0.047409713 0.03249523 0.28921634
0.0432145 0.036502033 0.28884241
0.039152801 0.038301021 0.288946
0.03687489 0.041919976 0.28817126
0.021775186 0.051107764 0.2881355
0.018393338 0.051950395 0.28868911
0.012919486 0.052816749 0.28901631
0.0078014731 0.054210693 0.28869808
0.05103451 0.030623049 0.28380427
0.048491538 0.033550352 0.28452182
0.044876873 0.036925197 0.28504148
0.040130198 0.039312512 0.28433502
0.037530959 0.043040931 0.28532532
0.023252785 0.0514808 0.28502184
0.018048227 0.052016586 0.28475097
0.013477981 0.054318666 0.28408197
0.0094069839 0.056717783 0.28384385
0.0061582923 0.058493108 0.28340647
0.051762164 0.033330381 0.27888682
0.049194336 0.035424024 0.27955183
0.045816958 0.038577616 0.28043744
0.040528834 0.041089207 0.27963766
0.038793027 0.045059592 0.28114805
0.024607718 0.053581297 0.28109279
0.019379079 0.054115772 0.28058365
0.015125334 0.056586593 0.27976397
0.011003792 0.058501482 0.27907959
0.049113095 0.037196249 0.27562952
0.046582162 0.04004842 0.27539638
0.041668892 0.043210655 0.2754178
0.039009392 0.047998935 0.27657476
0.030412436 0.054292142 0.27563438
0.026253641 0.056072444 0.27682641
0.021339238 0.057230949 0.27611333
0.016550243 0.058599174 0.27537265
0.0129143 0.059371412 0.27609161
0.047125041 0.041534126 0.27063325
0.042236567 0.045578212 0.27095023
0.039430439 0.049394906 0.27183294
0.035715997 0.052392602 0.27196839
0.030945361 0.054135859 0.27172616
0.02646786 0.056237131 0.27159172
0.021758199 0.057571888 0.27101418
0.017844141 0.05964002 0.27120689
0.047132075 0.044171751 0.26699826
0.043031991 0.046732306 0.26700038
0.039499819 0.049277216 0.26659408
0.035039842 0.052101463 0.26708049
0.030362904 0.054455549 0.26712748
0.026601434 0.056282908 0.26726243
0.028619051 0.0055756792 0.34033602
0.023585856 0.0098439679 0.33744135
0.028797388 0.0062335357 0.33587006
0.023422182 0.010622285 0.3340995
0.027362823 0.010854326 0.32986876
0.022906601 0.012621365 0.32994741
0.0010515451 0.028433084 0.33194807
-0.0002296567 0.029574603 0.33046815
0.023361623 0.0147027 0.32507178
0.022430658 0.017967932 0.32583132
0.032161176 0.012208693 0.31856188
0.028808117 0.013982438 0.31903204
0.024572074 0.016402595 0.32022256
0.022709191 0.019651078 0.3209919
0.020546973 0.02321773 0.32065487
0.011973441 0.027833194 0.32132074
0.0084658265 0.029298902 0.32083359
0.004782021 0.031187892 0.32039037
0.033028543 0.013737313 0.31422564
0.030195594 0.015688293 0.31611267
0.02619344 0.018250756 0.31581479
0.022642672 0.021099113 0.31694025
0.01943177 0.024709903 0.31769359
0.012448132 0.028833628 0.317662
0.0093371272 0.029801935 0.31751981
0.0056633353 0.031705141 0.31707686
-7.4088573e-05 0.033793956 0.31801865
-0.001912415 0.035717368 0.31504187
0.035380185 0.015688531 0.31164214
0.032799304 0.018673949 0.31417558
0.028673291 0.021378241 0.31265104
0.024262428 0.023840807 0.31318879
0.021667302 0.026368879 0.31382993
0.014526308 0.031822383 0.31367549
0.010519087 0.032719165 0.31365445
0.0066154003 0.034687102 0.31220356
0.003233254 0.035200179 0.31157351
-0.0084729791 0.04467392 0.3103613
0.040109992 0.01575198 0.30589655
0.03799212 0.017664067 0.3084335
0.030512691 0.023281358 0.31041196
0.027331173 0.025938921 0.31038868
0.011735737 0.035060674 0.31081632
0.0083777308 0.037162334 0.30882815
0.0036167502 0.039173216 0.30712712
-0.00070089102 0.041350275 0.30632502
-0.006174624 0.043898642 0.30673435
-0.008547008 0.044896752 0.30805942
0.045580208 0.015307002 0.30169603
0.042945445 0.017028533 0.30327007
0.040883899 0.019466154 0.30501199
0.0086426735 0.039360523 0.30654275
0.0048487782 0.042479038 0.30511236
0.0010111332 0.044148535 0.30499753
-0.0032824874 0.047115088 0.3034901
0.046320617 0.016527109 0.29884788
0.04518187 0.019506089 0.29967096
-0.0024836659 0.049217165 0.29892936
0.04870069 0.018672399 0.29476407
0.047713399 0.021327905 0.29511353
-0.0001937747 0.051394522 0.29516226
-0.0048015714 0.052425981 0.29328135
0.050642908 0.021025233 0.29044965
0.050009906 0.024737261 0.29047361
0.00097298622 0.053309381 0.29092148
-0.0046843886 0.052762836 0.29178187
0.052226484 0.022692613 0.28642842
0.051225543 0.02663099 0.28702536
0.0024834871 0.055609584 0.28678811
0.052016795 0.024600975 0.28175637
0.051321566 0.027169615 0.28241459
0.0024415255 0.057867438 0.28168175
0.051328003 0.029122144 0.27758721
0.0078726411 0.058178961 0.27763548
0.0049117208 0.058578312 0.27769914
0.050998926 0.032336861 0.27322575
0.048895538 0.034456432 0.27282867
0.042916417 0.040819496 0.27294904
0.0097921491 0.059041381 0.27354249
0.0062945485 0.059408426 0.2729257
0.048317373 0.036198676 0.2688413
0.047751725 0.039689273 0.26776293
0.043236613 0.041527539 0.26995412
0.019729018 0.058454663 0.2688258
0.015650868 0.059485823 0.26947889
0.011106253 0.060429603 0.26872727
0.0069896579 0.060694337 0.26928619
0.046625078 0.040930033 0.26406339
0.043154478 0.044041872 0.26455912
0.039837778 0.047727436 0.26345575
0.03459698 0.050674558 0.26355138
0.030855596 0.052407116 0.26377109
0.025738597 0.055138737 0.26395747
0.020989597 0.057592928 0.26464584
0.016444027 0.060024828 0.26474956
0.012089491 0.061124086 0.26442316
0.04629612 0.04249087 0.26016581
0.042963684 0.045141071 0.25968465
0.039766371 0.048540205 0.2597788
0.036011279 0.051263213 0.26017949
0.030991495 0.052716613 0.25971171
0.027153313 0.054436833 0.25969297
0.035476327 0.051251292 0.25658068
0.02604872 0.002248399 0.33155188
0.024488986 0.0038489029 0.33061033
0.022187889 0.0091035292 0.32727548
0.024742901 0.0087946281 0.3235946
0.023052514 0.010559462 0.32369485
0.033810258 0.0064904019 0.31787592
0.030851424 0.0073154792 0.31772786
0.027677536 0.01158493 0.31992286
0.02515924 0.013553195 0.32044438
0.03299433 0.0097265765 0.31439584
0.030723333 0.013211511 0.31625739
0.026950002 0.016308926 0.31559509
0.00027275085 0.032029212 0.31546876
-0.0071382523 0.036130488 0.31228602
0.03723067 0.0094983205 0.30931097
0.035410106 0.012704067 0.31118804
0.00060158968 0.034766704 0.31164458
-0.0029852986 0.036475867 0.31086421
-0.0076050162 0.039285541 0.30975169
0.040221751 0.011461191 0.30609205
0.0013652444 0.036685586 0.30851561
-0.0021321177 0.038868278 0.30773887
-0.006065309 0.041773081 0.3070322
-0.010328531 0.044517189 0.30470538
0.047863066 0.0078240857 0.29913259
0.045969665 0.011187278 0.30125719
0.041906953 0.01295682 0.30406833
-0.0070922971 0.044634759 0.30426675
-0.0094202161 0.045940906 0.30189979
-0.012012541 0.046859413 0.30021942
0.049656093 0.0097777769 0.29610366
0.047762454 0.013210289 0.29739904
-0.0055614114 0.046960324 0.30011293
-0.0076985955 0.048854768 0.29727006
-0.011757672 0.050054103 0.29685253
0.051489294 0.011849068 0.29231703
0.05035311 0.015674911 0.29285505
-0.007435143 0.051566273 0.29347953
-0.011181474 0.052517593 0.29261211
0.053126633 0.013773642 0.28831932
0.051928937 0.017411999 0.28899863
-0.0052089095 0.053076029 0.28885666
-0.0098212361 0.053521514 0.28775081
0.054484189 0.016525976 0.2837902
0.053164184 0.019699179 0.28388819
-0.003472507 0.055144906 0.28445798
-0.0083475113 0.055008262 0.28410998
0.05528152 0.017934196 0.2795763
0.053100407 0.02141466 0.27977309
-0.0027043223 0.056621253 0.28006682
-0.0074523091 0.057070673 0.27940258
-0.011113942 0.058947742 0.27899662
0.055569172 0.020090126 0.2744396
0.053140938 0.023215644 0.27530041
0.0509184 0.027355671 0.27448165
0.00098460913 0.057652444 0.27672288
-0.0014557838 0.058148921 0.27550629
-0.006295383 0.059035242 0.27441707
-0.010041177 0.05990544 0.2750515
0.056193173 0.021225058 0.27073726
0.054065108 0.024592184 0.27081534
0.051604331 0.028547078 0.27115303
0.0036892891 0.058992356 0.27173522
-0.00063210726 0.059269011 0.27068356
-0.0041032434 0.059918463 0.27096981
0.054665744 0.026778132 0.26603708
0.052021563 0.03043136 0.26678225
0.048711002 0.034050107 0.26648617
0.0049049258 0.060268611 0.26654616
0.0017247796 0.059820056 0.266862
0.055121064 0.028581738 0.2624436
0.052438617 0.032510191 0.26191637
0.04875201 0.035941094 0.26281604
0.010522842 0.0608114 0.26215765
0.0067782402 0.060672402 0.26216802
0.053223908 0.033518076 0.25709996
0.049649537 0.036921322 0.25748479
0.046874404 0.04082638 0.25801948
0.042027056 0.043347031 0.25617111
0.038047075 0.04553327 0.25570723
0.028670847 0.052262127 0.25643381
0.024729073 0.055017233 0.25877672
0.021127999 0.056322962 0.25898317
0.016671836 0.058827549 0.25834134
0.012172222 0.060322076 0.25784841
0.0080171824 0.06086126 0.25822774
0.04931283 0.039213628 0.25262246
0.046669066 0.042549044 0.25357285
0.04138428 0.044357777 0.2532075
0.037857711 0.047123075 0.25311354
0.033716261 0.049495041 0.25274721
0.029987872 0.052290112 0.25317213
0.025840163 0.055060685 0.25369707
0.021300316 0.057184815 0.25354674
0.016540587 0.058481693 0.25399938
0.04705596 0.042998552 0.24863908
0.040476859 0.045332611 0.2495167
0.037730575 0.047086984 0.24952674
0.032993317 0.050714135 0.24913415
0.030140698 0.053597152 0.24875847
0.026103795 0.055922002 0.24906522
0.022796333 0.056925386 0.24964622
0.021665037 0.0059528276 0.32602742
0.033810794 0.0019589886 0.31502905
0.032279074 0.0046887323 0.31591657
0.037373006 0.0011871979 0.309609
0.035290778 0.0036539659 0.31161624
0.033306599 0.0061343536 0.3146672
0.038807452 0.0033020899 0.30693457
0.037425637 0.0053639337 0.30868927
0.040878057 0.0049730763 0.3034704
0.04715997 0.005131714 0.29861689
0.044827282 0.0062877163 0.30171752
0.049783707 0.006001316 0.29469001
0.05259949 0.0093599483 0.29121634
-0.013138533 0.051981121 0.28915
-0.015188158 0.051901996 0.2904959
0.053913176 0.011516891 0.286194
-0.01382488 0.054689378 0.28598842
0.054488897 0.0099634454 0.2812027
0.055380523 0.013811491 0.28200802
-0.011159778 0.055224121 0.28201643
-0.013401151 0.056342006 0.28196615
0.055775225 0.015405618 0.27716884
-0.0088917613 0.05737856 0.27630445
-0.012798429 0.057762057 0.27671847
0.056087732 0.017072789 0.27344415
-0.0077314973 0.059080243 0.27357051
-0.009326756 0.061118811 0.2721729
0.056206703 0.019195229 0.26820049
0.055425644 0.023150504 0.26781565
-0.0076621771 0.059322268 0.2685875
-0.010513246 0.06026125 0.26865032
0.056590378 0.020996839 0.26350412
0.055828571 0.024632156 0.26454636
-0.0016821027 0.059328169 0.26412642
-0.0059383512 0.059666544 0.26458928
0.056322455 0.022380501 0.25890067
0.054901719 0.025335461 0.25932667
0.053998053 0.030055434 0.25938156
0.0034547448 0.059775919 0.25902379
8.0227852e-05 0.058719963 0.26079765
0.054503977 0.027533025 0.25487241
0.053625941 0.030856669 0.25491756
0.0083556771 0.059327126 0.25390431
0.0050694942 0.059577197 0.25526005
0.054381967 0.028606892 0.25101921
0.052581668 0.032269776 0.25048131
0.050711632 0.035629421 0.25157434
0.04209137 0.042831302 0.25135437
0.016220987 0.05855298 0.25100243
0.010780275 0.059842765 0.25086835
0.0059309602 0.059337467 0.25114599
0.05237931 0.033567786 0.24638915
0.050065219 0.037042558 0.24634168
0.048078418 0.040228486 0.24618092
0.041998327 0.044368476 0.24707299
0.038045228 0.047718853 0.24727079
0.034500301 0.049972564 0.24716529
0.03081286 0.053015947 0.24663475
0.025946379 0.0560157 0.24662855
0.020462334 0.05697915 0.24689898
0.015351236 0.058069438 0.24702042
0.012221992 0.058606684 0.24612877
0.049881756 0.037514389 0.24190393
0.047350228 0.041907132 0.24214983
0.043770075 0.044767052 0.24202541
0.039402187 0.047533691 0.24252626
0.03461808 0.049890488 0.24216315
0.030476749 0.052770019 0.24251708
0.025707722 0.054626912 0.24212977
0.021700323 0.05584237 0.24232832
0.0473212 0.042973876 0.2374239
0.044360697 0.045504451 0.23726913
0.039416969 0.047315627 0.2377291
0.035304964 0.049167901 0.23822436
0.031151056 0.051801056 0.23823547
0.044172764 0.046355963 0.23391566
0.036201537 -0.0032571033 0.31196517
0.033953607 -0.00095573813 0.31367055
0.039977789 -0.0047390237 0.30815917
0.037509859 -0.0017596558 0.31006891
0.034621119 3.7185848e-05 0.31231311
0.040950716 -0.0024456754 0.30426952
0.03922838 0.00014238805 0.30616546
0.043439209 -0.00035832077 0.30081582
0.041153729 0.0013342127 0.3029159
0.046127856 0.0011010095 0.29784447
0.04797858 0.00048964471 0.29078031
0.050734937 0.0033600852 0.28726557
0.052679121 0.0054270551 0.28314367
0.054432154 0.0073102936 0.27910915
0.055245221 0.010104142 0.27490667
0.055263162 0.010521889 0.26988328
0.055144906 0.014455967 0.27009505
0.056806803 0.013576597 0.26608866
0.056126177 0.016054809 0.26649633
-0.01010108 0.058759928 0.26518247
-0.013368905 0.057368606 0.26611567
0.05678308 0.01466307 0.26062465
0.056701899 0.017189592 0.26194021
-0.0045538545 0.05829972 0.26093224
-0.0076165795 0.058863401 0.26119813
-0.011480272 0.058213353 0.26133355
0.05709362 0.020021796 0.25746688
-0.0023777485 0.05779779 0.25753796
-0.0070357919 0.05848071 0.25680986
-0.010504365 0.059630632 0.25556335
0.056702971 0.022240698 0.25355387
0.055204332 0.0247747 0.25315985
0.002661109 0.059009671 0.25308326
-0.0016030073 0.058239371 0.25349811
-0.0083184838 0.060052872 0.25267008
0.056911349 0.024073273 0.24792686
0.055511534 0.027222455 0.2490361
0.05375725 0.030734926 0.24813363
0.004257381 0.059169501 0.24892586
0.0006583333 0.058408409 0.24942157
0.057280481 0.024884641 0.24405161
0.055726349 0.028519154 0.24404365
0.053388894 0.032139599 0.24418512
0.015443802 0.057188928 0.24435082
0.010046303 0.058536917 0.24376449
0.0064985156 0.05929473 0.24500194
0.052298248 0.033265829 0.23988569
0.050533593 0.03735593 0.23974451
0.020692527 0.056049228 0.24001893
0.015455663 0.056840211 0.24044451
0.011718333 0.057408124 0.24087039
0.049888849 0.038268805 0.23639286
0.048176765 0.041433007 0.23499513
0.041399777 0.045297742 0.23573783
0.038370192 0.04742685 0.23538265
0.034105957 0.049587905 0.23603305
0.02958864 0.052111983 0.23561332
0.025318503 0.05399859 0.23543385
0.021001399 0.056211889 0.23554924
0.017059028 0.056692481 0.23652002
0.046107352 0.042894304 0.23145583
0.043597639 0.045535892 0.23157451
0.038675964 0.04753828 0.2317372
0.034460604 0.049783736 0.23185483
0.030310273 0.052210242 0.23227391
0.040869296 -0.0055057481 0.30417311
0.044768274 -0.0070426837 0.29676077
0.043125868 -0.0053348318 0.2996611
0.046200335 -0.0048794821 0.2936734
0.048656702 -0.0043586269 0.28941852
0.052339256 -0.0053644851 0.2849423
0.051087856 -0.0013945773 0.28598663
0.053722322 -0.0027349964 0.28040776
0.052872121 0.00058793277 0.28187934
0.054151595 -0.001181908 0.27670076
0.054075003 0.0026368126 0.27626869
0.054561675 0.003891252 0.27203289
0.055773437 0.0064406991 0.26780227
0.056002915 0.0084125102 0.26366416
0.056353629 0.01073885 0.25936365
-0.015037715 0.057635576 0.25946409
0.056753516 0.013583302 0.25632095
0.056776285 0.016085863 0.25411895
-0.007415235 0.058416963 0.25407836
-0.012819111 0.05951184 0.25523812
0.05553323 0.017022789 0.25032595
-0.0033478141 0.057391495 0.25030485
-0.0077009201 0.057696462 0.25088337
-0.010660708 0.061100423 0.25258324
0.055868387 0.019395173 0.24635741
0.0019701123 0.057960331 0.24540123
-0.0032794476 0.056784391 0.24607337
0.056420863 0.0224967 0.24258074
0.056204975 0.025106907 0.24065605
0.0030568242 0.057682067 0.24186668
-0.0008135438 0.056497395 0.24139458
0.055012882 0.026944607 0.23796394
0.052566111 0.030182362 0.236747
0.013817012 0.056596041 0.23686132
0.008908391 0.05731976 0.23777363
0.003986299 0.057824314 0.23692364
0.05447793 0.027463496 0.23432246
0.051746488 0.030674517 0.23300996
0.049357653 0.035352856 0.23292378
0.018600166 0.056468785 0.23255721
0.014641821 0.057032496 0.23356321
0.0088419318 0.057419211 0.23385182
0.005337894 0.058395088 0.23357269
0.051465452 0.032061309 0.22996625
0.048765838 0.035548866 0.22872642
0.046424329 0.039564461 0.22877967
0.041391671 0.044258684 0.22859797
0.038082898 0.04716152 0.22824574
0.033415377 0.049818605 0.2286019
0.029390037 0.051970929 0.22893298
0.024843037 0.054095834 0.22959536
0.020036995 0.056023747 0.22934249
0.015051246 0.056542069 0.2285206
0.048549473 0.036935329 0.22401735
0.04589057 0.039933413 0.22434184
0.042414725 0.042775661 0.2234419
0.037518442 0.045987755 0.22550061
0.033450425 0.048889041 0.22430044
0.029431641 0.051618904 0.22408244
0.024563253 0.053772211 0.22447857
0.020353317 0.055620104 0.22512761
0.047856033 -0.012228169 0.2955012
0.044752717 -0.010843761 0.29786706
0.051515162 -0.01410643 0.28945753
0.04943192 -0.011461146 0.29129741
0.04734093 -0.008843936 0.29312658
0.052379191 -0.012720264 0.28656024
0.051148593 -0.0088771656 0.28790078
0.054855227 -0.010907806 0.28229842
0.053141415 -0.0074469224 0.28240135
0.053537488 -0.0063188449 0.27811578
0.053907931 -0.0029628649 0.27358136
0.054833949 -0.0011249483 0.26947999
0.055455923 0.000718683 0.26542071
0.055864036 0.0057785809 0.26115918
0.055486023 0.0069868863 0.25684625
0.056010008 0.010133952 0.25221953
0.055614293 0.011363119 0.24747279
0.056183755 0.01483652 0.24829671
-0.0095100999 0.056106091 0.24728349
-0.014166951 0.05611828 0.24776161
0.055893123 0.016203046 0.24359557
-0.0043081641 0.056069344 0.24247202
-0.009000361 0.055517584 0.24363953
-0.01346916 0.055300266 0.24436605
0.055823147 0.019220978 0.23928007
-0.0032752156 0.055927664 0.23902819
-0.0072087646 0.055628031 0.2394816
0.055879295 0.020056516 0.23559481
0.055235565 0.023630381 0.23479447
-0.0013417602 0.056757689 0.23473403
0.054135442 0.024932832 0.23056009
0.053323209 0.029017359 0.23035529
0.0087916255 0.056533873 0.23030928
0.0041227937 0.057379454 0.23038211
-0.0011283159 0.056189805 0.23129305
0.053636789 0.027019918 0.22658327
0.051974237 0.030332595 0.22628847
0.049715221 0.033787906 0.22566494
0.014557302 0.056348741 0.22527054
0.0093213916 0.056405902 0.22617626
0.0045656562 0.057127386 0.22648183
0.050647736 0.030281097 0.22272208
0.0492118 0.034960359 0.22175017
0.046904385 0.038654506 0.2213937
0.03731823 0.043850601 0.22184417
0.033864081 0.0466263 0.22079882
0.030426085 0.048928469 0.2208387
0.024458945 0.052647799 0.22125962
0.020228922 0.055129975 0.22147456
0.014688075 0.05564931 0.22176489
0.010344326 0.056930989 0.2214196
0.047977388 0.035850674 0.21806437
0.045691431 0.039578468 0.21772182
0.042517364 0.043215156 0.2179251
0.037086785 0.044399947 0.21737826
0.033744693 0.048117161 0.21778595
0.029573262 0.050829738 0.21781489
0.025023758 0.053098589 0.21767488
0.020022869 0.054853797 0.21733671
0.014869392 0.055677414 0.21801168
0.011258483 0.057129502 0.21823728
0.044200838 0.040376723 0.21410412
0.042178035 0.043619722 0.21339589
0.036756635 0.045034438 0.21368712
0.033110678 0.048188359 0.21285307
0.029226363 0.050965637 0.21273249
0.024873853 0.053486168 0.21268481
0.021547973 0.054579794 0.21328384
0.033553004 0.050146401 0.2089746
0.03037709 0.05225274 0.20917773
0.026165903 0.054104328 0.20965859
0.053674459 -0.011927553 0.28036103
0.053857565 -0.011657305 0.27717271
0.052925766 -0.0084115639 0.27603546
0.054013133 -0.009403117 0.27107516
0.053710043 -0.0071320012 0.2731024
0.055775642 -0.0080953836 0.26661161
0.05514878 -0.0048038065 0.26799241
0.055951476 -0.0061768591 0.26289371
0.055300891 -0.0028064549 0.26265603
0.05743289 -0.0037334561 0.25696322
0.055534065 -0.00050076842 0.25853446
0.054600656 0.0010801256 0.25427848
0.054476082 0.0037439764 0.25398579
0.055113494 0.0056740344 0.24909183
0.055813193 0.0076268613 0.24503288
-0.017144382 0.055120051 0.24548963
0.056022108 0.010223866 0.24118671
-0.011314809 0.05455634 0.24033803
-0.014734089 0.055292398 0.24119583
0.056285381 0.013133138 0.23630622
0.055761099 0.015058845 0.23833695
-0.010536492 0.054701179 0.23658296
-0.015126109 0.054379761 0.23726246
0.057384729 0.014956415 0.23185161
0.055981338 0.017541349 0.23266497
-0.0054744482 0.055345803 0.23298249
-0.0071902871 0.054387063 0.22999671
0.057350338 0.015168428 0.22853318
0.055932343 0.019492716 0.22821817
0.0548262 0.022940725 0.22830915
0.00092095137 0.05654037 0.22748223
-0.0025060177 0.055645436 0.22802767
0.055444598 0.020431936 0.22387731
0.053552806 0.023842394 0.22379282
0.0024584532 0.056350321 0.22317806
-0.0012226701 0.055914283 0.22280285
0.052984416 0.025143951 0.21912456
0.05092591 0.029289275 0.2194868
0.0071027875 0.057095468 0.22012445
0.003557086 0.056646854 0.21896645
0.050392807 0.030098081 0.21442801
0.048374236 0.034225166 0.21509159
0.045674264 0.036848903 0.2142933
0.017478883 0.054822803 0.21355337
0.013599932 0.055540293 0.2146095
0.0088374615 0.056942463 0.21499467
0.049637198 0.031380743 0.21098846
0.047736347 0.034831315 0.21034762
0.044623435 0.038552105 0.21065533
0.04228121 0.041894764 0.21023142
0.037313163 0.044463456 0.21094668
0.034191132 0.046779394 0.21075928
0.018838346 0.054843336 0.21080229
0.014044106 0.05597052 0.2101168
0.010177612 0.056717515 0.21118489
0.044458508 0.03968823 0.20604014
0.041746855 0.043604046 0.20666903
0.037361443 0.046104908 0.20660946
0.033592403 0.048528403 0.20600969
0.029280961 0.052180737 0.20577535
0.024953127 0.054550171 0.20651752
0.020516217 0.055589378 0.2067039
0.0440166 0.041281283 0.20239604
0.042224467 0.044816494 0.20153713
0.037686765 0.046754807 0.20194444
0.032843292 0.048724204 0.20166805
0.029167235 0.051401615 0.20219874
0.024378896 0.054044038 0.20253766
0.05286926 -0.014915116 0.27318713
0.054470003 -0.012721181 0.26932719
0.055318415 -0.010059863 0.26535231
0.055934131 -0.0083225965 0.26064888
0.057082355 -0.0063108504 0.25639218
0.057466924 -0.0039200187 0.25211704
0.055397451 -0.0013611019 0.2528092
0.055331767 3.4600496e-05 0.2483381
0.056249559 0.0027195513 0.24319246
-0.020680368 0.052317023 0.24273539
0.057686508 0.0043820441 0.23884794
0.056364775 0.0074687302 0.23839426
-0.017649829 0.053847224 0.23846743
-0.019920409 0.053707629 0.23895815
0.057632685 0.0061056018 0.23423138
0.05651015 0.0092929602 0.2354688
-0.011887133 0.053472459 0.23415765
-0.016601503 0.054080874 0.23404726
0.058039784 0.0075196922 0.23022833
0.057667911 0.011030555 0.2305032
-0.011131048 0.05375427 0.23048285
-0.014922082 0.05499801 0.22986349
0.057653725 0.013383925 0.22574514
0.056311488 0.016819686 0.22539666
-0.0053437352 0.054506272 0.22607902
-0.0091801286 0.054368705 0.22557452
0.056847751 0.014963001 0.22249374
0.055443525 0.017990083 0.22119439
-0.0045791268 0.054948956 0.22172889
-0.0083865523 0.055052519 0.22095701
0.054485559 0.019640595 0.21789235
0.053500712 0.022172242 0.21637854
0.001526475 0.056114286 0.21649021
-0.0019782186 0.055716991 0.21755409
0.052760899 0.024279028 0.21275553
0.051363468 0.027131468 0.21188891
0.0031316876 0.056589276 0.21321028
-0.0010821223 0.056006849 0.2135047
0.050490379 0.028880596 0.20826632
0.04766351 0.033221722 0.2077322
0.0089945197 0.056485325 0.20866403
0.0042855144 0.057815135 0.20848161
0.050275981 0.030568838 0.20472714
0.047858417 0.034588307 0.20452276
0.045044661 0.037925452 0.2039665
0.018619597 0.054789186 0.20350391
0.014896274 0.055707991 0.20463699
0.0095799565 0.056862175 0.20428985
0.0062127709 0.057965189 0.20489049
0.047740519 0.035346568 0.20058393
0.044931948 0.039077371 0.19986612
0.042406261 0.042269468 0.19896156
0.036726058 0.045855016 0.19897473
0.033141851 0.048054874 0.19896632
0.028668284 0.049801588 0.19911867
0.024647653 0.052088737 0.19949085
0.020198822 0.054809719 0.20012218
0.01537925 0.05681482 0.19972879
0.011408031 0.057614088 0.20006031
0.044625223 0.039039642 0.19616961
0.042056739 0.04311353 0.19584262
0.037869751 0.045740306 0.19544524
0.033759415 0.047851354 0.19557071
0.02926439 0.050275564 0.19547021
0.024880111 0.05283469 0.19542441
0.020692885 0.055281907 0.19559687
0.016560018 0.057110697 0.19604316
0.041846812 0.044063449 0.19187993
0.038930774 0.046272784 0.19141045
0.034593046 0.04938212 0.19094604
0.03004849 0.051663429 0.191661
0.02609843 0.053357303 0.1923168
0.055982232 -0.009465605 0.24892962
0.054262459 -0.0053453445 0.24509874
0.055969596 -0.0024666488 0.24076477
0.057280242 0.00037166476 0.23609474
0.057316422 0.0018618703 0.23187131
0.057239532 0.0037833452 0.22755089
0.057010829 0.0063417852 0.22726542
-0.017666638 0.054185867 0.22673848
0.057584703 0.0044839084 0.22436282
0.057244599 0.0081003308 0.22312447
-0.012850702 0.053853542 0.2231212
-0.016257226 0.054637164 0.22365335
-0.018954635 0.054469109 0.22321543
0.056722105 0.010324597 0.21937367
0.055186808 0.013996214 0.21832544
-0.0067376494 0.053937256 0.2180984
-0.010943472 0.054571241 0.21898007
-0.015507519 0.055207968 0.21878669
-0.018055081 0.056244075 0.2177996
0.056352377 0.012123406 0.2140522
0.054662228 0.01513347 0.21432218
-0.0060046315 0.054618329 0.21453488
-0.0097609162 0.054759979 0.21441928
-0.013993561 0.056275398 0.21435782
-0.016267359 0.05863744 0.21523404
0.054626644 0.01658836 0.20999157
0.053280532 0.020312905 0.21004409
-0.0038196445 0.054822534 0.20987022
-0.0083451867 0.054278344 0.21108747
0.054336548 0.018544286 0.20589215
0.052717268 0.022026181 0.20566416
0.050977886 0.02533865 0.20537794
0.0014111996 0.05747354 0.20484841
-0.0029873848 0.056104034 0.20551097
0.053118467 0.023288697 0.2010963
0.050691903 0.027709872 0.20114887
0.048637807 0.031023324 0.20045191
0.0071546435 0.05704394 0.20050347
0.0030069947 0.057187229 0.20158762
-0.001627028 0.057016313 0.20078725
0.053353846 0.02571243 0.19679645
0.051004469 0.028894424 0.19682145
0.047927082 0.032788098 0.19685531
0.045837343 0.036043227 0.19614369
0.0086472631 0.057381183 0.19713894
0.0037505031 0.057403564 0.19657832
0.00038295984 0.057184637 0.1976977
0.051265955 0.029990792 0.19217056
0.047934711 0.033600718 0.19237071
0.044809759 0.037443787 0.19266942
0.042544186 0.040452451 0.19158813
0.02248162 0.052981198 0.19159845
0.019148052 0.054819226 0.19196686
0.013979733 0.056147784 0.1922563
0.0093220472 0.057108074 0.19280428
0.0064607263 0.057309657 0.1917972
0.047274113 0.035223097 0.18791601
0.045046508 0.03853327 0.1880123
0.041690528 0.042078018 0.18819737
0.03768152 0.045924723 0.18820965
0.033812463 0.048807174 0.18718243
0.029026568 0.050825626 0.18778425
0.023616374 0.052120507 0.18807846
0.018556297 0.053941995 0.187711
0.013762176 0.055298567 0.18857056
0.047966659 0.037270606 0.18292975
0.045810103 0.039960265 0.18330869
0.042049527 0.043329954 0.1835987
0.03750968 0.045743406 0.18348128
0.033009648 0.048207521 0.18338588
0.028412104 0.050563693 0.1832431
0.024030268 0.052069932 0.18360001
0.019456148 0.054094851 0.18441874
0.045247495 0.04092899 0.17998248
0.041895986 0.043562591 0.17926145
0.039278328 0.045763135 0.17854726
0.030132413 0.050368041 0.17999023
0.054344296 -0.014475882 0.25119793
0.054570735 -0.011204153 0.24585566
0.054714143 -0.010784745 0.24258777
0.054646015 -0.0064997971 0.2418147
0.056169927 -0.0084819198 0.238206
0.055375755 -0.0052895844 0.23879924
0.057075083 -0.0066150427 0.23331276
0.05613941 -0.0039177537 0.23412845
0.05729574 -0.0048593581 0.22897032
0.056784391 -0.0019677877 0.22913536
0.057379186 -0.00014156103 0.22495261
0.057650626 0.0034038424 0.22069913
0.057357669 0.0040550828 0.21609193
0.056778669 0.007984966 0.21618891
0.056848288 0.0087082982 0.21156201
-0.012502909 0.0534316 0.21022779
-0.014347613 0.055470884 0.21102419
0.0564484 0.012128323 0.20821682
0.055884778 0.014814615 0.20777386
-0.0099670887 0.054179102 0.20736122
-0.01532656 0.055340648 0.20730504
-0.018821836 0.056910872 0.20665735
0.056503713 0.013162583 0.20312679
0.055323064 0.016529799 0.2033712
-0.008946836 0.054720402 0.20246932
0.055385172 0.018312514 0.19878829
0.054404199 0.0220083 0.19902289
-0.0048210025 0.056190819 0.19831431
-0.0078427196 0.055242151 0.19844049
0.054525733 0.019677341 0.19494832
0.054259717 0.023088634 0.19494295
0.0014291406 0.056487799 0.19246835
-0.0016254783 0.056525618 0.19458067
0.053550541 0.025151819 0.19102377
0.051565349 0.027540952 0.18871886
0.0082094073 0.056968629 0.19025928
0.003685534 0.056502819 0.18985939
0.049809754 0.029635906 0.18636915
0.048426151 0.03295368 0.18617487
0.013465106 0.05531466 0.18546563
0.0090011954 0.056113034 0.18555081
0.0055389404 0.057011336 0.185442
0.047566593 0.0335899 0.18111789
0.022949278 0.052840471 0.18234384
0.019273818 0.053429663 0.18139583
0.01447922 0.055069029 0.18118984
0.0096082091 0.055789888 0.18141803
0.046937406 0.036383033 0.17810503
0.045621812 0.039877713 0.17748845
0.042220891 0.044211358 0.17687151
0.035517335 0.045181543 0.17770785
0.032096684 0.047659218 0.17780703
0.027977526 0.050174564 0.17779285
0.024561346 0.052136838 0.17752588
0.019757926 0.054245859 0.1771405
0.01612407 0.055539429 0.17721516
0.044794142 0.04012078 0.17368221
0.041660845 0.043865353 0.17314407
0.037523687 0.046239376 0.17288852
0.033242404 0.048256218 0.17289588
0.029436231 0.050732434 0.17363453
0.025158167 0.053378493 0.17342687
0.021697581 0.055398613 0.17376664
0.055128872 -0.01755324 0.24373433
0.053598285 -0.016809464 0.2445375
0.054629803 -0.018072218 0.2410084
0.054954052 -0.014641434 0.2400929
0.057601631 -0.015143871 0.23693752
0.055907369 -0.013018638 0.23546764
0.056769609 -0.010857701 0.23180017
0.057455063 -0.006837219 0.22716939
0.057031989 -0.0047539175 0.22210285
0.058324695 -0.003357321 0.21702862
0.057538509 -0.00099137425 0.21963313
0.060148656 -0.0022740662 0.21310121
0.058000326 0.00098717213 0.21414798
0.056420147 0.0029912889 0.20978433
0.055662453 0.0072659552 0.20547742
-0.016341925 0.054881394 0.20480007
-0.019928038 0.054709822 0.20418662
0.056135595 0.010577649 0.20048571
-0.012513816 0.0545412 0.20184958
-0.015382469 0.054893315 0.20147872
0.0562163 0.012143672 0.19637084
0.05627948 0.016254932 0.19607237
-0.010239184 0.055631995 0.19727892
-0.013800085 0.05547455 0.19665268
0.055611968 0.012713939 0.19327149
0.05469501 0.016917974 0.1922718
-0.0056196451 0.055132508 0.19267029
-0.0087831616 0.05414775 0.19187659
0.054584503 0.018400311 0.18819472
0.052624643 0.022736907 0.18714458
0.00074547529 0.05626145 0.18791902
-0.0030856729 0.055371583 0.18825054
0.053997576 0.019892871 0.1835146
0.051976979 0.022919714 0.18312353
0.049965918 0.027579963 0.18336928
0.0019944906 0.056093484 0.18369502
-0.0030783415 0.054849982 0.18423629
0.052344382 0.024900943 0.17879748
0.049902022 0.028450727 0.17884147
0.048446953 0.032691032 0.1790832
0.0080626011 0.055945843 0.17892319
0.003275454 0.055794358 0.1789819
0.050295651 0.029210538 0.17443734
0.047757208 0.033213645 0.17453152
0.013219774 0.055262774 0.17425853
0.0082323551 0.055421442 0.1745899
0.047802031 0.033299148 0.17073262
0.044738948 0.036758274 0.16962987
0.041727006 0.04089722 0.16918713
0.037922919 0.04499051 0.16925177
0.033361256 0.047443271 0.16913718
0.028490365 0.049445421 0.16971976
0.024603665 0.052201122 0.16964138
0.019269109 0.05460155 0.16992745
0.014231861 0.055185616 0.17027843
0.04304409 0.038012564 0.16634965
0.041402996 0.041551232 0.16531444
0.037685573 0.044697106 0.16578537
0.032498181 0.046682209 0.1660828
0.028099716 0.049398154 0.16569355
0.023936331 0.052404374 0.16530704
0.019901037 0.054109395 0.16595829
0.040719569 0.04239887 0.16186851
0.037850142 0.044265836 0.16189271
0.022508681 0.053733587 0.16186649
0.055078924 -0.01879859 0.23920658
0.056320846 -0.01179567 0.22551981
0.056673706 -0.0087663531 0.22023898
0.057708323 -0.0064228177 0.21749616
0.060325682 -0.0034146905 0.21198255
0.058464706 -0.004026562 0.20821112
0.056933463 0.00019541383 0.20737147
0.056060851 0.0010815561 0.2025722
0.055517793 0.0061751306 0.20204195
-0.020845115 0.052706242 0.20178425
0.056051791 0.0028060675 0.19863287
0.055069387 0.0051571727 0.1977672
-0.017947018 0.053823203 0.19904289
-0.02112776 0.053538889 0.19962126
0.055458367 0.0076757669 0.1936639
-0.012012064 0.053717434 0.19297904
-0.015074492 0.052870274 0.19224453
0.055321991 0.011184543 0.1892947
-0.011200964 0.054100186 0.18934673
-0.014256537 0.054220319 0.18921876
0.055887401 0.012188822 0.18613261
0.055003703 0.015430838 0.18459755
-0.0057570338 0.054293096 0.18450314
-0.0096546412 0.053896248 0.1860826
-0.013641298 0.055348992 0.18609744
0.054789603 0.017526448 0.18033746
-0.0040436387 0.054217637 0.18035442
0.054339111 0.018021345 0.17684594
0.053857148 0.021833897 0.17733288
0.000423491 0.05477342 0.17596951
-0.0028352737 0.053460151 0.17680001
0.052616656 0.023748815 0.171942
0.051650107 0.027277023 0.17332363
0.00712955 0.055304974 0.17198911
0.0026736856 0.055288672 0.17206973
0.050226986 0.028005183 0.16935763
0.047391117 0.031432837 0.16728568
0.012301028 0.055290878 0.16847309
0.007984817 0.0551745 0.16786882
0.0041992068 0.056048632 0.16774672
0.046979904 0.032953382 0.1637834
0.044348776 0.036760122 0.16420728
0.03512007 0.044791967 0.16332787
0.03216821 0.046560168 0.1633068
0.027843356 0.049336165 0.16333157
0.018127739 0.054151952 0.16430256
0.013519287 0.054098934 0.16361839
0.0095570683 0.055154949 0.16435051
0.0040462017 0.058011472 0.16328216
0.046073854 0.034095645 0.16036674
0.043796539 0.036884785 0.15898293
0.041768432 0.042170912 0.15969345
0.036510408 0.04459101 0.15943372
0.031430185 0.046042323 0.15942469
0.027555287 0.04937157 0.15970278
0.023983657 0.052740961 0.1598267
0.019234776 0.054035753 0.15954554
0.015281081 0.054369926 0.15925914
0.043251038 0.039343029 0.15512651
0.041296065 0.042438477 0.15480375
0.037187576 0.044715047 0.15497464
0.031131566 0.046051472 0.15577066
0.026983321 0.049121916 0.15546912
0.024183631 0.051687092 0.15509033
0.020510852 0.0533081 0.15596801
0.040738165 0.043534696 0.15052143
0.038071692 0.045494586 0.1497097
0.057784438 -0.0062894225 0.20447659
0.056201994 -0.004586488 0.20290542
0.062564552 -0.0073598325 0.19969255
0.057487786 -0.0055154264 0.19935429
0.056791246 -0.0028108656 0.19949791
0.058276474 -0.0042219758 0.19628739
0.056646764 -0.00051745772 0.19522393
0.056311548 0.0012371242 0.19150668
0.055456281 0.0045257509 0.19176644
0.055499136 0.0058040619 0.18698415
0.056053758 0.0087766051 0.18315661
-0.011712134 0.052808136 0.18277574
-0.0153175 0.052717716 0.18153745
0.055636346 0.010225326 0.17888638
0.055260599 0.013312966 0.17923921
-0.0076557994 0.052966565 0.17759359
-0.011305392 0.052517593 0.17861056
-0.015023768 0.053267837 0.17995888
0.054098725 0.015027344 0.17416763
0.053295434 0.019754708 0.17359072
-0.0056685805 0.052647531 0.17428237
-0.009098947 0.052664787 0.17367935
0.05360347 0.017621696 0.16945061
0.05309093 0.02050817 0.16974807
0.00047081709 0.055694252 0.16911066
-0.0040094256 0.054305702 0.16968602
-0.0075438023 0.054095596 0.16988438
0.051574051 0.021832347 0.16517934
0.049187243 0.026019394 0.16520664
0.0017894506 0.056161046 0.16518688
-0.0031353235 0.054554135 0.16542453
0.051808596 0.023853242 0.1606096
0.049732149 0.027515292 0.16086918
0.047436118 0.031172216 0.16033962
0.011359215 0.053858459 0.15980554
0.007352531 0.054687083 0.16058916
0.0036372542 0.0569188 0.16107935
0.049941599 0.028233975 0.15570694
0.046898425 0.03269738 0.15649158
0.017033041 0.05319488 0.15526724
0.012264431 0.053275079 0.15582711
0.007694006 0.054475993 0.15704364
0.0037135482 0.05572623 0.15712231
0.049816966 0.029770225 0.15252888
0.046634853 0.033299506 0.15228131
0.043808579 0.036962599 0.15232575
0.034210026 0.044588566 0.15410519
0.031685054 0.045301288 0.15202743
0.027833283 0.047865808 0.1515615
0.023554146 0.050794482 0.15125561
0.01843667 0.052258492 0.15185195
0.013979793 0.053425848 0.15233636
0.043129086 0.038579673 0.1467059
0.041672289 0.042171478 0.14815933
0.036953509 0.045752347 0.14957213
0.032217443 0.045597136 0.14677536
0.027682126 0.04769367 0.14715272
0.023164332 0.050180823 0.14753538
0.040622532 0.043065786 0.14429331
0.037935436 0.045576721 0.14399689
0.060541928 -0.010006666 0.19692117
0.058367908 -0.0086318254 0.19780952
0.058447659 -0.0053260922 0.19425845
0.057118416 -0.0026487708 0.1929732
0.057354867 -0.0049963295 0.18883649
0.056422174 -0.0013763607 0.18905526
0.055854917 -3.9756298e-05 0.18482587
0.056386411 0.0031194091 0.18016538
0.056564212 0.0062905848 0.18018261
0.055007696 0.0074194074 0.17575327
-0.016545713 0.052640021 0.17568392
0.054201305 0.0096144676 0.17084277
0.053689361 0.01186344 0.17049763
-0.011956751 0.052822948 0.17193237
-0.015617371 0.053770334 0.17103893
0.053245425 0.013450474 0.16727185
-0.010792911 0.05381611 0.16723642
-0.014994919 0.054567277 0.16717404
0.053330243 0.017174274 0.16314507
0.052837908 0.019940674 0.16369486
-0.0053479671 0.05417946 0.16355413
-0.00823313 0.053895801 0.16519922
0.052491307 0.017020583 0.15823308
0.052570105 0.021105915 0.15911239
-0.0028146505 0.054406703 0.15911758
0.052249908 0.022784054 0.15448028
0.010153472 0.053107321 0.15392292
0.0068423748 0.054421246 0.15460026
0.0019723773 0.054918975 0.15412471
-0.0023996234 0.054026335 0.15544838
0.051779747 0.024695665 0.1499694
0.050031006 0.028449357 0.14982021
0.046737254 0.032399505 0.14956781
0.015915453 0.052514076 0.1493997
0.012635946 0.053810775 0.15053141
0.0077446699 0.053735316 0.14978689
0.003839314 0.054745644 0.15002915
0.049728453 0.028227419 0.14583141
0.046826422 0.033003509 0.14567068
0.044726431 0.036450893 0.14634773
0.02692169 0.048311919 0.14537603
0.022652686 0.051033437 0.14524376
0.017845869 0.052529484 0.14613676
0.013533056 0.054104656 0.14578468
0.0089597106 0.054462194 0.14560902
0.0043388605 0.05514735 0.14613897
0.046381414 0.033403069 0.14113066
0.043901026 0.036886364 0.14152235
0.041129112 0.040275365 0.14027002
0.03773725 0.044896662 0.14034802
0.032221437 0.046151012 0.14147365
0.027644694 0.048723966 0.14138439
0.022658169 0.050821722 0.1410605
0.017772138 0.052696735 0.14091507
0.014005184 0.05444026 0.14085901
0.010790467 0.055405676 0.14107755
0.042867243 0.037722945 0.13722292
0.040378153 0.040653348 0.13635635
0.03731668 0.044742167 0.13654131
0.031816721 0.046550751 0.13654053
0.027277052 0.048765719 0.13673532
0.022613227 0.050548732 0.13683048
0.018966019 0.052203655 0.1370905
0.039466321 0.042274296 0.13248724
0.036996722 0.044800937 0.13189003
0.030591905 0.047816217 0.1324918
0.055267394 -0.010848463 0.1887216
0.056278527 -0.0082761645 0.18599474
0.055425346 -0.0042001009 0.18157312
0.0550524 -0.001547277 0.17864308
0.054227352 0.00062844157 0.17370212
0.05442965 0.0038499832 0.17374551
0.054203689 0.0053119063 0.16960952
0.054356277 0.0076858997 0.16511723
0.052741706 0.011099458 0.16378242
-0.012879968 0.052603632 0.16397017
-0.016326427 0.054960608 0.16584259
0.054334342 0.0094102621 0.16030544
0.052961648 0.012827009 0.16033876
-0.0079060793 0.052375317 0.15937394
-0.011841118 0.051347136 0.16051954
-0.014656246 0.052277327 0.16082188
0.054412484 0.01102376 0.15587682
0.053165257 0.014849305 0.15565637
-0.0058240294 0.052676409 0.15530136
-0.0093215108 0.051033288 0.15688583
0.053640723 0.016561419 0.15124249
-0.00421983 0.053429931 0.15163523
0.053839982 0.016760796 0.14744562
0.052572668 0.020591289 0.14716667
-0.00020521879 0.054033607 0.14765081
-0.0035941005 0.053694487 0.14688846
0.051896274 0.023232013 0.14327186
0.050442338 0.026395679 0.1429171
0.048017085 0.029661626 0.1430158
0.0060448647 0.053971976 0.14304551
0.0012919307 0.054015517 0.14334753
0.052065909 0.023867935 0.13828617
0.049579322 0.026342779 0.13858283
0.046452343 0.030020326 0.13887545
0.043807626 0.03458792 0.13823828
0.012402713 0.05364272 0.13807434
0.0066512823 0.053856552 0.13883257
0.046267927 0.031391919 0.13453221
0.043470621 0.035555512 0.13456252
0.040813029 0.039648414 0.13374585
0.032246888 0.045571953 0.13393885
0.026771069 0.048454493 0.13376528
0.022570789 0.050556511 0.13421172
0.017868459 0.051569015 0.13428712
0.013109267 0.0535568 0.13449651
0.0083814859 0.05441317 0.13418511
0.045574188 0.033279836 0.13077307
0.043307006 0.036523134 0.1300523
0.040169418 0.040252507 0.12987885
0.036506593 0.04447493 0.12890425
0.031873167 0.046528369 0.13024676
0.027290881 0.048113286 0.1300571
0.023123562 0.049889892 0.12978524
0.018102586 0.051987082 0.12967506
0.014024317 0.054793984 0.13006201
0.010042369 0.055827081 0.12998104
0.038338244 0.041425079 0.12640765
0.036237538 0.044510692 0.12514383
0.03214699 0.04676488 0.12566563
0.027777374 0.047791779 0.12571591
0.022930861 0.0506697 0.12554392
0.020015061 0.051982135 0.12611982
0.035983801 0.046438813 0.12139571
0.03414613 0.047877818 0.12118468
0.055469632 -0.0070613921 0.18079868
0.054738879 -0.0077473819 0.17596978
0.054247916 -0.0046533048 0.17538732
0.055775523 -0.005998075 0.17119998
0.054400325 -0.0024117231 0.17106479
0.057050526 -0.0038686097 0.16566277
0.055042803 0.00013485551 0.16645712
0.057838917 -0.0025711954 0.1625298
0.05571872 0.0012114346 0.162792
0.054973066 0.0054019392 0.16251719
0.055417359 0.0033444762 0.1583395
0.05535239 0.0062098503 0.15844747
-0.013685763 0.051128298 0.15792572
-0.016777158 0.051931024 0.15819889
0.055554569 0.0089004636 0.15427411
-0.013029397 0.050091326 0.15384623
-0.016940057 0.053384483 0.15250051
0.055399358 0.010396034 0.15055883
0.054608285 0.013322473 0.14836621
-0.0063009858 0.052931219 0.14888352
-0.011783302 0.050863951 0.14964646
0.05417639 0.014948338 0.14510483
-0.0057201385 0.053437501 0.14501387
-0.0097338557 0.051937491 0.14607164
0.053834021 0.01626268 0.14114207
0.052958131 0.020208091 0.14061832
0.0012742281 0.054013491 0.14027134
-0.0040043592 0.054022372 0.14045864
0.052102029 0.021218419 0.13558689
0.0048978925 0.054261714 0.13676351
0.00097602606 0.05375874 0.13581043
-0.0018764138 0.054245472 0.1372503
0.051052988 0.023015559 0.13224068
0.04969734 0.026979178 0.13288674
0.047152758 0.030911595 0.132173
0.006238699 0.055338115 0.13368064
0.0037008524 0.054761291 0.13204709
0.048503697 0.027726084 0.12829733
0.04638797 0.031338394 0.128203
0.043728292 0.035478234 0.12740245
0.018032491 0.052134007 0.127619
0.012828171 0.055384129 0.12762168
0.0083839297 0.056070179 0.12832332
0.0053114295 0.055813402 0.12806812
0.044809282 0.032893717 0.12396211
0.043099642 0.036417097 0.12385476
0.039837301 0.04036504 0.12426863
0.031291187 0.046891451 0.12304337
0.02774018 0.048527211 0.12359441
0.023930132 0.050904006 0.12331549
0.018160522 0.05304569 0.12398938
0.013840377 0.055647433 0.12419278
0.0088393688 0.055943012 0.12448964
0.042032361 0.037342489 0.11957509
0.039421856 0.040612608 0.119824
0.03708899 0.04459694 0.11895145
0.032200098 0.047720701 0.11931286
0.028595567 0.049461186 0.11960758
0.023693025 0.051738918 0.11934138
0.018389404 0.053208888 0.11894754
0.014225185 0.054818004 0.11962671
0.039565146 0.041401386 0.11354891
0.037070334 0.044736832 0.11458612
0.033229649 0.047430634 0.11427302
0.028312743 0.049605578 0.11490534
0.023912609 0.051936567 0.11495093
0.019800365 0.052946478 0.11516616
0.053811431 -0.013831168 0.1804778
0.053987861 -0.013065606 0.17709094
0.058901906 -0.013668925 0.17049503
0.054659784 -0.011218905 0.17226499
0.059063971 -0.011847854 0.16921318
0.055980861 -0.0090643764 0.16884908
0.053857267 -0.0054509938 0.16828597
0.057500124 -0.0065818131 0.16496101
0.055302382 -0.0032746494 0.16552031
0.05976963 -0.0043922365 0.16234905
0.054664135 -0.0022301078 0.15930164
0.053742945 0.00099810958 0.15916765
0.055494726 -0.00054365396 0.15572643
0.05492115 0.0029421151 0.15445691
-0.018922269 0.049471915 0.15461978
0.055949271 0.0016354322 0.15056899
0.055482745 0.0039417148 0.15118128
-0.017579019 0.050122559 0.15138832
0.056520879 0.0026473105 0.14728785
0.055111706 0.0062451065 0.14658284
-0.014279544 0.050925136 0.14734256
-0.017961562 0.051108807 0.14561045
0.054297447 0.0083264709 0.1423147
0.053841531 0.011222273 0.14294863
-0.012554586 0.051336706 0.14295584
-0.015432775 0.051177889 0.14194831
0.053486645 0.013070881 0.13820463
