# .PCD v0.7 - Point Cloud Data file format
VERSION 0.7
FIELDS x y z
SIZE 4 4 4
TYPE F F F
COUNT 1 1 1
WIDTH 1345
HEIGHT 1
VIEWPOINT 0 0 0 1 0 0 0
POINTS 1345
DATA ascii
0.053461552 0.023763061 0.244519
0.052372456 0.027868375 0.2447848
0.014250159 0.056001604 0.24453205
0.010430932 0.055605441 0.24499279
0.052888155 0.025123373 0.2408255
0.05166322 0.029361069 0.24041024
0.0493536 0.033255607 0.24030274
0.020430624 0.055731863 0.23972932
0.016246498 0.056376606 0.24051806
0.051407337 0.029985473 0.23649642
0.049246132 0.034371838 0.23607823
0.046505094 0.038631171 0.23570687
0.043165028 0.041728258 0.23539683
0.039867997 0.044860929 0.23510244
0.026335537 0.054599911 0.23575774
0.021458864 0.05567649 0.23599735
0.017055154 0.057281345 0.2356002
0.048652291 0.035043657 0.23166028
0.046120942 0.038734406 0.23148021
0.042964101 0.042519778 0.23177323
0.03906703 0.045625687 0.2317878
0.03553617 0.048806697 0.23167351
0.031671166 0.052481741 0.23182037
0.02722764 0.0548127 0.23177716
0.022232771 0.055396765 0.23216256
0.045473993 0.039623752 0.22820839
0.042391539 0.0428949 0.22773048
0.038977563 0.045428127 0.22795334
0.034344018 0.048992008 0.22794166
0.030370235 0.052311689 0.22728953
0.027327836 0.054871917 0.22701082
0.047163486 -0.017106771 0.29850644
0.051189423 -0.017359376 0.29410419
0.049403131 -0.014513224 0.29514405
0.052558303 -0.014663458 0.29308453
0.051405132 -0.013470292 0.29313177
0.053673565 -0.01292032 0.28620657
0.053490698 -0.01075089 0.28654596
0.054409921 -0.011694998 0.28080216
0.054441214 -0.0083404481 0.28105485
0.054341018 -0.0069125891 0.27650961
0.05497849 -0.0049227476 0.2724711
0.05732286 -0.0024178326 0.26809159
0.05795753 -0.00025448203 0.26446697
-0.012692451 0.055039078 0.26409405
0.056951046 -0.00010743737 0.26021495
0.057035565 0.0045276582 0.26006076
-0.0073242784 0.055215955 0.26120958
-0.0098699331 0.056408614 0.26023111
0.05560869 0.009264946 0.25520048
-0.0053667426 0.057278663 0.25562254
-0.007805109 0.058140635 0.25608149
0.055347621 0.012171805 0.25075945
0.00051951408 0.055997819 0.2501424
-0.0036354065 0.057046473 0.25177953
-0.0069897175 0.058046877 0.25103942
0.05660671 0.01406157 0.24668261
0.056109548 0.016836286 0.24684006
0.0050005913 0.054974884 0.24648407
0.0019496083 0.05484879 0.24696922
-0.0012420416 0.055936456 0.24735239
0.056400895 0.01513277 0.24319842
0.055095553 0.018375099 0.2423248
0.0082042813 0.05567953 0.24281141
0.0048022866 0.05547601 0.24154365
0.054553032 0.018439442 0.23856524
0.052926362 0.023024201 0.23801395
0.012356639 0.056076318 0.23789719
0.0092327595 0.056438565 0.2379306
0.0052321553 0.056283027 0.23843095
0.052499652 0.025456265 0.23385137
0.051334679 0.029015437 0.23331136
0.012773633 0.056975752 0.23396763
0.010250449 0.057046443 0.23313239
0.05037725 0.030147925 0.22925869
0.048517048 0.033716694 0.22853768
0.019715905 0.055245548 0.22930953
0.016094983 0.056855112 0.23063973
0.046692848 0.035419226 0.22494194
0.045514762 0.038652748 0.22495928
0.04189837 0.042043865 0.22426924
0.037417293 0.045221627 0.22446793
0.034002066 0.048239112 0.22454855
0.030670583 0.051460177 0.22433856
0.025678158 0.054894298 0.2243742
0.021313608 0.054821521 0.22442797
0.040192664 0.042256653 0.22111017
0.037253857 0.044056416 0.22099623
0.032928228 0.047935516 0.22111258
0.029629707 0.051615596 0.22136801
0.025961161 0.053875178 0.22122881
0.053059399 -0.015628546 0.28240868
0.053699374 -0.015562952 0.27807364
0.055351973 -0.012631029 0.27502593
0.056656837 -0.011495054 0.27046335
0.055306613 -0.0089003444 0.27024764
0.059160531 -0.010269195 0.26525471
0.056750655 -0.0070870221 0.26648894
0.057968616 -0.0088160038 0.26203328
0.057073832 -0.0051139295 0.26112235
0.056629062 -0.0020097494 0.25772613
0.056185484 -0.00042653084 0.25505057
0.055267334 0.0026941895 0.25339898
0.054179788 0.0060892105 0.25269118
0.056695938 0.0043412149 0.24772099
0.055036247 0.0072326362 0.2497164
-0.0059447885 0.055540591 0.24819502
-0.0092070103 0.05683586 0.24760643
0.056128025 0.0052564144 0.2444618
0.056028187 0.0090104342 0.24458823
-0.0011280179 0.054350197 0.2436963
-0.0042160749 0.054763913 0.24496302
0.055838406 0.01133132 0.23996016
0.05523926 0.014326751 0.23948568
0.00042265654 0.055139363 0.23991424
0.055774927 0.012920797 0.23506105
0.055143952 0.016367614 0.23569652
0.052645624 0.019159436 0.23587862
0.0025085807 0.056763083 0.23527151
0.055258095 0.018300354 0.23116371
0.052941263 0.021518886 0.23198384
0.0078875422 0.056946784 0.23059565
0.0032901764 0.057281971 0.2307266
0.055543184 0.019456103 0.22628942
0.053503394 0.022988036 0.22723225
0.051086843 0.026424438 0.22758004
0.014563859 0.055654198 0.22681332
0.0089841485 0.055945903 0.22745731
0.053230524 0.024084747 0.22267464
0.051045716 0.02809076 0.22257969
0.04774189 0.031966716 0.22349516
0.045735955 0.034808785 0.22208944
0.019350648 0.054777771 0.22251382
0.014650643 0.055505097 0.22263405
0.050502837 0.02915971 0.21823657
0.047873139 0.032431811 0.21817881
0.044722021 0.036493301 0.21889269
0.041511476 0.040038645 0.2189219
0.03744626 0.043409139 0.21832982
0.033556879 0.046229422 0.21864447
0.029740989 0.049828857 0.21842447
0.02558738 0.05277428 0.21835545
0.020157933 0.054303974 0.21838668
0.0479756 0.034580603 0.21425828
0.045431852 0.037558824 0.2135286
0.042137086 0.041428477 0.2144582
0.038114786 0.044493318 0.21444115
0.034212708 0.047667176 0.214472
0.030267656 0.050801307 0.21448496
0.025543332 0.053301245 0.21386084
0.021919012 0.054389864 0.2146481
0.044799745 0.039833665 0.21029341
0.042384028 0.042483389 0.20927581
0.038688481 0.045689642 0.20883825
0.034752965 0.048563898 0.20930567
0.030667245 0.051464409 0.20979449
0.027400017 0.053203225 0.2102432
0.05473876 -0.02047947 0.27438751
0.052974343 -0.019255608 0.27656487
0.055249453 -0.019825876 0.27291617
0.054490685 -0.018063515 0.27146587
0.056862593 -0.017649055 0.26689038
0.056388676 -0.015799582 0.26799089
0.058824778 -0.015250504 0.26261684
0.061141253 -0.012559474 0.2592949
0.058943868 -0.010355324 0.26001289
0.062054753 -0.011429548 0.25714213
0.057969391 -0.0097295642 0.2549701
0.056303084 -0.0056962669 0.25487387
0.055360317 -0.0046248436 0.25026688
0.055703402 -0.00053563714 0.25077501
0.056461692 -0.0023353398 0.24590871
0.056433797 0.00055673718 0.24691179
0.057407439 -0.00032627583 0.24098307
0.056492925 0.0031409264 0.24218902
-0.0066226721 0.053510189 0.24151179
-0.011144817 0.054410696 0.24190205
0.057138085 0.0042979121 0.2373378
0.056129992 0.0082882345 0.23751059
-0.0060458779 0.054168612 0.23780075
-0.0093327761 0.054905295 0.23571756
0.05731225 0.0059830546 0.23221949
0.055828929 0.010074347 0.23336741
-0.0043665171 0.056250483 0.23344132
-0.0086292028 0.057693988 0.23076579
0.055581331 0.011221737 0.22893178
0.054860234 0.014998347 0.22857794
0.0015475154 0.056705445 0.22775269
-0.0020412803 0.058439016 0.22897515
-0.0058239698 0.059750617 0.2282888
0.054578781 0.012714237 0.22460982
0.05456233 0.016572297 0.22393635
0.007946372 0.055478215 0.224053
0.0031725168 0.055766642 0.224843
-0.0015006065 0.057628721 0.22572407
0.054358244 0.018021017 0.21978119
0.053086042 0.023008764 0.21941644
0.013566554 0.055193305 0.2193
0.00807935 0.055028915 0.219987
0.0036200285 0.055028319 0.22090563
0.05472374 0.019438729 0.21571186
0.052981138 0.02386421 0.21574029
0.050366998 0.027939335 0.21518871
0.016977906 0.054296106 0.21543097
0.013690233 0.054650813 0.21577021
0.010068715 0.054842323 0.21515399
0.052877307 0.02454254 0.21093586
0.050229311 0.028686687 0.21121547
0.047882497 0.032649755 0.21115109
0.022967219 0.053639233 0.21037561
0.019738436 0.054189056 0.21127883
0.014798939 0.055162847 0.21093589
0.052582979 0.026734367 0.2068738
0.050076842 0.029348031 0.20666224
0.047358751 0.033402801 0.2066372
0.045202732 0.037967145 0.20712239
0.042342007 0.041440696 0.20591757
0.033215404 0.048894107 0.20599839
0.029281318 0.051462442 0.20630649
0.024797261 0.053087115 0.20714259
0.02017647 0.054154962 0.20630977
0.016345143 0.055443645 0.20654538
0.047258496 0.034481078 0.20193645
0.04495883 0.038560838 0.20225427
0.041925788 0.042568147 0.20265982
0.03783381 0.045610607 0.20262179
0.033891797 0.048122346 0.20272937
0.029610932 0.050189108 0.20216641
0.025860369 0.052771926 0.20237073
0.02154851 0.054365665 0.20337841
0.047331452 0.036568105 0.19874814
0.045432031 0.038987905 0.19828758
0.042062104 0.042043924 0.19822049
0.038366199 0.045151174 0.19769678
0.034381151 0.047858357 0.19780263
0.030834973 0.050334364 0.19781229
0.027483702 0.05243212 0.19884178
0.054580569 -0.020307004 0.27024719
0.057058215 -0.012553483 0.25196764
0.060491383 -0.014623344 0.24617401
0.056471825 -0.010328412 0.24725243
0.056053281 -0.0072285235 0.2486532
0.061349034 -0.012271076 0.24339354
0.05719471 -0.0086483955 0.24347085
0.056592345 -0.0053063929 0.2440581
0.057485104 -0.0037434399 0.23943716
-0.012981892 0.053465873 0.2390565
0.057747841 -0.0011951029 0.23515782
-0.012587368 0.05437842 0.23506442
-0.014991105 0.054676622 0.23387599
0.057581544 0.00080683827 0.23019424
0.057906032 0.0035766661 0.22999889
-0.010325611 0.057257354 0.23123547
0.056865096 0.0052530468 0.22640085
0.055247605 0.008549571 0.22507885
-0.0050410628 0.057927787 0.22517386
-0.0073676705 0.059116364 0.22588894
0.054078758 0.010513455 0.22145361
-0.00038856268 0.054699421 0.22183472
-0.0042928457 0.056063473 0.22202715
-0.008759141 0.057257146 0.22265801
0.054712534 0.012592196 0.21722195
0.05479455 0.015821844 0.21935531
0.0048674345 0.05378294 0.2162579
0.0011282563 0.053882778 0.21718672
0.055159569 0.016820818 0.21276432
0.0052397847 0.053658038 0.21269879
0.0038739443 0.054201335 0.21214399
0.055174112 0.019129038 0.20881709
0.054295659 0.022815093 0.20769122
0.010078728 0.055629879 0.20930329
0.05309391 0.023738757 0.20463175
0.050902486 0.027804688 0.20334777
0.013453603 0.056084156 0.20447889
0.010408401 0.056578606 0.2043936
0.052433908 0.024966225 0.19945976
0.050870955 0.028637812 0.19954449
0.048560321 0.031808406 0.19953743
0.024492502 0.052934259 0.20012197
0.019379079 0.053958684 0.19996184
0.015425801 0.055373609 0.20070848
0.049641609 0.029722691 0.19573513
0.048163414 0.033577219 0.19525
0.045608163 0.037358195 0.19462258
0.042299867 0.041042328 0.19470337
0.039558113 0.044578463 0.19575685
0.034660339 0.047028959 0.19453451
0.029597461 0.051192522 0.1951119
0.024977088 0.053010583 0.19564137
0.021181881 0.053809106 0.19620803
0.047154546 0.034853622 0.19128963
0.045159876 0.038476765 0.19065127
0.041839182 0.041763246 0.19059625
0.037903011 0.044708848 0.19108894
0.033127666 0.047467023 0.19121572
0.029705644 0.050831199 0.19139442
0.026574194 0.052480429 0.19169149
0.040636182 0.043139666 0.18684646
0.054532409 -0.016961247 0.24873829
0.059610367 -0.015952557 0.24509087
0.055855036 -0.01548782 0.24561337
0.060161173 -0.012134522 0.24153218
0.057080984 -0.011630356 0.24114206
0.056932569 -0.0090891719 0.23823085
0.056688547 -0.0079155862 0.23587462
0.056715548 -0.0061174929 0.2323229
0.056405604 -0.003473103 0.22820413
0.056107223 -0.00035554171 0.22625849
0.056577086 -0.0021336973 0.22422326
0.055980086 0.0008032918 0.22270241
0.05586946 0.0036647916 0.21935394
0.054002941 0.0061912239 0.21959791
-0.006754756 0.055177808 0.21822998
-0.0095464587 0.055407077 0.21908119
0.056748211 0.0053858757 0.21471134
0.054492772 0.008164525 0.21451363
-0.00085937977 0.05402413 0.21556598
-0.0041927099 0.055239379 0.21589383
-0.0090981722 0.056002975 0.21366754
0.057265401 0.0072278082 0.20915255
0.054998398 0.010867029 0.21046332
0.00075727701 0.054675102 0.21103093
-0.0035626292 0.056529969 0.21097788
-0.0078321695 0.059835941 0.21016088
0.058401942 0.0086517632 0.20621505
0.055754006 0.012474507 0.20576328
0.055749297 0.015614629 0.20651886
0.006326735 0.054760098 0.20752755
0.0031617284 0.055378586 0.20708263
-0.0031263232 0.058329254 0.20777479
-0.0034157634 0.061614394 0.20908543
0.054238796 0.016917229 0.20218894
0.0528332 0.021151364 0.20179453
0.0078133345 0.056199014 0.20250109
0.0035626888 0.055192441 0.20275271
0.053981066 0.018679649 0.19790563
0.052304029 0.022209823 0.19787511
0.016751945 0.05419752 0.19718403
0.012834311 0.054451406 0.19706419
0.008919239 0.055734426 0.1982905
0.05167073 0.024221629 0.19342792
0.050245643 0.027885675 0.19341573
0.047768712 0.030641168 0.19208977
0.018066764 0.052716672 0.19321272
0.014055848 0.052922726 0.19399464
0.049052358 0.02801165 0.18947116
0.047392786 0.03295818 0.18909052
0.045859575 0.037021667 0.18866023
0.032797217 0.047203004 0.1880703
0.028704882 0.050310612 0.18804777
0.023459435 0.051837504 0.18914059
0.020204782 0.05298993 0.18843004
0.046459913 0.034326822 0.18440366
0.04513818 0.038320243 0.18474022
0.04167676 0.041747093 0.18470964
0.036852598 0.044153064 0.18479267
0.032102227 0.045768201 0.18490723
0.029018164 0.048765391 0.18417731
0.024362743 0.050689399 0.18505594
0.020190537 0.053145736 0.18528894
0.044573784 0.038181067 0.1810495
0.040836573 0.040493876 0.1808885
0.038544238 0.041839063 0.18077016
0.055747747 -0.01480639 0.23798981
0.054418921 -0.013348818 0.23349741
0.062379777 -0.016098261 0.22733361
0.054603815 -0.012068838 0.23035058
0.054803252 -0.0092307925 0.22840419
0.06276083 -0.012993336 0.224617
0.056661248 -0.0092871785 0.22265044
0.055971146 -0.0069445074 0.22535947
0.056337476 -0.0049150586 0.22161579
0.062878549 -0.0073137581 0.21723539
0.056466699 -0.0026427805 0.21750692
0.056328356 0.00061282516 0.2178764
-0.013244569 0.054174274 0.21684334
0.056611776 -0.0010582805 0.21232131
0.056673169 0.002042532 0.21261811
-0.011026859 0.056046009 0.21332815
-0.012752771 0.057460248 0.21247286
0.056707859 0.0030936301 0.20806947
0.055300474 0.0076852143 0.20889762
-0.0090684891 0.057585537 0.21056294
0.058291554 0.0063519776 0.20339042
0.056258917 0.0097259581 0.2038852
-0.0010001659 0.054678798 0.2043871
-0.0044107437 0.054029316 0.20358625
0.058862567 0.0085298419 0.19926372
0.056153893 0.011841416 0.19955829
0.054473519 0.016296536 0.19857943
0.00068610907 0.054492801 0.19905117
0.059186876 0.010354713 0.19625854
0.055947244 0.012862533 0.19507742
0.054488659 0.017060012 0.19496247
0.052236915 0.020367384 0.19564572
0.007071197 0.054892719 0.19458285
0.00264889 0.054729134 0.19455716
0.054414272 0.018447191 0.19065186
0.052412748 0.022000313 0.19131124
0.011258543 0.053156942 0.19100231
0.0069072247 0.053613275 0.19025403
0.0035524368 0.054478854 0.19113612
0.053892851 0.019261092 0.18686181
0.051481247 0.023482978 0.18628386
0.049273193 0.027282774 0.18623284
0.047235012 0.03068608 0.18670556
0.016350746 0.052850127 0.18708381
0.013478875 0.053611189 0.18632022
0.010404706 0.054541349 0.18543285
0.052133679 0.024699986 0.18125793
0.050014496 0.028294891 0.18164939
0.047946572 0.032185167 0.18281585
0.032573581 0.045363218 0.18224218
0.023492038 0.051571697 0.18230394
0.01853168 0.053267151 0.1814318
0.014242291 0.054540366 0.181328
0.010749519 0.055284113 0.18214089
0.050986409 0.029455289 0.17649361
0.048018157 0.033477485 0.17873335
0.045052886 0.037754864 0.1783717
0.040598691 0.039901465 0.17783529
0.036329389 0.042628258 0.17851779
0.032156825 0.045212805 0.1782043
0.0285483 0.048976809 0.17881462
0.023686409 0.0515306 0.17788777
0.019705057 0.053816587 0.17647791
0.016895115 0.054637551 0.17700189
0.048112154 0.033236757 0.17384556
0.044550598 0.036653161 0.17314956
0.040712237 0.04010886 0.17273822
0.036792934 0.04319647 0.17299023
0.032465458 0.046839416 0.17281884
0.028653026 0.04956764 0.17299446
0.025072098 0.051916897 0.17388138
0.04136306 0.0411838 0.16869339
0.037955463 0.043830633 0.16868964
0.033602595 0.047906309 0.16887763
0.029757202 0.050166219 0.16867167
0.055013955 -0.019115448 0.23064294
0.054751277 -0.015781224 0.23217371
0.056663156 -0.018117338 0.22731569
0.054474235 -0.014779001 0.22779754
0.057914674 -0.016127706 0.22352943
0.056239188 -0.012610614 0.22379729
0.060665488 -0.012341172 0.22005889
0.05723083 -0.01086393 0.2189168
0.056206882 -0.0068843365 0.21789142
0.056491673 -0.0096485317 0.214984
0.055562973 -0.0062381029 0.21408179
0.055756211 -0.0033693612 0.20987791
0.056023002 -0.0010418594 0.20520467
0.057133317 0.00043529272 0.20136186
0.057126939 0.0021126866 0.20088157
-0.0074198842 0.05304724 0.20102111
0.057027519 0.0023712814 0.1968053
-0.0058284998 0.052327842 0.19584611
0.05778569 0.0073415935 0.19346431
0.056274593 0.010174781 0.19255188
-0.0019203424 0.05335319 0.19287261
0.056019962 0.011139601 0.18891418
0.055134714 0.014364213 0.1876252
0.0050969124 0.053914398 0.1886403
0.0031671524 0.054500788 0.18840462
0.056392193 0.010968685 0.18522224
0.053817213 0.015801072 0.18416962
0.052861571 0.020524621 0.1840193
0.0061824918 0.054295599 0.18451121
0.0022104979 0.054161012 0.18456274
0.053586483 0.017821074 0.1797393
0.053073049 0.021516114 0.18016359
0.011574388 0.054104507 0.17932269
0.0073319077 0.054841399 0.17953447
0.053693831 0.018896699 0.17601523
0.052294672 0.022744536 0.17518404
0.051321268 0.026260883 0.17570227
0.013304174 0.05458191 0.175082
0.0085135698 0.054889977 0.17561087
0.049563825 0.027395576 0.17115209
0.046872735 0.031634599 0.16975901
0.044309258 0.036770076 0.16990456
0.034925461 0.044337779 0.16997126
0.033542037 0.045380026 0.16996083
0.026745796 0.050699323 0.16996464
0.023732543 0.051752657 0.170205
0.018751621 0.052538663 0.17054954
0.014443338 0.053917915 0.1712077
0.045723319 0.03245917 0.16721699
0.043096662 0.036304682 0.16613629
0.040733457 0.040833652 0.16643459
0.036180496 0.043964505 0.1660268
0.032721758 0.047006935 0.16663685
0.028894424 0.049687594 0.1659506
0.024117589 0.051398069 0.16576236
0.019338369 0.052360028 0.16702351
0.042204559 0.037921458 0.1625545
0.040410995 0.0405249 0.16217002
0.036761582 0.043747723 0.16155142
0.033757031 0.046590805 0.16133007
0.029461861 0.049615771 0.16123685
0.02545917 0.051252604 0.16202357
0.056384325 -0.012372345 0.21141157
0.055859208 -0.0092299283 0.21204421
0.055103302 -0.0081186295 0.20798463
0.054541588 -0.0061571002 0.20370767
0.054416656 -0.0046132803 0.19873604
-0.0089834332 0.051441163 0.19856611
-0.011867464 0.051258355 0.19797084
0.055244923 4.9471855e-06 0.1935074
-0.0088597536 0.052017123 0.19518307
-0.011348307 0.052163899 0.1947391
0.05681324 0.0035265088 0.19053915
-0.0017207861 0.052272111 0.18953112
-0.0072808266 0.052495182 0.19001564
-0.011213899 0.052993 0.18962234
0.057647169 0.0060212612 0.18598485
0.055854797 0.010445982 0.18497863
-0.0014606714 0.052955151 0.18618891
-0.0052174926 0.053619385 0.18560758
0.058074713 0.0074751973 0.18152454
0.055999637 0.010908514 0.1815497
0.054239333 0.013991088 0.18199795
-0.00044739246 0.053948581 0.1812838
-0.004087925 0.055649012 0.18076089
0.057410955 0.0077837706 0.17742515
0.055415392 0.010800511 0.17626727
0.054052353 0.015018672 0.17774701
0.0051212311 0.055426627 0.17743984
0.0014922619 0.054856867 0.17704603
-0.0031232834 0.054958522 0.17740455
0.053521633 0.017218053 0.1726009
0.052593172 0.020645529 0.17175627
0.0073589087 0.055224478 0.17245862
0.0038669705 0.054953158 0.17254999
0.053076148 0.018983096 0.16869724
0.051297188 0.022100121 0.16856703
0.049127579 0.027255476 0.16831735
0.012181878 0.054122746 0.16921788
0.0083594322 0.054598868 0.16798508
0.051423848 0.023446977 0.16444001
0.04915446 0.027638763 0.16481185
0.046608984 0.032017976 0.16496399
0.044126749 0.034852743 0.16392323
0.018055201 0.052984059 0.16459301
0.013185561 0.053772867 0.16463223
0.050885856 0.024900734 0.16079244
0.049021482 0.028418422 0.160647
0.046823859 0.032270938 0.16016009
0.043872952 0.036588281 0.16032934
0.040915608 0.040602773 0.1594049
0.038021326 0.042145163 0.15980509
0.023354948 0.051898718 0.15992686
0.019148052 0.052806765 0.16022095
0.015330553 0.053777874 0.16050121
0.046594024 0.032492697 0.15592429
0.04460603 0.03623879 0.15534005
0.041112125 0.040016443 0.15564242
0.03667748 0.042936444 0.1554864
0.033517182 0.046994776 0.15594468
0.029163361 0.049986392 0.15582666
0.024453342 0.051998645 0.15560794
0.020764828 0.05287382 0.15476891
0.044962049 0.037041277 0.15108523
0.040661514 0.040902853 0.15092704
0.036597967 0.04417035 0.15095487
0.033208013 0.04728055 0.15100378
0.028938591 0.050364137 0.15093014
0.024768651 0.052250415 0.15183803
0.05558157 -0.013989359 0.20558843
0.054691553 -0.012060672 0.20143929
0.05413419 -0.009437263 0.20062903
0.0545789 -0.0074284375 0.19604498
0.053906441 -0.0051686168 0.19181156
0.055245161 -0.0028103292 0.18773293
0.055431724 -0.00010797381 0.18755612
0.055629373 0.0005479455 0.18237391
-0.0088437796 0.053458631 0.18483856
-0.010413945 0.05437237 0.18475798
0.055999756 0.0031668842 0.17817017
-0.007651329 0.054920673 0.18186602
-0.0087503195 0.056462139 0.18024686
0.056601882 0.0072283745 0.17440167
0.054349422 0.0098687708 0.1746372
-0.0017082691 0.054389209 0.17393717
-0.0050888062 0.05541268 0.17531106
-0.0080602169 0.055664957 0.17385605
0.056051195 0.0069270432 0.17148772
0.054743171 0.010335028 0.17054367
0.052776039 0.012879819 0.16938114
-6.5267086e-05 0.054006159 0.17055747
-0.0047607422 0.054900289 0.17053375
0.055104196 0.010123909 0.16670141
0.052857995 0.015749991 0.16594693
0.0050768852 0.053963065 0.16498545
0.00071632862 0.053719252 0.1664061
0.052612424 0.015910596 0.16168466
0.051723719 0.020470738 0.1610302
0.011676192 0.054218054 0.1613377
0.0067400932 0.053738505 0.16129148
0.051064253 0.021030337 0.15717831
0.048765421 0.025355279 0.15657133
0.04695785 0.028849721 0.15556863
0.016859949 0.052569896 0.15654534
0.012752414 0.053764015 0.15665466
0.0082411766 0.054009885 0.15686595
0.047632813 0.026842088 0.15193194
0.046418905 0.030399054 0.15222952
0.017905891 0.053459972 0.15246141
0.013286352 0.054278374 0.1518819
0.046396554 0.032175303 0.14827988
0.044955313 0.037321478 0.14841628
0.041692853 0.039713979 0.14898226
0.037516236 0.042889446 0.14895698
0.032886744 0.047262132 0.14856902
0.028754711 0.050476134 0.14856538
0.024790943 0.052594662 0.14919481
0.0199489 0.05345428 0.14879292
0.045928776 0.033813953 0.14483991
0.043811321 0.036559939 0.14516488
0.03956002 0.040053964 0.14452454
0.035931468 0.043164343 0.14460713
0.032699287 0.046361268 0.14457649
0.028950989 0.048789114 0.14442831
0.024523973 0.051662475 0.14517775
0.021455884 0.053549528 0.14502653
0.032180369 0.046318442 0.14074877
0.02872926 0.049019575 0.14075068
0.054347694 -0.017429233 0.20098478
0.054173827 -0.015256137 0.19866186
0.054151595 -0.012849867 0.19399288
0.054019451 -0.0083051324 0.19024393
0.054967642 -0.0061467886 0.18567517
0.055140615 -0.004160881 0.18131635
0.055460989 -0.0029901266 0.1778042
0.055338979 -0.00042563677 0.17573047
0.055101275 0.0023907721 0.1722509
-0.010122538 0.054330349 0.1703414
0.055250645 0.004591018 0.16749802
0.055122018 0.0063359439 0.167492
-0.0063915849 0.053089619 0.16641575
-0.010790467 0.054023594 0.16829324
0.055484951 0.0091404617 0.16416746
0.053606808 0.012545615 0.16431203
-0.00040197372 0.053842992 0.1637679
-0.0052239299 0.052770913 0.16273418
0.055511475 0.011171609 0.15977016
0.053802609 0.014814615 0.1598092
0.0010595918 0.054432094 0.1597521
0.054566264 0.011878341 0.15516803
0.053327382 0.015608668 0.15503463
0.0513978 0.020505637 0.15462741
0.0062060356 0.054151565 0.15507594
0.0018559694 0.054668099 0.15532771
0.053101122 0.017397195 0.15120086
0.051221609 0.021328807 0.15068403
0.049257278 0.025240391 0.15100753
0.0073890686 0.054474831 0.15037248
0.050946176 0.02299881 0.14593861
0.048909962 0.026844025 0.14623395
0.047538459 0.030401289 0.14604625
0.016138732 0.053293437 0.14556453
0.013255358 0.054115683 0.14606509
0.010012984 0.054521859 0.14729032
0.048802495 0.02774784 0.14231238
0.046271801 0.031781286 0.14130503
0.043444991 0.036120147 0.14143708
0.040364444 0.038382679 0.14213499
0.026771843 0.049381167 0.14225051
0.023840845 0.051395237 0.1421681
0.01912415 0.053281993 0.14125708
0.014973819 0.053371876 0.14114696
0.046569645 0.033210933 0.13623407
0.043347239 0.036273837 0.13716391
0.040067792 0.039188474 0.1376687
0.035852253 0.04203856 0.13728073
0.032580376 0.045663476 0.13730317
0.028052211 0.048774391 0.13747749
0.023829758 0.051694125 0.13786963
0.018917263 0.053278208 0.13786456
0.047053456 0.034899235 0.13337275
0.04428196 0.037068427 0.13337427
0.040228963 0.039245605 0.13306975
0.036432385 0.042827159 0.13325992
0.03210026 0.045926154 0.13317242
0.028180718 0.049391925 0.13329732
0.024559081 0.05196777 0.13321951
0.052825451 -0.018547326 0.19504803
0.05227983 -0.017982483 0.19147438
0.053036511 -0.015121728 0.18690339
0.053213477 -0.012455344 0.18760648
0.05465889 -0.013051629 0.18230382
0.05517143 -0.010049552 0.18317214
0.05593437 -0.011330873 0.17754319
0.055309534 -0.0085071027 0.17851418
0.057896674 -0.01155892 0.17423344
0.055297136 -0.0062663257 0.17478761
0.053948641 -0.0051164329 0.16963348
0.054134011 -0.001806587 0.17010307
0.054764271 -0.0040005445 0.16643628
0.054795623 -0.00011026859 0.16566429
-0.010927916 0.053573251 0.16509148
0.055374682 0.0024470687 0.16121075
0.05489409 0.0067538917 0.16023549
-0.0067908764 0.053329796 0.16117319
-0.010186732 0.054892778 0.1610674
0.055801153 0.0048594177 0.15667963
0.054904997 0.007738024 0.15637198
-0.0063502789 0.053796977 0.15633366
-0.010019124 0.05562368 0.15742695
0.056211889 0.0062349439 0.15300277
0.054955363 0.0093675852 0.15176716
-0.00086200237 0.054879487 0.15293804
-0.0050851107 0.054365963 0.15184757
0.054757416 0.011699975 0.14831936
0.052972019 0.014832944 0.14813632
0.0040127039 0.053743064 0.1475423
0.001028955 0.054270476 0.14979723
-0.0031347275 0.05429554 0.14793488
0.055173874 0.013460845 0.14465788
0.052416861 0.016964883 0.14412567
0.051147461 0.020024836 0.14427277
0.0063452721 0.053538859 0.14430365
0.051983953 0.018106729 0.14064005
0.05026859 0.021346509 0.14074072
0.04810673 0.025030226 0.13887694
0.010996103 0.052878648 0.13960245
0.0067993402 0.05363211 0.14071295
0.048492193 0.025808543 0.13493446
0.047301829 0.029370278 0.13593641
0.018565476 0.052650541 0.13460597
0.014133036 0.053335875 0.13534677
0.04866147 0.027332783 0.13080093
0.047610998 0.031772792 0.13043573
0.04396677 0.035889715 0.13012835
0.03966105 0.03902781 0.13005844
0.034375191 0.041289866 0.12947813
0.030641556 0.044947565 0.12970912
0.027664542 0.048109204 0.12996936
0.024280071 0.050907314 0.13001743
0.019085705 0.052865088 0.13053709
0.014877141 0.053912401 0.13148785
0.047503948 0.032964647 0.12679246
0.043763697 0.036186635 0.12547436
0.039867878 0.039318979 0.12604153
0.035189986 0.041156352 0.12681642
0.031517625 0.043712914 0.12671891
0.027945757 0.04799825 0.12554014
0.023726463 0.050864607 0.12611184
0.020198643 0.052294433 0.1266382
0.028270006 0.048449337 0.12175568
0.051760197 -0.021991879 0.1921998
0.051267564 -0.021025181 0.18962485
0.052306473 -0.019336492 0.18533888
0.05443716 -0.017028689 0.18124405
0.056727946 -0.014279187 0.17693815
0.059576273 -0.014870286 0.17370692
0.056970716 -0.012309849 0.17148879
0.054919124 -0.0084883273 0.17138022
0.057767034 -0.011113703 0.16698685
0.055282235 -0.0073613524 0.16747496
0.057157159 -0.0097152293 0.16293204
0.055199802 -0.0060788393 0.1625075
0.055982232 -0.0038894415 0.15855923
0.055354595 -0.00016897917 0.15840378
0.05549705 -0.0021982193 0.15415856
0.055383742 0.0011918843 0.1547201
-0.012001872 0.054157764 0.15395537
0.056138098 -0.0012533367 0.15084854
0.055745959 0.0031820238 0.14993617
-0.0085454583 0.052827924 0.1490798
-0.011239827 0.054360211 0.15031078
0.056358397 0.005255729 0.14531836
0.055211604 0.0090119839 0.14568779
-0.00092989206 0.053108066 0.1452986
-0.0058839321 0.053006351 0.14507172
0.056520998 0.0067316592 0.14142737
0.055206239 0.011010259 0.14090925
0.05246979 0.013540238 0.14125934
-0.00024473667 0.053146094 0.14079848
-0.0042462349 0.054335892 0.14022496
0.054188728 0.010640591 0.13704875
0.052285671 0.014357299 0.13646558
0.050157189 0.018296748 0.13684043
0.0061437488 0.052771211 0.13731042
0.00033044815 0.054056376 0.13557908
0.051365376 0.015773386 0.13228998
0.05031538 0.019959688 0.13308105
0.049096704 0.023405343 0.1331397
0.011084318 0.052618772 0.13299605
0.0069133043 0.053526461 0.13321644
0.0017479062 0.054866999 0.13239646
0.050791681 0.020898461 0.12830487
0.049069643 0.025496542 0.12845024
0.015857816 0.052921683 0.12765816
0.01208663 0.053178728 0.12832832
0.0079761147 0.053355783 0.12823904
0.051598072 0.023129165 0.1232898
0.049305856 0.027005762 0.12394612
0.046762288 0.03145808 0.12359165
0.037846208 0.039257884 0.12310114
0.034592867 0.040926248 0.12376925
0.030894816 0.043473542 0.12366196
0.028559446 0.046169966 0.12299331
0.023142219 0.050687224 0.12308415
0.018786132 0.052723289 0.12416276
0.013272047 0.053067714 0.12383398
0.0090346336 0.054204613 0.12450492
0.052116871 0.024441436 0.11940812
0.049192309 0.027741849 0.11900862
0.046159208 0.031829268 0.11901452
0.042932749 0.036006272 0.11954551
0.040007293 0.039257675 0.11985566
0.036374927 0.041863322 0.11978199
0.031805992 0.044806957 0.11958169
0.027755082 0.048239201 0.11943047
0.023064613 0.050744951 0.11953341
0.018755436 0.052637458 0.11855426
0.015240252 0.053304136 0.12006178
0.04606694 0.032123357 0.11528482
0.043014109 0.035282105 0.11553528
0.040351629 0.038886279 0.11507662
0.036271453 0.042652726 0.11455043
0.031778753 0.045018882 0.11448636
0.027224064 0.048286289 0.11480083
0.023738325 0.050619841 0.11499225
0.020426989 0.052684605 0.11545851
0.053749621 -0.021434754 0.17906517
0.056003392 -0.012931824 0.16019937
0.056346714 -0.0098184347 0.15639189
0.056268215 -0.0066482127 0.15586495
0.055315435 -0.0059710741 0.15118793
-0.016263485 0.053740978 0.15227482
0.055473566 -0.0029295683 0.14741766
-0.013617814 0.054279774 0.14835802
-0.015710235 0.054566175 0.14983729
0.056677043 -9.8466873e-05 0.143828
0.056258917 0.00073134899 0.14397451
-0.0082955956 0.052635401 0.14347675
-0.011267126 0.054576516 0.14430222
-0.013911963 0.057030946 0.14347982
0.05643028 0.0030317307 0.13905898
0.055909574 0.0072256327 0.13830718
-0.0073399544 0.05403468 0.13941839
-0.0097355247 0.056180805 0.14003679
-0.013105273 0.058063209 0.14115617
0.05533123 0.0044228435 0.13450608
0.05442673 0.0082841814 0.13427678
0.053449988 0.012714803 0.13373867
-0.0047003031 0.053932726 0.13435528
0.054061174 0.0099492967 0.12926319
0.052596688 0.014397413 0.1300402
0.003759563 0.053616643 0.12871957
0.00052678585 0.05481407 0.12982246
-0.0024975538 0.055730939 0.12975881
0.055231154 0.011798561 0.124804
0.052834809 0.015425354 0.12497038
0.051333308 0.018877983 0.12568197
0.0050579906 0.052899063 0.12502116
0.0027449727 0.053239048 0.12456491
0.055759192 0.013666242 0.1213331
0.053498447 0.01647532 0.1209004
0.052477419 0.02031967 0.12262116
0.011508584 0.05333522 0.12104567
0.0068107843 0.053401381 0.12117421
0.00022900105 0.056176782 0.121064
-0.00095754862 0.059059471 0.12104531
0.05413729 0.01745075 0.11736337
0.052440584 0.022496343 0.11696327
0.049737811 0.02693823 0.11644211
0.01273185 0.053691894 0.11765849
0.0096567869 0.053608209 0.11495196
0.051963627 0.023711205 0.11328862
0.048952579 0.027684718 0.11362263
0.045317531 0.031019926 0.11282703
0.042517066 0.033924043 0.11210527
0.039202988 0.038142294 0.11168268
0.036893129 0.04079029 0.11195847
0.030366838 0.045543998 0.11184629
0.02687186 0.04713735 0.11147498
0.021855175 0.049102873 0.11131432
0.018481433 0.052425861 0.11265417
0.013473749 0.053750753 0.11309012
0.04178822 0.03419444 0.10865619
0.038900256 0.038168758 0.10874163
0.035010517 0.041870207 0.10799979
0.030779362 0.04371047 0.10790145
0.026824117 0.045611739 0.10856714
0.055649698 -0.012298942 0.15414834
0.055960774 -0.011619538 0.14972755
0.055737078 -0.0093171299 0.15033141
0.056779265 -0.010350078 0.14463311
0.055798888 -0.0069843233 0.14511532
0.054991722 -0.0047860444 0.14066097
0.055332124 -0.003393054 0.13595057
0.055283785 -0.00085294247 0.13574859
0.055102348 0.0014203787 0.13196889
0.055652082 0.004054606 0.12783611
0.054406583 0.0065703094 0.1283097
-0.0059113503 0.054537535 0.12762451
0.056414068 0.0058705211 0.12334124
0.055591226 0.008880645 0.12312622
-0.00082546473 0.053675741 0.12383216
-0.003885448 0.055689096 0.12371605
0.056744516 0.0071837902 0.11953343
0.055875361 0.011182547 0.11842958
0.053035259 0.016219914 0.11860741
0.0046017766 0.05261752 0.11783608
0.0005594492 0.053449154 0.11875554
-0.00076395273 0.057869464 0.11944648
0.055285811 0.013221204 0.11390246
0.053232074 0.016840488 0.11407063
0.0048997402 0.053221285 0.11401507
0.053595304 0.017466038 0.11129294
0.050970495 0.020879984 0.10968516
0.047792614 0.024447829 0.10939973
0.045256615 0.028139681 0.10995894
0.014567256 0.051568836 0.10978284
0.011834979 0.052702934 0.10945611
0.0081652403 0.053688526 0.11114915
0.050771356 0.02217415 0.10508034
0.048274457 0.025267601 0.10594051
0.044792593 0.02929467 0.10637208
0.041355193 0.032982588 0.10554799
0.037569165 0.037263662 0.10521664
0.028750122 0.043577105 0.10502603
0.025725722 0.045993149 0.10581454
0.020775616 0.048083603 0.10638233
0.017323136 0.050915092 0.10642617
0.012632608 0.052372634 0.1059392
0.0084569454 0.053530753 0.10693663
0.051088154 0.023402631 0.10218687
0.048644722 0.026840091 0.10103803
0.045238972 0.030280113 0.10102283
0.041686296 0.034236699 0.10141944
0.037894189 0.037638873 0.10180875
0.034715772 0.04056403 0.10143944
0.030945659 0.043592542 0.10174369
0.026583195 0.046797961 0.10167598
0.021861553 0.048995942 0.10145231
0.018212676 0.051199377 0.10095908
0.045369506 0.031436771 0.097085327
0.042173982 0.035175592 0.09702155
0.038681567 0.037987441 0.097049922
0.035197973 0.04080531 0.097082585
0.031230092 0.044480711 0.096307695
0.026856542 0.047690988 0.096237808
0.022947252 0.048745483 0.097501755
0.030855477 0.045756519 0.092756122
0.056152105 -0.013813972 0.14726573
0.056313992 -0.013284862 0.1427353
0.05447948 -0.0086342096 0.13856199
0.054284871 -0.0060396194 0.13397035
0.055325031 -0.0038361549 0.12877855
0.055376828 -0.00013113022 0.12839368
0.056086898 -0.0016306341 0.12428162
0.056326449 0.0010446906 0.12612057
0.055793524 0.0019508302 0.12110768
0.055591941 0.0047464371 0.11617521
-0.0023251772 0.05212453 0.1162798
-0.0056803823 0.052896947 0.11473098
0.0546574 0.0082970262 0.1116806
-0.0012580156 0.052473307 0.11184337
-0.0055018663 0.052140951 0.11260494
0.054069638 0.010060579 0.10678459
0.052269936 0.013659954 0.10646266
0.050787807 0.017576844 0.10695205
0.0048622489 0.05333519 0.10788291
0.00097125769 0.052757472 0.10670104
0.053156078 0.014306873 0.10202668
0.050843596 0.019126415 0.10457436
0.0088151693 0.051992774 0.10265189
0.0062438846 0.052746564 0.10352897
0.050831497 0.021293551 0.09947402
0.049793005 0.024900079 0.099441878
0.015210867 0.051175922 0.098224133
0.011353076 0.051695645 0.10049542
0.0068539381 0.052884966 0.10049718
0.049716473 0.021418214 0.095327646
0.04802835 0.026819915 0.095040053
0.045013249 0.030273974 0.093967468
0.042373776 0.034451067 0.093911797
0.038735867 0.037142158 0.093860388
0.034481168 0.040472299 0.093862742
0.021376014 0.049052715 0.094854325
0.017466724 0.050387084 0.095308781
0.044625998 0.03020677 0.089638948
0.042570829 0.033490628 0.089972854
0.038352311 0.037096769 0.090814263
0.034089446 0.04043293 0.090816826
0.031036973 0.044193923 0.0899885
0.026906371 0.046738476 0.08979857
0.023300409 0.048125952 0.090073913
0.052190423 -0.014670521 0.13855079
0.052610219 -0.014625549 0.13532251
0.053287625 -0.012816787 0.12979719
0.053602815 -0.0094268322 0.132321
0.05409354 -0.011705667 0.12648177
0.05436337 -0.008284837 0.12806186
0.054662704 -0.0062523484 0.12299544
0.05502063 -0.0031682253 0.11906631
0.055000782 -0.0020788014 0.11618669
0.054886401 -0.00048348308 0.11434139
0.05538255 0.0027301311 0.11007146
0.05535537 0.006641686 0.10939006
-0.0070897937 0.052498817 0.11000039
-0.0096563101 0.053668201 0.10914948
0.055972397 0.004016459 0.10519985
0.054844797 0.0075093508 0.10527513
-0.0024068952 0.052877486 0.10539224
-0.005333364 0.054414421 0.10563319
-0.0083758831 0.055346787 0.10516211
0.056020916 0.0054332614 0.10138974
0.054903269 0.0095379055 0.10050771
0.051419854 0.014953077 0.10091574
0.0038901567 0.052582443 0.1005977
-0.00045901537 0.053123027 0.10086613
-0.0046171546 0.054980844 0.1001611
0.055004299 0.011613786 0.095757157
0.0526703 0.015303552 0.096971691
0.050595045 0.018279493 0.0974271
0.010279417 0.050455034 0.096683353
0.0051414371 0.052180707 0.096469492
0.00042152405 0.053201675 0.096319795
-0.0042171478 0.055423111 0.096502721
0.054926991 0.012916237 0.091864377
0.05277282 0.016127527 0.092629105
0.049816847 0.020158142 0.092410773
0.047786593 0.023562223 0.092611641
0.014602005 0.05006206 0.092810363
0.010545969 0.05068332 0.092640609
0.0059881806 0.052442849 0.092307359
0.049669087 0.019916803 0.088267773
0.047864854 0.02409634 0.087911278
0.045648694 0.027949482 0.088252693
0.039786339 0.033882409 0.087152094
0.036727667 0.035925955 0.08703205
0.032588959 0.03939876 0.087115437
0.019470215 0.048072815 0.088140219
0.016242325 0.049703985 0.088224947
0.011386752 0.050999224 0.087924898
0.0077150464 0.052714407 0.088933676
0.047824919 0.026058763 0.083069474
0.045658529 0.029959083 0.083449274
0.041648865 0.033563584 0.083614945
0.036772907 0.036373854 0.083265305
0.03338033 0.039328933 0.083372533
0.030612826 0.042835623 0.08384344
0.026170015 0.046041489 0.08374998
0.021169186 0.048058957 0.083369464
0.016911626 0.049792916 0.082529783
0.048516035 0.028103679 0.079634219
0.045930743 0.031461209 0.078412622
0.042316556 0.034770191 0.078303337
0.038221598 0.037997901 0.078313828
0.034859538 0.04076913 0.078365117
0.031293392 0.044082493 0.078552753
0.026253939 0.046774358 0.078109592
0.021591544 0.048401535 0.079374462
0.04628706 0.032826155 0.073762625
0.043146968 0.036027849 0.074032158
0.03971386 0.038956404 0.074121147
0.035856962 0.041501701 0.073952854
0.031257093 0.044586599 0.073769808
0.028193414 0.046649665 0.073650837
0.043355286 0.03651756 0.071287692
0.040719867 0.03896594 0.071429223
0.037788987 0.041144192 0.071388781
0.053262174 -0.016989231 0.13238183
0.052900314 -0.016202748 0.12868989
0.053363025 -0.015006989 0.12530699
0.053120255 -0.012456268 0.12313033
0.053485036 -0.010583192 0.12089644
0.053768277 -0.0059236288 0.11564062
0.052652657 -0.0067988336 0.1121775
0.055237412 -0.0013695955 0.11066035
0.055870771 -0.0005042851 0.10818247
0.055953383 0.00082248449 0.10376186
0.055679798 0.0037743449 0.098404735
-0.006441474 0.055640697 0.097952604
-0.0098543167 0.055134267 0.096894562
0.055373251 0.0053727627 0.09434253
0.055231571 0.0085170567 0.093890369
-0.00054258108 0.05349344 0.093550056
-0.0049760938 0.054713249 0.09410128
0.054512024 0.010638863 0.089403123
0.053730845 0.014436394 0.090099037
0.00025504827 0.052667856 0.089282781
0.051876545 0.015026629 0.086517304
0.049459457 0.018271178 0.085342318
0.0099794865 0.051606447 0.085221738
0.0060690641 0.052727491 0.08652392
0.04784286 0.019588351 0.081401736
0.048321486 0.023279071 0.081340939
0.014710665 0.050483495 0.080190569
0.011244416 0.051281065 0.081781298
0.0072875619 0.050965577 0.080304533
0.047465563 0.025253832 0.076346189
0.046812236 0.02925396 0.076598674
0.020626128 0.047901154 0.075953275
0.016252816 0.049305201 0.077421159
0.01283133 0.051458716 0.078033209
0.046490669 0.026777148 0.072637826
0.046635807 0.0294725 0.072651654
0.025633931 0.047537088 0.073581547
0.022000074 0.04807806 0.071424991
0.04591465 0.032968313 0.068728328
0.04295373 0.035415888 0.06837818
0.039643764 0.038225412 0.068526804
0.034841895 0.041079074 0.068865269
0.030747354 0.044345975 0.068806171
0.026891291 0.046450734 0.068225712
0.043771327 0.033834845 0.064431816
0.052005887 -0.02119875 0.12698117
0.052702963 -0.018088073 0.12200136
0.05256176 -0.016828328 0.11758021
0.051412404 -0.012428045 0.11691556
0.050781965 -0.012346804 0.1132162
0.051614225 -0.0085312128 0.10942066
0.05227977 -0.0065395534 0.10435043
0.054671049 -0.0011333823 0.10083664
0.054111362 -0.0013657808 0.096682757
0.054508626 0.0027413964 0.091751605
0.054248393 0.0038889945 0.087950706
0.053930044 0.0072006583 0.08619073
-0.0027180314 0.051984012 0.086871296
-0.0068544149 0.051850617 0.087204367
0.053159714 0.0080994666 0.081824869
0.052385271 0.011926264 0.08360514
0.048556447 0.015093535 0.08201161
0.0023977757 0.05116272 0.082016885
-0.0012540817 0.051486671 0.082131505
0.05405128 0.0098435581 0.077362329
0.051815271 0.013460696 0.079348296
0.047819734 0.016805679 0.078763515
0.0038818121 0.050904453 0.078684896
-0.00019311905 0.051693678 0.078510314
0.054395854 0.01125136 0.075291008
0.052777171 0.014912754 0.074142307
0.048341632 0.018203974 0.074080139
0.047430038 0.022422224 0.074332505
0.015155673 0.048019081 0.073473066
0.009732306 0.049452841 0.073897451
0.0042561293 0.051231146 0.075579673
0.052546382 0.016697943 0.069110006
0.048367143 0.019937336 0.069703043
0.046828151 0.024519235 0.069669694
0.045546234 0.028746516 0.069087744
0.01816982 0.047636986 0.069183558
0.014680147 0.047787637 0.069654197
0.011884332 0.048993111 0.070906192
0.046865225 0.0244537 0.065224558
0.045746028 0.027795881 0.065188169
0.036573648 0.038042873 0.065917313
0.032769144 0.040674269 0.065792412
0.024293482 0.046384037 0.065458417
0.020453572 0.047335953 0.065375954
0.044839025 0.029567748 0.061151832
0.041517377 0.033596426 0.06110689
0.037451148 0.036487252 0.061828047
0.033429444 0.039469808 0.061920196
0.030342281 0.042557031 0.061767638
0.026116729 0.045708954 0.061964363
0.021554768 0.046718478 0.061776549
0.040531754 0.033914417 0.057479799
0.037910998 0.03642565 0.057653129
0.033413947 0.039676845 0.057555258
0.03001672 0.042700231 0.057693332
0.02705586 0.044902533 0.057651937
0.052216411 -0.024091512 0.12422273
0.052018225 -0.024005949 0.12031043
0.052041173 -0.021373659 0.12111906
0.053942204 -0.02248165 0.11538378
0.051746547 -0.019857556 0.11468694
0.054546595 -0.021433145 0.10997809
0.051322222 -0.016699046 0.11116654
0.050903022 -0.013765991 0.11051796
0.050547123 -0.016487449 0.10662115
0.050510943 -0.012153566 0.10733757
0.051294386 -0.010700852 0.10226289
0.051833987 -0.0087842345 0.097842455
0.052011728 -0.0073023438 0.094170123
0.052126229 -0.0047741532 0.091735989
0.051746368 -0.0031377971 0.08854261
0.052890956 0.0010474324 0.084297031
-0.0096203089 0.051341683 0.08446911
-0.013132811 0.051637739 0.082964122
0.052960157 0.0015280843 0.079488695
0.053945303 0.0050519705 0.080979645
-0.007360518 0.052243054 0.080739051
0.054514289 0.0068482161 0.077102125
-0.0019794703 0.051925004 0.076769501
-0.0064705014 0.053731203 0.07550171
-0.0094544888 0.055679083 0.077370614
0.054799855 0.0089768469 0.072340935
0.0042878389 0.050440758 0.072305202
-0.0013266206 0.05148086 0.072114855
-0.0062162876 0.053274482 0.07139501
0.054752946 0.011014849 0.067277908
0.053776383 0.014552683 0.067777783
0.049163163 0.018603146 0.067637831
0.013095498 0.048128009 0.066921204
0.0089286566 0.049071789 0.068094701
0.0041247606 0.05011943 0.067117184
0.051921487 0.015934736 0.06288138
0.049197555 0.019371063 0.062974811
0.047338367 0.022974908 0.062265724
0.014344513 0.047616273 0.062807947
0.010115921 0.048956364 0.062845856
0.0064502954 0.049808949 0.063627571
0.052027464 0.018230319 0.058021307
0.049793124 0.019883037 0.057986915
0.047290742 0.023787171 0.058710426
0.046117425 0.027766734 0.058836669
0.033941507 0.037507623 0.058921844
0.023031473 0.045950711 0.05889222
0.01952064 0.046807647 0.058865398
0.014796436 0.048259586 0.05837217
0.011268318 0.049996704 0.057994425
0.052420795 0.018876731 0.055330992
0.05039537 0.020730287 0.055432349
0.047533989 0.024791956 0.054663807
0.045030951 0.029623121 0.055162191
0.04093039 0.032957584 0.054632127
0.037230313 0.036116421 0.054298759
0.03376627 0.038701475 0.054687709
0.029311776 0.042400002 0.054335773
0.024857461 0.044678062 0.054491729
0.020866871 0.046194673 0.054586858
0.015342355 0.048693806 0.054835945
0.044766963 0.030726761 0.050081879
0.0412094 0.03370136 0.05005917
0.038477778 0.037268847 0.049732178
0.034495652 0.040279269 0.049984574
0.030254722 0.043781191 0.050055832
0.025823653 0.04525125 0.049807429
0.022293746 0.046207041 0.050652593
0.036817789 0.037902236 0.045688421
0.034739137 0.039700717 0.045755506
0.029822648 0.043834627 0.045868129
0.051736116 -0.023714721 0.11250467
0.052514195 -0.022776574 0.11102257
0.051051915 -0.020421058 0.10904381
0.049330294 -0.020323575 0.10509742
0.049063683 -0.016449928 0.10330347
0.053204954 -0.016425908 0.098911799
0.050047636 -0.015230834 0.10097594
0.053994536 -0.014365971 0.096068025
0.052487195 -0.010865867 0.095097154
0.053965867 -0.013054878 0.091771543
0.053003252 -0.0095551908 0.091028005
0.052141309 -0.0085200071 0.086328119
0.051834702 -0.0055471063 0.086753845
0.052703857 -0.0067944229 0.080553949
0.052166641 -0.0033156872 0.083206534
0.053823113 -0.0053620934 0.077329606
0.053115726 -0.0021808445 0.078242213
-0.013375461 0.052202344 0.077086687
0.053899944 0.0010856986 0.073855639
0.052945733 0.0024277866 0.06873405
-0.0045961738 0.051349252 0.069144428
-0.0066447854 0.052709222 0.068047315
0.053311825 0.0057779253 0.064978868
0.0022284389 0.050731212 0.064784348
-0.0019959211 0.05048281 0.065519959
-0.006390214 0.051407665 0.065628678
0.053872645 0.010677487 0.060837805
0.052017927 0.013671368 0.060053974
0.0075250864 0.048707455 0.06049481
0.0035972595 0.050005645 0.060858428
-0.0011005402 0.050707787 0.060448289
0.054114878 0.011432022 0.055084795
0.05246067 0.014933914 0.055906087
0.0086721182 0.050281137 0.056330085
0.0047399998 0.05022642 0.055575013
0.052900791 0.015120745 0.051515579
0.050260723 0.019616812 0.051919401
0.047836185 0.023709148 0.051729113
0.018087983 0.047011226 0.052771449
0.014891148 0.049695283 0.052332431
0.010720134 0.051124185 0.052763641
0.05240494 0.01686731 0.048447818
0.050193906 0.019920081 0.047926188
0.046834946 0.024401605 0.047607303
0.044899046 0.028558105 0.047253013
0.040352881 0.033529162 0.047114998
0.02415663 0.045765132 0.04797706
0.02007997 0.047241688 0.048090816
0.01597476 0.049360991 0.047932029
0.011520743 0.050805479 0.047450006
0.043178856 0.028984308 0.043143004
0.040494978 0.031105638 0.042810023
0.036532402 0.035391212 0.042583942
0.033350229 0.040298849 0.042933881
0.02976346 0.042587101 0.042910159
0.025076985 0.044385105 0.042856902
0.020208895 0.04639098 0.04293564
0.017134905 0.049862027 0.042320877
0.035379171 0.037230015 0.038833499
0.033968925 0.039644808 0.039345443
0.029377699 0.041661352 0.038733155
0.048625171 -0.020734072 0.10082567
0.052802563 -0.021459758 0.097669095
0.048512936 -0.020695984 0.098820962
0.054386675 -0.015505433 0.088734716
0.053143501 -0.014808565 0.08597213
0.051990032 -0.012118071 0.084167957
0.05300343 -0.009868294 0.079865575
0.055823922 -0.012015492 0.074887425
0.054467201 -0.0072704256 0.076168686
0.060693979 -0.013861537 0.072197378
0.057188034 -0.01082319 0.07230252
0.054586291 -0.0064026117 0.07169494
0.05386132 -0.0021664798 0.071400136
0.05250001 -0.0005119741 0.066547066
0.053016126 0.0021088421 0.062892824
-0.00844872 0.051628351 0.062895119
-0.011494398 0.05332464 0.062851161
0.053447843 0.0037581623 0.059201092
0.053246737 0.0056214035 0.058294773
-0.0021791458 0.051194906 0.058622867
-0.007291913 0.052396327 0.058871716
-0.0094836354 0.055095017 0.058466792
0.053518295 0.0063128471 0.053520024
0.0029222965 0.050409704 0.052664518
-0.001503706 0.051197022 0.053713351
-0.0060307384 0.052691311 0.053466886
0.054201961 0.010069162 0.048971236
0.053346932 0.013770938 0.049603879
0.0040172338 0.050511301 0.049951196
-0.0019760132 0.051955014 0.049246311
0.054521441 0.011500716 0.043952942
0.053464413 0.015217274 0.045827448
0.04963249 0.019553542 0.045773923
0.0080891848 0.05110836 0.045224398
0.0049852729 0.050745457 0.04518941
0.058204532 0.01533249 0.043434799
0.054041505 0.017009705 0.042005301
0.050084829 0.020464927 0.040908396
0.04647392 0.023888588 0.041434735
0.044370651 0.027337402 0.041153103
0.039653242 0.031775951 0.040758282
0.03740418 0.033920914 0.040222198
0.022791147 0.0453583 0.040230304
0.020322919 0.046833754 0.04005453
0.012012839 0.051175773 0.041694582
0.0067566633 0.05034101 0.041441411
