# .PCD v0.7 - Point Cloud Data file format
VERSION 0.7
FIELDS x y z
SIZE 4 4 4
TYPE F F F
COUNT 1 1 1
WIDTH 1169
HEIGHT 1
VIEWPOINT 0 0 0 1 0 0 0
POINTS 1169
DATA ascii
0.028120359 0.059431251 0.81902236
0.032704841 0.059434474 0.81906682
0.023537418 0.064000122 0.81900018
0.027331939 0.062421773 0.81829453
0.032700941 0.062474344 0.81897056
0.035764754 0.062490106 0.81917793
0.023532311 0.067032687 0.81882238
0.027442418 0.067493118 0.81701767
0.03269878 0.067039885 0.81891131
0.027326576 0.072682537 0.81812233
0.03227542 0.071420766 0.81923825
0.018566245 0.059306812 0.82435566
0.022107461 0.058929816 0.82266659
0.027529668 0.057150815 0.82211494
0.032814011 0.056573689 0.82179993
0.037433822 0.057370041 0.82227212
0.040580668 0.059018351 0.82390004
0.018446524 0.062520646 0.82360011
0.021878991 0.062458813 0.82127476
0.038132489 0.062614761 0.82081097
0.040543992 0.062793754 0.82315558
0.019073896 0.066701494 0.82413352
0.021316139 0.067270488 0.82172209
0.037383679 0.067224599 0.82116276
0.02301161 0.071581148 0.82207984
0.025103638 0.074780092 0.82026666
0.033170775 0.073715478 0.82114983
0.036918718 0.071386211 0.82217765
0.02369261 0.07515686 0.82440013
0.027977772 0.0770097 0.82234436
0.032514863 0.076647677 0.82393336
0.013395406 0.053629182 0.82943356
0.017637389 0.053207073 0.82886696
0.021957804 0.053341359 0.82856017
0.027658703 0.053412229 0.82807779
0.033057567 0.052815117 0.82792395
0.037691247 0.0523756 0.82793355
0.042368066 0.05243117 0.8288002
0.045477465 0.053995553 0.82913363
0.0099131456 0.05708909 0.82926702
0.012983399 0.05699186 0.82785916
0.01724536 0.057071619 0.82654065
0.022199785 0.056099955 0.82606667
0.026066881 0.055365972 0.8265667
0.042423572 0.057070706 0.82652593
0.045851562 0.056678504 0.82890022
0.0099131456 0.060174618 0.82926697
0.013292884 0.062077649 0.82788676
0.016418818 0.063387133 0.82589996
0.043133587 0.062612303 0.82653326
0.045470152 0.061697364 0.82900029
0.014552923 0.067116529 0.82926691
0.017160276 0.067939535 0.82720959
0.041846562 0.067499213 0.82720006
0.01855143 0.072121412 0.82828015
0.02104059 0.072608449 0.82593328
0.038699366 0.073384829 0.82746673
0.041620508 0.070975617 0.82930017
0.019186532 0.075576283 0.82900035
0.02250859 0.077025086 0.82798904
0.027586961 0.079136163 0.82591671
0.033384666 0.07841897 0.82644999
0.036527351 0.076623149 0.82780015
0.02382673 0.080209017 0.82906699
0.027438162 0.082755983 0.82809067
0.03321965 0.082669862 0.82843041
0.027109224 0.087717749 0.82897538
0.031866815 0.08776439 0.8290537
0.027957452 0.091543309 0.8292892
0.030789861 0.091019183 0.82920027
0.016210824 0.049717795 0.83499974
0.028669115 0.049717795 0.83499974
0.032806084 0.049695302 0.83462209
0.03825447 0.049005307 0.83346671
0.04257923 0.048819516 0.83294445
0.047315318 0.049674135 0.83426666
0.05046707 0.049713828 0.8349331
0.0089242812 0.053235695 0.8333444
0.012730387 0.051673096 0.83148003
0.017684801 0.051030934 0.83108878
0.022736579 0.051448334 0.83160007
0.026634365 0.051486231 0.8322168
0.031664763 0.051465794 0.83188343
0.047360394 0.052417442 0.83163333
0.051920746 0.052714091 0.83326674
0.055142973 0.053600959 0.83499974
0.0084046703 0.057349604 0.83304459
0.048087172 0.05755043 0.83146667
0.051753305 0.057200782 0.83369166
0.055142973 0.055930853 0.83499974
0.0091853896 0.062031992 0.83349997
0.01147356 0.063336097 0.83026671
0.047630753 0.062361479 0.83199054
0.050978113 0.061093882 0.83479983
0.012605482 0.067672171 0.83203804
0.044003539 0.068761468 0.83050001
0.046885431 0.067461371 0.83352488
0.01400605 0.072582982 0.83358669
0.01652056 0.073053703 0.83099991
0.042789362 0.07325723 0.83268577
0.045798033 0.073014826 0.83497757
0.014645346 0.076080702 0.83453315
0.017724488 0.077491514 0.833
0.020780981 0.07807181 0.83093333
0.038795665 0.077682249 0.83173341
0.042130664 0.077094622 0.83429986
0.018924888 0.081901185 0.83451653
0.022159532 0.082217976 0.8318333
0.037889063 0.082064636 0.83223701
0.041127395 0.080783039 0.83499974
0.022954728 0.086934015 0.83254993
0.025411714 0.089599021 0.83033341
0.034726895 0.088887453 0.83089995
0.037159879 0.086821251 0.83331108
0.023186039 0.090754822 0.8338666
0.026489904 0.093368478 0.83179998
0.032737974 0.093131401 0.83152664
0.036411867 0.092322059 0.83399999
0.028126141 0.09675134 0.83428884
0.032536063 0.097013175 0.83431661
0.0037735128 0.049995665 0.83966678
0.0074198968 0.048905626 0.83884454
0.01235557 0.048314806 0.83763891
0.018132815 0.048929617 0.83747995
0.022514852 0.049103599 0.837789
0.027173491 0.048529979 0.83686656
0.032275088 0.047926456 0.83765835
0.037203953 0.047080826 0.83784008
0.043198392 0.046354808 0.83739996
0.04743759 0.047467709 0.83642215
0.052381735 0.048114412 0.8375417
0.056424882 0.048892211 0.83861113
-0.00092474686 0.054698844 0.83993345
0.0023982504 0.053227875 0.83829999
0.0063578188 0.052391242 0.83635545
0.05735749 0.052797217 0.83807617
0.060115699 0.051528942 0.83920002
0.0033768276 0.05733205 0.83844995
0.0060951472 0.057553872 0.83601093
0.053624172 0.059079785 0.8355999
0.056070801 0.057636388 0.83721668
0.0037741114 0.060938947 0.83980012
0.0064395429 0.062548056 0.83743805
0.0526747 0.062811866 0.83699995
0.055367507 0.061618 0.83840007
0.0084484648 0.066384062 0.83753335
0.010005592 0.067742176 0.83699995
0.048958737 0.067643024 0.83576655
0.051437628 0.067047685 0.83804446
0.0084694615 0.07028418 0.83946681
0.011185904 0.072484002 0.837825
0.04833708 0.072708867 0.83656186
0.050668541 0.072523743 0.83826679
0.013439359 0.077554606 0.83703995
0.016243184 0.079387911 0.83666652
0.043788716 0.078829102 0.83624434
0.047299162 0.077707708 0.83741665
0.050700776 0.076469682 0.83880019
0.014706775 0.081856854 0.83803344
0.016882554 0.082889087 0.83744001
0.0428093 0.08257506 0.83741903
0.046821933 0.081205487 0.83936679
0.018458448 0.0866988 0.83813334
0.020907685 0.087878376 0.83599985
0.03965329 0.087180704 0.83675545
0.041844264 0.08636827 0.83895558
0.022183921 0.092203557 0.83715999
0.038656872 0.09246996 0.83768892
0.024097838 0.095940098 0.83850002
0.026659587 0.098637439 0.8371222
0.032572918 0.099453941 0.83526635
0.037685566 0.097726174 0.83758098
0.028177196 0.10269734 0.83890676
0.032184236 0.10266072 0.83733332
0.035552781 0.10292252 0.83820009
0.033532623 0.10624249 0.83980006
0.054227434 0.038524266 0.84499991
0.05580334 0.038524266 0.84499991
0.0030095135 0.044025782 0.84499991
0.0072579808 0.043360222 0.8442933
0.012115696 0.043307967 0.84415239
0.016403669 0.044022307 0.84493321
0.021132769 0.044025782 0.84499991
0.027410826 0.043986421 0.84424448
0.032123711 0.04396905 0.84391117
0.036851361 0.043975998 0.84404445
0.043127727 0.043957476 0.84368896
0.047539726 0.043333851 0.84378684
0.052806109 0.042845007 0.8438763
0.056789879 0.04292867 0.84404445
0.062083174 0.043222796 0.84466648
0.066198632 0.04276463 0.84492528
-0.00092922419 0.047898374 0.8440001
0.0022147591 0.047046036 0.84280747
0.0063964776 0.046445224 0.84138888
0.01241883 0.045423158 0.8417666
0.017920887 0.046227619 0.84217781
0.022631412 0.046224657 0.84212226
0.027009536 0.046035178 0.84152001
0.032045644 0.045428559 0.84186667
0.037517522 0.045401577 0.84136665
0.042193651 0.045367405 0.84073317
0.04767191 0.045357812 0.84055543
0.052465901 0.045436949 0.84202224
0.05770525 0.046483669 0.84208888
0.061970517 0.047063641 0.84312606
0.067491882 0.047270682 0.84426248
-0.0024987007 0.052488081 0.84207726
0.0011654134 0.050598681 0.84104443
0.061911311 0.05206925 0.84231853
0.06788028 0.051526688 0.84428012
-0.0025023986 0.058049049 0.84319681
0.0012691858 0.058200438 0.84085339
0.058321655 0.058325402 0.84153336
0.060858153 0.057323009 0.84406662
-0.0015599349 0.062527694 0.8443734
0.0020174652 0.062910393 0.84265846
0.057675265 0.062943183 0.84272379
0.060497724 0.061282404 0.84453321
0.0031637545 0.067223303 0.84416008
0.0059780455 0.067632467 0.84143984
0.053959299 0.067269854 0.84082198
0.056456927 0.067442425 0.84297776
0.0071939961 0.072147459 0.84298897
0.053232208 0.072038427 0.8417111
0.055722639 0.072215699 0.84377784
0.0079887649 0.075886957 0.84388906
0.011099818 0.077983707 0.84109998
0.049257483 0.079786427 0.84086645
0.052498106 0.077257194 0.84252387
0.011960899 0.082803078 0.84291333
0.044545744 0.084465571 0.84073323
0.048006319 0.083522037 0.84247625
0.051567212 0.081696711 0.84444445
0.013758513 0.087393768 0.84383345
0.017117061 0.088435471 0.84129989
0.043604702 0.088323377 0.84272224
0.046840105 0.086928643 0.84439993
0.014829034 0.091181673 0.84499991
0.0181229 0.092282884 0.84249181
0.021036079 0.093893781 0.84113312
0.039848126 0.092299834 0.84086639
0.042672612 0.092368893 0.84353334
0.018910285 0.097074136 0.84429342
0.022171458 0.097317375 0.84174293
0.039832331 0.097736068 0.84053314
0.042359736 0.097356349 0.84402233
0.019556841 0.10061287 0.84499991
0.022656804 0.10196032 0.84314078
0.026134878 0.10367578 0.84114981
0.038305584 0.10253489 0.84142226
0.041049067 0.10207254 0.84406668
0.02346622 0.10676488 0.8439222
0.027362678 0.1081827 0.84274095
0.03184313 0.1082476 0.84171653
0.03659039 0.10734595 0.84320962
0.024284655 0.11082995 0.84499991
0.027615266 0.11291952 0.84445834
0.031936452 0.1128832 0.84418333
0.036102697 0.11082561 0.84496659
0.029012445 0.11633151 0.84499991
0.031376362 0.11633151 0.84499991
0.052784033 0.034684233 0.84718949
0.055803359 0.034594607 0.84500009
-0.0056849164 0.039496277 0.84900004
0.044980213 0.039493188 0.84893376
0.048526626 0.039084926 0.84865034
0.052304368 0.037587941 0.84668338
0.057900347 0.037559658 0.84602767
0.061893772 0.038744848 0.84638673
0.065264128 0.039313305 0.84506649
-0.0056788898 0.042608302 0.84810001
-0.0022015907 0.043597966 0.84892207
0.00222904 0.042331267 0.84781122
0.0065702237 0.041365482 0.84686685
0.012965438 0.04128499 0.84682673
0.018223703 0.042361591 0.84712517
0.022994624 0.042565297 0.8472572
0.027519608 0.041793961 0.84757799
0.031950992 0.041958034 0.84770679
0.036617987 0.042198706 0.84778345
0.042512871 0.042165138 0.84711671
0.048389778 0.041336328 0.84626669
0.051889971 0.040903024 0.84543324
0.058494385 0.04145157 0.84593344
0.062152993 0.040912163 0.84562212
0.067399494 0.042479087 0.84548616
-0.0064616217 0.047280405 0.84698552
-0.0029614309 0.047012392 0.84622556
0.068443224 0.045619238 0.84539998
-0.0064600296 0.051991004 0.84673518
-0.0040868344 0.050370399 0.84596014
0.066080466 0.053484403 0.84543312
-0.0064534117 0.057454843 0.84601378
0.063055493 0.057534363 0.84715563
0.067049012 0.0565871 0.84771675
-0.0056822058 0.063157268 0.84859532
-0.0036956714 0.063404538 0.84664053
0.061683655 0.063413933 0.84782678
-0.0056899381 0.066403046 0.84974998
-0.0025155097 0.067814015 0.84762084
0.0010403059 0.068065554 0.84584999
0.059000194 0.067655928 0.84564447
0.061143547 0.067450531 0.84801692
-0.0019907765 0.072148614 0.84914917
0.002227532 0.072549932 0.84768164
0.0053753257 0.073131397 0.8452999
0.058320373 0.072509445 0.84721136
0.06083443 0.071892403 0.84923345
0.0030244864 0.07584703 0.84930032
0.0066474178 0.077518687 0.84685338
0.054257378 0.078650184 0.84546661
0.057108667 0.077050745 0.84763819
0.00776126 0.082016833 0.84774452
0.053305332 0.082733743 0.84702235
0.056046952 0.082108088 0.84868914
0.0085609388 0.0852492 0.84853369
0.011174596 0.087963931 0.84681123
0.048524711 0.088699974 0.84631127
0.052548982 0.086499177 0.84841359
0.013559964 0.093062364 0.84781128
0.016432144 0.094481699 0.84640008
0.044803593 0.093606323 0.84560001
0.048092995 0.09307941 0.84796315
0.051305242 0.090012796 0.84880036
0.014908001 0.097198457 0.8495003
0.016846931 0.098147511 0.84746683
0.044942528 0.097841807 0.84822249
0.047361352 0.096354954 0.84903359
0.018340122 0.10212366 0.84710664
0.043787006 0.10273649 0.84769541
0.01963193 0.107312 0.84824467
0.021169445 0.10708704 0.84646672
0.038471106 0.10848068 0.84506649
0.041304022 0.10701998 0.84772396
0.022512248 0.11195087 0.84753346
0.025891185 0.11489543 0.84599996
0.033756237 0.11481395 0.84539986
0.037525825 0.11246183 0.84742236
0.040195651 0.11046074 0.8482002
0.023758736 0.11653189 0.84874696
0.027299568 0.11836369 0.84688336
0.032450397 0.11857438 0.84658098
0.036079064 0.11644165 0.84809351
0.028195053 0.12255096 0.84888017
0.032309197 0.12317124 0.84880024
0.035484761 0.12083536 0.84903365
0.049154885 0.03491053 0.85271668
-0.0025259939 0.038859516 0.8523531
0.0022435095 0.039711308 0.85362226
0.007005123 0.039626021 0.85178894
0.012915651 0.038975708 0.85244763
0.018377423 0.038544748 0.85294288
0.022923499 0.038546842 0.8529858
0.027676275 0.038859718 0.85238338
0.032188769 0.03909358 0.85400677
0.037285063 0.039728884 0.85400003
0.0424009 0.039275911 0.85280001
0.047520239 0.037253335 0.8519001
-0.0080789961 0.043546878 0.85100001
-0.0029193882 0.041552581 0.85068691
0.000649889 0.041152991 0.85059994
0.02284666 0.04113042 0.85013348
0.03397717 0.041169122 0.85093319
0.037932973 0.041156217 0.85066664
0.040328339 0.041172344 0.85099989
-0.010459686 0.045921415 0.85100001
-0.0088725593 0.046712928 0.85100001
-0.0088881981 0.052345615 0.85250008
0.067235671 0.058521364 0.85006672
0.070469923 0.058574136 0.85083336
0.064128928 0.062538423 0.85091668
0.067469269 0.061898608 0.85301113
0.07150194 0.061946589 0.85367727
-0.0056920303 0.068799332 0.85006249
0.063629411 0.068537816 0.85271329
0.066926442 0.066116445 0.85421342
0.072392665 0.065207586 0.85480005
-0.0056931265 0.071975753 0.85022616
-0.0035806324 0.073854424 0.85061049
0.062730834 0.072645538 0.85346675
-0.0019983687 0.077205576 0.8526513
0.0020130516 0.078154683 0.85229522
0.0054107229 0.079152502 0.85086656
0.059407581 0.078418747 0.85148335
0.061125711 0.077793144 0.85330009
0.0034408108 0.082256243 0.8543334
0.0054169409 0.082414322 0.85184437
0.058677014 0.082466863 0.85239452
0.0076430379 0.087519601 0.85219324
0.054071695 0.088115752 0.850811
0.056634594 0.086742282 0.85156655
0.0086085247 0.091279007 0.85325003
0.010572261 0.09224958 0.85121661
0.053306781 0.092167363 0.85229582
0.056428522 0.091408893 0.85446686
0.012305571 0.097428635 0.8522926
0.048305888 0.098507889 0.8517167
0.052234013 0.096558861 0.85362005
0.013782157 0.10161591 0.85342503
0.017061941 0.10404067 0.85161114
0.047418665 0.10282549 0.85291338
0.050585549 0.10068045 0.85446668
0.017758861 0.10755232 0.85328341
0.043508545 0.1084659 0.8511166
0.045984093 0.10789404 0.85285002
0.019228293 0.11171523 0.85376674
0.021277826 0.11396468 0.85079992
0.041716557 0.11258163 0.85231107
0.046063177 0.11125949 0.8543334
0.021693718 0.11763237 0.85156661
0.038334854 0.11752327 0.85078329
0.041079819 0.11717264 0.8534134
0.023848008 0.12172506 0.8519333
0.02682694 0.12344125 0.85066664
0.037658177 0.12229103 0.85210466
0.04047681 0.12156108 0.85413337
0.024554785 0.12636732 0.8544001
0.027481321 0.12708113 0.85251665
0.032418448 0.12754686 0.85166115
0.036718938 0.12644808 0.85315561
0.028527258 0.13028949 0.85406673
0.032108542 0.13067545 0.85399175
0.043131806 0.033586789 0.85943341
0.046079997 0.032238763 0.85762864
0.0025239361 0.037000157 0.85831851
0.0066581639 0.037930921 0.85826671
0.012255794 0.036718722 0.85791671
0.017099608 0.035778832 0.85725731
0.023030892 0.035721719 0.8569867
0.02782937 0.035885412 0.85708904
0.033024937 0.037083432 0.85713327
0.037448391 0.036709227 0.85774076
0.042016219 0.036483917 0.85710841
0.045872469 0.035564478 0.85573363
0.068495236 0.067679808 0.85590029
0.071545623 0.067218997 0.85610688
0.063970067 0.074310638 0.85586691
0.067767084 0.071734481 0.85677797
0.071489766 0.071464397 0.85831666
-0.0033376841 0.078866914 0.85635
0.063794598 0.078137547 0.8570779
0.067398734 0.076168709 0.85886663
-0.002148231 0.08226794 0.85859948
0.0012940702 0.083230205 0.85698682
0.062554471 0.082710266 0.85727626
0.0024564313 0.087676018 0.85877502
0.0054428005 0.087583154 0.85591143
0.059098653 0.087931395 0.85620022
0.061517335 0.08707688 0.85876667
0.0038630951 0.091158099 0.85960007
0.006779755 0.092465751 0.85690016
0.058267016 0.092589527 0.85805351
0.0078571355 0.097393334 0.85817784
0.010225546 0.098668739 0.85540032
0.054386836 0.09712106 0.85577804
0.056685548 0.097412117 0.85834676
0.0086698961 0.10072096 0.85933346
0.01131453 0.10262322 0.85741121
0.052298814 0.10250235 0.85641128
0.055107329 0.10224625 0.85871106
0.012937547 0.10600307 0.85895562
0.015436395 0.10720683 0.85686678
0.048550356 0.10750234 0.85605031
0.051441126 0.10679584 0.85860002
0.016826978 0.11258546 0.85771865
0.043718994 0.11376282 0.85523355
0.047000658 0.11344974 0.85687798
0.050304107 0.11023512 0.85873324
0.018698588 0.11757351 0.85733336
0.043376319 0.11829039 0.85633355
0.046568487 0.11742524 0.85874444
0.019851536 0.12127561 0.85773331
0.021830827 0.12316065 0.85696673
0.042475339 0.12275402 0.85692239
0.023042379 0.12761794 0.85746688
0.038477492 0.12859868 0.85691118
0.041294113 0.12735996 0.85786676
0.024654429 0.13086925 0.85786659
0.027589979 0.13275312 0.85678107
0.032922287 0.13320899 0.85649347
0.036922287 0.13193707 0.85788888
0.028260948 0.13609271 0.8581
0.032208413 0.13707301 0.85816193
0.035931963 0.1359518 0.8597334
0.031923559 0.1407496 0.85973346
0.0038738807 0.028876647 0.86200005
0.00711266 0.028972359 0.86485714
0.01517475 0.028967105 0.8647002
0.033702746 0.028952029 0.86425018
0.038002722 0.028270742 0.86308014
0.04213845 0.028237393 0.86207676
0.0029088529 0.032712508 0.86168003
0.0070970082 0.032116048 0.86290383
0.011924993 0.032116577 0.86291111
0.017554743 0.032111403 0.86279446
0.022924859 0.032525226 0.86161435
0.027966127 0.032857899 0.8613112
0.033026289 0.03229519 0.86234176
0.037609536 0.032061357 0.86143708
0.042177197 0.031587567 0.86098111
0.0017268751 0.036283549 0.86020178
0.0074009201 0.035884675 0.86087054
0.010816768 0.035747424 0.86013359
0.032735288 0.035208706 0.86000019
-0.0057585724 0.078402385 0.86000001
0.069169551 0.077957891 0.86097789
0.072555117 0.077610739 0.86304456
-0.0057719643 0.080188207 0.86200005
-0.0029548723 0.082475871 0.8607806
0.064833596 0.084027782 0.8602668
0.068025693 0.081647322 0.8625834
0.073171802 0.080374248 0.86400014
-0.0027056481 0.087687872 0.86264229
0.00065722346 0.089621618 0.86020011
0.063310072 0.088140354 0.86135995
0.065902941 0.086779445 0.86376679
-0.0017557426 0.092371166 0.86346686
0.0020630078 0.093152195 0.86140001
0.0054688021 0.094400011 0.86000019
0.061973751 0.093249865 0.86230832
0.065152653 0.090069577 0.86450016
-0.0025648391 0.098138645 0.86475003
0.0024681981 0.097708076 0.86272395
0.0054726186 0.097668253 0.86059999
0.058470298 0.098521516 0.86106652
0.060836624 0.097589418 0.86273348
0.003883244 0.10208161 0.86408353
0.0068849921 0.10280932 0.86175841
0.057720277 0.10261845 0.86183906
0.060262226 0.10204035 0.86373359
0.0083097201 0.10724186 0.86356682
0.011361055 0.10784584 0.86091113
0.053642206 0.10811169 0.86090016
0.056159317 0.10751883 0.86256117
0.011911821 0.11227267 0.86210746
0.052276608 0.1123964 0.86152095
0.055459574 0.11093683 0.86420023
0.013135443 0.11682824 0.86318338
0.015748128 0.1172279 0.86081344
0.048831116 0.11773431 0.86100006
0.051356673 0.11720031 0.86296111
0.017733276 0.12244868 0.86178339
0.043986522 0.12486334 0.86046684
0.047288835 0.12189899 0.86213821
0.019006131 0.12715152 0.86296004
0.021524588 0.12889542 0.86066687
0.043536413 0.1283121 0.86213344
0.045780279 0.12538084 0.86403346
0.019979607 0.13008709 0.86326665
0.022704737 0.13265386 0.86206204
0.038629446 0.13390607 0.8602891
0.042021804 0.13271524 0.86245716
0.024008602 0.13573314 0.86343348
0.027628323 0.13868703 0.86082679
0.034339193 0.13839363 0.86000019
0.037809167 0.13801436 0.86137503
0.041330788 0.13777661 0.8636502
0.028453855 0.14253335 0.86222869
0.032994557 0.14298239 0.86079055
0.037468165 0.14265028 0.86276257
0.029677972 0.14713907 0.86438352
0.033066891 0.14757782 0.86341673
0.036112376 0.14708264 0.86405015
0.0065833181 0.02847212 0.86596298
0.011988156 0.028253244 0.86752969
0.017177848 0.028113028 0.868159
0.022532668 0.029095514 0.86853331
0.028607786 0.028694175 0.86861664
0.032779969 0.027200693 0.86825567
0.036273286 0.02665177 0.86790007
0.024109438 0.030658111 0.86703348
0.02815365 0.030660467 0.86710018
0.03137029 0.030642787 0.86660016
0.072125763 0.083225824 0.86691439
0.075010389 0.082230538 0.86662507
0.0679214 0.087418117 0.86690676
0.071418047 0.086959995 0.86785507
-0.0041908938 0.092803195 0.86750007
0.067261115 0.09228088 0.86828339
0.070759773 0.09175238 0.86901009
-0.0023687349 0.096733868 0.86657983
0.00066171621 0.099900663 0.86608011
0.063175589 0.098379262 0.86686677
0.066829637 0.096468285 0.86832386
0.070927732 0.09597224 0.86940962
-0.001497103 0.10186735 0.86911112
0.0019537299 0.10290489 0.866965
0.061590344 0.10326674 0.86729997
0.0033657339 0.10671601 0.86909658
0.0061647734 0.10848457 0.86772668
0.05890185 0.10812509 0.86742228
0.061422944 0.10667263 0.86874992
0.0076748165 0.11247767 0.86781675
0.056615192 0.11324302 0.86708009
0.060666908 0.11000395 0.86953348
0.00877079 0.11725597 0.86933327
0.011012731 0.11809532 0.86718005
0.054003682 0.11770758 0.86670119
0.055761918 0.11800721 0.86891103
0.012542702 0.12227932 0.86863893
0.015213646 0.12338066 0.86691678
0.049114682 0.12405535 0.86600006
0.052289732 0.12258615 0.86842501
0.016043467 0.12759218 0.86813897
0.04779679 0.12773134 0.86771256
0.050909407 0.12611122 0.8690666
0.017827947 0.13213639 0.86828673
0.020076815 0.13394739 0.86746687
0.044279605 0.1329467 0.86620009
0.046679702 0.13220996 0.86877334
0.02211366 0.13747659 0.86810005
0.043902997 0.13746174 0.86673343
0.046453267 0.13702598 0.86908329
0.024151681 0.14219834 0.86857778
0.026523661 0.14349684 0.86666679
0.039419528 0.14498062 0.86590016
0.042946514 0.14227232 0.86780006
0.046068151 0.1407257 0.8694666
0.0249878 0.14557782 0.86946672
0.027648151 0.1477842 0.86817771
0.03131599 0.14967445 0.8651002
0.038679101 0.14765032 0.86738336
0.041968819 0.14622691 0.86851656
0.029150482 0.15241903 0.86790675
0.032796089 0.15300874 0.86689174
0.036709201 0.15149823 0.86863327
0.02979642 0.15741196 0.86783338
0.033286698 0.15716699 0.86839044
0.036340617 0.15690799 0.86951107
0.029836474 0.16004829 0.8689999
0.03227935 0.16091523 0.86931658
0.022590872 0.027552638 0.87083352
0.027625885 0.026905453 0.87085354
0.033123549 0.025913861 0.87020016
0.073764645 0.087506346 0.87100005
0.072127789 0.093161121 0.87085015
0.06801939 0.098760918 0.87023354
0.071749143 0.098514356 0.87282538
-0.0009584002 0.10364909 0.87050003
0.063998498 0.10205761 0.8707335
0.067285642 0.10211731 0.87124461
0.070657931 0.10229409 0.87275547
-0.0013678852 0.10680829 0.87314528
0.0013168379 0.10742192 0.87220061
0.063710362 0.10751839 0.87233329
0.06745553 0.10643741 0.87344426
0.070793763 0.10574404 0.87443334
0.0027607221 0.11188946 0.87342197
0.0063476143 0.11418724 0.8706001
0.059138037 0.11260753 0.87090009
0.062215608 0.11197385 0.8722778
0.0068468219 0.11749616 0.87233341
0.058593251 0.11718931 0.87244672
0.060941331 0.11537607 0.87346661
0.0079885544 0.1217383 0.87248325
0.010957226 0.12427603 0.87131119
0.05426323 0.12475248 0.87086684
0.056766286 0.12246385 0.87187785
0.0088182054 0.12601957 0.87403333
0.012283451 0.12772571 0.87220478
0.052852627 0.12821993 0.87103355
0.056848768 0.12751704 0.87315536
0.0131574 0.13163419 0.87353325
0.015701946 0.13337025 0.87160015
0.048963223 0.1331989 0.87048346
0.052513406 0.13284341 0.87213337
0.05611844 0.13177489 0.87446666
0.017400576 0.13772726 0.87242854
0.020155501 0.13933235 0.87086684
0.048739083 0.13803008 0.87082684
0.052251458 0.13730346 0.87342209
0.01817615 0.14257038 0.87333322
0.020973677 0.14261656 0.87113357
0.048037674 0.14297326 0.87207502
0.051253099 0.14323807 0.87493336
0.022293802 0.14753965 0.87286657
0.025033779 0.14827636 0.87106687
0.043572076 0.14817406 0.87141353
0.046777207 0.14664374 0.87260002
0.023507763 0.15134113 0.87473333
0.026425593 0.15255457 0.87236667
0.039034709 0.15276618 0.87172002
0.041785419 0.1522866 0.87314993
0.027685601 0.1571689 0.87276012
0.038921274 0.15750405 0.87281108
0.041464098 0.15626435 0.87496662
0.029161891 0.1624271 0.87309992
0.033801299 0.1626728 0.87093353
0.037123084 0.16201463 0.87262666
0.032607891 0.16613279 0.87379324
0.036533806 0.16587183 0.87413323
0.072556362 0.10267756 0.87602443
-0.0034188782 0.10848824 0.87688696
0.067601703 0.10910945 0.87533337
0.072229713 0.10734595 0.87866896
-0.0016211836 0.11294688 0.87730932
0.0006687995 0.11318247 0.87535101
0.064569362 0.11277253 0.87849998
0.067339949 0.11138801 0.87724173
-0.0013780411 0.11735948 0.87919366
0.0023049545 0.117486 0.87707788
0.0055699116 0.11895618 0.87590009
0.062185191 0.11782996 0.8772133
0.002721648 0.12147887 0.87941664
0.0059915115 0.12292042 0.87803334
0.059473008 0.12220508 0.87583345
0.061752107 0.12226775 0.87920815
0.0080335783 0.12731756 0.87738323
0.059516013 0.12718648 0.87646675
0.06137624 0.1268363 0.87969971
0.0088595757 0.13069396 0.87813354
0.01114123 0.13253218 0.87732011
0.057949625 0.13222933 0.87748003
0.012603128 0.13701616 0.87826669
0.015357255 0.13838176 0.87510008
0.054041851 0.13853097 0.87604451
0.056370854 0.13727033 0.87840009
0.01378322 0.14141956 0.87879997
0.015791934 0.14228991 0.87660849
0.053387154 0.14207327 0.87779343
0.017317548 0.14700778 0.87800568
0.020253472 0.14814882 0.87510008
0.048455663 0.14829555 0.87596673
0.052011445 0.14600809 0.87854439
0.018165359 0.15105446 0.8793776
0.021411547 0.15245147 0.87800002
0.025161194 0.15473096 0.87550002
0.044298146 0.15285729 0.87721127
0.047917351 0.15200742 0.87858337
0.022537554 0.15650114 0.87934428
0.025736207 0.15818177 0.87657785
0.043246321 0.15680377 0.8779934
0.046601523 0.15544385 0.87953311
0.026579639 0.16269259 0.87745553
0.03951256 0.16354574 0.87691683
0.042048551 0.16141726 0.87865001
0.02798116 0.16726466 0.87859994
0.032387719 0.16863726 0.87667352
0.037021969 0.1685591 0.87796676
0.040867552 0.16692501 0.87968314
0.028572934 0.17025901 0.87999976
0.031582702 0.17216073 0.87896192
0.036743809 0.17199911 0.87913322
0.03294611 0.17569791 0.87991095
0.035683077 0.17570674 0.87995529
0.071320012 0.1098075 0.88093317
-0.0042569186 0.11475398 0.8811667
0.064704098 0.11464547 0.88033307
0.06721776 0.11391282 0.8809998
0.073164478 0.1101108 0.88336676
-0.0034394036 0.11812751 0.88188934
0.064789839 0.11807785 0.88149995
0.067394368 0.11667611 0.88330841
-0.0013833835 0.12271022 0.88238716
0.0019874913 0.12394486 0.88124645
0.064140275 0.12333834 0.88160002
0.066664957 0.12177909 0.88456684
0.0031508582 0.12673652 0.88471687
0.0064328685 0.12803526 0.88232499
0.063157558 0.12793581 0.88164663
0.0075946799 0.13248666 0.88356006
0.059796683 0.13351865 0.8805998
0.062277846 0.13275976 0.88317335
0.01053755 0.13857439 0.88149989
0.058680043 0.13747287 0.88232499
0.060081881 0.13991563 0.88480014
0.012185449 0.14273834 0.88190651
0.054840636 0.14408933 0.88013303
0.057470646 0.1428666 0.88268894
0.013430846 0.14737202 0.88263333
0.015447935 0.14820495 0.88026649
0.053605516 0.14790519 0.88140661
0.056754965 0.1476644 0.88438344
0.016779354 0.15279914 0.88126659
0.049935147 0.15315241 0.88046658
0.052144073 0.15237807 0.88310009
0.018363819 0.15716946 0.88232505
0.020929366 0.15837078 0.88064432
0.044988461 0.15799366 0.88006645
0.0476823 0.15772523 0.88130665
0.050084498 0.15607421 0.88310009
0.022608988 0.16191892 0.88212222
0.025292426 0.16372351 0.88006645
0.043397196 0.16309381 0.88108319
0.046384644 0.16142857 0.88318342
0.023772933 0.16621241 0.8846001
0.025737556 0.16763741 0.88127494
0.042954687 0.16759478 0.88322228
0.02699375 0.17230161 0.88207626
0.038426027 0.17355925 0.88013309
0.040830739 0.17203946 0.88241339
0.028019821 0.17713813 0.8832801
0.031344317 0.17755924 0.88102216
0.037409548 0.17774606 0.88194996
0.040211651 0.17582682 0.88330007
0.028734202 0.18109722 0.88496679
0.032211147 0.18193972 0.88334286
0.036446132 0.18216152 0.88328111
0.072150007 0.11321606 0.88709319
0.075289056 0.11412041 0.88900006
0.068482034 0.11877796 0.88673317
0.071928911 0.11735515 0.88844436
0.075292863 0.11743399 0.889045
-0.0042762416 0.12103779 0.88516676
0.068487175 0.12208617 0.88679981
0.071779951 0.12220499 0.88916677
0.075368099 0.12251744 0.88993359
-0.0018052832 0.12795356 0.88744724
0.0019167115 0.12819964 0.88629586
0.067302056 0.12726143 0.88673323
0.071990252 0.12737978 0.88920742
0.075322933 0.12575296 0.88940012
-0.00097745203 0.1321339 0.88780445
0.0023320829 0.13204479 0.88720721
0.0056326557 0.13265455 0.88576663
0.066706762 0.13193239 0.88784164
0.07032828 0.13150918 0.88916671
-0.0013941033 0.13692373 0.88941735
0.0023336192 0.13711673 0.88798863
0.0070802579 0.13704112 0.88616657
0.062445182 0.1375296 0.88709998
0.066140875 0.13555765 0.88859999
0.0034418895 0.1411135 0.88888884
0.0073039415 0.14210658 0.88819981
0.010598516 0.14349876 0.88659972
0.061927479 0.1420041 0.88757145
0.007864424 0.14665444 0.8890667
0.011013466 0.14723969 0.88678318
0.058541808 0.14842418 0.88646644
0.060692132 0.14656429 0.88768321
0.012264364 0.15192422 0.88764763
0.01553217 0.15477535 0.88506681
0.053541698 0.15325584 0.88579983
0.056949906 0.15188433 0.88740933
0.060403313 0.15059236 0.8895334
0.013262178 0.15658596 0.8878665
0.016366951 0.15816349 0.88560003
0.052179594 0.15765114 0.88669032
0.055422172 0.1555448 0.88946682
0.013940061 0.16121516 0.88879991
0.016992616 0.1622797 0.88751417
0.021043068 0.16417517 0.88544446
0.046939988 0.16370967 0.88589984
0.051204089 0.16193873 0.88823318
0.018246224 0.1666415 0.88863993
0.022160968 0.16815245 0.88615227
0.043601599 0.16962484 0.88523328
0.047259919 0.16706479 0.88803315
0.050445572 0.1663 0.8894667
0.018922858 0.17039768 0.88926673
0.022191249 0.17251435 0.88739151
0.025434213 0.17451902 0.88500017
0.043127287 0.17321889 0.88677764
0.04600729 0.17093222 0.8891778
0.022498734 0.17688005 0.88858885
0.025887553 0.17850533 0.88639987
0.042280633 0.17753986 0.88717133
0.023891171 0.18026881 0.889
0.027162848 0.18300955 0.88758868
0.031222001 0.18446258 0.88531673
0.038650133 0.18362892 0.88526678
0.041833621 0.1818351 0.88857216
0.027540561 0.1865671 0.8890667
0.032123175 0.18737809 0.88742208
0.037071478 0.18728416 0.88697761
0.040475175 0.18690257 0.88908887
0.032175958 0.19016261 0.88886666
0.037151881 0.19017212 0.88891107
0.073713891 0.1241822 0.89000022
0.075401589 0.12257238 0.890329
-0.0026399503 0.13412683 0.89007407
0.068811536 0.13426636 0.89100021
0.07270509 0.13302013 0.89216012
-0.0026438828 0.13764295 0.89140004
0.067468621 0.13821855 0.89205271
0.070560284 0.1360916 0.89210027
-0.00098207116 0.1410542 0.89200002
0.0020104907 0.14290591 0.89112598
0.063759483 0.14405981 0.89006698
0.066271365 0.14247482 0.89258021
0.0033457275 0.14749496 0.8928135
0.0062195938 0.14863102 0.89100027
0.063232578 0.14802226 0.89198685
0.0657674 0.14649051 0.89479995
0.0040206863 0.15146142 0.89466691
0.0075525395 0.1526581 0.89314193
0.010650316 0.154144 0.89093357
0.058942419 0.15442079 0.8925336
0.06118023 0.15280682 0.89280027
0.0081882197 0.1572161 0.89426696
0.011074681 0.15800673 0.89168358
0.056598663 0.15803584 0.8923136
0.012336307 0.16235353 0.89279193
0.053478591 0.16297235 0.89162523
0.055712938 0.16218235 0.89413375
0.014021092 0.1663094 0.89396703
0.016051874 0.16783619 0.89103353
0.052585695 0.16777778 0.89292812
0.018146213 0.17255832 0.89188361
0.047817949 0.17313431 0.89200026
0.050726317 0.17221677 0.89441699
0.019016849 0.17706293 0.89368355
0.020635746 0.17831226 0.89161688
0.046799991 0.17736532 0.89221925
0.022592066 0.18259645 0.89228916
0.04393243 0.18335637 0.89195025
0.046126712 0.18256611 0.89417529
0.024014801 0.18618837 0.89360034
0.026218271 0.18882789 0.89297801
0.042957075 0.18726483 0.89239359
0.028582826 0.19232306 0.8931337
0.032289211 0.19332618 0.89201695
0.037308678 0.19346087 0.89263916
0.041224051 0.19167304 0.89333361
0.033478361 0.19683158 0.89412254
0.036269758 0.19689737 0.89442253
0.072956972 0.13784169 0.89700681
0.076118998 0.13878562 0.89880019
0.069192514 0.14250953 0.89593327
0.071665719 0.14160633 0.89760017
0.0023533485 0.14987531 0.89513344
0.067930095 0.14695404 0.89763355
0.071042746 0.14537621 0.89820027
0.0031900173 0.1533082 0.89573336
0.0056943377 0.15492828 0.89546663
0.063620143 0.15277953 0.89588898
0.065994412 0.15200843 0.89788914
0.0030281032 0.15725857 0.89735347
0.0068113152 0.1583461 0.8959555
0.059142731 0.15744489 0.8955667
0.062838361 0.15718214 0.89763355
0.066120163 0.15648019 0.89960033
0.0040398617 0.16054466 0.89893353
0.0077138646 0.16158751 0.89729345
0.011543646 0.16415077 0.89579999
0.05852259 0.16207428 0.89629334
0.061666109 0.16175881 0.89824694
0.012064157 0.16727129 0.89734685
0.057558518 0.16685273 0.89688522
0.013526577 0.17097044 0.89806694
0.016289167 0.17344685 0.89647788
0.053509135 0.17208317 0.89631999
0.057068188 0.17150493 0.89795017
0.017951734 0.17835452 0.89599997
0.049117643 0.17908835 0.8955
0.052352443 0.17672519 0.89724594
0.019087426 0.18272625 0.89700013
0.020720221 0.18320495 0.89526683
0.048583508 0.18278117 0.89591104
0.051329046 0.18160751 0.89765853
0.019108705 0.1854348 0.8980003
0.021854721 0.18728161 0.89617783
0.04772158 0.18704404 0.89670426
0.0509579 0.18553804 0.89850026
0.022692924 0.19161318 0.89787638
0.026300257 0.19274764 0.89575559
0.043128945 0.19268572 0.89598668
0.047123659 0.19196618 0.89840978
0.024151849 0.19560981 0.89870012
0.027456539 0.19694652 0.8971715
0.031309668 0.19773172 0.89568895
0.038548529 0.19773142 0.89568901
0.042740583 0.19722021 0.89746684
0.028759962 0.20187356 0.89867532
0.03246076 0.20185792 0.89674824
0.037462365 0.20176609 0.89634067
0.041318368 0.20181394 0.89840859
0.03295102 0.20606041 0.89870858
0.037749726 0.20699166 0.89821273
0.040961273 0.20588446 0.89976692
0.074192554 0.14287269 0.90085036
0.076677449 0.14280748 0.90043771
0.069583803 0.14918154 0.90100032
0.073203221 0.14781249 0.90159184
0.076337814 0.14673026 0.90138352
0.068791039 0.15263897 0.90161687
0.072911195 0.1526942 0.90318328
0.068332888 0.15790427 0.90296119
0.0029331103 0.16229159 0.9024446
0.0062923231 0.16378647 0.90143353
0.064207017 0.16322392 0.90218341
0.066357799 0.16208144 0.90283334
0.0091107916 0.16799752 0.90303332
0.010775833 0.16937532 0.90143359
0.062125888 0.16789609 0.90248901
0.01213136 0.17322935 0.90229338
0.058971748 0.17385143 0.90145582
0.061280407 0.17208505 0.90245008
0.013614292 0.17712294 0.90388888
0.01582231 0.17779391 0.90160018
0.054399986 0.17915101 0.90000027
0.057343241 0.17736578 0.90227228
0.017109381 0.18268695 0.90299165
0.053842403 0.18321955 0.9018935
0.056309059 0.18156861 0.90369999
0.019191694 0.18875754 0.90189999
0.051975261 0.18785505 0.90160012
0.019244891 0.19264464 0.90440005
0.021696649 0.19447045 0.90116686
0.049468663 0.19379066 0.90190017
0.05179067 0.19156218 0.90326673
0.022903861 0.19775516 0.90238667
0.025891172 0.19944032 0.90090042
0.047599901 0.197864 0.90230852
0.024294289 0.20180823 0.90399998
0.026749656 0.20293623 0.90154183
0.043551363 0.20287719 0.90127522
0.047027469 0.20253024 0.90346664
0.02806988 0.20673238 0.90347505
0.032312073 0.20906496 0.90193349
0.035936363 0.20928623 0.90000021
0.04278313 0.20740779 0.90276116
0.033035025 0.21240492 0.90329331
0.037704732 0.21230304 0.90214449
0.041959032 0.21086651 0.90318328
0.072482951 0.15754579 0.90572512
0.076025017 0.15704198 0.90767938
0.068254352 0.1625859 0.90565014
0.072011329 0.16233382 0.907767
0.075322501 0.16241854 0.90942222
0.0023861183 0.1672072 0.9078632
0.0066091032 0.16780587 0.90654188
0.064900875 0.16770624 0.90600026
0.067733347 0.16751735 0.90772039
0.071355686 0.1669075 0.90930009
0.0040878719 0.17175932 0.90961671
0.0072521819 0.17246988 0.90779197
0.064102948 0.17204361 0.90665871
0.066782281 0.17241211 0.90860015
0.0076844003 0.17730078 0.90875018
0.011256239 0.17745222 0.9062835
0.059818543 0.17862061 0.9058001
0.062446762 0.17719997 0.90715021
0.065132506 0.1776067 0.90923333
0.0091793993 0.1811085 0.90983331
0.012747438 0.18207334 0.90725857
0.015899533 0.18371613 0.90600008
0.058662858 0.18238832 0.90657645
0.061664831 0.18245538 0.90811151
0.013829625 0.18723962 0.90878356
0.016586259 0.18755391 0.90662688
0.054751564 0.18789187 0.90581679
0.057782907 0.18724549 0.90793365
0.06119303 0.18724351 0.90948892
0.016778296 0.19254398 0.90788907
0.05416093 0.19274065 0.90722692
0.056663159 0.19201492 0.90938342
0.018463658 0.19752704 0.90750575
0.02095166 0.19872306 0.9052667
0.052151401 0.19720852 0.90759355
0.019328589 0.20108597 0.90833366
0.022397975 0.20245616 0.90690011
0.049705148 0.20230214 0.90621132
0.051582005 0.20303787 0.90950423
0.02439581 0.20771866 0.90777808
0.026619492 0.20858283 0.90664464
0.044599824 0.2088808 0.90550011
0.048067361 0.20757872 0.9071669
0.024448372 0.21154961 0.90973336
0.027965367 0.21237122 0.90691686
0.031103401 0.21402854 0.90590006
0.043524724 0.21305706 0.90654469
0.046875097 0.21257156 0.90867519
0.028831666 0.21777168 0.90886021
0.032834455 0.21767898 0.90706325
0.037906218 0.21765517 0.90696323
0.041785408 0.21761709 0.90856695
0.077173397 0.1627439 0.91125005
0.073294997 0.16915818 0.91232222
0.076110646 0.16685468 0.91209322
0.0028210818 0.17339332 0.91153336
0.068680957 0.17377627 0.91131663
0.071367905 0.17241116 0.91306674
0.075744458 0.17098346 0.91451687
0.0035340134 0.17717095 0.91280013
0.0057886657 0.17950806 0.91029996
0.067737594 0.17787138 0.91232681
0.070654742 0.17530313 0.91486704
0.0041066734 0.18019816 0.91380018
0.0075020194 0.18301527 0.91230559
0.010882224 0.18459482 0.91033328
0.063563913 0.18304747 0.91105556
0.065965809 0.18229167 0.91293353
0.0075186971 0.18680996 0.91426688
0.011469775 0.18778773 0.9121334
0.062305197 0.18859716 0.91126668
0.065496229 0.18710251 0.91431159
0.012955895 0.19159129 0.91301346
0.057888333 0.19317496 0.91086668
0.061691809 0.19237673 0.91351354
0.014305505 0.19513315 0.91210002
0.016011849 0.19774333 0.91240001
0.053318996 0.19980611 0.9102
0.056886062 0.19729416 0.91293901
0.060377691 0.19559669 0.91426682
0.017712088 0.20241162 0.91240847
0.053446889 0.20283166 0.91238338
0.055837091 0.20128787 0.91436696
0.019420797 0.2054408 0.91266668
0.021799579 0.20744248 0.9125067
0.052789379 0.20750248 0.91277331
0.022838516 0.21180362 0.91326684
0.048309404 0.21371844 0.91176671
0.051537674 0.21247457 0.91371131
0.026207298 0.21714376 0.91190004
0.074160323 0.17296827 0.91601694
0.075961985 0.17403312 0.91714293
0.072283641 0.17731076 0.91821319
0.076068468 0.17598557 0.91842842
0.0041132639 0.18219003 0.91526693
0.068669476 0.18292634 0.91682494
0.071033187 0.18223043 0.91976666
0.0066864137 0.18939266 0.91716683
0.068334885 0.18787105 0.9180665
0.0081168422 0.19262291 0.91764998
0.011517202 0.19366784 0.91586685
0.063943744 0.1935173 0.91649979
0.066587798 0.19289546 0.91759437
0.0084198155 0.19587491 0.91956657
0.013007487 0.19746135 0.91660678
0.058719631 0.1991577 0.91500038
0.062275223 0.19790654 0.91708571
0.065822579 0.19658071 0.91886675
0.013555614 0.20087853 0.91898334
0.016085548 0.20291609 0.91660017
0.057462163 0.2032789 0.91670001
0.061973237 0.20172884 0.91895831
0.017796604 0.20722209 0.91680008
0.056872804 0.20703518 0.91823328
0.018504497 0.21208644 0.91791326
0.022318631 0.21338062 0.91516703
0.053606041 0.2136488 0.9151004
0.073916212 0.17915201 0.92006665
0.076258585 0.17899492 0.92072421
0.073228613 0.18308325 0.92148006
0.076364271 0.18267275 0.92200017
0.072990879 0.18712845 0.92282397
0.076427773 0.18625852 0.9227668
0.069341652 0.19256222 0.9200834
0.071331792 0.19244651 0.9236334
0.0084484722 0.19820727 0.92244995
0.011018502 0.19890864 0.9217335
0.068093486 0.19754317 0.92176008
0.0093317451 0.20131983 0.92493314
0.01240461 0.20288248 0.92265338
0.063755229 0.20353995 0.92199993
0.066717111 0.20154446 0.92333323
0.013786244 0.20741729 0.92297333
0.016146977 0.20882553 0.92010003
0.059080094 0.20808694 0.92061675
0.061825424 0.20780051 0.92314452
0.016158674 0.21240331 0.92076677
0.074925393 0.18938504 0.92546654
0.076676235 0.18944645 0.92576659
0.073311873 0.19312562 0.92688876
0.07507515 0.19235119 0.92731655
0.072194912 0.19724266 0.9273333
0.075143963 0.19511725 0.92816657
0.0082082124 0.20313562 0.92798883
0.011069507 0.20499703 0.92599982
0.0693231 0.2018726 0.92747766
0.070001088 0.20389643 0.92883343
0.0093692988 0.20731284 0.92865556
0.011649907 0.20854104 0.92644429
0.073684506 0.19930495 0.93160021
0.075411126 0.1975437 0.93146688
0.0059330151 0.20481108 0.93300003
0.072862707 0.2028964 0.93217778
