# .PCD v0.7 - Point Cloud Data file format
VERSION 0.7
FIELDS x y z
SIZE 4 4 4
TYPE F F F
COUNT 1 1 1
WIDTH 973
HEIGHT 1
VIEWPOINT 0 0 0 1 0 0 0
POINTS 973
DATA ascii
-0.028594602 0.027183043 0.1920251
-0.026790641 0.032415312 0.18822587
-0.032472864 0.025076378 0.18758541
-0.032318573 0.030960198 0.1841113
-0.032349266 0.032522321 0.17904913
-0.02062526 0.026628606 0.19388601
-0.028014429 0.018848822 0.19322449
-0.032613441 0.012609033 0.19215286
-0.019475695 0.031979285 0.19120324
-0.025860179 0.024331827 0.19313812
-0.033331048 0.017881423 0.19044128
-0.021041455 0.033762682 0.18685791
-0.034478124 0.019347027 0.18529716
-0.025183741 0.034089055 0.18310311
-0.034335397 0.020766888 0.18084556
-0.033564746 0.029859686 0.17734629
-0.027613867 0.03385891 0.17401785
-0.032720253 0.027007816 0.17374051
-0.026247695 0.010329027 0.19392359
-0.029361466 0.0068934225 0.1935716
-0.010697002 0.02949499 0.19191813
-0.017358784 0.023350265 0.1937238
-0.024710909 0.016070548 0.19341063
-0.031943429 0.0093844216 0.19239244
-0.032610238 0.0059612142 0.19082639
-0.0093046138 0.033199385 0.18783665
-0.012638805 0.032263264 0.18947142
-0.033896979 0.01080658 0.18820772
-0.033715498 0.0072932197 0.18737128
-0.018496871 0.033878088 0.18380591
-0.034130454 0.012440044 0.18272761
-0.019044247 0.033816412 0.17999843
-0.033762932 0.013782928 0.17804977
-0.024364393 0.033780552 0.17531544
-0.033737242 0.019871527 0.1749171
-0.025241969 0.033472046 0.17126304
-0.032570895 0.02481381 0.17074805
-0.02621299 0.03360308 0.16628969
-0.032142669 0.026911473 0.16515979
-0.030549431 0.032185391 0.16065115
-0.0067661796 0.023825772 0.19239151
-0.012985264 0.019019028 0.19264808
-0.019747019 0.011932744 0.19309777
-0.023813402 0.0073393565 0.1940923
-0.026936211 0.0043188818 0.19411805
-0.02983376 0.00067777932 0.1926786
-0.031480316 -0.0020370306 0.19116479
-0.037311204 -0.0071644019 0.19111317
-0.0050577717 0.029715061 0.19045711
-0.0081811268 0.02794167 0.19261608
-0.032875698 0.0029221494 0.18950394
-0.033464171 -0.0013118573 0.1883589
-0.037049521 -0.0062124394 0.18872452
-0.0057321507 0.031963062 0.18668661
-0.033687059 0.0044791913 0.18485108
-0.033758532 0.00073647499 0.18336028
-0.0077875173 0.032950357 0.18288836
-0.011227041 0.033319395 0.18230766
-0.033915259 0.010163859 0.17879742
-0.033603728 0.0058824746 0.18052548
-0.0080483072 0.032634273 0.17880744
-0.012732848 0.03366923 0.177921
-0.033551432 0.011465955 0.17499393
-0.033283286 0.007361454 0.17625314
-0.03282053 0.016881986 0.17120785
-0.033049021 0.012636225 0.17105317
-0.01842997 0.033977862 0.16878873
-0.031646669 0.017759468 0.16682231
-0.024084521 0.034221765 0.16436595
-0.032283518 0.020500099 0.16291016
-0.025402386 0.034266762 0.15993661
-0.033059239 0.021510813 0.15911314
-0.029796693 0.031513482 0.15460694
-0.022189714 -0.0029040715 0.19344112
-0.024555625 -0.0049558217 0.19343162
-0.030441405 -0.010875065 0.19364133
0.00018660724 0.025886994 0.19055828
-0.0027907323 0.023707412 0.19178271
-0.0067568701 0.019432085 0.19216293
-0.012706421 0.012064545 0.19294378
-0.019107394 0.0042857928 0.19334802
-0.024184603 0.0014148029 0.19439951
-0.026683738 -0.0027015051 0.19349065
-0.030391671 -0.0059352005 0.19110453
-0.033433106 -0.0079233851 0.19102913
0.0027787555 0.031002387 0.18787956
-0.00072135124 0.029678155 0.18930507
-0.033767447 -0.0031571994 0.18578821
-0.035988424 -0.006387257 0.18570173
0.0010461351 0.032111984 0.18397072
-0.0019125659 0.031818904 0.18541488
-0.034224786 -0.0021356065 0.18218502
-0.036842752 -0.0058531817 0.18166018
-0.038272716 -0.0079792431 0.17923164
0.00049002282 0.032891169 0.1808897
-0.0033412101 0.032909289 0.18038639
-0.033840489 0.0033256998 0.17821342
-0.034173273 -0.0002117604 0.17783189
-0.036544286 -0.0051999222 0.17800328
-0.0054912083 0.032869924 0.17630756
-0.0077474155 0.032621421 0.17498577
-0.033399008 0.004678648 0.17381158
-0.033818457 0.0012306962 0.17350122
-0.0058120051 0.03309872 0.1725443
-0.0087614907 0.032823369 0.17088625
-0.033535954 0.011011244 0.16861078
-0.03389883 0.0065308725 0.16908836
-0.012840658 0.033886876 0.16621542
-0.033263024 0.012416321 0.16485819
-0.034667291 0.0078794491 0.16413841
-0.017008062 0.033910975 0.16200215
-0.03302215 0.013153265 0.16015124
-0.032883402 0.018584223 0.15634137
-0.024039129 0.032754086 0.15239805
-0.033267986 0.02523673 0.15233082
-0.024258139 0.032616757 0.14812154
-0.03267917 0.027342491 0.14789286
-0.026198244 0.033235047 0.14421028
-0.032809522 0.028873403 0.14309224
-0.029929502 0.031737741 0.13946933
-0.024398182 -0.016766312 0.19711503
0.0048745186 0.01893167 0.1927982
-0.01191847 0.0045477133 0.1928131
-0.014999853 0.00030619837 0.19286543
-0.01867236 -0.0036697667 0.19327158
-0.022177825 -0.0074773389 0.19339499
-0.025500469 -0.010796526 0.19295168
-0.028116768 -0.014154611 0.19365892
0.010897458 0.028740069 0.18942609
0.0082020983 0.026866658 0.19055295
0.0044866791 0.023812776 0.1915378
0.00099452212 0.019500442 0.19184786
-0.002935491 0.016229186 0.19143888
-0.0095531754 0.010002119 0.19256082
-0.014636202 0.0051194597 0.19232288
0.0095139425 0.031205572 0.18692625
0.0062520178 0.029873639 0.18814597
0.0027786773 0.026695916 0.18989372
0.0086180139 0.032620471 0.18202406
0.0043862173 0.032264329 0.18266904
0.0067546088 0.033735584 0.17683792
0.0028788801 0.033270549 0.17799851
-0.034151215 -0.0030719573 0.17525905
-0.035817519 -0.0058541419 0.17461425
-0.038079578 -0.0081173796 0.17724213
0.0024199281 0.033544865 0.17321691
-0.0018570554 0.03296509 0.1740455
-0.033749603 -0.0016802307 0.17086503
-0.035731643 -0.0058027413 0.17089245
0.0010700934 0.033208407 0.16966394
-0.0029873587 0.032782417 0.16932243
-0.034106158 0.0041252496 0.16669017
-0.034125008 0.00020385347 0.16689545
-0.004165479 0.032961003 0.16468459
-0.0082102483 0.03301746 0.16385138
-0.034822155 0.0056826547 0.16170856
-0.034987278 0.0020317342 0.16267383
-0.005022632 0.033189129 0.16104472
-0.0094351014 0.033235036 0.15924913
-0.032981284 0.010985974 0.15716538
-0.033948809 0.0069697145 0.15704983
-0.034750417 0.0028647222 0.15886247
-0.012059428 0.033282146 0.15506145
-0.032540649 0.012234308 0.15321302
-0.033080876 0.0082318028 0.15330273
-0.012968571 0.032868907 0.1512118
-0.03366302 0.018158805 0.14922094
-0.018696405 0.033338428 0.14648283
-0.033883613 0.01914471 0.1455791
-0.019279586 0.034015607 0.1417852
-0.034040403 0.021795236 0.14135051
-0.024572689 0.034287997 0.13703358
-0.032411195 0.028860293 0.13624614
-0.026008321 0.034519862 0.1327357
-0.031916995 0.028909758 0.13149247
-0.029647512 0.032143224 0.12807143
-0.016670249 -0.015767124 0.19642174
-0.019493762 -0.016258735 0.19728464
-0.0098681264 -0.0055128383 0.19291505
-0.014053285 -0.0080296556 0.19340014
-0.018276937 -0.011997812 0.19455335
-0.021951677 -0.014697782 0.19527704
-0.024925251 -0.016108297 0.19487506
0.026249122 0.035707206 0.19299653
0.022468604 0.030547813 0.19303975
0.018819332 0.027595062 0.19127721
0.016571391 0.025363389 0.19113839
0.012328302 0.022319546 0.19215167
0.0085443109 0.01944028 0.19289973
0.0052317004 0.01528878 0.19236434
0.0018606186 0.010919071 0.19104165
-0.001502652 0.0075665908 0.19101238
-0.0083639892 0.00091767474 0.19250265
-0.011496904 -0.0026872843 0.19299936
-0.015325263 -0.0055444115 0.19319287
0.017617641 0.029826652 0.18872195
0.01429518 0.027924456 0.18976507
0.010170372 0.024884507 0.19160831
-0.0013871961 0.013064029 0.1907357
0.015617088 0.031978827 0.18571934
0.012590207 0.031735323 0.18645713
0.013753598 0.033259407 0.18114796
0.011143202 0.033159532 0.18068728
0.013547503 0.033743594 0.1777437
0.010126816 0.03390421 0.17551249
0.0076871011 0.034401961 0.1711742
0.004230638 0.034458019 0.17079842
-0.03521942 -0.0062335115 0.16767195
0.0073243454 0.033962078 0.1673668
0.0036058743 0.033475257 0.16660419
-0.00089127384 0.03313927 0.1667302
-0.034234039 -0.0025351401 0.16439253
-0.035675034 -0.0056153089 0.16442907
0.002176824 0.033392802 0.16302875
-0.0011691749 0.033173673 0.16264483
-0.034439601 -0.0015474409 0.15981162
-0.036061354 -0.0047212075 0.15964121
-0.0029853508 0.033250824 0.15829873
-0.0071750162 0.033427656 0.15646368
-0.034392495 0.0049933139 0.15412924
-0.034541979 0.00084620342 0.1558758
-0.035576403 -0.0030763745 0.1562469
-0.0042235889 0.032939307 0.15395907
-0.0075686174 0.032989208 0.15263453
-0.033914465 0.0066503622 0.15074152
-0.034517355 0.002361225 0.15143111
-0.010081976 0.032986287 0.14854601
-0.033459969 0.011203807 0.14742529
-0.034005061 0.0075386669 0.14602
-0.011828192 0.032837771 0.14354658
-0.033702977 0.0128569 0.14221424
-0.032859519 0.0097023947 0.14161393
-0.033903576 0.015410937 0.1378482
-0.033765033 0.011961178 0.13842952
-0.033809006 0.021339387 0.13479716
-0.020044709 0.034576848 0.13152456
-0.032650355 0.027276985 0.12879926
-0.03382726 0.019286959 0.13082618
-0.028804664 0.032884665 0.12558746
-0.03292916 0.024083894 0.12604225
-0.029066671 0.032495547 0.12052113
-0.033034064 0.025763657 0.12236273
-0.031669635 0.031479072 0.11707371
-0.01311285 -0.016412778 0.19538072
0.023087788 0.025494875 0.19418126
0.021614267 0.021048905 0.19396746
0.017375983 0.016759876 0.19243407
0.014095184 0.014370739 0.19262516
0.010043955 0.01054036 0.19246104
0.0067927879 0.0059626629 0.19164574
0.0033563948 0.0026450397 0.19147539
-0.00042023446 -0.00092068606 0.19178724
-0.0039195335 -0.0036380759 0.19237611
-0.007253652 -0.0065068933 0.19283015
-0.010471389 -0.010601198 0.19268286
-0.013266544 -0.014045246 0.19358999
0.026459169 0.033447281 0.19187665
0.024245409 0.031152006 0.19200292
0.021052135 0.027830187 0.1925821
0.018462142 0.023461344 0.19229227
0.015814241 0.019947749 0.19218582
0.012177646 0.017328072 0.19287372
0.0070385919 0.012374297 0.19262308
0.0042589419 0.0084993355 0.19148105
0.0010480699 0.004961404 0.19158331
0.026831787 0.034399755 0.18716705
0.023600617 0.032133494 0.18777552
0.02033711 0.030211356 0.18864828
0.026659349 0.035453536 0.18375927
0.02295482 0.032823414 0.183312
0.019356733 0.031608481 0.18319839
0.018912632 0.031897314 0.1783894
0.016575295 0.031942535 0.17375845
0.011723315 0.0339991 0.16927212
0.0090249898 0.033902667 0.16435131
0.0080432892 0.033841625 0.16039723
0.0050005652 0.033133075 0.15978706
-0.035412878 -0.0078941891 0.15565595
-0.034453839 -0.011275175 0.15544891
0.0032103378 0.032776773 0.15580976
0.00080008619 0.032383248 0.15524811
-0.033544779 -0.0027924972 0.15265799
-0.035163131 -0.0053393422 0.15303737
-0.0010537496 0.032272436 0.15126091
-0.033236515 -0.0017788634 0.14828244
-0.034627579 -0.0045791492 0.14874816
-0.0026029367 0.032450426 0.1467962
-0.0065474231 0.032815203 0.14637953
-0.034471326 0.0055731544 0.14307171
-0.033707447 0.0014337525 0.14479214
-0.0075410008 0.032947369 0.14198172
-0.033265322 0.0072099837 0.13992783
-0.033784762 0.0032745432 0.13917094
-0.010167805 0.032409865 0.1374765
-0.033360343 0.0087210108 0.13516653
-0.033779681 0.0051618172 0.13582733
-0.033815153 0.014620005 0.13217601
-0.034279067 0.011714275 0.13084579
-0.03351219 0.016569313 0.12704152
-0.034361251 0.012385589 0.12672871
-0.021667434 0.034487844 0.12355494
-0.033684 0.017923215 0.12255609
-0.026716726 0.033081643 0.11941433
-0.033890035 0.020035848 0.11768728
-0.028655466 0.033334792 0.1151489
-0.033131424 0.024762161 0.11471337
-0.028020274 0.033064336 0.10971051
-0.032587621 0.025959156 0.11053622
-0.0018599294 -0.017536616 0.19736847
-0.0020452533 -0.014082223 0.19403923
-0.0049878722 -0.016477944 0.19532517
-0.0094906706 -0.017553613 0.19563511
0.022593591 0.017898597 0.1940127
0.020485502 0.014860583 0.19252974
0.017621698 0.011521362 0.19228032
0.013408612 0.0075683217 0.19289616
0.0096496586 0.0041860766 0.19251087
0.0056055309 0.00032545743 0.19232947
6.7689922e-05 -0.0081871916 0.19229302
-0.0035783947 -0.010878481 0.192669
-0.0074356799 -0.013789231 0.19284207
-0.0098396251 -0.015934564 0.1937246
0.027557047 0.034209669 0.1803233
0.024963796 0.032643706 0.18001604
0.027663425 0.034327004 0.17595807
0.024165679 0.03260297 0.17657298
0.023497138 0.033035893 0.17167854
0.01945072 0.03213641 0.17228085
0.02227813 0.033681631 0.1678198
0.017886216 0.032671157 0.16791421
0.017011136 0.032841489 0.16268671
0.013760197 0.032661788 0.16209015
0.015774973 0.033171162 0.15957716
0.011821067 0.033056583 0.15742075
-0.03391147 -0.011779229 0.15306184
0.010116227 0.033138856 0.1537559
0.0066655027 0.032633014 0.15336168
-0.033382308 -0.0098498641 0.14903045
0.0052505089 0.032739691 0.14892915
0.0016384618 0.032051958 0.14899346
-0.032940276 -0.0031490279 0.14554203
-0.034045473 -0.007416755 0.14513743
0.0037989616 0.032542095 0.14443868
0.00089203194 0.03225055 0.14425421
-0.033089802 -0.0020764619 0.14232802
-0.034041226 -0.0052837543 0.14062628
-0.00086367317 0.032656301 0.1401124
-0.033870082 0.00049157254 0.13824373
-0.035369843 -0.0036937017 0.13675496
-0.038893506 -0.005780071 0.1372827
-0.0019670241 0.032134492 0.13527378
-0.0059471224 0.032273829 0.13557583
-0.034245886 0.0027625859 0.1335434
-0.036211494 -0.002737958 0.13227028
-0.039292388 -0.0052226447 0.1338959
-0.007530014 0.032036096 0.13141018
-0.010443162 0.031772889 0.13128057
-0.033712998 0.0077074943 0.12941289
-0.033837292 0.0038737701 0.1286816
-0.0082489159 0.032190226 0.12658006
-0.011810601 0.032344967 0.12640625
-0.034481786 0.010623943 0.12415594
-0.034087442 0.0059846025 0.12478381
-0.033626597 0.015040958 0.11970502
-0.03434759 0.011443191 0.11980361
-0.019759296 0.03300982 0.11693746
-0.033460181 0.012753756 0.11543655
-0.020525789 0.033525772 0.1122033
-0.03415681 0.019679129 0.11213464
-0.031458639 0.028001714 0.10783762
-0.033319894 0.019968219 0.10754657
-0.027879378 0.032934561 0.10421175
-0.031966232 0.025725383 0.10318351
-0.03147262 0.030083191 0.098466456
0.00506709 -0.015367892 0.19571891
0.0013094768 -0.016759802 0.19698176
0.023960046 0.010750884 0.19506696
0.022516491 0.0060352162 0.19437343
0.019041924 0.0026601162 0.19448906
0.014790273 -0.0009938064 0.19346869
0.0068774628 -0.0078344839 0.1928089
0.0040973467 -0.012247115 0.19322577
0.00035458803 -0.014306528 0.19487956
0.026312519 0.013668124 0.19314989
0.023518724 0.012442023 0.19320706
0.019726047 0.0084402999 0.19258606
0.017126307 0.0061779879 0.19269124
0.012567661 0.0012600818 0.1928502
0.0087669957 -0.0028654505 0.1924552
0.0028485479 -0.0082833618 0.19229242
0.026949847 0.03490708 0.17087305
0.025623769 0.034019332 0.17005301
0.025980636 0.036148645 0.1671437
0.023777526 0.034662284 0.1657691
0.026588496 0.036044978 0.16208351
0.023123492 0.034670882 0.16121626
0.019854413 0.033544801 0.16181928
0.02123452 0.034869693 0.15711111
0.018040383 0.033761155 0.15674523
0.016895942 0.032734893 0.15218261
0.012880301 0.032908142 0.15147036
-0.032748509 -0.01396509 0.14571801
0.012513059 0.032876138 0.14713109
0.0076774927 0.03314843 0.14589459
-0.034071602 -0.012433156 0.14323574
0.010926591 0.032486808 0.14313659
0.0062154606 0.032960247 0.14260131
-0.034736231 -0.010664812 0.13889688
0.0045710541 0.033436332 0.13779205
0.0019236179 0.032723859 0.13669714
-0.037801992 -0.0093203261 0.13687557
0.0041840849 0.033070687 0.1329225
0.00039750151 0.032865152 0.13331559
-0.035674348 -0.0027193017 0.1303069
-0.0013749162 0.032595355 0.12892127
-0.004535812 0.032285862 0.12926427
-0.034412496 0.0015718937 0.12647778
-0.034717981 -0.002019275 0.12633759
-0.036679491 -0.0053980146 0.12578923
-0.0019173203 0.032861836 0.12491983
-0.00578913 0.032820754 0.12449533
-0.034239363 0.003510138 0.12255365
-0.0073389942 0.032673702 0.11994743
-0.01049893 0.03261856 0.12006348
-0.034245711 0.0088169891 0.11759204
-0.034443837 0.0055014305 0.11784643
-0.012441334 0.032561298 0.11606264
-0.033988167 0.010282882 0.11368263
-0.033627804 0.0059887161 0.11378336
-0.033504609 0.016195124 0.10948271
-0.033075966 0.011825772 0.11014003
-0.019578293 0.033012122 0.10551542
-0.033363342 0.01782443 0.10495347
-0.032544628 0.023478987 0.1009258
-0.023679746 0.03366382 0.097517788
-0.033231877 0.024823971 0.096103609
-0.028014779 0.0331215 0.092729211
-0.033362016 0.026249727 0.091907322
-0.031434324 0.030662484 0.087778032
0.011537779 -0.014925299 0.19347751
0.02535665 0.0054447064 0.19542509
0.018280171 -0.0010420522 0.19335938
0.010899618 -0.011888677 0.19226545
0.031029655 0.032087874 0.16018647
0.027077643 0.035794452 0.15984327
0.025654806 0.035061132 0.15817758
0.025049465 0.034143232 0.15414554
0.024130436 0.033759467 0.14895463
0.019994728 0.032881375 0.14966297
0.019195471 0.03313284 0.14485985
0.015468172 0.032547336 0.14404058
0.017729752 0.032870583 0.1412555
0.014106358 0.032543913 0.14049262
0.0091192424 0.032315597 0.13902104
0.012939888 0.032759104 0.13584757
0.0092545971 0.032420695 0.13609761
0.011625241 0.032706499 0.13223422
0.0076067215 0.032177571 0.13087589
0.0051469309 0.032724369 0.12544322
0.00197428 0.032563869 0.126454
-0.034212679 -0.0047871806 0.12267375
0.00087700412 0.03265404 0.12151951
-0.033615381 0.0010364931 0.11896628
-0.032380652 -0.0032320581 0.11854321
-0.00040170364 0.032567918 0.11665571
-0.0038224207 0.032468624 0.11725801
-0.033608839 0.0011931639 0.11510825
-0.033598594 -0.0010552388 0.1119045
-0.0056302389 0.03208714 0.11314601
-0.0086881425 0.031352796 0.11258221
-0.033752058 0.0036194706 0.11032152
-0.034052242 -0.00050722621 0.1104399
-0.0069588525 0.032298069 0.10728985
-0.009844387 0.03190358 0.10809743
-0.032896616 0.0094520338 0.10675561
-0.033618875 0.0047586141 0.10583675
-0.011163264 0.032541752 0.10352898
-0.032686599 0.010522434 0.10218948
-0.016230606 0.032341193 0.099465787
-0.033562213 0.012552594 0.097525775
-0.033812758 0.018082825 0.093787313
-0.020826299 0.032393791 0.090302587
-0.032866519 0.023978032 0.088657975
-0.021908095 0.03254934 0.086918294
-0.031010015 0.030423399 0.084390104
-0.03277183 0.020537779 0.085598767
-0.0305738 0.03017321 0.080974042
-0.03048623 0.03028826 0.077439487
0.019257115 -0.012222788 0.19176567
0.028880553 0.034844834 0.15187371
0.02722203 0.034217559 0.15131527
0.026863433 0.034367673 0.14719138
0.024960153 0.034856901 0.14293411
0.021094859 0.034072373 0.14230955
0.024337197 0.035559632 0.13799667
0.019508036 0.033916265 0.13880175
0.022796748 0.03540042 0.13441372
0.018524468 0.034676567 0.13426444
0.015355146 0.033505682 0.13387841
0.018114954 0.033488266 0.12966269
0.013725139 0.032809563 0.12935859
0.010509375 0.031760402 0.12931329
0.012690849 0.032304134 0.12464911
0.0092517519 0.032171793 0.12519652
0.0079124123 0.032367356 0.12000698
-0.031907126 -0.0070351735 0.11644548
-0.032865316 -0.0092105605 0.11704785
0.0061400207 0.032505233 0.11596489
0.0027236352 0.032675207 0.11551005
-0.032469705 -0.0049961954 0.11294085
-0.033805743 -0.0089351386 0.1113016
0.00023582391 0.032933936 0.11108917
-0.0032859752 0.032277279 0.11012274
-0.033712573 -0.003455095 0.10791898
-0.035034444 -0.0074592764 0.10751647
-0.00051178224 0.032873832 0.10643196
-0.003751833 0.032664388 0.10591155
-0.034245823 0.0031694537 0.10327178
-0.034299225 -0.0011399351 0.10324043
-0.0061080316 0.032786425 0.10154307
-0.0091179097 0.03262601 0.10055274
-0.033310194 0.0086706821 0.099214852
-0.034243256 0.0049087228 0.099572837
-0.034563866 0.00054328144 0.098293543
-0.0064171813 0.032492198 0.097111285
-0.0097786589 0.032403845 0.096741736
-0.033889733 0.0094368933 0.095928073
-0.034632437 0.0062132534 0.094766319
-0.011978097 0.032949768 0.092796504
-0.034497011 0.011473653 0.091358602
-0.034590427 0.0080589838 0.090465188
-0.013706 0.033513725 0.087263703
-0.033311013 0.016358206 0.086488008
-0.034227844 0.013276292 0.086482346
-0.022156306 0.032248698 0.083496749
-0.032613225 0.018580612 0.082347155
-0.019658837 0.033039469 0.079932213
-0.032264486 0.023321727 0.07833308
-0.026078377 0.031770952 0.074427664
-0.032327883 0.025378739 0.073973238
-0.030344006 0.030579938 0.069868147
0.032123234 0.032337081 0.14630681
0.025647404 0.035919089 0.13633373
0.023514392 0.035031516 0.13094738
0.021179106 0.034976292 0.13100159
0.024707979 0.03574615 0.12715399
0.021275148 0.033063702 0.12601167
0.018031143 0.031637404 0.12577313
0.019914513 0.032403044 0.12232977
0.016234711 0.032080323 0.12160456
0.01443661 0.032398749 0.11693805
0.010387489 0.032782465 0.11806554
-0.031350546 -0.012346783 0.11399692
0.013402647 0.032530654 0.11350852
0.0094638793 0.032168552 0.11319774
-0.034390565 -0.011325361 0.11068738
0.0082014622 0.032038454 0.10813308
0.0055434294 0.031373292 0.108657
-0.035922982 -0.0096813403 0.10583401
0.0036523743 0.031830911 0.10431367
-0.03392522 -0.0050827796 0.10187721
-0.034323834 -0.0084741553 0.1010052
0.00096096843 0.032493215 0.099972546
-0.0021045683 0.032620806 0.10005754
-0.033434927 -0.0039646672 0.096623063
-0.0030551227 0.032287873 0.095014811
-0.033990353 0.0025781915 0.092097461
-0.033372559 -0.00048124045 0.092079878
-0.0051440196 0.032605644 0.090869009
-0.0099377809 0.033024184 0.090109885
-0.034050722 0.0044054966 0.088105261
-0.0062253699 0.033083726 0.08620435
-0.0094816471 0.033059862 0.086444139
-0.034062564 0.010155465 0.084305346
-0.033920746 0.0057172691 0.08411473
-0.01129871 0.033411253 0.081881881
-0.032077711 0.015424233 0.079202414
-0.033421818 0.011266821 0.079862893
-0.033608329 0.0075064301 0.079475522
-0.012707699 0.033193164 0.077376246
-0.032392986 0.017134702 0.075261652
-0.032996505 0.013235804 0.075743437
-0.021559108 0.031728078 0.072388947
-0.031995337 0.018910555 0.070967972
-0.022792924 0.03200059 0.067804515
-0.031825662 0.02428098 0.067293584
-0.02335212 0.032292087 0.062550604
-0.031271175 0.027283693 0.062194049
-0.025054466 0.03283364 0.059039772
-0.031449024 0.027697166 0.058047414
-0.031422757 0.029018352 0.055026352
0.027219811 0.03890064 0.1243453
0.025502691 0.035978962 0.12459874
0.023182508 0.033740371 0.12350363
0.026193414 0.035698786 0.1204834
0.021623617 0.033224955 0.12030953
0.022004163 0.032782204 0.11596948
0.017933365 0.032599621 0.11539131
0.014797882 0.032552406 0.11085111
0.011559993 0.032283846 0.11025465
0.01408804 0.032476116 0.10612482
0.010835609 0.032725751 0.10632801
0.008582049 0.032155704 0.10197437
0.0053778598 0.032041892 0.10207456
-0.034297761 -0.010187906 0.098570228
0.008636483 0.032295611 0.097574115
0.0046248576 0.032238964 0.09709996
-0.033439193 -0.005282565 0.093464911
-0.034287553 -0.008027114 0.094376922
-0.034387458 -0.011494971 0.092492163
0.0027945135 0.031618822 0.092388928
-0.033193391 -0.0042008245 0.089892089
-0.03477798 -0.0072923312 0.088946521
-0.036132067 -0.0093753925 0.086414695
-0.0019665947 0.032768644 0.088428199
-0.033403356 -0.0013846457 0.085487425
-0.034963362 -0.0057077128 0.08440274
-0.0035497779 0.032937672 0.083721578
-0.033825845 0.0036690887 0.081115723
-0.033701077 -0.00026227161 0.080661476
-0.0053374199 0.032695893 0.079381168
-0.0083637731 0.033376608 0.079304457
-0.033550695 0.0057600066 0.076893151
-0.033813551 0.003030045 0.076981723
-0.010002306 0.033371266 0.075026035
-0.03345542 0.010776605 0.074130595
-0.033745434 0.0085662939 0.072468758
-0.010920824 0.033001669 0.071170092
-0.032134425 0.015925795 0.070297599
-0.032514192 0.01324692 0.068219125
-0.03360128 0.0091631049 0.069133759
-0.020508131 0.032487653 0.065676987
-0.031569872 0.015058111 0.063786447
-0.021003997 0.033207554 0.062234342
-0.022675235 0.033283304 0.056956708
-0.032345228 0.026376711 0.055999339
-0.024156485 0.033088371 0.052781522
-0.031499531 0.027766861 0.051608026
-0.02816039 0.031385437 0.047853649
0.02638592 0.034906577 0.1146369
0.023639727 0.033396631 0.11378914
0.026478881 0.035251826 0.10974747
0.022905428 0.032672536 0.10930359
0.019256908 0.031846505 0.10934067
0.022000115 0.031892397 0.10502166
0.018352054 0.031946093 0.10478354
0.015613883 0.032629486 0.10041028
0.012539712 0.032117255 0.10062009
0.014675593 0.033678591 0.095760643
0.011267937 0.032782551 0.096135378
-0.033537872 -0.012460904 0.09356302
0.013502652 0.03417787 0.092133343
0.0094820391 0.032824393 0.091632307
0.0063121365 0.031956717 0.091423273
-0.034841746 -0.010875946 0.088996887
0.0084061874 0.032607157 0.086643636
0.0050561158 0.031539168 0.086453319
-0.034098312 -0.0041338392 0.082229972
-0.036380716 -0.0090430873 0.084686577
0.003240969 0.031615488 0.082032979
0.0003065113 0.031663932 0.080999553
-0.033156961 -0.002578157 0.078535736
-0.035311788 -0.0054903589 0.079436898
-0.0014041588 0.03209272 0.076984465
-0.033257514 -0.00069207884 0.074531019
-0.034785844 -0.0052040657 0.0739972
-0.037934549 -0.0070532961 0.076365352
-0.002513309 0.03271614 0.072759986
-0.0072227847 0.032820344 0.071166277
-0.033034608 0.0048465617 0.071454525
-0.033274353 0.001288509 0.070113838
-0.0046957983 0.033416584 0.068620324
-0.0088890521 0.032389905 0.067651808
-0.032821301 0.0068700742 0.065977693
-0.033217445 0.0028474471 0.066230059
-0.0089748269 0.032745242 0.063747823
-0.013346513 0.032486748 0.062828362
-0.031778645 0.012381225 0.061773837
-0.032577947 0.0076804701 0.061891139
-0.010938504 0.032647151 0.059529722
-0.031173281 0.013154329 0.057388067
-0.020603592 0.033343107 0.053752542
-0.031725235 0.015154284 0.05296582
-0.021698996 0.033163302 0.049352586
-0.018343886 0.033881787 0.046507239
-0.027119329 0.031579092 0.044539869
-0.031506881 0.022538358 0.044757664
-0.027057482 0.031293057 0.040303111
-0.031696085 0.024098419 0.041607797
-0.030651886 0.028542349 0.036592126
0.028464023 0.033813968 0.10498863
0.02510868 0.033414301 0.10637945
0.027812799 0.033448249 0.10307044
0.024587307 0.03230717 0.10171467
0.022953803 0.032275755 0.096627831
0.019271443 0.032725558 0.098675489
0.01802356 0.033793639 0.093248606
0.016660582 0.033669189 0.089587629
0.012909439 0.032733206 0.088546634
0.011633663 0.032040488 0.083657801
0.010081107 0.031582907 0.079023182
0.0066987993 0.031588279 0.079313517
0.0043445416 0.031667329 0.074779332
-0.035709094 -0.0068489518 0.071195543
-0.036853716 -0.0080851158 0.072108924
0.0035903379 0.032540247 0.069861293
-0.00032967702 0.033116877 0.069767773
-0.03281394 -0.0025286451 0.068047702
-0.034542903 -0.0052293465 0.067635834
-0.036231413 -0.0086334003 0.068352759
-0.00091118738 0.032818172 0.065731108
-0.033022828 0.00093236007 0.06343025
-0.033229642 -0.0043298826 0.063041031
-0.0041103847 0.032718122 0.062155902
-0.0072863363 0.033582114 0.061249197
-0.032076258 0.0052050753 0.058326781
-0.032546654 0.0018466907 0.05849117
-0.0083471071 0.032587007 0.057033598
-0.031377975 0.011098969 0.054508805
-0.031505547 0.0070782918 0.05454582
-0.0098551232 0.032662529 0.052116573
-0.013305203 0.033191197 0.051710546
-0.032051072 0.011967097 0.051199734
-0.031968087 0.0089137666 0.049819112
-0.010497806 0.032999676 0.047922194
-0.0316603 0.01449758 0.046467304
-0.032266654 0.010018608 0.045901239
-0.019849373 0.03328187 0.042748868
-0.031709135 0.015691232 0.041668594
-0.021348264 0.033153258 0.038846791
-0.022648502 0.032671683 0.034738541
-0.03106243 0.028056785 0.033642948
-0.027065979 0.031436965 0.029948711
-0.03208397 0.025190732 0.028658092
0.029396685 0.033667587 0.10106856
0.028519183 0.033863485 0.097342312
0.02541293 0.032858249 0.096257865
0.027859641 0.034353115 0.092291415
0.024573963 0.033225358 0.091670454
0.023429155 0.032772094 0.087768018
0.018502316 0.032169525 0.08645314
0.017794749 0.031411298 0.082765579
0.014469827 0.031755425 0.082057297
0.017405406 0.031560335 0.078380525
0.013523075 0.032051079 0.078149974
0.011654141 0.032511096 0.073815346
0.0082401652 0.031454645 0.073672116
0.010004153 0.033027876 0.068973362
0.0065023545 0.032906171 0.069172084
-0.035320986 -0.010732173 0.064562321
0.0050066896 0.032973818 0.064421773
-0.031903848 -0.0032650633 0.06191951
-0.033738554 -0.0069829701 0.061046481
-0.034508143 -0.011089075 0.061131299
0.0045227911 0.031439874 0.059917629
4.536286e-05 0.031948585 0.059463203
-0.03199283 -0.0023490945 0.056739807
-0.033243619 -0.0061117485 0.056394935
-0.035643496 -0.0088203959 0.055367291
-0.0013907095 0.031736121 0.054841042
-0.0045709489 0.031386718 0.054249585
-0.031564038 0.0041040825 0.052480996
-0.032432333 0.00052878074 0.052907228
-0.0050419252 0.031573988 0.049861491
-0.032230157 0.0055781808 0.048986793
-0.03283776 0.0022228574 0.048231781
-0.008220192 0.03241805 0.046298385
-0.032013733 0.012318094 0.042934775
-0.032512203 0.0072304234 0.044020057
-0.033090301 0.0036305655 0.044561088
-0.010533264 0.033449668 0.041843235
-0.031800527 0.013873254 0.03952527
-0.032806367 0.0096609695 0.039602876
-0.010879145 0.034116913 0.037115037
-0.018664462 0.032563765 0.035231054
-0.032226812 0.01500042 0.0359357
-0.033274908 0.011557541 0.035710633
-0.020041134 0.032401007 0.031634569
-0.032989495 0.016343646 0.031059384
-0.026126487 0.031155124 0.026496768
-0.033306792 0.01835968 0.026502311
-0.025989573 0.031553097 0.023179591
-0.032384031 0.0234232 0.022309482
-0.03031024 0.028685147 0.019084096
0.029283859 0.033657178 0.08500129
0.026841659 0.031967469 0.084236324
0.022187052 0.031175284 0.084047735
0.025718462 0.030502547 0.079817295
0.021828491 0.030964408 0.079541206
0.023623733 0.034866568 0.073754907
0.019486565 0.032429859 0.075471818
0.018654957 0.033052146 0.070504189
0.014487243 0.032700159 0.070106447
0.017252088 0.032671846 0.066551089
0.013794819 0.032514337 0.066164076
0.01132249 0.032456096 0.062521815
0.0088608125 0.031907804 0.05998975
-0.033997905 -0.012344369 0.057314932
0.0060597872 0.03096503 0.05670017
-0.033396136 -0.0070843641 0.053787649
0.0055571608 0.030967578 0.05273205
0.002230145 0.031322591 0.052094698
-0.031890087 -0.0027854955 0.049556315
-0.033235732 -0.0059706802 0.049692094
-0.035317227 -0.0089818509 0.049805701
-0.00037559215 0.031000374 0.047903061
-0.032317918 -0.0013339948 0.045359135
-0.032922599 -0.0047896588 0.045009732
-4.1050836e-05 0.031174503 0.044198573
-0.0040602777 0.030880721 0.043039858
-0.032056753 0.00070441514 0.040916145
-0.0056771617 0.031198546 0.038787425
-0.032557558 0.0058367895 0.037088156
-0.032268368 0.0031003412 0.036300361
-0.0079226512 0.032543968 0.034457564
-0.03262661 0.0081722969 0.032148361
-0.0094485488 0.033154663 0.030318201
-0.012852197 0.033259403 0.029750645
-0.032806858 0.010802485 0.027983963
-0.017984215 0.032586016 0.024089396
-0.019581741 0.032533932 0.020223379
-0.032778792 0.018144548 0.019563973
-0.02495547 0.032199953 0.01565218
-0.031607561 0.022972018 0.015405834
-0.021346342 0.031914629 0.012580574
-0.029222785 0.02798566 0.011442423
-0.026713682 0.030419657 0.0082499385
0.032057866 0.031027704 0.085273921
0.028801525 0.031009341 0.080639422
0.030803842 0.032709636 0.079547584
0.027310245 0.031496014 0.07783705
0.027071076 0.03244926 0.074801743
0.024825666 0.03414138 0.068939745
0.02493557 0.033653978 0.065228224
0.020182984 0.032831673 0.064691842
0.019075051 0.032093279 0.05944562
0.015433942 0.031996131 0.06025219
0.013676494 0.031497695 0.055766165
0.0099877194 0.030415621 0.054972827
0.013038168 0.030930344 0.05080086
0.0090887174 0.030742163 0.050381362
0.0069959527 0.031272788 0.045734227
0.0035820073 0.03100873 0.046376169
-0.033342581 -0.0078013362 0.043590069
-0.034820754 -0.010285636 0.042999148
0.0056064846 0.031765848 0.041436732
0.0020879311 0.031268887 0.041291356
-0.031182479 -0.003098852 0.038308561
-0.032419089 -0.0055037737 0.038592696
-0.034912899 -0.0090039643 0.037830532
-0.03719642 -0.012104458 0.036658347
0.00027009379 0.031412564 0.036657989
-0.0027832016 0.030763917 0.037967861
-0.031667925 -0.00095281564 0.034958899
-0.032458786 -0.0045055589 0.0332039
-0.035420749 -0.0079188319 0.03293705
-0.037830785 -0.0106609 0.033053637
-0.0010045692 0.031870473 0.031181633
-0.0043800669 0.031771559 0.032602847
-0.031990506 0.0018314989 0.029970884
-0.0056963442 0.032388724 0.027683675
-0.031804692 0.0061530974 0.025548279
-0.031868514 0.0030934792 0.026365221
-0.0075734444 0.03253071 0.023785949
-0.010201788 0.032049753 0.022462308
-0.031678598 0.008545679 0.021457255
-0.031645223 0.013134539 0.017407358
-0.031435899 0.010434465 0.017729938
-0.017269276 0.032450516 0.014875114
-0.019332495 0.032468595 0.0095438361
-0.031247225 0.021957694 0.0089124441
0.027955312 0.034233417 0.066110611
0.025635634 0.033310149 0.061484873
0.022626465 0.032635745 0.061607659
0.026156059 0.032000639 0.05725646
0.022918224 0.031600047 0.056595266
0.019984879 0.031918332 0.053361118
0.016337706 0.031571344 0.052256823
0.015437187 0.030752588 0.047687829
0.015093917 0.030649723 0.044159055
0.01114979 0.030895753 0.044306636
0.0089519043 0.03149195 0.039637983
0.0073541692 0.031729206 0.03505218
0.0041111987 0.03129195 0.035512269
-0.032888506 -0.0046953792 0.030736148
-0.036542863 -0.0082231266 0.030601442
0.0064353645 0.031721111 0.031225502
0.003518993 0.031064652 0.030288458
-0.031913169 -0.0043648072 0.027139962
-0.035203755 -0.0082892776 0.026552975
0.00078614708 0.031311505 0.0254668
-0.031276777 0.00093311258 0.023216963
-0.031444427 -0.0035016518 0.024152815
-0.003084667 0.031443126 0.021224558
-0.031201011 0.0076998584 0.018023133
-0.030861989 0.0023360727 0.018775463
-0.0061507663 0.031382434 0.016945839
-0.0087654218 0.031007292 0.016590238
-0.030988332 0.0084462827 0.014731646
-0.030987432 0.0041753482 0.013887227
-0.0070424853 0.03201744 0.011833429
-0.0098807812 0.031491995 0.011628091
-0.031264707 0.0093523804 0.010355532
0.031133737 0.031693947 0.060869634
0.027170949 0.032739975 0.055731714
0.026717992 0.032555245 0.05140084
0.023949677 0.03165083 0.051265836
0.026427083 0.032633372 0.04676348
0.022427091 0.030936871 0.046462774
0.018115975 0.03114786 0.046046555
0.016422015 0.030739041 0.041873693
0.015359541 0.030725352 0.036928594
0.011234493 0.031376719 0.037007272
-0.032440566 -0.016688596 0.036083758
0.014456814 0.030966658 0.032796741
0.010722398 0.031621248 0.032562315
0.0087658372 0.031596445 0.028093219
0.0051937317 0.030856524 0.027034283
0.0087076146 0.031637941 0.024071574
0.0044294605 0.030704139 0.023002267
-0.031154558 -0.0052693943 0.020067453
-0.03328833 -0.0085155051 0.021327317
0.0026225904 0.030915344 0.019789338
-0.0017631929 0.031155009 0.018085778
-0.03105019 0.00014134683 0.016393006
-0.030828821 -0.0045888638 0.015674055
-0.032048281 -0.0088595049 0.016749978
0.0010704407 0.030965449 0.015218914
-0.0029143412 0.031346321 0.014483213
-0.031365819 0.001498525 0.011950791
-0.030472726 -0.0028113266 0.011975467
-0.0037429351 0.032085169 0.0099315643
-0.031525835 0.0035097441 0.0078278184
0.030894909 0.030706761 0.047546625
0.028677756 0.032324463 0.043930173
0.024449173 0.031209102 0.043738127
0.028379889 0.03130462 0.040588081
0.023728736 0.030538144 0.040043771
0.019922871 0.02989793 0.039994776
0.023975329 0.031228796 0.034597397
0.020555016 0.02967854 0.035169184
0.018063238 0.030079216 0.030247211
0.014887252 0.031076696 0.026068628
0.011780028 0.031695168 0.026015937
0.014791418 0.031570919 0.020938158
0.011177076 0.031242091 0.020806551
-0.032606468 -0.010829444 0.018024504
0.010201336 0.031232525 0.016256273
0.0055985982 0.030449133 0.016309679
-0.031488255 -0.0068117753 0.013322353
-0.031137589 -0.010559387 0.012946546
0.0046675233 0.030791065 0.011593699
-0.031030973 -0.0050667413 0.0097540021
0.030678872 0.031600196 0.039521813
0.027984161 0.029636061 0.036530554
0.024575265 0.030796641 0.032915652
0.023414252 0.031119451 0.027908981
0.020135872 0.030631106 0.028336763
0.022290058 0.031380538 0.023197055
0.019779593 0.030134562 0.023834407
0.018392138 0.031032648 0.019295633
-0.029862814 -0.016283011 0.015235543
0.016182393 0.032174505 0.014555156
0.010365045 0.031620793 0.013563693
-0.030777514 -0.012597469 0.011449516
0.014935873 0.032186829 0.011281788
0.011047321 0.031554036 0.010271251
0.025142204 0.031198027 0.021481514
0.023364056 0.030877907 0.016742885
0.020002626 0.031676371 0.016936362
0.020823944 0.031216173 0.012843668
0.027550446 0.029466689 0.014604688
0.02590408 0.029791616 0.010159969
