# .PCD v0.7 - Point Cloud Data file format
VERSION 0.7
FIELDS x y z
SIZE 4 4 4
TYPE F F F
COUNT 1 1 1
WIDTH 1367
HEIGHT 1
VIEWPOINT 0 0 0 1 0 0 0
POINTS 1367
DATA ascii
0.037406519 0.011462309 0.77817285
0.013684824 0.015968936 0.77980012
0.017301513 0.016676081 0.77893758
0.02258624 0.016982174 0.77870959
0.0274661 0.017107742 0.77876347
0.031706676 0.017122982 0.77950013
-0.0067061377 -0.071387768 0.7833333
0.034082215 -0.071142308 0.78064013
0.037723325 -0.071145125 0.780671
0.041407298 -0.071220689 0.78150004
-0.011099863 -0.067082621 0.78410655
-0.0074184048 -0.067561418 0.78121567
0.038428199 -0.069650874 0.78020012
0.043319546 -0.067780666 0.78093618
0.046426058 -0.066656947 0.78255063
-0.011803076 -0.062556364 0.78220576
-0.0091101574 -0.063400805 0.78067786
0.044259932 -0.063861959 0.78040022
0.047105771 -0.062383525 0.78232515
0.051822957 -0.062238224 0.78227955
-0.015428906 -0.055206001 0.78116673
-0.013500962 -0.059140015 0.78194457
0.048140477 -0.059022371 0.78038901
0.052357364 -0.057635348 0.78174639
-0.01540652 -0.05367488 0.78003347
0.053526945 -0.052570906 0.78210974
0.056193292 -0.052519608 0.78444439
-0.021823891 -0.04568911 0.78408903
-0.018598996 -0.047976971 0.78173906
0.05401453 -0.047697138 0.78113914
0.057004701 -0.046870064 0.78409529
0.061094861 -0.046214674 0.78476542
-0.022037469 -0.042226437 0.78298903
-0.01977337 -0.043523479 0.78013355
0.054438826 -0.043530803 0.78026682
0.057156689 -0.042035587 0.78330487
0.060594305 -0.040853545 0.78460002
-0.022020707 -0.037828412 0.78240567
-0.019770835 -0.036262739 0.78003347
0.057648115 -0.037982322 0.78182936
0.060890876 -0.037352603 0.7846489
-0.022256838 -0.032480434 0.78214085
-0.019769991 -0.031908333 0.78000015
0.058255736 -0.032999523 0.78126681
0.061100788 -0.031763934 0.78358006
-0.025732443 -0.027710512 0.78437781
-0.0227396 -0.027626961 0.78201866
-0.019770272 -0.027555889 0.78001124
0.0588145 -0.0290213 0.78040016
0.060473319 -0.027663305 0.78303343
-0.025717862 -0.024777902 0.78393346
-0.022614285 -0.022740675 0.78226984
-0.019774001 -0.022481464 0.78015852
0.058149051 -0.022130687 0.78319347
0.06164407 -0.023875752 0.78305936
-0.022041129 -0.017468242 0.78313351
-0.019422332 -0.017049968 0.78063345
0.054452769 -0.016683079 0.78046679
0.056464173 -0.017468099 0.78311682
-0.021690778 -0.013471778 0.78368342
-0.018348491 -0.012341206 0.78139186
0.054477189 -0.012333046 0.78081679
0.057492696 -0.012582893 0.78401226
0.060589157 -0.01458118 0.78453332
-0.017208869 -0.0074108816 0.78249681
-0.013961881 -0.0072472305 0.78060007
0.053488635 -0.0070484341 0.7815572
0.056223452 -0.0080172922 0.78486562
-0.015486185 -0.0036329026 0.78406668
-0.012697712 -0.002711473 0.78112102
0.048628379 -0.0014391744 0.78043348
0.052171256 -0.0028984398 0.78260881
-0.012038798 0.0019526465 0.78172237
-0.0085024359 0.0040054889 0.78055012
0.044261191 0.0029165705 0.78042239
0.047393002 0.0023940129 0.78186989
0.050942253 0.0020978462 0.78403813
-0.011461676 0.0069386926 0.78381687
-0.0076166005 0.0074120034 0.78126681
-0.0037703558 0.0079977084 0.78045011
0.043297686 0.0074918019 0.78177649
0.047195908 0.0071209762 0.78382516
0.050368417 0.006582669 0.78486657
-0.0067100539 0.011050167 0.78364772
-0.0023211776 0.012386423 0.7824769
0.0022357157 0.013637368 0.78123349
0.038147971 0.01423925 0.78040677
0.04281275 0.012194709 0.78294253
0.046468958 0.010720256 0.78493327
-0.00086404663 0.016071329 0.78479987
0.0029879315 0.017365664 0.78326684
0.0078837182 0.017458519 0.78150016
0.012062657 0.017622126 0.78072095
0.017332267 0.018882599 0.78031677
0.021697363 0.018882196 0.78030014
0.027519833 0.018883001 0.78033352
0.033704039 0.017793763 0.78030849
0.037745271 0.017449133 0.78111404
0.041836351 0.01711945 0.78269643
0.0049901777 0.021179352 0.7847333
0.0080872299 0.02169425 0.78355014
0.012401476 0.022371106 0.78229117
0.017357422 0.022545801 0.78145635
0.022461392 0.022548715 0.78155571
0.027560122 0.022546656 0.7814855
0.032663126 0.022547893 0.78151131
0.037223052 0.021985646 0.78267288
0.040754236 0.021132074 0.78296685
0.01303594 0.026281537 0.78453338
0.017607806 0.027582074 0.78376383
0.02250981 0.027695678 0.78324479
0.027089752 0.027164437 0.78367519
0.031328522 0.026283771 0.78460008
0.021083713 0.030659692 0.78453338
-0.011169135 -0.071904182 0.78900003
-0.0090933265 -0.072071262 0.78760004
-0.017063975 -0.066068865 0.78942353
-0.0132053 -0.067080736 0.78750724
0.04895965 -0.065761425 0.78575003
-0.020018803 -0.060959511 0.78981674
-0.017061986 -0.062389284 0.78931767
-0.014105566 -0.063068606 0.78863329
0.048937846 -0.064271152 0.78540003
-0.021236589 -0.05726051 0.78945494
-0.017519236 -0.057137594 0.78775918
0.054787658 -0.056956474 0.7852667
0.056285169 -0.056989934 0.78572702
-0.022209225 -0.052833289 0.78913194
-0.018479966 -0.052688967 0.78696293
0.05824909 -0.051638875 0.7858575
-0.02647521 -0.04666391 0.78906238
-0.023075968 -0.047951054 0.78729582
-0.0199001 -0.049644317 0.78513336
0.058634024 -0.048224665 0.78578669
0.061403036 -0.047846947 0.7855894
-0.026596947 -0.042512473 0.78829765
-0.024317017 -0.042383511 0.78591114
0.059223976 -0.043110371 0.78583336
0.06144207 -0.043124069 0.78608155
-0.030318337 -0.036703419 0.78951478
-0.027324127 -0.037368607 0.7880519
-0.024303267 -0.037245657 0.78546661
0.062923573 -0.036794592 0.78627366
-0.030884007 -0.031979799 0.78891772
-0.027287375 -0.032195494 0.78699952
-0.024298109 -0.032855716 0.7852999
0.063271113 -0.032706443 0.78755563
-0.030663345 -0.027503302 0.78891945
-0.028013954 -0.027795836 0.78680784
0.062988795 -0.027805671 0.78708655
0.065617189 -0.027830547 0.78781259
-0.030310566 -0.024947923 0.78931248
-0.027132008 -0.0227655 0.78723574
-0.024299141 -0.020439537 0.78533334
0.059166193 -0.020432597 0.78506666
0.061924063 -0.021934483 0.78661925
-0.025864037 -0.017585291 0.78838879
-0.024330765 -0.017539976 0.78635567
0.058600605 -0.017518114 0.78533334
0.060735893 -0.017542971 0.78643328
-0.025899393 -0.014672877 0.78946674
-0.023445431 -0.011886974 0.78735417
0.059173722 -0.010211269 0.78516674
0.060720909 -0.011687148 0.78623945
-0.022039924 -0.0076122582 0.78831339
-0.019919531 -0.006565406 0.7859
0.058347799 -0.0071085007 0.78811902
0.060986891 -0.0080665285 0.78968358
-0.02099709 -0.0029250293 0.78967792
-0.018003378 -0.0029165973 0.7875222
0.054801617 -0.0021786436 0.78546667
0.057172645 -0.0029177107 0.78784138
-0.016426947 0.0014815924 0.78910953
-0.014078935 0.0029435481 0.78714442
0.053618256 0.0018943277 0.78651428
0.056232084 0.0017746594 0.78909349
-0.013362883 0.007341695 0.78810853
0.048917066 0.0087749073 0.78506655
0.052409835 0.0075441697 0.78722858
0.055108581 0.0058899522 0.78986698
-0.011648891 0.011988744 0.78823894
-0.008043319 0.013513954 0.78696662
-0.0037942701 0.014622618 0.78539997
0.044535939 0.014620136 0.78526664
0.047856048 0.013015989 0.78633332
0.051196482 0.01215923 0.78794295
-0.011178808 0.016905945 0.78968352
-0.0072882399 0.017485337 0.78869081
-0.0025178436 0.017761096 0.78685832
0.00060027745 0.019012054 0.78566664
0.0440396 0.017871406 0.78686666
0.047172245 0.01712597 0.78852224
0.0506914 0.016175758 0.78990024
-0.0057777758 0.021064242 0.78954458
-0.0022065639 0.022560336 0.78892416
0.0022934324 0.022758912 0.78686917
0.007053873 0.024592843 0.78652
0.010848936 0.024839027 0.7850666
0.03799139 0.024874892 0.78620005
0.042407889 0.022652155 0.78802592
0.04626213 0.020579519 0.78973359
-0.00086966145 0.026461333 0.78990024
0.0022857955 0.027496921 0.78949052
0.0072199837 0.027885759 0.78861099
0.012121962 0.028221821 0.78630483
0.015242699 0.029222637 0.78513324
0.028820787 0.028891662 0.78605008
0.033068456 0.028005933 0.78681666
0.03735188 0.0278708 0.78817773
0.04108743 0.027911484 0.78934997
0.0081494879 0.032140639 0.78953749
0.012366761 0.032284122 0.78854436
0.017480431 0.032222755 0.78702229
0.022792267 0.032392152 0.78669167
0.027355853 0.032123063 0.78818989
0.032443698 0.032438125 0.78905749
0.03712542 0.031446435 0.78962678
0.040382598 0.030872039 0.78996688
0.013368063 0.035759397 0.78972238
0.017828563 0.036430862 0.78941327
0.022536926 0.03701368 0.78930986
0.026954675 0.037015796 0.78935659
0.031040164 0.036246613 0.78966683
-0.015603371 -0.067586668 0.79000002
-0.021510415 -0.061012272 0.79050004
-0.023712005 -0.056576803 0.79016668
-0.025964277 -0.050780009 0.79144448
-0.024476945 -0.052963924 0.79108006
-0.028639551 -0.047620226 0.79400003
-0.02444566 -0.049956396 0.79006916
-0.031189647 -0.042025231 0.79293168
-0.0288969 -0.042654227 0.79091126
0.063966155 -0.043344632 0.79009998
-0.031163275 -0.039777484 0.7922368
-0.031890862 -0.025032865 0.79200006
-0.030828081 -0.022486106 0.79314846
-0.028930884 -0.021344535 0.79184127
0.064002216 -0.022045759 0.7905454
-0.03051962 -0.018467361 0.79475641
-0.028193312 -0.017662406 0.79183269
0.062751934 -0.018434918 0.79337871
-0.026875932 -0.012215468 0.79342872
-0.02605468 -0.0088513857 0.79420012
-0.024130512 -0.0069826744 0.79180002
0.061838593 -0.0066107893 0.79114646
-0.02305348 -0.0029375083 0.79282677
0.059651855 -0.0029310558 0.79151106
0.061267037 -0.0029372768 0.7933107
-0.020943627 0.0014891038 0.7929334
-0.01798309 0.003250591 0.79097998
0.058534399 0.0027957051 0.79190743
0.061350163 0.0007518247 0.7943871
-0.020140043 0.005925246 0.79460019
-0.017136369 0.0073866122 0.7926963
-0.014133585 0.008832287 0.79020029
0.057516851 0.0073842071 0.79256344
-0.015977571 0.012124093 0.79393339
-0.013666846 0.013021215 0.79159999
0.053385913 0.012954453 0.79053348
0.055924885 0.012227918 0.79247618
-0.012708168 0.01771684 0.79313344
-0.0097107468 0.019118527 0.7900669
0.048749205 0.018633205 0.79025573
0.052334044 0.017702218 0.79244763
0.055424895 0.016267918 0.7944001
-0.011237084 0.021424606 0.79380018
-0.0080858627 0.022415854 0.79114091
-0.0038164924 0.024995128 0.79000026
0.044092122 0.023538481 0.79043341
0.048057359 0.022297008 0.792
0.050922446 0.02141623 0.79350001
-0.0063030026 0.026101612 0.79383343
-0.0023487273 0.027989177 0.79153341
0.0013410675 0.029423019 0.79051685
0.044171091 0.027263192 0.79184169
0.047452413 0.026791707 0.79424173
-0.00087336794 0.031000996 0.79326671
0.0022659216 0.03224539 0.7920959
0.0053952057 0.032730784 0.79048353
0.037819661 0.03345719 0.7902835
0.042144381 0.032605369 0.79189587
0.045031242 0.031029653 0.79399991
0.0030736134 0.03594419 0.79380006
0.0076541631 0.03721286 0.79255909
0.012076016 0.038101535 0.79088902
0.01705768 0.039204713 0.79007798
0.02344067 0.039690655 0.79000026
0.027860738 0.039690655 0.79000026
0.033030845 0.03823626 0.79030693
0.037526216 0.037575599 0.79184443
0.041292511 0.036905676 0.79328895
0.0094931573 0.041375551 0.79413348
0.012624392 0.042617083 0.79315841
0.017588351 0.042731952 0.79186112
0.022757469 0.04273225 0.79186678
0.027168997 0.04270203 0.79131114
0.032174941 0.042622164 0.79231524
0.036878701 0.042097893 0.79381675
0.017642675 0.046308983 0.79428905
0.022826189 0.04581498 0.7942667
0.027259788 0.045797035 0.79395562
0.030980207 0.045824587 0.79443353
-0.030541778 -0.044371378 0.79533339
-0.032129101 -0.021508636 0.79791677
0.064540967 -0.020748386 0.79720014
0.065960586 -0.021466702 0.79638898
-0.031662006 -0.017815685 0.79861909
0.064186558 -0.017415833 0.79741299
0.066627063 -0.018800562 0.79844052
-0.030671129 -0.012614598 0.79870176
-0.029083882 -0.012573424 0.79602879
0.063846372 -0.012602149 0.79780036
0.066238202 -0.01040081 0.79974073
-0.032194156 -0.0081669735 0.79952574
-0.027802249 -0.0072090635 0.79650843
0.063914523 -0.0073975278 0.79679513
0.066094019 -0.00815152 0.79799998
-0.027153669 -0.0034480195 0.79746151
-0.024612676 -0.0022063854 0.79546666
0.063876301 -0.002956168 0.7981686
-0.026241554 1.2896156e-05 0.7998966
-0.023187777 0.0025557037 0.7974326
0.063125178 0.0026104772 0.7980727
-0.02145271 0.0074295425 0.7974326
0.061888609 0.0074362359 0.79813337
-0.020259449 0.012900011 0.79931116
-0.018055441 0.012917665 0.79603809
0.058239073 0.01305123 0.79641336
0.062037818 0.011903372 0.79899263
-0.020270148 0.016377134 0.79973328
-0.017067686 0.017644953 0.79815847
-0.01423792 0.01852281 0.79603338
0.053984083 0.019237911 0.79500002
0.057158589 0.017823396 0.79789531
-0.015783764 0.021568302 0.79913342
-0.013194132 0.022462714 0.7969715
0.05302598 0.022449916 0.79650491
0.056376897 0.022024104 0.79949331
-0.011608406 0.027062785 0.79896009
-0.0083067436 0.028168906 0.79662675
-0.0038406453 0.029589873 0.79500008
0.049243044 0.028525651 0.7962501
0.052005529 0.027502015 0.79875827
-0.0073326551 0.032190606 0.79836303
-0.0025479936 0.032783248 0.79621673
0.00060745957 0.034029294 0.79506671
0.047624364 0.032756552 0.7968061
0.051301081 0.031984638 0.79939997
-0.0053519029 0.035695843 0.79926658
-0.002182537 0.036954917 0.79834175
0.0018808524 0.037893292 0.79634291
0.0055538141 0.039479792 0.79562235
0.042759042 0.038205884 0.79580009
0.047056161 0.03698412 0.79818016
0.0022636938 0.042253692 0.79831123
0.007091172 0.043126479 0.79669708
0.010994498 0.044411905 0.79560006
0.034735367 0.044411909 0.79560006
0.038311288 0.043540787 0.79590672
0.042385276 0.042718209 0.79712665
0.045357663 0.04166894 0.79975539
0.0035946488 0.046137985 0.7998665
0.0075092758 0.047385719 0.79809099
0.01248367 0.047393303 0.7959556
0.017677134 0.048372895 0.79583341
0.022872208 0.048127428 0.79585558
0.027328931 0.048134048 0.79596668
0.03284793 0.047727674 0.79658669
0.037786946 0.047478378 0.79737049
0.041391589 0.047221281 0.79805356
0.0095593026 0.051333129 0.79966652
0.012521704 0.051994689 0.79840016
0.017726289 0.052396562 0.79806215
0.022939088 0.051979404 0.79817063
0.027416017 0.052001111 0.79849643
0.032337271 0.05119573 0.79918098
0.037897028 0.050590467 0.79968882
0.014039316 0.055074584 0.79999983
0.017751016 0.055019509 0.79920006
0.02208541 0.055643212 0.7996133
-0.033789262 -0.020873314 0.80200005
-0.033379413 -0.017498059 0.80113894
0.067475609 -0.016908258 0.80261904
-0.035321668 -0.012929658 0.80283332
-0.033027437 -0.0126611 0.80165446
0.067081116 -0.013424995 0.80267525
-0.035358332 -0.0082097147 0.80366671
-0.032049049 -0.0074464413 0.80211216
0.066379301 -0.005950443 0.80144459
-0.0308524 -0.0029754259 0.80342227
-0.02875725 -0.0019728497 0.8007018
0.067711622 -0.0031562522 0.8017242
-0.027422607 0.0019349189 0.80326879
-0.024807695 0.0037419158 0.8017695
0.064791933 0.0022461256 0.80029988
0.066687964 0.0018008534 0.80155563
-0.026382733 0.006745263 0.80420005
-0.024230557 0.0077754208 0.80245245
0.064474113 0.007835798 0.80098253
0.066492818 0.0074809291 0.80281496
-0.026396498 0.012735182 0.80461985
-0.02309818 0.012640581 0.80225652
0.063093387 0.013625972 0.80039257
0.066501245 0.01270876 0.80291665
-0.022602689 0.017939262 0.8030566
-0.018786468 0.019360514 0.80006659
0.058824122 0.019366963 0.80033314
0.061974254 0.017926319 0.80245936
0.06547372 0.017588677 0.80408764
-0.017774733 0.022617621 0.80246192
0.058555577 0.0227571 0.80175829
0.06096245 0.022071499 0.8039251
-0.015876595 0.026180785 0.80383337
-0.013709148 0.027942911 0.80227619
0.054422058 0.02759533 0.80144995
0.056801535 0.02766135 0.80338758
-0.012362088 0.032363985 0.80267221
-0.0083574103 0.034306556 0.80154443
0.053383715 0.033042144 0.80186653
0.056119114 0.032182612 0.80435014
-0.011388082 0.035928078 0.8044669
-0.007828773 0.037490852 0.80296665
-0.003869311 0.03875006 0.80093324
0.049898449 0.03800004 0.80081654
0.052044787 0.036996387 0.80165994
-0.0063804681 0.041370329 0.80358905
-0.0023794747 0.042529497 0.80193883
0.00061150896 0.043933727 0.80036652
0.047434177 0.042740621 0.80123323
0.05044096 0.041489642 0.80350006
-0.0021965562 0.047660716 0.80357921
0.0019206202 0.04793568 0.80192918
0.0050923456 0.049171094 0.80079997
0.043568522 0.048074741 0.80113328
0.046594512 0.047369886 0.8039279
0.0022993735 0.052154481 0.80372924
0.0068943948 0.052381884 0.80205333
0.033155441 0.053318273 0.80043995
0.037963297 0.052914407 0.80108333
0.042514715 0.052253556 0.80237025
0.00361712 0.056158304 0.80486691
0.0075284271 0.057035103 0.80341792
0.01244403 0.057663381 0.80211216
0.017049018 0.058140926 0.80121845
0.022593755 0.058477838 0.8017599
0.027532553 0.057444274 0.80189162
0.032052685 0.057503551 0.80273336
0.037305795 0.057523694 0.8030104
0.042026099 0.05701825 0.80378336
0.014115367 0.061357781 0.80433345
0.017104859 0.062069219 0.80385011
0.022547379 0.062654465 0.80350614
0.027595447 0.062807709 0.80372596
0.032113869 0.062101286 0.80426675
0.036630169 0.061753705 0.80461681
0.024632327 0.065890104 0.80486691
0.026133422 0.065890104 0.80486691
-0.035416994 -0.011966662 0.80500007
0.068182185 -0.011967745 0.80508351
-0.033936724 -0.0059805545 0.80550003
0.06829118 -0.007486952 0.80637044
-0.032872055 -0.0033660294 0.80699998
-0.031788811 1.302915e-05 0.80814588
-0.029017635 0.003017361 0.80793333
-0.02798805 0.0082728332 0.80718946
-0.02795032 0.012385231 0.80610007
-0.026471501 0.016525663 0.80690581
-0.024972005 0.019530231 0.80708003
0.066888049 0.018792678 0.80758697
-0.021377493 0.02195086 0.80772525
0.063231148 0.022833161 0.80704004
0.0654855 0.021078108 0.80886662
-0.017707245 0.027051104 0.80749995
0.05923247 0.026998026 0.80588889
0.061632451 0.027061736 0.80778885
-0.015955379 0.031570613 0.80782217
-0.013925098 0.034021504 0.80655551
0.058241732 0.032610711 0.80701911
0.060937256 0.030847277 0.80856663
-0.012689799 0.03757339 0.8076666
0.054393202 0.037898526 0.80655843
0.056338869 0.036814943 0.80749977
-0.011952606 0.041136861 0.80879998
-0.0084058903 0.042855859 0.80609542
0.052310478 0.04280996 0.80727774
-0.0074181389 0.04708527 0.8076055
-0.0038918557 0.049465831 0.80560011
0.048235666 0.049010023 0.80631113
0.051877428 0.047380783 0.8083666
-0.0019647845 0.052328605 0.80682856
0.0006150491 0.053921349 0.80500025
0.047104169 0.052386727 0.80730027
0.050441578 0.051213253 0.80953342
-0.0012668541 0.056761317 0.80811656
0.0019293956 0.057519652 0.80558348
0.0066206735 0.05991447 0.80504471
0.043797109 0.058813263 0.80534172
0.046206266 0.056756981 0.80806524
-0.00089076371 0.060213856 0.80906665
0.0021243778 0.062147897 0.80810368
0.0073890747 0.063076273 0.80715555
0.012448489 0.063149586 0.80570841
0.017130168 0.064405315 0.80502248
0.020132404 0.064403541 0.80500025
0.032143097 0.064403541 0.80500025
0.037778597 0.06347698 0.80511695
0.042743258 0.063039266 0.8066889
0.04588588 0.060214013 0.80906904
0.0081633953 0.066244848 0.80920011
0.012670816 0.066892393 0.80792212
0.017177202 0.067589641 0.80725932
0.022196956 0.067589447 0.80564255
0.027853811 0.067651466 0.80577505
0.032204438 0.067528568 0.80654067
0.037495762 0.067575686 0.80710548
0.041714754 0.067328773 0.80865002
0.017974926 0.070766494 0.80926669
0.022669148 0.072015211 0.80791497
0.027727632 0.072119318 0.80754817
0.031982992 0.071305558 0.80854666
0.03760501 0.07078252 0.80945009
0.024764944 0.07527642 0.80920011
-0.031171558 0.0030347842 0.81173331
-0.029630871 0.004538924 0.81100005
-0.029139496 0.0070551503 0.81133342
-0.029126696 0.011076261 0.81100005
-0.028128844 0.01691732 0.81132001
0.06876795 0.019649286 0.81200004
-0.025128657 0.021163484 0.81214285
-0.02257433 0.02314687 0.81105304
0.067033343 0.022683719 0.81240004
-0.02122367 0.026945004 0.81337345
-0.01902598 0.028650858 0.81026679
0.064305633 0.02723599 0.8130222
-0.020933025 0.032413192 0.81389332
-0.018048186 0.032724809 0.81158525
0.059549309 0.034677006 0.8102001
0.063035846 0.032801859 0.81226671
0.065955073 0.030321883 0.81466687
-0.017587114 0.037630785 0.81353337
-0.014508007 0.038489178 0.8111335
0.058596484 0.03798933 0.81194293
0.061715197 0.037483357 0.8138501
-0.016064227 0.042376194 0.81333327
-0.013505989 0.042781845 0.81146675
0.057018511 0.042199749 0.81286013
-0.016091885 0.046237737 0.81473362
-0.013016046 0.047613904 0.81233889
-0.0094621219 0.049285118 0.81084466
0.053549193 0.049789228 0.81086689
0.056570534 0.047432028 0.81276983
-0.011222141 0.052718498 0.8141734
-0.0072567305 0.052735496 0.81210005
-0.0039156871 0.053538386 0.81053352
0.048968039 0.054265223 0.81013352
0.052271586 0.05304037 0.81155837
0.056175835 0.052091975 0.81385344
-0.010016388 0.056102686 0.81493366
-0.0065286644 0.057277206 0.81315231
-0.0033151861 0.057675939 0.81146687
0.048454151 0.057688247 0.81164008
0.051776592 0.057305153 0.81355238
-0.0054517458 0.06210959 0.81417799
-0.0026004314 0.062176913 0.81259167
0.0013752568 0.064862251 0.81073356
0.047584753 0.062468309 0.81228894
0.050765589 0.060635589 0.81473356
-0.0016553133 0.065871783 0.81388336
0.0023237471 0.067795403 0.81198341
0.007177324 0.068444431 0.8114742
0.012715157 0.069386579 0.8107335
0.043854948 0.068166748 0.81057346
0.047255781 0.067077152 0.81408596
0.0028985946 0.071171649 0.81390005
0.0077509442 0.072344065 0.81345999
0.012728739 0.072479822 0.81158525
0.017039018 0.072848387 0.8108955
0.020279119 0.073923111 0.81086689
0.032747515 0.073528133 0.81066692
0.03739699 0.073159471 0.81195247
0.042758755 0.072733261 0.81272662
0.046197668 0.071987897 0.81456697
0.012984371 0.076810457 0.81405723
0.017299432 0.077140301 0.81297755
0.022359136 0.077143103 0.81155151
0.027866773 0.077013731 0.81162959
0.032269888 0.076945342 0.81290829
0.036680404 0.076106139 0.81405014
0.017338187 0.080344439 0.81480032
0.022950616 0.080883615 0.81368577
0.02721021 0.080328003 0.81463361
-0.029017024 0.019721881 0.81500006
-0.027482258 0.022644119 0.81707191
-0.023716459 0.024289904 0.81566679
0.069097966 0.023538336 0.81589663
0.070888229 0.02438917 0.81900007
-0.026099166 0.027429625 0.81881815
-0.023363356 0.027734876 0.81660002
0.067557275 0.027323522 0.8156594
0.070709348 0.027364863 0.81693339
-0.026089622 0.031988665 0.81853169
-0.022975309 0.032408834 0.81633323
0.067411534 0.032562058 0.81594425
-0.02610602 0.03505569 0.81904775
-0.022249414 0.037527677 0.81758529
-0.017627941 0.038696475 0.81550014
0.063823886 0.037986889 0.81655008
0.06696485 0.03651987 0.81771755
-0.02072469 0.041841857 0.81766659
-0.018403402 0.04252404 0.81616658
0.059914351 0.04322958 0.81516695
0.06231688 0.042554636 0.81675559
-0.018114854 0.047389202 0.81780016
0.059916798 0.045506001 0.81520027
0.061835341 0.047370598 0.81793338
-0.017295774 0.050586738 0.81766677
-0.013593018 0.053691015 0.81667799
0.058248673 0.052932385 0.81667787
0.061396342 0.051489301 0.81870681
-0.011574904 0.057807766 0.81760007
-0.0085010454 0.058407933 0.81536686
0.053828768 0.058388583 0.81510031
0.056550514 0.057528947 0.81674296
-0.010069103 0.062494028 0.81922227
-0.0077545755 0.062304724 0.81673342
0.052595094 0.062482193 0.81657511
0.055923205 0.062015302 0.81793332
-0.0064966255 0.066470377 0.8181445
-0.0026394762 0.068157084 0.81663817
0.00062289304 0.069774583 0.81526679
0.048890214 0.068626128 0.81513363
0.052134592 0.067104734 0.81764448
0.055636402 0.066312656 0.81933343
-0.001920462 0.072395615 0.81917787
0.0019297168 0.07342165 0.81726682
0.0059474884 0.074366786 0.81573349
0.048275072 0.073149152 0.81665719
0.051883783 0.072676487 0.81866664
0.0031729639 0.076739632 0.81946677
0.0074821501 0.077562682 0.81742239
0.01202731 0.07888037 0.8153336
0.034070726 0.078867458 0.81520021
0.037448257 0.078329138 0.8159067
0.04232382 0.077392429 0.81707883
0.047983468 0.076197401 0.81910008
0.0087711634 0.081771396 0.81896669
0.012824855 0.0821556 0.81772602
0.017376408 0.082800917 0.81660002
0.022223569 0.083159789 0.81565344
0.028230656 0.082404621 0.81589544
0.032613561 0.082058221 0.81676298
0.037246764 0.082197726 0.81815559
0.040971242 0.082018882 0.81941348
0.012848854 0.085354529 0.81924456
0.017646596 0.0864226 0.81904781
0.022137152 0.087362565 0.81857586
0.027190229 0.087420039 0.81859565
0.032482799 0.086414404 0.81897163
0.03699065 0.085965112 0.81925344
-0.028446145 0.024432486 0.82045466
-0.028470837 0.026743896 0.82116675
-0.025787614 0.037817623 0.82108343
-0.02388607 0.039745096 0.82150006
0.06487336 0.039682198 0.82019985
0.067359753 0.039030425 0.82252485
-0.025516158 0.041432347 0.82466668
-0.02263879 0.042856287 0.82253498
0.064899735 0.042750906 0.82053322
0.06766329 0.043395951 0.8231191
-0.020899378 0.046795391 0.82455873
0.064929605 0.047352079 0.82091087
0.068120442 0.047440842 0.82245564
-0.016975317 0.05268272 0.82069981
0.062822022 0.052879117 0.82137316
0.067067593 0.051628526 0.8229962
-0.016235407 0.055060063 0.82199985
-0.014316622 0.058489986 0.82183325
0.058764167 0.058763385 0.82033318
0.061099779 0.057265162 0.82293332
-0.012403288 0.062703736 0.82196659
0.058257926 0.062997699 0.82181323
0.060568519 0.062097393 0.82406676
-0.010501323 0.067005321 0.82315004
-0.0080518043 0.06824553 0.82119989
0.054161176 0.068665504 0.82013327
0.057373542 0.067316636 0.82230663
-0.006602495 0.071686648 0.82227623
-0.0035836683 0.073706731 0.82104981
0.054288853 0.07188689 0.82206655
0.056661684 0.071978658 0.82312226
-0.0055121602 0.0750475 0.82320005
-0.0022506583 0.077907458 0.823075
0.001647605 0.07840845 0.82097751
0.044983815 0.079344727 0.82013333
0.048121702 0.078383304 0.82146651
0.052826904 0.077597506 0.82316303
0.056351233 0.076289222 0.82420009
-0.00090713159 0.08124505 0.82393342
0.0023548712 0.082497753 0.82304168
0.0062423106 0.083003759 0.82111096
0.043104485 0.082839668 0.82074988
0.047144037 0.082388736 0.82310659
0.0037061027 0.08591947 0.8246668
0.007990703 0.087081626 0.82259339
0.012873446 0.087808333 0.82081085
0.016698942 0.088563114 0.82073307
0.03353411 0.08855591 0.82066643
0.037750471 0.088192314 0.82083315
0.042007055 0.087142237 0.82172573
0.0458178 0.087089032 0.82412004
0.0094712945 0.091650456 0.82446682
0.012905917 0.09186063 0.82291108
0.017491287 0.091761015 0.82201469
0.022087425 0.092764668 0.8218739
0.027625408 0.093027845 0.82177424
0.032810774 0.092492878 0.82172209
0.037414636 0.092507608 0.82185537
0.041643262 0.091673441 0.82319993
0.04524345 0.090543553 0.82486671
0.013702945 0.095123701 0.82466686
0.018322386 0.095150612 0.82490015
0.02062425 0.095123701 0.82466686
0.028308176 0.096638232 0.82450008
0.03311459 0.097656064 0.82383817
0.037518699 0.098131008 0.8241483
0.041115824 0.095599122 0.8243556
-0.026521366 0.04340921 0.82723331
-0.024039013 0.044613391 0.82676005
0.069102794 0.04221835 0.82503849
-0.02566055 0.046294961 0.82933331
-0.02297321 0.047979306 0.82797378
-0.021737907 0.050790086 0.82716662
-0.018923717 0.053392153 0.82775551
0.067688525 0.053827152 0.82654774
-0.016850034 0.056936022 0.82704443
0.063241377 0.057846449 0.82685339
0.066703767 0.055893276 0.8286801
0.070207678 0.055528957 0.82900006
-0.016386829 0.060203627 0.82966667
-0.014781062 0.063041732 0.82639998
0.062866196 0.062743962 0.82828581
-0.013450594 0.067927703 0.82740009
0.059170119 0.068388857 0.82600003
0.061405927 0.066793159 0.82844448
-0.011526613 0.072194874 0.82779181
-0.0086070448 0.072957098 0.82553339
0.059232209 0.072305955 0.82686669
-0.010191741 0.077137642 0.82920027
-0.0072726873 0.077108093 0.82681668
-0.0039881528 0.079867177 0.82553345
0.054522201 0.079873636 0.82560021
0.058199912 0.077681385 0.82678908
-0.006515726 0.08190906 0.82870847
-0.002644758 0.08322677 0.82648331
0.00063099171 0.084508218 0.82586664
0.049113221 0.084446803 0.82526684
0.05308352 0.083103478 0.82716298
0.057405781 0.082447797 0.82831413
-0.0020162903 0.08764296 0.82852405
0.0019813261 0.08791858 0.82723325
0.005250263 0.088324353 0.82563335
0.048422128 0.087658711 0.82659996
0.052096087 0.087470271 0.82898104
-0.00091278274 0.091004543 0.82906699
0.0026203266 0.092295013 0.82878119
0.0066023073 0.092435665 0.82634991
0.043726258 0.092890352 0.82526678
0.046937693 0.092381999 0.82759058
0.050120525 0.091019183 0.82920033
0.0037267739 0.095654279 0.82926691
0.007788003 0.096873909 0.82769704
0.012740697 0.097298801 0.82638085
0.01735772 0.097259678 0.8260476
0.022200642 0.097594917 0.82609993
0.027322307 0.097800642 0.82567787
0.032182641 0.099798344 0.82526684
0.042433709 0.09800297 0.82630831
0.045416523 0.097052157 0.8280223
0.0091385916 0.10026999 0.82916695
0.012994073 0.10096341 0.82852238
0.017771017 0.10229652 0.82853353
0.022265287 0.10250252 0.82850027
0.027501162 0.1022829 0.8279689
0.032730516 0.10329906 0.82747334
0.037657812 0.10311212 0.82720745
0.04213265 0.10239352 0.82851452
0.045492094 0.10029821 0.82940018
0.023829281 0.10798088 0.82915586
0.0264093 0.10747659 0.82923365
0.032335892 0.10644388 0.82920027
0.038520627 0.10643961 0.82916695
-0.027288022 0.047980841 0.83180279
-0.025746157 0.051093001 0.83210009
-0.022886887 0.053137284 0.83292514
-0.021142056 0.055872794 0.83413327
-0.018915204 0.057584833 0.83196008
0.067598753 0.058145691 0.83113325
0.070470221 0.058058307 0.83210003
-0.017994171 0.06272307 0.83238667
0.06415201 0.06491179 0.83066666
0.067309305 0.062648393 0.83138984
0.070433103 0.061894547 0.83166194
-0.021155203 0.069104709 0.83465189
-0.018161783 0.067879558 0.83295614
0.06269782 0.068491109 0.83191669
0.06745965 0.066663235 0.8332445
0.070534125 0.065858379 0.83285463
-0.017243942 0.072127864 0.83369273
-0.014495056 0.073148564 0.83206666
0.061927732 0.072753847 0.83198887
-0.012394872 0.077064365 0.83173335
0.061837815 0.077478655 0.83286655
-0.010621678 0.081708029 0.83255005
-0.0081471931 0.0834805 0.83093333
0.059506945 0.08268556 0.8307023
0.061912596 0.081916399 0.83388329
-0.010251554 0.08534731 0.83406663
-0.0071298662 0.087523267 0.83262497
-0.0040129516 0.088862643 0.83066666
0.05371958 0.089288071 0.83103335
0.057845742 0.087373987 0.83225721
-0.00597591 0.092363119 0.83436656
-0.0026621725 0.093034752 0.83170009
0.00063432817 0.093449429 0.8302334
0.048663858 0.094278134 0.8307333
0.052320819 0.092805713 0.8313852
0.05628879 0.092421353 0.8335067
-0.0019557846 0.097228855 0.83394438
0.0019926436 0.097718969 0.83205831
0.0052797273 0.09885855 0.83026671
0.047922313 0.09743458 0.83128881
0.051767841 0.097550824 0.83393335
0.055129766 0.096292563 0.83479995
0.003230416 0.10140713 0.83428884
0.0073135956 0.1025681 0.83278656
0.013029064 0.10355287 0.83075553
0.043998238 0.10350855 0.83040005
0.046984211 0.10228027 0.83297777
0.0089378264 0.10660727 0.8344999
0.01305579 0.10686441 0.83246666
0.017687084 0.10773048 0.8311851
0.021550713 0.10818797 0.83074445
0.02800121 0.10919593 0.83057779
0.032078225 0.1088963 0.83109522
0.037455279 0.10786954 0.8312667
0.042719696 0.10698315 0.83188337
0.046108957 0.10661466 0.83355004
0.01371274 0.11117762 0.8346265
0.01774385 0.11273086 0.83385921
0.022379478 0.11310184 0.83278519
0.027043648 0.11311308 0.83286661
0.032313034 0.11284933 0.83404249
0.03798103 0.11097919 0.83429986
0.041120827 0.11027739 0.83486646
0.023473129 0.11700097 0.834822
0.025549438 0.1172614 0.83483309
-0.02908914 0.049955979 0.83900005
-0.02666506 0.052924614 0.83657289
-0.025944741 0.057726849 0.83851814
-0.022938553 0.057733312 0.83579499
-0.025985435 0.060941368 0.83983332
-0.022762807 0.062253758 0.83647174
-0.022922281 0.067054443 0.83597887
0.064569041 0.068444267 0.83606678
0.067732662 0.068489753 0.83662224
0.071601257 0.06923683 0.83624995
-0.021265412 0.073366508 0.83900005
-0.018719232 0.073819563 0.83705366
0.064638555 0.072410308 0.83696663
0.067890011 0.072549865 0.83856672
0.071283929 0.072346553 0.83802092
-0.016556447 0.077595174 0.83829999
-0.01443435 0.077773459 0.83604449
0.064287186 0.077905133 0.83745921
-0.012635978 0.082573019 0.83740002
0.064254738 0.082927659 0.83704597
-0.010816519 0.087260626 0.83755559
0.059876904 0.088641241 0.83586663
0.062963344 0.08711686 0.83802253
-0.010311786 0.091311842 0.83896673
-0.0079422509 0.092604108 0.83654445
0.058794547 0.092908613 0.83629525
0.062047783 0.091689952 0.83886683
-0.0067294454 0.097784169 0.83807623
-0.0035190911 0.099028498 0.83604431
0.053602774 0.099453948 0.83526665
0.057027079 0.098289356 0.83692509
0.060407888 0.097078457 0.83890688
-0.0056190728 0.10226052 0.83916676
-0.0024857079 0.10286958 0.83776301
0.0016787476 0.10322402 0.83643323
0.048960693 0.10340489 0.83579981
0.052117784 0.10270528 0.83642954
0.056718487 0.10271925 0.83813334
0.060168229 0.10157199 0.83993334
-0.00092393946 0.10616657 0.83920014
0.0022015152 0.10755131 0.8378222
0.0063546072 0.10782561 0.835922
0.048379309 0.10769498 0.83652002
0.052054275 0.10744996 0.83855009
0.055415936 0.10615814 0.8391335
0.0029880707 0.11083218 0.8390668
0.007408902 0.11186355 0.83768892
0.011558737 0.11282612 0.83648878
0.034902442 0.11419182 0.83509982
0.037707962 0.11404284 0.83514655
0.042923111 0.11215718 0.83584994
0.047505517 0.11219662 0.83759254
0.051544361 0.11092904 0.83980012
0.012949883 0.11636707 0.83817506
0.017809482 0.1175596 0.83694994
0.021954639 0.11876269 0.83628875
0.027595526 0.11845002 0.83617127
0.032616857 0.1182593 0.83639437
0.038244367 0.11798551 0.83666003
0.042660456 0.1171785 0.83756667
0.046526134 0.11598893 0.83873338
0.01785568 0.12098491 0.83911681
0.022534817 0.12324262 0.83854079
0.02722572 0.12323581 0.83849639
0.032466706 0.12302741 0.8380425
0.037565462 0.12297685 0.83805835
0.041852605 0.12176796 0.83913344
-0.030726956 0.051639486 0.84100002
-0.028780498 0.053622149 0.84141672
-0.030726956 0.057897177 0.84100002
-0.02839046 0.057929579 0.84147221
-0.02762452 0.062665217 0.84201783
-0.026071625 0.067413948 0.84261912
-0.018193368 0.078298144 0.84167784
0.068137936 0.07829421 0.84162974
0.071274139 0.078290857 0.84159249
-0.016450852 0.082908697 0.84278345
-0.013468382 0.084458865 0.84066659
0.066772677 0.083245277 0.84421319
-0.015092283 0.086343281 0.84380013
-0.012868492 0.088080943 0.84239995
0.064934634 0.089164421 0.84079975
0.066793293 0.087983437 0.84447384
-0.012206207 0.092605568 0.84365559
0.064163089 0.092310607 0.84096289
0.066320755 0.092975967 0.84346211
-0.010768738 0.096973367 0.8441
-0.0087637827 0.097740024 0.84056664
0.062881812 0.097516932 0.84269321
0.065109655 0.095677815 0.84306681
-0.0075281137 0.10250425 0.84246653
0.058629632 0.10474673 0.84033328
0.061415114 0.10208222 0.84091657
-0.0064365808 0.10673136 0.84366679
-0.0026926559 0.10820863 0.8414166
0.05394505 0.10947101 0.84059995
0.057374533 0.10828745 0.84202498
0.06106044 0.10641005 0.84360009
-0.0056576869 0.11003533 0.84493327
-0.0019791874 0.11254156 0.84407783
0.0019878258 0.11321102 0.84182853
0.005343318 0.11411677 0.84026653
0.052709334 0.11327659 0.8423143
0.05623417 0.11195124 0.84357786
0.002217503 0.11775082 0.84390378
0.0069220681 0.11745295 0.8417629
0.011231047 0.11853743 0.84113318
0.048278775 0.1180088 0.84201103
0.052395027 0.1173832 0.8444857
0.003797181 0.12103749 0.84493321
0.0073924107 0.12227809 0.8441906
0.012431872 0.12230795 0.84285021
0.017497713 0.12317267 0.84073311
0.043953698 0.12241049 0.84139997
0.04737987 0.12215073 0.84331429
0.0085252859 0.12576269 0.84499991
0.013241534 0.12655708 0.84430474
0.017920189 0.12690939 0.84217048
0.022607172 0.12754987 0.84123319
0.02730456 0.12750433 0.84093332
0.032014396 0.12752433 0.84106654
0.037854277 0.12717345 0.84184664
0.043134395 0.1271514 0.84377784
0.046333116 0.12729481 0.84473324
0.018761281 0.13042673 0.8446666
0.022687828 0.13193078 0.84422964
0.027399397 0.13187297 0.84385943
0.032123849 0.13188455 0.8439334
0.036865965 0.13195612 0.8443926
0.041617546 0.13184586 0.84494984
-0.019925416 0.078939006 0.84857148
-0.021525698 0.083743319 0.84926933
-0.019096784 0.082718596 0.84687871
0.068964943 0.082309417 0.84535557
0.071072109 0.082839109 0.84541434
-0.021533785 0.085355178 0.84958816
-0.017746836 0.088011816 0.84749788
0.068556987 0.087439388 0.84680533
0.070885472 0.085814357 0.84632272
-0.01754318 0.092305966 0.84810799
-0.013554903 0.094444476 0.84606665
0.068587586 0.092993103 0.84718323
-0.015201984 0.097247615 0.84993345
-0.012939212 0.098018363 0.84702671
0.066989422 0.097693279 0.84693813
0.07352145 0.098769203 0.84942251
-0.01178256 0.10212435 0.84821922
-0.008840587 0.10411678 0.84793347
0.063733272 0.10226596 0.84566665
0.066044293 0.1015358 0.84833354
0.073500849 0.101901 0.84918463
-0.0080536315 0.10730756 0.84823358
0.063494787 0.10763918 0.84773344
-0.0056710793 0.11265984 0.84693336
-0.0032983501 0.11411297 0.84603333
0.057733171 0.11357723 0.84555995
0.061877631 0.11178785 0.84800488
-0.0056849169 0.11530282 0.84900028
-0.0025151907 0.11772544 0.84748906
0.053460732 0.1195223 0.84533322
0.057498097 0.11762011 0.84673345
0.060793832 0.11683679 0.84866697
-0.0015674315 0.12280096 0.84842694
0.0020269458 0.12300513 0.84630001
0.0053746896 0.12343419 0.84519982
0.049532823 0.12348808 0.84556663
0.052749395 0.12284639 0.84656298
0.057415944 0.12252528 0.84843355
-0.00093553663 0.12646714 0.84973353
0.0026826512 0.1276397 0.8485145
0.00676673 0.12780999 0.84684169
0.011370303 0.12837699 0.84565336
0.048812244 0.12759629 0.84673339
0.052649435 0.12761021 0.84813356
0.0560719 0.12636791 0.84906697
0.0073843608 0.13160695 0.84975028
0.012831138 0.13226864 0.84841359
0.017775312 0.1326506 0.84596199
0.044016447 0.13254002 0.84561658
0.047634758 0.13226974 0.84784782
0.014907417 0.13590842 0.84946692
0.01824983 0.13711438 0.84836698
0.022761375 0.13708717 0.84697783
0.027496938 0.13706808 0.84685928
0.032232005 0.1370547 0.84677786
0.036964577 0.13703519 0.84665936
0.042511199 0.13709748 0.84704453
0.04695835 0.13700387 0.84890854
0.023138588 0.1412392 0.8492136
0.027568234 0.141371 0.84905595
0.032310314 0.1413341 0.84883356
0.037065182 0.14135623 0.8489669
0.04227414 0.14126463 0.84909552
0.045029666 0.14229615 0.84986681
-0.022891788 0.082833052 0.85291111
-0.019977743 0.080728978 0.85079992
-0.022548553 0.087497279 0.8519789
0.07051558 0.088703156 0.85138476
-0.022125095 0.090876602 0.85197145
-0.018382963 0.094931349 0.85042852
0.070902564 0.092910409 0.85220939
-0.020005921 0.095106781 0.852
-0.017109172 0.097575724 0.85279828
0.068834536 0.099654354 0.85023338
0.071933895 0.097333811 0.85145944
-0.016856801 0.10252099 0.85340399
-0.012862353 0.10466316 0.85238332
0.067931905 0.10358002 0.85216111
0.072020762 0.10321876 0.85353899
-0.011552094 0.1074399 0.8534444
-0.0088715153 0.10843822 0.85089993
0.066556893 0.10766473 0.85355341
-0.0080942903 0.1126017 0.8524611
0.064122647 0.11317813 0.85083336
0.065969497 0.11283182 0.85420012
-0.0073020454 0.11738838 0.85268104
0.063440219 0.11733878 0.85231113
-0.0063537797 0.12197999 0.85372674
-0.0037128299 0.12264302 0.85061657
0.059336636 0.12341223 0.85046667
0.061720498 0.12183444 0.85270673
-0.0025282656 0.12720624 0.85204166
0.00064981251 0.12895466 0.85050011
0.05458039 0.12974544 0.85050005
0.058207691 0.1271975 0.85250664
0.061161529 0.12548415 0.85380006
-0.00093869248 0.13006577 0.85260004
0.0025607618 0.1324168 0.85343999
0.0066839084 0.13399667 0.85137331
0.010960897 0.13450223 0.85056663
0.049846195 0.13376683 0.85091662
0.052566219 0.13263321 0.8521111
0.056338266 0.13014203 0.8531
0.0038391268 0.13508728 0.8542667
0.0072478871 0.13772516 0.85372865
0.012342849 0.13795686 0.8514666
0.016503332 0.13916704 0.85006678
0.048836172 0.13785677 0.85174441
0.051311314 0.13761523 0.85417336
0.012804839 0.14274837 0.85342425
0.018112833 0.14252323 0.8512184
0.022468047 0.14363961 0.85079992
0.027629966 0.1440614 0.85095543
0.032385129 0.14403509 0.85079998
0.037146371 0.14403883 0.85082215
0.04190119 0.14402001 0.85071105
0.046987802 0.14262211 0.85181665
0.014196886 0.14623386 0.8544001
0.018169817 0.14694194 0.85389447
0.023124864 0.14739947 0.85308754
0.027691556 0.14755906 0.85286295
0.032446928 0.14748269 0.85242218
0.037252121 0.14762352 0.85323703
0.042039804 0.14767399 0.85352969
0.046050012 0.1477703 0.85408884
0.024562456 0.15104903 0.85466683
0.028547181 0.15104902 0.85466683
0.03251572 0.15176713 0.85423344
0.036988743 0.15165663 0.85450685
0.040514719 0.15109617 0.8549335
-0.023280049 0.079583734 0.85550213
-0.027179971 0.083302781 0.8577534
-0.024362057 0.081768848 0.85616714
-0.024882736 0.087569959 0.8557778
-0.024889197 0.090776324 0.85600007
0.073475301 0.092599049 0.85814124
0.075943314 0.093480498 0.85889661
-0.020123325 0.098853298 0.85700005
0.075799726 0.095695369 0.85727274
-0.020146808 0.10136271 0.85800004
-0.017432092 0.10241288 0.855663
-0.01693764 0.1073464 0.85752171
-0.012922164 0.10913873 0.85640025
0.06875509 0.10826948 0.8558225
0.072325036 0.10724275 0.8567003
-0.015380847 0.11038914 0.85993344
-0.011909544 0.11232932 0.85730487
0.068574049 0.11238783 0.85687786
0.072132237 0.11126558 0.85928929
-0.011353799 0.1173954 0.85853338
-0.0089184353 0.11935446 0.85540026
0.067004442 0.11801639 0.85723346
-0.010560472 0.12148298 0.85920006
-0.0085313572 0.1230977 0.85653353
0.064144269 0.12308192 0.85641682
0.066296428 0.12217359 0.85843337
-0.0071176812 0.1272366 0.85796201
-0.0041385582 0.12829673 0.8566668
0.05969942 0.12894186 0.85566694
0.063058749 0.12768646 0.85792392
-0.0021454617 0.1320477 0.85775006
0.00065442239 0.13385241 0.85653347
0.054869171 0.13361278 0.85500014
0.058451112 0.13265768 0.85781682
0.061524495 0.13102178 0.85886657
-0.00094551896 0.1366033 0.85879993
0.002051919 0.13734564 0.85720009
0.054133244 0.13694859 0.85596687
0.057393532 0.13715221 0.85866672
0.0030570675 0.14215454 0.85855561
0.0068406574 0.14195271 0.85613346
0.010228734 0.14485891 0.85566694
0.048492696 0.14475173 0.85503364
0.051976316 0.14202721 0.85658354
0.055931564 0.14143981 0.85906667
0.0038633943 0.14633587 0.85966682
0.0070557389 0.14685957 0.85805178
0.011838608 0.14821947 0.85668582
0.016930515 0.14930889 0.85562694
0.021397877 0.1496224 0.8556003
0.048535366 0.1480633 0.85578585
0.051351573 0.14638264 0.85837775
0.0081361001 0.15082 0.85940009
0.011634775 0.15218748 0.85852379
0.017444981 0.15312757 0.85739464
0.022828232 0.15323526 0.85688341
0.027584707 0.15344051 0.85660017
0.032584593 0.15447734 0.85604471
0.037754621 0.15400244 0.85561687
0.042351898 0.15304254 0.85580856
0.046811521 0.15287401 0.85709172
0.050308011 0.15098095 0.85879999
0.012679792 0.15511292 0.85956681
0.017495483 0.15676661 0.8598668
0.023099383 0.15670986 0.85955566
0.0284293 0.15769728 0.85912228
0.03267372 0.15809499 0.85838532
0.037465069 0.15804586 0.85811859
0.04164711 0.15748753 0.85855997
0.045563031 0.15677877 0.8599335
0.029525183 0.16157763 0.8599335
0.032732747 0.16157763 0.8599335
-0.021021072 0.10331783 0.861
-0.021899065 0.11091118 0.86400002
-0.017232453 0.1124944 0.8622694
-0.013783463 0.11364124 0.86033344
0.0738656 0.11315064 0.86268485
0.076217718 0.11065444 0.86200005
-0.016535778 0.11631935 0.8643775
-0.013810166 0.11706855 0.86199999
0.069711588 0.11694274 0.86106676
0.0714086 0.11709092 0.8621667
-0.012405618 0.12248046 0.86200434
0.068706371 0.12266057 0.86186677
0.071563184 0.12216681 0.86403352
-0.012015698 0.12742291 0.86290002
-0.0081689563 0.12966016 0.86043346
0.064918995 0.12980582 0.86140007
0.06797307 0.12680155 0.86276674
0.070013836 0.12870947 0.86480021
-0.011424342 0.13098285 0.86388338
-0.0071781334 0.13288261 0.86186248
-0.003356582 0.13372928 0.86086679
0.063054241 0.13302958 0.86152238
0.066718921 0.13178977 0.86390018
-0.0069937343 0.13660914 0.86389172
-0.0030167312 0.13812928 0.86191434
0.05841146 0.13922589 0.86020011
0.061969601 0.13815628 0.86225843
0.065122508 0.1358386 0.86410022
-0.0020244012 0.14232963 0.86285001
0.00065727439 0.14243753 0.86026675
0.057504021 0.1432015 0.86101341
0.060849477 0.14255628 0.86292011
-0.00095098681 0.14623025 0.86376679
0.00180476 0.14768772 0.86155242
0.053117778 0.14844275 0.86106664
0.056785353 0.147489 0.86290008
0.060343623 0.14642212 0.86490023
0.0032330751 0.15215464 0.86273348
0.0065422826 0.15263565 0.86062223
0.052584488 0.1526345 0.86233813
0.055472411 0.15116128 0.86440015
0.0074135857 0.15627608 0.86245334
0.011904554 0.15732266 0.86144453
0.017529782 0.15867618 0.86154991
0.023119168 0.15844388 0.86028904
0.0271216 0.15919052 0.86000019
0.043165825 0.1584091 0.86010009
0.047766894 0.15752846 0.86111116
0.051354416 0.15652062 0.86291677
0.013542728 0.1606354 0.86346668
0.017552851 0.16210563 0.86273891
0.023141613 0.1618062 0.86114824
0.027578324 0.16307858 0.86034828
0.032428231 0.16325848 0.86036003
0.037603516 0.162632 0.86127776
0.042656224 0.16216008 0.86195832
0.046946876 0.16099669 0.86325002
0.018395428 0.16565518 0.86451679
0.023189193 0.16615193 0.86291677
0.027982922 0.16755025 0.86185312
0.032994889 0.16688664 0.86153239
0.037675459 0.16695486 0.86291862
0.042164553 0.16600114 0.86422521
0.034484129 0.17030476 0.86362976
0.036938187 0.17047969 0.86451691
-0.020745113 0.11321723 0.8662647
-0.020381885 0.11788537 0.868011
-0.017388172 0.11824557 0.86670566
0.073422126 0.11774229 0.86695558
0.075615734 0.11760633 0.86893415
-0.020406544 0.12206933 0.86906147
-0.017152354 0.12278184 0.86838144
0.073507756 0.12272257 0.86796665
0.075262114 0.12132651 0.86953342
-0.016341003 0.12720913 0.86829174
-0.013866777 0.12720861 0.86553353
0.07228478 0.12744555 0.86714774
-0.015539113 0.13172674 0.86878204
-0.012593883 0.13255002 0.86676675
0.068536758 0.13299569 0.86651683
0.07136827 0.13190629 0.86818892
-0.010674165 0.13652304 0.86845005
-0.0084957145 0.13808775 0.86644459
0.067244329 0.13713114 0.86719447
0.070424028 0.13593605 0.86986667
-0.0068938588 0.14159004 0.86815006
-0.0041886396 0.14355755 0.86703354
0.063092314 0.14334057 0.86572236
0.065867178 0.14179733 0.86860001
-0.0025747388 0.14688893 0.86766005
0.062202878 0.14740753 0.86833334
-0.0014973124 0.15088835 0.86900002
0.00066353974 0.15268111 0.86846662
0.057517622 0.15261488 0.86743814
0.060648315 0.15120412 0.86926663
0.0033576684 0.1564924 0.86721116
0.0071308892 0.15885589 0.86690021
0.010351066 0.15947731 0.86590016
0.052783344 0.15838829 0.86655307
0.05630793 0.15681513 0.86899996
0.0071487948 0.16091205 0.86930001
0.011985396 0.16297521 0.86736673
0.047819771 0.1636733 0.86594009
0.052267198 0.16226879 0.8685239
0.012477779 0.16775195 0.86942858
0.01684559 0.16809198 0.86775005
0.021998685 0.16897306 0.86668617
0.043016646 0.16866767 0.86677343
0.0474311 0.16782112 0.86843747
0.017689655 0.17225492 0.86941671
0.022537323 0.17212452 0.86875814
0.027754646 0.17142941 0.86728334
0.033666868 0.17300148 0.86747998
0.038087782 0.17306331 0.86709589
0.042751227 0.17277342 0.86795557
0.047149409 0.17253423 0.8694666
0.033896197 0.17625386 0.86920011
0.038347654 0.17662746 0.86904776
0.042811092 0.17624934 0.86917782
0.076989383 0.11906375 0.8707273
-0.02043641 0.12467608 0.87033337
0.076206073 0.12315792 0.87105012
-0.020451633 0.12800983 0.87098175
-0.017849822 0.12831087 0.87082469
0.076276079 0.12732375 0.87184358
-0.017785329 0.13208891 0.87295443
-0.01396611 0.13460618 0.87173343
0.073176414 0.13386762 0.8704446
0.075361617 0.13282451 0.87068319
-0.01261919 0.13791664 0.87216115
0.068859734 0.13928965 0.87060016
0.072422341 0.13808705 0.87194824
0.075450212 0.13784625 0.87170643
-0.011276785 0.1418882 0.8732999
-0.0085518667 0.14387254 0.87220001
0.06829001 0.14301927 0.87161338
0.071901664 0.141709 0.87303317
0.076297596 0.14115344 0.87210947
-0.0069311266 0.14722794 0.87285548
-0.0042057098 0.14819166 0.87056684
0.063996047 0.14821446 0.87070012
0.067229502 0.14761348 0.87313324
-0.0058514243 0.15200439 0.87386656
-0.0031286788 0.15300024 0.8718223
0.062885553 0.15261193 0.87137157
0.066252083 0.15237647 0.87367487
-0.0023859204 0.15729263 0.87276667
0.0013143898 0.15744478 0.87069356
0.058492504 0.15749316 0.87096024
0.062526785 0.15750931 0.87284064
0.065856062 0.1560619 0.87383306
-0.00096291414 0.16107963 0.87460005
0.0024971101 0.16215442 0.87271667
0.0067559644 0.16323957 0.87093347
0.054254923 0.16360694 0.87073344
0.057618983 0.16231033 0.87246633
0.06100877 0.16104892 0.87443328
0.00737599 0.16694951 0.87232918
0.010408049 0.1676437 0.8706668
0.049349103 0.16996866 0.8701334
0.052898031 0.16724943 0.87177503
0.057213824 0.1671247 0.87339503
0.0084047951 0.17183425 0.87344164
0.011806378 0.17226087 0.87120008
0.016490502 0.1736441 0.87030011
0.021761097 0.17482322 0.87012678
0.027054772 0.17454138 0.87074029
0.048815817 0.17431188 0.87026674
0.052793007 0.17222974 0.87338877
0.056671504 0.17138587 0.87461108
0.012272878 0.17690761 0.87342077
0.016696762 0.17728956 0.87201917
0.02180355 0.17759508 0.87181395
0.026364978 0.17749165 0.87210333
0.034765109 0.17817087 0.87066668
0.037685081 0.17912944 0.87060088
0.042874951 0.17894207 0.87047791
0.047582097 0.17807783 0.87120008
0.051188007 0.17719227 0.87382221
