# .PCD v0.7 - Point Cloud Data file format
VERSION 0.7
FIELDS x y z
SIZE 4 4 4
TYPE F F F
COUNT 1 1 1
WIDTH 1351
HEIGHT 1
VIEWPOINT 0 0 0 1 0 0 0
POINTS 1351
DATA ascii
0.036002111 0.021548424 0.2978752
0.033673208 0.025069768 0.29824147
0.030533722 0.027744027 0.29959261
0.027039798 0.03101621 0.29768482
0.023887694 0.033354543 0.29670623
0.020154025 0.035608493 0.29586533
0.016800489 0.03779278 0.29438198
0.039438743 0.019171581 0.29307607
0.037452355 0.022717018 0.29345429
0.035162088 0.026075957 0.29331946
0.033054613 0.030247517 0.29261994
0.029204179 0.032948215 0.29239494
0.025606453 0.034799036 0.29250219
0.022030223 0.037207097 0.29177535
0.040445413 0.020250961 0.28888351
0.038336646 0.023282241 0.28856018
0.036164194 0.026972122 0.28897151
0.034127537 0.031123441 0.28950393
0.029867033 0.033664502 0.28851178
0.026989497 0.035906292 0.28803125
0.023707177 0.037595607 0.2870979
0.039489798 0.024368392 0.28415942
0.037990425 0.028710429 0.28487623
0.036458474 0.031988706 0.28433785
0.031552963 0.035078891 0.2842907
0.028291367 0.036932595 0.28348848
0.024457006 0.038309015 0.28382981
0.04042735 0.025694482 0.28013766
0.03853688 0.029115457 0.27991107
0.035985086 0.032557685 0.2800796
0.032882027 0.035264798 0.27944586
0.029397655 0.037410278 0.27925885
0.025445588 0.039373904 0.27930015
0.031784236 0.036518805 0.27544993
0.011162013 0.0017016153 0.35024157
0.0092350682 0.0045160996 0.35095093
0.0071545714 0.008125443 0.35127729
0.0035265051 0.010510997 0.35062152
0.0018866193 0.013177507 0.35074607
0.016863341 0.00028149225 0.34687176
0.01405758 0.0033282838 0.34819597
0.011658589 0.0064234929 0.34867078
0.008873661 0.0096729277 0.34873313
0.0056851758 0.012483246 0.34815669
0.003506457 0.015009785 0.34767783
0.019754298 0.0021476606 0.34495574
0.01614292 0.0047643492 0.34682634
0.0065558935 0.014058611 0.34588602
0.0045099081 0.016878486 0.34344676
0.023739977 0.00072821975 0.34018281
0.021642786 0.0035824645 0.34096736
0.01960458 0.0069159246 0.33963743
0.0080414861 0.01682655 0.33889005
0.0058788126 0.017538987 0.338539
0.024046309 0.00097193662 0.33529699
0.022433523 0.0038584527 0.33678824
0.020096395 0.0076247198 0.33564144
0.016944325 0.010809014 0.33444035
0.013917862 0.013795956 0.33415869
0.0099109868 0.015913446 0.33424801
0.024458669 0.001765606 0.33237737
0.02010487 0.0079847304 0.33144361
0.017022029 0.010665775 0.33092001
0.014162608 0.013772444 0.32966751
0.011231221 0.016265912 0.32876694
0.012580507 0.016575456 0.3245239
0.020735089 0.015098886 0.31496426
0.018660011 0.01738725 0.31562269
0.017385958 0.019527094 0.31500947
0.028753111 0.010729359 0.31063315
0.026699167 0.013123319 0.31242642
0.023705132 0.016356144 0.31254867
0.021087442 0.019611094 0.31267601
0.018031338 0.021828866 0.31150228
0.014499616 0.024937768 0.30935967
0.011851724 0.027462903 0.30908605
0.030586787 0.011550933 0.30816039
0.028822843 0.015037212 0.30895823
0.026033087 0.018276306 0.3088595
0.023291964 0.021571238 0.3089931
0.020075295 0.024349768 0.30837229
0.016476274 0.026759386 0.30766478
0.013089982 0.029397294 0.30712074
0.0096994936 0.031187043 0.30629694
0.035479225 0.010069864 0.3030943
0.033229373 0.013132983 0.30473116
0.030712798 0.016671412 0.30485031
0.028034812 0.020023363 0.30483976
0.025387712 0.022547707 0.30495343
0.021250509 0.025510095 0.30551928
0.018438542 0.0286688 0.3042824
0.015293845 0.031317055 0.30323446
0.01191436 0.033607055 0.3022601
0.037655581 0.011244467 0.30050978
0.035668116 0.014696334 0.30118096
0.032327242 0.01812044 0.30212867
0.02721544 0.023306876 0.30170462
0.01667227 0.033496879 0.29929382
0.013811322 0.035572812 0.29858017
0.010516168 0.036428537 0.2971454
0.041131318 0.0099208225 0.29528117
0.039767604 0.013133242 0.29658991
0.03853121 0.015398357 0.29709995
0.015358455 0.037073188 0.29467821
0.01178143 0.038456358 0.29321069
0.043001935 0.011351313 0.29188064
0.041618805 0.014736756 0.29246876
0.040212497 0.016794922 0.29257587
0.017031891 0.03823787 0.28993282
0.012998349 0.039203677 0.28869116
0.044338852 0.012494652 0.28762037
0.043093354 0.015927143 0.28803778
0.041298941 0.018699698 0.28744617
0.020851107 0.038002633 0.286194
0.018183608 0.039123077 0.28524512
0.014348345 0.040336974 0.28443977
0.044656217 0.013718924 0.28398442
0.044045083 0.016541759 0.28315547
0.041693397 0.020270487 0.28345743
0.040197942 0.02300607 0.28220135
0.023681525 0.038577218 0.28147003
0.01978025 0.040441938 0.28090835
0.016102325 0.041413601 0.280123
0.045337357 0.017530324 0.27855393
0.043057337 0.021341285 0.27892873
0.040872123 0.024285723 0.27822942
0.039364047 0.027004957 0.27696511
0.035847977 0.030351887 0.27659598
0.028121399 0.037525952 0.27624652
0.025138363 0.039693698 0.27673995
0.021170391 0.041559145 0.27640155
0.017815892 0.041756466 0.2765229
0.0464455 0.018851217 0.2742129
0.044263415 0.022241637 0.27425608
0.041385449 0.025394091 0.27411056
0.038402095 0.028429896 0.2738719
0.035545222 0.031594925 0.27374214
0.032817934 0.034642067 0.27348286
0.029430127 0.037503812 0.27313295
0.026149064 0.040236987 0.27263981
0.0227124 0.042346969 0.27206427
0.046221558 0.019635033 0.27097803
0.044260744 0.022339392 0.27040723
0.041778818 0.025194138 0.27038223
0.03869668 0.028882246 0.2690177
0.036679056 0.03243595 0.26900843
0.033681531 0.035458107 0.26875824
0.030367704 0.038159173 0.26823309
0.027338624 0.041151471 0.26795688
0.023975432 0.04285562 0.26736537
0.038248885 0.03030682 0.264911
0.037019782 0.032776117 0.26421878
0.034263849 0.035668321 0.26364401
0.030729931 0.038274962 0.26363283
0.028003326 0.040759746 0.26410747
0.01154391 -0.00081886165 0.35021085
0.0091492124 0.0014631224 0.35097301
0.014751086 -0.0025844709 0.34785721
0.012611135 0.00013414398 0.34832478
0.022728954 -0.0015593385 0.33534402
0.0054895561 0.016571067 0.33253092
0.02382284 0.00096073467 0.33036542
0.023016665 0.0017163325 0.32797343
0.019488148 0.006525659 0.32788596
0.016498014 0.0099349245 0.32764229
0.008376509 0.015803475 0.32957789
0.0057500321 0.016671777 0.32959494
0.022636581 0.003920339 0.32326022
0.019308068 0.0067782784 0.32264993
0.016437003 0.0094851144 0.32344884
0.01414222 0.013429404 0.32418412
0.010064158 0.017304298 0.32375914
0.0081113949 0.017768385 0.32313615
0.023913555 0.004449877 0.31934863
0.021056358 0.007865075 0.31903002
0.018095525 0.011128426 0.31930313
0.015617397 0.014623785 0.31972861
0.012529731 0.016977301 0.31904751
0.027397474 0.0033674613 0.31316945
0.025811952 0.0063397111 0.31580356
0.023272587 0.0098944996 0.31589827
0.020425592 0.012775745 0.31596673
0.017080082 0.015898431 0.31683978
0.013506261 0.018525682 0.31481656
0.01028152 0.02050798 0.31348071
0.0072204703 0.023523077 0.31215671
0.0051418077 0.024576632 0.3116478
0.029714741 0.0043411152 0.31000265
0.027998332 0.0080625871 0.31213045
0.024704821 0.011199165 0.31378692
0.022952842 0.012902303 0.31361637
0.014682448 0.020815266 0.31183949
0.012410526 0.023005038 0.31099039
0.009358447 0.025985587 0.31030887
0.0060059465 0.028421935 0.30835432
0.034336008 0.002702184 0.30581608
0.03185467 0.0057495423 0.3071765
0.030395323 0.0087398309 0.30832899
0.0068158871 0.030935429 0.30501524
0.0047456603 0.031718709 0.30310497
0.038557272 0.00093336031 0.30180106
0.036743812 0.0044899639 0.30278224
0.034221437 0.0075209225 0.30405682
0.0086683631 0.032567944 0.30241993
0.0069581941 0.03406078 0.30016106
0.0036165882 0.035072483 0.29845691
0.040949654 0.0019241683 0.2984291
0.038839497 0.0061991308 0.29929721
0.0074528586 0.036695123 0.29646128
0.0041541234 0.037517354 0.29378736
0.042661831 0.0037367884 0.29436806
0.041004084 0.0068843719 0.29556906
0.008508049 0.038692713 0.29186827
0.0059308298 0.039430331 0.29052883
0.04431453 0.0047543012 0.28954589
0.043120541 0.0080440249 0.2907612
0.01056298 0.04001129 0.28730923
0.0072094686 0.040763956 0.28591248
0.045565538 0.0060462635 0.2851015
0.044413291 0.0090504698 0.28580719
0.01239128 0.041112505 0.28257376
0.0088414177 0.041794844 0.2815437
0.046232872 0.0073849242 0.28051743
0.045048483 0.010795904 0.28110015
0.01402857 0.042196795 0.27840698
0.010177974 0.042874962 0.27685431
0.047176965 0.0086084623 0.27606124
0.046065465 0.012132082 0.27670729
0.015749276 0.04243505 0.27416682
0.012535173 0.04336831 0.272293
0.047259472 0.013071455 0.27201492
0.046695516 0.016714923 0.27248538
0.020267906 0.042103119 0.26979679
0.017533425 0.042890344 0.26961896
0.014339356 0.043926328 0.2680589
0.04850556 0.014157146 0.2675252
0.046646431 0.01791881 0.26788354
0.044287436 0.021458177 0.26701656
0.040813372 0.024564339 0.26664957
0.039164104 0.026678188 0.26607475
0.021436296 0.042675711 0.26526403
0.018370569 0.043325625 0.26476279
0.046606585 0.017914429 0.2628887
0.044689022 0.021878535 0.26306835
0.041868489 0.025136549 0.26299819
0.039405696 0.028510651 0.26299882
0.03708094 0.031862829 0.26227522
0.033294093 0.035529662 0.26136258
0.030630182 0.038048778 0.26107523
0.026951173 0.040757887 0.26144996
0.023051994 0.04266458 0.26086441
0.019900644 0.043047383 0.26030982
0.044905499 0.022312751 0.25864172
0.042612668 0.025542323 0.25784415
0.039812408 0.028825374 0.25779685
0.037044976 0.032136064 0.25777692
0.033923838 0.035073537 0.25743446
0.030511711 0.037717845 0.25683147
0.027644459 0.040088799 0.25719786
0.024349269 0.042376082 0.25716078
0.042975284 0.025650725 0.25399378
0.039863043 0.029131301 0.25354967
0.037632048 0.032140665 0.25291321
0.034680862 0.035298917 0.25234857
0.031400722 0.038022291 0.25267044
0.035631668 0.035442587 0.24946123
0.0054165679 0.015966622 0.31874296
0.024076957 0.00029557757 0.31788895
0.006427919 0.016871532 0.31613517
0.0032457579 0.018942969 0.31484693
0.028179973 -0.0022279443 0.31092533
0.026293159 0.00022258051 0.31309435
0.0077497782 0.019791428 0.31379214
0.0050600264 0.021508021 0.31314468
0.0021633301 0.023972653 0.31059971
0.032543533 -0.0041665155 0.30815771
0.030954093 -0.0012584822 0.30922967
0.029254671 0.0021422515 0.31067061
0.0020051636 0.026532901 0.3078666
0.00070826896 0.028050525 0.30573079
0.037219368 -0.0050960295 0.30269626
0.035553858 -0.0028999764 0.30487931
0.033725712 -5.8569014e-05 0.30657485
0.0018323092 0.03057079 0.30313772
-0.0006533023 0.032206364 0.30057424
0.038940713 -0.0042001288 0.30024043
0.038458414 -0.0016129892 0.30161482
0.00030262582 0.03492935 0.29732105
-0.0019524768 0.03585162 0.29509243
0.041588262 -0.0029703565 0.29616058
0.0017011277 0.036829498 0.29413331
-0.00069350936 0.03794051 0.29178077
0.043302871 -0.0016848613 0.29234299
0.00080906786 0.039820611 0.2881152
0.045104407 -0.00070752017 0.28774032
0.0025528632 0.041274033 0.28381655
-0.00014594384 0.042049713 0.28049552
0.046545025 0.00043240562 0.28319219
0.0042310786 0.042665578 0.27947032
0.0011419207 0.043150127 0.27825841
0.047536992 0.0017244592 0.27867681
0.046644967 0.0052866191 0.27886289
0.009075556 0.043580789 0.27398989
0.0055068005 0.043680012 0.27480412
0.0016455334 0.04352098 0.27540499
0.048280351 0.003274804 0.27376527
0.047224287 0.0061856434 0.27413976
0.0099438149 0.043602891 0.27086031
0.0071153454 0.04400168 0.27034721
0.04852619 0.0042026248 0.27099389
0.04793518 0.0072270725 0.26951253
0.047739483 0.010543825 0.27061561
0.011511475 0.044441499 0.26631483
0.0088786669 0.044784218 0.26547986
0.049084499 0.0085306261 0.26534599
0.048939943 0.011280652 0.26418287
0.017209888 0.043959085 0.26181114
0.013383506 0.044614337 0.26186451
0.0096760858 0.045372367 0.26121014
0.049084298 0.009446837 0.2619049
0.048241884 0.012999706 0.26126948
0.046910699 0.016911428 0.26055053
0.018445155 0.043794088 0.25886041
0.014681965 0.045169499 0.25798693
0.048090044 0.013135791 0.25744164
0.046213433 0.01673843 0.25606069
0.04487396 0.020631999 0.25534171
0.026290717 0.039765581 0.25369239
0.022829108 0.041808166 0.25374579
0.019071875 0.043334991 0.25413987
0.015910311 0.044715546 0.25442758
0.046489045 0.017908715 0.25202635
0.044832483 0.021196716 0.25145504
0.042613849 0.025117533 0.25149238
0.040257141 0.0284828 0.2512362
0.036859944 0.032124788 0.2508893
0.031163502 0.037662786 0.25011638
0.027329499 0.039460085 0.25026172
0.023848535 0.041570358 0.24956644
0.045117471 0.022110458 0.24774405
0.042998567 0.025165742 0.24641937
0.040456783 0.028397035 0.24672341
0.037698112 0.031601422 0.24620163
0.035171963 0.034783185 0.24567124
0.031614605 0.037362251 0.24578118
0.027915705 0.039765965 0.24492571
0.024898576 0.041821353 0.245298
0.040575679 0.028626528 0.2425184
0.038090181 0.031733107 0.24185824
0.03526108 0.034874044 0.24127492
0.03236274 0.037489232 0.2413803
0.029157991 0.03993389 0.24149457
-0.00023048744 0.016260475 0.31629348
0.022908989 -0.0029214835 0.31486085
0.00012989994 0.017677408 0.31478199
-0.002473128 0.01982655 0.31271052
0.027498838 -0.0050399611 0.31164438
-0.00085628778 0.022808822 0.31023067
-0.0037337821 0.024292726 0.30751324
-0.0026551811 0.026591603 0.30545557
0.034178037 -0.006251798 0.30578995
-0.0040056519 0.031050127 0.30100393
-0.0026915492 0.033567175 0.29718316
-0.0052980203 0.034179062 0.29469955
0.040763389 -0.0068941601 0.29605722
-0.004216902 0.036603313 0.29160118
-0.006211428 0.037797868 0.28851873
0.042635683 -0.0081725419 0.29003283
0.04340196 -0.0050355643 0.29026011
-0.004953254 0.03951798 0.28549668
-0.0079749916 0.040127598 0.28519395
0.044758186 -0.0067618657 0.28543776
-0.0032549966 0.040925823 0.28112233
-0.0058133528 0.041894283 0.27872288
0.046770483 -0.0049638208 0.2813412
-0.0018045213 0.042946972 0.27686155
0.048069183 -0.0039954036 0.27662399
0.04809054 -0.0012029894 0.27685663
-0.00016985461 0.043267366 0.27215469
-0.0039056931 0.043449432 0.27286473
0.048571713 -0.003000306 0.27154362
0.048605636 -0.00011727959 0.27264193
0.0047013033 0.043996662 0.26850128
0.0019651018 0.043572638 0.26748249
0.049141414 0.0020862278 0.26810244
0.048209123 0.0054254401 0.26806715
0.0063186623 0.044920031 0.26433176
0.003360182 0.045033313 0.26282358
0.04988176 0.0038163103 0.26389295
0.049194649 0.0066459049 0.26303515
0.0073485468 0.045332298 0.25903869
0.0042334758 0.045363005 0.25862241
0.049465206 0.0041806996 0.25919527
0.049238633 0.0073579624 0.25931594
0.011427896 0.04510396 0.2554118
0.0089015812 0.044889625 0.2553398
0.049741179 0.0084396061 0.25506395
0.048517793 0.012372719 0.25428265
0.017621184 0.043356106 0.25089154
0.01363203 0.044532791 0.25110677
0.010333138 0.044779405 0.25064424
0.050050877 0.0094856378 0.25007364
0.0491069 0.013023671 0.25022608
0.04720537 0.016730633 0.25025353
0.021061473 0.041906789 0.24733603
0.018604938 0.043006722 0.24739274
0.014962124 0.044180982 0.24630588
0.04835061 0.01370164 0.24599412
0.047052518 0.016953416 0.24526039
0.045440696 0.020635903 0.24456537
0.023239117 0.042267274 0.24258691
0.01923611 0.043051898 0.24226767
0.016132787 0.04393933 0.24323982
0.045186561 0.021473113 0.24054801
0.043346673 0.025140317 0.24079472
0.040884033 0.027655339 0.24013209
0.03839191 0.030989558 0.23942342
0.035625946 0.033986654 0.23895335
0.031721998 0.037625801 0.23883894
0.028505908 0.040302388 0.23918816
0.024653612 0.042361468 0.23857212
0.021629991 0.043775246 0.23846456
0.044424854 0.022358008 0.2359972
0.043326616 0.024773613 0.23563191
0.04064925 0.027368465 0.23536792
0.038358539 0.031407088 0.23525554
0.035716485 0.034732644 0.23515767
0.032331835 0.037479606 0.23459324
0.02901303 0.040148579 0.23453158
0.02555633 0.041598264 0.23426604
0.038412359 0.031857517 0.23012635
0.035692446 0.034446724 0.23042464
0.033648111 0.035936311 0.23042807
-0.006240081 0.03992442 0.2818639
0.046883974 -0.0076879114 0.280406
-0.0061878171 0.041875914 0.2749123
0.047940649 -0.0070062783 0.27545553
-0.0027394909 0.042719923 0.2690661
-0.0054908935 0.042886153 0.26914954
0.048268102 -0.008944802 0.27081007
0.048601307 -0.0058322493 0.27049369
-0.0012143068 0.043166198 0.26586005
-0.0036083572 0.04350172 0.26487982
0.049283665 -0.0039655678 0.26606429
0.049266078 -0.00098429061 0.26528856
0.00030311383 0.044421799 0.2618646
-0.0019794591 0.044888467 0.26206654
0.048617296 -0.0038812552 0.26140052
0.049299728 -0.00011175498 0.26099449
0.002033174 0.044425275 0.25639188
0.048800133 0.0010950379 0.25716564
0.0061828438 0.044612519 0.2531808
0.0032079145 0.044231929 0.25192663
0.049090691 0.0033073537 0.25372034
0.049422219 0.0057966039 0.25198779
0.0078605488 0.04483185 0.24821827
0.0040331651 0.044875413 0.24844176
0.049693048 0.0071219634 0.24810293
0.013075711 0.044549674 0.24445733
0.009453807 0.044932101 0.24381584
0.050072663 0.0081603657 0.24324748
0.048910327 0.011654401 0.2432065
0.047261652 0.014948398 0.24181128
0.017570693 0.043436006 0.23959592
0.014627304 0.044127595 0.24006829
0.011382667 0.045214795 0.24006128
0.048316285 0.012786288 0.23865098
0.047034465 0.016293176 0.2389251
0.045684382 0.019045591 0.23829174
0.018137075 0.042663198 0.23538321
0.015847187 0.043378215 0.23535821
0.047120146 0.016395995 0.23379928
0.045703471 0.020453975 0.23392186
0.043149628 0.024351418 0.23200971
0.040576041 0.027071886 0.23185408
0.039198197 0.029240385 0.23207968
0.027874589 0.039919503 0.23083469
0.024066212 0.041931927 0.23161927
0.020908011 0.042246513 0.23159257
0.045005385 0.021256465 0.22882232
0.043282934 0.024262182 0.22867471
0.041100778 0.027409911 0.22891223
0.038920261 0.030773692 0.22876546
0.035871815 0.034503113 0.22827646
0.032166332 0.0372371 0.22839046
0.028596817 0.039599143 0.2277098
0.025096104 0.041188873 0.22678569
0.042504974 0.025029816 0.22522745
0.041290652 0.027522702 0.22420904
0.039031032 0.031254377 0.22445887
0.036160264 0.034571011 0.22441319
0.032544438 0.037121411 0.22363293
0.028876925 0.03940466 0.22319055
0.025641983 0.040905699 0.22335729
0.038359523 0.031250834 0.22071418
0.036065429 0.033806555 0.2202121
0.032778602 0.036287125 0.21999645
-0.0075589232 0.04226736 0.26291797
0.049067557 -0.0068849679 0.26375097
-0.0021344703 0.042931557 0.25713444
-0.0055396389 0.042131029 0.25742683
0.04948245 -0.0093601886 0.25913554
0.048840307 -0.0059662685 0.25883681
-0.0010718051 0.04338257 0.25409496
-0.0038077999 0.04300487 0.25305933
0.048956536 -0.0053507332 0.25491646
0.048662543 -0.0014458131 0.25510061
-0.00022566691 0.043608069 0.25002691
-0.0030220319 0.0436377 0.25035846
0.049354665 -0.0029447675 0.2494005
0.048512153 -0.00037176162 0.25030246
0.0019670445 0.04480461 0.24565086
-0.0014338717 0.044963885 0.24665242
0.048626252 0.00050254911 0.24534261
0.048424721 0.0037050527 0.24523905
0.0065460559 0.045252807 0.24150553
0.003866151 0.045189746 0.24132201
0.048879914 0.0020168107 0.24141708
0.048788123 0.004152609 0.24057919
0.012733876 0.043954186 0.23653746
0.0088077746 0.045106042 0.23727506
0.0057656113 0.045225039 0.23607704
0.049097016 0.006594263 0.2362043
0.048446309 0.0097017474 0.23629138
0.017738771 0.041627161 0.23306301
0.013545296 0.04336191 0.23310038
0.0098469108 0.044326071 0.23234841
0.0070327986 0.045417987 0.232586
0.049677715 0.0075526014 0.23150346
0.04806219 0.010603337 0.23130497
0.046882443 0.014264204 0.23013398
0.018219981 0.041903507 0.22868007
0.014057359 0.042995431 0.22777003
0.011322582 0.044076078 0.22828954
0.047847398 0.011975093 0.22681534
0.046748389 0.015055168 0.22645518
0.045667131 0.018805701 0.22696835
0.023608178 0.041612603 0.22429192
0.019189931 0.04175188 0.22373182
0.015666964 0.043433584 0.22296613
0.046837218 0.016200766 0.22232917
0.045493357 0.018898912 0.22239015
0.043201707 0.022637548 0.22268379
0.041918173 0.026007928 0.22196081
0.027814468 0.039374299 0.22043425
0.024695184 0.041003752 0.22071826
0.019998701 0.042095236 0.21935847
0.045791317 0.018972758 0.21917108
0.042767297 0.023001585 0.21765625
0.041008953 0.026590573 0.21747676
0.038570117 0.030163255 0.21719199
0.035064895 0.033266466 0.21623755
0.031915311 0.036144312 0.21648777
0.028368484 0.038551588 0.21590155
0.024875823 0.040706281 0.21571279
0.021997083 0.041496087 0.2165823
0.042841084 0.024580261 0.21327296
0.041238606 0.026879327 0.21276906
0.038508102 0.030030407 0.21255901
0.035274774 0.033026673 0.21217704
0.03277937 0.035619255 0.21136636
0.029792691 0.037804369 0.21182004
-0.0082277451 0.041782245 0.25595221
-0.0069863871 0.042655699 0.25141108
0.049275953 -0.0070749409 0.25272229
-0.004989244 0.043708518 0.24756503
-0.0081807375 0.044048671 0.2480458
0.049035843 -0.0062378868 0.24861753
0.00027999841 0.044693746 0.24236587
-0.0030574687 0.044561468 0.24375132
0.049241558 -0.0037028771 0.24378365
0.049231496 -0.0002303645 0.24318564
0.0010196492 0.044842508 0.23901626
-0.0017201006 0.044472393 0.23792714
0.049106091 -0.0034326594 0.24011773
0.049123988 -0.0001946725 0.23859668
0.048948579 0.0036361665 0.23791811
0.0028572083 0.04543405 0.23436591
0.048830137 0.001275938 0.23347843
0.048859645 0.0036766902 0.23408771
0.0091389138 0.044696651 0.22997397
0.0052180085 0.045395926 0.22996369
0.049278751 0.0042251814 0.22986728
0.0095773805 0.044618867 0.22653392
0.0060899127 0.045214459 0.22608697
0.048671611 0.0060415957 0.22607815
0.048860185 0.009858083 0.22528312
0.014240591 0.044509612 0.22269145
0.01117143 0.044568475 0.22162402
0.047822058 0.010850692 0.22061792
0.047359087 0.01417743 0.22093761
0.018770849 0.043701112 0.21756077
0.015925709 0.044528045 0.21812797
0.012420742 0.045126393 0.21696714
0.046807982 0.01533292 0.21722174
0.045362309 0.018245956 0.21518472
0.043871086 0.021560591 0.2153143
0.025171587 0.040859863 0.21285993
0.020526815 0.042597439 0.21372068
0.016782718 0.044157363 0.21327722
0.044643898 0.018413883 0.2108556
0.043623682 0.022253718 0.21075416
0.041824564 0.026522838 0.21060365
0.038741998 0.030118389 0.2101495
0.035572458 0.033188004 0.20983565
0.031945128 0.036691274 0.20947197
0.028733663 0.038656257 0.20970145
0.025209371 0.040743392 0.20938778
0.020968383 0.041506395 0.20873046
0.043466575 0.023471847 0.20645151
0.041760087 0.026660502 0.2067492
0.038746037 0.029911757 0.20660511
0.035776231 0.033202719 0.20650485
0.033317339 0.036106903 0.20650494
0.029317329 0.038350765 0.20535004
0.025523502 0.040607501 0.2045314
0.038609743 0.028635964 0.20246893
0.035747446 0.032063343 0.20249325
0.032316789 0.03580562 0.20235062
0.03069777 0.036870107 0.20195371
0.026786167 0.040129278 0.20131767
0.04832311 -0.0088490956 0.24483362
-0.0063321367 0.043117665 0.23983136
0.048296615 -0.0082858428 0.24110457
-0.0051430482 0.04391297 0.23600221
-0.0071978308 0.044659849 0.23698646
0.049146991 -0.0055761561 0.23670727
-0.0030235313 0.044841249 0.2315034
0.049483947 -0.0042389706 0.231902
0.049231671 -0.0011628736 0.23264983
0.0022192821 0.045195632 0.2283521
-0.0011246409 0.045276232 0.22668341
0.049048197 -0.00029756501 0.22804937
0.0041377991 0.044905454 0.22341436
0.00040205754 0.044842847 0.22328925
0.04825598 -0.00015459955 0.22402754
0.048576482 0.0036360268 0.22317261
0.0076858066 0.043886837 0.21950465
0.0050560683 0.043760676 0.21865016
0.048393998 0.0051348582 0.21867248
0.048022442 0.0077969413 0.21822223
0.0093387999 0.044376541 0.21457565
0.047262542 0.0089316815 0.21410739
0.046056494 0.012670731 0.2140722
0.014823304 0.043655157 0.21027783
0.011476276 0.044049986 0.21081889
0.046828069 0.010190405 0.20972577
0.04614456 0.013300702 0.20927575
0.045161542 0.016969465 0.20874387
0.020223655 0.04147904 0.20597637
0.015829667 0.042659055 0.20632717
0.045959514 0.014404934 0.20422786
0.045117036 0.017204499 0.20419443
0.044158265 0.020654505 0.20492613
0.024017084 0.041036282 0.20194998
0.020670135 0.041173957 0.20212728
0.017573677 0.041963849 0.20144817
0.045137942 0.018189333 0.2005955
0.043353405 0.021766659 0.20028293
0.041113142 0.025571747 0.19980055
0.038479395 0.029368019 0.19975683
0.035274245 0.032490298 0.19929853
0.032558665 0.034798384 0.19887614
0.028780172 0.037680812 0.19848233
0.02548063 0.04065486 0.19798735
0.022301178 0.041323777 0.19729871
0.042937763 0.022625275 0.19592348
0.041385654 0.02551866 0.19467905
0.038920157 0.029347481 0.1942485
0.035899196 0.032636855 0.19412386
0.03255954 0.034694042 0.19344664
0.029057238 0.037012499 0.19377071
0.025460916 0.040286653 0.19366568
0.037669171 0.030595435 0.19062778
0.035716273 0.032246605 0.19031781
-0.008291468 0.043604072 0.23346615
0.049286768 -0.0089929122 0.23484167
-0.0072047003 0.044470053 0.22924957
0.0495525 -0.0079042148 0.22974297
-0.0039106905 0.045578413 0.22453585
-0.0061787833 0.045259818 0.22410193
0.048513055 -0.0067635458 0.22604445
0.048794478 -0.0031982102 0.22556829
-0.001167139 0.045083478 0.22086841
-0.0048508905 0.044654302 0.22108421
0.048020177 -0.002280131 0.22101021
0.048028085 0.0010665394 0.21927175
0.0027710237 0.043918703 0.21637893
-0.00011558086 0.044454448 0.21567985
0.048038252 -0.0010282379 0.21662131
0.048027195 0.0021264981 0.21603116
0.0077177025 0.043663837 0.21167135
0.0041637905 0.043888964 0.2116186
0.0010166392 0.044508025 0.21196675
0.047916465 0.00282095 0.2119002
0.047732629 0.006341802 0.21165091
0.0085120499 0.043586586 0.20824465
0.0051202215 0.044056263 0.20756859
0.047821052 0.0036589615 0.20815888
0.047619976 0.0076185744 0.20698789
0.046583511 0.011483915 0.20583412
0.013880014 0.042542018 0.20362073
0.010234514 0.043086626 0.20319772
0.047944341 0.0091403127 0.20221487
0.046766624 0.012759781 0.20278308
0.019014914 0.041480459 0.19939679
0.015517638 0.042217501 0.19931227
0.012013236 0.043468229 0.19843692
0.046530515 0.013218353 0.19810849
0.045492627 0.016551966 0.19826841
0.044089179 0.019351173 0.19764212
0.01963982 0.04121948 0.19576597
0.016451132 0.041919749 0.19492561
0.046845224 0.014064584 0.19358894
0.045928124 0.017250385 0.19327369
0.043781195 0.02086525 0.19320983
0.040978082 0.024909792 0.19151759
0.032357045 0.034381308 0.19120491
0.028416131 0.036796842 0.19101903
0.025249034 0.039436504 0.19037309
0.021088913 0.041127637 0.19082439
0.017772831 0.041776981 0.19182122
0.046075907 0.017973963 0.18840253
0.043784216 0.021375075 0.18802461
0.041107841 0.024817176 0.18801245
0.038948327 0.028125344 0.18839028
0.036152676 0.031627193 0.18761751
0.032746527 0.034591664 0.18799973
0.029363545 0.036626354 0.18706024
0.026002437 0.039603442 0.18659195
0.023250394 0.041386589 0.18588865
0.043116532 0.022975029 0.18471503
0.04133594 0.025269687 0.18437415
0.039286494 0.028153645 0.18328002
0.036613803 0.031851728 0.18356362
0.033279434 0.034854099 0.18312126
0.030183811 0.0369731 0.1826019
0.026671916 0.039476864 0.18277487
0.038771912 0.029258518 0.17996919
0.037005223 0.032487944 0.17916337
0.034144267 0.035220727 0.17897418
0.031471841 0.036488794 0.17932513
-0.0079807416 0.045333084 0.22235632
0.048508361 -0.0084302519 0.22345632
-0.0070074927 0.044381946 0.21813029
0.047840096 -0.0079494026 0.2192708
0.047701608 -0.0037716106 0.21812898
-0.0041315462 0.043394804 0.21398884
0.048406284 -0.0065122694 0.21438935
0.048027284 -0.0036165211 0.2141628
-0.0010901019 0.044656891 0.20937493
0.047465339 -0.0021616202 0.21058476
0.04781533 0.00059962086 0.20909959
0.0035255384 0.044268847 0.20506549
0.00034302659 0.044948913 0.20508185
0.048295856 0.0018323287 0.20561278
0.0077684112 0.043370288 0.20111331
0.0044107717 0.04380101 0.2012423
0.0014593769 0.044622205 0.20177817
0.048637398 0.002744427 0.20094255
0.04853382 0.0061194934 0.20047358
0.0093712639 0.044256002 0.19669244
0.0063286088 0.044249557 0.19692627
0.046628047 0.0076556243 0.19587594
0.046208337 0.010295123 0.19541541
0.014876795 0.042649467 0.19326293
0.011430068 0.043831959 0.19278434
0.0074770916 0.044553407 0.19181314
0.046547942 0.008525297 0.19210833
0.046836823 0.012135332 0.19151342
0.019520782 0.041510046 0.18825871
0.016458869 0.04243945 0.18941084
0.012321252 0.043634109 0.18863794
0.047092207 0.013342185 0.18673024
0.046667889 0.016787633 0.18656451
0.045114879 0.019583885 0.18597648
0.020633416 0.041517317 0.18445829
0.01720022 0.042331893 0.18447956
0.01369402 0.043006979 0.18479404
0.047078926 0.013948508 0.18255761
0.045940831 0.01671689 0.18198618
0.044084638 0.020788103 0.1822511
0.041699633 0.024654776 0.18187785
0.029024616 0.037755862 0.18031743
0.026252476 0.040158212 0.18049669
0.022121746 0.041854788 0.18013605
0.018790655 0.042240247 0.17929929
0.043424189 0.020971619 0.17752171
0.041663796 0.024711423 0.17759514
0.039624974 0.027932061 0.17779258
0.037498966 0.031899117 0.17697456
0.034145929 0.035313286 0.17583111
0.030357426 0.037317164 0.17707852
0.026390241 0.039501391 0.17607808
0.022611253 0.04141701 0.17555043
0.038321059 0.027519057 0.17345726
0.036375206 0.031463038 0.17273021
0.033581141 0.034573708 0.17213303
0.030307533 0.03638906 0.17277265
0.027685137 0.03789141 0.17243853
0.048957739 -0.0086293444 0.21257511
0.047113091 -0.0043836981 0.21115366
-0.0068474114 0.043679759 0.20687017
0.048535176 -0.0077883713 0.20722231
0.047500603 -0.0045233183 0.20756736
-0.0029829107 0.044107519 0.20179126
-0.0057144128 0.043998875 0.20233685
0.048818458 -0.007022921 0.20383835
0.048267245 -0.0038493332 0.20322001
-0.0010657758 0.044213288 0.19824463
0.048839975 -0.0021108761 0.19867098
0.048820142 0.00056847185 0.19804475
0.0034763962 0.043900661 0.19402003
0.00045177341 0.043942943 0.19430164
0.049479969 -0.0014201347 0.19437179
0.048517145 0.001534814 0.1936706
0.047374949 0.0051543806 0.19393003
0.0044568051 0.043763213 0.18887639
0.001288848 0.044163786 0.19086802
0.048634477 0.0023584142 0.18974543
0.047483653 0.0062300954 0.1895963
0.046276912 0.0098775011 0.18904614
0.010875378 0.043376647 0.185754
0.0072594676 0.043856688 0.18513685
0.04852578 0.0043783169 0.18498668
0.047914661 0.0075346511 0.1852718
0.046895549 0.010562578 0.18473086
0.015320804 0.042005681 0.1804722
0.011800016 0.042922944 0.18189263
0.0087599028 0.043640964 0.18140805
0.047889665 0.0084698703 0.18152946
0.046763487 0.011516644 0.17938399
0.045941729 0.015308675 0.17898822
0.016574679 0.042364463 0.17693049
0.013183667 0.043012287 0.17683387
0.046716526 0.012156215 0.17607108
0.045772888 0.015816517 0.17554316
0.043959055 0.019131664 0.17506415
0.021049757 0.041446481 0.17303652
0.017818406 0.042855933 0.17275509
0.014715841 0.043469213 0.1712516
0.044991322 0.016553003 0.17093873
0.043495275 0.019933738 0.17102772
0.041240204 0.023902904 0.17154434
0.038874615 0.02675215 0.17107737
0.036353707 0.030200914 0.16944742
0.032855492 0.033684891 0.16854677
0.02922805 0.036002409 0.16950548
0.025735386 0.038600668 0.16984433
0.022136241 0.040813155 0.16884223
0.018690463 0.042332992 0.16878808
0.043570146 0.020782813 0.16698903
0.041344419 0.024067828 0.1660547
0.039082665 0.026880864 0.16544348
0.036402855 0.030396188 0.16502345
0.032934733 0.033572994 0.16491151
0.029530574 0.035723079 0.1651946
0.026615568 0.038095042 0.16490114
0.023594825 0.039929338 0.16472369
0.036582459 0.030573871 0.16130465
0.03360527 0.033103101 0.16082495
-0.0067416318 0.043589946 0.19924796
0.048233636 -0.0088807866 0.20090324
-0.0056733675 0.044548631 0.1961233
0.048849776 -0.0048854556 0.1973893
-0.0019434728 0.044093981 0.19226071
-0.0049889758 0.04466508 0.19121319
0.04899234 -0.0036129691 0.19271326
0.048958115 -0.00035870261 0.19101611
0.0028650556 0.043701552 0.18617469
-0.00044006854 0.044051219 0.18762809
-0.0041755363 0.045320589 0.18839297
0.048515648 0.00036850572 0.18717706
0.0049014427 0.043690961 0.18283546
0.0021477286 0.043652073 0.18252349
0.048522439 0.001988031 0.18292901
0.0099137202 0.042855699 0.17899227
0.0064721946 0.043745652 0.17900437
0.0031863321 0.043763719 0.17830351
0.048131403 0.0028320141 0.17890561
0.047780883 0.0065735243 0.17830536
0.047158334 0.0098672211 0.17699495
0.011042329 0.04339914 0.17486346
0.0079150181 0.043927193 0.17502511
0.047460835 0.0067632273 0.17351466
0.046644423 0.010637768 0.17294425
0.011926316 0.043504495 0.16964003
0.0091318712 0.043639064 0.17080247
0.046645414 0.010794427 0.1683172
0.045579523 0.014624458 0.16914141
0.044225279 0.01744483 0.16821736
0.020269135 0.041331545 0.16619012
0.016836014 0.042277254 0.16584998
0.013887808 0.042947363 0.16551167
0.046809468 0.012392163 0.16535056
0.045595396 0.014807995 0.16403735
0.044003535 0.01881538 0.16436526
0.041822776 0.02303797 0.1632835
0.031398844 0.03373054 0.16164654
0.029566763 0.035577714 0.16150254
0.026462993 0.038034838 0.1618225
0.021127831 0.040183336 0.16201672
0.017221764 0.041020364 0.16240153
0.045337237 0.016199278 0.16094059
0.043255128 0.019599624 0.15961766
0.041189875 0.022843953 0.15859318
0.038894594 0.026284784 0.15863541
0.036442392 0.030269369 0.15831959
0.032614451 0.033159126 0.15790421
0.029293478 0.035136506 0.15781575
0.026119476 0.037677869 0.1575222
0.023462346 0.039481133 0.15710691
0.040964685 0.023487771 0.15475321
0.038954783 0.026075903 0.15415514
0.036547977 0.029223505 0.15416333
0.033330146 0.032423202 0.15296677
0.029964909 0.03528434 0.15294924
0.026907884 0.037693627 0.15293348
-0.0083229057 0.044359401 0.1928201
-0.0078331549 0.044722073 0.18968159
0.046508528 -0.007040076 0.18828526
-0.0022587739 0.043420013 0.18407989
-0.0048012957 0.044394091 0.18522203
0.047041431 -0.0049008187 0.18418252
0.047690041 -0.0023051817 0.18398935
-0.0015944466 0.042564072 0.17908794
-0.0043939445 0.043212347 0.18189076
0.047711268 -0.0021430347 0.18001175
0.00093724579 0.043432549 0.17596298
0.047845893 7.4421987e-05 0.17618093
0.005264258 0.04370103 0.17222494
0.0025362931 0.043700125 0.17192611
0.047589548 0.0018463936 0.17189911
0.047675617 0.005234113 0.17136103
0.006784901 0.043398123 0.16772732
0.0033020843 0.043578312 0.16830152
0.047670439 0.0058149938 0.16678074
0.047252975 0.0091035273 0.16576368
0.01105543 0.042654492 0.16287127
0.0080804732 0.043134667 0.16282463
0.047836769 0.0075643435 0.16257358
0.04722869 0.010490555 0.16256505
0.01642203 0.041325249 0.15972799
0.012609758 0.042654801 0.15888941
0.0090837535 0.043205045 0.15868104
0.04684905 0.011412082 0.15798593
0.045637026 0.014181564 0.15800503
0.044255517 0.017379191 0.1578415
0.020337272 0.039194766 0.15599009
0.017341547 0.040852319 0.15504628
0.013676119 0.042529739 0.15493917
0.044805102 0.01450823 0.15359607
0.043950845 0.018939022 0.15325221
0.04164467 0.022828378 0.15244877
0.038906567 0.025870591 0.15152651
0.036339875 0.028844196 0.1510694
0.02921563 0.035604659 0.15028808
0.026430205 0.037932441 0.15027672
0.022911124 0.039606139 0.15101111
0.0184808 0.041046903 0.15070993
0.044380985 0.019754069 0.14808604
0.042078204 0.023239106 0.14790928
0.039119132 0.025837786 0.14747173
0.036404382 0.02869588 0.14732528
0.033501092 0.032298643 0.14746153
0.030377116 0.035665963 0.14733523
0.027451135 0.038298376 0.1469366
0.023809467 0.040255647 0.1463536
0.020161839 0.040481143 0.14732009
0.033111326 0.031695232 0.14317816
0.030262435 0.034951478 0.1424183
0.027209317 0.038221356 0.14228442
0.02469803 0.040021177 0.14243892
-0.0061912853 0.04149168 0.177349
0.047210239 -0.0069397185 0.17846102
-0.0015841909 0.042858142 0.17333984
-0.005127199 0.042030066 0.17274618
0.048098538 -0.0061787292 0.1743497
0.047571696 -0.0026882645 0.17344743
-0.00083641149 0.042965464 0.16880503
-0.0032578576 0.042985477 0.16787899
0.047388718 -0.0019352939 0.16944328
0.00096632354 0.042849012 0.16475359
0.047864996 0.00014577806 0.16525275
0.047832936 0.0038073324 0.16341063
0.0052584782 0.042632937 0.16054171
0.0018322412 0.04262837 0.16085759
0.048049487 0.0014325473 0.16094425
0.047564507 0.0048571639 0.16010183
0.010680404 0.042784221 0.15573257
0.0078254696 0.043032028 0.15563011
0.046879426 0.0053883493 0.15564781
0.046642862 0.0084443223 0.15548593
0.012113638 0.042791326 0.15228587
0.0087757334 0.043581706 0.15130004
0.046017945 0.0097442158 0.15096164
0.045331754 0.012988769 0.1512621
0.016447116 0.041861121 0.14825112
0.013064425 0.042920776 0.14798295
0.0099041034 0.04402893 0.14710668
0.046135344 0.010352653 0.14725438
0.045231447 0.013425481 0.14670092
0.04482339 0.017161883 0.14635074
0.02214692 0.040355384 0.14289665
0.0191424 0.041227181 0.1446102
0.014643294 0.042405453 0.14308691
0.045189194 0.014742682 0.14247245
0.044058945 0.018240623 0.14131749
0.041445374 0.022189982 0.14135975
0.038633354 0.024974329 0.14111412
0.0361211 0.028072337 0.14122567
0.033211559 0.031648107 0.14041451
0.029592233 0.034989335 0.13949814
0.02726282 0.037319109 0.1393072
0.023336038 0.039762631 0.13904583
0.019054078 0.040943693 0.13942021
0.015944481 0.042604282 0.14025697
0.043105103 0.019842347 0.13737059
0.041477524 0.022166647 0.13627511
0.039367966 0.025405576 0.13618457
0.036913753 0.028576022 0.13637787
0.033433013 0.031623542 0.13585362
0.029911939 0.034634154 0.13528338
0.027235815 0.037562586 0.13520238
0.024084039 0.039424591 0.1348626
0.039761107 0.025930103 0.13220304
0.037446015 0.028804787 0.1311917
0.034751136 0.031127494 0.13139367
0.031222289 0.033891413 0.13193852
0.037247293 0.030295007 0.12811512
-0.0072093345 0.042511825 0.17179787
0.047336075 -0.0082133487 0.17043513
-0.0054764133 0.043641157 0.16692549
-0.0075889472 0.045297422 0.16652447
0.046451204 -0.0078585148 0.16631714
0.047079045 -0.0044768192 0.16615516
-0.0012840815 0.042836636 0.16251796
-0.0037423689 0.044195682 0.16268551
-0.0060769245 0.046545126 0.16249913
0.046890423 -0.0068986528 0.1629813
0.047040589 -0.0047689117 0.16321272
9.0505928e-06 0.042688549 0.15796998
-0.0035472848 0.043819539 0.15845573
-0.0054946858 0.046095759 0.15892199
0.047884721 -0.0013194121 0.15897727
0.047238387 0.002662925 0.15692729
0.0042118356 0.042237867 0.15528959
0.001161743 0.04250627 0.15387973
0.047288403 8.1354752e-05 0.15422654
0.0463221 0.0028821304 0.15239793
0.0055942684 0.043337863 0.15018594
0.0028575845 0.043502457 0.14862311
0.046378881 0.0036660694 0.14854378
0.046091892 0.0070730355 0.1487599
0.0078658406 0.044535026 0.14529121
0.0047265049 0.044147819 0.14354599
0.047186702 0.0053914655 0.14338267
0.046301402 0.0081312507 0.14406568
0.045808628 0.011685329 0.14402306
0.011845555 0.04339068 0.14188802
0.0089125112 0.044265635 0.14054689
0.046580292 0.0085986499 0.13961768
0.045414466 0.01235795 0.14011624
0.017509524 0.041214306 0.13672626
0.014555522 0.042798996 0.13738549
0.010737462 0.043626048 0.13606632
0.04510279 0.012763847 0.13502112
0.043568127 0.017004335 0.13505843
0.041983061 0.021299636 0.13369393
0.022418685 0.039261468 0.13215047
0.018948996 0.040619165 0.13353544
0.014961447 0.041976105 0.13290346
0.043095093 0.016999494 0.13036373
0.041606825 0.021617997 0.12984514
0.040084973 0.025245266 0.12947533
0.033723749 0.031866305 0.12925825
0.030381009 0.034166962 0.12903416
0.027061585 0.037125345 0.12919191
0.02321337 0.038709771 0.12832823
0.019085107 0.04011862 0.12909043
0.040978134 0.022585697 0.12523216
0.039611746 0.025216926 0.12511784
0.037918098 0.028713614 0.12552133
0.034820188 0.031488772 0.12532407
0.030818213 0.034041736 0.12418008
0.027330523 0.037130456 0.12367049
0.024490884 0.038995631 0.12288952
0.037179578 0.028539229 0.1200971
0.034863368 0.031219162 0.11947805
0.031354867 0.034298554 0.1189478
0.027960278 0.037172712 0.11952263
0.025097039 0.039430846 0.11971021
0.046995483 -0.0086520631 0.16030037
0.046691552 -0.00542273 0.15989614
-0.0048385449 0.043383691 0.15497157
-0.0066765416 0.044956595 0.15487006
0.046436671 -0.0074189976 0.1549978
0.046901576 -0.004830908 0.15659866
-0.00093206204 0.042859674 0.1516186
-0.0050425325 0.042728826 0.15027344
-0.0073421113 0.044265278 0.15039453
0.046692364 -0.0031870622 0.15171102
0.00026459247 0.04384134 0.14817265
-0.003336018 0.043560147 0.14648932
-0.0054397546 0.045846179 0.14578378
0.047022812 -0.0012553819 0.14728591
0.046721186 0.0017536618 0.14633712
0.0017511528 0.044329777 0.14333066
-0.0015965346 0.043812431 0.14234331
0.048193343 0.00054811686 0.14236096
0.0476643 0.0029067174 0.14235058
0.0039034467 0.044154726 0.13834527
0.048611902 0.00062657334 0.13793266
0.048095882 0.0042139422 0.13788837
0.047188923 0.0078045465 0.13713989
0.0083214529 0.043881584 0.13394397
0.0053150542 0.044377163 0.13309699
0.047896504 0.0053522307 0.13340181
0.047007401 0.0083035454 0.13350692
0.045972038 0.01107873 0.13342786
0.014235584 0.042016804 0.12991172
0.010263707 0.043122955 0.12967491
0.0063718688 0.044326894 0.12955159
0.04684478 0.0091152005 0.1294117
0.045576632 0.012275631 0.12908432
0.043824665 0.0161661 0.12822688
0.021175534 0.038769208 0.12634832
0.018536493 0.040319342 0.12628719
0.014527705 0.041681185 0.12563106
0.011240901 0.042897113 0.12548786
0.045276832 0.012586553 0.12429231
0.044030279 0.016121101 0.12451684
0.041736156 0.020170292 0.12364528
0.040071316 0.023382986 0.12223387
0.021648118 0.039035685 0.12203261
0.019148372 0.040161852 0.12162977
0.015536323 0.041252028 0.12157899
0.043874532 0.016141448 0.12011641
0.041226164 0.020300964 0.11883664
0.039263047 0.024229908 0.11835641
0.03820727 0.027573675 0.11830115
0.027813319 0.037755635 0.11717415
0.023961274 0.039407909 0.11649239
0.019626088 0.04061503 0.11714643
0.038681626 0.025328569 0.11476022
0.037470609 0.028083032 0.11386389
0.035038345 0.031084858 0.1137535
0.031932507 0.034233537 0.11391222
0.027999975 0.037314519 0.11368018
0.025288465 0.039028514 0.11320591
-0.005062744 0.042656843 0.14811733
-0.0070381369 0.044477396 0.14787382
0.046330191 -0.00871839 0.14889568
0.046392523 -0.0047198869 0.14885694
-0.0050100572 0.043793201 0.1437231
-0.0064592548 0.044961195 0.14659214
0.046864346 -0.0079846028 0.14507994
0.04688824 -0.0044766124 0.14551315
-0.0030363612 0.043371618 0.14029574
0.047577024 -0.0031502973 0.14095983
8.3521008e-05 0.043391436 0.13748166
-0.0016392618 0.043130472 0.13486338
0.048118286 -0.0023703631 0.13639286
0.048229948 0.0019053183 0.13458693
0.0030884333 0.044117533 0.13118857
0.0001595933 0.043306619 0.13178748
0.047613367 0.0029181298 0.13093925
0.0083165597 0.043281294 0.1263921
0.0050344039 0.043926626 0.12626699
0.047412127 0.0037845857 0.12602359
0.046697177 0.006778283 0.1261104
0.0094460025 0.042977836 0.12247795
0.0059856158 0.043287113 0.12156528
0.047678001 0.0042454936 0.1221236
0.046661295 0.0076096598 0.12170494
0.04584508 0.011285309 0.12220097
0.014265023 0.041818224 0.11916113
0.01038285 0.042859603 0.11812931
0.047354843 0.0085862838 0.11702704
0.045960359 0.011842187 0.11758476
0.044381388 0.015618695 0.11755109
0.042148817 0.018201761 0.11744058
0.018852867 0.040708646 0.11445117
0.015234767 0.041947573 0.11472762
0.011952666 0.043007571 0.11368066
0.046859168 0.01241103 0.11269486
0.044585943 0.015913475 0.11321747
0.041425023 0.019141439 0.11282307
0.038920622 0.023526557 0.11226839
0.03774894 0.026058955 0.11070436
0.030086718 0.03357169 0.10999572
0.027665759 0.035892799 0.10974127
0.023329638 0.03875874 0.11047286
0.019325614 0.040080704 0.11053437
0.015674852 0.041560519 0.10963559
0.044725232 0.016136527 0.10878199
0.041691132 0.019426398 0.10769367
0.039126281 0.023223501 0.10778445
0.03693305 0.026919929 0.10678321
0.034190588 0.029886521 0.10669154
0.031207127 0.032600619 0.10629237
0.027667822 0.035711762 0.10575575
0.023693167 0.03822289 0.10603809
0.020182632 0.038878616 0.10652316
0.041000508 0.021299135 0.10425448
0.03947245 0.023752231 0.10296613
0.037216425 0.027135603 0.10149491
0.034419175 0.029803161 0.1009478
0.031548534 0.032650676 0.10070211
0.028442051 0.035651673 0.10058403
0.025445472 0.038242627 0.10039496
0.036206644 0.029501686 0.09806025
0.031372327 0.034200963 0.097589552
0.029438592 0.036080658 0.097401202
0.027504887 0.037960391 0.09721297
-0.0055697262 0.04193034 0.1370492
0.047231019 -0.0089156348 0.13839918
-0.0049035791 0.04242304 0.1329577
-0.0074919593 0.04371573 0.13205454
-0.0088756718 0.046067614 0.13054541
0.048117884 -0.0065965429 0.13421318
0.047334567 -0.0040978286 0.13268307
-0.0026117954 0.043071322 0.12871337
-0.0066067409 0.045409247 0.12797993
0.046883389 -0.0026482008 0.12973627
0.046835445 -1.7976388e-05 0.12884191
-0.00070719048 0.042794406 0.12475401
-0.0072165206 0.047405973 0.12462759
0.046574987 -0.0025408044 0.12536931
0.046926215 0.00048718415 0.12417862
0.0034157969 0.043677162 0.12110984
0.00058425777 0.04336077 0.11962003
0.047855973 0.0032667536 0.11975956
0.047374435 0.0057065319 0.11985493
0.0088235792 0.043396004 0.11525702
0.0051457565 0.043728642 0.11597484
0.0013726708 0.043961108 0.11562175
0.048099801 0.0033689421 0.11532384
0.047883138 0.0063679479 0.11523694
0.0097428393 0.043388635 0.11158985
0.0062491577 0.043855764 0.11113888
0.047652699 0.0079437103 0.11129308
0.014489274 0.042220537 0.10729361
0.011218926 0.042896688 0.10747916
0.045886897 0.011610171 0.10639811
0.044995219 0.015343651 0.10586852
0.042409487 0.01897957 0.10578597
0.021808257 0.038426213 0.103441
0.018935718 0.039694548 0.10397786
0.015386898 0.041069962 0.10331953
0.044040866 0.015198411 0.1013934
0.042135574 0.019131152 0.10160321
0.040267788 0.024138352 0.10022515
0.038582206 0.02624285 0.099685252
0.022932626 0.038858727 0.099560797
0.01990597 0.039655693 0.09925741
0.016412612 0.040636498 0.099178255
0.042084552 0.01976648 0.096968472
0.040228866 0.02361487 0.096708596
0.037788197 0.027192056 0.096770346
0.034923647 0.030347135 0.096057832
0.032243904 0.033079762 0.095873594
0.029255575 0.035801698 0.095146358
0.025492134 0.038782947 0.095685542
0.021593267 0.039100938 0.094542801
0.03997869 0.02388563 0.092829049
0.03761543 0.027036224 0.092195868
0.035079937 0.029936951 0.091400921
0.032260135 0.032622144 0.091092765
0.029037688 0.03544027 0.091824293
0.026117858 0.037806291 0.091748655
0.023402013 0.039426073 0.091363907
-0.0062937923 0.043714918 0.12512621
0.046830039 -0.008724831 0.12729332
0.046306074 -0.0061901715 0.12657577
-0.0038767196 0.042331841 0.12164497
-0.0071806572 0.044361115 0.12170875
0.046393268 -0.0046472941 0.12215963
-0.0030260831 0.042617362 0.11730784
-0.0074013509 0.045285322 0.11756009
0.046683393 -0.0035573412 0.11760813
0.047015317 -0.0006229803 0.11897516
-0.0007609129 0.043191399 0.11285621
0.04732522 -6.7666173e-05 0.113653
0.0037850868 0.043511845 0.10882431
0.00097505748 0.043432452 0.10923409
0.047070302 0.0016477462 0.10957861
0.046719618 0.0050529446 0.10738879
0.0090312622 0.042318918 0.10408169
0.0052361432 0.043187261 0.10502553
0.045477983 0.006418854 0.10343307
0.045664281 0.009180136 0.10287404
0.013536764 0.041096896 0.10014701
0.0095459353 0.041481063 0.10015315
0.0062003229 0.042417943 0.10129356
0.046077173 0.0067894235 0.10010844
0.045710731 0.010244481 0.098935664
0.044690318 0.013756495 0.099012792
0.017676298 0.039862026 0.096619606
0.014047644 0.04039498 0.095236003
0.01044123 0.04152634 0.096695483
0.046102732 0.01097101 0.094361246
0.044715554 0.014803044 0.09504807
0.042871073 0.018220516 0.094359517
0.019666683 0.039435599 0.09249717
0.016020631 0.039980538 0.091128647
0.044757351 0.015150178 0.090001106
0.04258452 0.019113265 0.090245187
0.040223241 0.02308698 0.089842618
0.037978128 0.02600201 0.08927542
0.028759081 0.035016667 0.08841002
0.025367901 0.03780172 0.088561833
0.02124008 0.039120905 0.08772105
0.044737309 0.016154077 0.085951269
0.042791188 0.019753674 0.085252404
0.040399797 0.023376383 0.085368931
0.037932094 0.026707422 0.085699737
0.035204906 0.029753739 0.085676789
0.032483347 0.032801516 0.085658729
0.029409502 0.035485927 0.085173488
0.026000291 0.037839249 0.084253073
0.02308129 0.039276659 0.08361119
0.037816998 0.026351791 0.081413925
0.034976602 0.029646583 0.080666363
0.032469396 0.032531742 0.080498755
0.029558424 0.035398278 0.080238342
0.026233315 0.037860192 0.079639018
0.024156418 0.039673153 0.080109954
-0.0070798565 0.042567745 0.11885816
0.046194263 -0.0073963832 0.11954111
-0.0043686107 0.042430755 0.11401969
-0.0071098134 0.043058593 0.11489719
0.046553053 -0.0066050645 0.11494178
-0.0034204666 0.042730033 0.1104027
-0.0064348485 0.043244295 0.11022514
0.046608426 -0.0047135409 0.11055499
0.046856359 -0.0014629792 0.11060137
-0.0017098635 0.043087278 0.10632336
-0.0049034003 0.043578096 0.10551488
0.046701111 -0.0039803926 0.10611576
0.046618778 -0.00073502213 0.10628009
0.0028857924 0.043132786 0.10247338
-0.00026313588 0.043028653 0.10133356
0.046097733 -0.00043253973 0.10233212
0.044733226 0.0023231748 0.10114932
0.0074713454 0.041620608 0.097732842
0.0042691082 0.042643584 0.097930849
0.00017894432 0.04333286 0.097852051
0.045389347 0.0038686395 0.096946478
0.0092569627 0.04191374 0.094484806
0.0055288095 0.042818226 0.09384352
