# .PCD v0.7 - Point Cloud Data file format
VERSION 0.7
FIELDS x y z
SIZE 4 4 4
TYPE F F F
COUNT 1 1 1
WIDTH 1317
HEIGHT 1
VIEWPOINT 0 0 0 1 0 0 0
POINTS 1317
DATA ascii
-0.006201487 0.010623341 0.34786111
-0.00930636 0.008516483 0.34850642
-0.011717443 0.0053013824 0.34720856
-0.013718719 0.0021836734 0.34471026
-0.0047224551 0.014619697 0.34323573
-0.0075407159 0.013058472 0.34420025
-0.010983675 0.01048304 0.34400302
-0.013014613 0.0068659596 0.34344646
-0.0086290576 0.012552334 0.33931559
-0.011343746 0.011175674 0.33850551
-0.013130869 0.0083635906 0.33821884
-0.013493836 0.0092333835 0.33458623
-0.01829442 0.0055659236 0.33153096
-0.018081322 0.024655003 0.30705559
-0.020293552 0.022110704 0.30711168
-0.023125567 0.019185055 0.30708236
-0.025510434 0.016431848 0.30619904
-0.015407106 0.029048808 0.30242163
-0.018517673 0.026439814 0.30350623
-0.021599209 0.023648372 0.30351347
-0.025084194 0.021096591 0.30360094
-0.027706668 0.017700952 0.3030445
-0.030058403 0.014674023 0.30098879
-0.0325264 0.011388643 0.30042514
-0.014439454 0.033002984 0.29929051
-0.016930481 0.031309545 0.29972774
-0.020287314 0.028621983 0.29971921
-0.023340199 0.025651034 0.29948604
-0.026441077 0.022729125 0.29929
-0.029287338 0.019557871 0.29890093
-0.031526595 0.015768891 0.29804012
-0.034415908 0.012626841 0.29767817
-0.015250589 0.034439173 0.29559615
-0.018409204 0.033054266 0.29550096
-0.021779524 0.030380741 0.29550916
-0.024978695 0.027554389 0.29539087
-0.027984982 0.024544414 0.29512572
-0.030688535 0.02123525 0.29462522
-0.033603236 0.018131394 0.29428771
-0.036448307 0.014954255 0.29389364
-0.036417283 0.011359974 0.29389313
-0.016756905 0.035100769 0.29188421
-0.019330738 0.034052964 0.29095051
-0.022884801 0.031772122 0.29100534
-0.026197832 0.029051991 0.29097769
-0.029066237 0.025905991 0.29060411
-0.031968068 0.022791458 0.29025641
-0.034902837 0.019707704 0.28993374
-0.037393015 0.016167127 0.28925169
-0.020172307 0.034186505 0.28742695
-0.023519132 0.032714754 0.28612515
-0.02719456 0.030335309 0.28638604
-0.030282667 0.027400736 0.28618586
-0.03324908 0.024349142 0.28588873
-0.035607737 0.020848116 0.28532857
-0.037405964 0.017265627 0.28500545
-0.021540914 0.035285942 0.28260145
-0.024573069 0.03405669 0.28156629
-0.028277738 0.031702694 0.2818574
-0.031521067 0.028916864 0.28178346
-0.034151305 0.025529861 0.28120968
-0.035730753 0.022424167 0.28060499
-0.025417041 0.034212317 0.27876753
-0.029041693 0.032405019 0.27721536
-0.032145243 0.029813875 0.2772041
-0.034312077 0.026671136 0.27702206
-0.036229551 0.023501325 0.2770769
-0.0022537685 0.0046268366 0.35260695
-0.0058190934 -0.00046328781 0.35175037
0.0014592856 0.0099090533 0.34794149
-0.0019957349 0.0064778766 0.34983045
-0.0050875 0.0043637501 0.35066825
-0.0081200022 0.0011170949 0.34988749
-0.00058055576 0.012249618 0.3463589
-0.0027016702 0.0097270012 0.34772897
-0.010864391 0.0020233691 0.34741181
-0.013109257 -8.537434e-05 0.3460823
-0.014722789 -0.0015141577 0.34541523
0.0015007937 0.016192676 0.34170914
-0.0019312613 0.014494809 0.3424179
-0.013479333 0.0045111333 0.34043798
-0.014403343 0.001901709 0.34125581
-0.015938917 -0.000993717 0.34018347
0.00017349981 0.017075278 0.33737516
-0.0030952413 0.015101503 0.33763444
-0.0063680685 0.013182746 0.33736035
-0.013770595 0.0057603507 0.33685005
-0.015166136 0.002941018 0.33652127
-0.016144108 0.00045247842 0.33587018
-0.0010767998 0.017984726 0.33258712
-0.0037468579 0.016115144 0.33207539
-0.0071165515 0.013624322 0.3324365
-0.010969021 0.011121876 0.33304241
-0.01407377 0.0078484202 0.33239582
-0.016010668 0.004287377 0.33235228
-0.0026241681 0.018680051 0.32888156
-0.0041600177 0.017132642 0.32812324
-0.007929787 0.013912203 0.32805359
-0.011230718 0.011689702 0.32796395
-0.014381122 0.0087737562 0.32777387
-0.016592925 0.0052893097 0.32751507
-0.011556061 0.011824964 0.32387319
-0.013770781 0.0096988967 0.32371062
-0.01253255 0.019215297 0.31197777
-0.014966117 0.01613746 0.31261474
-0.017347207 0.013558618 0.31237954
-0.020106934 0.011172364 0.31111696
-0.023356795 0.0074776486 0.31064844
-0.02501989 0.0056662932 0.31044096
-0.0081133572 0.025473151 0.3084332
-0.010209265 0.023774412 0.30978057
-0.013540542 0.021221071 0.31000105
-0.017039336 0.01863908 0.31006762
-0.019812742 0.015357453 0.30961472
-0.022113804 0.011601316 0.30881429
-0.024833512 0.0087805307 0.30837572
-0.027252857 0.0056867851 0.30784547
-0.0084969141 0.028316429 0.3051939
-0.012172764 0.026125785 0.30689853
-0.015214816 0.023706112 0.30747408
-0.018366674 0.020107234 0.30798489
-0.021798978 0.016626233 0.3076618
-0.024796985 0.013917448 0.30647787
-0.027158268 0.010826713 0.30544549
-0.029906344 0.0075123273 0.30496767
-0.030904364 0.0050910944 0.30272013
-0.0067945346 0.032634035 0.30094367
-0.010621359 0.030743625 0.30229813
-0.013452531 0.028158979 0.30400065
-0.015475851 0.026082195 0.30484211
-0.02892145 0.012480604 0.30218512
-0.031624351 0.0090471674 0.30148274
-0.033303525 0.006238265 0.2990922
-0.034722317 0.0039792582 0.29802075
-0.0079164524 0.034648489 0.29761234
-0.011523263 0.033401061 0.29900527
-0.035733581 0.0080930991 0.29604059
-0.036562949 0.0049200263 0.29405284
-0.009360835 0.036000032 0.2930223
-0.013156808 0.03549058 0.29414552
-0.037559792 0.0096034026 0.29172581
-0.037890784 0.0059261397 0.28967384
-0.010793957 0.037139293 0.28818575
-0.014663099 0.035999458 0.28981599
-0.017437829 0.03427498 0.28859979
-0.038168363 0.010984716 0.28710476
-0.039259598 0.008190725 0.28506681
-0.011890735 0.038199656 0.28398946
-0.015581484 0.036987077 0.2851764
-0.019208841 0.034928881 0.28494588
-0.036036227 0.018629298 0.28195029
-0.037743893 0.015936842 0.28294623
-0.038598366 0.012560349 0.28231764
-0.040096547 0.009725729 0.28132769
-0.013159129 0.039250042 0.28053162
-0.016350333 0.038285494 0.27982628
-0.020221189 0.036047239 0.28067234
-0.036343016 0.019799696 0.27909136
-0.037926231 0.017210087 0.27881426
-0.03884989 0.013768598 0.27758861
-0.040325876 0.010814342 0.27838886
-0.017499356 0.039359149 0.27522805
-0.021157339 0.03706152 0.27609324
-0.024703836 0.03475111 0.27580181
-0.027401522 0.032970224 0.27494591
-0.031645 0.02947426 0.27412492
-0.034500647 0.025188971 0.27449334
-0.036899708 0.021968557 0.274492
-0.038864423 0.018418781 0.27412248
-0.018597476 0.039671887 0.27168381
-0.021569747 0.037861135 0.27019739
-0.024932858 0.035353705 0.2706511
-0.028524192 0.032588135 0.27118689
-0.031723924 0.029727263 0.27106768
-0.0345507 0.026501875 0.27063629
-0.037182957 0.023306275 0.2702902
-0.039202183 0.019997496 0.26877978
-0.022602875 0.038246095 0.26674318
-0.026000274 0.035591152 0.26606613
-0.029074971 0.033445399 0.26616722
-0.031944863 0.030250808 0.26576424
-0.034815915 0.02705498 0.26536179
-0.037288882 0.02447162 0.26531565
-0.039095338 0.021752477 0.26531518
-0.029672032 0.03385162 0.26214695
-0.032152571 0.031207506 0.26193523
-0.034445841 0.02862451 0.26192245
0.0019362327 0.017154399 0.3362087
-0.015725996 -0.0017535915 0.33569783
-0.014533153 -0.00085438043 0.32850766
-0.0009279456 0.017243149 0.32550639
-0.0041808165 0.015812106 0.32566348
-0.0064891558 0.014078891 0.32516521
-0.015080887 0.0025790296 0.32482728
-0.017233955 0.0020490969 0.32680348
-0.0029885154 0.015682343 0.3214604
-0.0066022156 0.013735853 0.32134119
-0.010494145 0.011972246 0.32055214
-0.013429895 0.0088777589 0.32038018
-0.014814171 0.005364079 0.32046321
-0.0050335904 0.017585034 0.31599113
-0.0076728603 0.015456799 0.31658658
-0.010829885 0.012594924 0.31672162
-0.013293345 0.0092077255 0.31599262
-0.016067222 0.0058729597 0.31552318
-0.018740222 0.0030410774 0.31470186
-0.0038260706 0.022091134 0.31214142
-0.006796957 0.020401489 0.31298494
-0.010184336 0.017837562 0.31355751
-0.013055495 0.01469936 0.31437108
-0.015806295 0.011212386 0.31351984
-0.018637385 0.0084536215 0.31222826
-0.021168072 0.0051131397 0.31212372
-0.023939934 0.0018334184 0.31049928
-0.025707019 -0.00068949163 0.30807352
-0.0016067661 0.026499014 0.30792964
-0.0047784792 0.025004625 0.30887416
-0.0080389008 0.023513792 0.31073406
-0.026754547 0.0034336029 0.30800009
-0.027860396 0.00097672269 0.30598941
-0.00037888996 0.031291284 0.30281433
-0.0027868561 0.029199133 0.30431384
-0.0057913214 0.027156338 0.30617812
-0.030577671 0.0023470875 0.30251569
-0.031983647 -0.0013466645 0.30051786
0.0016294494 0.035710372 0.2984663
-0.0010415018 0.033628348 0.29992226
-0.0045334939 0.031964906 0.30132136
-0.032572642 0.0034145052 0.29942471
-0.034175843 0.00015666522 0.29716513
0.00028240867 0.037212946 0.29559642
-0.0025716089 0.035633013 0.29589289
-0.0063668881 0.034974255 0.29611674
-0.03617613 0.0017541572 0.29314131
-0.0010285303 0.038803853 0.29116699
-0.0037631243 0.037115607 0.29138368
-0.0070302542 0.035804406 0.29353708
-0.03791216 0.0032712612 0.28852355
-0.038453422 0.00025386363 0.28739715
-0.0021009669 0.04016247 0.2868163
-0.0048050173 0.038463444 0.2867586
-0.0085473685 0.037351705 0.28775477
-0.039541811 0.0052003022 0.28437346
-0.04039894 0.0019807555 0.2832526
-0.0061111972 0.039813094 0.28236955
-0.010125678 0.038886212 0.28294045
-0.040601112 0.0069175605 0.27970141
-0.041028589 0.0035578925 0.27889651
-0.0077481531 0.040937234 0.27792403
-0.011620826 0.03997891 0.27837411
-0.039035536 0.012260531 0.27536786
-0.0411392 0.0089172423 0.27526101
-0.041902158 0.0054176748 0.27410832
-0.0092392284 0.041837331 0.27334923
-0.012463929 0.040788777 0.27375138
-0.039438538 0.013762513 0.27138418
-0.041366883 0.0097825136 0.27041471
-0.010322798 0.042465113 0.26967996
-0.012906892 0.041233502 0.2687915
-0.017115161 0.040182129 0.26877519
-0.039764464 0.018538861 0.2662088
-0.04005117 0.014632271 0.26636785
-0.040997464 0.011564811 0.26650858
-0.014340363 0.041509293 0.26508948
-0.017371144 0.040213782 0.26402402
-0.021359421 0.038299344 0.26420215
-0.024137478 0.036767703 0.26393902
-0.037998602 0.02341415 0.2624428
-0.039276659 0.019920781 0.26257256
-0.039686769 0.01626982 0.26131943
-0.018591043 0.040602565 0.26000568
-0.021514241 0.03848736 0.25993785
-0.02473167 0.036086734 0.26021543
-0.027798792 0.033823486 0.25924596
-0.031723317 0.030913593 0.25935072
-0.034451485 0.02752158 0.25944468
-0.036838442 0.024148094 0.25908825
-0.038980655 0.020176977 0.25802356
-0.021886412 0.039044704 0.25708964
-0.024591198 0.03650314 0.25693566
-0.02838501 0.033661533 0.25674361
-0.031270243 0.03060131 0.25510067
-0.03400775 0.02775838 0.25415909
-0.036641199 0.024415638 0.25470996
-0.038611919 0.021750152 0.25455278
-0.013534356 -0.0019135294 0.32885
-0.014625356 0.0014075246 0.32112738
-0.0135274 -0.0016112807 0.32274795
0.00044760853 0.016594425 0.32032645
-0.0019461284 0.016367301 0.31898645
-0.015163841 0.0025443397 0.31861544
-0.016271338 -0.000297416 0.31783599
-0.00012201443 0.018246399 0.31457481
-0.00293101 0.017039297 0.31653148
-0.017969247 0.00042489078 0.31498867
-0.019830329 -0.0023015495 0.31238717
0.0018134527 0.023735497 0.31030121
-0.00072952267 0.022055134 0.31173694
-0.02204679 -0.0011170469 0.3114568
-0.024866089 -0.0036438741 0.30837777
0.0043660756 0.027859738 0.30632448
0.00088744145 0.026427777 0.30780572
-0.027321205 -0.0020166915 0.30529484
-0.029063862 -0.0051069157 0.3041935
0.0057875998 0.032987773 0.3020829
0.0023487471 0.030729663 0.30362275
-0.031344205 -0.0039141914 0.30187139
0.0043041809 0.035057262 0.29907763
0.0022500064 0.033257708 0.30039284
-0.034107301 -0.0047701281 0.29489937
0.0054577608 0.03758803 0.29398862
0.0027062409 0.037538946 0.29490766
-0.036022075 -0.0032667425 0.29039764
-0.036814108 -0.006144396 0.28724751
0.004474109 0.039275743 0.28985691
0.0014323574 0.039097764 0.29043764
-0.038861789 -0.0020206217 0.28654745
-0.038109332 -0.004646007 0.2851409
0.0030945279 0.040890999 0.28486621
0.00011150539 0.040430862 0.2857939
-0.040541515 -3.2562762e-05 0.28241217
-0.04024072 -0.0030818656 0.28095636
0.0017216504 0.04219541 0.28045896
-0.001306342 0.041560613 0.28126937
-0.0038671624 0.040646262 0.28017706
-0.041344769 0.0014828872 0.27735624
-0.041657366 -0.0013739076 0.27658772
0.0012757927 0.042840119 0.2776778
-0.0019156821 0.042177167 0.27644229
-0.0050064288 0.041669272 0.27654365
-0.041946582 0.0027566552 0.27291161
-0.042021871 -0.00026686303 0.27204746
-0.0032289512 0.043109629 0.27168331
-0.0065546669 0.042601585 0.27213994
-0.042201489 0.0077962875 0.26804513
-0.041676022 0.0040781181 0.26797858
-0.0040401928 0.0434357 0.26855928
-0.007703742 0.043102235 0.26712033
-0.011287568 0.041904524 0.26653773
-0.041923821 0.0096152276 0.26432505
-0.042492934 0.0055437852 0.26303998
-0.0091369376 0.043003168 0.26269248
-0.012306133 0.041671548 0.26254234
-0.040245213 0.014181373 0.26054335
-0.042125355 0.01077571 0.25965512
-0.043420151 0.0071690045 0.2588529
-0.0098441411 0.042801581 0.25904772
-0.013161118 0.041972809 0.2588622
-0.016056608 0.041463144 0.25880483
-0.040086892 0.015110909 0.25602093
-0.041909501 0.011423195 0.25533059
-0.013438446 0.041372664 0.25484702
-0.01767461 0.040312394 0.25437874
-0.021211375 0.038626574 0.25333411
-0.023940798 0.036091007 0.25319448
-0.027154626 0.033408735 0.25302905
-0.030254861 0.031043731 0.25245041
-0.034482628 0.027436826 0.25157028
-0.036772937 0.024097206 0.25151521
-0.039170086 0.020064348 0.25176659
-0.039872441 0.015782716 0.25198933
-0.041265532 0.012890687 0.25212985
-0.020496083 0.038171969 0.24952498
-0.023679804 0.0357466 0.24896401
-0.027196605 0.033495724 0.24829563
-0.030732445 0.030872347 0.24844351
-0.033817384 0.027820792 0.24819475
-0.036817793 0.024684189 0.24786979
-0.03891658 0.021153882 0.24714622
-0.027241884 0.033578761 0.24471462
-0.030098705 0.030895565 0.2444731
-0.033322144 0.027503777 0.24452731
-0.03637103 0.02439731 0.24423692
-0.03881871 0.02156814 0.24383637
0.0033570961 0.017711708 0.31405362
-0.034610163 -0.0068467781 0.29099599
0.0075454116 0.039235961 0.28836909
0.006340906 0.040584471 0.28394067
-0.039895922 -0.006196985 0.2794553
0.0051150545 0.041707885 0.27901253
-0.041414268 -0.0043778066 0.27515116
-0.04105616 -0.007846294 0.2737352
0.0031106751 0.043249764 0.27453357
-2.716668e-05 0.042646874 0.27401406
-0.041735113 -0.0030587502 0.26983368
-0.041697673 -0.0067354869 0.27094242
0.0021397527 0.04415746 0.27003008
-0.00081459805 0.043272253 0.27011862
-0.04162176 0.001722496 0.26582238
-0.041341558 -0.0013487693 0.26511201
0.002046125 0.04421021 0.26606393
-0.002115991 0.043583885 0.26544374
-0.04277721 0.0031230245 0.26201335
-0.042213209 0.00030874833 0.2609708
-0.0033551324 0.044284046 0.26050484
-0.0066288244 0.043618791 0.26091588
-0.043444071 0.0047683641 0.2569817
-0.042563267 0.0012019277 0.25692064
-0.0038918946 0.044174798 0.25736567
-0.0072797332 0.043373574 0.25651509
-0.011068549 0.04186907 0.2563411
-0.042329602 0.010340117 0.25296527
-0.043129381 0.0065936185 0.25312179
-0.0087732524 0.043381087 0.25209603
-0.012054555 0.042141762 0.25196379
-0.015402636 0.040623024 0.2514188
-0.039899383 0.014690998 0.24892145
-0.041386016 0.011157547 0.248629
-0.042461768 0.0075604264 0.24891481
-0.0097543634 0.043557227 0.24780643
-0.012705124 0.042745993 0.24715385
-0.016732845 0.040734451 0.24759832
-0.020299748 0.038148224 0.24694911
-0.023027213 0.036037933 0.24660683
-0.039584816 0.018686432 0.24520478
-0.040094908 0.015601002 0.24471325
-0.041473377 0.012210319 0.24415374
-0.013798874 0.042508133 0.24394709
-0.017091732 0.041221924 0.24274284
-0.020776814 0.038913526 0.24254024
-0.023850475 0.03666823 0.24269345
-0.027191309 0.033963863 0.24174392
-0.030338056 0.03064877 0.24133271
-0.033169985 0.027525736 0.24115133
-0.036368225 0.024555961 0.24099252
-0.039363187 0.021168672 0.24079469
-0.04042685 0.016345032 0.23989168
-0.041249849 0.013335405 0.24073163
-0.020957671 0.038950436 0.23804307
-0.023971861 0.037142705 0.23714134
-0.027519798 0.034482889 0.23729017
-0.03041916 0.031208683 0.23685119
-0.033307821 0.027921267 0.23640141
-0.0370472 0.025477797 0.23674116
-0.040124979 0.022384774 0.23647031
-0.041501053 0.019296264 0.23631951
-0.024699813 0.03717513 0.23411423
-0.027490925 0.034700122 0.23319721
-0.030378208 0.031400286 0.23273873
-0.033902504 0.028076272 0.23233062
-0.036967691 0.025642054 0.23176259
-0.039199475 0.022951402 0.23259699
-0.040883705 0.020633085 0.23254794
0.0072488133 0.042793848 0.27302107
-0.041217573 -0.0075762924 0.26758406
0.0082118828 0.04325708 0.26713014
0.0063189846 0.043510273 0.26795852
-0.041342959 -0.0041060727 0.26383755
-0.041512094 -0.0067006946 0.26270184
0.0068188608 0.044030309 0.26306424
0.0034906697 0.043894343 0.26280388
0.00031326339 0.043299433 0.26191279
-0.041768216 -0.0026679561 0.2585572
-0.041902002 -0.0052021611 0.25859898
0.0028649755 0.044165585 0.25826439
0.0011341013 0.042835634 0.2580674
-0.042207323 -0.00066264346 0.25424653
-0.0015453044 0.043624602 0.25452027
-0.042850103 0.0036167968 0.2499212
-0.042892262 0.0008487273 0.25026155
-0.0027894136 0.044064678 0.24990243
-0.0058979224 0.043842122 0.24991947
-0.042307928 0.0058252476 0.2457909
-0.04279523 0.0020736102 0.24540401
-0.0036646053 0.044918548 0.24516001
-0.0068185776 0.043818835 0.24491522
-0.010150937 0.042469062 0.24409348
-0.041890506 0.010900952 0.24200928
-0.04239922 0.0073643886 0.24178672
-0.042744927 0.003785057 0.24162421
-0.0076633375 0.043342777 0.24140757
-0.011189429 0.042012993 0.24010441
-0.01521109 0.040751927 0.23863313
-0.040689282 0.015663106 0.23664752
-0.041798592 0.012038275 0.23756993
-0.042508986 0.0085274056 0.23750892
-0.012146148 0.041988757 0.23502234
-0.01518179 0.040602118 0.2353473
-0.019190496 0.039100692 0.23515287
-0.040247418 0.015645085 0.23309016
-0.041264024 0.012741918 0.23288694
-0.0153749 0.041062668 0.23144385
-0.019413831 0.038991369 0.23061118
-0.023157004 0.036940768 0.23029491
-0.02690402 0.034336913 0.2293863
-0.030117387 0.031332932 0.22922146
-0.032754514 0.028416624 0.22906244
-0.035948195 0.024786763 0.22750849
-0.0382879 0.021503955 0.2282972
-0.039462287 0.018355723 0.2290822
-0.023275608 0.036295954 0.22543865
-0.026513139 0.034210615 0.22491461
-0.029994495 0.031447224 0.22499347
-0.032303169 0.028425643 0.22442454
-0.034891702 0.025125504 0.22417206
-0.037040196 0.021505971 0.22458127
-0.028163526 0.033369955 0.2217969
-0.030231243 0.031910527 0.22108963
-0.031606507 0.029686231 0.22137728
-0.041750103 -0.0078207552 0.25621042
0.0077098384 0.044634156 0.25636473
0.0046652537 0.044828765 0.25681135
-0.042086881 -0.0029220991 0.25229296
-0.042037077 -0.0062004309 0.25178221
0.0076123234 0.044152915 0.25283119
0.003541477 0.043971304 0.25291371
0.00080388971 0.043575473 0.2527346
-0.04261231 -0.0022264011 0.24867067
-0.04264532 -0.0045303591 0.24799293
0.0035315827 0.043667205 0.24862611
0.00017875992 0.043820903 0.24772897
-0.043259807 -0.00026112981 0.24319562
-0.043256022 -0.0032641012 0.24424338
-0.0013314467 0.044049792 0.24293911
-0.042522222 0.0055020694 0.23902833
-0.043174166 0.0016222037 0.23923895
-0.0025821719 0.04428247 0.2401962
-0.0064577144 0.043958247 0.2385754
-0.0098057725 0.042637501 0.23731819
-0.042789027 0.0070109945 0.23484445
-0.043468855 0.0040074065 0.23482355
-0.007234361 0.043466344 0.23351365
-0.010399498 0.042758275 0.23391345
-0.038784817 0.014810371 0.23035645
-0.041343957 0.011245123 0.23063898
-0.041668154 0.0072071124 0.23066962
-0.0081147421 0.043364763 0.22934544
-0.011064505 0.04267446 0.22940415
-0.014979973 0.041625433 0.22927594
-0.018127996 0.039949901 0.22764826
-0.039224684 0.015430288 0.22683647
-0.040693097 0.011686168 0.22638679
-0.011977244 0.042030349 0.22605953
-0.014920079 0.041035928 0.22492459
-0.019213902 0.039458554 0.22446257
-0.022430748 0.037153307 0.22398561
-0.036006857 0.024201458 0.22213626
-0.038003538 0.021427639 0.22277471
-0.039090522 0.017171185 0.22213107
-0.03978252 0.014408744 0.22122389
-0.019044317 0.039388116 0.21937954
-0.023082316 0.037347015 0.21993762
-0.026646957 0.034882192 0.22006115
-0.030166049 0.031988438 0.21854118
-0.032793183 0.028964285 0.21960208
-0.035247754 0.025390312 0.21901357
-0.037826736 0.021715708 0.21821484
-0.039111041 0.018944677 0.21774781
-0.020397507 0.03851454 0.21592897
-0.02320455 0.037366755 0.21588838
-0.026124079 0.034665931 0.2148819
-0.029664872 0.031566527 0.21403557
-0.032459337 0.029160121 0.21377262
-0.034814574 0.025976814 0.21355948
-0.037622165 0.021665376 0.21466786
-0.032568883 0.029491894 0.20969391
0.006595118 0.043559611 0.25043175
-0.042250123 -0.0074676964 0.24566698
0.0054218285 0.043543793 0.2454235
-0.042129673 -0.0063265488 0.2409794
0.0048249476 0.043442197 0.24011546
0.00189518 0.043076791 0.24071094
-0.042597789 3.4134835e-05 0.23634067
-0.042647742 -0.0032200366 0.23601383
0.00033149496 0.043408923 0.23610321
-0.0026981793 0.043077491 0.23455891
-0.042379878 0.00032271072 0.23164824
-0.042679384 -0.0022559762 0.23155561
-0.0010802355 0.043602258 0.23073342
-0.0031175409 0.043049805 0.23097458
-0.041375127 0.0061501916 0.22771403
-0.042243347 0.0020681489 0.22723773
-0.0049313307 0.043427408 0.22715801
-0.040254146 0.0092388038 0.22301754
-0.041018203 0.0062882658 0.22353414
-0.042062595 0.0030246601 0.22344568
-0.0067496058 0.043235444 0.22304314
-0.010102956 0.042399488 0.22263342
-0.013172362 0.041146711 0.22155729
-0.040257081 0.01124165 0.21977657
-0.040720411 0.0076535773 0.21862149
-0.010831693 0.042083241 0.21815148
-0.014009883 0.041038357 0.21785986
-0.017000731 0.040445399 0.21715733
-0.038975865 0.016389344 0.21556279
-0.040206604 0.012885275 0.21477145
-0.014837443 0.041084245 0.21342188
-0.018290509 0.039515503 0.21363488
-0.022512998 0.037512735 0.2124069
-0.026196707 0.034160301 0.21138528
-0.028474387 0.032495245 0.21117765
-0.035692267 0.023951909 0.2111465
-0.037338756 0.021751611 0.21135655
-0.038936742 0.017644249 0.21138605
-0.04001873 0.0141557 0.21087176
-0.01941701 0.039141145 0.2086913
-0.022880524 0.037897419 0.20808536
-0.026215341 0.034925308 0.20800039
-0.029528234 0.031940293 0.20789883
-0.032369297 0.029397922 0.20760471
-0.035001528 0.025734589 0.20703751
-0.037525441 0.021764196 0.20638481
-0.038878072 0.019280318 0.20669842
-0.023019502 0.038067676 0.20352319
-0.026417255 0.035421561 0.2031517
-0.029716458 0.03240855 0.20303109
-0.032476705 0.029763473 0.20286149
-0.035023995 0.026249671 0.20227331
-0.037361033 0.022425983 0.20240948
0.0079611167 0.042986155 0.24200881
-0.041753016 -0.0079272781 0.23770702
0.0078253504 0.043375008 0.23885462
-0.042451136 -0.0067393333 0.23461461
0.008511316 0.044745341 0.23584154
0.005472837 0.04419478 0.23426169
0.0028999727 0.043179087 0.23311663
-0.043141738 -0.0050810333 0.22966757
-0.043231223 -0.0080796629 0.22786647
0.0046819467 0.044848852 0.22917387
0.0018303487 0.043595895 0.22949776
-0.042659387 0.00047642365 0.22467923
-0.042996824 -0.0029718857 0.22477725
0.0049470682 0.045393731 0.22565144
0.00075948797 0.044078812 0.22504699
-0.0024987496 0.043667652 0.22451809
-0.042517122 0.0016983449 0.22124207
-0.042785689 -0.001643518 0.22063926
-0.00022268295 0.044022258 0.22069663
-0.0036322456 0.043325961 0.2199752
-0.040979259 0.0054123569 0.21667749
-0.041495398 0.0024676193 0.2161054
-0.0048307125 0.043027319 0.21557871
-0.0089235734 0.042203419 0.21563983
-0.040510815 0.0099288495 0.21230456
-0.041146338 0.0070775077 0.21215978
-0.0092937537 0.042058446 0.21131715
-0.01211486 0.040987782 0.2113632
-0.040357955 0.012406772 0.20893419
-0.041293692 0.0090569593 0.20785072
-0.010469493 0.041987579 0.20636201
-0.013401829 0.041246202 0.20642775
-0.016699832 0.039755289 0.20647603
-0.038880847 0.016818313 0.20446941
-0.039942723 0.013433978 0.20349208
-0.040638 0.010389358 0.20391005
-0.014298797 0.041858867 0.20163596
-0.018248349 0.040016033 0.20187572
-0.022150554 0.038515616 0.20112073
-0.036002852 0.02437013 0.19979107
-0.037567474 0.021925766 0.19987309
-0.039029207 0.018257175 0.19958434
-0.039322834 0.014813735 0.19958463
-0.01866157 0.039342195 0.19774929
-0.021983391 0.037700087 0.19708249
-0.025135802 0.035391361 0.19728658
-0.028489413 0.032400958 0.19720605
-0.031679533 0.029257005 0.19696274
-0.034347009 0.026129359 0.19665778
-0.037084181 0.022661431 0.19568622
-0.039344348 0.019721884 0.19527778
-0.02267139 0.036800459 0.19338369
-0.025559453 0.03558293 0.19256407
-0.028873347 0.033062868 0.19248039
-0.031682286 0.029747663 0.19217998
-0.033658728 0.026463171 0.19238281
-0.036873542 0.022851987 0.19233188
-0.039353475 0.019882984 0.19184935
0.006988911 0.04512164 0.22722849
0.0055516902 0.044767402 0.22334224
-0.042373225 -0.0046229176 0.21814996
-0.044129349 -0.0082831569 0.21909857
0.0022962317 0.043767858 0.21816614
-0.041672766 0.00018657185 0.21462196
-0.042327594 -0.0024423171 0.21440452
0.00078889541 0.043872535 0.21383202
-0.0027335044 0.043358192 0.21303257
-0.041329905 0.0052434988 0.20931485
-0.041645445 0.0015648585 0.20959511
-0.042717874 -0.0015382823 0.20953614
-0.0040531158 0.043104798 0.20947352
-0.0071622804 0.042222507 0.20848161
-0.041208513 0.0057186317 0.2055876
-0.041221298 0.0027031377 0.20558482
-0.0049875434 0.042658716 0.2046597
-0.0083369575 0.042327479 0.20507154
-0.04097471 0.0086024888 0.20222193
-0.0095238425 0.042774566 0.20059088
-0.013068028 0.042592615 0.19971004
-0.039871011 0.013380257 0.19707498
-0.040747385 0.0099543389 0.19707805
-0.013131478 0.041490257 0.19551814
-0.0170075 0.039909601 0.195301
-0.039491072 0.017118674 0.19389957
-0.039661255 0.014189485 0.19294134
-0.017195445 0.039026812 0.19091439
-0.021474779 0.037782487 0.19137365
-0.025011435 0.036154933 0.19016245
-0.028720567 0.033111751 0.18890002
-0.031912502 0.029472359 0.18882152
-0.033861861 0.025968216 0.18981558
-0.036535162 0.022632655 0.18939465
-0.03893188 0.018367652 0.1885207
-0.039705727 0.015674297 0.18877068
-0.018589392 0.038604867 0.18712181
-0.02119267 0.037192438 0.18686566
-0.02460527 0.035527252 0.18620759
-0.028513581 0.033110432 0.18524611
-0.031868648 0.030086134 0.18515402
-0.03371314 0.026437083 0.18485969
-0.03638633 0.022910388 0.18476686
-0.038605176 0.019387539 0.18500492
-0.028677234 0.032145217 0.18076038
-0.030997667 0.029896462 0.18060747
0.0081964675 0.044566326 0.22036436
0.0074934661 0.042689599 0.21655369
-0.041728616 -0.0059453566 0.21231905
-0.042108484 -0.0083580315 0.20947573
0.0042337589 0.0429492 0.21146771
-0.042392671 -0.0043946821 0.20671573
-0.042794455 -0.0077230241 0.20730311
0.0016324203 0.043785453 0.20710111
-0.0010567587 0.043629348 0.20735204
-0.041043349 0.00068073161 0.20266655
-0.041880857 -0.0023777187 0.20234516
0.0010236558 0.043789603 0.20297003
-0.0020660963 0.043355681 0.203042
-0.040294386 0.0063914359 0.19895318
-0.040285408 0.0023258552 0.19890046
-0.0038842317 0.04302188 0.19841829
-0.0069484785 0.042379662 0.19747281
-0.04055842 0.007221587 0.19458231
-0.040985167 0.0044503417 0.19379109
-0.0031094309 0.042963333 0.19467151
-0.0080307182 0.04151988 0.19262215
-0.011575367 0.041352063 0.19242796
-0.03918815 0.011910669 0.18967688
-0.040019743 0.0083634183 0.18927997
-0.040831283 0.0053856317 0.1897912
-0.0086620767 0.041462347 0.18932402
-0.012257889 0.041339606 0.18918616
-0.015433815 0.039508354 0.18834102
-0.039346233 0.012957165 0.18592879
-0.039708346 0.0094454549 0.18557438
-0.012921581 0.04178527 0.18465436
-0.016582575 0.039536215 0.18444735
-0.020535883 0.037390791 0.18329483
-0.023612488 0.03519797 0.18271241
-0.036460403 0.022008955 0.18099448
-0.038699288 0.018400326 0.18206719
-0.039419394 0.014014308 0.18196481
-0.01320138 0.041921925 0.18102419
-0.016739503 0.039997477 0.17985597
-0.020697057 0.037587263 0.17861801
-0.02376296 0.035131674 0.17871407
-0.027350748 0.032998603 0.17858231
-0.031156372 0.029364863 0.17796028
-0.033385757 0.02642134 0.17843726
-0.035999816 0.023169955 0.17802995
-0.038303245 0.019158926 0.17700011
-0.020501722 0.037625451 0.17494106
-0.02399487 0.035381608 0.17408627
-0.028069103 0.033278763 0.17438135
-0.031337127 0.030127285 0.17417645
-0.033401996 0.026920117 0.17356303
-0.035595983 0.023787649 0.17396078
-0.037853763 0.020050656 0.17336333
-0.028965922 0.032538373 0.17078742
-0.031309053 0.030288227 0.170647
0.0060816295 0.042218983 0.20779526
0.0083699431 0.042695299 0.20495987
0.0056812298 0.042839427 0.20476931
-0.041984469 -0.00482467 0.2002874
-0.042131253 -0.0075899307 0.20020217
0.0042479597 0.043282825 0.20008442
-0.040926501 0.00011169538 0.19642055
-0.041687407 -0.0035681818 0.19595554
0.0016088057 0.043515101 0.19656301
-0.0017015859 0.043322876 0.19599241
-0.041319799 0.0011613369 0.19338712
-0.042010911 -0.001680132 0.1915403
0.0011400282 0.043558877 0.19301304
-0.0020166375 0.041990522 0.19071758
-0.0052814931 0.041672453 0.19140992
-0.041138992 0.0034466255 0.1872721
-0.041937552 -0.00031014346 0.18787009
-0.0035616774 0.042206258 0.18641353
-0.0067083165 0.041817181 0.18657565
-0.040448606 0.0084033273 0.1835525
-0.041148089 0.0046010632 0.18260238
-0.0070545357 0.042035751 0.18192112
-0.010394642 0.041828915 0.18229899
-0.039682999 0.013177603 0.17931005
-0.040293757 0.0090434942 0.1790494
-0.041129541 0.0061040968 0.17868584
-0.0083862804 0.041961331 0.17869088
-0.011384982 0.041562609 0.17760861
-0.015969228 0.040028974 0.17625117
-0.038613208 0.017034503 0.17379576
-0.039387926 0.014145561 0.17546254
-0.040423833 0.01032478 0.174431
-0.012509665 0.041307475 0.17355511
-0.015980041 0.039765641 0.17211872
-0.020223547 0.037532181 0.17203352
-0.023230102 0.035945009 0.17170846
-0.033777751 0.025335154 0.170793
-0.035155274 0.022630874 0.17062563
-0.037283409 0.018336702 0.16966516
-0.039322425 0.014096973 0.17063206
-0.040210746 0.011182495 0.17119738
-0.01739848 0.038696397 0.16765863
-0.019690845 0.037313897 0.16709241
-0.022849744 0.034903526 0.16727054
-0.026373779 0.032665357 0.16753358
-0.030238489 0.029913614 0.16703305
-0.032705937 0.026282191 0.1671783
-0.034209672 0.022842614 0.1665194
-0.036359847 0.018771123 0.16642442
-0.021083258 0.03704688 0.16399145
-0.023097711 0.035351198 0.16401362
-0.026306037 0.032671038 0.16333002
-0.029686164 0.029740818 0.16238606
-0.032499604 0.026303489 0.16252911
-0.033781238 0.023847114 0.16263813
0.0082036033 0.043660056 0.19873524
-0.041705251 -0.0081686638 0.19311526
0.0081886109 0.044093385 0.19360843
0.0051695611 0.043707982 0.19434941
-0.042212442 -0.0047660936 0.19019797
-0.042895257 -0.0078978147 0.18879873
0.0075696241 0.044665329 0.19001669
0.0037441552 0.043268528 0.18963835
0.00016116537 0.04214289 0.18820509
-0.041842423 -0.0026860982 0.18543419
-0.042553328 -0.0058574565 0.1843701
0.0024978463 0.04303439 0.18488908
-0.00119224 0.042439498 0.18425363
-0.041169621 0.002210835 0.18011072
-0.041222524 -0.00093227811 0.18085051
-0.0023550596 0.04282482 0.18012536
-0.0056292228 0.042875461 0.17967594
-0.04101846 0.0035719909 0.17603052
-0.041467838 0.00069762766 0.17668706
-0.0031419247 0.043176997 0.17621535
-0.0065627657 0.042446747 0.17603588
-0.040350035 0.0074051153 0.17271519
-0.041003913 0.0052344613 0.17178813
-0.0068725273 0.042241313 0.17144513
-0.010657537 0.041575555 0.17103392
-0.03920652 0.013715788 0.16744274
-0.040682506 0.0098709548 0.16824502
-0.040977083 0.0063192677 0.16784668
-0.010721232 0.040966939 0.16653451
-0.014962792 0.039728958 0.16593724
-0.034551192 0.021419127 0.1640282
-0.036296017 0.018825196 0.16368529
-0.037656203 0.014115639 0.16397515
-0.040282071 0.0095862271 0.16422501
-0.016036117 0.038996011 0.16134331
-0.019479265 0.037691079 0.16149074
-0.022903107 0.035305209 0.16153228
-0.025750322 0.033091996 0.16082418
-0.028082205 0.031272892 0.16047955
-0.032519039 0.026458107 0.15988511
-0.034707211 0.022786316 0.16042054
-0.036428247 0.019157618 0.15936813
-0.019589577 0.037466682 0.15722904
-0.022794925 0.035495609 0.15659961
-0.026056906 0.033162858 0.15689039
-0.029656081 0.030257881 0.15701151
-0.032686863 0.02680479 0.15650523
-0.034733944 0.023289116 0.15544969
-0.036344875 0.020421799 0.154928
-0.023597697 0.03465895 0.15281942
-0.026189249 0.03306606 0.152749
-0.029364998 0.030217037 0.15222216
-0.032394834 0.026698129 0.15259993
-0.034299061 0.023956435 0.15193361
0.006719701 0.043317586 0.18666196
0.0056416858 0.043116637 0.18240201
-0.040630855 -0.0035339184 0.17752457
-0.040974692 -0.0064873435 0.17905569
0.0037591625 0.043183029 0.17771301
0.00010287203 0.042992443 0.17786035
-0.040765412 -0.0021892674 0.17334676
0.0023494195 0.043519251 0.17295793
-0.00093771145 0.043118432 0.17327672
-0.040495373 0.0018164776 0.16957262
-0.040489495 -0.00061960891 0.16862702
-0.0014990307 0.043146111 0.16891557
-0.0050183591 0.042476751 0.16882956
-0.040916584 0.003826974 0.16519207
-0.0027642176 0.043002054 0.1655589
-0.0057418589 0.042010106 0.16486433
-0.0096432585 0.040938951 0.16377017
-0.037054196 0.013025794 0.16064185
-0.039260637 0.0082195252 0.16057989
-0.04085185 0.0054477174 0.16085595
-0.0063821319 0.042254269 0.16049337
-0.0095650144 0.041015171 0.15898094
-0.013070657 0.039332371 0.15879342
-0.03682401 0.013527147 0.1565814
-0.038891867 0.0099667115 0.15632811
-0.040407639 0.0060669985 0.15730786
-0.010870983 0.040508673 0.15527809
-0.014324999 0.039310861 0.15449443
-0.018803222 0.0376959 0.15446436
-0.036920235 0.018511303 0.15324378
-0.037375819 0.014712413 0.1516521
-0.039302029 0.01212611 0.15146589
-0.01632835 0.038811646 0.14966518
-0.018700644 0.037406228 0.1500586
-0.021924853 0.035239782 0.15020484
-0.025047084 0.032933347 0.14956304
-0.028866461 0.029879913 0.14897346
-0.032015674 0.026461199 0.14947662
-0.034686938 0.023258815 0.14932904
-0.036822774 0.020039925 0.14902246
-0.037808809 0.016111217 0.14789218
-0.019097421 0.037687026 0.14596748
-0.022073422 0.035224952 0.14515054
-0.025032513 0.032562315 0.14508876
-0.028617153 0.029833855 0.14508715
-0.032212544 0.026884466 0.14518949
-0.034962013 0.024033334 0.1449002
-0.037139524 0.020603271 0.14394832
-0.02823462 0.030580536 0.14160538
-0.032189172 0.027385209 0.14112684
-0.035003003 0.024656124 0.14082295
-0.036937848 0.021503337 0.14065662
0.0076342486 0.042422593 0.17571616
-0.040773805 -0.0038101729 0.17014387
-0.041301139 -0.0070541706 0.17154929
0.0053071417 0.043172754 0.17084777
-0.040344376 -0.0033751801 0.16614476
-0.041817836 -0.0065359361 0.16725987
0.0033993404 0.043490022 0.16644561
0.00059770793 0.043432944 0.16596764
-0.040099055 -0.0013388824 0.16204187
0.002713114 0.043550447 0.16220075
-0.00021686964 0.042893358 0.16213384
-0.0036587361 0.042290837 0.16190276
-0.040975399 0.002686616 0.15929565
-0.040105663 -0.0001835376 0.15716949
-0.0010752324 0.042724274 0.15750632
-0.004878724 0.042248193 0.15756106
-0.039645098 0.0079568103 0.15433809
-0.041117836 0.004973067 0.1545518
-0.0018631164 0.043003693 0.15397894
-0.0052532759 0.042399056 0.15303725
-0.0093317851 0.041265823 0.152843
-0.040161546 0.0092495438 0.15003878
-0.041130416 0.0058085825 0.14979026
-0.0057129469 0.042432718 0.14909226
-0.0092427786 0.041084751 0.14755082
-0.013110805 0.039455079 0.14836159
-0.038117044 0.014788072 0.14556909
-0.040027134 0.011568346 0.14573252
-0.041174382 0.0083562862 0.14419207
-0.010278209 0.040716849 0.14388674
-0.014012311 0.039358672 0.14353561
-0.018223248 0.037843447 0.14307013
-0.020679001 0.036082689 0.14282909
-0.023827208 0.033588503 0.14297432
-0.038068227 0.015875356 0.14152965
-0.039434671 0.012170561 0.14060247
-0.015265443 0.038422368 0.13948968
-0.018280581 0.03705883 0.13900974
-0.021383664 0.035146028 0.1388672
-0.024752669 0.032850679 0.13926008
-0.028037397 0.030538535 0.13865709
-0.031170607 0.027745776 0.13829872
-0.03494307 0.023872087 0.13776863
-0.036845081 0.020303592 0.13744432
-0.037602842 0.016847514 0.13749585
-0.021613685 0.035046127 0.13389641
-0.024644658 0.033062804 0.13367486
-0.027724819 0.030485298 0.13373855
-0.030751592 0.027179783 0.1334863
-0.03429538 0.023890534 0.13318396
-0.0365647 0.020758819 0.13299614
-0.025462061 0.033131711 0.13037869
-0.027319523 0.031220857 0.13019264
-0.04077886 -0.0076012891 0.1636813
0.0081059653 0.041906554 0.16503766
-0.039848506 -0.0045387875 0.16005638
0.0046948493 0.043072078 0.15999356
-0.039734408 -0.0035167038 0.1550222
0.0034674164 0.043376893 0.15519783
0.0012372695 0.043145299 0.15573597
-0.04046385 -0.00060306676 0.15151963
-5.784072e-05 0.043029845 0.15119085
-0.0034870766 0.042928953 0.15103817
-0.0406854 0.0034291316 0.14719284
-0.040757217 0.00086578541 0.14693531
-0.0013596788 0.043029763 0.1471734
-0.0047996845 0.042899035 0.14655113
-0.0078080967 0.04195001 0.14521191
-0.041217603 0.0051833317 0.14335483
-0.041437376 0.0022737756 0.14203605
-0.0050355084 0.042734519 0.14233851
-0.008647589 0.041408345 0.14132324
-0.012333549 0.04013212 0.14085898
-0.040027373 0.010936045 0.13827622
-0.041083045 0.007487325 0.13796914
-0.041812122 0.0043365136 0.13736194
-0.0093347952 0.041141354 0.13798416
-0.012863502 0.039598122 0.13703403
-0.01622102 0.037698142 0.13624913
-0.037852064 0.015272692 0.13476238
-0.03966216 0.012003041 0.13433379
-0.041232958 0.0084676426 0.13361314
-0.013505029 0.039800785 0.13219821
-0.017342355 0.038090479 0.13284227
-0.020886287 0.036302045 0.13239413
-0.031926353 0.025379395 0.13093081
-0.036986344 0.020073239 0.13036028
-0.037915487 0.016178094 0.13030985
-0.039458666 0.012348579 0.12988645
-0.018029563 0.038116321 0.12834617
-0.021702845 0.036109239 0.12828791
-0.024596728 0.033626687 0.12776864
-0.027749779 0.030574715 0.12757489
-0.030304771 0.027329 0.1276601
-0.033317275 0.023873013 0.12676775
-0.036217935 0.020409005 0.12634468
-0.037381388 0.017281314 0.12547708
-0.019368833 0.037813574 0.12425876
-0.021910282 0.036204103 0.12388283
-0.025085233 0.034117267 0.12317386
-0.027844392 0.031204427 0.12284976
-0.030082792 0.028021986 0.12260702
-0.03337463 0.024401981 0.12253773
-0.035998121 0.020849332 0.12220567
-0.025459765 0.033761736 0.11932212
-0.026911173 0.032368705 0.1192416
0.0083091669 0.041914675 0.15786117
0.0076550972 0.042196557 0.15273207
-0.040011641 -0.0040335227 0.1492497
-0.039900634 -0.0079348702 0.14833826
0.0050750971 0.042325128 0.14905107
0.0030148067 0.042480223 0.14832592
-0.040564746 -0.0020996537 0.14543119
-0.040773615 -0.0045153741 0.14324021
0.0013907198 0.042464674 0.14444768
-0.041348942 -0.00079295225 0.14106822
-0.041571271 -0.0030076969 0.13936833
-0.00019492768 0.042891167 0.14033413
-0.0027760044 0.042458422 0.13970414
-0.041597791 0.0011362266 0.13622755
-0.0416786 -0.001791155 0.13637424
-0.00018697791 0.042742975 0.13596082
-0.0035187937 0.042233385 0.13552845
-0.0077913143 0.040800795 0.1347242
-0.041677915 0.0070576239 0.13107637
-0.042229623 0.0032996722 0.13220555
-0.0045130253 0.042130671 0.13075483
-0.0077114422 0.041247562 0.12993842
-0.011408585 0.040391862 0.13056514
-0.039260056 0.01136891 0.12658668
-0.040875807 0.0079231672 0.127278
-0.042031676 0.0038966648 0.12770176
-0.0087903701 0.041155525 0.12561929
-0.012128925 0.040028881 0.12547177
-0.015917826 0.038473569 0.12543648
-0.037814397 0.015169684 0.12351188
-0.038679775 0.011644866 0.12237117
-0.039978787 0.0077965986 0.12328768
-0.012881901 0.03978911 0.12125474
-0.016277086 0.038071103 0.12059522
-0.020772651 0.036114756 0.12059748
-0.03042781 0.027277704 0.11985731
-0.033256404 0.024417968 0.11960632
-0.035855703 0.019960642 0.1189636
-0.036828257 0.016068473 0.11843342
-0.038077749 0.012873746 0.11873478
-0.017509928 0.037605867 0.11615032
-0.021028068 0.036147334 0.11642826
-0.024499791 0.034175701 0.11657006
-0.027683854 0.031134048 0.11671305
-0.030123351 0.028109889 0.11637539
-0.033398416 0.02473902 0.11604601
-0.035977229 0.020664884 0.11486351
-0.036802061 0.017586809 0.11526603
-0.021526648 0.036515992 0.11231124
-0.024808811 0.034497149 0.11170965
-0.02787162 0.031841338 0.11172801
-0.030610507 0.028875938 0.11135656
-0.033154827 0.02532855 0.11068445
-0.035369441 0.022161586 0.11097944
0.0080231093 0.042089224 0.1469799
-0.040027969 -0.007847758 0.14226881
0.0066755842 0.041837685 0.1417661
0.0047886502 0.041347161 0.14103267
-0.041414324 -0.00564689 0.13720787
0.0032303985 0.042162448 0.13759467
-0.041895263 -0.0037289988 0.13315994
-0.042883463 -0.0084303562 0.13199309
0.001004681 0.042939153 0.13314894
-0.041872784 0.00065134093 0.12941316
-0.041961547 -0.0029827431 0.12870634
-0.04528328 -0.0076599177 0.12800428
-0.046626899 -0.0081677977 0.12745383
-3.1597912e-05 0.043154493 0.1284731
-0.0024319198 0.042777292 0.12916335
-0.041408043 0.0015089121 0.12413949
-0.0039033182 0.042730123 0.12520057
-0.0073921606 0.041645739 0.12387478
-0.038871638 0.0097377487 0.11909872
-0.040090363 0.0063366592 0.12081987
-0.040570796 0.0028441176 0.12079918
-0.004141409 0.042045802 0.12039286
-0.0069974363 0.041077204 0.11975366
-0.011237162 0.040240102 0.11869109
-0.0374704 0.014296673 0.11641431
-0.038904224 0.01162691 0.11622554
-0.039943047 0.0081537087 0.11619949
-0.008374447 0.040773857 0.1161325
-0.011476615 0.039531812 0.11384535
-0.015322422 0.038501292 0.11416042
-0.037328269 0.016044233 0.11238533
-0.039292835 0.012481681 0.11142808
-0.040340152 0.0096306726 0.11114323
-0.016595135 0.038254846 0.10964435
-0.020660438 0.036689308 0.10930473
-0.036002025 0.021212976 0.10869855
-0.037246242 0.016659698 0.1073947
-0.038982708 0.013631808 0.10746264
-0.02010507 0.035412516 0.10521245
-0.023800496 0.03361702 0.1049487
-0.026645895 0.030969089 0.10460472
-0.029610379 0.02819181 0.10448861
-0.032095194 0.024943221 0.10378027
-0.034844298 0.021245234 0.10310566
0.0048083849 0.041819766 0.13462919
0.0079183672 0.042166047 0.1308721
0.0049878918 0.041944794 0.13076794
-0.041262962 -0.0049538594 0.1246351
-0.04315123 -0.0073835813 0.12579164
0.0030087456 0.042221494 0.12719578
-0.040630456 -0.0039640665 0.1213243
-0.04499241 -0.0078176595 0.12100899
-0.046393342 -0.0082930438 0.12147576
0.0022270065 0.041516487 0.12137395
-0.0014071707 0.042462349 0.12172019
-0.040196478 0.00052315928 0.11718667
-0.040517274 -0.0025064237 0.11706066
-0.045190588 -0.0075057391 0.11744207
-0.0027806312 0.042088062 0.11733115
-0.0060099866 0.041253559 0.11705238
-0.039939716 0.0050411168 0.11475527
-0.039749816 0.0020537432 0.11312306
-0.0031088516 0.04208627 0.11254489
-0.006256938 0.041071199 0.11293703
-0.009376226 0.040108047 0.11237794
-0.040161997 0.0064583682 0.10995692
-0.040272512 0.003574254 0.10912973
-0.0066857226 0.041359439 0.10799277
-0.011122632 0.040176317 0.10853982
-0.01381675 0.039083228 0.1074177
-0.037751913 0.015084559 0.10445398
-0.039319612 0.012353024 0.10512453
-0.03990579 0.008011207 0.10561389
-0.0083762947 0.041552112 0.10492235
-0.010957941 0.040363476 0.1033392
-0.015095825 0.037737027 0.10334933
-0.019199196 0.035554763 0.10213238
-0.021734521 0.033882774 0.10171664
-0.036181446 0.016675111 0.10095447
-0.037800681 0.012493755 0.100416
-0.039406687 0.0089659272 0.10137618
-0.015090382 0.03738042 0.099764049
-0.019160748 0.035422407 0.097294569
-0.022744816 0.033189304 0.097909629
-0.026165718 0.030818 0.098338723
-0.029144932 0.028031914 0.098227561
-0.031927764 0.025055308 0.097872555
-0.034590367 0.02195688 0.097364187
-0.036249384 0.01804325 0.096458018
-0.036932088 0.014475246 0.097680151
-0.020456793 0.035658531 0.093607306
-0.022903558 0.033613343 0.093351424
-0.025952868 0.030926015 0.092359602
-0.029069211 0.028254811 0.092408538
-0.032032028 0.025437295 0.092267931
-0.03442302 0.022051759 0.091401756
-0.03633754 0.019409373 0.092075825
-0.031316083 0.026834141 0.088823438
0.0053841807 0.04142154 0.12443396
-0.040864702 -0.006256476 0.11876816
-0.042144738 -0.0081247855 0.11965138
0.0052118804 0.041267011 0.11915421
-0.040990025 -0.0045407526 0.11478126
-0.042351373 -0.0079088192 0.11497521
0.0034861267 0.041810974 0.11403745
0.00103564 0.041232675 0.11503685
-0.040318094 -1.9129366e-06 0.11124581
-0.040904909 -0.0032487419 0.11063266
-0.041974552 -0.0068591908 0.11120349
0.0024388656 0.042168431 0.1099515
-0.00026098825 0.042089216 0.11005336
-0.040496159 0.0012901314 0.10651833
-0.040726811 -0.0019365083 0.10582179
-0.0024763513 0.042214021 0.10628748
-0.0051307864 0.042174809 0.1054256
-0.039731044 0.0059183314 0.1021803
-0.040151812 0.0028574113 0.10212094
-0.0032724142 0.04248634 0.10258734
-0.0061951894 0.041561618 0.10169399
-0.0095290747 0.041015133 0.10129941
-0.038171694 0.010424615 0.098341227
-0.038798019 0.0067999065 0.098015964
-0.039875165 0.0035034083 0.098045051
-0.0066773146 0.041076239 0.097035229
-0.01037017 0.039945867 0.097371876
-0.013857825 0.03788764 0.096809924
-0.016402179 0.036579151 0.096443474
-0.036125906 0.01576031 0.09411329
-0.037365168 0.012802684 0.09459275
-0.038224854 0.0092844237 0.094316363
-0.01127349 0.039480679 0.092381775
-0.01413591 0.038201947 0.092473149
-0.018257698 0.03653188 0.092060983
-0.022958729 0.033830632 0.090556324
-0.036438935 0.017458839 0.090287626
-0.036865551 0.014209061 0.090033233
-0.014508639 0.038106665 0.088397563
-0.018588405 0.036520094 0.087549448
-0.022788551 0.033835355 0.087471187
-0.025998928 0.030983996 0.087030947
-0.028778661 0.028495654 0.086685777
-0.031686351 0.025362106 0.086380422
-0.034056444 0.0219047 0.086110592
-0.03595192 0.018266657 0.085764766
-0.019406967 0.036133885 0.083202302
-0.022557845 0.033894464 0.082373261
-0.025538266 0.03130427 0.082152486
-0.028920228 0.02836189 0.081862628
-0.031501126 0.025153266 0.081544459
-0.033569146 0.021889916 0.081377447
-0.036288381 0.018448958 0.082094133
-0.027150307 0.030963356 0.078135788
-0.028882643 0.029193088 0.07817167
-0.031686962 0.02626045 0.078159273
0.0064850114 0.041779697 0.11430323
-0.041099489 -0.0057082716 0.10851246
0.0080780275 0.042579167 0.10900533
0.0046024416 0.042707212 0.10907757
-0.040705588 -0.0045666378 0.10453135
-0.041051842 -0.0077112764 0.10424531
0.0039215423 0.042746302 0.10455412
0.00054946542 0.042070728 0.10356963
-0.04029515 0.00033511221 0.099663794
-0.040651638 -0.0035575181 0.099795878
0.002921354 0.042380989 0.10092467
-0.00065066107 0.041149497 0.099196851
-0.0036359075 0.041246802 0.098017752
-0.038533643 0.0062075984 0.095094085
-0.039640315 0.0025745761 0.095065355
-0.040615357 -0.0012171287 0.094863176
-0.0047598649 0.041337319 0.094094992
-0.0083663128 0.040354691 0.094234705
-0.038425192 0.0075806053 0.091309071
-0.039852463 0.0039783381 0.090651572
-0.040595703 0.00041092187 0.091449976
-0.0063414313 0.041568909 0.089862227
-0.0093840547 0.040231362 0.090484023
-0.012475234 0.038909554 0.089722097
-0.037013978 0.011738536 0.08755511
-0.038522478 0.0085326992 0.086685777
-0.039876401 0.0052513909 0.086610317
-0.0070831664 0.041641094 0.085344553
-0.010019156 0.040645495 0.085426986
-0.013809828 0.038821589 0.085892856
-0.016584111 0.037464377 0.085209548
-0.035920382 0.015993072 0.083192766
-0.036995441 0.013116637 0.08287698
-0.038420282 0.009600752 0.082340062
-0.010845518 0.040454805 0.081105232
-0.014288466 0.039331354 0.081083834
-0.018252634 0.037429973 0.081328154
-0.034514673 0.021702386 0.079244554
-0.036013216 0.018261425 0.079539001
-0.037189089 0.014537814 0.077937961
-0.015326517 0.039326143 0.077012241
-0.018511377 0.036977887 0.077001691
-0.022312572 0.033997327 0.076257646
-0.025599834 0.03198979 0.07659936
-0.029574016 0.029139772 0.075842917
-0.032195915 0.026023023 0.075589478
-0.03433232 0.022668669 0.075777233
-0.036304019 0.019031063 0.074710965
-0.03718001 0.015673872 0.074683487
-0.026174203 0.03230159 0.071399748
-0.029352209 0.02962956 0.071500599
-0.032145884 0.026539508 0.072082222
-0.034556504 0.023115991 0.071177542
-0.035990294 0.019628737 0.070634842
-0.026570592 0.032947864 0.06702894
-0.028708644 0.03112743 0.06810087
0.0068356283 0.042413972 0.10167885
-0.04064101 -0.0079794638 0.096904695
0.0057182983 0.041520547 0.097151458
0.0026927441 0.040370144 0.096411645
-0.040641241 -0.0037365649 0.093712509
-0.040615179 -0.0058017559 0.092336178
0.0012723431 0.040173542 0.092728317
-0.040276997 -0.0019263495 0.088709116
-0.00094173104 0.041244827 0.0884431
-0.0029866043 0.041279506 0.088675201
-0.039760284 0.0030011907 0.08449024
-0.040032558 -9.0636313e-06 0.084832549
-0.0011352096 0.041762017 0.083872855
-0.0040600095 0.041410178 0.083370388
-0.038356096 0.0080918754 0.07976222
-0.039483085 0.0040597916 0.080614984
-0.0054251384 0.041109964 0.078937411
-0.0089253001 0.040444456 0.078179598
