# .PCD v0.7 - Point Cloud Data file format
VERSION 0.7
FIELDS x y z
SIZE 4 4 4
TYPE F F F
COUNT 1 1 1
WIDTH 1318
HEIGHT 1
VIEWPOINT 0 0 0 1 0 0 0
POINTS 1318
DATA ascii
-0.035803292 0.024774458 0.29462522
-0.039203778 0.021153294 0.29428771
-0.042523026 0.017446632 0.29389364
-0.042486832 0.013253303 0.29389313
-0.01954972 0.040950898 0.29188421
-0.022552529 0.039728459 0.29095051
-0.026698934 0.037067473 0.29100534
-0.030564135 0.033893988 0.29097769
-0.03391061 0.030223656 0.29060411
-0.037296072 0.026590034 0.29025641
-0.040719979 0.02299232 0.28993374
-0.043625183 0.01886165 0.28925169
-0.023534361 0.039884254 0.28742695
-0.027438989 0.038167212 0.28612515
-0.031726986 0.035391189 0.28638604
-0.035329781 0.031967524 0.28618586
-0.038790595 0.02840733 0.28588873
-0.041542359 0.0243228 0.28532857
-0.043640293 0.020143233 0.28500545
-0.025131069 0.041166931 0.28260145
-0.028668581 0.039732803 0.28156629
-0.032990694 0.036986478 0.2818574
-0.036774576 0.033736341 0.28178346
-0.03984319 0.029784838 0.28120968
-0.041685879 0.026161525 0.28060499
-0.029653216 0.03991437 0.27876753
-0.03388197 0.037805852 0.27721536
-0.037502784 0.034782853 0.2772041
-0.040030759 0.031116327 0.27702206
-0.042267807 0.027418215 0.2770769
-0.0026293965 0.0053979764 0.35260695
-0.006788942 -0.0005405026 0.35175037
0.0017024991 0.011560561 0.34794149
-0.002328357 0.0075575225 0.34983045
-0.0059354161 0.0050910418 0.35066825
-0.009473335 0.0013032774 0.34988749
-0.00067731552 0.01429122 0.3463589
-0.0031519486 0.011348168 0.34772897
-0.012675123 0.0023605973 0.34741181
-0.015294134 -9.9603552e-05 0.3460823
-0.017176587 -0.0017665178 0.34541523
0.0017509246 0.018891457 0.34170914
-0.0022531385 0.016910611 0.3424179
-0.01572589 0.0052629891 0.34043798
-0.016803898 0.00221866 0.34125581
-0.018595405 -0.0011593355 0.34018347
0.00020241737 0.019921156 0.33737516
-0.0036111153 0.01761842 0.33763444
-0.007429413 0.01537987 0.33736035
-0.016065694 0.0067204097 0.33685005
-0.017693825 0.0034311879 0.33652127
-0.018834792 0.00052789226 0.33587018
-0.0012562666 0.020982178 0.33258712
-0.0043713343 0.018801002 0.33207539
-0.008302643 0.015895043 0.3324365
-0.012797192 0.012975521 0.33304241
-0.016419398 0.0091564897 0.33239582
-0.01867911 0.0050019398 0.33235228
-0.0030615292 0.021793392 0.32888156
-0.0048533534 0.019988082 0.32812324
-0.0092514176 0.016230904 0.32805359
-0.013102504 0.013637985 0.32796395
-0.016777974 0.010236048 0.32777387
-0.019358413 0.006170861 0.32751507
-0.013482071 0.013795791 0.32387319
-0.01606591 0.011315379 0.32371062
-0.014621309 0.022417845 0.31197777
-0.017460471 0.018827038 0.31261474
-0.020238409 0.015818389 0.31237954
-0.02345809 0.013034424 0.31111696
-0.027249593 0.0087239239 0.31064844
-0.029189872 0.0066106748 0.31044096
-0.0094655836 0.029718675 0.3084332
-0.01191081 0.027736813 0.30978057
-0.015797298 0.024757914 0.31000105
-0.019879224 0.021745594 0.31006762
-0.023114866 0.01791703 0.30961472
-0.025799436 0.013534868 0.30881429
-0.028972428 0.01024395 0.30837572
-0.031794999 0.0066345837 0.30784547
-0.0099130673 0.033035833 0.3051939
-0.014201559 0.030480083 0.30689853
-0.017750619 0.027657131 0.30747408
-0.021427786 0.023458438 0.30798489
-0.02543214 0.01939727 0.3076618
-0.028929817 0.016237024 0.30647787
-0.031684645 0.012631165 0.30544549
-0.034890734 0.0087643843 0.30496767
-0.036055088 0.0059396112 0.30272013
-0.0079269558 0.038073037 0.30094367
-0.012391586 0.035867564 0.30229813
-0.015694618 0.032852143 0.30400065
-0.018055158 0.030429225 0.30484211
-0.03374169 0.014560704 0.30218512
-0.036895078 0.010555029 0.30148274
-0.038854115 0.0072779749 0.2990922
-0.040509369 0.0046424679 0.29802075
-0.0092358626 0.040423237 0.29761234
-0.013443806 0.038967904 0.29900527
-0.041689176 0.0094419476 0.29604059
-0.042656772 0.0057400316 0.29405284
-0.010920975 0.042000037 0.2930223
-0.015349608 0.04140567 0.29414552
-0.043819755 0.011203967 0.29172581
-0.044205915 0.0069138315 0.28967384
-0.012592948 0.043329172 0.28818575
-0.017106948 0.041999366 0.28981599
-0.020344133 0.039987478 0.28859979
-0.044529758 0.0128155 0.28710476
-0.045802861 0.0095558446 0.28506681
-0.013872527 0.044566266 0.28398946
-0.018178396 0.043151587 0.2851764
-0.022410315 0.040750362 0.28494588
-0.042042263 0.021734182 0.28195029
-0.044034541 0.018592982 0.28294623
-0.045031428 0.014653738 0.28231764
-0.046779305 0.011346681 0.28132769
-0.015352315 0.045791715 0.28053162
-0.019075386 0.044666409 0.27982628
-0.023591384 0.042055108 0.28067234
-0.042400181 0.023099646 0.27909136
-0.044247266 0.020078432 0.27881426
-0.045324869 0.016063366 0.27758861
-0.047046855 0.012616731 0.27838886
-0.020415913 0.045919009 0.27522805
-0.024683559 0.043238442 0.27609324
-0.028821141 0.04054296 0.27580181
-0.031968445 0.038465261 0.27494591
-0.036919169 0.034386639 0.27412492
-0.040250756 0.029387133 0.27449334
-0.043049656 0.025629982 0.274492
-0.045341827 0.021488577 0.27412248
-0.021697059 0.046283867 0.27168381
-0.025164705 0.044171322 0.27019739
-0.029088333 0.04124599 0.2706511
-0.033278227 0.038019489 0.27118689
-0.037011247 0.034681804 0.27106768
-0.04030915 0.030918855 0.27063629
-0.043380111 0.027190655 0.2702902
-0.045735881 0.023330417 0.26877978
-0.026370021 0.044620443 0.26674318
-0.030333653 0.04152301 0.26606613
-0.033920798 0.039019633 0.26616722
-0.037269007 0.035292607 0.26576424
-0.040618569 0.031564146 0.26536179
-0.043503694 0.028550223 0.26531565
-0.045611225 0.025377892 0.26531518
-0.034617372 0.039493561 0.26214695
-0.037511334 0.03640876 0.26193523
-0.040186815 0.033395261 0.26192245
0.0022589387 0.020013466 0.3362087
-0.018346995 -0.0020458559 0.33569783
-0.016955346 -0.00099677686 0.32850766
-0.0010826038 0.020117007 0.32550639
-0.0048776185 0.018447457 0.32566348
-0.0075706816 0.016425373 0.32516521
-0.017594367 0.0030088676 0.32482728
-0.02010628 0.0023906138 0.32680348
-0.0034866012 0.018296067 0.3214604
-0.0077025858 0.016025163 0.32134119
-0.012243168 0.013967619 0.32055214
-0.01566821 0.010357386 0.32038018
-0.017283199 0.0062580919 0.32046321
-0.0058725211 0.02051587 0.31599113
-0.0089516705 0.018032933 0.31658658
-0.012634865 0.014694078 0.31672162
-0.015508903 0.010742347 0.31599262
-0.018745091 0.0068517858 0.31552318
-0.021863593 0.0035479236 0.31470186
-0.0044637481 0.025772989 0.31214142
-0.0079297824 0.023801733 0.31298494
-0.011881725 0.020810489 0.31355751
-0.015231412 0.017149253 0.31437108
-0.018440679 0.013081117 0.31351984
-0.021743616 0.0098625589 0.31222826
-0.024696082 0.0059653306 0.31212372
-0.027929924 0.002138989 0.31049928
-0.029991522 -0.00080440659 0.30807352
-0.0018745596 0.030915517 0.30792964
-0.0055748923 0.029172063 0.30887416
-0.0093787191 0.027432758 0.31073406
-0.031213639 0.0040058699 0.30800009
-0.032503795 0.0011395086 0.30598941
-0.00044203736 0.036506496 0.30281433
-0.0032513319 0.034065653 0.30431384
-0.0067565404 0.031682394 0.30617812
-0.035673954 0.0027382672 0.30251569
-0.037314251 -0.0015711095 0.30051786
0.0019010231 0.041662104 0.2984663
-0.0012150854 0.039233074 0.29992226
-0.0052890759 0.037292387 0.30132136
-0.038001418 0.0039835889 0.29942471
-0.039871819 0.00018277764 0.29716513
0.00032947585 0.043415099 0.29559642
-0.0030002091 0.041571848 0.29589289
-0.0074280351 0.040803298 0.29611674
-0.042205483 0.0020465162 0.29314131
-0.0011999514 0.045271158 0.29116699
-0.0043903105 0.043301545 0.29138368
-0.0082019642 0.041771807 0.29353708
-0.044230856 0.0038164724 0.28852355
-0.044862323 0.00029617548 0.28739715
-0.0024511274 0.046856213 0.2868163
-0.0056058541 0.044874012 0.2867586
-0.0099719297 0.043576986 0.28775477
-0.04613211 0.006067019 0.28437346
-0.047132097 0.0023108814 0.2832526
-0.0071297269 0.046448607 0.28236955
-0.01181329 0.045367248 0.28294045
-0.047367964 0.0080704857 0.27970141
-0.047866683 0.0041508749 0.27889651
-0.0090395119 0.047760107 0.27792403
-0.013557628 0.046642061 0.27837411
-0.045541458 0.014303952 0.27536786
-0.047995735 0.010403447 0.27526101
-0.048885852 0.0063206218 0.27410832
-0.0107791 0.048810218 0.27334923
-0.014541252 0.04758691 0.27375138
-0.046011627 0.016056266 0.27138418
-0.048261363 0.01141293 0.27041471
-0.012043266 0.049542636 0.26967996
-0.015058039 0.048105754 0.2687915
-0.019967686 0.04687915 0.26877519
-0.046391875 0.02162867 0.2662088
-0.046726365 0.017070986 0.26636785
-0.047830377 0.013492279 0.26650858
-0.016730422 0.048427507 0.26508948
-0.020266335 0.046916075 0.26402402
-0.024919324 0.04468257 0.26420215
-0.028160391 0.042895652 0.26393902
-0.0443317 0.027316511 0.2624428
-0.045822769 0.023240913 0.26257256
-0.046301231 0.018981453 0.26131943
-0.021689551 0.047369659 0.26000568
-0.025099948 0.044901915 0.25993785
-0.028853614 0.042101193 0.26021543
-0.032431927 0.039460734 0.25924596
-0.037010539 0.036065858 0.25935072
-0.040193398 0.032108508 0.25944468
-0.042978182 0.028172776 0.25908825
-0.045477428 0.023539806 0.25802356
-0.025534149 0.045552157 0.25708964
-0.028689729 0.042586993 0.25693566
-0.033115845 0.039271787 0.25674361
-0.036481947 0.035701528 0.25510067
-0.039675709 0.032384779 0.25415909
-0.042748068 0.028484913 0.25470996
-0.045047235 0.02537518 0.25455278
-0.015790083 -0.0022324515 0.32885
-0.017062914 0.0016421112 0.32112738
-0.015781967 -0.0018798271 0.32274795
0.00052220933 0.019360162 0.32032645
-0.0022704834 0.019095186 0.31898645
-0.017691147 0.0029683961 0.31861544
-0.018983226 -0.00034698565 0.31783599
-0.00014235079 0.021287465 0.31457481
-0.003419512 0.019879181 0.31653148
-0.02096412 0.00049570668 0.31498867
-0.023135385 -0.0026851427 0.31238717
0.0021156957 0.027691413 0.31030121
-0.00085110869 0.02573099 0.31173694
-0.025721254 -0.001303223 0.3114568
-0.029010439 -0.0042511877 0.30837777
0.0050937543 0.032503027 0.30632448
0.0010353485 0.030832408 0.30780572
-0.031874735 -0.0023528058 0.30529484
-0.033907838 -0.0059580673 0.3041935
0.0067522004 0.038485736 0.3020829
0.0027402081 0.035851274 0.30362275
-0.036568239 -0.0045665558 0.30187139
0.0050215404 0.040900137 0.29907763
0.002625009 0.038800657 0.30039284
-0.039791852 -0.0055651497 0.29489937
0.0063673854 0.043852702 0.29398862
0.0031572822 0.043795437 0.29490766
-0.042025752 -0.0038112011 0.29039764
-0.042949792 -0.0071684606 0.28724751
0.0052197929 0.045821704 0.28985691
0.0016710851 0.045614056 0.29043764
-0.045338754 -0.0023573935 0.28654745
-0.044460885 -0.0054203421 0.2851409
0.0036102831 0.047706164 0.28486621
0.000130089 0.047169343 0.2857939
-0.047298431 -3.7988648e-05 0.28241217
-0.046947509 -0.0035955105 0.28095636
0.0020085908 0.049227975 0.28045896
-0.0015240647 0.04848738 0.28126937
-0.0045116898 0.047420643 0.28017706
-0.048235565 0.0017300341 0.27735624
-0.048600256 -0.0016028937 0.27658772
0.0014884267 0.049980141 0.2776778
-0.00223496 0.049206696 0.27644229
-0.0058408342 0.048614152 0.27654365
-0.048937678 0.0032160971 0.27291161
-0.049025513 -0.00031134114 0.27204746
-0.0037671085 0.050294563 0.27168331
-0.007647112 0.049701847 0.27213994
-0.049235068 0.0090956688 0.26804513
-0.048622027 0.0047578029 0.26797858
-0.0047135577 0.050674982 0.26855928
-0.0089876968 0.050285939 0.26712033
-0.013168829 0.048888609 0.26653773
-0.048911124 0.011217764 0.26432505
-0.049575087 0.0064677484 0.26303998
-0.010659762 0.050170358 0.26269248
-0.014357157 0.048616804 0.26254234
-0.046952747 0.016544934 0.26054335
-0.04914625 0.012571661 0.25965512
-0.05065684 0.0083638374 0.2588529
-0.011484832 0.049935177 0.25904772
-0.015354637 0.048968278 0.2588622
-0.01873271 0.048373669 0.25880483
-0.046768039 0.017629396 0.25602093
-0.04889442 0.013327062 0.25533059
-0.015678184 0.048268102 0.25484702
-0.020620376 0.047031127 0.25437874
-0.024746604 0.045064338 0.25333411
-0.027930927 0.042106174 0.25319448
-0.031680394 0.038976856 0.25302905
-0.035297338 0.036217686 0.25245041
-0.04022973 0.032009631 0.25157028
-0.042901758 0.028113406 0.25151521
-0.045698434 0.023408407 0.25176659
-0.046517845 0.018413171 0.25198933
-0.048143119 0.015039135 0.25212985
-0.023912098 0.044533961 0.24952498
-0.027626436 0.041704364 0.24896401
-0.03172937 0.039078347 0.24829563
-0.035854522 0.036017738 0.24844351
-0.039453615 0.03245759 0.24819475
-0.042954091 0.028798221 0.24786979
-0.045402676 0.024679527 0.24714622
-0.031782195 0.039175224 0.24471462
-0.035115156 0.036044825 0.2444731
-0.038875833 0.032087743 0.24452731
-0.042432867 0.028463528 0.24423692
-0.045288496 0.025162827 0.24383637
0.0039166128 0.02066366 0.31405362
-0.040378526 -0.007987909 0.29099599
0.0088029802 0.045775287 0.28836909
0.0073977243 0.047348548 0.28394067
-0.046545237 -0.0072298143 0.2794553
0.005967563 0.048659198 0.27901253
-0.048316643 -0.0051074363 0.27515116
-0.047898851 -0.0091540106 0.2737352
0.0036291219 0.050458059 0.27453357
-3.169477e-05 0.049754687 0.27401406
-0.048690964 -0.0035685431 0.26983368
-0.048647285 -0.0078580659 0.27094242
0.0024963766 0.051517036 0.27003008
-0.0009503644 0.050484296 0.27011862
-0.048558719 0.002009578 0.26582238
-0.048231818 -0.0015735645 0.26511201
0.0023871437 0.051578581 0.26606393
-0.0024686549 0.050847862 0.26544374
-0.049906746 0.0036435295 0.26201335
-0.049248744 0.00036020577 0.2609708
-0.0039143208 0.051664725 0.26050484
-0.0077336263 0.050888591 0.26091588
-0.05068475 0.0055630896 0.2569817
-0.049657144 0.0014022477 0.25692064
-0.004540544 0.051537268 0.25736567
-0.008493023 0.050602503 0.25651509
-0.012913307 0.048847247 0.2563411
-0.049384534 0.012063466 0.25296527
-0.050317612 0.007692555 0.25312179
-0.010235457 0.050611269 0.25209603
-0.014063645 0.04916539 0.25196379
-0.017969741 0.047393527 0.2514188
-0.046549279 0.017139502 0.24892145
-0.048283681 0.01301714 0.248629
-0.049538732 0.0088204965 0.24891481
-0.011380093 0.050816767 0.24780643
-0.014822641 0.049870323 0.24715385
-0.01952165 0.047523528 0.24759832
-0.023683038 0.044506259 0.24694911
-0.026865084 0.042044252 0.24660683
-0.046182282 0.021800835 0.24520478
-0.04677739 0.018201169 0.24471325
-0.048385605 0.014245374 0.24415374
-0.016098686 0.049592819 0.24394709
-0.019940354 0.048092246 0.24274284
-0.024239615 0.045399114 0.24254024
-0.027825555 0.042779602 0.24269345
-0.031723194 0.039624505 0.24174392
-0.0353944 0.035756897 0.24133271
-0.038698319 0.032113358 0.24115133
-0.042429596 0.028648619 0.24099252
-0.045923717 0.024696786 0.24079469
-0.047164656 0.019069202 0.23989168
-0.04812482 0.015557973 0.24073163
-0.024450615 0.045442179 0.23804307
-0.027967172 0.043333154 0.23714134
-0.032106429 0.040230036 0.23729017
-0.035489019 0.036410131 0.23685119
-0.038859122 0.03257481 0.23640141
-0.043221734 0.029724093 0.23674116
-0.046812475 0.02611557 0.23647031
-0.048417892 0.022512306 0.23631951
-0.02881645 0.043370984 0.23411423
-0.032072745 0.040483475 0.23319721
-0.035441242 0.036633663 0.23273873
-0.039552916 0.032755647 0.23233062
-0.043128971 0.029915731 0.23176259
-0.045732722 0.026776632 0.23259699
-0.04769766 0.024071932 0.23254794
0.0084569473 0.049926154 0.27302107
-0.048087172 -0.0088390075 0.26758406
0.0095805302 0.050466593 0.26713014
0.0073721465 0.050761983 0.26795852
-0.048233453 -0.0047904179 0.26383755
-0.048430774 -0.007817477 0.26270184
0.0079553388 0.051368691 0.26306424
0.0040724482 0.051210068 0.26280388
0.00036547519 0.050516006 0.26191279
-0.048729584 -0.0031126142 0.2585572
-0.04888567 -0.0060691871 0.25859898
0.003342472 0.051526513 0.25826439
0.0013231169 0.049974903 0.2580674
-0.049241878 -0.00077308156 0.25424653
-0.0018028561 0.050895367 0.25452027
-0.049991786 0.0042195991 0.2499212
-0.050040975 0.0009901803 0.25026155
-0.0032543167 0.05140879 0.24990243
-0.0068809073 0.051149145 0.24991947
-0.049359247 0.0067961197 0.2457909
-0.049927767 0.002419211 0.24540401
-0.0042753723 0.05240497 0.24516001
-0.0079550091 0.051121973 0.24491522
-0.011842763 0.04954724 0.24409348
-0.048872259 0.012717776 0.24200928
-0.049465753 0.0085917842 0.24178672
-0.049869075 0.0044158977 0.24162421
-0.0089405589 0.050566569 0.24140757
-0.013054335 0.049015157 0.24010441
-0.017746272 0.047543913 0.23863313
-0.047470823 0.018273624 0.23664752
-0.048765026 0.014044654 0.23756993
-0.049593814 0.0099486411 0.23750892
-0.014170505 0.048986882 0.23502234
-0.017712086 0.047369137 0.2353473
-0.022388913 0.045617469 0.23515287
-0.046955321 0.0182526 0.23309016
-0.04814136 0.01486557 0.23288694
-0.017937383 0.047906443 0.23144385
-0.022649471 0.04548993 0.23061118
-0.027016502 0.043097559 0.23029491
-0.031388026 0.040059734 0.2293863
-0.035136953 0.036555089 0.22922146
-0.038213603 0.033152729 0.22906244
-0.04193956 0.028917892 0.22750849
-0.044669218 0.025087947 0.2282972
-0.046039335 0.021415014 0.2290822
-0.027154876 0.042345274 0.22543865
-0.030931994 0.039912388 0.22491461
-0.034993581 0.036688428 0.22499347
-0.037687033 0.033163253 0.22442454
-0.040706988 0.029313087 0.22417206
-0.043213561 0.025090296 0.22458127
-0.032857448 0.038931616 0.2217969
-0.035269782 0.037228949 0.22108963
-0.036874261 0.034633934 0.22137728
-0.048708454 -0.0091242138 0.25621042
0.0089948103 0.052073181 0.25636473
0.0054427963 0.052300222 0.25681135
-0.04910136 -0.0034091156 0.25229296
-0.049043261 -0.0072338358 0.25178221
0.0088810455 0.051511735 0.25283119
0.0041317232 0.051299855 0.25291371
0.00093787163 0.05083805 0.2527346
-0.04971436 -0.0025974698 0.24867067
-0.049752876 -0.0052854158 0.24799293
0.0041201804 0.05094507 0.24862611
0.00020855479 0.051124386 0.24772897
-0.050469771 -0.00030465238 0.24319562
-0.05046536 -0.0038081184 0.24424338
-0.0015533548 0.051391426 0.24293911
-0.049609259 0.0064190812 0.23902833
-0.050369862 0.0018925723 0.23923895
-0.0030125342 0.051662881 0.2401962
-0.007534001 0.051284619 0.2385754
-0.011440067 0.049743749 0.23731819
-0.049920529 0.0081794932 0.23484445
-0.050713662 0.0046753082 0.23482355
-0.0084400866 0.050710738 0.23351365
-0.012132745 0.049884655 0.23391345
-0.045248952 0.017278768 0.23035645
-0.048234615 0.013119312 0.23063898
-0.048612848 0.0084083006 0.23066962
-0.0094671994 0.050592221 0.22934544
-0.012908589 0.049786866 0.22940415
-0.017476637 0.048563004 0.22927594
-0.021149326 0.046608217 0.22764826
-0.045762137 0.018002003 0.22683647
-0.047475278 0.01363386 0.22638679
-0.013973452 0.049035408 0.22605953
-0.017406754 0.047875252 0.22492459
-0.022416219 0.046034977 0.22446257
-0.026169207 0.04334553 0.22398561
-0.042007998 0.028235033 0.22213626
-0.044337459 0.024998913 0.22277471
-0.045605611 0.020033047 0.22213107
-0.046412937 0.016810201 0.22122389
-0.022218373 0.045952804 0.21937954
-0.026929369 0.043571517 0.21993762
-0.031088114 0.040695891 0.22006115
-0.035193719 0.037319843 0.21854118
-0.038258713 0.033791661 0.21960208
-0.041122377 0.029622033 0.21901357
-0.04413119 0.025334993 0.21821484
-0.045629546 0.022102125 0.21774781
-0.023797089 0.044933628 0.21592897
-0.027071975 0.043594547 0.21588838
-0.030478094 0.040443588 0.2148819
-0.03460902 0.036827613 0.21403557
-0.037869226 0.034020144 0.21377262
-0.040617 0.030306283 0.21355948
-0.043892525 0.025276272 0.21466786
-0.03799703 0.03440721 0.20969391
0.007694304 0.050819546 0.25043175
-0.049291808 -0.0087123122 0.24566698
0.0063254666 0.050801091 0.2454235
-0.049151286 -0.0073809717 0.2409794
0.0056291055 0.050682563 0.24011546
0.0022110436 0.050256252 0.24071094
-0.049697421 3.9825216e-05 0.23634067
-0.0497557 -0.0037567075 0.23601383
0.0003867466 0.050643738 0.23610321
-0.003147874 0.050257068 0.23455891
-0.049443189 0.00037649646 0.23164824
-0.04979261 -0.0026319716 0.23155561
-0.0012602769 0.050869301 0.23073342
-0.0036371294 0.050224766 0.23097458
-0.048270982 0.0071752239 0.22771403
-0.049283899 0.002412837 0.22723773
-0.0057532191 0.050665304 0.22715801
-0.04696317 0.010778604 0.22301754
-0.047854573 0.0073363073 0.22353414
-0.049073029 0.0035287701 0.22344568
-0.0078745391 0.050441355 0.22304314
-0.011786781 0.049466074 0.22263342
-0.015367756 0.048004497 0.22155729
-0.046966594 0.013115257 0.21977657
-0.047507145 0.0089291744 0.21862149
-0.012636974 0.049097113 0.21815148
-0.016344862 0.047878083 0.21785986
-0.019834185 0.047186296 0.21715733
-0.04547184 0.019120906 0.21556279
-0.046907708 0.01503282 0.21477145
-0.017310347 0.047931619 0.21342188
-0.021338928 0.046101417 0.21363488
-0.026265165 0.043764856 0.2124069
-0.030562824 0.039853685 0.21138528
-0.033220116 0.037911121 0.21117765
-0.041640978 0.027943892 0.2111465
-0.043561876 0.025376879 0.21135655
-0.045426197 0.020584958 0.21138605
-0.046688516 0.016514985 0.21087176
-0.022653181 0.045664668 0.2086913
-0.026693946 0.044213656 0.20808536
-0.030584563 0.040746193 0.20800039
-0.034449607 0.037263677 0.20789883
-0.037764177 0.034297578 0.20760471
-0.040835112 0.030023687 0.20703751
-0.043779682 0.025391558 0.20638481
-0.045357749 0.022493701 0.20669842
-0.026856087 0.044412293 0.20352319
-0.030820131 0.041325152 0.2031517
-0.034669198 0.037809975 0.20303109
-0.037889488 0.034724049 0.20286149
-0.040861327 0.030624619 0.20227331
-0.043587871 0.026163649 0.20240948
0.0092879683 0.050150514 0.24200881
-0.048711851 -0.0092484895 0.23770702
0.0091295745 0.050604176 0.23885462
-0.049526323 -0.0078625549 0.23461461
0.0099298637 0.052202895 0.23584154
0.0063849781 0.051560577 0.23426169
0.0033833012 0.050375596 0.23311663
-0.050332025 -0.0059278738 0.22966757
-0.05043643 -0.0094262753 0.22786647
0.0054622721 0.052323662 0.22917387
0.0021354053 0.05086188 0.22949776
-0.049769282 0.00055582821 0.22467923
-0.050162964 -0.0034672003 0.22477725
0.0057715774 0.052959353 0.22565144
0.00088606961 0.051425278 0.22504699
-0.0029152092 0.050945595 0.22451809
-0.049603306 0.0019814055 0.22124207
-0.049916632 -0.0019174404 0.22063926
-0.00025979429 0.051359303 0.22069663
-0.0042376202 0.050546959 0.2199752
-0.047809135 0.0063144155 0.21667749
-0.048411299 0.0028788894 0.2161054
-0.0056358315 0.05019854 0.21557871
-0.010410836 0.049237318 0.21563983
-0.047262616 0.011583656 0.21230456
-0.048004061 0.0082570929 0.21215978
-0.010842711 0.04906819 0.21131715
-0.014134001 0.047819078 0.2113632
-0.047084279 0.014474567 0.20893419
-0.048175972 0.010566453 0.20785072
-0.012214407 0.048985511 0.20636201
-0.015635466 0.048120573 0.20642775
-0.01948314 0.046381172 0.20647603
-0.045360986 0.019621365 0.20446941
-0.046599839 0.015672974 0.20349208
-0.047411002 0.012120919 0.20391005
-0.016681926 0.048835348 0.20163596
-0.021289738 0.046685372 0.20187572
-0.025842313 0.044934887 0.20112073
-0.042003322 0.028431818 0.19979107
-0.043828718 0.02558006 0.19987309
-0.045534074 0.021300036 0.19958434
-0.045876641 0.017282691 0.19958463
-0.021771833 0.045899227 0.19774929
-0.02564729 0.04398343 0.19708249
-0.029325102 0.041289918 0.19728658
-0.033237647 0.037801117 0.19720605
-0.036959454 0.034133174 0.19696274
-0.04007151 0.030484252 0.19665778
-0.043264881 0.026438337 0.19568622
-0.045901742 0.023008863 0.19527778
-0.026449958 0.042933866 0.19338369
-0.029819362 0.041513421 0.19256407
-0.033685572 0.038573343 0.19248039
-0.036962666 0.034705605 0.19217998
-0.039268516 0.030873701 0.19238281
-0.043019131 0.026660651 0.19233188
-0.045912389 0.023196811 0.19184935
0.0081537291 0.052641913 0.22722849
0.0064769741 0.052228637 0.22334224
-0.049435433 -0.0053934027 0.21814996
-0.051484238 -0.0096636843 0.21909857
0.0026789363 0.051062502 0.21816614
-0.048618227 0.00021766499 0.21462196
-0.049382195 -0.0028493702 0.21440452
0.00092037767 0.051184621 0.21383202
-0.0031890869 0.050584555 0.21303257
-0.04821822 0.0061174128 0.20931485
-0.04858635 0.0018256679 0.20959511
-0.049837522 -0.0017946605 0.20953614
-0.0047286358 0.050288931 0.20947352
-0.0083559919 0.049259588 0.20848161
-0.0480766 0.006671736 0.2055876
-0.048091516 0.0031536594 0.20558482
-0.0058188029 0.0497685 0.2046597
-0.0097264498 0.049382053 0.20507154
-0.047803827 0.010036236 0.20222193
-0.011111148 0.049903661 0.20059088
-0.015246034 0.049691387 0.19971004
-0.04651618 0.015610302 0.19707498
-0.047538616 0.011613395 0.19707805
-0.015320059 0.048405297 0.19551814
-0.019842081 0.046561204 0.195301
-0.046072915 0.019971784 0.19389957
-0.046271466 0.016554397 0.19294134
-0.020061348 0.04553128 0.19091439
-0.025053907 0.044079565 0.19137365
-0.029180009 0.042180758 0.19016245
-0.033507328 0.038630374 0.18890002
-0.037231252 0.034384418 0.18882152
-0.0395055 0.030296255 0.18981558
-0.042624358 0.026404763 0.18939465
-0.045420527 0.021428924 0.1885207
-0.046323348 0.018286679 0.18877068
-0.021687623 0.045039009 0.18712181
-0.024724782 0.043391183 0.18686566
-0.028706148 0.041448459 0.18620759
-0.033265844 0.038628839 0.18524611
-0.037180088 0.03510049 0.18515402
-0.039331999 0.030843263 0.18485969
-0.042450711 0.026728787 0.18476686
-0.045039374 0.022618793 0.18500492
-0.033456773 0.037502758 0.18076038
-0.036163945 0.034879204 0.18060747
0.0095625445 0.051994048 0.22036436
0.0087423772 0.049804531 0.21655369
-0.048683383 -0.0069362503 0.21231905
-0.049126565 -0.0097510349 0.20947573
0.0049393829 0.050107397 0.21146771
-0.049458116 -0.0051271319 0.20671573
-0.049926862 -0.0090101939 0.20730311
0.0019044876 0.051083028 0.20710111
-0.0012328848 0.050900906 0.20735204
-0.047883909 0.00079418719 0.20266655
-0.048860997 -0.0027740058 0.20234516
0.0011942647 0.051087864 0.20297003
-0.0024104454 0.050581627 0.203042
-0.047010116 0.007456677 0.19895318
-0.046999641 0.0027134977 0.19890046
-0.0045316033 0.0501922 0.19841829
-0.0081065539 0.049442939 0.19747281
-0.047318161 0.0084251817 0.19458231
-0.047816031 0.0051920656 0.19379109
-0.0036276672 0.050123889 0.19467151
-0.0093691722 0.048439864 0.19262215
-0.013504598 0.048244074 0.19242796
-0.045719504 0.01389578 0.18967688
-0.0466897 0.0097573232 0.18927997
-0.047636494 0.0062832348 0.1897912
-0.010105757 0.048372738 0.18932402
-0.014300868 0.048229542 0.18918616
-0.01800612 0.04609308 0.18834102
-0.04590394 0.015116692 0.18592879
-0.046326399 0.011019697 0.18557438
-0.015075179 0.048749477 0.18465436
-0.019346338 0.046125583 0.18444735
-0.02395853 0.043622591 0.18329483
-0.027547903 0.0410643 0.18271241
-0.042537138 0.025677115 0.18099448
-0.04514917 0.021467045 0.18206719
-0.045989294 0.016350027 0.18196481
-0.015401611 0.048908912 0.18102419
-0.019529417 0.046663724 0.17985597
-0.024146568 0.043851804 0.17861801
-0.027723454 0.040986951 0.17871407
-0.031909205 0.038498368 0.17858231
-0.036349103 0.034259006 0.17796028
-0.038950048 0.0308249 0.17843726
-0.041999783 0.027031612 0.17802995
-0.044687122 0.022352081 0.17700011
-0.023918673 0.043896362 0.17494106
-0.027994018 0.041278541 0.17408627
-0.032747287 0.038825225 0.17438135
-0.03655998 0.035148498 0.17417645
-0.038968995 0.031406801 0.17356303
-0.04152865 0.027752256 0.17396078
-0.044162728 0.023392435 0.17336333
-0.033793572 0.037961435 0.17078742
-0.036527231 0.035336263 0.170647
0.0070952345 0.049255479 0.20779526
0.009764934 0.049811177 0.20495987
0.006628098 0.049979329 0.20476931
-0.048981879 -0.0056287833 0.2002874
-0.049153127 -0.0088549182 0.20020217
0.004955953 0.050496627 0.20008442
-0.047747582 0.00013031252 0.19642055
-0.048635311 -0.0041628797 0.19595554
0.001876941 0.050767615 0.19656301
-0.001985183 0.050543357 0.19599241
-0.048206434 0.0013548937 0.19338712
-0.049012728 -0.0019601528 0.1915403
0.0013300329 0.050818689 0.19301304
-0.0023527425 0.048988942 0.19071758
-0.00616174 0.048617862 0.19140992
-0.047995485 0.0040210616 0.1872721
-0.048927143 -0.00036183558 0.18787009
-0.0041552894 0.049240634 0.18641353
-0.0078263674 0.048786707 0.18657565
-0.04719004 0.00980388 0.1835525
-0.048006102 0.0053679086 0.18260238
-0.0082302894 0.049041711 0.18192112
-0.012127081 0.048800398 0.18229899
-0.046296835 0.01537387 0.17931005
-0.047009379 0.010550741 0.1790494
-0.047984466 0.0071214475 0.17868584
-0.0097839944 0.048954885 0.17869088
-0.013282478 0.048489708 0.17760861
-0.018630769 0.04670047 0.17625117
-0.045048747 0.019873586 0.17379576
-0.045952577 0.016503152 0.17546254
-0.047161136 0.012045579 0.174431
-0.014594609 0.048192054 0.17355511
-0.018643379 0.046393249 0.17211872
-0.023594139 0.043787543 0.17203352
-0.027101785 0.041935846 0.17170846
-0.039407372 0.029557683 0.170793
-0.041014489 0.026402686 0.17062563
-0.043497313 0.02139282 0.16966516
-0.045876164 0.016446467 0.17063206
-0.046912536 0.013046244 0.17119738
-0.020298224 0.045145795 0.16765863
-0.022972653 0.043532878 0.16709241
-0.026658036 0.040720779 0.16727054
-0.03076941 0.038109582 0.16753358
-0.035278235 0.034899216 0.16703305
-0.038156927 0.030662555 0.1671783
-0.039911285 0.026649717 0.1665194
-0.042419821 0.021899644 0.16642442
-0.024597134 0.043221358 0.16399145
-0.026947327 0.041243065 0.16401362
-0.030690376 0.038116209 0.16333002
-0.034633856 0.034697626 0.16238606
-0.037916202 0.030687405 0.16252911
-0.039411444 0.027821632 0.16263813
0.0095708687 0.050936729 0.19873524
-0.048656128 -0.0095301084 0.19311526
0.0095533803 0.051442284 0.19360843
0.0060311556 0.050992645 0.19434941
-0.049247846 -0.0055604428 0.19019797
-0.05004447 -0.0092141163 0.18879873
0.0088312291 0.052109547 0.19001669
0.0043681823 0.050479949 0.18963835
0.00018802658 0.049166705 0.18820509
-0.048816163 -0.0031337794 0.18543419
-0.049645547 -0.0068337023 0.1843701
0.002914153 0.050206788 0.18488908
-0.001390947 0.049512748 0.18425363
-0.048031222 0.0025793053 0.18011072
-0.048092946 -0.0010876562 0.18085051
-0.0027475692 0.049962282 0.18012536
-0.0065674298 0.050021373 0.17967594
-0.047854871 0.0041673239 0.17603052
-0.048379146 0.00081389956 0.17668706
-0.0036655813 0.050373167 0.17621535
-0.0076565575 0.0495212 0.17603588
-0.047075041 0.0086393002 0.17271519
-0.047837898 0.0061068684 0.17178813
-0.008017946 0.04928153 0.17144513
-0.012433793 0.048504815 0.17103392
-0.045740936 0.016001754 0.16744274
-0.047462925 0.011516113 0.16824502
-0.047806598 0.0073724799 0.16784668
-0.012508102 0.047794759 0.16653451
-0.017456587 0.046350449 0.16593724
-0.040309723 0.024988979 0.1640282
-0.042345356 0.021962728 0.16368529
-0.043932237 0.016468246 0.16397515
-0.046995752 0.011183932 0.16422501
-0.018708799 0.045495346 0.16134331
-0.022725809 0.043972924 0.16149074
-0.026720291 0.041189406 0.16153228
-0.030042041 0.038607333 0.16082418
-0.032762572 0.036485035 0.16047955
-0.037938878 0.030867789 0.15988511
-0.040491745 0.026584037 0.16042054
-0.042499617 0.022350557 0.15936813
-0.022854507 0.043711126 0.15722904
-0.02659408 0.041411541 0.15659961
-0.030399721 0.038690004 0.15689039
-0.034598757 0.035300862 0.15701151
-0.038134672 0.031272251 0.15650523
-0.040522933 0.027170636 0.15544969
-0.042402357 0.023825433 0.154928
-0.027530648 0.040435441 0.15281942
-0.030554127 0.038577072 0.152749
-0.034259163 0.035253212 0.15222216
-0.037793975 0.031147815 0.15259993
-0.040015571 0.027949175 0.15193361
0.0078396499 0.050537184 0.18666196
0.0065819677 0.05030274 0.18240201
-0.047402665 -0.0041229036 0.17752457
-0.047803812 -0.007568568 0.17905569
0.0043856893 0.0503802 0.17771301
0.00012001581 0.050157845 0.17786035
-0.047559649 -0.0025541447 0.17334676
0.0027409866 0.050772458 0.17295793
-0.0010939967 0.050304838 0.17327672
-0.047244601 0.0021192245 0.16957262
-0.047237746 -0.00072287768 0.16862702
-0.0017488673 0.050337128 0.16891557
-0.0058547519 0.049556211 0.16882956
-0.047736011 0.0044648014 0.16519207
-0.0032249205 0.050169062 0.1655589
-0.0066988356 0.049011789 0.16486433
-0.01125047 0.047762111 0.16377017
-0.0432299 0.015196761 0.16064185
-0.045804076 0.0095894467 0.16057989
-0.047660492 0.0063556693 0.16085595
-0.0074458197 0.049296647 0.16049337
-0.011159185 0.047851034 0.15898094
-0.015249101 0.045887765 0.15879342
-0.042961344 0.015781673 0.1565814
-0.045373842 0.011627831 0.15632811
-0.047142245 0.0070781615 0.15730786
-0.012682812 0.047260121 0.15527809
-0.0167125 0.045862671 0.15449443
-0.021937095 0.04397855 0.15446436
-0.043073602 0.021596521 0.15324378
-0.043605123 0.017164482 0.1516521
-0.045852371 0.014147129 0.15146589
-0.019049738 0.045280255 0.14966518
-0.02181742 0.043640599 0.1500586
-0.025578994 0.041113082 0.15020484
-0.029221594 0.038422242 0.14956304
-0.033677537 0.034859896 0.14897346
-0.037351623 0.030871397 0.14947662
-0.040468097 0.027135281 0.14932904
-0.042959902 0.023379913 0.14902246
-0.04411028 0.018796423 0.14789218
-0.022280322 0.043968197 0.14596748
-0.025752326 0.041095775 0.14515054
-0.029204596 0.037989367 0.14508876
-0.033386674 0.034806166 0.14508715
-0.037581299 0.031365212 0.14518949
-0.040789019 0.028038889 0.1449002
-0.043329444 0.024037153 0.14394832
-0.032940391 0.035677291 0.14160538
-0.037554033 0.031949408 0.14112684
-0.040836837 0.028765477 0.14082295
-0.043094154 0.025087222 0.14065662
0.0089066233 0.049493022 0.17571616
-0.047569439 -0.0044452008 0.17014387
-0.048184659 -0.0082298666 0.17154929
0.0061916653 0.05036822 0.17084777
-0.047068439 -0.0039377119 0.16614476
-0.048787478 -0.0076252595 0.16725987
0.0039658956 0.050738357 0.16644561
0.00069732592 0.050671767 0.16596764
-0.046782233 -0.001562031 0.16204187
0.0031653009 0.050808854 0.16220075
-0.00025301427 0.050042249 0.16213384
-0.004268527 0.049339309 0.16190276
-0.047804635 0.0031343866 0.15929565
-0.04678994 -0.00021412782 0.15716949
-0.0012544394 0.049844984 0.15750632
-0.005691845 0.049289558 0.15756106
-0.046252608 0.0092829447 0.15433809
-0.047970809 0.0058019124 0.1545518
-0.0021736342 0.050170977 0.15397894
-0.0061288215 0.049465567 0.15303725
-0.010887081 0.048143454 0.152843
-0.046855137 0.010791132 0.15003878
-0.047985483 0.0067766793 0.14979026
-0.0066651031 0.049504839 0.14909226
-0.01078324 0.047932204 0.14755082
-0.01529594 0.046030924 0.14836159
-0.044469882 0.017252747 0.14556909
-0.046698317 0.013496403 0.14573252
-0.048036776 0.0097490009 0.14419207
-0.011991242 0.047502991 0.14388674
-0.016347695 0.04591845 0.14353561
-0.021260457 0.044150691 0.14307013
-0.024125502 0.04209647 0.14282909
-0.027798407 0.039186589 0.14297432
-0.044412933 0.018521249 0.14152965
-0.046007112 0.014198989 0.14060247
-0.017809682 0.044826098 0.13948968
-0.021327343 0.043235302 0.13900974
-0.024947606 0.041003697 0.1388672
-0.028878113 0.038325794 0.13926008
-0.032710295 0.035628289 0.13865709
-0.036365706 0.032370072 0.13829872
-0.040766917 0.027850766 0.13776863
-0.042985927 0.023687521 0.13744432
-0.043869983 0.019655436 0.13749585
-0.025215965 0.040887151 0.13389641
-0.028752102 0.038573273 0.13367486
-0.032345627 0.035566181 0.13373855
-0.035876855 0.031709746 0.1334863
-0.040011276 0.02787229 0.13318396
-0.042658817 0.024218624 0.13299614
-0.029705739 0.038653664 0.13037869
-0.031872775 0.036424331 0.13019264
-0.047575332 -0.008868169 0.1636813
0.0094569623 0.048890978 0.16503766
-0.046489924 -0.0052952524 0.16005638
0.0054773241 0.050250761 0.15999356
-0.046356812 -0.0041028205 0.1550222
0.0040453188 0.05060637 0.15519783
0.0014434811 0.050336182 0.15573597
-0.047207825 -0.00070357695 0.15151963
-6.7481771e-05 0.050201483 0.15119085
-0.0040682573 0.050083779 0.15103817
-0.0474663 0.0040006507 0.14719284
-0.04755009 0.0010100827 0.14693531
-0.0015862919 0.05020139 0.1471734
-0.005599631 0.050048873 0.14655113
-0.0091094468 0.048941679 0.14521191
-0.048087206 0.0060472209 0.14335483
-0.048343606 0.0026527364 0.14203605
-0.0058747604 0.049856938 0.14233851
-0.010088852 0.048309732 0.14132324
-0.014389141 0.046820808 0.14085898
-0.0466986 0.012758719 0.13827622
-0.047930218 0.0087352134 0.13796914
-0.048780806 0.0050592646 0.13736194
-0.010890594 0.047998242 0.13798416
-0.01500742 0.046197809 0.13703403
-0.018924523 0.043981165 0.13624913
-0.044160739 0.017818142 0.13476238
-0.046272516 0.014003547 0.13433379
-0.048105121 0.0098789129 0.13361314
-0.015755868 0.046434246 0.13219821
-0.020232748 0.044438891 0.13284227
-0.024367334 0.04235239 0.13239413
-0.037247412 0.029609289 0.13093081
-0.043150734 0.023418782 0.13036028
-0.04423473 0.01887444 0.13030985
-0.046035111 0.014406677 0.12988645
-0.02103449 0.04446904 0.12834617
-0.025319984 0.042127445 0.12828791
-0.028696181 0.039231133 0.12776864
-0.03237474 0.035670504 0.12757489
-0.035355564 0.031883832 0.1276601
-0.038870156 0.027851846 0.12676775
-0.042254262 0.023810504 0.12634468
-0.043611623 0.020161536 0.12547708
-0.02259697 0.044115838 0.12425876
-0.025561994 0.04223812 0.12388283
-0.029266102 0.039803475 0.12317386
-0.032485124 0.036405165 0.12284976
-0.035096589 0.032692317 0.12260702
-0.038937066 0.028468978 0.12253773
-0.041997805 0.024324223 0.12220567
-0.029703058 0.03938869 0.11932212
-0.031396367 0.037763491 0.1192416
0.0096940268 0.048900455 0.15786117
0.0089309476 0.049229316 0.15273207
-0.046680249 -0.0047057755 0.1492497
-0.046550736 -0.0092573483 0.14833826
0.0059209466 0.049379315 0.14905107
0.0035172738 0.049560256 0.14832592
-0.04732554 -0.0024495944 0.14543119
-0.047569215 -0.0052679349 0.14324021
0.0016225073 0.049542122 0.14444768
-0.048240431 -0.00092511438 0.14106822
-0.048499815 -0.0035089757 0.13936833
-0.00022741407 0.050039694 0.14033413
-0.0032386705 0.049534827 0.13970414
-0.048530757 0.0013255998 0.13622755
-0.04862503 -0.0020896811 0.13637424
-0.00021814182 0.04986681 0.13596082
-0.0041052625 0.049272284 0.13552845
-0.0090898667 0.047600925 0.1347242
-0.048624232 0.0082338937 0.13107637
-0.049267892 0.0038496163 0.13220555
-0.0052651949 0.049152449 0.13075483
-0.0089966841 0.048122153 0.12993842
-0.013310015 0.047123842 0.13056514
-0.045803398 0.013263727 0.12658668
-0.047688439 0.0092436932 0.127278
-0.049036954 0.0045461077 0.12770176
-0.010255432 0.048014775 0.12561929
-0.014150413 0.046700358 0.12547177
-0.018570798 0.044885833 0.12543648
-0.044116795 0.017697964 0.12351188
-0.045126401 0.013585676 0.12237117
-0.046641916 0.009096032 0.12328768
-0.015028885 0.046420626 0.12125474
-0.018989937 0.044416286 0.12059522
-0.024234757 0.042133883 0.12059748
-0.035499111 0.031823989 0.11985731
-0.038799137 0.02848763 0.11960632
-0.041831657 0.023287419 0.1189636
-0.042966299 0.018746553 0.11843342
-0.044424038 0.015019373 0.11873478
-0.020428248 0.043873511 0.11615032
-0.024532747 0.042171888 0.11642826
-0.028583091 0.039871652 0.11657006
-0.032297827 0.036323056 0.11671305
-0.035143912 0.032794867 0.11637539
-0.038964819 0.028862186 0.11604601
-0.041973434 0.024109032 0.11486351
-0.042935736 0.020517947 0.11526603
-0.025114419 0.042601991 0.11231124
-0.028943613 0.040246677 0.11170965
-0.032516889 0.037148226 0.11172801
-0.035712257 0.033688597 0.11135656
-0.038680632 0.029549977 0.11068445
-0.041264348 0.025855184 0.11097944
0.0093602929 0.049104091 0.1469799
-0.046699293 -0.0091557186 0.14226881
0.0077881832 0.048810631 0.1417661
0.0055867583 0.048238352 0.14103267
-0.04831671 -0.0065880381 0.13720787
0.003768798 0.049189527 0.13759467
-0.048877805 -0.0043504983 0.13315994
-0.050030701 -0.0098354165 0.13199309
0.0011721253 0.050095677 0.13314894
-0.048851579 0.00075989775 0.12941316
-0.048955139 -0.0034798644 0.12870634
-0.052830491 -0.0089365691 0.12800428
-0.054398045 -0.0095290989 0.12745383
-3.686361e-05 0.050346907 0.1284731
-0.002837237 0.049906842 0.12916335
-0.048309386 0.001760399 0.12413949
-0.0045538694 0.049851805 0.12520057
-0.0086241886 0.048586696 0.12387478
-0.045350242 0.011360705 0.11909872
-0.046772093 0.007392766 0.12081987
-0.0473326 0.0033181384 0.12079918
-0.0048316419 0.049053438 0.12039286
-0.0081636757 0.047923408 0.11975366
-0.013110023 0.046946786 0.11869109
-0.043715466 0.016679451 0.11641431
-0.045388259 0.013564728 0.11622554
-0.046600223 0.009512661 0.11619949
-0.0097701885 0.047569498 0.1161325
-0.013389384 0.046120442 0.11384535
-0.017876158 0.044918176 0.11416042
-0.043549649 0.018718274 0.11238533
-0.045841642 0.014561959 0.11142808
-0.047063507 0.011235785 0.11114323
-0.019360987 0.044630654 0.10964435
-0.024103843 0.042804189 0.10930473
-0.042002361 0.024748467 0.10869855
-0.04345395 0.019436313 0.1073947
-0.045479823 0.015903775 0.10746264
-0.023455914 0.041314602 0.10521245
-0.027767245 0.03921986 0.1049487
-0.031086877 0.036130603 0.10460472
-0.034545437 0.032890446 0.10448861
-0.03744439 0.029100426 0.10378027
-0.040651679 0.024786107 0.10310566
0.0056097806 0.048789728 0.13462919
0.0092380922 0.049193721 0.1308721
0.0058192052 0.048935596 0.13076794
-0.048140123 -0.0057795048 0.1246351
-0.050343104 -0.008614175 0.12579164
0.0035102051 0.049258411 0.12719578
-0.047402199 -0.0046247467 0.1213243
-0.052491147 -0.009120604 0.12100899
-0.054125562 -0.0096752178 0.12147576
0.0025981758 0.048435904 0.12137395
-0.0016417 0.049539402 0.12172019
-0.046895891 0.00061035529 0.11718667
-0.047270153 -0.0029241629 0.11706066
-0.052722353 -0.0087566953 0.11744207
-0.0032440685 0.049102735 0.11733115
-0.0070116501 0.048129149 0.11705238
-0.046596333 0.0058813021 0.11475527
-0.046374783 0.0023960341 0.11312306
-0.0036269929 0.049100649 0.11254489
-0.0072997641 0.047916397 0.11293703
-0.010938931 0.046792723 0.11237794
-0.046855662 0.0075347647 0.10995692
-0.046984598 0.0041699633 0.10912973
-0.0078000091 0.048252679 0.10799277
-0.012976404 0.04687237 0.10853982
-0.01611954 0.045597099 0.1074177
-0.044043899 0.017598651 0.10445398
-0.045872882 0.014411863 0.10512453
-0.046556752 0.0093464069 0.10561389
-0.0097723436 0.048477463 0.10492235
-0.012784265 0.047090724 0.1033392
-0.017611798 0.044026531 0.10334933
-0.02239906 0.041480556 0.10213238
-0.025356939 0.039529901 0.10171664
-0.042211685 0.019454297 0.10095447
-0.044100795 0.014576049 0.100416
-0.045974471 0.010460248 0.10137618
-0.017605443 0.043610491 0.099764049
-0.022354206 0.041326139 0.097294569
-0.026535613 0.038720854 0.097909629
-0.030526673 0.035954334 0.098338723
-0.03400242 0.032703903 0.098227561
-0.037249058 0.029231189 0.097872555
-0.040355429 0.025616359 0.097364187
-0.042290948 0.021050457 0.096458018
-0.043087434 0.016887784 0.097680151
-0.023866259 0.041601621 0.093607306
-0.026720818 0.039215565 0.093351424
-0.030278342 0.036080349 0.092359602
-0.033914082 0.032963946 0.092408538
-0.037370697 0.029676847 0.092267931
-0.040160187 0.025727052 0.091401756
-0.0423938 0.02264427 0.092075825
-0.036535427 0.031306498 0.088823438
0.0062815435 0.048325129 0.12443396
-0.047675487 -0.0072992221 0.11876816
-0.049168862 -0.0094789173 0.11965138
0.0060805269 0.048144847 0.11915421
-0.047821693 -0.0052975435 0.11478126
-0.049409933 -0.0092269536 0.11497521
0.0040671472 0.048779473 0.11403745
0.0012082495 0.048104789 0.11503685
-0.04703778 -2.2295862e-06 0.11124581
-0.047722392 -0.0037901979 0.11063266
-0.048970312 -0.0080023892 0.11120349
0.0028453432 0.049196504 0.1099515
-0.00030448847 0.049104087 0.11005336
-0.047245517 0.0015051551 0.10651833
-0.04751461 -0.0022592582 0.10582179
-0.0028890781 0.049249686 0.10628748
-0.0059859175 0.049203943 0.1054256
-0.046352886 0.0069047194 0.1021803
-0.046843782 0.0033336487 0.10212094
-0.0038178191 0.049567398 0.10258734
-0.0072277207 0.048488554 0.10169399
-0.011117253 0.047850989 0.10129941
-0.04453364 0.012162048 0.098341227
-0.04526436 0.0079332273 0.098015964
-0.046521027 0.0040873103 0.098045051
-0.0077902004 0.047922283 0.097035229
-0.01209853 0.046603512 0.097371876
-0.016167462 0.044202246 0.096809924
-0.019135877 0.042675674 0.096443474
-0.042146891 0.018387027 0.09411329
-0.043592695 0.014936465 0.09459275
-0.044595663 0.010831827 0.094316363
-0.013152407 0.046060793 0.092381775
-0.016491896 0.044568937 0.092473149
-0.021300646 0.042620525 0.092060983
-0.026785184 0.039469071 0.090556324
-0.042512093 0.020368643 0.090287626
-0.04300981 0.01657724 0.090033233
-0.016926743 0.044457778 0.088397563
-0.021686472 0.042606775 0.087549448
-0.026586641 0.03947458 0.087471187
-0.030332081 0.036147997 0.087030947
-0.033575103 0.03324493 0.086685777
-0.036967412 0.029589122 0.086380422
-0.039732516 0.02555548 0.086110592
-0.041943904 0.021311097 0.085764766
-0.022641459 0.042156197 0.083202302
-0.026317485 0.039543539 0.082373261
-0.029794646 0.036521647 0.082152486
-0.033740263 0.033088874 0.081862628
-0.036751315 0.029345479 0.081544459
-0.039164007 0.025538234 0.081377447
-0.042336445 0.021523787 0.082094133
-0.031675357 0.036123917 0.078135788
-0.033696417 0.034058604 0.07817167
-0.036968123 0.03063719 0.078159273
0.0075658467 0.048742976 0.11430323
-0.047949404 -0.0066596474 0.10851246
0.0094243661 0.049675696 0.10900533
0.0053695124 0.049825076 0.10907757
-0.047489852 -0.0053277425 0.10453135
-0.047893822 -0.0089964885 0.10424531
0.0045751333 0.049870685 0.10455412
0.0006410405 0.049082518 0.10356963
-0.047011007 0.00039096549 0.099663794
-0.047426909 -0.0041504391 0.099795878
0.0034082457 0.049444485 0.10092467
-0.00075910427 0.048007745 0.099196851
-0.0042418912 0.048121266 0.098017752
-0.044955917 0.007242199 0.095094085
-0.046247028 0.0030036736 0.095065355
-0.047384582 -0.0014199838 0.094863176
-0.0055531766 0.048226874 0.094094992
-0.0097606964 0.04708048 0.094234705
-0.044829383 0.0088440366 0.091309071
-0.046494536 0.0046413932 0.090651572
-0.04736165 0.00047940947 0.091449976
-0.007398339 0.048497058 0.089862227
-0.010948062 0.046936586 0.090484023
-0.014554438 0.045394477 0.089722097
-0.043182977 0.013694958 0.08755511
-0.044942889 0.0099548157 0.086685777
-0.046522468 0.0061266199 0.086610317
-0.0082636904 0.048581276 0.085344553
-0.011689015 0.047419742 0.085426986
-0.016111465 0.045291856 0.085892856
-0.01934813 0.043708444 0.085209548
-0.041907109 0.018658584 0.083192766
-0.043161348 0.015302741 0.08287698
-0.044823665 0.011200879 0.082340062
-0.012653103 0.047197271 0.081105232
-0.016669877 0.045886576 0.081083834
-0.021294737 0.043668304 0.081328154
-0.040267117 0.025319446 0.079244554
-0.042015418 0.021304997 0.079539001
-0.043387268 0.016960783 0.077937961
-0.017880939 0.0458805 0.077012241
-0.021596607 0.043140866 0.077001691
-0.026031332 0.03966355 0.076257646
-0.02986647 0.037321419 0.07659936
-0.034503017 0.033996399 0.075842917
-0.037561901 0.03036019 0.075589478
-0.040054373 0.026446782 0.075777233
-0.042354688 0.022202905 0.074710965
-0.043376677 0.018286187 0.074683487
-0.030536568 0.037685186 0.071399748
-0.034244243 0.034567818 0.071500599
-0.037503529 0.030962761 0.072082222
-0.040315919 0.026968658 0.071177542
-0.041988675 0.02290019 0.070634842
-0.030999022 0.038439173 0.06702894
-0.033493415 0.036315337 0.06810087
0.0079749022 0.049482968 0.10167885
-0.047414511 -0.0093093738 0.096904695
0.0066713467 0.048440639 0.097151458
0.0031415354 0.047098503 0.096411645
-0.04741478 -0.0043593273 0.093712509
-0.04738437 -0.0067687146 0.092336178
0.0014843997 0.046869136 0.092728317
-0.046989832 -0.002247408 0.088709116
-0.001098685 0.048118968 0.0884431
-0.0034843702 0.04815942 0.088675201
-0.046386994 0.0035013873 0.08449024
-0.04670465 -1.0576099e-05 0.084832549
-0.0013244096 0.048722353 0.083872855
-0.0047366768 0.048311871 0.083370388
-0.044748783 0.0094405208 0.07976222
-0.046063602 0.0047364216 0.080614984
-0.0063293297 0.047961622 0.078937411
-0.010412849 0.047185197 0.078179598
-0.04339277 0.013498902 0.075894058
-0.043859921 0.0098244585 0.075992882
-0.045339003 0.0060238447 0.07654959
-0.010410115 0.047047332 0.074106932
-0.015220561 0.045541197 0.074054897
-0.019358374 0.042368378 0.072318375
-0.022279233 0.040681753 0.072857797
-0.042555496 0.019937072 0.07118535
-0.043157481 0.015826611 0.071412623
-0.043563418 0.01143696 0.072736561
-0.014880752 0.044903956 0.070443034
-0.019182045 0.042191435 0.068299592
-0.024255125 0.039489873 0.069128156
-0.035646535 0.029300325 0.067038596
-0.039218899 0.026029481 0.066976726
-0.041633468 0.021191381 0.066799581
-0.042655095 0.01666929 0.067241728
-0.020797754 0.04205668 0.064742863
-0.02490774 0.040504165 0.063971102
-0.029763686 0.037443254 0.062690437
-0.032812506 0.032346267 0.064298332
-0.035645552 0.029167786 0.063456535
-0.038845398 0.025866957 0.062591314
-0.041264817 0.022315981 0.062146604
-0.025934909 0.040659048 0.060012519
-0.029096143 0.038115434 0.05966258
0.0089684911 0.048447188 0.09428066
0.0075331647 0.048371352 0.09051615
0.0041375812 0.04740629 0.090412676
-0.046630561 -0.0049748011 0.085965395
-0.047207966 -0.0088400841 0.085627317
0.005780071 0.048456531 0.086155176
0.0026290193 0.048066854 0.086519241
-0.046269648 -0.0032122545 0.081759155
-0.046377771 -0.0075408798 0.08134079
0.0014754273 0.048496556 0.081293643
-0.045958996 0.0026497263 0.077592075
-0.046086773 -0.0013872553 0.077056825
