# .PCD v0.7 - Point Cloud Data file format
VERSION 0.7
FIELDS x y z
SIZE 4 4 4
TYPE F F F
COUNT 1 1 1
WIDTH 1311
HEIGHT 1
VIEWPOINT 0 0 0 1 0 0 0
POINTS 1311
DATA ascii
0.013477085 -0.047254913 0.2461836
0.016721215 -0.046356071 0.24597138
0.020336993 -0.045167513 0.24430221
0.024084285 -0.043840446 0.24391544
0.046294022 -0.020563181 0.24147385
0.048015364 -0.017328098 0.24259898
0.04880815 -0.01307149 0.24206734
0.021595471 -0.044536836 0.24045414
0.025152199 -0.043358415 0.24080575
0.028046053 -0.041381221 0.24003044
0.044540357 -0.025179174 0.23810592
0.046024501 -0.021985916 0.23855799
0.048102863 -0.018344318 0.23794338
0.048837312 -0.01431345 0.23771963
0.02498528 -0.043298248 0.23591703
0.028234115 -0.041464247 0.23615971
0.031935818 -0.039276868 0.23521346
0.035467133 -0.036520675 0.23422509
0.038416576 -0.033933934 0.23388377
0.041684724 -0.030518755 0.23297334
0.044181719 -0.026073055 0.23391804
0.045419857 -0.022355171 0.23425892
0.047425173 -0.019322431 0.23467314
0.032170661 -0.038431428 0.23016107
0.035034243 -0.03633162 0.22975668
0.037973464 -0.033381559 0.23006046
0.040928666 -0.029885044 0.22980532
0.042844772 -0.027405167 0.22934774
-0.0069382749 -0.041773297 0.28453699
-0.0084712282 -0.042925987 0.27834517
-0.0053377431 -0.043164849 0.27958605
-0.0070566908 -0.04441214 0.27627549
-0.0044896007 -0.044504277 0.2744692
-0.0032100677 -0.045101773 0.26986164
-0.0011227746 -0.045990668 0.26514524
0.0025834944 -0.045777917 0.26501703
0.051431499 0.0039256159 0.25956425
-0.0038600713 -0.048635487 0.26141736
-0.00030347332 -0.047714777 0.26071262
0.0029390287 -0.046407394 0.26135314
0.049761377 0.0010577086 0.25699702
0.051217202 0.0040844306 0.2561233
0.053136162 0.0070770476 0.25544733
-0.00037945248 -0.048185535 0.25760967
0.0045918375 -0.047075018 0.25715023
0.050131422 -0.00017927215 0.25259447
0.050988346 0.0036097001 0.25186524
0.0060010608 -0.047690362 0.25274
0.0088221133 -0.047556788 0.25188303
0.049767468 -0.0057655834 0.24711728
0.049688295 -0.0016910732 0.24777913
0.0068181213 -0.048147388 0.24762827
0.0099730883 -0.048245773 0.24822012
0.049543478 -0.0068631656 0.24370036
0.049718421 -0.0033265688 0.24368405
0.0073570274 -0.048489016 0.24426982
0.011248533 -0.047874559 0.24326533
0.015147313 -0.046245351 0.24249196
0.049205434 -0.011698015 0.23954916
0.049389437 -0.0078296792 0.23918059
0.012548817 -0.047504589 0.23869663
0.01537037 -0.046201773 0.23810977
0.018826474 -0.044885475 0.23834762
0.049047463 -0.012994308 0.23509744
0.049462683 -0.0091026295 0.234083
0.016494226 -0.045825575 0.23420283
0.020164415 -0.044880934 0.23378
0.023987437 -0.043209858 0.23230249
0.027180061 -0.04067798 0.23195395
0.043972831 -0.024006877 0.23058552
0.045189753 -0.021044642 0.23069435
0.047088563 -0.018010691 0.2308386
0.048673481 -0.013927305 0.2306191
0.021360338 -0.044498064 0.229166
0.024169199 -0.043197021 0.22858939
0.027579822 -0.041260697 0.22907087
0.030604716 -0.039296318 0.22880834
0.038079325 -0.032439526 0.22737518
0.040729567 -0.029807715 0.22715935
0.043365639 -0.025577988 0.22754067
0.045065127 -0.022064395 0.22651842
0.047479708 -0.018806566 0.22604054
0.048220776 -0.015930815 0.2257058
0.024924219 -0.043176875 0.22418067
0.02784127 -0.041817784 0.22441816
0.031576402 -0.039153576 0.22440654
0.034877311 -0.036503721 0.22388598
0.037967097 -0.033420656 0.22362766
0.040940382 -0.030222019 0.22325587
0.042979565 -0.027114738 0.22274685
0.044742271 -0.022750892 0.22240064
0.047438055 -0.019281806 0.22221509
0.028055133 -0.041823354 0.22070363
0.031000094 -0.039322525 0.22026637
0.034680828 -0.036546163 0.21958917
0.038363297 -0.033415627 0.21825099
0.041044381 -0.030841913 0.21818945
0.042994965 -0.027617168 0.21855527
-0.0084509924 -0.045313541 0.26819652
-0.0054490399 -0.044880353 0.26809797
-0.0073416866 -0.046389345 0.2634196
-0.0048591048 -0.045722306 0.26460409
-0.0049455557 -0.04885684 0.25911939
0.05184098 0.0070860125 0.25328889
-0.0043105315 -0.048755825 0.25509098
-0.0010056291 -0.047117628 0.25477791
0.051381655 0.0050005224 0.2496962
0.051791713 0.0075471345 0.25015184
-0.0010198951 -0.046088148 0.25136381
0.001131298 -0.045721717 0.24870935
0.049047217 0.00060018711 0.24536306
0.049587324 0.0039516799 0.24510884
0.0052214544 -0.048087038 0.24569389
0.049760371 -0.0015695039 0.24116486
0.050436947 0.0026908293 0.2407254
0.053851277 0.0045433622 0.24203944
0.0057505891 -0.048101235 0.24089727
0.0090295654 -0.047838762 0.23961991
0.049861547 -0.0061977133 0.23655161
0.050225418 -0.0028446391 0.23669103
0.050502505 0.00059692934 0.23592088
0.0064874534 -0.048294321 0.23625743
0.0093829446 -0.047405981 0.23581344
0.049591936 -0.0067826286 0.23220015
0.049958862 -0.0038291626 0.23152632
0.010471536 -0.046945691 0.23183411
0.014276586 -0.045991119 0.2313101
0.017005779 -0.04488961 0.22972578
0.048836961 -0.012376374 0.22708014
0.049354799 -0.0081656799 0.22757638
0.015028554 -0.045683354 0.2262266
0.018505942 -0.044628274 0.22648132
0.048578344 -0.014004527 0.22376716
0.048738871 -0.010553725 0.22269925
0.015810622 -0.04597155 0.22297823
0.018571839 -0.044968441 0.22218046
0.022280883 -0.043986391 0.22285241
0.045283709 -0.022206355 0.22009262
0.047655933 -0.018782794 0.21975744
0.04834602 -0.014674986 0.21937564
0.019820558 -0.044860281 0.21905476
0.023256838 -0.043024093 0.21759722
0.027342523 -0.041994803 0.21728113
0.030666491 -0.038994446 0.21681848
0.03387031 -0.035902478 0.21632308
0.036277592 -0.034177028 0.21620262
0.041092142 -0.029858343 0.21549413
0.042571258 -0.026252788 0.21535978
0.044297468 -0.02227081 0.21542278
0.046916813 -0.018832771 0.21583122
0.048235603 -0.015700897 0.21567699
0.024562288 -0.042824376 0.2132557
0.027500246 -0.041721616 0.21253079
0.030646177 -0.039144672 0.21232826
0.03358886 -0.035865653 0.21189719
0.037371263 -0.033408277 0.21229714
0.040412705 -0.030230789 0.21196571
0.042193718 -0.026673889 0.2108506
0.044185661 -0.023293562 0.21035784
0.028084187 -0.042124566 0.20933741
0.031198859 -0.039776847 0.20811716
0.034574684 -0.036945727 0.20744276
0.037137486 -0.034326062 0.20754015
0.039943434 -0.031136455 0.20724893
0.04206761 -0.027599253 0.20786002
-0.0071343109 -0.047268491 0.25200951
-0.0058936533 -0.04664053 0.24912626
-0.002849279 -0.045738854 0.24744681
0.050137382 0.0056007616 0.24224076
0.049350217 0.0084252451 0.24333215
-0.0015831068 -0.045419104 0.24242106
0.00091370568 -0.045920376 0.24369088
0.050778233 0.0041480437 0.23846653
0.051529311 0.0070844479 0.23731893
0.0015893895 -0.046670802 0.23794031
0.050376963 0.0032090768 0.23343393
0.050937302 0.0057765692 0.2343508
0.0043223687 -0.047576059 0.23413289
0.050186388 -0.001585016 0.22971997
0.050005123 0.00096534006 0.22876641
0.0046546441 -0.047066979 0.22976524
0.0080370381 -0.047469348 0.22989514
0.049865965 -0.0065369979 0.22577101
0.050487995 -0.0034430157 0.22613892
0.050824694 -6.9292262e-05 0.22454628
0.0097270925 -0.04663042 0.22525409
0.013204264 -0.046382688 0.22502738
0.049343348 -0.0075652283 0.22116476
0.050183974 -0.0040591676 0.22121838
0.056026515 0.00058500841 0.21878353
0.010447981 -0.046249621 0.22075331
0.013930317 -0.046095636 0.22050181
0.017374922 -0.045924176 0.22023535
0.04897365 -0.013346801 0.21703261
0.049278107 -0.0095507056 0.21703622
0.057029687 0.00031842478 0.21508604
0.014838158 -0.045509093 0.21630594
0.017941438 -0.045026749 0.21572611
0.021237051 -0.044015229 0.21547365
0.046948865 -0.018307678 0.2123552
0.04858581 -0.014536632 0.21254474
0.049177632 -0.011088407 0.21283469
0.018510476 -0.044731833 0.21094751
0.022328895 -0.043693226 0.21082669
0.025974344 -0.042579193 0.21119249
0.044760745 -0.022556562 0.20957583
0.046944737 -0.01890745 0.20880944
0.048181128 -0.015038785 0.2083104
0.023594625 -0.043580271 0.20657116
0.027064323 -0.042416707 0.20680597
0.030746622 -0.040511373 0.20624202
0.034237355 -0.03784214 0.20467505
0.037359521 -0.034723371 0.20441389
0.040302735 -0.031406973 0.20439106
0.042695049 -0.02718127 0.20570576
0.044479236 -0.023167469 0.20497847
0.046452746 -0.018921353 0.20444572
0.028211169 -0.041744702 0.20313936
0.03062897 -0.039781719 0.20145088
0.03440506 -0.037317947 0.20099726
0.03645727 -0.034021698 0.20013005
0.039684396 -0.030813579 0.20030326
0.042400949 -0.027547188 0.20043907
0.043590084 -0.024303354 0.2009885
0.031931426 -0.038647685 0.19708493
0.034060359 -0.037176535 0.197276
-0.0085299294 -0.046790622 0.24590036
-0.0070986133 -0.047709003 0.24112889
-0.0037696213 -0.046037253 0.24183306
-0.0066474583 -0.048525505 0.23743635
-0.0026286058 -0.046656504 0.23668158
-0.0018120017 -0.046148993 0.23080507
0.0010192171 -0.046540204 0.23177874
0.049350046 0.0045172647 0.22668034
0.0021480322 -0.046903819 0.22775266
0.050606504 0.0030004773 0.22287163
0.052277979 0.0049016438 0.22089723
0.0038423687 -0.046805594 0.22329268
0.0062423274 -0.046768412 0.22289145
0.050401203 -0.0024289079 0.21840847
0.050526407 0.0015406646 0.21844906
0.052382555 0.0037538819 0.21810436
0.0080401041 -0.046674911 0.21838322
0.011728441 -0.045939863 0.21772298
0.049582295 -0.0065696593 0.2145634
0.050183706 -0.0036795307 0.21437532
0.054937851 0.00079282746 0.21562508
0.0094809532 -0.046279691 0.21387726
0.012603855 -0.045769773 0.21433154
0.01576568 -0.044935971 0.21210903
0.049190354 -0.0092932396 0.2105014
0.049893618 -0.0056925379 0.21017098
0.01320119 -0.04605528 0.20918196
0.017090075 -0.045271125 0.20885938
0.048015326 -0.01411915 0.20540017
0.048795193 -0.009980008 0.20577028
0.04929788 -0.0065001138 0.20662442
0.014448717 -0.045938492 0.2051087
0.01758115 -0.045229599 0.20464945
0.020762399 -0.044257298 0.20503083
0.046019789 -0.018565033 0.20161861
0.047754459 -0.014443817 0.20154881
0.048657857 -0.01103393 0.20125857
0.018159904 -0.044496879 0.20080915
0.021584477 -0.043185595 0.20010355
0.025664078 -0.041569494 0.19975054
0.039437689 -0.029929472 0.1975185
0.042667687 -0.025979996 0.19684383
0.043583021 -0.022799931 0.19743833
0.04558751 -0.019036755 0.19757384
0.047406837 -0.0151907 0.1965628
0.022829931 -0.042257469 0.19563922
0.026089106 -0.041741621 0.19449502
0.030255988 -0.040030502 0.19515312
0.033720858 -0.036992863 0.19438815
0.03602951 -0.033876359 0.19461247
0.039111961 -0.030670431 0.19428423
0.042342413 -0.027613383 0.19411144
0.043377813 -0.023443412 0.19247437
0.045532696 -0.018913113 0.19381005
0.030508488 -0.039622881 0.19032803
0.033666257 -0.037181776 0.19008088
0.036451124 -0.034562804 0.18994287
0.03953331 -0.031345718 0.18960777
0.042707071 -0.028219648 0.18936902
0.043489277 -0.024912961 0.18830407
0.034277201 -0.036191441 0.18628693
0.036493149 -0.034787599 0.18656862
0.040401079 -0.031529792 0.18560624
0.042979836 -0.0289704 0.18514946
-0.008410912 -0.04810486 0.23350748
-0.0098689701 -0.05100853 0.22986594
-0.0080021657 -0.048402593 0.22933051
-0.0036055241 -0.046763435 0.23035899
0.048840623 0.0084011815 0.22405976
-0.0062834956 -0.047624204 0.22622439
-0.0032846332 -0.04696659 0.22544801
0.00020110421 -0.04674302 0.22511628
0.049911931 0.0075985696 0.2210643
0.00092889927 -0.046248883 0.22099397
0.050894853 0.0024900138 0.21553287
0.051901877 0.0052422788 0.21712032
0.0023665316 -0.046425719 0.21597207
0.0056831781 -0.046524487 0.21533489
0.049830012 -0.0012330376 0.21097863
0.049703211 0.0021281876 0.21145087
0.051329441 0.0047650021 0.21019986
0.0058772862 -0.046331242 0.21163091
0.049584065 -0.002318982 0.20798025
0.049141217 5.7213008e-05 0.2065078
0.0081235636 -0.046398975 0.20748511
0.011447437 -0.046550915 0.20579949
0.048809487 -0.0079821907 0.2028558
0.04948356 -0.0047346503 0.20290464
0.0092258696 -0.046472348 0.20210364
0.012442062 -0.046203882 0.20235634
0.015707854 -0.045597751 0.20201683
0.048872255 -0.0094531775 0.19874355
0.049965061 -0.0056007896 0.19771636
0.012902183 -0.045525558 0.19832295
0.016221635 -0.044809483 0.19809771
0.018992621 -0.043760832 0.19728887
0.048133466 -0.013175458 0.19578499
0.04893193 -0.010291375 0.19455791
0.049765818 -0.0074041691 0.19422665
0.016799744 -0.045346074 0.19297087
0.020668242 -0.043371867 0.19322023
0.024308329 -0.042163916 0.19189915
0.044204578 -0.022320926 0.19026026
0.04540471 -0.018899992 0.19066384
0.047500625 -0.015046693 0.19037685
0.048918977 -0.011841921 0.19057664
0.017628465 -0.04570264 0.18890896
0.021324724 -0.043738186 0.18797389
0.025115132 -0.041386597 0.18831629
0.027863672 -0.039943062 0.18765363
0.044039533 -0.023044981 0.18671063
0.044983439 -0.019815827 0.18590146
0.046890169 -0.01595852 0.18618172
0.022692066 -0.042854566 0.18442526
0.025524871 -0.041574672 0.18463713
0.028656576 -0.039763007 0.1838035
0.032349173 -0.037342545 0.18406814
0.036087774 -0.034529775 0.18356609
0.038710333 -0.03209991 0.18328121
0.043090973 -0.028021429 0.1823816
0.044119135 -0.024431579 0.182587
0.044212677 -0.020784698 0.18230939
0.029612131 -0.039627723 0.17930502
0.033017576 -0.037803583 0.17898849
0.036284871 -0.03499978 0.17860451
0.038918991 -0.031913724 0.17832541
0.041987628 -0.028646467 0.17847773
0.043875191 -0.025289301 0.17851681
0.036623903 -0.034666166 0.1741139
-0.009051187 -0.047932521 0.22346762
-0.0083892923 -0.046239957 0.21940792
-0.0048702471 -0.045989219 0.21928459
-0.0015974734 -0.045577325 0.21854851
-0.0015684646 -0.045085691 0.2139543
0.049311355 0.0044222847 0.20832291
0.050661579 0.0054672491 0.2077899
0.00084699132 -0.045491084 0.20956951
0.049449369 0.0031284224 0.20478418
0.050319739 0.0062585343 0.20415798
0.00081331655 -0.045330618 0.20552093
0.0046421755 -0.046160989 0.20490804
0.05044454 0.00042524189 0.20115981
0.0517512 0.0040536337 0.20029244
0.0061198156 -0.046296291 0.20056617
0.051593129 -0.00087319687 0.19660798
0.011054901 -0.045471758 0.19589588
0.049760953 -0.0052199494 0.19212928
0.05048088 -0.0018509831 0.19177586
0.012780841 -0.045958161 0.19238862
0.015558089 -0.046305437 0.19002184
0.047904432 -0.013237879 0.18689975
0.048928119 -0.0098629761 0.18814245
0.049116224 -0.0068932567 0.18744618
0.013651311 -0.046503246 0.18654349
0.016831003 -0.046248741 0.18654972
0.019583846 -0.045114845 0.18597645
0.04554949 -0.018403128 0.18337554
0.047021821 -0.014940694 0.18329784
0.04853268 -0.010766566 0.18351609
0.016981196 -0.045842778 0.18214521
0.020843077 -0.044135008 0.18230724
0.024809539 -0.041843995 0.18203813
0.045295365 -0.019905036 0.18033254
0.04677866 -0.015721556 0.17905128
0.048031647 -0.01173969 0.17898443
0.021047521 -0.043493804 0.1776002
0.02511654 -0.042042606 0.17801896
0.028101545 -0.040631969 0.17833242
0.031674623 -0.038718149 0.17578804
0.040611725 -0.029489804 0.17487261
0.044132303 -0.023970526 0.17626932
0.045256406 -0.020298898 0.17540357
0.046214253 -0.016910359 0.17510304
0.025515119 -0.040922306 0.1730749
0.028234133 -0.039834585 0.17254966
0.032463651 -0.037895162 0.172113
0.036003198 -0.035334263 0.17188618
0.038535282 -0.03212887 0.17178929
0.040771507 -0.027953267 0.17135429
0.042651556 -0.023796566 0.17210466
0.044361256 -0.02137287 0.17199248
0.032840464 -0.037138093 0.16780227
0.035930101 -0.035234611 0.16741475
0.038036071 -0.032289222 0.16757786
0.039818488 -0.029946631 0.1675474
-0.0066348892 -0.044621386 0.21584168
-0.009151686 -0.046221886 0.21119237
-0.0068930686 -0.044725958 0.21164149
-0.0035769418 -0.044327356 0.21091023
-0.0082858168 -0.052691158 0.20711416
-0.0073837861 -0.051763188 0.2070238
-0.0061235819 -0.045753732 0.20789486
-0.0025791824 -0.044676732 0.20715255
0.050185077 0.0078261215 0.20193911
-0.0078962483 -0.053164855 0.20578602
-0.00060608424 -0.045281067 0.20273167
0.050684873 0.0071905553 0.19898963
0.00041052327 -0.045882106 0.1982182
0.0032662656 -0.046027631 0.19776487
0.051143482 0.0046473872 0.19616887
0.0019447766 -0.045529384 0.19376385
0.0054966379 -0.04533615 0.19354874
0.0086011551 -0.04476022 0.19292045
0.048961923 -0.0028216243 0.1886442
0.049314663 -0.00031282194 0.18830118
0.0062044431 -0.045837045 0.18907514
0.0094758142 -0.045391656 0.18969005
0.048566218 -0.0034469441 0.18524513
0.048446111 -0.00039606355 0.18526104
0.0075459611 -0.046192139 0.1842975
0.01023514 -0.045895219 0.18492195
0.048358306 -0.0086813327 0.18052116
0.048595212 -0.005126413 0.18110278
0.011253003 -0.046207938 0.17996103
0.015141835 -0.04604058 0.17956084
0.04799255 -0.010445597 0.17606732
0.048452228 -0.0064780973 0.17706412
0.012215318 -0.04589726 0.1756241
0.015844211 -0.045798082 0.17557165
0.019280417 -0.044095047 0.17521846
0.046448968 -0.015350766 0.17251232
0.047626536 -0.011778697 0.1718424
0.01657021 -0.044946656 0.17182708
0.020071683 -0.043622054 0.17117181
0.024111673 -0.041697234 0.1712434
0.02715975 -0.040076345 0.16889974
0.04070349 -0.026177706 0.16756347
0.042492449 -0.022908164 0.16906625
0.044771273 -0.019788619 0.1692372
0.046374153 -0.016298886 0.16844302
0.047590304 -0.012915831 0.16804582
0.021462813 -0.04336448 0.1673359
0.024327867 -0.04202459 0.1658881
0.027756508 -0.039962377 0.1655134
0.030953793 -0.037455749 0.16498196
0.035108771 -0.034555633 0.16425779
0.03772328 -0.031284355 0.1643717
0.039993074 -0.02776916 0.16452426
0.041707508 -0.023465797 0.16389295
0.044680458 -0.019934487 0.16386762
0.046489399 -0.01790959 0.16342729
0.027283119 -0.039728995 0.16149023
0.031360589 -0.037104726 0.16081375
0.035014395 -0.034653191 0.16063032
0.037251923 -0.031397346 0.15982884
0.039435249 -0.028313037 0.15962455
0.041200373 -0.02612387 0.15961319
0.034072757 -0.034834519 0.15659484
-0.0075076018 -0.044422679 0.20832959
-0.0071767382 -0.045026172 0.204761
-0.0044226199 -0.044068236 0.20422873
-0.0092850123 -0.048175015 0.20068696
-0.0062286071 -0.046220668 0.20102492
-0.0036638677 -0.04499945 0.20153487
-0.0078594722 -0.048677009 0.19627076
-0.0055764858 -0.047201365 0.19652048
-0.0023262613 -0.045909088 0.19696364
0.047907904 0.0072086435 0.19060898
-0.006592894 -0.050893396 0.19451132
-0.0047143493 -0.047827326 0.19325042
-0.0008759927 -0.046224944 0.19144809
0.048097774 0.0034413561 0.18608126
0.00069593079 -0.046188653 0.18663907
0.0039006528 -0.046113305 0.18697774
0.048289243 0.0016555823 0.18224418
0.0017722379 -0.046245478 0.18243098
0.0047099292 -0.046289537 0.18297708
0.048874371 -0.003005702 0.17887902
0.048721075 7.2894618e-05 0.17795104
0.0065698531 -0.046118356 0.1788291
0.0093191694 -0.046048783 0.17668301
0.048618041 -0.0045890119 0.1741572
0.048736349 -0.0010323171 0.17407709
0.01003572 -0.045821883 0.17268127
0.048298709 -0.00910501 0.17039293
0.048422545 -0.0061533879 0.16847211
0.011248114 -0.045469791 0.16853741
0.014201443 -0.04491457 0.16856641
0.017515518 -0.044289704 0.16829151
0.046770461 -0.014673935 0.1656453
0.048034754 -0.011552844 0.1656526
0.04807552 -0.0083744768 0.16531348
0.015195706 -0.044062283 0.16515115
0.018388037 -0.043393053 0.16415673
0.022815052 -0.042559627 0.16269889
0.042377584 -0.022571459 0.16082138
0.044244569 -0.020426232 0.16110724
0.046775851 -0.015576242 0.1621815
0.047844425 -0.012679847 0.16162705
0.020252652 -0.042495817 0.1599578
0.023237735 -0.041401275 0.15855983
0.026448086 -0.039102383 0.15793148
0.030005375 -0.037142068 0.15769124
0.039892089 -0.027697105 0.15714192
0.042006459 -0.023654986 0.15744397
0.044571355 -0.020309411 0.15694165
0.046364915 -0.016702477 0.15671435
0.047571953 -0.013882488 0.15829051
0.023626328 -0.04109396 0.15490508
0.026502896 -0.039134774 0.15391186
0.029996186 -0.036967382 0.15409082
0.033719212 -0.034318663 0.15364528
0.036996417 -0.031415865 0.15421611
0.039675042 -0.028569469 0.1538927
0.042134341 -0.024568174 0.15274552
0.044172283 -0.020447072 0.1524089
0.029693794 -0.037253942 0.15023705
0.033681449 -0.034121823 0.14928108
0.037156023 -0.03184554 0.14904228
0.040176079 -0.029325685 0.14910263
0.042072859 -0.02677474 0.14891189
0.040456139 -0.029335862 0.14510038
0.042068422 -0.027692579 0.14541194
-0.0076680407 -0.049270954 0.19132093
-0.0060979519 -0.047867693 0.18978474
-0.005071355 -0.047547579 0.18709505
-0.0028479248 -0.046418831 0.18445468
0.048167638 0.0036771111 0.17924747
0.047618687 0.007833479 0.18005389
-0.00078714639 -0.046106618 0.18020883
0.04822832 0.0035190843 0.17575219
0.047196418 0.0066535808 0.17528713
0.00066488236 -0.045613583 0.17700565
0.0029501785 -0.045337901 0.17578632
0.048184853 0.0018078312 0.17126855
0.005016597 -0.045406587 0.17211741
0.0079204887 -0.045814428 0.16979724
0.04869023 -0.0031139012 0.16800147
0.048608277 -9.6403062e-05 0.16711563
0.0056767892 -0.045577362 0.168531
0.008701697 -0.045534939 0.16611195
0.04804147 -0.0059084725 0.16266865
0.048677292 -0.0020772442 0.16245866
0.0098641496 -0.045354173 0.16172162
0.013103236 -0.044293109 0.16215485
0.047561891 -0.0099713039 0.15868899
0.047785778 -0.0066009983 0.15823498
0.013355563 -0.043392833 0.15768352
0.017253082 -0.043116424 0.15808347
0.04626815 -0.014536094 0.1543346
0.046901196 -0.011098811 0.15419835
0.018467117 -0.042742822 0.15302241
0.022719231 -0.041543704 0.15232912
0.025581358 -0.03956081 0.15131292
0.044133998 -0.01966024 0.14941612
0.04594478 -0.016270613 0.15030074
0.047187861 -0.012075759 0.15015897
0.019178193 -0.042940892 0.148747
0.023041591 -0.041657604 0.14777586
0.026528329 -0.039769799 0.14824596
0.029573774 -0.037293624 0.14742142
0.032344639 -0.034985743 0.14701673
0.042179827 -0.024408747 0.14667326
0.043783531 -0.020873614 0.14580861
0.045574889 -0.016436324 0.1455124
0.023963263 -0.041183606 0.14402631
0.026425647 -0.03971006 0.14310828
0.029679948 -0.037654266 0.1430572
0.033088554 -0.034558441 0.14297247
0.036655713 -0.031625796 0.14307562
0.039608244 -0.029438483 0.14219743
0.041825835 -0.025444146 0.14178658
0.04294236 -0.022383474 0.14195502
0.030022554 -0.037279293 0.13927728
0.032891497 -0.034563668 0.1391384
0.036385119 -0.031542137 0.13914895
0.040072378 -0.029316243 0.13901985
0.041884746 -0.026375737 0.13844067
-0.0068164282 -0.045393005 0.18234178
0.047850348 0.0092556346 0.17655057
-0.0050037745 -0.045238815 0.17721504
0.047994085 0.0079297703 0.17290336
-0.0025558379 -0.045272008 0.17340642
0.0477085 0.0039071813 0.16800168
0.047580928 0.0072502233 0.16857386
-0.0009995997 -0.045377195 0.16910654
0.00192721 -0.045107953 0.16958231
0.048545234 0.0028947797 0.16534531
0.048225269 0.0052077398 0.16384083
-0.00010969304 -0.045821346 0.16484487
0.0033157505 -0.045427367 0.16480777
0.048617773 0.00032073818 0.16101754
0.049063183 0.0028403495 0.16012949
0.00414267 -0.045697518 0.15954596
0.0073546469 -0.045554724 0.1597234
0.047866564 -0.0055203885 0.15526444
0.048108503 -0.0010775868 0.15596774
0.048616849 0.0025838204 0.15636376
0.0083201937 -0.045211699 0.15516117
0.011921445 -0.043995544 0.15545335
0.047674909 -0.0063911434 0.15199214
0.047932275 -0.0027615689 0.15086538
0.0090296287 -0.04520195 0.15095827
0.012289286 -0.044069741 0.15074271
0.01537452 -0.043365423 0.15101203
0.047328912 -0.011073761 0.14723843
0.048183046 -0.0073407497 0.14749953
0.013301847 -0.044264436 0.14617935
0.017476883 -0.043340009 0.14634717
0.021283891 -0.042172063 0.14505887
0.045823742 -0.015635971 0.14291763
0.046974607 -0.011781013 0.14376137
0.047958918 -0.0089755263 0.1425586
0.017939884 -0.043051858 0.14146394
0.022006225 -0.041515123 0.14106983
0.025187381 -0.039847784 0.14012039
0.043182056 -0.020355757 0.13930768
0.04472984 -0.016133726 0.13760412
0.046923578 -0.012536565 0.1392186
0.04845418 -0.0096222758 0.13948208
0.019634977 -0.04291451 0.13713691
0.022313565 -0.041664995 0.1361714
0.025834722 -0.039771307 0.13667569
0.029268127 -0.037863348 0.13682276
0.032757651 -0.034580823 0.13626558
0.035870641 -0.031174066 0.13582414
0.038575493 -0.028776133 0.13532823
0.040958747 -0.024708835 0.13434708
0.043039184 -0.021504741 0.13459256
0.04468365 -0.017798638 0.13378397
0.023461059 -0.041393191 0.13262734
0.026192274 -0.040196236 0.1317291
0.029500842 -0.038109228 0.13200212
0.032854896 -0.034921285 0.13183415
0.036167815 -0.031697452 0.13162041
0.039020013 -0.028949508 0.13145384
0.040673494 -0.025590599 0.13085854
0.042994238 -0.021611892 0.1308701
0.02745926 -0.040030871 0.12831318
0.030209856 -0.03845524 0.12758201
0.032781154 -0.036067098 0.12685871
0.036028739 -0.032766979 0.12656003
0.039312866 -0.029503588 0.12630525
0.041094646 -0.027544223 0.12604541
0.037783541 -0.031893507 0.12319249
0.040585466 -0.029077709 0.1229552
-0.0088877827 -0.045591738 0.17205772
-0.006276885 -0.045032717 0.17052042
0.04698858 0.0086562857 0.16582337
-0.0036841091 -0.045471266 0.16699594
0.048030593 0.0073939767 0.1624729
-0.0020976346 -0.045915499 0.16297543
0.048457049 0.0059945602 0.15759817
-0.0014241599 -0.045652483 0.15883604
0.00085859746 -0.045387715 0.15860555
0.047970846 0.00022913329 0.15280351
0.048496131 0.0036554709 0.15381485
0.0030331723 -0.045473177 0.15366855
0.0060949661 -0.045370813 0.15200663
0.047947757 -0.00050664507 0.1492058
0.047756605 0.003388403 0.14987299
0.0030341335 -0.045392454 0.1494849
0.0070622191 -0.045356348 0.14814991
0.048351157 -0.0054036342 0.14430964
0.048400633 -0.0024752114 0.14441431
0.0083737858 -0.045185998 0.14411724
0.011071816 -0.044718593 0.14442569
0.048231296 -0.0063575655 0.14108989
0.048403412 -0.0036163982 0.13949209
0.0086953901 -0.045045886 0.14006376
0.01201763 -0.044341978 0.13976786
0.015281216 -0.043439291 0.13948274
0.047317613 -0.011089824 0.13665339
0.048153706 -0.0077411067 0.13627112
0.013024599 -0.044012658 0.13515425
0.016599808 -0.043111127 0.1350823
0.020872489 -0.042489685 0.13377935
0.04560636 -0.016257823 0.13206112
0.047103316 -0.012500396 0.13264865
0.047549486 -0.0088635162 0.13192698
0.017241146 -0.042398404 0.13029206
0.021739118 -0.041959174 0.12990126
0.024567008 -0.040839165 0.12910587
0.040925831 -0.024046833 0.12812179
0.0428303 -0.021558713 0.12790799
0.044976786 -0.017630935 0.12772948
0.046862185 -0.012991441 0.12790775
0.022374477 -0.041368607 0.12568298
0.025488567 -0.040350471 0.12527233
0.028711963 -0.038964365 0.12516826
0.041086301 -0.024712853 0.12421188
0.042518418 -0.021431666 0.12290031
0.044188742 -0.018304318 0.12373179
0.025963709 -0.039595857 0.12084085
0.029006068 -0.038272802 0.12043822
0.032478467 -0.036077306 0.12098897
0.035917532 -0.033203032 0.12090433
0.03911547 -0.029815579 0.12045425
0.040955883 -0.026372116 0.12013465
0.030004259 -0.037594978 0.11673838
0.032289702 -0.036148157 0.11614436
0.035696883 -0.032961491 0.11601257
0.038443387 -0.029570425 0.1158452
0.040316824 -0.027185518 0.11583644
-0.0083504394 -0.045831967 0.16487956
-0.0073426366 -0.044468831 0.16505134
-0.006009059 -0.044872694 0.16038814
-0.0074223727 -0.045114949 0.15608332
-0.004188193 -0.044902124 0.15536445
0.047237769 0.0073530041 0.15097183
-0.002520809 -0.044548631 0.15170395
-0.00030725263 -0.044846766 0.15115723
0.046955235 0.0021973792 0.14643729
0.046359703 0.0048756469 0.14638889
0.0017143823 -0.04525698 0.14683542
0.046657152 0.0024245623 0.142389
0.0026818179 -0.045624971 0.14191848
0.0058815405 -0.045433741 0.14209285
0.04795076 -1.8326566e-05 0.13757324
0.0037472136 -0.046010464 0.13799801
0.0066288132 -0.045364626 0.13701877
0.0098647345 -0.044563442 0.13661706
0.047355093 -0.0046340823 0.13295656
0.048076708 -0.0020921566 0.1333409
0.0077328067 -0.045402065 0.13256451
0.011294099 -0.044842035 0.13351095
0.047416702 -0.0067986213 0.12960908
0.011759181 -0.0444711 0.1287308
0.015904017 -0.043299999 0.12869802
0.046555668 -0.011948299 0.12542599
0.047480844 -0.0086732823 0.12512153
0.016202921 -0.043397471 0.12463444
0.0205005 -0.041992269 0.12321198
0.044337742 -0.017317411 0.12072533
0.046087682 -0.013744486 0.12116891
0.047384366 -0.010054177 0.12021875
0.016878715 -0.043156773 0.12054932
0.020770341 -0.042020969 0.11895007
0.02461097 -0.040266391 0.11859101
0.040601045 -0.024206385 0.11660427
0.042066988 -0.021201763 0.11675841
0.044293836 -0.017741436 0.11577201
0.046514831 -0.014236601 0.11539572
0.047956638 -0.011131629 0.11676073
0.022496387 -0.041528702 0.11500025
0.025145058 -0.040162276 0.11425084
0.028625857 -0.038474116 0.11435848
0.031586409 -0.035622664 0.11250645
0.034888845 -0.032313723 0.11223412
0.038519938 -0.028921356 0.1128667
0.040476978 -0.025311194 0.11253101
0.042195369 -0.021527778 0.11223638
0.044600986 -0.018619211 0.11190283
0.028660806 -0.038043518 0.10999495
0.031497989 -0.035978127 0.10937893
0.034848519 -0.032811984 0.10978329
0.03793763 -0.029626708 0.10818732
0.040312886 -0.026349967 0.10834593
-0.0067734476 -0.04419291 0.15211704
-0.0057868902 -0.043853514 0.14865753
0.045077823 0.0082906336 0.14414439
-0.0043084063 -0.043412711 0.14443755
-0.0008492209 -0.044856023 0.14429745
0.044516336 0.0067813471 0.13956797
-0.0011121035 -0.044904172 0.14040118
0.046379142 0.0053582881 0.13440189
0.0022374019 -0.045835871 0.1359356
0.047418989 0.00022624992 0.12995827
0.047374386 0.0040306374 0.13169521
0.0020301826 -0.045805383 0.13122877
0.0052091219 -0.045641799 0.13047478
0.046834983 -0.0042412896 0.12672514
0.046627283 -0.00079449452 0.12654233
0.006367797 -0.044920392 0.12615815
0.0095901135 -0.04445339 0.12560451
0.047584072 -0.0056942943 0.1228053
0.047315288 -0.002923511 0.12137067
0.010619689 -0.044478115 0.12171477
0.014557627 -0.043637391 0.1214686
0.047927044 -0.0071896184 0.11916089
0.048393164 -0.0050540492 0.1171838
0.011514226 -0.044556379 0.11687231
0.014943046 -0.043573927 0.11755568
0.018104648 -0.042706169 0.11710668
0.048175953 -0.0094666313 0.11387813
0.048641562 -0.0061570499 0.11311626
0.012422936 -0.044931509 0.11337692
0.015283557 -0.04401511 0.11247969
0.019186841 -0.04194463 0.11293679
0.023535676 -0.039979957 0.11071569
0.041813456 -0.021254441 0.10893607
0.044387665 -0.018105179 0.10899168
0.046462327 -0.014076104 0.11020732
0.047786549 -0.010819947 0.11035162
0.016356286 -0.043418519 0.10882306
0.01977443 -0.041131333 0.10832149
0.024140574 -0.039609663 0.10718334
0.027562108 -0.03797723 0.1066907
0.031527463 -0.034941535 0.1062144
0.034023914 -0.032692906 0.10617799
0.040447075 -0.024849782 0.10567939
0.041972242 -0.021573452 0.10535902
0.043963574 -0.017504811 0.10520458
0.044848613 -0.014762031 0.10542917
0.024251085 -0.040260043 0.10224229
0.027759235 -0.038053934 0.10218382
0.030944949 -0.035517327 0.10236317
0.033828724 -0.032697354 0.10217291
0.037519366 -0.029732769 0.10236365
0.040023401 -0.025584213 0.10105401
0.04173138 -0.021816699 0.10008895
0.043503504 -0.01874838 0.10177416
0.027655147 -0.038171969 0.098289788
0.030910909 -0.03535831 0.097542465
0.033688389 -0.032804959 0.097274244
0.037453786 -0.029896328 0.097552419
0.039970301 -0.026866751 0.09630084
0.041719824 -0.023637444 0.096836388
-0.0076776128 -0.043842427 0.1457797
-0.0068726465 -0.043340772 0.14210045
0.044534389 0.0082268044 0.13727748
-0.0053551085 -0.043684728 0.13777959
0.046133712 0.0083551574 0.13328692
-0.0050957445 -0.043505564 0.13359994
-0.0021052696 -0.044456784 0.13388112
0.04705872 0.0060731247 0.1286042
0.047045521 0.0076599419 0.12607625
-0.0013991687 -0.044597037 0.1286009
0.045695603 0.00097893178 0.12376711
0.046045668 0.0042555537 0.1242044
0.0019825958 -0.0452803 0.12511322
0.004573809 -0.044748269 0.12364474
0.046414346 9.2741102e-05 0.12087673
0.046320647 0.0021915957 0.11949348
0.0051724743 -0.044703983 0.11990821
0.047660634 -0.0014456213 0.11580276
0.047353804 0.00091168657 0.11508596
0.0061442982 -0.045331746 0.11490804
0.0095392782 -0.045287438 0.11535352
0.048746802 -0.0036172811 0.11065376
0.04823849 -0.00018094108 0.1114375
0.007311197 -0.045797296 0.11101264
0.010806445 -0.045666527 0.1107443
0.0475161 -0.0088162702 0.10713309
0.048093244 -0.005031798 0.10653597
0.011884537 -0.044834308 0.10716379
0.014633838 -0.044046208 0.10604167
0.018459097 -0.041871324 0.10609806
0.045544539 -0.013022505 0.10342711
0.046228003 -0.0098585673 0.10249251
0.015527362 -0.043036506 0.10222387
0.019028794 -0.041781448 0.1014834
0.042060889 -0.021980092 0.097878098
0.044028565 -0.017424498 0.099240184
0.045655504 -0.013890697 0.098481357
0.046465524 -0.010746725 0.098815382
0.020276705 -0.041715793 0.096940994
0.024041297 -0.040627263 0.097233772
0.027654212 -0.03833482 0.095453441
0.030520465 -0.035964649 0.095069408
0.033963393 -0.033219885 0.094777465
0.036772866 -0.030307885 0.094481111
0.040660929 -0.025567401 0.094569623
0.042347457 -0.022121686 0.095060289
0.044083424 -0.018324381 0.094644368
0.045517843 -0.015213647 0.094706714
0.024111267 -0.040189888 0.09310931
0.026976578 -0.037900999 0.091000915
0.030350715 -0.035516284 0.091210246
0.033691525 -0.03290341 0.090700328
0.036356863 -0.030082736 0.090132058
0.039663307 -0.02657485 0.090446174
0.042305164 -0.022314981 0.090134323
0.043085463 -0.019390475 0.090828776
0.031348072 -0.034802876 0.087367237
0.033776838 -0.033448998 0.086593449
0.036875557 -0.030827787 0.086014509
0.039536759 -0.027724335 0.085919499
-0.0066320468 -0.042914487 0.13048536
-0.0038484465 -0.043431491 0.12556487
0.045566399 0.0064815283 0.12087417
0.045767665 0.0089856032 0.12069792
-0.0024736505 -0.043930762 0.12140894
0.045926668 0.0056387391 0.11708909
-0.00094426796 -0.044730123 0.11708659
0.0027871672 -0.044736199 0.11748278
0.046543732 0.0043240804 0.11293191
8.8397413e-05 -0.045356788 0.1124649
0.0031552501 -0.045334697 0.11418736
0.047802761 0.0017644558 0.10847104
0.0051981937 -0.045481995 0.10894316
0.047994565 -0.0035046674 0.10404485
0.048094384 0.00031358562 0.10469478
0.0096291434 -0.044373468 0.10398024
0.046491142 -0.0074955784 0.10019529
0.047120709 -0.0033273362 0.099826813
0.0096261334 -0.043806776 0.099270761
0.013619474 -0.043508027 0.099203229
0.046461202 -0.0085832067 0.095149219
0.046839386 -0.0051577296 0.09628433
0.013814767 -0.043523058 0.09421593
0.017819166 -0.042605907 0.094761789
0.045641985 -0.013446424 0.091609597
0.046226598 -0.0099428464 0.090638757
0.015364825 -0.043704581 0.089741766
0.019060094 -0.042273037 0.090180457
0.023133811 -0.040266875 0.089900792
0.026591072 -0.037601493 0.089374065
0.043647315 -0.017859217 0.087891996
0.044763658 -0.013805267 0.08752948
0.020240281 -0.042271342 0.085545003
0.023324493 -0.040351328 0.085303903
0.026685232 -0.037911292 0.085671663
0.029636262 -0.035644554 0.085625529
0.03244726 -0.034131635 0.084596455
0.037371524 -0.030504791 0.083115041
0.041153789 -0.023156473 0.084510982
0.042564843 -0.019535597 0.083068848
0.023290988 -0.040552456 0.081432462
0.026676983 -0.037682921 0.081020951
0.029820152 -0.035335094 0.080073297
0.033274893 -0.033242945 0.080498755
0.036667414 -0.031156018 0.080571353
0.039278135 -0.027704651 0.080343187
0.040206611 -0.024077855 0.079717577
0.033368159 -0.03308263 0.075939655
0.036024798 -0.030832624 0.075712562
0.039055645 -0.027199201 0.075347066
-0.0076605901 -0.043428887 0.11948234
-0.0047495011 -0.042860053 0.12180647
-0.0065413378 -0.045217693 0.11524779
-0.0034110229 -0.044450805 0.11772245
0.046408013 0.0059531778 0.11034846
0.047358133 0.0089915916 0.1099062
-0.0049878247 -0.045394827 0.11059695
-0.0022433046 -0.046036236 0.11158448
0.047149777 0.0050183441 0.10648012
0.047211327 0.0080032721 0.1045804
-0.0011359639 -0.04496647 0.10628027
0.0015637819 -0.044418961 0.10582995
0.047632594 0.0035234131 0.10144514
0.047211874 0.0068917908 0.10136676
0.0040254164 -0.043898001 0.10198051
0.0062607136 -0.043582514 0.10109884
0.047300927 -0.0015615541 0.097119927
0.047753684 0.0017913189 0.097381592
0.0041982085 -0.043714955 0.098003864
0.0069396999 -0.043751471 0.097258151
0.047131307 -0.0029304065 0.093696356
0.047339767 0.00033524446 0.092911124
0.008473821 -0.044149868 0.09312427
0.012778257 -0.043930981 0.091322541
0.046823729 -0.007919319 0.08873117
0.046756133 -0.004456332 0.089227915
0.0097817183 -0.044551879 0.088451207
0.013293952 -0.044076674 0.088149011
0.016525453 -0.043105714 0.087047756
0.044641949 -0.012881417 0.084135652
0.046497043 -0.0092049316 0.08493197
0.046898969 -0.005541997 0.085667729
0.013333934 -0.044028241 0.083742976
0.017659428 -0.042842448 0.08299154
0.043018986 -0.017291278 0.080995262
0.044123527 -0.013445574 0.07998091
0.046141326 -0.0096299406 0.080677211
0.014747887 -0.043715838 0.080379248
0.018193536 -0.042081103 0.078682601
0.02194724 -0.040561423 0.07820034
0.026014771 -0.038051855 0.078164101
0.028568763 -0.036379483 0.077775776
0.040605094 -0.022622619 0.076943576
0.042085003 -0.018895753 0.075920939
0.043757081 -0.014107967 0.076631486
0.022210861 -0.039896376 0.074274838
0.026203822 -0.03782199 0.073866308
0.029429726 -0.035527118 0.073689342
0.032751013 -0.033474643 0.073114455
0.036167067 -0.03023864 0.072666943
0.038381837 -0.027513698 0.07243067
0.040086374 -0.022924222 0.072473586
0.04182278 -0.019764386 0.072340906
0.026998498 -0.037209958 0.069313705
0.028880596 -0.036037594 0.068452656
0.032790065 -0.033374108 0.068219125
0.035772797 -0.030543027 0.068089604
0.038139928 -0.027100507 0.067133427
0.033515904 -0.03433137 0.064295828
0.036144055 -0.03152208 0.06415987
0.038182255 -0.028292021 0.063954413
-0.0085285809 -0.045593433 0.11364233
-0.0091392621 -0.047097724 0.11132151
-0.0075407028 -0.045607906 0.10929143
-0.0065755229 -0.044994809 0.10450721
-0.0029573869 -0.045012377 0.10362178
0.047217809 0.0078634433 0.098760307
-0.0031109005 -0.044185292 0.10001665
0.00039043091 -0.043033876 0.098901212
0.047760382 0.00401311 0.093685865
0.047653161 0.0072694253 0.094445884
-0.0019026008 -0.043697268 0.096416295
0.0019677971 -0.043409109 0.09450376
0.047658697 0.0025658812 0.090330064
0.04779771 0.0059695896 0.090416729
0.0034243632 -0.044286422 0.090364277
0.0067016892 -0.044783242 0.090255857
0.04668694 -0.0016857479 0.086417735
0.046836156 0.001222834 0.085540473
0.00433564 -0.044659272 0.086754382
0.0072397608 -0.044825569 0.086206496
0.046816133 -0.0034939107 0.082222283
0.0093905888 -0.044883978 0.08233124
0.011473482 -0.044326611 0.08080554
0.046436947 -0.0080056079 0.077729225
0.047003645 -0.005070135 0.077791631
0.0097062197 -0.044721305 0.077980042
0.012468605 -0.043613337 0.077225327
0.015724782 -0.042342711 0.076667845
0.043526854 -0.013633084 0.074345529
0.045426525 -0.010176895 0.073661387
0.046618905 -0.0069604553 0.073756516
0.016857572 -0.041634329 0.072966516
0.02137398 -0.040173158 0.071925461
0.024986489 -0.038028304 0.070651829
0.039634425 -0.022591881 0.068923831
0.042130757 -0.018663879 0.070241749
0.043723568 -0.014817391 0.070043027
0.045086049 -0.011743559 0.069236457
0.017408311 -0.041313861 0.068212867
0.021349974 -0.040075272 0.067783117
0.025783818 -0.038313087 0.067047894
0.029853931 -0.035355505 0.066757917
0.039376456 -0.022456583 0.065620244
0.041791216 -0.01898204 0.065689027
0.0435219 -0.015267034 0.065667748
0.022780472 -0.039800376 0.06374234
0.026480637 -0.03875611 0.062538326
0.030021189 -0.036733344 0.062767982
0.033661772 -0.034625012 0.061549008
0.036601149 -0.031234927 0.061499059
0.038651302 -0.027628833 0.061158061
0.039538197 -0.023065841 0.06131947
0.041578948 -0.020462174 0.061008275
0.026152277 -0.038918503 0.058793843
0.03034603 -0.036921062 0.058212101
0.033898208 -0.034805898 0.058003664
0.036490742 -0.031822842 0.057257652
0.038227718 -0.028063904 0.056877732
0.03424108 -0.033673748 0.053040862
0.035601791 -0.032110658 0.052784801
0.037432842 -0.02897626 0.053742647
-0.0078256726 -0.044262152 0.098671734
-0.0050550401 -0.043553658 0.096482038
-0.0040658824 -0.043787647 0.093214691
-0.00071790628 -0.043185383 0.092775643
0.047818337 0.0074762888 0.088924706
-0.0029925741 -0.043245681 0.088465393
-0.00098255649 -0.043236025 0.088642299
0.047172807 0.0034181643 0.084760964
0.047339115 0.0063376985 0.083893836
0.0019551311 -0.043786503 0.08473438
0.046434596 0.0016893856 0.079462349
0.046986066 0.0045507383 0.079860926
0.0033461507 -0.044061832 0.081725419
0.0057151821 -0.043974653 0.079062521
0.046657801 -0.0035530385 0.074112117
0.046507921 -0.00022587925 0.075770557
0.0076223295 -0.043853059 0.075083792
0.009965241 -0.042438511 0.072495937
0.045910597 -0.0043861493 0.070177913
0.046358917 -0.0012228303 0.071300566
0.0075518247 -0.043063484 0.071438372
0.0108163 -0.042085409 0.069926262
0.01427034 -0.041063584 0.069120944
0.045086071 -0.0090626348 0.066433787
0.045473427 -0.0055594221 0.066657603
0.01176363 -0.041719493 0.065972507
0.015171589 -0.041516185 0.064649761
0.018337213 -0.040477365 0.065145612
0.043517523 -0.014462695 0.062340438
0.044326756 -0.010847494 0.061912835
0.016530894 -0.041733563 0.060185552
0.019754749 -0.040461008 0.060664237
0.02313482 -0.03969717 0.060487509
0.040501971 -0.021927796 0.058817744
0.042172592 -0.018436287 0.059011221
0.043174237 -0.014918981 0.057789683
0.017431229 -0.042081591 0.056488276
0.020124774 -0.040610977 0.055687964
0.024198534 -0.039084598 0.055744171
0.028051617 -0.037083618 0.055611908
0.038418822 -0.025968388 0.054245472
0.038683936 -0.02245635 0.054176807
0.041282058 -0.019280359 0.054531097
0.042799391 -0.016435839 0.054273784
0.024925031 -0.038843706 0.050923526
0.028510712 -0.035524704 0.051236928
0.031739663 -0.03384779 0.050842166
0.035989277 -0.031112073 0.050759733
0.03776589 -0.027217112 0.050351977
0.037903968 -0.023576556 0.050102532
0.025306582 -0.039702065 0.047476053
0.029707143 -0.035271082 0.047106206
0.031908803 -0.033541739 0.047281086
0.03527797 -0.030557305 0.046780407
0.037064902 -0.028270619 0.046097457
0.03395278 -0.036036536 0.040105283
0.036303326 -0.034555472 0.038488567
-0.0069659799 -0.04325131 0.089147568
-0.0057895277 -0.042687483 0.085930169
0.046942607 0.0088193361 0.080981135
-0.0020523071 -0.042300284 0.080811799
0.046996161 0.007162258 0.076792181
-6.2061474e-05 -0.042740658 0.076726258
0.046161473 0.0026973579 0.073041856
0.047264971 0.006141087 0.071852028
0.00070344657 -0.042814497 0.072487056
0.0043144226 -0.043194205 0.073096871
0.046133101 0.0016237907 0.067877114
0.047136661 0.0047894083 0.067949235
0.0053132661 -0.042755239 0.067789793
0.0087799858 -0.042569108 0.067772508
0.045695707 -0.0032705944 0.064677894
0.045868963 -0.00035957806 0.063765883
0.0065633245 -0.042653911 0.063367784
0.0099730119 -0.042593304 0.064148009
0.044737265 -0.0087405853 0.060265124
0.045803152 -0.0050764475 0.060385823
0.045931205 -0.0010660961 0.059683263
0.011575067 -0.042943135 0.059537709
0.014661313 -0.042431071 0.059081376
0.043817718 -0.013418236 0.054808557
0.044716373 -0.010229846 0.056178629
0.045939207 -0.00661649 0.055809677
0.012084896 -0.043610573 0.054149687
0.015776396 -0.042791732 0.054756224
0.019272231 -0.041194383 0.052906334
0.039169613 -0.020821799 0.050983548
0.041306235 -0.01851799 0.051209033
0.043289676 -0.015005483 0.051834404
0.045298591 -0.010767384 0.05152303
0.046328224 -0.0080461223 0.050475299
0.015935887 -0.042663958 0.04973489
0.020229071 -0.041072048 0.04989022
0.022800628 -0.040092271 0.048189163
0.027142283 -0.035591591 0.047729075
0.038853582 -0.022411775 0.047538817
0.041091166 -0.019234702 0.047525048
0.043376893 -0.015012844 0.047149003
0.045423478 -0.011710308 0.047575474
0.020024803 -0.041413885 0.045604527
0.024391726 -0.040218242 0.044580758
0.027519634 -0.036442738 0.044259071
0.031117944 -0.032920007 0.043387949
0.034225628 -0.030532084 0.043260872
0.037697252 -0.027033303 0.043522
0.038969532 -0.022979759 0.043096602
0.040923174 -0.019343808 0.043158233
0.021598544 -0.041295294 0.040991545
0.024234109 -0.040058166 0.039734721
0.028163766 -0.036760487 0.039550126
0.031637903 -0.033658955 0.039556861
0.03528703 -0.031420328 0.039627016
0.038299255 -0.028531579 0.039481819
0.039848857 -0.024083743 0.039283514
0.041024618 -0.021262672 0.039010584
0.028350409 -0.037259374 0.036418796
0.033581987 -0.03532435 0.036706924
0.036284585 -0.032264899 0.035492122
0.038217928 -0.029065637 0.034804642
0.039956544 -0.024882596 0.035241365
-0.0075441655 -0.041746043 0.079432249
-0.0062364265 -0.043070871 0.075252593
-0.0031085759 -0.042230941 0.074527264
-0.0083234496 -0.045932576 0.071172416
-0.0054106116 -0.044228218 0.070405185
-0.0016011968 -0.042810556 0.070527375
0.047817558 0.006065663 0.065435469
0.048784845 0.0084804408 0.065034568
-0.0040667765 -0.043833122 0.066843212
-0.00088539906 -0.042726092 0.065976202
0.0027583297 -0.042730786 0.065155208
0.045991924 0.0022624992 0.061077535
0.047376078 0.0057588592 0.060926735
0.04904471 0.0088027306 0.060860217
0.000450911 -0.042701438 0.061632693
0.0040377025 -0.042656645 0.060751796
0.046135884 0.0007279031 0.056825459
0.046847746 0.0052266233 0.05787921
0.0048089121 -0.042750865 0.056131184
0.0078462921 -0.04240248 0.05677563
0.045817554 -0.0037539322 0.05275178
0.045921791 0.00033751875 0.053000748
0.0060994197 -0.042991519 0.051930964
0.0085232109 -0.042945605 0.051373899
0.04635391 -0.0050061643 0.048291087
0.046347894 -0.0018553622 0.048093259
0.011094917 -0.043574799 0.047941327
0.013806739 -0.042992018 0.047545135
0.044988059 -0.010428227 0.043544829
0.046154715 -0.0070261005 0.04338032
0.011914749 -0.043431312 0.04244715
0.01496643 -0.042228699 0.042783797
0.018853262 -0.041425645 0.042403758
0.04063426 -0.017382011 0.039706647
0.042393096 -0.014452334 0.040095925
0.044173822 -0.01018911 0.039383709
0.045912251 -0.0079186913 0.039693594
0.015819062 -0.042293377 0.038237393
0.018939454 -0.041364521 0.037921727
0.040721901 -0.018431244 0.035350144
0.041154951 -0.015338468 0.03573823
0.020578466 -0.041224081 0.033426762
0.023488354 -0.039656054 0.033680379
0.027227599 -0.037866596 0.033595264
0.030709632 -0.035052381 0.032984734
0.03843727 -0.026975699 0.032114625
0.039346401 -0.023489419 0.030938447
0.040544368 -0.020338636 0.032045662
0.021497428 -0.041933961 0.028772175
0.024413835 -0.040312018 0.028771341
0.027453873 -0.038816798 0.031518102
0.03719046 -0.027439877 0.028663993
0.03800587 -0.024651196 0.027950108
0.024857022 -0.041528597 0.02546066
-0.0078622308 -0.046117283 0.0660941
-0.0059629437 -0.044170313 0.0641855
-0.0029765405 -0.043141283 0.063939512
-0.0053877849 -0.04312747 0.059321225
-0.0017527845 -0.043262854 0.059317052
0.04686898 0.0064840857 0.054341674
0.048017278 0.0091410708 0.054814696
-0.00032081269 -0.043458998 0.054418564
0.0026457161 -0.043331534 0.055171371
0.045784719 0.0020012502 0.050166965
0.046189688 0.0054394901 0.050400019
0.00030196831 -0.043354701 0.050566554
0.0036848448 -0.043283556 0.05029279
0.04625795 0.0013519768 0.045721829
0.0050491374 -0.04341393 0.045286834
0.0084952451 -0.043796159 0.045713127
0.046186741 -0.0039478727 0.042199016
0.046321008 -0.001464054 0.042047858
0.0091091171 -0.043675911 0.041831672
0.013262155 -0.042955913 0.039835989
0.044163022 -0.010218408 0.038139641
0.046243627 -0.0058185197 0.037946284
0.046568908 -0.00237941 0.038154304
0.010498311 -0.043823726 0.036840916
0.014205081 -0.043397255 0.037283123
0.042126793 -0.0139631 0.034097493
0.043976199 -0.010404363 0.034208596
0.045097437 -0.0079289079 0.032848179
0.011419827 -0.043585785 0.032746375
0.014588198 -0.042784527 0.032150686
0.018335773 -0.041573562 0.031649292
0.040822208 -0.017971922 0.029748738
0.042415053 -0.014847266 0.02988255
0.044127055 -0.011545803 0.028553426
0.015669866 -0.042186722 0.027124405
0.018942423 -0.042127926 0.027179539
0.022627335 -0.04118916 0.026856124
0.023858428 -0.036500458 0.02518934
0.038062658 -0.023439106 0.025654256
0.039470047 -0.019771393 0.025951803
0.041926995 -0.015507429 0.025809586
0.042941902 -0.013510262 0.024987459
0.020473363 -0.041294791 0.022265792
0.022546854 -0.0412963 0.023693383
0.036863223 -0.023681492 0.022182345
-0.0074936915 -0.043953292 0.060667634
-0.0071209297 -0.043619256 0.056849301
-0.0070892274 -0.043946791 0.052921236
-0.0036401935 -0.04336644 0.052247286
0.045779988 0.0051077511 0.046898603
-0.005617464 -0.043671302 0.049113691
-0.001906056 -0.043419305 0.047452331
0.046016276 0.0047474559 0.04311806
-0.00086515956 -0.044191062 0.042919338
0.0024778452 -0.043961741 0.044017553
0.045995727 0.0004046578 0.038899481
0.046173241 0.0033998489 0.038938105
0.00050319731 -0.046166081 0.038717508
0.004198486 -0.044022828 0.038861334
0.046165787 -0.0013263673 0.034303665
0.04637409 0.0027346145 0.035685778
0.0024149325 -0.048442997 0.035873115
0.0058553573 -0.045910195 0.035005331
0.0082503371 -0.04433072 0.034363866
0.04533948 -0.0059691574 0.031024277
0.046323907 -0.002076596 0.029579997
0.048290536 -0.0003301166 0.028261602
0.0044183694 -0.048695404 0.031881213
0.0069941953 -0.046530109 0.03071034
0.0098765828 -0.044487651 0.029998004
0.045332149 -0.0076828524 0.026463449
