# .PCD v0.7 - Point Cloud Data file format
VERSION 0.7
FIELDS x y z
SIZE 4 4 4
TYPE F F F
COUNT 1 1 1
WIDTH 1309
HEIGHT 1
VIEWPOINT 0 0 0 1 0 0 0
POINTS 1309
DATA ascii
0.0033808702 -0.023376653 0.31505564
0.0075018913 -0.023406591 0.31525564
0.011954053 -0.023043649 0.31473687
0.016083196 -0.021387272 0.31305569
0.019723631 -0.021172745 0.31202242
0.02227778 -0.021734374 0.30992183
-0.012957845 -0.024008837 0.30954981
-0.0097079938 -0.024994459 0.31048304
-0.0055169817 -0.025352649 0.31124523
-0.0010064575 -0.024890695 0.31299737
0.0038859637 -0.025390251 0.31294754
0.013653512 -0.02515723 0.31221697
0.0162089 -0.024904132 0.31056842
0.020125505 -0.024896877 0.30885157
0.023900758 -0.023332205 0.30729795
0.027022665 -0.023297412 0.30574375
-0.014029551 -0.026444793 0.30639589
-0.010236134 -0.027511649 0.30766773
-0.0073401523 -0.027317815 0.30842516
0.021636572 -0.027443647 0.30551338
0.024392618 -0.026767323 0.30459633
0.027931683 -0.025627665 0.30318901
0.030478787 -0.025614381 0.30047294
-0.017950337 -0.028224094 0.30068868
-0.014534492 -0.029232452 0.3031117
-0.011155148 -0.029698491 0.30523577
0.024546949 -0.028971586 0.30223465
0.027746571 -0.028836148 0.29979295
0.030828832 -0.027339885 0.29791319
-0.019018445 -0.030120339 0.29753184
-0.016034238 -0.031642303 0.29914102
0.028064484 -0.031144483 0.29573759
0.030976988 -0.02920665 0.29397631
-0.021596901 -0.031591773 0.29275095
-0.018928474 -0.033206258 0.29379672
-0.016431913 -0.033772741 0.29679221
0.028685734 -0.033060551 0.29123908
0.031468887 -0.031531997 0.28903311
-0.021794897 -0.033610329 0.28833535
-0.019388478 -0.034658074 0.28925294
-0.016750358 -0.03670815 0.28977051
0.029089885 -0.035350084 0.28696179
0.032320231 -0.033453789 0.28511739
-0.021966845 -0.035296492 0.2845256
-0.019345619 -0.036690578 0.28494358
-0.016930807 -0.038153991 0.28584915
0.02951036 -0.037340183 0.28278214
0.031720847 -0.036111064 0.2814123
-0.019806016 -0.038257089 0.27993
-0.016267819 -0.040124211 0.28115216
0.028805736 -0.039543781 0.27794713
0.031361204 -0.037531052 0.27673796
-0.019425558 -0.039975032 0.27569062
-0.015512638 -0.041652665 0.27664247
-0.01245131 -0.042789869 0.27632788
0.027289152 -0.041081939 0.27367532
0.029771041 -0.039573465 0.27182889
-0.019348176 -0.041385055 0.27142191
-0.015888991 -0.043041334 0.27163404
-0.01160919 -0.044086833 0.27178898
-0.009024688 -0.044635482 0.27081516
0.024009043 -0.044083614 0.27006191
0.026492024 -0.042760238 0.2691147
0.028968027 -0.041382499 0.26733005
-0.015850991 -0.044259567 0.26681745
-0.01164007 -0.045206003 0.26729897
-0.0081137288 -0.046118822 0.26683569
-0.0043504043 -0.047402963 0.26578304
0.015185572 -0.046822634 0.26423243
0.018760424 -0.046195202 0.26488131
0.022621369 -0.044927921 0.26503241
0.026078492 -0.043452758 0.2645489
-0.015411884 -0.045626163 0.26233247
-0.01187694 -0.04606441 0.26218557
-0.0075571146 -0.047043547 0.2625289
-0.0034179981 -0.047803964 0.26254553
0.00036186512 -0.048884869 0.2615734
0.011383485 -0.047860727 0.26107129
0.013859402 -0.047254648 0.26135164
0.017985962 -0.046687808 0.26089567
0.022059703 -0.045162883 0.25955483
-0.014483131 -0.046192545 0.25917706
-0.011712185 -0.046915159 0.25905383
-0.0076278225 -0.047592402 0.25775892
-0.0034821236 -0.048396297 0.25744906
0.000812869 -0.048835568 0.25746432
0.0051000481 -0.049126115 0.25738612
0.009129446 -0.048636064 0.25706366
0.013113489 -0.046892881 0.2568486
0.017443338 -0.046630688 0.25750473
0.020516302 -0.046276383 0.25709572
-0.0028457264 -0.048903413 0.2531181
0.00062413886 -0.049009223 0.25270239
0.00492224 -0.049232636 0.25258377
0.0086034471 -0.049088512 0.25226799
0.014316769 -0.01426506 0.32379079
-0.0059127812 -0.014865723 0.3199245
0.015559242 -0.015745793 0.32056189
-0.011990122 -0.016349521 0.31558311
-0.0090655619 -0.016109399 0.31632212
-0.0063393549 -0.017264793 0.31725007
0.015360919 -0.018378751 0.31599978
0.020712117 -0.01808238 0.31518239
0.022555107 -0.018141031 0.31509629
-0.013226813 -0.019045524 0.31233168
-0.00991295 -0.01961262 0.31420049
-0.0070303702 -0.019940564 0.31552109
0.015703427 -0.019387977 0.3138172
0.020567562 -0.019698603 0.31211081
0.023753259 -0.018992238 0.31045926
0.02728769 -0.018512914 0.30795613
-0.017301019 -0.020152535 0.3076621
-0.01489742 -0.021421194 0.30940381
0.025509538 -0.021305935 0.30741552
0.028179126 -0.02039654 0.30573338
-0.021288197 -0.022279501 0.30192727
-0.018428985 -0.022998435 0.3041839
-0.016063252 -0.024200065 0.30655444
0.029444508 -0.022692766 0.30292469
0.031723265 -0.022330489 0.30062544
-0.022430049 -0.024581704 0.29961151
-0.019200712 -0.025919285 0.30110598
0.033240139 -0.025232587 0.29717338
0.035384607 -0.023986101 0.29535487
-0.022949655 -0.027230859 0.29580143
0.033284888 -0.027637176 0.292714
0.035738025 -0.025714466 0.29117233
-0.024185073 -0.029195461 0.29158217
0.033211764 -0.029776096 0.28866464
0.035869606 -0.028289489 0.28713
-0.026865412 -0.028634701 0.28824449
-0.024008447 -0.031661663 0.2873728
0.036032703 -0.030223439 0.28284931
-0.024334945 -0.03344347 0.28265113
0.033220042 -0.034997821 0.27855405
0.035487767 -0.032216854 0.27864516
-0.023538543 -0.035455484 0.27830878
0.032744877 -0.036515031 0.27425876
0.035212286 -0.03452713 0.27406099
-0.023591401 -0.037117943 0.27385432
-0.02121597 -0.039403744 0.27405652
0.032302026 -0.037629452 0.27052182
0.034840211 -0.035888977 0.26933485
-0.023344971 -0.039007239 0.26910669
-0.020742133 -0.040809937 0.2692247
0.031511709 -0.039127454 0.26581565
0.034094315 -0.037043452 0.26602468
-0.023272831 -0.039916176 0.26437616
-0.020458195 -0.041042857 0.26448554
0.027142793 -0.042403836 0.26132667
0.030105691 -0.040534973 0.26108214
-0.019808207 -0.041532654 0.26094857
-0.017832944 -0.043656249 0.26064801
0.023685787 -0.043963399 0.2570855
0.02623288 -0.042450223 0.25761712
0.029180739 -0.041049447 0.25765786
-0.015894353 -0.044384021 0.2559514
-0.012358023 -0.045751996 0.25530335
-0.0085476125 -0.046554822 0.25415042
0.013490573 -0.046498366 0.25379446
0.017357433 -0.046083316 0.25390863
0.021878993 -0.044883881 0.25334293
0.025100544 -0.043069635 0.252846
-0.01236936 -0.045155831 0.25185493
-0.0082416032 -0.046494588 0.25096431
-0.0044642622 -0.047903437 0.2507847
-8.8391564e-05 -0.04890975 0.25022888
0.0042145615 -0.048773699 0.24988019
0.008519561 -0.048954863 0.24973512
0.012887772 -0.047325917 0.25006288
0.017214693 -0.046096444 0.24901336
0.021316888 -0.045029745 0.24902213
-0.0084511172 -0.047513623 0.24709764
-0.0045696395 -0.048807163 0.24632633
-0.000250571 -0.04889708 0.24612251
0.004061372 -0.048446007 0.24556848
0.0083788186 -0.048539452 0.24536735
0.012383998 -0.04762239 0.24497351
0.016273865 -0.046439972 0.24545276
-0.0037279641 -0.049168672 0.2418353
-0.00042517483 -0.049245767 0.24182397
0.0043065008 -0.049266562 0.24141362
0.0082090385 -0.049246125 0.24088812
-0.0090160267 -0.011654377 0.31909263
-0.013712693 -0.012815135 0.31496325
-0.010294568 -0.013829981 0.31682387
-0.017710425 -0.014759507 0.30937296
-0.014890802 -0.016128609 0.31220445
-0.021297794 -0.016792927 0.30378935
-0.018843004 -0.01698385 0.30690274
-0.02239674 -0.019032905 0.30186155
-0.019979995 -0.019288659 0.30422294
-0.026975838 -0.020817468 0.29726532
-0.024253137 -0.021765232 0.29906398
-0.027299926 -0.023251891 0.29408476
-0.025314318 -0.024642298 0.29551551
-0.027971637 -0.025406549 0.28951395
0.037596356 -0.025722384 0.28662565
-0.028174678 -0.028082371 0.28498673
-0.028342756 -0.029578635 0.28104359
0.037133709 -0.030546837 0.27655286
0.039612934 -0.027810726 0.27583635
-0.02789644 -0.030850563 0.2764329
-0.02616228 -0.032705426 0.27686757
0.036971703 -0.032217726 0.2729643
0.038932081 -0.030088358 0.27133402
-0.027716454 -0.032831106 0.27136546
-0.02606881 -0.034853034 0.27205801
0.036799271 -0.033608694 0.26786333
0.038446836 -0.03177917 0.26708534
-0.027903141 -0.033571396 0.26774701
-0.025957096 -0.036531586 0.26777586
0.035621159 -0.035296187 0.26293108
0.037970476 -0.033283506 0.26271775
-0.025743794 -0.037871413 0.26266521
0.032682318 -0.037802391 0.2592538
0.034836721 -0.036027584 0.25858259
-0.024111535 -0.038748369 0.25894278
-0.021189027 -0.040367194 0.25867572
0.030424284 -0.039897069 0.25523368
0.033427417 -0.037580304 0.25443342
-0.020557407 -0.040461097 0.25486472
-0.017880805 -0.042602882 0.25385708
0.026809379 -0.041971054 0.25120649
0.029761428 -0.040727429 0.25081941
0.032890897 -0.038551569 0.25095952
-0.016842205 -0.043690786 0.24954465
-0.012494002 -0.044911012 0.2492376
0.021895275 -0.044924755 0.24666324
0.025952397 -0.042689171 0.24630281
0.028485015 -0.041690469 0.24633804
-0.016759209 -0.044052295 0.24575561
-0.01271066 -0.0454004 0.24460673
-0.009411498 -0.047094483 0.24413115
0.014086068 -0.047355399 0.24232647
0.017299188 -0.046379633 0.2427814
0.021393916 -0.045489244 0.24259728
0.02507122 -0.04353537 0.24226862
-0.011666339 -0.045240182 0.24028796
-0.0087702489 -0.046686225 0.23995271
-0.0051800017 -0.048481312 0.23999643
-0.00051653117 -0.049035992 0.23945412
0.0033972077 -0.048831888 0.23897198
0.0081236828 -0.048917823 0.23818976
0.012518343 -0.047729425 0.23879784
0.016707184 -0.046659198 0.2383146
0.020391217 -0.04575818 0.23802203
0.023167249 -0.044696894 0.23782289
-0.0045461287 -0.048145499 0.23573515
-0.00059001893 -0.048739977 0.23465866
0.0034693081 -0.048601627 0.23445165
0.0080095967 -0.0485253 0.23460415
0.012031656 -0.047356367 0.23491803
0.015532536 -0.046438999 0.23443055
-0.011975514 -0.009819746 0.31702822
-0.010673757 -0.0092150485 0.31821871
-0.019923277 -0.0141239 0.30707523
-0.02469077 -0.01685112 0.30117011
-0.025282027 -0.018749969 0.29870898
-0.029293854 -0.021114299 0.29304206
-0.029413313 -0.022964308 0.2900556
-0.032212675 -0.02343801 0.2827563
-0.029614368 -0.025006209 0.2855776
-0.03234091 -0.025355766 0.27866656
-0.029939638 -0.028068576 0.27845654
-0.032508858 -0.026758227 0.27507156
-0.029715175 -0.029283745 0.2745499
0.040892083 -0.028263025 0.27014917
-0.029727856 -0.030538712 0.27013138
0.040216453 -0.029813545 0.26507837
-0.029130425 -0.03263855 0.26551208
0.039737616 -0.030873401 0.26006913
-0.028876269 -0.034726638 0.26113775
0.0361 -0.034911633 0.25618309
0.039153416 -0.032392297 0.25554866
-0.028916184 -0.034266777 0.25701305
-0.02636632 -0.036637392 0.2566756
0.035564899 -0.035893831 0.25270861
0.038855672 -0.033626113 0.25158328
-0.024919897 -0.037356582 0.25232998
-0.021580109 -0.039463777 0.2515507
0.031108148 -0.039418563 0.24721324
0.03406832 -0.0368581 0.24789736
-0.0242359 -0.038557801 0.24712729
-0.021347452 -0.040446077 0.24774292
0.030123075 -0.039980549 0.24408025
0.032860834 -0.037766218 0.24306759
-0.020810548 -0.041039176 0.24343416
-0.017431121 -0.043116383 0.2420235
0.026330046 -0.042627402 0.23960826
0.029394355 -0.040259957 0.23905033
-0.017052066 -0.043328866 0.23785231
-0.013169697 -0.044850416 0.23824471
-0.010126468 -0.045448475 0.23755184
0.017465565 -0.045240846 0.23518956
0.020906022 -0.045039196 0.2352657
0.025201205 -0.043268323 0.23493731
0.02824568 -0.041106515 0.23431942
-0.016359642 -0.044054236 0.2339302
-0.013120917 -0.045131259 0.23327595
-0.0094860364 -0.046211548 0.23327506
-0.0056217746 -0.047331437 0.23232695
-0.0020635112 -0.048273325 0.23169872
0.004782524 -0.048151527 0.23120394
0.0078944247 -0.048132319 0.23100337
0.012478227 -0.046865091 0.23139817
0.016826972 -0.045359783 0.23088804
0.020617576 -0.044681106 0.23093769
0.024455594 -0.043382458 0.2308073
-0.0089828232 -0.046222124 0.22769815
-0.0053308075 -0.047788586 0.22820494
-0.00094240054 -0.048853397 0.22866482
0.0034187038 -0.04877099 0.22834641
0.0077796485 -0.048658337 0.2280075
0.011527888 -0.047012124 0.22666222
0.015748115 -0.046016183 0.22588491
-0.0050393599 -0.048154745 0.22400415
-0.0011369853 -0.049209442 0.22386
0.0032355776 -0.04925292 0.22362727
0.0076066777 -0.049277339 0.22338125
0.011389675 -0.047564812 0.2228235
0.013925209 -0.046789989 0.22298643
-0.0012753761 -0.048922829 0.22028148
0.004360972 -0.049039774 0.22002453
0.0068643508 -0.048905969 0.21978143
-0.034421053 -0.023206422 0.2775625
-0.033817172 -0.025198512 0.27214539
-0.033173062 -0.025813529 0.26754272
-0.032197252 -0.02667628 0.26222584
-0.030883264 -0.028237276 0.2622591
-0.032376405 -0.028378384 0.2582987
-0.0310691 -0.029825959 0.25827304
0.04247899 -0.028824653 0.25316387
-0.02961701 -0.031798229 0.25331613
0.040261492 -0.033083286 0.24929836
0.042492129 -0.031152248 0.2501758
-0.029156001 -0.033608899 0.25020069
-0.027125416 -0.035464525 0.24958169
0.035051335 -0.035122938 0.24508232
0.037832782 -0.032777462 0.24542969
0.041632392 -0.030529313 0.2459574
-0.029157531 -0.034566574 0.24529541
-0.026766237 -0.036050577 0.24505183
0.034599334 -0.036314607 0.24128345
0.036801353 -0.033812847 0.24030188
-0.025574684 -0.037046313 0.24049637
-0.022299135 -0.039167047 0.2403025
0.030902954 -0.038915634 0.23607722
0.03352721 -0.036967892 0.23632672
-0.024551917 -0.038192101 0.23559582
-0.022002045 -0.039623484 0.23554045
-0.019425647 -0.041774511 0.23596364
0.029873908 -0.040004458 0.23241442
0.032559641 -0.037807602 0.23216867
-0.021264525 -0.040285911 0.23129079
-0.018289525 -0.042187572 0.23094344
-0.014708724 -0.043431453 0.22919798
0.019793391 -0.044272441 0.22768492
0.025140237 -0.042851076 0.22761095
0.028733518 -0.040859289 0.22738597
-0.017394828 -0.04229527 0.22604814
-0.014245496 -0.043318443 0.22570276
-0.010744211 -0.045093603 0.22627547
0.017744418 -0.045898829 0.22384068
0.020311782 -0.045096517 0.22483164
0.024131253 -0.042913456 0.22311753
0.027135581 -0.041507825 0.22311589
-0.013647207 -0.044408645 0.22152081
-0.0099892598 -0.045861945 0.22208777
-0.0065508755 -0.047262821 0.22157225
0.011309186 -0.047366738 0.22014719
0.015922388 -0.04663917 0.22091174
0.020164404 -0.045645781 0.22012731
0.023496445 -0.043723688 0.2192868
-0.012677062 -0.045394167 0.21851557
-0.0099228183 -0.046615873 0.21730015
-0.0058007319 -0.04755301 0.21704108
-0.0013943911 -0.048401661 0.21713686
0.0026649982 -0.04856617 0.21704525
0.0072632479 -0.048344187 0.21611297
0.011174466 -0.046987601 0.21562886
0.015461866 -0.046467766 0.21518034
0.019802159 -0.045693297 0.21609104
-0.0059748441 -0.047796354 0.21294424
-0.0013329206 -0.048178811 0.21225017
0.0021587615 -0.048481721 0.21122521
0.0064524338 -0.048293814 0.21117884
0.0097451899 -0.047848821 0.2111825
-0.034184612 -0.025308304 0.2615236
-0.036474645 -0.024807625 0.2555356
-0.034193069 -0.026528222 0.25621095
-0.033627596 -0.026997328 0.25224924
-0.031456131 -0.028370364 0.25241008
-0.031055961 -0.030029297 0.24756297
0.039045293 -0.03055409 0.2419489
0.041329194 -0.02798857 0.24270931
-0.030186988 -0.032389898 0.24313065
0.038555916 -0.0324791 0.23858765
-0.029506208 -0.033587236 0.2396419
-0.027598456 -0.036076732 0.23861343
0.036812741 -0.033952832 0.2341696
-0.026113974 -0.037436128 0.23434716
0.033841603 -0.036540527 0.22956592
0.036072291 -0.034344025 0.22939527
-0.025225844 -0.037114058 0.22941244
-0.023054052 -0.039394446 0.23003969
0.030672871 -0.039436802 0.22631767
0.032962725 -0.036880374 0.22556168
-0.021585805 -0.039149471 0.22544679
-0.01923139 -0.040791649 0.22449821
0.02925913 -0.040183272 0.22095367
0.031873282 -0.038382616 0.22042722
-0.018816274 -0.041668296 0.21994597
-0.016054021 -0.044095159 0.22080961
0.024608875 -0.043150611 0.21728876
0.027999736 -0.041110449 0.21691549
0.031749502 -0.039332476 0.21680263
-0.017885581 -0.042642679 0.21605745
-0.014728075 -0.044465508 0.21541891
-0.011172004 -0.046342749 0.2145198
0.017403187 -0.046136089 0.2120918
0.02015711 -0.045234665 0.2125192
0.02357647 -0.043567047 0.21316457
0.026456345 -0.042039055 0.21297863
-0.013468822 -0.044729028 0.2106511
-0.010510238 -0.046377335 0.21048898
-0.0060865995 -0.047691617 0.21029758
-0.001988194 -0.048399415 0.21012607
0.0071379426 -0.048406415 0.20915568
0.011332123 -0.047453795 0.20970204
0.015399843 -0.04704329 0.20941338
0.019697011 -0.045364074 0.20818153
0.022466272 -0.043596268 0.20827717
-0.0093948701 -0.046425872 0.20700392
-0.006094059 -0.047498807 0.20600078
-0.0018160838 -0.049024601 0.20668396
0.0019767354 -0.049483079 0.20678732
0.006390553 -0.049173985 0.20630181
0.01081067 -0.048271127 0.20538983
0.014455797 -0.047629341 0.20492762
0.017180853 -0.046323486 0.20447823
-0.0019883136 -0.047968373 0.20203561
0.0019717303 -0.048509564 0.2013849
0.0062383632 -0.048609801 0.20157591
0.010158803 -0.048404522 0.20102015
0.013873764 -0.047277842 0.20102537
-0.035093121 -0.02565561 0.24982962
-0.033471934 -0.025777612 0.24553838
-0.031985901 -0.027774453 0.24367008
-0.031861655 -0.028205089 0.24013078
-0.030907921 -0.030347688 0.23581213
-0.028549407 -0.03241815 0.23459134
0.03885382 -0.031077964 0.23217955
0.0408061 -0.028176734 0.23136881
-0.030052597 -0.031070301 0.23124215
-0.028424941 -0.032767348 0.23098159
0.037782282 -0.032327414 0.22686982
0.040075906 -0.030219708 0.22558489
-0.027121268 -0.034735832 0.2271713
0.034648389 -0.035063215 0.22314921
0.037297022 -0.033127069 0.22254857
0.039954167 -0.0315063 0.22302127
-0.025700662 -0.036177583 0.22296995
-0.023185372 -0.037772093 0.2226851
0.033893514 -0.035620708 0.21843234
0.035967652 -0.033018608 0.21912587
-0.0225829 -0.038352985 0.21792123
-0.020402599 -0.0403299 0.217186
0.029785583 -0.039566312 0.21450567
0.03271991 -0.038002253 0.21389735
-0.02183117 -0.038980518 0.21461177
-0.019659152 -0.040808611 0.21377778
-0.016825942 -0.042672463 0.21170568
0.024671849 -0.042261548 0.20950782
0.028105374 -0.040721707 0.21085408
0.031207945 -0.039121374 0.2103754
-0.018795583 -0.041734561 0.20893422
-0.015565708 -0.043484025 0.20835638
0.021101046 -0.04393024 0.20513451
0.023875903 -0.042449918 0.20543313
0.027331442 -0.041139007 0.20605716
0.030273655 -0.039160714 0.20641673
-0.018453764 -0.042353258 0.20463294
-0.015091647 -0.044178691 0.20415527
-0.010933345 -0.045667801 0.20460045
-0.0082692653 -0.046725921 0.20368391
0.015835913 -0.046530757 0.20210621
0.019474108 -0.044248886 0.20181042
0.023610072 -0.042660255 0.20147008
0.026211731 -0.041574139 0.2014094
-0.010123976 -0.044839229 0.20010725
-0.0064099673 -0.046944685 0.19955173
-0.0021177079 -0.047941908 0.19875905
0.0014119835 -0.048274398 0.19796374
0.0061164568 -0.048237767 0.19783169
0.01094675 -0.047437038 0.19758186
0.014443935 -0.04600852 0.19745451
0.01802934 -0.044544596 0.19836247
-0.0059793033 -0.04762505 0.19394305
-0.0023122127 -0.048177175 0.19391325
0.0015082827 -0.048209157 0.19371015
0.0059643742 -0.048160724 0.19341028
0.010270922 -0.04767343 0.19301423
0.013904773 -0.046080146 0.19374534
0.0020152745 -0.048195109 0.1901558
0.0058129714 -0.048435841 0.18922919
0.0090021286 -0.048783202 0.18929935
-0.034929283 -0.02505878 0.23872674
-0.037743736 -0.02656378 0.23389241
-0.035148263 -0.026985271 0.23400763
-0.032552894 -0.028188791 0.2337774
-0.037856329 -0.029212628 0.23049176
-0.035401527 -0.028440561 0.22897652
-0.03184624 -0.029753413 0.22938225
0.042048573 -0.029145956 0.22475699
-0.035173453 -0.030573709 0.22546291
-0.031662833 -0.03125678 0.22546279
-0.029026771 -0.032447014 0.22609878
0.041252691 -0.030630469 0.22064233
-0.03572154 -0.031104121 0.22215721
-0.031631254 -0.031453218 0.22145453
-0.028308973 -0.033262357 0.22023201
0.037107088 -0.03205337 0.21591514
-0.027138975 -0.034449272 0.21591163
-0.024373889 -0.036625847 0.21572861
0.034354974 -0.036293916 0.21110836
0.036115758 -0.033600468 0.2113117
-0.025905296 -0.034659453 0.2118561
-0.023467381 -0.037142415 0.21147946
0.032967333 -0.037167449 0.20789826
0.035021391 -0.034627624 0.2073088
-0.022799926 -0.03830266 0.20674828
-0.020674579 -0.039985146 0.20691514
0.028440893 -0.040064283 0.20252463
0.031540558 -0.038080983 0.20296693
-0.02248388 -0.039390821 0.20187849
-0.02004898 -0.041121788 0.20187938
-0.017315211 -0.043076225 0.20159203
0.023548748 -0.042554345 0.1987797
0.027624669 -0.040964995 0.19892311
0.030628033 -0.038756542 0.19772813
-0.01877822 -0.04092259 0.1983698
-0.015422708 -0.042106085 0.19742873
-0.011513114 -0.043806143 0.1976878
0.019427404 -0.043638214 0.19565117
0.023464447 -0.042510204 0.19524774
0.026937734 -0.040978178 0.19451481
-0.013886958 -0.043133754 0.19264239
-0.011319267 -0.044335127 0.19249138
-0.0084803738 -0.045767173 0.19285056
0.01164528 -0.046949744 0.19041991
0.014584317 -0.045685992 0.1910699
0.018144719 -0.044400726 0.19078982
0.02213202 -0.043142796 0.19006738
0.025960036 -0.041883741 0.19112253
-0.010663014 -0.045054879 0.18797675
-0.0076811314 -0.046409011 0.18762964
-0.0031760053 -0.047366943 0.18807897
0.0011070546 -0.04793261 0.18774435
0.0057216007 -0.048572659 0.18669021
0.010612314 -0.047256336 0.18692845
0.014103008 -0.046102986 0.18611065
0.018018115 -0.044688769 0.18659496
-0.0071827867 -0.046658024 0.18424034
-0.003317832 -0.047663264 0.18315443
0.0011146159 -0.048287477 0.18320411
0.005220246 -0.048459444 0.18326858
0.0094416412 -0.048026614 0.18251401
0.013118599 -0.046612248 0.18241239
0.0009560702 -0.048334021 0.17897719
0.0048310496 -0.047989216 0.17919883
0.0080416743 -0.048256058 0.17921305
-0.037009716 -0.029681172 0.2230061
-0.035064772 -0.029791066 0.21950009
-0.032086954 -0.031115362 0.21819416
0.038583938 -0.030357549 0.21284652
0.040703017 -0.027542608 0.21341345
-0.034889854 -0.029107435 0.21554512
-0.032299086 -0.03094881 0.21461493
-0.028809624 -0.032516293 0.21272418
0.037952606 -0.031168342 0.20874366
0.040461812 -0.028684311 0.20847964
-0.027532978 -0.033434119 0.2091372
0.036161069 -0.032597013 0.20437047
0.038452927 -0.030427132 0.20505667
-0.026806725 -0.034196839 0.20493883
-0.024613189 -0.036517996 0.20521989
0.032807328 -0.0371629 0.19961679
0.035585016 -0.03398088 0.2007032
-0.02427729 -0.037188396 0.20003158
0.032367039 -0.038201399 0.19643521
0.035269946 -0.035986815 0.19623369
-0.02283293 -0.037059903 0.195815
-0.020393943 -0.039467506 0.19542563
-0.017648341 -0.041313428 0.19506338
0.028206976 -0.040203094 0.19211349
0.031147383 -0.038299952 0.1919508
0.033983305 -0.03664485 0.19212985
-0.019677337 -0.039822169 0.1909048
-0.016261928 -0.042043753 0.19162759
0.024143372 -0.042650342 0.18826011
0.02738753 -0.041052818 0.18843803
0.029868096 -0.039281029 0.18720782
-0.019316491 -0.040612325 0.18755418
-0.015904771 -0.042535748 0.18640751
-0.012038965 -0.044713601 0.18602777
0.017945761 -0.044631038 0.18389457
0.022653641 -0.043256111 0.1837481
0.026645061 -0.041820593 0.18335181
-0.014373955 -0.043313846 0.18214357
-0.011627492 -0.044390969 0.18151674
-0.0081229964 -0.046056647 0.18155065
-0.0041015414 -0.047366485 0.18103492
0.011311639 -0.047148176 0.17995867
0.014351856 -0.046365075 0.18037212
0.017815184 -0.045108624 0.17981023
0.022169471 -0.044251136 0.17906579
0.025626827 -0.042762432 0.17846721
-0.010697557 -0.044509549 0.17745894
-0.0077721635 -0.04582715 0.17675436
-0.0035933298 -0.047869869 0.17781737
0.00087379827 -0.04895987 0.17705077
0.0047409753 -0.048562136 0.17696381
0.0095160371 -0.047248006 0.17620975
0.013780864 -0.04639348 0.17566106
0.017648064 -0.046306524 0.17536691
0.02077551 -0.045088753 0.17460847
-0.0023753436 -0.047739439 0.17262179
0.00074647792 -0.048154183 0.17329937
0.004612606 -0.048067436 0.17300493
0.0082272002 -0.047182918 0.17228785
0.014970274 -0.045972399 0.17167512
0.016261259 -0.046049953 0.17165902
-0.0356085 -0.027063131 0.21185583
-0.032914072 -0.029017312 0.21055424
-0.032144666 -0.029364876 0.20679459
-0.030108288 -0.030753033 0.20764026
0.039986588 -0.028330104 0.20152861
-0.031059859 -0.029912097 0.20270249
-0.029032176 -0.031948481 0.20313394
0.039014485 -0.029902289 0.19761837
-0.027460586 -0.033452921 0.19858563
-0.025425866 -0.035269365 0.19644731
0.036668845 -0.035072412 0.19260353
0.038498141 -0.032136593 0.19437259
-0.028154209 -0.03301682 0.19498602
-0.024099208 -0.035302468 0.1928409
0.032668374 -0.035595316 0.18789631
0.034699328 -0.034348316 0.18864623
-0.023742346 -0.036290288 0.18854886
-0.021513574 -0.038778611 0.18944547
0.031934444 -0.036026664 0.18468961
-0.023387963 -0.036991749 0.1851092
-0.020762743 -0.040226545 0.18467492
-0.017796712 -0.041216001 0.18315312
0.028396834 -0.040091462 0.18076679
0.030444542 -0.038227968 0.18104398
-0.020825922 -0.040507283 0.17963716
-0.016639665 -0.04195261 0.17929274
-0.012597231 -0.043350525 0.17848334
0.026935168 -0.041352972 0.17597863
0.030126808 -0.038644705 0.17718959
-0.016165482 -0.042462945 0.17481643
-0.012254642 -0.044184823 0.17527914
-0.0095096333 -0.044902273 0.17499307
0.022519208 -0.044224467 0.17303407
0.025495298 -0.042366233 0.17188394
-0.012153261 -0.044179816 0.17030352
-0.0083995871 -0.045200691 0.17064768
-0.0045155259 -0.046206698 0.17052305
0.00061407418 -0.046995826 0.16925514
0.0044802567 -0.047117371 0.16867077
0.0091553153 -0.046191677 0.16935265
0.01318476 -0.045525212 0.16922727
0.017671952 -0.045256071 0.16893011
0.021008352 -0.044163212 0.16871548
0.02409474 -0.042969346 0.16881758
-0.008406369 -0.045784134 0.16618407
-0.0040847347 -0.046663336 0.16519299
0.00045247111 -0.046947189 0.164902
0.0043213372 -0.047134638 0.16416264
0.0082422588 -0.046657562 0.16446543
0.012379129 -0.045231752 0.16479018
0.017429356 -0.044469237 0.16493559
0.020034151 -0.044145789 0.16452965
-0.0023045891 -0.047197733 0.16096121
-0.0010064511 -0.047084112 0.16079491
0.00549326 -0.047087178 0.16041663
0.0067924582 -0.046878476 0.16017476
-0.036754232 -0.025244186 0.20552775
-0.034248941 -0.027129702 0.20536181
-0.032562338 -0.027691331 0.20033982
-0.031133436 -0.028787103 0.19613603
-0.029413085 -0.031335458 0.19652069
0.040309146 -0.02841752 0.19116062
-0.030985365 -0.029498272 0.19261813
-0.028029682 -0.031694207 0.19096208
-0.025747869 -0.033759408 0.19092438
0.036463834 -0.031144433 0.18576506
0.038221046 -0.029606275 0.18767485
-0.027659833 -0.032655001 0.18619829
-0.025642717 -0.034473591 0.18651897
0.034971178 -0.032456107 0.18213806
-0.025027307 -0.035776224 0.18228152
0.032467265 -0.036297288 0.17948648
0.034521837 -0.033963509 0.17762673
-0.024271775 -0.036844101 0.1782099
-0.021835752 -0.038989969 0.1766181
0.031141236 -0.03769546 0.17386049
0.033719365 -0.035481233 0.17429596
-0.021167975 -0.039087243 0.17316008
-0.018332399 -0.040916204 0.17214945
0.028171966 -0.04044567 0.17115927
0.030099655 -0.038378682 0.16907668
-0.016810969 -0.041342754 0.16831595
-0.013725895 -0.043676887 0.16796514
0.022291668 -0.042867012 0.16582212
0.025556901 -0.041382857 0.16546056
0.028122442 -0.039032783 0.16553888
-0.015761871 -0.042194929 0.16364497
-0.012584098 -0.04380073 0.16435242
-0.0087224413 -0.045601387 0.16311306
-0.0061601498 -0.045973726 0.16204125
0.0094530024 -0.04594297 0.16110164
0.013208507 -0.045143113 0.16237655
0.017357217 -0.044252772 0.16203922
0.021314874 -0.042982731 0.16172084
0.024413275 -0.041965432 0.16195875
-0.012362073 -0.043909855 0.1595493
-0.0088918377 -0.045124717 0.15908715
-0.0047407695 -0.046201739 0.15848112
5.9144306e-05 -0.046620317 0.15812773
0.0039552781 -0.046593241 0.15805608
0.0081883594 -0.046016846 0.1573483
0.012486775 -0.04478579 0.15747219
0.017236674 -0.043920636 0.15721193
0.020564817 -0.04316783 0.15825433
-0.004508059 -0.045629434 0.15433839
-0.00016384944 -0.046215381 0.15394211
0.0039392919 -0.04635077 0.15281367
0.007696318 -0.046202607 0.15247539
0.011805392 -0.045469522 0.15233535
0.0077315252 -0.047232732 0.14938796
-0.034323286 -0.025278313 0.19755024
-0.033379447 -0.025675893 0.19395971
-0.032325126 -0.027316792 0.18932709
-0.029867435 -0.029627886 0.18905851
0.039768882 -0.02763927 0.18459207
-0.031971939 -0.028336696 0.18499821
-0.029580506 -0.030906048 0.18421456
0.036696814 -0.031005519 0.17981136
0.039478201 -0.028398871 0.17953181
-0.028616922 -0.03194046 0.1801199
0.036556378 -0.032339368 0.17629609
0.037960067 -0.030434029 0.17479253
-0.027884692 -0.032785483 0.17591131
-0.026201982 -0.034707684 0.17589775
0.035471044 -0.03345665 0.17150059
0.037884146 -0.030772142 0.17141622
-0.02531008 -0.035750322 0.17126894
-0.022405278 -0.037792325 0.16998935
0.031760082 -0.036965746 0.16737595
0.033989269 -0.034972735 0.16702047
-0.025004946 -0.035691466 0.16700232
-0.021557704 -0.03803863 0.16609478
-0.019102687 -0.040025253 0.16543725
0.02961411 -0.037300792 0.16205415
0.032627232 -0.035408635 0.16247341
-0.020629195 -0.038371224 0.16148353
-0.018332917 -0.040546007 0.16187322
0.022610348 -0.04147533 0.15863061
0.025732115 -0.040130343 0.15861061
0.028473405 -0.0377395 0.15841141
-0.016667493 -0.041755609 0.15770796
-0.01377473 -0.043318339 0.15732494
0.02136361 -0.042372875 0.15521592
0.024508873 -0.040708628 0.15423459
-0.015717631 -0.041305408 0.15337071
-0.012921846 -0.043278284 0.15316996
-0.0092864819 -0.044567689 0.15258756
-0.0054571684 -0.045092888 0.15158901
-0.0011387159 -0.045559544 0.15101096
0.0038645731 -0.046056852 0.15050608
0.0091001578 -0.045982566 0.15014043
0.01223619 -0.04489553 0.15153983
0.016523678 -0.044373903 0.15099126
0.020888498 -0.043313231 0.15062129
0.024157794 -0.041832704 0.15084478
-0.012596127 -0.043499455 0.14939448
-0.0089622419 -0.044756107 0.14710832
-0.0054760729 -0.044952698 0.14644539
-0.00086741685 -0.045434169 0.14656979
0.0037394497 -0.046715245 0.14734814
0.0076633939 -0.046930023 0.14706346
0.011604939 -0.046021905 0.14632329
0.016036252 -0.044860635 0.14528587
0.020224294 -0.043595348 0.14570016
-0.00034866162 -0.045450874 0.14283228
0.0035751644 -0.046560645 0.14258564
0.007505801 -0.047043595 0.14235523
0.01149324 -0.045746226 0.1423865
-0.03475482 -0.02360528 0.191001
-0.034846179 -0.024819426 0.18730789
-0.034254968 -0.026687877 0.18288469
0.040789135 -0.027670588 0.17620239
-0.033433557 -0.027515378 0.17830834
-0.030502643 -0.02986908 0.17751926
0.040044643 -0.028269563 0.17305553
-0.032090757 -0.028144548 0.17358425
-0.029776378 -0.030655963 0.17324653
0.039013974 -0.028831908 0.16843039
-0.029216466 -0.031868525 0.16916344
0.03639777 -0.032097407 0.16611925
0.037116539 -0.030547142 0.16397998
-0.028452443 -0.032361746 0.16555899
-0.026034879 -0.034318686 0.16403437
-0.023197858 -0.036928553 0.16326624
0.033990875 -0.033904143 0.1603111
0.03634179 -0.031300459 0.16000247
-0.025283147 -0.035029702 0.15932339
-0.022443729 -0.037170667 0.15946326
0.029791005 -0.036608014 0.15560389
0.032993544 -0.034540467 0.15595064
-0.022143893 -0.037374921 0.15455058
-0.019279888 -0.039225597 0.15515888
0.026540399 -0.038690634 0.152513
0.029220674 -0.037421722 0.15134811
0.031905003 -0.036284823 0.15028733
-0.017848993 -0.039808631 0.1504387
-0.014528104 -0.042386413 0.15046316
0.025468973 -0.040498752 0.14784276
0.028636305 -0.038570065 0.14734626
-0.017007064 -0.041021857 0.14604428
-0.013579507 -0.042697549 0.1464088
-0.010372877 -0.044271316 0.14493307
0.018153746 -0.043508291 0.14202568
0.021409255 -0.043138146 0.14339706
0.024896415 -0.041183967 0.14346635
-0.016204037 -0.042061687 0.14283997
-0.013437277 -0.042827316 0.14166743
-0.0096923895 -0.043880124 0.14020902
-0.0057041743 -0.04485333 0.14078185
-0.0012237562 -0.045384511 0.14058623
0.0034725843 -0.045955233 0.13929045
0.0074262065 -0.046228155 0.1392872
0.011411187 -0.045101728 0.13905719
0.015408435 -0.043812327 0.13869375
0.01986884 -0.043018699 0.13795033
0.024319047 -0.041919097 0.13911512
-0.0089813359 -0.044346724 0.13617322
-0.0057485234 -0.045180101 0.13566151
-0.0014598753 -0.045632754 0.13572624
0.003069777 -0.045900464 0.13532764
0.0073030805 -0.046168584 0.13549396
0.011095216 -0.045041952 0.13487071
0.01501067 -0.044257984 0.13458204
0.019271456 -0.043770075 0.13468096
-0.0047355341 -0.045793023 0.13211194
0.0025467735 -0.045818567 0.13171187
0.0066012898 -0.046514664 0.13055372
-0.035151724 -0.02563921 0.17555332
-0.033394694 -0.026513917 0.17090422
0.039306406 -0.027610252 0.16528997
-0.032527257 -0.027795043 0.16598582
-0.031154314 -0.029209001 0.16606313
0.038696725 -0.027935693 0.16152304
-0.029493749 -0.030356629 0.16185713
0.038130637 -0.029188871 0.15707988
-0.02892782 -0.03112088 0.15722039
-0.02717861 -0.032963023 0.15809491
0.034111913 -0.033469934 0.15350211
0.03678894 -0.030901756 0.15356076
-0.026266256 -0.034346938 0.15319133
-0.023771085 -0.036762614 0.1520682
0.034028929 -0.033446226 0.14883918
0.036140345 -0.031897392 0.15028772
-0.025341431 -0.034994707 0.14794338
-0.022627736 -0.036863055 0.14834851
-0.019976381 -0.038628817 0.14774862
0.029958924 -0.037492633 0.14453816
0.032373369 -0.035365719 0.14430535
-0.021866437 -0.037243623 0.14345738
-0.019620825 -0.039146814 0.14402997
0.028973976 -0.037855778 0.14052171
-0.01802393 -0.040119205 0.13970727
-0.015047604 -0.04216269 0.13910282
0.025619429 -0.041221771 0.13658869
0.027826242 -0.039067626 0.13641027
-0.017012697 -0.040298376 0.13515779
-0.013876444 -0.042555317 0.13559192
-0.010402488 -0.043834396 0.13394189
-0.0073284544 -0.044972114 0.13345951
0.011875212 -0.044536166 0.13198102
0.015536957 -0.044047236 0.13183069
0.020197105 -0.043234143 0.13229454
0.024464268 -0.041588597 0.13279784
0.027398756 -0.039178286 0.13227999
-0.013190024 -0.042453699 0.13105345
-0.010174114 -0.043886967 0.12892342
-0.0063259644 -0.045226388 0.12959704
-0.0021667045 -0.045373268 0.12971687
0.0024442684 -0.045657635 0.1287449
0.0077641169 -0.045951657 0.12915951
0.011095297 -0.044998322 0.12863323
0.015081231 -0.044427905 0.12791952
0.019101368 -0.043129463 0.12713161
0.023188917 -0.041719642 0.12833032
-0.0089921504 -0.044226155 0.12533972
-0.0061984253 -0.045469727 0.1245715
-0.0023759392 -0.045779791 0.12437797
0.0022783068 -0.04588994 0.12420362
0.0069318116 -0.046491928 0.12444979
0.010747602 -0.045113835 0.12359565
0.01463123 -0.044083409 0.12337703
0.0029562397 -0.046373863 0.1194008
0.0063221329 -0.04689043 0.1197437
0.0094689038 -0.045846615 0.11993706
-0.034971237 -0.024483204 0.16492951
-0.033241279 -0.026429312 0.15987989
-0.031528238 -0.027425153 0.16008124
-0.031086139 -0.028692331 0.15544862
0.03869525 -0.0284026 0.15065497
-0.029774152 -0.030647533 0.15167144
-0.027906882 -0.032536063 0.15081275
0.037306074 -0.029316084 0.1466873
-0.029435897 -0.031048331 0.14784205
-0.027169634 -0.033424363 0.14638808
0.034301538 -0.032502193 0.14245632
0.036132976 -0.029675245 0.14196774
-0.026579443 -0.034049291 0.14160919
-0.023771957 -0.036041126 0.14174339
0.033139762 -0.03374929 0.13756871
-0.022818983 -0.036452398 0.13700309
-0.020054894 -0.03851172 0.13700771
0.029695123 -0.036528572 0.13336203
0.032106128 -0.034877606 0.13350621
-0.022101935 -0.037533659 0.13188905
-0.019206444 -0.03943716 0.13288438
0.025948428 -0.040313192 0.12952062
0.028508836 -0.038056664 0.12938851
-0.019133519 -0.039368648 0.12816966
-0.015379869 -0.041435633 0.12863454
0.017708981 -0.04294043 0.12460867
0.024124781 -0.040711079 0.12561613
0.027468139 -0.038879871 0.12442338
-0.014533821 -0.042122841 0.12429193
-0.010414778 -0.043955121 0.12328175
-0.0077993944 -0.044858798 0.12199447
0.011529719 -0.044864416 0.12088466
0.015159134 -0.043966003 0.12066865
0.018962551 -0.042720743 0.1211679
0.023034262 -0.04127986 0.1209783
0.025762301 -0.040153284 0.12081999
-0.013210109 -0.042794213 0.12053388
-0.010461744 -0.043948378 0.11824816
-0.006610333 -0.045277681 0.11845571
-0.0025880651 -0.046118516 0.11895216
0.00085474655 -0.046438541 0.11826485
0.0075907824 -0.046284609 0.11723256
0.010905073 -0.045121808 0.11707258
0.014759427 -0.044237137 0.11632484
0.018806009 -0.043102488 0.11575204
0.022014707 -0.04207129 0.11724156
-0.0094714034 -0.044289455 0.11391401
-0.0065193102 -0.045639805 0.11415058
-0.0025887548 -0.046462655 0.11403686
0.0017016253 -0.046528358 0.11347187
0.0060603302 -0.046109881 0.11292171
0.010599621 -0.044861197 0.11229408
0.014648444 -0.044426579 0.11264712
-0.035216734 -0.02385097 0.15828598
-0.034139264 -0.024302296 0.15332502
-0.033558518 -0.024975402 0.1489206
-0.031406105 -0.028506927 0.14969894
0.038540024 -0.027279496 0.14337242
-0.030346209 -0.0289042 0.14429593
0.037554868 -0.027683668 0.13934803
-0.029881123 -0.029641118 0.1401234
-0.028509717 -0.031673927 0.13979298
0.036705077 -0.029424753 0.13511372
-0.027347643 -0.032811284 0.13590449
-0.024696458 -0.034715243 0.13446167
0.033609279 -0.032872796 0.13126642
0.036235116 -0.030388253 0.1306935
-0.026291447 -0.033759255 0.12994605
-0.024191163 -0.036092367 0.13081041
0.030139187 -0.035553116 0.12625396
0.032580558 -0.033183269 0.12646079
-0.023600977 -0.036581907 0.1256839
-0.020605592 -0.03853149 0.12563768
0.029311331 -0.037215676 0.12291613
0.031156424 -0.035785422 0.1216051
-0.022642596 -0.037128825 0.12104464
-0.01992048 -0.038644094 0.12121308
-0.016755749 -0.040606089 0.12142372
0.027500466 -0.038849115 0.11837447
0.030417792 -0.037085805 0.11736381
-0.018740669 -0.038962994 0.11756325
-0.01558589 -0.0406041 0.11668557
-0.012030317 -0.043016605 0.11681235
0.023333626 -0.041103549 0.11440676
0.026607387 -0.039237041 0.1135276
0.029769309 -0.037764072 0.11373645
-0.014481237 -0.041152239 0.11211312
-0.011316572 -0.043406777 0.11260492
-0.0069067744 -0.044781294 0.11097467
-0.0035658421 -0.045352988 0.11064017
0.0071585509 -0.045131668 0.10983032
0.014594343 -0.044379372 0.11067808
0.01886381 -0.043248195 0.11082441
0.022326989 -0.041264482 0.11009449
0.025540281 -0.039682798 0.10982728
-0.010785006 -0.042948298 0.10816425
-0.007239453 -0.044280767 0.10741234
-0.0030479985 -0.045083795 0.10649228
0.00098871498 -0.045416288 0.10655522
0.0056898054 -0.045212388 0.1061058
0.010458093 -0.043373313 0.106152
0.014502107 -0.042764783 0.10538411
0.017687555 -0.042280912 0.10607344
-0.0065100007 -0.044177923 0.10394108
-0.0028828941 -0.044816546 0.10186076
0.00095655717 -0.045412201 0.10095102
0.0049873586 -0.045522094 0.10100883
0.0091519402 -0.044521861 0.10139811
-0.032395005 -0.024555752 0.14568216
-0.03468886 -0.024083581 0.14132452
-0.032325219 -0.024868676 0.14070499
0.038961023 -0.02616477 0.1370998
-0.031124188 -0.027285526 0.1368604
0.03881368 -0.027605347 0.13351715
-0.030601023 -0.02890604 0.13337186
-0.028911263 -0.030902982 0.13252091
0.038105823 -0.029049294 0.12862808
0.040446661 -0.027157085 0.12780207
-0.030453447 -0.029537559 0.12956744
-0.028396757 -0.031587891 0.12922418
0.035951305 -0.0305428 0.12438011
0.038584393 -0.028902464 0.12406868
-0.027677961 -0.032484718 0.12454674
-0.02529639 -0.035302572 0.12254071
0.032820735 -0.033741474 0.12042636
0.035473045 -0.031638213 0.12003243
-0.02675858 -0.033406481 0.12102216
-0.024324916 -0.036039695 0.11924934
0.032285482 -0.035439286 0.114986
0.034456261 -0.033286829 0.11592937
-0.023806483 -0.035734177 0.11430526
-0.020414222 -0.037893686 0.11456066
0.028341696 -0.038342103 0.11141258
0.03128048 -0.036836181 0.11067039
0.033982579 -0.03421998 0.11142236
-0.01993368 -0.037870493 0.10969913
-0.016834181 -0.040049061 0.10999107
0.023654182 -0.040212445 0.10715944
0.027039435 -0.038766198 0.10675538
0.030103141 -0.037433676 0.10696185
-0.014777688 -0.040225931 0.10547668
-0.011521081 -0.042451348 0.10513788
0.018991366 -0.041927576 0.1037389
0.022494588 -0.039790392 0.10254818
-0.014056426 -0.040735397 0.10131484
-0.011357501 -0.042860933 0.10108894
-0.0074757379 -0.044278059 0.10157245
-0.0039459509 -0.045043487 0.10065746
-0.00063923589 -0.045448013 0.09887296
0.0061065727 -0.045582227 0.098608315
0.010511957 -0.043848343 0.099545121
0.014329392 -0.043417964 0.10011673
0.018401237 -0.042232223 0.098826289
0.021197306 -0.040236149 0.09885323
-0.010165628 -0.042918053 0.097143948
-0.0073270351 -0.043958955 0.096194506
-0.0034225625 -0.044970989 0.096637845
0.00060798018 -0.045749135 0.09612906
0.0046626437 -0.046150498 0.096260369
0.0095981993 -0.044970121 0.095716834
0.014153085 -0.044400472 0.095121443
0.017226696 -0.043215804 0.094370365
-0.0032532625 -0.044917855 0.092147291
0.0004330682 -0.045850396 0.091304123
0.004496465 -0.045935307 0.091149807
0.0082659964 -0.045098051 0.091655314
0.012687372 -0.044257674 0.091133595
0.00030005298 -0.046463165 0.087915719
0.0036869741 -0.046186976 0.087469518
-0.035726782 -0.024132423 0.1350517
-0.032939874 -0.025074873 0.13565257
-0.035751667 -0.02518533 0.13069302
-0.032615665 -0.026840942 0.13093308
-0.032042112 -0.027385149 0.12627319
-0.030919012 -0.027167303 0.12183034
-0.028810987 -0.030629499 0.12170243
0.036996372 -0.03083631 0.1170975
0.038896937 -0.027539236 0.11663812
-0.027805066 -0.031563468 0.1171934
0.036252003 -0.030882087 0.11330003
-0.02720603 -0.032621641 0.11260498
-0.02534532 -0.034565195 0.1128692
0.035049703 -0.032546844 0.1084649
-0.024816999 -0.035178833 0.10856706
-0.021263301 -0.037367158 0.10757923
0.031292606 -0.03617508 0.10410506
0.033863917 -0.034160919 0.10455018
-0.023913767 -0.035903335 0.10481715
-0.020597281 -0.037378497 0.10320896
-0.017149895 -0.038941588 0.10317445
0.023981404 -0.039188966 0.099728167
0.026641658 -0.036991853 0.099843562
0.030645149 -0.035330825 0.099873304
-0.02095709 -0.03710936 0.099804878
-0.016233435 -0.039503574 0.098375082
0.022687679 -0.039547153 0.095940769
0.026496042 -0.037364807 0.095152497
0.029511806 -0.036249671 0.096809983
-0.015296177 -0.040421043 0.09387356
-0.01180501 -0.042363577 0.09451884
-0.0089551779 -0.043490157 0.093646526
0.019057663 -0.041862182 0.092157125
0.021933187 -0.040012378 0.091380894
-0.011660265 -0.042323574 0.089343727
-0.0077519291 -0.043720365 0.089826405
-0.0039697634 -0.044711147 0.089327991
0.0087928819 -0.044416208 0.088331878
0.013520323 -0.043749079 0.08798182
0.017657844 -0.042123303 0.087587357
-0.01066267 -0.042921476 0.085284531
-0.0075095501 -0.043761492 0.084547818
-0.0038732376 -0.045051455 0.084865034
0.00021794865 -0.04632267 0.085557103
0.004475248 -0.046414632 0.085081339
0.0083728638 -0.044662714 0.083811462
0.012225455 -0.043411121 0.083636522
0.015252513 -0.042782716 0.083684742
-0.0033369011 -0.045325551 0.081098497
5.0436705e-05 -0.045950789 0.080687106
0.0038648429 -0.046101451 0.080610991
0.0068838159 -0.045192156 0.080395341
-0.035353888 -0.024246709 0.12548053
-0.032248683 -0.02612114 0.12297583
-0.032223273 -0.024967024 0.11889839
-0.029732006 -0.027616739 0.11824882
-0.031329088 -0.025711911 0.11478025
-0.029978 -0.027008669 0.11384076
0.036998048 -0.028835127 0.10956907
-0.028752796 -0.029641833 0.11013496
0.036887046 -0.029820494 0.10650516
-0.027495177 -0.03285655 0.10694855
0.036060993 -0.030804584 0.10150963
-0.027713111 -0.032610603 0.10280901
-0.025293047 -0.033914618 0.10144353
0.031894319 -0.034697313 0.097931683
0.03482433 -0.032274589 0.097230613
-0.024425546 -0.034420457 0.096694112
-0.021380566 -0.036505733 0.096788406
-0.018414523 -0.038395286 0.095533609
0.02805871 -0.036495671 0.093159616
0.031041572 -0.035257101 0.093618035
0.033721246 -0.033006396 0.092706144
-0.020918887 -0.036730476 0.092481971
-0.017538803 -0.039174814 0.09221828
0.023268873 -0.039197855 0.088586569
0.026740547 -0.037571773 0.089984059
0.03008176 -0.035593934 0.089259624
-0.020107422 -0.037413597 0.088781774
-0.017382536 -0.039080963 0.088142037
-0.013860212 -0.041307859 0.08717823
0.018989012 -0.040989671 0.084487617
0.022272157 -0.03925477 0.085044205
0.026199233 -0.037547912 0.085465014
-0.016766207 -0.040195379 0.083526909
-0.012830373 -0.041972075 0.082534015
-0.0089626815 -0.043482542 0.082375467
0.012763318 -0.0431219 0.080643356
0.016575122 -0.041915163 0.080812097
0.020804394 -0.039323382 0.08119303
-0.012753886 -0.041721992 0.078954756
-0.008036457 -0.042985745 0.077754557
-0.0043311832 -0.044424482 0.077738225
-5.8074616e-05 -0.045097232 0.07719326
0.0043790159 -0.044784717 0.076649785
0.0083473157 -0.043554477 0.076530278
0.012291089 -0.043122668 0.076155484
0.01612936 -0.04163805 0.076569796
-0.0070231506 -0.043778405 0.073835254
-0.004026928 -0.044239335 0.073291063
-0.00022911334 -0.04446939 0.072081089
0.0034985682 -0.044124994 0.071834981
0.0066547492 -0.043613024 0.07189703
0.010802125 -0.043072447 0.072164595
-0.033227593 -0.024011748 0.11317176
-0.035822146 -0.025125811 0.10864359
-0.032995597 -0.026136518 0.10934436
-0.030240349 -0.02780051 0.10864121
-0.035981704 -0.025977373 0.10543054
-0.032682609 -0.026734523 0.10470456
-0.029667305 -0.028440051 0.103634
0.039020676 -0.026722159 0.098787487
-0.026612405 -0.031436667 0.097754121
0.036637638 -0.030679414 0.094451845
0.038709693 -0.028396981 0.094513416
-0.026440207 -0.032396231 0.094116509
0.03550934 -0.031987414 0.090421438
0.038532246 -0.029854111 0.089036703
-0.024868369 -0.034619708 0.090526998
-0.022787699 -0.035862822 0.090528309
0.031324685 -0.034457855 0.086374581
0.034829989 -0.032471947 0.085438251
-0.024741339 -0.035622291 0.085920155
-0.021776663 -0.037076712 0.086320996
-0.018881133 -0.038276348 0.085496962
0.026782148 -0.036781773 0.082036316
0.030485103 -0.035067048 0.082019389
0.033508461 -0.033422317 0.082112372
-0.021666111 -0.03769362 0.081357539
-0.018694755 -0.039408907 0.082011163
0.021106042 -0.038415976 0.077832282
0.02522471 -0.037474498 0.078440964
0.028848875 -0.036152806 0.077223539
-0.021345105 -0.037834167 0.077183068
-0.0176694 -0.039984073 0.07752347
-0.013549067 -0.041113921 0.076419711
-0.0083452147 -0.042651825 0.074871778
0.017365107 -0.040668473 0.074254394
0.020640394 -0.038932238 0.073799074
0.02435245 -0.037938952 0.073340416
0.027631285 -0.036855903 0.073499739
-0.016719246 -0.039434247 0.072333992
-0.012741107 -0.041050572 0.072045386
-0.008909218 -0.04276647 0.072316647
-0.0047534811 -0.044005342 0.070382595
0.0052187424 -0.04403048 0.070349932
0.0082822628 -0.043199301 0.070809305
0.012415994 -0.042730756 0.070538521
0.0163105 -0.04162446 0.070492148
0.020303898 -0.039937887 0.068936586
-0.0083435234 -0.042801261 0.068126559
-0.0042633745 -0.043956909 0.066960573
-0.00025836378 -0.044972267 0.066735923
0.0036843894 -0.045126863 0.066407979
0.0078478055 -0.04399395 0.066449583
0.012000922 -0.042612486 0.065578759
0.015901819 -0.041752443 0.065765023
-0.0037717512 -0.043833885 0.062877238
-0.00079560385 -0.045479283 0.062344491
0.0034896466 -0.046420965 0.061552823
0.0076577612 -0.045114398 0.06142205
0.011188187 -0.043333974 0.062237799
0.00017652448 -0.045839157 0.058451176
0.003682903 -0.04675116 0.05726105
0.0061091878 -0.046397261 0.05729425
-0.0341735 -0.024583289 0.10114354
-0.032193273 -0.025517924 0.098855138
-0.029787771 -0.02612298 0.096850693
-0.02829501 -0.028078232 0.092889786
0.040560607 -0.027294569 0.088750541
-0.028492458 -0.029929671 0.088532686
-0.027044615 -0.031851921 0.089167893
0.036374994 -0.031768546 0.082462668
0.03878222 -0.028936181 0.083394706
-0.028714061 -0.030550718 0.084068656
-0.026956124 -0.032258697 0.084001422
0.033849891 -0.032687493 0.079415739
0.037116043 -0.030065009 0.078867495
-0.025188124 -0.033711538 0.079673588
-0.023440812 -0.035515819 0.077183425
0.03004447 -0.035187364 0.074518263
0.033163931 -0.032681771 0.07581687
-0.02490145 -0.034146056 0.076003075
-0.022555187 -0.035887241 0.073926985
-0.018785307 -0.037529726 0.07270211
0.025723809 -0.036678571 0.070064962
0.029322352 -0.035197124 0.070649862
0.031947009 -0.033340931 0.072033644
-0.020950885 -0.03568605 0.07110554
-0.017976191 -0.037668534 0.069122314
-0.015031789 -0.039323535 0.068745852
0.021806123 -0.03966793 0.06631124
0.024677655 -0.037389893 0.066041887
0.02757393 -0.035393868 0.067066193
-0.013823399 -0.03933217 0.064602196
-0.010137395 -0.041036315 0.064454913
-0.0059996867 -0.042397346 0.064352214
0.016457453 -0.041194338 0.062451303
0.020323442 -0.039775729 0.062415123
0.023479171 -0.038568377 0.061603308
-0.013077857 -0.040014166 0.060427129
-0.0094496431 -0.041499291 0.059778273
-0.0052632159 -0.042377472 0.059516191
0.012001576 -0.042876467 0.059122622
0.015984932 -0.04148284 0.058145285
0.019861503 -0.039868917 0.057920992
-0.0084116245 -0.041931663 0.055836737
-0.0045954944 -0.042804785 0.055952489
-0.0011684373 -0.043847427 0.055226564
0.0025879294 -0.045829602 0.054886997
0.0078719994 -0.044557877 0.055114865
0.01147677 -0.04283401 0.053790867
0.014451506 -0.042069554 0.05365628
-6.3186781e-05 -0.044268508 0.05076158
0.0033571422 -0.045756646 0.05123955
0.0068533793 -0.04536571 0.050759733
0.010824751 -0.043530617 0.050119758
0.0043888893 -0.045739379 0.046436727
0.0057453969 -0.046270151 0.045848489
-0.033609062 -0.023310032 0.095007122
-0.031116668 -0.024032082 0.093492627
-0.033252165 -0.024172068 0.090118289
-0.030544611 -0.025418861 0.090663731
