# .PCD v0.7 - Point Cloud Data file format
VERSION 0.7
FIELDS x y z
SIZE 4 4 4
TYPE F F F
COUNT 1 1 1
WIDTH 1343
HEIGHT 1
VIEWPOINT 0 0 0 1 0 0 0
POINTS 1343
DATA ascii
-0.023644192 0.026626764 0.30233052
-0.026032416 0.025516091 0.30017945
0.031937163 0.028751137 0.30020687
0.027993387 0.03009999 0.30199742
-0.024049206 0.029931007 0.29953617
-0.027878685 0.027890382 0.29681769
0.035296995 0.030721013 0.29515362
0.032751486 0.031903807 0.29663014
-0.028400725 0.031139908 0.29307014
0.035486728 0.032901172 0.29141617
0.033208344 0.034799222 0.29219764
-0.028586969 0.033632573 0.28836066
-0.030778712 0.031643745 0.28650075
0.035717264 0.03530008 0.28698924
0.033446815 0.037052814 0.28771588
-0.028351516 0.036154684 0.28400707
-0.031173337 0.034370895 0.28288081
0.035953011 0.037618939 0.28252363
0.033397626 0.039232854 0.28295323
-0.028112952 0.038788553 0.27971011
-0.031041909 0.03693473 0.27864373
0.036101207 0.038739447 0.27987054
0.033257648 0.040710691 0.27828747
0.029649794 0.043018762 0.27890721
-0.027624439 0.041548844 0.27522686
-0.030602016 0.038766261 0.2744832
0.033102512 0.042424206 0.27373031
0.029809255 0.044455413 0.27435708
-0.022566929 0.04509246 0.27111879
-0.026407178 0.043547507 0.27078953
0.032259572 0.044014875 0.27022204
0.02903546 0.046534244 0.26929492
0.025047079 0.049043957 0.26839569
-0.021886192 0.046426054 0.26645947
-0.0254195 0.044797774 0.26624203
0.028936256 0.047384504 0.26449004
0.023990765 0.049290124 0.26502714
-0.017317295 0.049733222 0.26221696
-0.020341147 0.047139645 0.26201034
0.026964121 0.047644142 0.26126519
0.024097554 0.049274985 0.26034743
0.020094771 0.051849067 0.26028642
-0.011868433 0.051882684 0.25903875
-0.015695132 0.049706876 0.25834638
-0.019117169 0.048348665 0.25759414
0.023903877 0.05044103 0.25728425
0.019266162 0.052107573 0.25589201
0.014246779 0.052792072 0.25518245
0.0091335168 0.05313462 0.25535205
0.004159118 0.053640246 0.25511503
6.7901718e-05 0.054216027 0.25474709
-0.0053535616 0.05332309 0.25469819
-0.010362898 0.051915407 0.25375104
-0.014582966 0.050645113 0.25385752
0.018032571 0.052771747 0.2520918
0.01442398 0.052867055 0.25195572
0.009978191 0.053420067 0.25058874
0.0051147947 0.053833485 0.25035644
6.944772e-05 0.054080725 0.25022876
-0.004968022 0.05378592 0.24980479
-0.0098360302 0.052945733 0.24929646
0.0052605877 0.054569423 0.24747905
0.0002117612 0.054741204 0.24731144
-0.0040704897 0.054679453 0.24611267
0.020703441 0.014930489 0.31925508
0.018136023 0.015273632 0.3196533
-0.013592229 0.01522839 0.31714454
0.021414919 0.015674414 0.31551665
0.018262707 0.016791763 0.31717956
-0.014569 0.014951347 0.31423628
-0.018630667 0.014418839 0.31261152
0.026062926 0.017933132 0.31067777
0.021414334 0.018848838 0.31248823
-0.018349497 0.017975448 0.31102023
-0.023345875 0.016809462 0.30788493
0.027646123 0.021122279 0.30823791
-0.024219321 0.020079849 0.30494124
-0.027004486 0.018278418 0.30306947
0.03289381 0.023557071 0.30378562
-0.028425904 0.022062657 0.29989102
0.035793778 0.02547479 0.29878581
0.033622213 0.025702242 0.30067983
-0.029939996 0.024498044 0.29673657
-0.031731486 0.023162005 0.29404056
0.037611093 0.027658407 0.29463941
-0.032274283 0.026299354 0.2899653
0.038387235 0.029845778 0.29031798
-0.032734048 0.02944928 0.28637975
-0.03524426 0.02720451 0.28334403
0.03868657 0.032119337 0.28568211
-0.033237007 0.031982537 0.28189182
-0.035308924 0.030182239 0.28026822
0.038306158 0.034866337 0.28129494
-0.033253387 0.035400625 0.27777275
-0.0360514 0.032868858 0.27617845
0.037955072 0.037364069 0.2766431
-0.032538157 0.037410792 0.27262813
-0.035325572 0.0345692 0.27240944
0.037902117 0.038928572 0.27217978
0.035108622 0.041151408 0.27214861
-0.030995212 0.038430568 0.26832762
0.036928378 0.04058725 0.26707578
0.034216437 0.042536441 0.26761365
-0.027830474 0.043017861 0.26411542
-0.030478884 0.039712604 0.26308301
0.033443883 0.044441763 0.26318395
-0.022195283 0.044954177 0.25972006
-0.025870733 0.043304142 0.2594772
-0.029566728 0.04131883 0.25906241
0.03293911 0.044396643 0.25985995
0.029477298 0.04702336 0.2592833
-0.021322105 0.04582357 0.25613615
-0.02480026 0.04411399 0.25525126
-0.027953189 0.042914983 0.2558879
0.029208217 0.047450725 0.25458336
0.024680283 0.049495462 0.25373831
0.021624468 0.050941709 0.25292557
-0.016838018 0.04970032 0.25156018
-0.019905284 0.04749161 0.2516301
-0.023402121 0.044970687 0.25228786
0.027671427 0.047930006 0.24995139
0.02433192 0.050061826 0.24952531
0.019915914 0.051911116 0.24974361
0.014568944 0.052600861 0.24934959
0.011701708 0.053309441 0.24876651
-0.011385121 0.052865505 0.24732035
-0.015068536 0.051231861 0.2478784
-0.018746432 0.048332036 0.24692431
0.023511723 0.050010506 0.24590692
0.019334471 0.051466167 0.2454581
0.014835491 0.052773237 0.24449819
0.010472332 0.053384185 0.24461192
0.0054322435 0.054157853 0.24395514
0.00036695122 0.054566681 0.24392048
-0.0052339332 0.054366529 0.24315026
-0.0097772861 0.053337693 0.24353406
-0.014690523 0.051573873 0.24327812
0.0092598991 0.052602232 0.23996204
0.0056475094 0.053645194 0.23952925
0.00037756277 0.053915977 0.23905137
-0.0044851257 0.053858757 0.23862395
-0.008687065 0.053156674 0.23801062
-0.015072447 0.010452925 0.31503871
-0.034135565 0.023528155 0.2896899
0.040259015 0.028213743 0.28783417
0.040457148 0.030298535 0.28401631
-0.037420142 0.027563926 0.27971989
0.043700162 0.030582312 0.27947477
0.040658113 0.032343332 0.28017932
-0.037830055 0.030197915 0.27659199
-0.039316244 0.028494354 0.27405837
0.043810088 0.032665674 0.27504733
0.040901273 0.034608904 0.27564287
-0.036735326 0.030997749 0.26925114
-0.040309481 0.030242797 0.27064177
0.043515671 0.034385148 0.26996505
0.040819444 0.036749247 0.27061665
-0.032906219 0.036024984 0.26595896
-0.034842238 0.033290144 0.26528305
0.043372191 0.035781983 0.26616699
0.039995082 0.038288299 0.26605019
-0.032716244 0.037769612 0.26196316
-0.035607684 0.03479236 0.26049951
-0.038769055 0.033345994 0.2618286
0.039129339 0.039625589 0.26112172
0.035818912 0.041328851 0.2616761
-0.03145634 0.039625462 0.25702143
-0.034096111 0.036213275 0.25615436
0.037647519 0.04000086 0.25695413
0.034786969 0.042992894 0.25736231
-0.026392873 0.043332513 0.25290224
-0.029907785 0.040676113 0.2529518
0.034368314 0.044655088 0.25293383
0.030885417 0.046607438 0.25146687
-0.021833986 0.045460161 0.24933365
-0.024925094 0.043893334 0.24892554
-0.028393153 0.041792091 0.2479541
0.034106795 0.045154396 0.24752432
0.030187096 0.047571246 0.24807775
0.026341859 0.048513237 0.24771661
-0.020606779 0.046439886 0.24472621
-0.024431437 0.044403907 0.24385586
-0.027580403 0.043187018 0.24365029
0.029546406 0.04717714 0.24370044
0.025179695 0.048777882 0.24281272
0.02063841 0.050399959 0.24202421
-0.015212026 0.050905168 0.23973799
-0.019859001 0.047638953 0.24006623
-0.023495235 0.045136448 0.24020922
0.023989253 0.048449162 0.2383886
0.020141777 0.050356984 0.23774031
0.015187689 0.051888883 0.23819733
0.010992491 0.052593887 0.23817027
0.0057743797 0.053470612 0.23693594
0.0014168238 0.053423405 0.2366834
-0.004393273 0.053312004 0.23631915
-0.010616944 0.052732527 0.23692042
-0.014633668 0.051802635 0.23660338
-0.018667884 0.050194383 0.23590472
0.01837836 0.050836265 0.23357326
0.015262746 0.052078426 0.2334916
0.010936606 0.05344671 0.23323035
0.0059641125 0.054194987 0.23317328
0.00087394094 0.054036617 0.23281908
-0.0042181192 0.054025471 0.23254934
-0.0093103917 0.053931177 0.23223126
-0.013840375 0.052577436 0.23190734
-0.017392218 0.051865399 0.23230952
0.010574373 0.053307235 0.22869483
0.0060396856 0.054534793 0.22763887
0.0011310567 0.054976702 0.22749022
-0.0034471946 0.054281771 0.22748181
-0.0076808957 0.052990913 0.22756875
0.0027431964 0.055260181 0.22435966
0.045722138 0.031075422 0.27168074
-0.037596297 0.03013378 0.26681408
-0.040354956 0.028017338 0.26724106
0.045928653 0.031543437 0.26864892
-0.036886856 0.03128254 0.26415658
-0.038974553 0.03027105 0.26353338
0.045345638 0.033319239 0.2631495
-0.037129506 0.034870442 0.25776798
-0.038698081 0.03320634 0.25847018
0.04417843 0.034471694 0.25885084
0.042012107 0.037063245 0.2589381
-0.036042407 0.033744451 0.25369665
-0.038657006 0.031875785 0.25364628
0.043408658 0.035466794 0.25402004
0.040333364 0.037328605 0.25484806
-0.032383915 0.038459655 0.25081632
-0.034687955 0.035984036 0.25020802
0.039026763 0.037983362 0.25013497
0.036670566 0.040372435 0.24963224
-0.030972831 0.039475556 0.24680838
-0.033482403 0.037108656 0.24554405
0.036197387 0.041588608 0.24526387
-0.026022807 0.044066068 0.2417129
-0.029477734 0.041530009 0.24157053
-0.032140255 0.038385328 0.24162424
0.034705717 0.043643001 0.24100897
0.0311254 0.045433525 0.24004945
0.026871692 0.047277693 0.2395567
-0.021372899 0.046710845 0.23673451
-0.024717189 0.044966515 0.23744655
-0.028025318 0.043096002 0.23724392
0.034521449 0.044684175 0.23597223
0.030624524 0.045777742 0.23569682
0.025801331 0.047455732 0.23603126
0.022698209 0.0490526 0.23530439
-0.020662885 0.046842277 0.23314899
-0.023756631 0.044986781 0.23283917
-0.027256854 0.043273803 0.23281711
0.029316258 0.04669321 0.23205411
0.025795393 0.047895852 0.23081556
0.021229498 0.049737334 0.2313388
0.016548213 0.050843537 0.22960415
0.01271256 0.052187204 0.22984457
-0.01433098 0.050821304 0.22765827
-0.0187672 0.048100293 0.2284922
-0.022640117 0.045562144 0.22928318
0.024680153 0.048857991 0.22684211
0.021561638 0.049663369 0.22593468
0.016618896 0.050552428 0.22571144
0.01164789 0.052674592 0.22620779
0.0085314615 0.054135621 0.22569153
-0.004998981 0.05297929 0.22474039
-0.0092482278 0.051825464 0.22490576
-0.013474473 0.050501347 0.22412845
-0.017153461 0.049434483 0.22331792
0.015924547 0.051731169 0.22147411
0.011681463 0.052614689 0.22156313
0.006512749 0.053855062 0.22202784
0.0012052868 0.054151356 0.22171691
-0.0033011781 0.052639186 0.22097629
-0.0083296718 0.05195123 0.21998677
-0.013025046 0.050915122 0.2203123
-0.016288679 0.050298154 0.2204634
0.010889809 0.053202629 0.21788952
0.0064560501 0.053728998 0.21717733
0.001779179 0.05402869 0.21643162
-0.0026282454 0.053926051 0.21614388
-0.0067288047 0.053231776 0.21643102
0.046435747 0.031725112 0.25678101
-0.039380673 0.0312615 0.25162551
0.045588579 0.032714371 0.25267231
-0.037013955 0.032708045 0.24834508
-0.03855323 0.031095918 0.24740732
0.043690685 0.034680072 0.24859905
0.040737372 0.037191633 0.24779052
-0.035619035 0.035077687 0.24318364
-0.03842273 0.031887408 0.24364811
0.04316045 0.035293583 0.24386135
0.040152289 0.037619177 0.24329117
0.037120227 0.040459279 0.24301344
-0.034365647 0.03667986 0.23889619
0.039263904 0.038748685 0.23846912
0.03690397 0.04119629 0.23863918
-0.030068744 0.041157003 0.23519418
-0.032557394 0.039065715 0.23476806
0.036225449 0.042047624 0.2337265
0.033173528 0.045369927 0.23375627
-0.025190823 0.044147965 0.23060244
-0.02872264 0.041725751 0.2301766
-0.031794291 0.039283987 0.23033601
0.034954812 0.043189351 0.2300607
0.031747054 0.045956794 0.23025098
0.027558036 0.04811937 0.22826189
-0.020309627 0.046372771 0.22647852
-0.02426083 0.044349726 0.22659755
-0.027100068 0.042571243 0.22649604
0.030246556 0.045298044 0.22563279
0.026293095 0.048160557 0.22481698
0.022634905 0.04968131 0.22381255
-0.020159852 0.046888471 0.22253209
-0.023359131 0.044503983 0.22162193
0.025029525 0.048033539 0.2212618
0.021905821 0.049608652 0.22052962
0.018739237 0.051214755 0.22067398
-0.013598782 0.051275611 0.21819162
-0.017888993 0.04939115 0.21792457
-0.020757388 0.046751857 0.21814936
0.021339079 0.04984105 0.21642321
0.016775098 0.051469028 0.21561655
0.012334588 0.053298175 0.21535581
0.0073801083 0.054463387 0.21446863
0.0010283523 0.05467099 0.21369609
-0.0033833806 0.054608524 0.21343204
-0.0085981796 0.053578615 0.2142593
-0.013052979 0.051847935 0.21384898
-0.016784277 0.050205231 0.21353415
0.015195065 0.052020252 0.2111012
0.012087219 0.053421557 0.21027994
0.0070851827 0.054549098 0.21049264
0.001926056 0.054471195 0.21018094
-0.0025011257 0.054884315 0.21020544
-0.0074604927 0.053890765 0.20950428
-0.012118471 0.052253306 0.20897838
0.0072942032 0.054096758 0.20619792
0.0020968309 0.053809941 0.2063337
-0.0023418767 0.054013014 0.206231
-0.0060345875 0.05355221 0.20575964
0.046162535 0.031249467 0.24567717
-0.039959095 0.029490944 0.24017167
0.044654962 0.03352559 0.24128273
-0.038500383 0.031732913 0.23596853
0.043791976 0.034435157 0.23551157
0.041459907 0.037297431 0.23690432
-0.034669317 0.035951134 0.23205253
-0.038408872 0.033082124 0.23162258
0.043979775 0.035704616 0.23225239
0.040777676 0.03764594 0.23168591
0.037907258 0.039893512 0.2317439
-0.030195177 0.04017752 0.22752512
-0.033311091 0.036912795 0.22721851
0.039716296 0.038620416 0.22769648
0.037084829 0.040911619 0.22777155
-0.029029943 0.040380772 0.22404653
-0.032272674 0.037498292 0.22281516
0.035794545 0.041307811 0.22269142
0.032455157 0.043840054 0.22261822
0.027996741 0.045881514 0.2218658
-0.024984989 0.043526884 0.21904349
-0.027687412 0.040793773 0.21859953
0.031738497 0.044194225 0.2182025
0.026902888 0.04629821 0.2184048
0.02376397 0.0478555 0.2176604
-0.023152117 0.045056816 0.21515381
-0.026751988 0.042354103 0.21439332
0.029959463 0.045024458 0.21457317
0.026816405 0.046389107 0.21371049
0.022722609 0.048536543 0.2135821
0.019100279 0.049868703 0.21230501
-0.018086161 0.048584759 0.21112034
-0.02233465 0.04584932 0.21081942
0.022621091 0.048854474 0.20879436
0.017777264 0.050621033 0.20849708
0.013895853 0.05213964 0.2076484
-0.0098002376 0.051804006 0.20623016
-0.013397031 0.051071942 0.20663917
-0.017451599 0.049550712 0.20654601
-0.020359803 0.046696305 0.20605534
0.02153456 0.04929835 0.20456344
0.017612556 0.051397026 0.20406651
0.012561099 0.053212523 0.20476741
0.0074175308 0.053709209 0.20365226
0.0022218591 0.053500354 0.20354757
-0.0022216337 0.053342581 0.20322323
-0.0077237217 0.052526176 0.20295957
-0.012633034 0.051647842 0.20251524
-0.016214944 0.050873399 0.20220485
0.01581203 0.05184263 0.19972757
0.012834183 0.053229272 0.19956401
0.0076441625 0.053643346 0.19905835
0.002426411 0.053277135 0.19906315
-0.0020278329 0.052936912 0.1986233
-0.0069490345 0.051883698 0.19871628
-0.012505514 0.051071763 0.19867808
0.01152614 0.053251624 0.19600925
0.0077864015 0.053878129 0.19621232
0.0035056686 0.053746998 0.19520986
-0.040946823 0.029373523 0.23412177
0.04673313 0.031756643 0.23452371
-0.039326306 0.032646354 0.22938433
-0.04266734 0.029940363 0.22880065
0.046514858 0.033545617 0.22945285
0.042649698 0.036798123 0.22938046
-0.034803391 0.035469111 0.2246131
-0.037927438 0.032870289 0.22469282
-0.041369658 0.031226214 0.22401494
0.041887067 0.036209885 0.22532555
-0.034321465 0.035816964 0.22097403
-0.036667272 0.033549365 0.22041434
0.040212173 0.036656205 0.22142997
0.038066592 0.038829986 0.22048181
-0.029985692 0.038431045 0.21710658
-0.032278888 0.03672063 0.21599466
0.036941562 0.040548805 0.21632284
0.032987971 0.042403284 0.21490404
-0.028681789 0.040649649 0.2121774
-0.031350628 0.038016077 0.21160215
0.036206305 0.04063553 0.21228251
0.032664627 0.042645279 0.21139991
0.028687913 0.044976059 0.21101156
-0.025017686 0.043964799 0.20851481
-0.027171869 0.042717274 0.20887336
0.031422827 0.043907467 0.20760518
0.027415637 0.045852724 0.20712212
0.024430986 0.047859196 0.20644698
-0.022323035 0.045870181 0.20429248
-0.025289565 0.043238994 0.20414764
0.027535796 0.046826366 0.20182198
0.023371968 0.048352424 0.20211032
0.020217165 0.049886048 0.20136452
-0.01822333 0.048530877 0.19987443
-0.021162461 0.045692027 0.19899932
0.023261182 0.048751835 0.19752663
0.018617172 0.050271451 0.19784048
-0.007616845 0.051764369 0.19620642
-0.01240806 0.050938666 0.19597206
-0.016928993 0.049427986 0.19567645
0.022176355 0.049620334 0.19338778
0.018253868 0.051256239 0.19306397
0.013323369 0.052634299 0.19283158
0.0087127099 0.053582311 0.19255656
0.003215936 0.053185761 0.19167396
-0.0017557394 0.05251193 0.19222689
-0.0062304111 0.05173403 0.19150865
-0.011461423 0.051425099 0.19104674
-0.01616466 0.050438404 0.19084609
0.011915429 0.052396536 0.18843415
0.0089446558 0.053116202 0.18785667
0.0035253456 0.053618729 0.18717813
-0.0014972156 0.053425908 0.18663824
-0.0060176356 0.052551925 0.18673578
-0.01052718 0.052015424 0.1866073
0.001648494 0.05391711 0.18356475
0.00015023065 0.053895891 0.18347508
-0.042583704 0.028690036 0.22122401
0.045666281 0.031306688 0.22365135
-0.03877005 0.031131145 0.21814269
-0.041026648 0.028660711 0.2186937
0.042228434 0.033860985 0.21904799
-0.034634091 0.034168359 0.21525654
-0.036949392 0.032489713 0.21416312
0.040700894 0.035685603 0.21481287
0.03873571 0.037930313 0.21312985
-0.033341072 0.035835501 0.20984268
-0.036049742 0.033600923 0.21050602
0.037711304 0.038610164 0.20940632
-0.029275257 0.03879207 0.20563409
-0.031228848 0.037423369 0.20602891
0.037185509 0.039282802 0.20569181
0.033614639 0.04242808 0.20523909
-0.026941277 0.040505942 0.20109618
0.032884702 0.043079559 0.20074612
0.029393081 0.045921031 0.19938326
-0.022628199 0.044342276 0.196336
-0.026254505 0.041709896 0.19658571
0.027651276 0.04616243 0.19616985
0.025075272 0.048489336 0.19547373
-0.021303285 0.045080364 0.19296545
-0.024597626 0.042510804 0.19274849
0.02721094 0.047109608 0.19161969
0.023952648 0.049655203 0.19195294
0.019358497 0.051194251 0.18981788
-0.017786417 0.049887121 0.18842676
-0.020174932 0.046481729 0.18881172
0.027033005 0.047896627 0.18811068
0.024073388 0.049615745 0.18668097
0.018822797 0.050815284 0.18599522
0.013717479 0.052053988 0.18630934
0.0090745194 0.053185225 0.18524688
0.0060769627 0.053161502 0.18507957
-0.0059110792 0.052991688 0.18436208
-0.011573837 0.05237186 0.18478626
-0.016485378 0.050709426 0.18413541
-0.01965531 0.047233284 0.18531507
0.018278807 0.05049789 0.18219748
0.013757733 0.051866293 0.18195945
0.009264986 0.052715957 0.18138826
0.0041889744 0.054070055 0.18184927
-0.0014489712 0.053902566 0.1813944
-0.0057659307 0.053108215 0.18088245
-0.011022151 0.052557766 0.18025914
-0.015181766 0.051020145 0.17949775
0.008696503 0.052434862 0.17759931
0.0040136436 0.054149508 0.17685553
-0.0010454218 0.054450452 0.17663428
-0.0052896077 0.053125978 0.17662668
-0.010888365 0.052003324 0.17632625
0.0021240683 0.054526508 0.17325461
0.043730732 0.03219587 0.21641657
-0.039396815 0.027921196 0.21138769
0.045954671 0.030802254 0.21151191
0.042995796 0.032942954 0.2121512
-0.034421835 0.033988532 0.20644879
-0.037904065 0.031232473 0.20691901
-0.040834323 0.027904864 0.20779863
0.042840477 0.033535186 0.20688799
0.039709125 0.036012176 0.20707747
-0.033247586 0.034029361 0.20276961
-0.03630618 0.032065328 0.20213142
0.041530643 0.035930041 0.20271343
0.038920026 0.037730638 0.2030817
-0.031441607 0.035230692 0.19872558
0.041792814 0.036518935 0.19865662
0.038688757 0.039235894 0.19838807
0.035157684 0.041291658 0.19740751
-0.027710695 0.04061925 0.19318908
-0.030757438 0.03778648 0.19418851
0.037207633 0.040003125 0.19292381
0.033166215 0.041782621 0.19364747
0.029804736 0.043495242 0.19347811
-0.022962071 0.043443318 0.18986726
-0.02625782 0.041562494 0.19007787
-0.030105058 0.039036568 0.18959972
0.036190744 0.040913407 0.18951473
0.032691229 0.042988721 0.18911049
0.029433656 0.04461718 0.1893605
-0.022230439 0.043738421 0.18617558
-0.025486514 0.041825052 0.18541464
0.031880345 0.044350509 0.18430927
0.028973036 0.04574025 0.18482605
0.02505286 0.048589531 0.18309867
-0.021116398 0.04543525 0.181714
-0.024276193 0.042370316 0.18198726
0.028252181 0.046332482 0.18090898
0.024291899 0.048859004 0.17987171
0.01945664 0.049545586 0.17924994
0.013942487 0.050564945 0.17843822
-0.017201196 0.049690008 0.17772719
-0.020502981 0.046031475 0.17683065
0.023951359 0.048755173 0.17596322
0.019144213 0.0496279 0.17484826
0.014105855 0.051274121 0.17531344
0.0097926287 0.051995158 0.17505601
0.0066069188 0.05248189 0.17392975
-0.0058642616 0.052295446 0.17362672
-0.010469676 0.050922573 0.1730687
-0.015809473 0.049963176 0.17275938
-0.01920139 0.047940493 0.17234424
0.014150406 0.051135838 0.17032254
0.0098147774 0.052182198 0.17028236
0.0047067842 0.053368986 0.1706486
-0.00079324376 0.053161263 0.17039675
-0.0051392289 0.051939607 0.16959229
-0.009533626 0.050474584 0.16953039
0.0099975904 0.052087426 0.16660157
0.0043752519 0.053245068 0.16631603
0.00013665399 0.052087128 0.16610476
0.043010194 0.032305125 0.20502687
-0.038277991 0.029893275 0.20029181
-0.041433066 0.028127249 0.20084637
0.046333857 0.031924073 0.20142341
0.043987364 0.033535484 0.20138991
-0.034190848 0.033642527 0.19656059
-0.036555335 0.031889614 0.19626382
0.04398958 0.034388009 0.19632092
-0.034087215 0.034687694 0.19454068
-0.03580527 0.033131596 0.19149858
0.043313723 0.036003415 0.19351971
0.039720576 0.038288001 0.19103083
-0.032020524 0.036914404 0.18740711
-0.035146184 0.034400221 0.1875349
0.037933137 0.039389972 0.18685216
0.034801923 0.041598324 0.18719089
-0.027422059 0.040943023 0.1836099
-0.030111462 0.039050814 0.18343127
0.0367117 0.040150944 0.18187326
0.034291673 0.042222682 0.18307269
-0.025942449 0.041592833 0.17938581
-0.029230557 0.040128168 0.17895898
0.033285093 0.042927448 0.17866632
0.02945159 0.044996861 0.17765969
0.026214048 0.046923105 0.17668605
-0.022020489 0.045816001 0.17487639
-0.02522669 0.042838808 0.17484063
-0.02868969 0.040926691 0.17453408
0.029032148 0.044748846 0.17269033
0.025158763 0.046863321 0.17245618
0.021129729 0.04860419 0.17210555
-0.0211365 0.046616852 0.17021435
-0.02467848 0.044571515 0.16946945
0.024159919 0.046472792 0.16842574
0.019813633 0.048602402 0.16840562
0.015252768 0.05100137 0.16795686
-0.0067550885 0.050801277 0.16671416
-0.0101223 0.04987663 0.1666539
-0.014984124 0.048332393 0.16663581
-0.020605922 0.045906603 0.16639879
0.018783439 0.049209654 0.1638968
0.014704642 0.050427318 0.16390014
0.010145596 0.05166012 0.16358989
0.0052856123 0.052595377 0.16342977
-0.00073504716 0.05194068 0.1636219
-0.0050903643 0.050950527 0.16325688
-0.0096518071 0.049723327 0.16220203
-0.013326363 0.048477471 0.16154516
0.014889576 0.050598502 0.160368
0.010142022 0.051208317 0.15923363
0.0056839967 0.052004516 0.15835994
0.00064389885 0.051942766 0.15799814
-0.0046696728 0.051061809 0.1583904
-0.0091782371 0.050537646 0.15838408
-0.039099149 0.027461585 0.19701937
-0.03897075 0.028615948 0.19415933
-0.038773529 0.030454572 0.18992913
-0.041891478 0.029089686 0.18893352
0.043213572 0.034314755 0.19022828
-0.036396861 0.032685872 0.18497166
-0.040626001 0.030604895 0.18505538
0.04263727 0.034280542 0.18747944
0.040873125 0.036019389 0.18442363
-0.032118224 0.036437627 0.18052304
-0.034412678 0.033405419 0.18047911
0.039162673 0.037863854 0.18053687
-0.031357985 0.037138935 0.17612913
-0.033614047 0.034694906 0.1757234
0.037510291 0.038824383 0.17607945
0.035043184 0.041094188 0.17575884
-0.02707649 0.041353103 0.17217451
-0.030256517 0.038755294 0.17214751
0.033798665 0.041749302 0.17213637
0.030828621 0.04374123 0.17075464
-0.026977152 0.041167852 0.16842121
-0.029298376 0.040247079 0.16770196
0.03290255 0.042506043 0.16867775
0.029773694 0.043920223 0.16602391
0.025820579 0.045950416 0.16633689
-0.017425139 0.046523869 0.16332102
-0.020547148 0.044850588 0.16335273
-0.025210675 0.042917725 0.16296521
-0.028746396 0.041336175 0.1634185
0.028621137 0.044720057 0.16260147
0.025386669 0.046051268 0.16172332
0.021451371 0.047937099 0.16195405
-0.015363507 0.047656834 0.16006631
-0.019320395 0.045309484 0.15911317
0.024261456 0.046214882 0.15786558
0.019954128 0.048530579 0.15756208
0.015041578 0.050375819 0.1574693
0.011254861 0.05074662 0.15661287
-0.0055515957 0.050563991 0.15564489
-0.0097699547 0.05018574 0.15563467
-0.014030543 0.048843086 0.15588486
-0.017739233 0.046653628 0.15457755
0.018762665 0.049014986 0.15256989
0.015280959 0.050436974 0.15291163
0.010663222 0.051115274 0.15314719
0.0061162012 0.05164814 0.15205526
0.00059671805 0.051781952 0.15153965
-0.0046055997 0.051502049 0.15172538
-0.0091946842 0.051326454 0.1513747
-0.013399058 0.049687743 0.15122384
-0.016976696 0.047634304 0.15121928
0.014706914 0.050418377 0.14916521
0.010106904 0.05016011 0.14875582
0.0077986638 0.050320566 0.14875177
0.00019212365 0.051073849 0.14703786
-0.0045853024 0.052069783 0.14616609
-0.0089466469 0.051958382 0.14533895
-0.012645044 0.050529659 0.14725554
-0.041000262 0.028503414 0.18141162
0.043542072 0.030728225 0.18349111
-0.036364168 0.03019416 0.17799503
-0.039835639 0.02761304 0.17864823
0.043336648 0.029952709 0.17935297
0.041731704 0.034149174 0.17829543
-0.035706159 0.031248685 0.17303184
0.040669169 0.035555188 0.17344394
-0.031850267 0.0359804 0.16935849
-0.034055915 0.033040877 0.16947961
0.038961053 0.037197057 0.169388
0.035990268 0.03950632 0.16960514
-0.031696808 0.037064608 0.1654985
0.037913341 0.038269881 0.16429409
0.034901552 0.040315691 0.16526723
0.031697985 0.042702798 0.16324574
-0.026699003 0.041819926 0.15971339
-0.030422311 0.039685126 0.16086429
0.034443777 0.040903751 0.16010526
0.030550294 0.043432418 0.15976089
0.027314611 0.044534627 0.15872717
-0.021103382 0.044348955 0.15616727
-0.025050931 0.041987356 0.15622056
-0.029348414 0.040602025 0.15599799
0.03020912 0.043709401 0.15487525
0.026179262 0.044920746 0.15500113
0.022870127 0.046476368 0.15520138
-0.020211648 0.044699788 0.15275362
-0.023790568 0.04246008 0.15157974
0.029284414 0.044802014 0.15159446
0.025805719 0.045613173 0.15038177
0.021738902 0.047766332 0.151164
-0.015338139 0.048410952 0.14905563
-0.018472455 0.046077192 0.14821792
-0.021646552 0.043969925 0.14847022
0.024875645 0.046755079 0.14712971
0.020814378 0.048657179 0.14655203
0.015837077 0.049947917 0.14650136
0.011213413 0.050157905 0.14641678
0.0063971761 0.050201595 0.14580771
0.0012774814 0.050598323 0.14551923
-0.003498486 0.051834941 0.14366359
-0.013770488 0.049924493 0.14414176
-0.016721755 0.04792273 0.14399421
0.019682316 0.048945546 0.14278993
0.015839811 0.049786508 0.14225242
0.011133657 0.050338447 0.14078817
0.0066559887 0.050401449 0.14035398
0.001398287 0.050692141 0.14048457
-0.0037945963 0.051534712 0.13951072
-0.0087320106 0.051611185 0.13950604
-0.013178338 0.050056636 0.13925642
-0.016591847 0.04823935 0.14048365
0.0053736223 0.052387536 0.13512909
0.0027784342 0.052044451 0.13538232
-0.0031858466 0.051502585 0.13595319
-0.0093604708 0.051442504 0.13560313
-0.036793057 0.030155238 0.16992635
-0.040019128 0.028404709 0.17139012
0.04559508 0.030701701 0.1711536
-0.035126131 0.030763563 0.16627392
-0.039909113 0.028662916 0.16697392
0.044904355 0.032044832 0.16701213
0.042141523 0.033921067 0.16671437
-0.034158457 0.032722946 0.16253313
0.040211897 0.036033634 0.16329837
-0.033815667 0.034180935 0.15796599
0.038688876 0.037480656 0.15872002
0.036234889 0.039707486 0.15777245
-0.031337615 0.03857952 0.1545395
-0.033644821 0.035378512 0.15357625
0.038548514 0.037856523 0.15478045
0.035474222 0.040110353 0.15335661
0.032345209 0.042424742 0.15291265
-0.025243957 0.0414862 0.14891678
-0.02940065 0.039445516 0.14977956
0.034615885 0.04084355 0.14820737
0.031230923 0.043464128 0.14867273
0.027900103 0.044906083 0.14880079
-0.019980401 0.044177651 0.14496687
-0.023671705 0.042856332 0.14573795
-0.02756365 0.040748771 0.14484113
0.030810032 0.043455664 0.14388222
0.026814945 0.045293692 0.14410225
0.023513671 0.047364417 0.14374557
-0.019072462 0.045188487 0.14197093
-0.022797901 0.042857941 0.1403946
-0.026176151 0.041452583 0.14089376
0.025839835 0.045051102 0.13973188
0.021756712 0.046865646 0.1391727
0.016014777 0.0490399 0.13891992
-0.014912476 0.048894525 0.13727617
-0.017844554 0.046000361 0.13696629
0.020391002 0.047239065 0.13471356
0.016209997 0.049094439 0.13519782
0.011575193 0.050567448 0.13476169
0.0077219876 0.051117182 0.13433546
0.0013232558 0.051648736 0.13314116
-0.0027388267 0.050993562 0.13291794
-0.0081460038 0.050281703 0.13341996
-0.013416206 0.049245298 0.13359568
-0.016748287 0.047554374 0.13293344
0.015840501 0.049217403 0.13034514
0.011857263 0.050569952 0.12909791
0.0072037922 0.051626265 0.12899974
0.0025522478 0.051493824 0.1286729
-0.0026715423 0.050258338 0.12803704
-0.0084044235 0.04906857 0.12922379
-0.011547555 0.048193455 0.12938747
0.0063743694 0.051656008 0.12454337
0.0043144068 0.051739812 0.12418485
-0.0368273 0.02705681 0.16425073
-0.036677655 0.028134819 0.16033161
-0.03985152 0.026744302 0.15926164
0.044656936 0.030554775 0.15999001
0.042455371 0.032597069 0.16076753
-0.036054138 0.030299362 0.15528333
0.040936295 0.033642475 0.15579692
-0.035807483 0.033034977 0.15105799
0.039342243 0.035692338 0.15148818
-0.031222984 0.036833461 0.14684433
-0.034286112 0.034169909 0.14698762
0.039082196 0.036353651 0.1472275
0.036678124 0.039065365 0.14708796
-0.029928926 0.038485344 0.14295042
-0.033127572 0.03559738 0.14261901
0.035768177 0.040143196 0.14173442
0.032538537 0.042476241 0.1414032
-0.02448763 0.04255509 0.13798219
-0.027891651 0.040495094 0.13802263
-0.031241242 0.03812879 0.13795426
0.034910154 0.04127932 0.13721412
0.031753667 0.042759899 0.13715124
0.027559325 0.044040505 0.13721609
-0.019650873 0.044015765 0.13453037
-0.0228086 0.043085869 0.13466138
-0.027330734 0.041525539 0.13357264
-0.03075359 0.039348599 0.13352963
0.030404933 0.043027405 0.13347915
0.027293075 0.044851426 0.13272172
0.023083203 0.046597127 0.13312617
-0.018843949 0.045414329 0.13044935
-0.022440743 0.043457266 0.12949038
-0.025831781 0.042285677 0.13015234
0.026709523 0.045291964 0.12920073
0.022288479 0.046930853 0.12867695
0.018141974 0.048384428 0.12814629
-0.00515133 0.04992348 0.126203
-0.0079565169 0.049772322 0.12614459
-0.013219987 0.048188448 0.12716216
-0.017721109 0.046606302 0.12603378
-0.021720931 0.044004913 0.12586978
0.016984887 0.048549891 0.12415245
0.012139522 0.050124049 0.12338868
0.0080306577 0.051216185 0.12239301
0.0023812514 0.051092386 0.12238657
-0.0026303146 0.050734758 0.12214953
-0.0082490118 0.050291777 0.12192941
-0.012657047 0.049049199 0.12194949
-0.016522739 0.047404587 0.12221688
0.012339066 0.049830258 0.11935085
0.0077492064 0.0513376 0.11735475
0.0030650322 0.051307201 0.11710137
-0.0021941036 0.051534832 0.11718535
-0.0072849253 0.051424921 0.11691779
-0.011575901 0.049846053 0.1172201
-0.03971022 0.026752468 0.15274853
0.041986652 0.031665031 0.15264946
-0.038014751 0.026831623 0.14725578
0.043821543 0.029815439 0.14961314
0.041624974 0.031838421 0.14860928
-0.036046602 0.0326606 0.14376053
-0.037806761 0.028838273 0.14296055
0.041223135 0.032858137 0.14399558
-0.03512514 0.034012791 0.14096007
-0.03714655 0.032093462 0.1390695
0.040007379 0.034507874 0.13985533
0.037897866 0.037955943 0.14072308
-0.033536434 0.034963306 0.13563895
-0.035829499 0.033734377 0.13694921
0.036960926 0.03851277 0.13556105
-0.029055584 0.040516432 0.13063842
-0.031934686 0.038705166 0.13254333
0.036114704 0.039434735 0.13120967
0.032354347 0.042062644 0.13074422
-0.024151657 0.04257768 0.12663367
-0.027571205 0.040714439 0.1268003
-0.031272512 0.038387652 0.12749183
0.035540756 0.039866988 0.12765852
0.031949721 0.041752044 0.12563488
0.027929571 0.043994728 0.12586683
0.024558589 0.045751635 0.12560391
-0.022673517 0.042880412 0.12255055
-0.026201319 0.0410912 0.12291229
0.027993526 0.044305209 0.12087995
0.023197118 0.045985166 0.12186846
0.018920559 0.046991289 0.12095255
-0.018045936 0.045444191 0.11879176
-0.022082623 0.04290938 0.11793232
0.026609872 0.044926886 0.11740774
0.023048315 0.046116237 0.11645019
0.017965253 0.047240674 0.11675352
0.0128627 0.049443364 0.11668569
-0.013551352 0.04812181 0.11546254
-0.016905203 0.046263337 0.11458588
0.022110779 0.047031764 0.11293399
0.017411716 0.047952831 0.11227995
0.012671351 0.049934328 0.1126945
0.0079845777 0.050996602 0.11229163
0.003281764 0.051173031 0.11219221
-0.0014128562 0.05099839 0.11183053
-0.0072261547 0.050062597 0.11142355
-0.012418837 0.048275292 0.11021894
-0.015566099 0.047455609 0.10945207
0.012095111 0.049382508 0.10837322
0.0082274033 0.050422132 0.10702014
0.0035070155 0.05065459 0.10696375
-0.0012049887 0.050528049 0.10663652
-0.0059162029 0.050090015 0.10607415
-0.010641248 0.049479663 0.10562521
-0.039497398 0.026501354 0.14223716
0.042751878 0.03161997 0.14132279
-0.039257076 0.028789457 0.1371682
0.042340789 0.03245211 0.13768795
-0.037455659 0.031246837 0.13324109
-0.043824892 0.029472407 0.13073474
0.041423682 0.033322755 0.13344297
0.038567308 0.034473602 0.13164759
-0.034046959 0.034572121 0.13000816
-0.036278818 0.031844016 0.12925816
-0.04366992 0.031160768 0.12809074
0.037940826 0.03570414 0.12865031
-0.033477724 0.035290059 0.12431955
0.035756152 0.039343063 0.12440774
0.033418171 0.040788773 0.12341017
-0.027542129 0.040090438 0.12045866
-0.031661723 0.037032064 0.12063605
0.035975564 0.038768951 0.12110925
0.032861847 0.041199807 0.11949813
-0.023013461 0.043157037 0.1155867
-0.027073812 0.040967818 0.11636132
-0.030320782 0.038847085 0.11594433
0.032187495 0.042755548 0.11453187
0.028522842 0.04467601 0.11513817
0.025156435 0.045800988 0.11507809
-0.018901028 0.04487884 0.11222011
-0.02210056 0.043652233 0.11212415
-0.026697051 0.041785832 0.11124796
0.031778559 0.043325547 0.11065179
0.028171595 0.044902448 0.10997695
0.024035063 0.046399597 0.1103701
0.019417956 0.047649622 0.11015505
-0.017945386 0.045799792 0.10809749
-0.021717791 0.044517931 0.10719723
-0.025153015 0.043060359 0.10764724
0.023711495 0.045619372 0.10562193
0.018251101 0.047033012 0.10534292
0.013234179 0.049304366 0.10586482
-0.012976591 0.049185693 0.1045571
-0.016509824 0.047040224 0.1035291
0.016388997 0.047793329 0.10151893
0.013063661 0.049284875 0.10077512
0.0085029127 0.050432801 0.10118318
0.0037705854 0.050461292 0.10097283
-0.00095947529 0.050459802 0.10074008
-0.0056888354 0.050488174 0.10053033
-0.011206479 0.050099611 0.09996289
-0.015573786 0.0483495 0.098902643
0.0084082959 0.050416648 0.096453369
0.0039866599 0.05055517 0.096146882
-0.00075721066 0.050666749 0.096000731
-0.0054966719 0.050492465 0.09563446
-0.010694795 0.050262213 0.095343411
-0.01336632 0.050030291 0.093907773
-0.039073139 0.029241797 0.12985396
0.042787485 0.030866031 0.12931317
-0.037913255 0.029408451 0.12554482
0.041650567 0.031222943 0.1262911
0.038917553 0.033899132 0.1264492
-0.03629633 0.030128773 0.1213758
0.038396791 0.034477357 0.12200287
-0.033723585 0.035163399 0.11794716
-0.035446048 0.032006141 0.11655766
0.037835188 0.036531869 0.11763793
-0.032790966 0.035834428 0.1136297
0.037142452 0.037764136 0.113047
0.034410577 0.040781263 0.11376888
-0.028490685 0.040385243 0.1093958
-0.030851591 0.037632223 0.10958844
0.033496097 0.041662399 0.10901022
0.0303418 0.043801609 0.10800642
-0.023450688 0.043412622 0.1040886
-0.02710681 0.040389892 0.10517097
-0.030081335 0.038399216 0.10589433
0.032063775 0.042497639 0.10613513
0.028713219 0.042817537 0.10346109
0.024586532 0.045326713 0.10279626
0.020308077 0.046216011 0.10247529
-0.018523484 0.045010626 0.10063511
-0.021241985 0.043384135 0.10090858
-0.025081333 0.041283187 0.10241115
0.027593717 0.043331329 0.10064477
0.024290875 0.045002643 0.098371923
0.019124242 0.047033906 0.098927915
0.014970387 0.048780262 0.098272562
-0.017293569 0.046225846 0.096705258
-0.019676432 0.043935895 0.095627248
0.018963126 0.047563612 0.093760908
0.01356513 0.049326658 0.094679892
0.0092524821 0.050160944 0.093633771
0.004126023 0.050149977 0.092880905
-0.00062770088 0.050207376 0.09269315
-0.0053788912 0.050122321 0.092395008
-0.010130127 0.050144136 0.092179835
-0.015226514 0.048437834 0.092586458
0.01777372 0.048329055 0.090150058
0.013820305 0.049052835 0.089527249
0.0088628521 0.049910009 0.089208126
0.0043029892 0.050118804 0.088900506
-0.00046484239 0.050404012 0.088891029
-0.0052213748 0.049684346 0.088096559
-0.0099858129 0.049382508 0.087628484
-0.013961301 0.048878431 0.08704102
0.0076600625 0.05022037 0.085166216
0.0036828511 0.050164044 0.084928215
-0.00026277898 0.050828934 0.084262788
-0.0047213421 0.050472558 0.083964229
-0.0082491124 0.049782038 0.084046304
0.043216344 0.029438738 0.12348658
-0.038370337 0.028383013 0.11964446
0.042389188 0.030133132 0.12019151
-0.03795727 0.029399391 0.11553305
0.042117488 0.031433824 0.11512029
0.039649501 0.03508592 0.11472422
-0.036117233 0.03176504 0.11050427
0.041540805 0.032764498 0.11116064
0.03948142 0.035848442 0.11087245
-0.033062607 0.034916516 0.10659975
-0.035170533 0.032679852 0.10632211
0.038318884 0.036523048 0.10647213
0.035341505 0.038123135 0.10597026
-0.028387032 0.038406547 0.10205919
-0.031706046 0.035776969 0.10190183
0.033568762 0.038910691 0.10203928
0.030807741 0.04079539 0.10085559
-0.023378108 0.041267451 0.098549306
-0.026882753 0.038283166 0.097850978
-0.029982932 0.036542173 0.09861362
0.032623332 0.040118758 0.097462952
0.02960068 0.041836981 0.097383142
-0.022450812 0.042000409 0.095201671
-0.025585849 0.039670583 0.093557358
0.028873753 0.042898003 0.092451632
0.024989568 0.044884268 0.093542993
0.021722618 0.046619419 0.091001511
-0.016499847 0.046586215 0.089108109
-0.020039242 0.043884635 0.090569317
-0.023913126 0.04136264 0.089681864
0.028306473 0.043880884 0.088199556
0.025078602 0.045506541 0.088307679
0.020311799 0.047284901 0.087467432
0.015236574 0.048660576 0.086702406
0.010790977 0.048768878 0.086172044
-0.016359512 0.047485769 0.085836172
-0.019142382 0.04436785 0.085928023
0.024237279 0.046172265 0.084122121
0.020772498 0.047540784 0.083121479
0.014970603 0.048897684 0.082478046
0.0095816804 0.049323022 0.082302213
0.004832109 0.049602389 0.081970632
-0.00013322265 0.050510705 0.081020474
-0.0053327386 0.050590575 0.081331074
-0.0099577131 0.049903572 0.081811249
-0.01436453 0.04862994 0.081089497
-0.01787208 0.046181083 0.081743479
0.01990643 0.04798758 0.079992831
0.01518809 0.048435688 0.078108132
0.0095795048 0.048603952 0.07796973
0.004287451 0.049376726 0.076985955
3.9381248e-05 0.05015403 0.076729059
-0.0047560302 0.050298214 0.076611578
-0.0089379335 0.049586535 0.076645553
-0.012823251 0.047985852 0.076389372
0.0034051233 0.050477862 0.07312268
0.00020360878 0.050432503 0.072931051
-0.038712863 0.027841087 0.10948414
0.043542337 0.030789617 0.10907322
-0.037413977 0.029849228 0.10413396
-0.040200058 0.02766585 0.10337859
0.043416936 0.032327596 0.10427731
0.039580125 0.035503451 0.10323846
-0.033323996 0.033687051 0.098289311
-0.036454979 0.031021055 0.10010874
-0.038321473 0.030100401 0.097350359
0.043030437 0.033132974 0.10064524
0.038797501 0.035750989 0.099669933
0.034981634 0.036974315 0.099164784
-0.031309482 0.035127338 0.095505059
-0.03492764 0.032394346 0.095258892
0.038867362 0.035718802 0.0954234
0.034887429 0.038123194 0.094777942
-0.026444133 0.039283391 0.090949476
-0.029961113 0.036913928 0.090710163
-0.03313984 0.034151848 0.091695666
0.034128238 0.039267067 0.090580523
0.031351589 0.041557197 0.091540813
-0.025322448 0.040456053 0.08712101
-0.028613787 0.038423534 0.086592078
0.033273555 0.040285114 0.086651087
0.030500058 0.042886022 0.086245239
-0.020701192 0.042945266 0.082743704
-0.024331208 0.040827092 0.08250165
-0.027850557 0.03851014 0.082287252
0.02932794 0.043933395 0.081671655
0.025961291 0.045974616 0.082043827
-0.019924387 0.043810666 0.078487098
-0.022790834 0.041256841 0.078641295
0.025333535 0.046066705 0.077925324
0.020858184 0.047386467 0.077210248
0.01531012 0.047852993 0.075633049
0.0096693365 0.048775733 0.076096952
0.0056970674 0.049326241 0.075336397
-0.01034879 0.048642457 0.075018942
-0.014940601 0.047270477 0.075043619
-0.018494338 0.045152485 0.07486707
0.01945769 0.047144651 0.073244572
0.015493191 0.048423469 0.072053015
0.0098365387 0.04960525 0.072731197
0.0054342179 0.050848246 0.071722388
0.00060221297 0.050854266 0.071268797
-0.004554831 0.049676478 0.071079314
-0.0095920609 0.048782349 0.070872784
-0.013875641 0.047033966 0.071032941
0.014887759 0.048519969 0.068041265
0.010060855 0.050097048 0.068070412
0.0052972687 0.051626921 0.067053497
0.00025118623 0.051525533 0.067489207
-0.0043610712 0.050269663 0.066497266
-0.0088324705 0.04860425 0.066453993
-0.0009927497 0.051269233 0.063404202
-0.0033980708 0.050535083 0.062686145
-0.040550862 0.027402397 0.097222924
0.044387061 0.031347636 0.09797883
-0.03658022 0.030631419 0.09285748
-0.039388552 0.028603252 0.092860699
0.042722162 0.031712238 0.093574405
0.040538292 0.034187738 0.093010306
-0.035072435 0.032004472 0.088975132
-0.038192507 0.029039975 0.088580012
0.0391699 0.034315053 0.089028835
0.036514919 0.036189679 0.087660432
-0.030702416 0.036291953 0.084449172
-0.033426087 0.03298771 0.084288061
0.035082787 0.037187222 0.0843364
-0.029521435 0.035922822 0.079693377
0.034245852 0.037878755 0.080120623
0.03214987 0.039164666 0.078664184
-0.024641834 0.039236244 0.075810015
-0.027757209 0.036914285 0.076004744
0.029585134 0.042032305 0.075738549
0.025915124 0.04336876 0.073578715
0.022688963 0.04449803 0.073309779
-0.019686848 0.042808652 0.07142657
-0.023177713 0.039859351 0.071449697
0.026089385 0.042223755 0.070638359
0.021278244 0.044833422 0.069442689
-0.014514416 0.045913935 0.067358673
-0.018913057 0.042910516 0.067113817
0.021090345 0.045263886 0.064237833
0.016678194 0.046842158 0.064467311
0.011532112 0.048123062 0.063884377
-0.0094567128 0.047604799 0.062856615
-0.013834152 0.045675993 0.062555254
0.016094979 0.047326267 0.059967816
0.011223689 0.047776639 0.06010288
0.0059242821 0.048674762 0.061097085
0.00010352524 0.049159944 0.059267342
-0.004321814 0.049465179 0.059129536
-0.0089548612 0.048504651 0.058701694
-0.013294339 0.046997666 0.057938576
9.4171039e-05 0.049175739 0.055581033
-0.0043378999 0.049423456 0.055057824
-0.00880503 0.049067259 0.05506295
-0.041011371 0.027515229 0.089964688
-0.036447067 0.029998597 0.085375965
-0.040003486 0.028192278 0.085587561
0.04376759 0.029978398 0.086605132
0.041094393 0.03184605 0.085212886
-0.035665654 0.030874129 0.08164978
-0.039273068 0.028953012 0.081919491
-0.04372381 0.029442843 0.082580626
0.039657719 0.032829288 0.081853688
0.03688876 0.035263006 0.081919253
-0.031177901 0.034192141 0.077762246
-0.034334019 0.031718072 0.076953411
0.038840886 0.034177486 0.077108443
0.036086004 0.036410991 0.077030897
-0.029839903 0.035691854 0.0736413
-0.033117302 0.033502754 0.072563767
0.035580505 0.037594263 0.072763264
0.031809911 0.039441172 0.073383689
-0.025247302 0.038420673 0.06979996
-0.029196799 0.036713716 0.068659961
-0.032546047 0.035108682 0.069268405
0.03440892 0.037745718 0.068481684
0.030928317 0.039864365 0.068214893
0.02665494 0.041888181 0.067844152
-0.020745661 0.041566491 0.064777374
-0.024092596 0.039379355 0.064902604
-0.027454078 0.037002262 0.064885139
0.02626349 0.042400423 0.063884318
0.023201518 0.044150535 0.063874185
-0.015580814 0.045167744 0.059752107
-0.019181419 0.042386949 0.061161637
-0.023428973 0.040839132 0.060251415
0.02550656 0.04371113 0.058999062
0.022039916 0.045840267 0.059474885
0.017391682 0.04722029 0.05840081
0.012178231 0.047855139 0.057129383
0.0069065089 0.047106445 0.056772649
-0.0148433 0.047107935 0.055897534
-0.018781886 0.043316901 0.056024075
-0.022642214 0.041786309 0.055960238
0.021878328 0.046069685 0.054311335
0.017423389 0.047422945 0.054370284
0.012331948 0.047675788 0.053892791
0.0077861282 0.047307432 0.053575218
-0.0006253054 0.048775673 0.053151369
-0.0034983461 0.049244881 0.052164018
-0.0086920457 0.049191415 0.052076817
-0.013400723 0.048080385 0.052216649
-0.016933996 0.045300066 0.05154711
0.016997762 0.047221005 0.050112247
0.012353822 0.048016787 0.049256265
0.0073296758 0.048344076 0.048799813
0.0014306526 0.048415184 0.048212886
-0.0036682603 0.049270213 0.048241496
-0.0085416147 0.049702108 0.048370421
-0.01344121 0.048350394 0.047693193
0.0062547433 0.049674571 0.044899046
0.0021832932 0.049745619 0.044764221
-0.0035431799 0.048894703 0.044812679
-0.0084268758 0.049025416 0.044689119
-0.012497463 0.048311532 0.043891549
-0.039672881 0.028033372 0.079002559
0.041233938 0.031261865 0.079022169
-0.036156245 0.030469652 0.073608518
-0.038559947 0.026954468 0.074838281
0.041195948 0.03165454 0.075248659
-0.035193671 0.031959113 0.070741832
-0.037854291 0.028213318 0.070746362
0.04089886 0.032755557 0.070982814
0.037624311 0.036520187 0.069709361
-0.034461953 0.032762464 0.066149771
0.039497342 0.033986989 0.066753209
0.036261093 0.035965864 0.065434575
0.0329726 0.038571659 0.064968467
-0.02908295 0.035402235 0.061814129
-0.032475702 0.032716509 0.061216056
0.035689075 0.036339942 0.061237097
0.031352092 0.038777653 0.061192214
0.028318413 0.040624265 0.060225129
-0.025507525 0.039702233 0.05790478
-0.028683305 0.03578883 0.057677031
0.031417444 0.038539592 0.056605577
0.027709253 0.041125361 0.056470513
-0.024232827 0.040791031 0.052999377
-0.027776897 0.037436422 0.05326134
0.026575625 0.042297367 0.052193403
0.023859937 0.045535032 0.051631808
0.0059341504 0.045464396 0.050711393
-0.019264624 0.042435706 0.049476206
-0.023237366 0.040875431 0.048825741
-0.026964545 0.038808402 0.049854457
0.025730595 0.044190291 0.047475994
0.022463914 0.045268241 0.047177613
0.017882787 0.046970665 0.047136366
0.014319163 0.047415316 0.046505809
0.0060927789 0.046608865 0.047518373
0.0016734784 0.04577899 0.048691332
-0.015015926 0.047443449 0.045123219
-0.017772838 0.04372412 0.045207918
0.02238293 0.045706932 0.042524993
0.017795138 0.047353864 0.042441666
0.012850816 0.048580229 0.043243825
0.0086385896 0.048907101 0.042483389
0.002286687 0.048850179 0.041922808
-0.0025948067 0.047842979 0.040833771
-0.0083107809 0.048051715 0.040737092
-0.013459072 0.04746449 0.040441215
-0.016565114 0.045394063 0.040185988
0.018029314 0.048131645 0.037868321
0.013344037 0.04897064 0.037910759
0.0082270177 0.049161911 0.037228703
0.0033119016 0.04961127 0.037379086
-0.0015831372 0.049076796 0.036689878
-0.00705291 0.047707558 0.035957158
-0.012249481 0.047456384 0.03584516
0.0018598506 0.049273312 0.032809854
-0.0014014771 0.049785972 0.03256917
0.042759601 0.031495396 0.068019211
-0.037759122 0.027825411 0.06531775
0.041619428 0.031999294 0.064237177
-0.034449674 0.030939158 0.059699237
0.039971329 0.032790128 0.059613883
0.037863247 0.034958903 0.059708178
-0.030596945 0.034703907 0.055671513
-0.032752596 0.032607492 0.055427372
0.036353398 0.035516623 0.055067182
0.033035956 0.037962917 0.054826796
-0.030000191 0.036157902 0.051174462
-0.032167539 0.033696886 0.050620615
0.031991288 0.038219038 0.05038327
0.028861217 0.040376309 0.050712407
-0.025178287 0.040272053 0.046983302
-0.028296228 0.038060363 0.047090352
-0.030275505 0.035832401 0.045153856
0.030787066 0.038562957 0.04616338
0.02829124 0.041195516 0.046140611
-0.019523889 0.041930914 0.043064952
-0.023212023 0.040851291 0.043641269
-0.027000446 0.039344367 0.041939199
0.026739459 0.042526606 0.041307092
0.022825208 0.045864109 0.040370643
-0.018934805 0.04296428 0.039488912
-0.021848604 0.041375335 0.037587523
-0.024954434 0.039890703 0.038293779
0.026327409 0.042683784 0.036782682
0.023004904 0.04563624 0.03702724
0.01654367 0.048243046 0.034733117
0.012438559 0.048418224 0.034687936
-0.0072232974 0.048113942 0.033488929
-0.012677334 0.047308862 0.033803225
-0.016835593 0.04427278 0.034487486
0.021616753 0.044866983 0.0320732
0.018336374 0.046684861 0.031714141
0.013431905 0.047757447 0.030993402
0.0084972801 0.047963619 0.03093642
0.0038949507 0.04851371 0.030981481
-0.0013372699 0.049747229 0.030954659
-0.0059673344 0.048420787 0.030855954
-0.011249617 0.046889842 0.030129492
-0.0154397 0.045353234 0.030724347
0.0037160157 0.047375619 0.027017832
0.00040781076 0.048360765 0.027716398
0.043269839 0.030032936 0.060671985
-0.037088428 0.026394542 0.055941105
0.042180855 0.030162577 0.056977212
-0.03400569 0.030932125 0.052453458
-0.035790756 0.028492089 0.052478433
0.042113315 0.030572657 0.052709043
0.038249362 0.033721332 0.05160445
-0.033296768 0.032031413 0.048164904
-0.036313638 0.029330488 0.048326433
0.04070906 0.032567982 0.047979176
0.037111584 0.034671608 0.048039317
0.034057517 0.036968652 0.047094524
-0.032598518 0.032771882 0.043567002
0.037606649 0.035177115 0.043673575
0.032608438 0.037727777 0.043452978
-0.028349381 0.038100418 0.038733423
