# .PCD v0.7 - Point Cloud Data file format
VERSION 0.7
FIELDS x y z
SIZE 4 4 4
TYPE F F F
COUNT 1 1 1
WIDTH 1306
HEIGHT 1
VIEWPOINT 0 0 0 1 0 0 0
POINTS 1306
DATA ascii
-0.011795759 -0.015272897 0.33320096
-0.011573255 0.013815787 0.33065134
-0.013672709 0.010582983 0.33068812
-0.012212217 -0.015262932 0.33016056
-0.012925923 0.013393383 0.32697746
-0.012719512 0.011958132 0.32681504
-0.015871167 0.0044637434 0.32646912
-0.016628623 0.00052407925 0.3247146
-0.016959488 -0.0030694942 0.32465822
-0.015591502 -0.014650349 0.32578534
-0.016125977 0.0012892631 0.32081962
-0.016966939 -0.0036078172 0.32075387
-0.017341673 -0.0086430982 0.32063997
-0.016295969 -0.013680693 0.31992841
-0.01485306 -0.01660198 0.31994379
-0.018551409 0.011121335 0.31520367
-0.018583715 0.0065297317 0.31608841
-0.018796802 0.0016676967 0.31636494
-0.01930064 -0.0033765475 0.31630948
-0.019644022 -0.0084123798 0.31618571
-0.0186795 -0.013448533 0.31550115
-0.017929494 -0.016774297 0.31395805
-0.02079612 0.014468316 0.31197155
-0.0220595 0.011234324 0.31282055
-0.022570431 0.006336573 0.313703
-0.022553444 0.0014216432 0.31445983
-0.022630751 -0.0032615999 0.31463107
-0.02254945 -0.0097169951 0.31424913
-0.022335052 -0.013565607 0.31332645
-0.021530569 -0.018650644 0.31140774
-0.021003723 -0.022766225 0.30922815
-0.020975471 -0.026092835 0.30799022
-0.023949265 0.015980545 0.30806839
-0.025981486 0.012474507 0.30952397
-0.024627686 -0.023222305 0.30681562
-0.022821784 -0.027672719 0.30542195
-0.026174128 0.020999983 0.30306968
-0.027170539 0.017083567 0.30483884
-0.026919901 -0.024319325 0.30444559
-0.026805162 -0.028151423 0.30205753
-0.02555728 -0.032009084 0.29995787
-0.028512001 0.02496187 0.2991311
-0.029307961 0.021996174 0.30013132
-0.02926451 0.019025432 0.30153024
-0.029845595 -0.029392246 0.29803059
-0.028636158 -0.032464631 0.29671878
-0.030670702 0.025876001 0.29542279
-0.033072829 0.022963826 0.29672977
-0.031576574 -0.032400191 0.29274482
-0.029428363 -0.035329007 0.29078954
-0.03268075 0.025961861 0.29112417
-0.035552144 0.022901777 0.29147905
-0.036239564 -0.029183708 0.28798237
-0.033937156 -0.032169275 0.28831479
-0.031529188 -0.035127942 0.28701282
-0.035119712 0.025633588 0.28636751
-0.037174165 0.02265653 0.28720292
-0.037471652 -0.029055294 0.285402
-0.036506057 -0.031931732 0.28398725
-0.034609973 -0.035337031 0.28235668
-0.037380815 0.026468981 0.28158364
-0.03953433 0.022888072 0.28277388
-0.040195525 -0.028281629 0.27932703
-0.038717866 -0.031705551 0.27948514
-0.036933422 -0.035361014 0.27841482
-0.038917661 0.026431501 0.27824074
-0.040983438 0.023162719 0.2778905
-0.04412967 0.020289684 0.27690783
-0.042385161 -0.027651649 0.27530897
-0.040639699 -0.031488582 0.27483475
-0.038677692 -0.034823176 0.27488655
-0.0423069 0.023017652 0.27313954
-0.044367611 0.019752404 0.27378258
-0.045311272 -0.022076227 0.27098757
-0.044221163 -0.026389413 0.27113286
-0.041670859 -0.030894492 0.26997766
-0.043664515 0.022182681 0.26951212
-0.045906425 0.018734884 0.26870292
-0.048286855 0.01355297 0.26820722
-0.049018443 0.010704598 0.26762956
-0.048434794 -0.017964639 0.26582143
-0.046979725 -0.021235459 0.26669061
-0.045937121 -0.025983091 0.26653123
-0.043751299 -0.029938005 0.265683
-0.046948373 0.017953927 0.26388919
-0.047954202 0.013786771 0.26399365
-0.049198568 0.0094565367 0.26401392
-0.050118268 -0.012065274 0.26296446
-0.049033344 -0.015965462 0.26267645
-0.046727657 -0.020576909 0.26175329
-0.045911133 -0.025832843 0.26166016
-0.045072556 -0.029481087 0.26184466
-0.048194885 0.016886789 0.26021287
-0.048473299 0.013992528 0.26020914
-0.049084067 0.0096934875 0.25949228
-0.050697446 0.0055270265 0.25992763
-0.051902294 -0.0010719249 0.25880092
-0.050536335 -0.0057140035 0.25913176
-0.050386429 -0.010468119 0.25912881
-0.04883182 -0.015511909 0.25803933
-0.049753308 0.009123954 0.25655201
-0.051072955 0.0043177563 0.25646311
-0.051384747 -0.00029935004 0.25470409
-0.051442802 -0.0051998352 0.25425708
-0.051206052 -0.0099640349 0.25420764
-0.0500983 -0.014346589 0.25485605
-0.052635491 -0.0050305096 0.2508153
-0.052501023 -0.0093533294 0.25051668
-0.01028204 0.011437461 0.3234458
-0.011313975 0.010941144 0.31915849
-0.013884306 0.006028505 0.31856877
-0.015596986 0.0037285646 0.31823349
-0.013160765 -0.018346716 0.31698957
-0.015324593 0.014837354 0.314013
-0.015937865 0.011451527 0.31605741
-0.015762448 0.0074164756 0.31693882
-0.016034365 -0.019093499 0.31441161
-0.016700387 0.020231297 0.30859488
-0.017896235 0.017192025 0.31053469
-0.018185318 -0.023732048 0.31003803
-0.019569397 0.021607408 0.30618152
-0.020887434 0.018256856 0.30823115
-0.020709872 -0.030352999 0.30528569
-0.022391796 0.025299527 0.30150485
-0.023482859 0.022366721 0.30355841
-0.025030494 0.027166594 0.29821295
-0.025166512 -0.034249522 0.29681233
-0.025763988 0.031202897 0.29341269
-0.027638197 0.0289241 0.29416767
-0.026272953 -0.037402343 0.2902641
-0.028359473 0.031424597 0.28904164
-0.030743659 0.02882234 0.28980842
-0.029214919 -0.03738144 0.28579333
-0.02739352 -0.039626781 0.2848081
-0.030553997 0.031669743 0.2844789
-0.032975435 0.028635506 0.2854898
-0.032244146 -0.037376873 0.2821728
-0.030038714 -0.039853889 0.27990359
-0.032479346 0.031930842 0.27978459
-0.034945309 0.029289953 0.28108671
-0.035019457 -0.03759671 0.27735579
-0.032642424 -0.039512727 0.27648997
-0.037051916 0.029046141 0.27583376
-0.036720991 -0.036474396 0.27200717
-0.034463465 -0.038950428 0.2721647
-0.039172947 0.02793945 0.27157575
-0.041245997 0.024987739 0.27166378
-0.040770113 -0.032746863 0.26838288
-0.037655354 -0.035771266 0.26745123
-0.040521026 0.027226526 0.26707572
-0.042538285 0.024088636 0.26708251
-0.042608619 -0.031927031 0.26415396
-0.040342152 -0.034802105 0.26318032
-0.043176591 0.02320715 0.26231083
-0.045422018 0.020759465 0.26262498
-0.045973957 -0.022149578 0.25944319
-0.045324922 -0.025771625 0.25891161
-0.04321444 -0.031110905 0.2589505
-0.041343987 -0.033914972 0.2588473
-0.043427765 0.02283188 0.25881818
-0.046608746 0.019609671 0.25853136
-0.048213124 0.014136183 0.2576268
-0.046498239 -0.020588525 0.25653335
-0.045243144 -0.025480408 0.25575891
-0.043354869 -0.029367145 0.25522506
-0.047205329 0.018354427 0.25501025
-0.048040807 0.01422359 0.25365716
-0.048684835 0.01017484 0.2530762
-0.049872756 0.0052620391 0.25280654
-0.051183105 0.0014014182 0.25200206
-0.050160348 -0.011618317 0.25158885
-0.049199343 -0.015726138 0.25167528
-0.046684742 -0.020111844 0.2512385
-0.045633793 -0.024462894 0.25217623
-0.048444688 0.0099711893 0.24864817
-0.050163448 0.0051946412 0.24834776
-0.051503599 0.00010628751 0.24881765
-0.052010596 -0.0049196449 0.24801028
-0.051828563 -0.010196031 0.24798915
-0.050431967 -0.015075409 0.24743968
-0.047359765 -0.018788312 0.24721864
-0.050514817 0.0048931628 0.24466452
-0.051496446 0.00014424635 0.24406257
-0.051602066 -0.0047534094 0.2439906
-0.051590979 -0.0098102549 0.24338955
-0.050998807 -0.014457096 0.2429859
-0.0089174509 0.012333209 0.32058054
-0.010487974 0.011035897 0.31750852
-0.014145195 0.018692391 0.31055662
-0.016713619 0.023282114 0.30638909
-0.019545257 0.028129116 0.30096287
-0.021661103 0.029057655 0.29805619
-0.024515033 0.033510871 0.2921496
-0.026878715 0.03369265 0.28845736
-0.026167154 0.037565436 0.28213131
-0.029202938 0.033931028 0.28394654
-0.027292788 0.03651626 0.27910525
-0.031088531 0.03419695 0.2792207
-0.029070139 -0.042203959 0.27418754
-0.033107102 0.033728223 0.27451301
-0.030945122 -0.04160291 0.26968151
-0.034775138 0.033575632 0.2698735
-0.036627412 0.030982826 0.27044371
-0.033947766 -0.039861571 0.26535308
-0.031667829 -0.043296028 0.26401436
-0.03604424 0.033111379 0.26502296
-0.038479209 0.030106641 0.26530251
-0.037663758 -0.037078429 0.26167831
-0.035282969 -0.039264131 0.26068687
-0.039878309 0.029358551 0.26057631
-0.041461468 0.025295369 0.26078403
-0.03834331 -0.035867669 0.25611714
-0.035746455 -0.038515281 0.25650328
-0.040530086 0.028010119 0.25623503
-0.042392313 0.024630908 0.25651178
-0.041983545 -0.030826364 0.25318667
-0.039174318 -0.034571823 0.25190955
-0.040871978 0.027636338 0.25275716
-0.043092191 0.024078649 0.25210559
-0.044947863 0.020080244 0.25124353
-0.046875536 0.015997075 0.25042248
-0.04596889 -0.021797631 0.24878517
-0.044938326 -0.024926096 0.24868336
-0.042685747 -0.029928055 0.24823821
-0.04061377 -0.033662289 0.24775681
-0.044868231 0.019319577 0.24655077
-0.0470137 0.014722227 0.24711725
-0.048477888 0.010740831 0.24647069
-0.047053993 -0.02036364 0.24510509
-0.045322299 -0.024586894 0.24414277
-0.04396224 -0.029531315 0.24329141
-0.04632026 0.018579487 0.24360931
-0.047844708 0.014430751 0.24236083
-0.049073458 0.010599392 0.24221936
-0.050463378 0.0058207023 0.24158186
-0.051075101 0.00083823816 0.24074957
-0.050654471 -0.0046132156 0.24036989
-0.050912857 -0.0096778842 0.23969641
-0.05041486 -0.015524835 0.23994711
-0.047121882 -0.019990548 0.23954317
-0.046200931 -0.024259608 0.23903757
-0.045093954 -0.027878195 0.23995766
-0.048187971 0.013766904 0.23771128
-0.049335301 0.01038137 0.237064
-0.050854564 0.0057519446 0.23712355
-0.051266491 0.00064534257 0.23709136
-0.051179886 -0.0044489135 0.23677844
-0.0519256 -0.0095442766 0.23693675
-0.051650286 -0.014634621 0.23651683
-0.049075007 -0.019202642 0.23549661
-0.050614536 0.0051912419 0.23360509
-0.050874114 0.00046030743 0.23308781
-0.051858187 -0.0044426699 0.23228878
-0.052332282 -0.009343558 0.23215371
-0.051227093 -0.013531812 0.23178437
-0.050285041 -0.016710818 0.23228323
-0.026168764 0.038366992 0.27681926
-0.027584612 0.038473077 0.27200317
-0.030131459 -0.0419777 0.26658186
-0.028492272 0.038754411 0.26754642
-0.031199157 0.035750892 0.26711595
-0.031391084 -0.041848823 0.26394975
-0.032472789 0.03511402 0.26296023
-0.033030748 -0.041345935 0.25856915
-0.031076491 -0.044189055 0.25818089
-0.035068154 0.033634592 0.25869328
-0.033856571 -0.040201113 0.25356618
-0.03225106 -0.043063208 0.2544404
-0.035553873 0.03359488 0.25355241
-0.03774333 0.030962933 0.25434116
-0.037266612 -0.036834843 0.25077772
-0.035280228 -0.039114278 0.24960247
-0.036460042 0.033759803 0.25071144
-0.038557351 0.029949024 0.24920034
-0.04077667 0.025819819 0.24895284
-0.039013207 -0.03564363 0.24567962
-0.036301255 -0.038736962 0.24628159
-0.040032566 0.029151246 0.24460089
-0.041487038 0.025191341 0.24463201
-0.0430516 0.021760061 0.24419838
-0.043281496 -0.031891171 0.24097541
-0.040581822 -0.034780886 0.24122262
-0.041680455 0.024438817 0.24078766
-0.043575644 0.020924769 0.23955539
-0.045706511 0.016874479 0.23927507
-0.045775175 -0.025778897 0.2359814
-0.044372082 -0.029785305 0.23722485
-0.042290509 -0.033645961 0.23614469
-0.044498205 0.020294648 0.23541075
-0.046113133 0.016339958 0.23483908
-0.048071086 0.011969584 0.23475194
-0.04748708 -0.020489156 0.2330187
-0.046276569 -0.02420092 0.2329821
-0.044381559 -0.028079972 0.23238569
-0.047054648 0.015640464 0.23042411
-0.048285484 0.01109185 0.23027745
-0.049610555 0.0062673031 0.22997278
-0.050423443 0.0011609899 0.22970641
-0.051146924 -0.0036624919 0.22873509
-0.050893843 -0.0092084007 0.22796488
-0.049609303 -0.013924212 0.22765464
-0.047497094 -0.018582519 0.22873682
-0.045859933 -0.024090555 0.2289547
-0.048851848 0.0099704443 0.22607902
-0.049798787 0.0063565779 0.22474307
-0.050587356 0.0012003569 0.22493595
-0.050525546 -0.0035029321 0.22482651
-0.050156057 -0.0085319141 0.22402799
-0.04933399 -0.013304976 0.22367024
-0.050704956 0.004296252 0.2217631
-0.051523209 0.0013812477 0.22124198
-0.050874949 -0.0030392453 0.22105885
-0.050858378 -0.0078572659 0.22049648
-0.028626144 0.038918361 0.26514891
-0.028653622 0.039206095 0.26103678
-0.030278563 0.036260344 0.26006439
-0.029228568 0.039287068 0.25607026
-0.030478001 0.035963476 0.25566229
-0.032788396 0.035242561 0.25216901
-0.033441126 -0.041397832 0.24850544
-0.031119347 -0.044455763 0.24711156
-0.035286605 0.034579549 0.24778071
-0.038144052 0.032460056 0.2473734
-0.034187376 -0.03975625 0.24277949
-0.031253695 -0.044382367 0.24383637
-0.035402119 0.034270883 0.24345723
-0.03902483 0.031735662 0.24306345
-0.038891494 -0.036447886 0.23832074
-0.035830796 -0.038463388 0.23863822
-0.039588153 0.029761136 0.23827198
-0.041778207 0.025902398 0.23829857
-0.040011704 -0.035996087 0.23424932
-0.03775543 -0.037867121 0.23340118
-0.042111635 0.025442895 0.23344442
-0.044293284 0.021874323 0.23368737
-0.043484569 -0.02938433 0.23029053
-0.041463852 -0.033328798 0.23016587
-0.038734794 -0.037728306 0.22971904
-0.042637229 0.024631273 0.22921145
-0.04434675 0.021646297 0.22918338
-0.046554983 0.017545758 0.2293891
-0.047911108 0.012852228 0.22738177
-0.046054304 -0.020314541 0.22629514
-0.045342684 -0.024029855 0.22637251
-0.043647587 -0.028345246 0.22640884
-0.041492641 -0.03158664 0.22649944
-0.044464529 0.020408396 0.2249274
-0.046791673 0.016716199 0.22437811
-0.048862696 0.011725659 0.22426194
-0.049538791 -0.01488644 0.22179443
-0.046934068 -0.018827781 0.22245678
-0.044819534 -0.023402736 0.22144619
-0.047667444 0.015140112 0.2192513
-0.049079061 0.011792283 0.21948227
-0.050646663 0.0067968215 0.21999481
-0.051734328 0.0014959605 0.21881315
-0.051371396 -0.0029433675 0.21905294
-0.051327527 -0.0085203433 0.2183983
-0.05056417 -0.01328293 0.21906766
-0.048183203 -0.01754896 0.21765757
-0.046639979 -0.020730924 0.21722746
-0.049053431 0.010491758 0.2159698
-0.049722791 0.006821047 0.21531975
-0.051008582 0.0015603019 0.21433073
-0.051163256 -0.0027247563 0.21396911
-0.051397026 -0.0078924159 0.21384349
-0.050777018 -0.012932231 0.21344829
-0.048996925 -0.016087931 0.21370903
-0.051020384 -0.0069765192 0.20935914
-0.029031336 0.040157687 0.25434223
-0.02854681 0.039770786 0.2503612
-0.02978766 0.036917545 0.25066191
-0.028445363 0.038724631 0.24667335
-0.031274438 0.036637962 0.2453866
-0.03140974 -0.041327316 0.2398721
-0.033610046 0.035410438 0.24050847
-0.032732844 -0.040576763 0.2360698
-0.029802859 -0.043316964 0.23579153
-0.034452319 0.035124287 0.2366316
-0.036455572 0.032767378 0.23578048
-0.034412324 -0.04023147 0.23141718
-0.038293183 0.031063471 0.23149058
-0.0405007 0.027494244 0.23154852
-0.039638996 -0.035413072 0.22779998
-0.037186801 -0.038595594 0.22685599
-0.039884269 0.029851153 0.22739539
-0.041674078 0.026651651 0.22766846
-0.041866601 -0.030003089 0.22338563
-0.040312946 -0.033240717 0.22382015
-0.038188636 -0.036707859 0.2229805
-0.041440308 0.026098866 0.22285667
-0.043274403 0.022360362 0.22228155
-0.045179784 0.019141419 0.22099864
-0.043813527 -0.025361437 0.21961933
-0.04196465 -0.028398916 0.21924314
-0.040262103 -0.031929728 0.21864453
-0.044117451 0.021827266 0.21764746
-0.046208084 0.01800831 0.2178939
-0.047305107 -0.019155584 0.21512568
-0.045450509 -0.023385447 0.21535832
-0.042965353 -0.027719967 0.21441609
-0.044725835 0.021040125 0.21393681
-0.046726823 0.01702036 0.21353874
-0.048293412 0.01228189 0.21366978
-0.049442768 0.0069969888 0.2117151
-0.050125659 0.0033202686 0.21107429
-0.049530864 -0.014448331 0.20980403
-0.047841311 -0.017965615 0.21181506
-0.045608699 -0.022338789 0.21067497
-0.047731876 0.015784118 0.20969307
-0.048819125 0.012237695 0.20838004
-0.049796164 0.007201103 0.20761099
-0.050290406 0.0019964811 0.20764434
-0.050531983 -0.0024559766 0.20756295
-0.050369442 -0.0077060205 0.20703748
-0.050270855 -0.012834282 0.20687234
-0.048485041 -0.017333098 0.20642477
-0.046070039 -0.020427044 0.20741147
-0.049246609 0.011853888 0.20403638
-0.050444484 0.0073308623 0.20337704
-0.050649166 0.0025369406 0.20250231
-0.050808132 -0.0022325597 0.20253095
-0.050519526 -0.007434417 0.20208687
-0.050414264 -0.012638633 0.20175582
-0.05034703 -0.015643861 0.20243296
-0.029650867 0.03750097 0.2421838
-0.028844893 0.037786581 0.23835772
-0.031549513 0.036969293 0.23346981
-0.031767368 -0.044070695 0.22974533
-0.033756375 0.035853688 0.22936264
-0.035424709 0.033791207 0.22814175
-0.034637034 -0.040814646 0.2246857
-0.03240025 -0.043738458 0.22433978
-0.034857213 0.035549372 0.22446814
-0.036376476 0.032906324 0.22495627
-0.036005557 -0.0391711 0.22126114
-0.033633828 -0.041265439 0.21979412
-0.037041068 0.03123321 0.22075677
-0.040079892 0.027354635 0.21947393
-0.038854361 -0.033933058 0.21657488
-0.036843181 -0.037375774 0.216039
-0.040200412 0.026583333 0.21525255
-0.042015612 0.023516372 0.21476457
-0.041671455 -0.029194683 0.21184811
-0.039555192 -0.03277427 0.21156764
-0.037965417 -0.03620578 0.21088791
-0.040754378 0.025762543 0.21094516
-0.042610347 0.022929989 0.21081918
-0.044896007 0.018995227 0.21046579
-0.043979228 -0.025017358 0.20852339
-0.042027235 -0.028076272 0.2080664
-0.040024459 -0.03165428 0.20784879
-0.043613672 0.02206938 0.20671487
-0.045695245 0.01814167 0.20608249
-0.048262417 0.014029215 0.20528901
-0.045723259 -0.022211093 0.20450035
-0.043349504 -0.026369616 0.20284817
-0.046663523 0.01724105 0.20141488
-0.048420191 0.012956216 0.20133796
-0.04978466 0.0090360409 0.2007305
-0.048237503 -0.017541397 0.19991595
-0.046144187 -0.021436352 0.19917956
-0.048388898 0.012753312 0.19704694
-0.049374342 0.0084752003 0.19693989
-0.049922109 0.0032323536 0.19701356
-0.05009973 -0.001996259 0.19685704
-0.049751341 -0.0067785089 0.19657156
-0.049710631 -0.011896585 0.19594985
-0.048529267 -0.016759079 0.19534555
-0.049742818 0.0082877195 0.19319865
-0.050707102 0.00366003 0.19240624
-0.05039233 -0.0017697742 0.19177049
-0.049802542 -0.0062933196 0.1920518
-0.049966753 -0.011437454 0.19159868
-0.049150944 -0.016060065 0.19202742
-0.030148506 0.038281024 0.23054969
-0.027682066 0.040073626 0.22753277
-0.03105253 0.038108088 0.2271767
-0.030871928 -0.045460012 0.2214509
-0.032111108 0.037982933 0.22302204
-0.031241715 -0.0436249 0.21830103
-0.033042789 0.036765374 0.2182903
-0.035837531 0.032692418 0.21796879
-0.036057532 -0.038973875 0.2126646
-0.032637179 -0.041451357 0.21401751
-0.033203661 0.036232177 0.21487272
-0.035850227 0.031877536 0.21401981
-0.037603617 0.028718188 0.21271139
-0.037138641 -0.038242951 0.20951241
-0.03448534 -0.040797491 0.2095584
-0.036019921 0.030476335 0.20924109
-0.039381325 0.027388677 0.20933685
-0.03931427 -0.033130739 0.20560402
-0.037449002 -0.037035234 0.20508915
-0.040952086 0.026120748 0.20496234
-0.043181062 0.023593701 0.20472381
-0.04218632 -0.029019892 0.20200714
-0.039969623 -0.032488324 0.20136213
-0.038478017 -0.035547558 0.20030239
-0.040906131 0.026334718 0.20142972
-0.043300092 0.023379628 0.19980696
-0.045671046 0.019601054 0.1996077
-0.045358896 -0.02234095 0.19639236
-0.04357475 -0.027115151 0.19707745
-0.041130722 -0.031439226 0.19634244
-0.043058872 0.022122804 0.19547421
-0.045454502 0.018141842 0.19515076
-0.048046887 0.013846475 0.19462436
-0.047080219 -0.018391628 0.19237575
-0.045195162 -0.021482065 0.19280648
-0.043296039 -0.025306374 0.19231445
-0.046364486 0.016350627 0.19015273
-0.048263669 0.01327541 0.19119379
-0.049815536 0.0090784756 0.19089901
-0.050174952 0.0038619929 0.18897223
-0.050276339 -0.0016143216 0.18816772
-0.050263584 -0.0061508869 0.18881476
-0.050379515 -0.01149935 0.18848991
-0.04794842 -0.016957689 0.18894997
-0.046183884 -0.020179302 0.18862268
-0.047665775 0.01272663 0.18723649
-0.048838258 0.0088173421 0.1862253
-0.049555659 0.0034960986 0.18509465
-0.050596714 -0.0014632946 0.18482566
-0.050820649 -0.0059718494 0.18474078
-0.050826013 -0.011228771 0.18447724
-0.048691988 -0.015995342 0.18442678
-0.050033152 -0.0013017008 0.18090445
-0.050511956 -0.005787971 0.18009225
-0.050732493 -0.01105987 0.17996767
-0.049634874 -0.014864062 0.17995942
-0.028440297 0.041255072 0.22108948
-0.030056834 0.039231155 0.2166853
-0.029937267 -0.043835476 0.2123279
-0.031958044 0.037544526 0.21195853
-0.03395623 0.033936366 0.21111536
-0.030558825 -0.042780299 0.20679602
-0.033486068 0.035337307 0.20533988
-0.035021603 0.032661978 0.20700234
-0.036549807 0.029101573 0.20685428
-0.035084307 -0.038779259 0.20161057
-0.032438755 -0.040443413 0.20170009
-0.035937071 0.031896554 0.20281249
-0.037642181 0.028558079 0.20308417
-0.035729229 -0.037918456 0.19851679
-0.036710799 0.031156495 0.19822896
-0.039028108 0.028106108 0.19771898
-0.04193598 0.025090672 0.19670078
-0.039490521 -0.033536557 0.19431895
-0.03765434 -0.036086619 0.1939722
-0.042217135 0.023978107 0.19304925
-0.043666124 0.020789085 0.1922375
-0.042556763 -0.026633609 0.190191
-0.039914906 -0.031210873 0.18918279
-0.037531972 -0.036883775 0.19081259
-0.043273985 0.02383459 0.18880787
-0.044704258 0.019434966 0.18926269
-0.043874264 -0.02222779 0.18626127
-0.042503476 -0.025895379 0.18556583
-0.041200757 -0.029347498 0.18501559
-0.04436183 0.023365971 0.1842424
-0.045375586 0.018949453 0.18430668
-0.047051787 0.013640384 0.18421447
-0.048051715 0.0095704282 0.1824145
-0.048694849 0.0046706344 0.18213248
-0.047409773 -0.017634373 0.18151531
-0.045128942 -0.02114049 0.18211278
-0.042773783 -0.024998493 0.18131065
-0.045854032 0.01801485 0.18053117
-0.047055662 0.013708259 0.17928973
-0.048304737 0.0093868049 0.17853236
-0.049349487 0.0040712184 0.17894155
-0.05005151 -0.0011849987 0.17823496
-0.050268352 -0.0056768176 0.17725179
-0.050408661 -0.010959056 0.17707583
-0.048578143 -0.016501483 0.17717502
-0.046108127 -0.020426642 0.17679739
-0.048647404 0.0091099506 0.17393807
-0.050035655 0.0043088621 0.17400491
-0.050830007 -0.00099893718 0.17425808
-0.050815523 -0.0055334088 0.17401943
-0.050597548 -0.010376026 0.17381132
-0.049373865 -0.015569021 0.17240137
-0.048176765 -0.019168254 0.17159757
-0.05017972 0.002956697 0.17041796
-0.050777972 -0.0008407241 0.17062247
-0.050790846 -0.0049879518 0.16996863
-0.050630689 -0.0099291699 0.17006618
-0.049895585 -0.014478081 0.16934979
-0.028867662 0.039285313 0.20897233
-0.029830694 0.03799599 0.20506093
-0.031172633 0.036129057 0.20000106
-0.033932507 0.033648685 0.19991758
-0.031311989 -0.041901391 0.19564056
-0.034237564 0.033333436 0.19568259
-0.035168231 -0.038577046 0.19282761
-0.033634245 -0.040921975 0.19176796
-0.035184681 0.032288641 0.19289672
-0.037238061 0.02871538 0.19076723
-0.03869909 -0.033678506 0.18635261
-0.035943151 -0.036670722 0.18729007
-0.034661531 -0.040800612 0.18883866
-0.038571358 0.028076969 0.18583399
-0.041686177 0.025737181 0.18588954
-0.040089726 -0.031406749 0.18340504
-0.037965238 -0.034006488 0.18274024
-0.039908648 0.027567882 0.18125379
-0.042432904 0.025558975 0.18231425
-0.042495847 -0.026323039 0.17944986
-0.040719509 -0.030159101 0.17906392
-0.038343668 -0.033510689 0.17895681
-0.042975962 0.024138372 0.17823374
-0.044710517 0.019583385 0.17751905
-0.045928597 0.015083092 0.17607632
-0.045687795 -0.022416204 0.17522407
-0.043415844 -0.025394149 0.17504382
-0.041720092 -0.029036202 0.17457625
-0.04329139 0.023349896 0.17417428
-0.044689715 0.019555891 0.17238221
-0.046765506 0.014262612 0.17235941
-0.04836762 0.010725561 0.17202777
-0.047192574 -0.021460019 0.17083466
-0.044861555 -0.024955891 0.17003536
-0.045860171 0.017537 0.16829312
-0.046810508 0.014005535 0.16752997
-0.047898233 0.0099366633 0.16743907
-0.048915446 0.0051853391 0.16767359
-0.049121141 -0.00026060699 0.16669875
-0.049126983 -0.0055606109 0.16638356
-0.049089968 -0.0098259123 0.16632539
-0.048695624 -0.015166179 0.16624868
-0.046944261 -0.020192835 0.16665149
-0.045667768 -0.023658399 0.16608655
-0.047939479 0.010116712 0.16382742
-0.048616469 0.0050709541 0.162808
-0.048770189 0.00024797895 0.16242465
-0.048491538 -0.0051111826 0.16251656
-0.048026264 -0.0091898749 0.16230381
-0.047548711 -0.01353683 0.16237438
-0.027324557 0.039752699 0.2027663
-0.027762532 0.038041331 0.19759306
-0.030244887 0.036954429 0.1936751
-0.030142367 -0.0433698 0.18950278
-0.030334592 0.037184928 0.19014978
-0.032616615 0.033574346 0.18906471
-0.033633173 -0.03769679 0.18387824
-0.030875027 -0.041188419 0.18468165
-0.033563852 0.032604218 0.1844129
-0.03600347 0.030510813 0.18433788
-0.034625709 -0.036169495 0.17971331
-0.03201896 -0.038486376 0.18102437
-0.037207603 0.030012235 0.17965338
-0.039184213 -0.031865243 0.17596593
-0.036276042 -0.035069183 0.17575306
-0.039129674 0.028528541 0.17573065
-0.041488528 0.025844172 0.17554796
-0.039832473 -0.031130183 0.17243463
-0.037985623 -0.034107834 0.17145237
-0.039038777 0.028161064 0.17164648
-0.041661382 0.025270674 0.1711598
-0.044579446 0.021309581 0.16945982
-0.043028533 -0.026878115 0.16782483
-0.041130662 -0.029876407 0.16788602
-0.038899064 -0.033218529 0.1684483
-0.042065501 0.024269972 0.16734058
-0.045067608 0.019963687 0.16606301
-0.04671526 0.015630879 0.16572368
-0.046356618 -0.017427064 0.16320923
-0.045373917 -0.020825423 0.16311306
-0.043188035 -0.02489062 0.16291788
-0.041401446 -0.029139783 0.16389981
-0.044709623 0.019055871 0.16165313
-0.046372473 0.014645579 0.16139832
-0.047463477 0.01024742 0.1611582
-0.048153341 0.0066947653 0.16074651
-0.048710823 0.00034481415 0.16019249
-0.048394382 -0.0049980213 0.15971002
-0.04779923 -0.0098828198 0.16028482
-0.047081888 -0.014438407 0.15965968
-0.044622421 -0.019728642 0.15887547
-0.046118319 0.013513803 0.15726006
-0.046837389 0.010152013 0.15684104
-0.047991276 0.0058817896 0.15630379
-0.049195409 0.00050005259 0.15685403
-0.048659086 -0.0048493524 0.15621978
-0.048088491 -0.0094409632 0.15560108
-0.047456086 -0.014039823 0.15493995
-0.048270762 0.0045133191 0.15273339
-0.049043894 0.00037002133 0.1522631
-0.048177242 -0.004695321 0.15220758
-0.048390329 -0.0098710181 0.15098339
-0.048763394 -0.01306551 0.15033913
-0.028236806 0.039319009 0.18679276
-0.028085291 -0.041806147 0.18201411
-0.029524863 0.038784891 0.18267369
-0.0320158 0.034695767 0.18276143
-0.029497385 -0.040098894 0.17793718
-0.03037405 0.03831438 0.17890859
-0.033198237 0.034225047 0.17767137
-0.034947276 -0.036606938 0.1730085
-0.031085432 -0.040038906 0.17284921
-0.034520984 0.033587787 0.17264432
-0.036827087 0.03078112 0.17353696
-0.035064995 -0.036517251 0.1694423
-0.033106565 -0.038531188 0.16853273
-0.035459697 0.032988556 0.16955844
-0.037540019 0.030101925 0.16870645
-0.036716402 -0.034975134 0.16487575
-0.033836842 -0.038022913 0.16490617
-0.038515687 0.029624052 0.16465285
-0.040875673 0.025973547 0.16480476
-0.042349517 0.022487957 0.16254571
-0.04143697 -0.026214235 0.16009542
-0.039197385 -0.030140121 0.16042271
-0.037107229 -0.033640265 0.16114146
-0.040506005 0.025515188 0.16014755
-0.042706192 0.020987285 0.15832913
-0.044382095 0.01655319 0.15808302
-0.044485629 -0.019309282 0.15634981
-0.041912854 -0.025053199 0.15617096
-0.04040128 -0.029067602 0.15548101
-0.043824613 0.01930983 0.15476051
-0.045509458 0.015373033 0.15485969
-0.046488762 0.010977249 0.15415075
-0.044827938 -0.018985078 0.15308705
-0.042930543 -0.024095386 0.15135393
-0.041698158 -0.02803364 0.15217453
-0.044759631 0.018476792 0.15102357
-0.04578197 0.015449707 0.14971286
-0.046447575 0.010801504 0.14993808
-0.047369361 0.0063596792 0.15011853
-0.048244655 0.0012842076 0.14921606
-0.048176467 -0.0045815283 0.14943221
-0.048412025 -0.0084248455 0.14940265
-0.047606468 -0.015377228 0.14942607
-0.045701087 -0.018476985 0.1479573
-0.044131756 -0.022138871 0.14793581
-0.046254575 0.014854441 0.14628088
-0.046724021 0.010705854 0.14565217
-0.04704988 0.0063827387 0.14547592
-0.047953665 0.0012107095 0.1450817
-0.048550904 -0.0040774313 0.14487785
-0.049060643 -0.0090152333 0.14517343
-0.048842013 -0.013634701 0.14479011
-0.046275198 -0.016802423 0.14471191
-0.049061477 -0.0039803875 0.14061996
-0.049663782 -0.0090033533 0.1402241
-0.049161851 -0.013164365 0.14055362
-0.029052615 0.039719671 0.17585617
-0.030698657 0.045593392 0.16894042
-0.029270709 0.038734503 0.17104709
-0.032250643 0.036050014 0.17130125
-0.031478226 -0.040667333 0.16654646
-0.033594787 0.034978978 0.16637033
-0.032516539 -0.039584715 0.16212392
-0.034552097 0.033867009 0.16209006
-0.036726356 0.031386193 0.16171062
-0.035531223 -0.035197068 0.15817437
-0.032858968 -0.038295474 0.15732786
-0.037380278 0.0301212 0.15802133
-0.039322436 0.026709445 0.15703341
-0.038133264 -0.031375725 0.1551649
-0.036287487 -0.034534588 0.15376812
-0.03728044 0.029257622 0.15392402
-0.039153576 0.026162244 0.1531699
-0.041686118 0.022047017 0.1522024
-0.042068005 -0.026375279 0.14879191
-0.040277839 -0.02991854 0.14946198
-0.036786139 -0.033375546 0.14981872
-0.039572477 0.025357585 0.149057
-0.041892827 0.021246683 0.147154
-0.043295383 -0.024509199 0.14558306
-0.041278481 -0.029202498 0.14460707
-0.042952836 0.019958187 0.14298975
-0.045463383 0.016003639 0.1433793
-0.046586096 0.011531341 0.14307088
-0.047068596 0.006514465 0.14268962
-0.045609415 -0.018478844 0.14206016
-0.043816626 -0.022966187 0.14081949
-0.042285323 -0.027155656 0.14017022
-0.044946015 0.015605996 0.13930452
-0.046151161 0.011162166 0.13875267
-0.047026038 0.0066923979 0.13891196
-0.04777813 0.0020306758 0.13920996
-0.048426867 -0.0025703688 0.13831189
-0.048729658 -0.007182606 0.13754451
-0.048207223 -0.013774843 0.13731611
-0.045285761 -0.01792518 0.13669232
-0.043805778 -0.022851896 0.13705584
-0.046258569 0.010774243 0.13479903
-0.047397017 0.0064928564 0.13377386
-0.047905087 0.002279609 0.13365644
-0.048605621 -0.0031583612 0.13388565
-0.04905355 -0.0085846195 0.13393536
-0.048129976 -0.013051976 0.13329047
-0.045873225 -0.016424745 0.13317108
-0.048501194 0.006323406 0.13049632
-0.048811436 0.002154903 0.12975314
-0.048801124 -0.0018194882 0.12983307
-0.048144519 -0.0092163915 0.12946802
-0.027894139 0.041400537 0.16954961
-0.0292539 0.040397115 0.16474754
-0.030095458 -0.041202527 0.15860534
-0.029954731 0.038841862 0.15930113
-0.032189548 0.036171343 0.15980759
-0.030869424 -0.040460702 0.1550658
-0.029174387 -0.042727198 0.15420091
-0.033334732 0.035032969 0.15555978
-0.035140574 0.03232279 0.15543428
-0.032274544 -0.03935523 0.15083572
-0.033693016 0.03470755 0.15114924
-0.036299109 0.031194206 0.15125349
-0.03603375 -0.034911197 0.14736262
-0.03325367 -0.038177755 0.14718774
-0.036865532 0.030736446 0.14684659
-0.039048612 0.026771542 0.14611018
-0.039714038 -0.030938566 0.14133054
-0.037427604 -0.034033775 0.14359313
-0.037758648 0.029908471 0.14302343
-0.0395751 0.026621651 0.14142147
-0.04183495 0.022670746 0.14109087
-0.04145056 -0.029734746 0.13820499
-0.03869158 -0.032783329 0.13826907
-0.042300045 0.021475062 0.13712704
-0.043869197 0.017279362 0.13613266
-0.045393765 0.013039465 0.13618958
-0.044931412 -0.019607075 0.13423568
-0.04395324 -0.022763126 0.13433141
-0.042718887 -0.027804453 0.13434279
-0.041078091 -0.031578038 0.13242862
-0.04430598 0.016839536 0.13219318
-0.046324193 0.01189359 0.13246498
-0.046969533 0.0085594142 0.13235438
-0.047306776 -0.014728014 0.13049012
-0.045852065 -0.018103484 0.1309405
-0.044479549 -0.022609141 0.12997344
-0.043004751 -0.027114473 0.12924108
-0.045399189 0.014985085 0.12869555
-0.046928644 0.011909035 0.12773734
-0.048202991 0.0074458974 0.12789279
-0.049148262 0.0029624768 0.12747043
-0.048475385 -0.0034776223 0.12737748
-0.047826827 -0.0081230449 0.12684786
-0.047394216 -0.013038286 0.12683541
-0.046521246 -0.01772048 0.12597251
-0.044949055 -0.022149228 0.12576437
-0.043895006 -0.025630429 0.12559658
-0.047417223 0.011301528 0.12424242
-0.048954308 0.0074490062 0.12325794
-0.049691975 0.002754546 0.12356454
-0.049504936 -0.0019180669 0.12319636
-0.048501313 -0.0073680249 0.12219316
-0.047906041 -0.012644839 0.12173653
-0.046828449 -0.01680997 0.12242123
-0.049359798 0.0060553863 0.11965424
-0.049888074 0.0025513091 0.11938936
-0.049678862 -0.001415406 0.11875129
-0.048946381 -0.0064209723 0.11825293
-0.02839011 0.041120797 0.15753889
-0.028130591 0.040061433 0.15346903
-0.030173182 0.037326496 0.15234995
-0.032410204 0.035470672 0.1478093
-0.031148136 -0.039585814 0.14406091
-0.032829285 0.03461507 0.14458883
-0.034694493 0.032544978 0.1435605
-0.035539091 -0.035805669 0.14008832
-0.032441795 -0.037938368 0.14021349
-0.035651386 0.031713538 0.13975948
-0.038109303 0.028550074 0.13941598
-0.036476851 -0.034639828 0.13701558
-0.034454703 -0.036691323 0.13512868
-0.0361166 0.03090743 0.13560656
-0.038594306 0.027391613 0.13566184
-0.040833592 0.023593277 0.13411999
-0.038754463 -0.033899933 0.13295403
-0.03591156 -0.036207695 0.13122287
-0.039114535 0.027022786 0.13080168
-0.041258156 0.022778891 0.12993199
-0.043159842 0.01888106 0.12918961
-0.042139232 -0.028074451 0.12612453
-0.039908409 -0.031910703 0.12734061
-0.039842665 0.026098102 0.12717175
-0.041263759 0.022538718 0.12481594
-0.043183982 0.017740734 0.12514889
-0.044215083 -0.022788696 0.12262103
-0.041716337 -0.027196709 0.12203318
-0.039128125 -0.032084201 0.12376794
-0.043652892 0.017174814 0.12059104
-0.046394348 0.0124617 0.12108767
-0.047139466 -0.014331398 0.11893594
-0.045842111 -0.017744958 0.11918861
-0.043785572 -0.022085443 0.11826158
-0.042653441 -0.025439676 0.11702889
-0.044770896 0.015600001 0.11674875
-0.04632467 0.012036654 0.1160599
-0.047801673 0.0079553621 0.11643213
-0.049003482 0.0033868693 0.11618084
-0.049503565 -0.0020084463 0.11599618
-0.048790395 -0.0075095748 0.11591858
-0.04774636 -0.012627822 0.11561608
-0.045679271 -0.017074596 0.11502963
-0.044328928 -0.02136049 0.11459661
-0.047038078 0.011095156 0.11239552
-0.048111737 0.007458433 0.11172289
-0.049482763 0.0032711022 0.11189413
-0.049572349 -0.0014367072 0.11172891
-0.048605204 -0.0067145047 0.11092252
-0.047883093 -0.011633691 0.10996461
-0.048945844 0.00030622946 0.10746455
-0.026878059 0.037790544 0.14637688
-0.030301452 0.035886064 0.14197195
-0.02995038 -0.039187495 0.13701814
-0.027922511 -0.040871654 0.13649154
-0.031873822 0.035093352 0.1373044
-0.034155488 0.033492275 0.13690633
-0.031430662 -0.039022338 0.13329092
-0.029937923 -0.041287895 0.1317589
-0.032542288 0.035350956 0.13300395
-0.034627974 0.032688063 0.13273978
-0.033595741 -0.038403798 0.12862682
-0.031520009 -0.041027702 0.12879381
-0.035494506 0.031954538 0.12847525
-0.038199782 0.02916687 0.12902707
-0.037816107 -0.033747941 0.12466508
-0.034342766 -0.036562905 0.1246115
-0.037275434 0.031027235 0.12461352
-0.039044261 0.028039455 0.12453118
-0.04079181 0.024242938 0.12263557
-0.039761007 -0.028768163 0.11861783
-0.038122594 -0.032281112 0.12056363
-0.038654685 0.027056936 0.11993897
-0.04105401 0.023176245 0.11881983
-0.043241501 0.019076169 0.11821395
-0.043363392 -0.023795564 0.11569929
-0.041498899 -0.027239248 0.11609596
-0.039174139 -0.03082113 0.11551267
-0.041215122 0.022795085 0.11545873
-0.043361723 0.018120456 0.11389589
-0.04485929 0.014170173 0.1138382
-0.04510814 -0.01770262 0.11196488
-0.043815851 -0.022305582 0.11168057
-0.042379677 -0.026668176 0.11120069
-0.040702283 -0.030114248 0.11149484
-0.04376471 0.017148007 0.10976958
-0.04561764 0.012812062 0.10947615
-0.047704816 0.0091336248 0.10956013
-0.046794593 -0.013964326 0.10806531
-0.044964015 -0.017167225 0.10751039
-0.043732762 -0.021641377 0.1075412
-0.04235673 -0.025168993 0.1071226
-0.045272827 0.011433649 0.10524637
-0.046974301 0.0080658598 0.10496575
-0.048398077 0.0035505234 0.10525984
-0.048442781 -0.0013663812 0.10480851
-0.047814846 -0.005904336 0.10435474
-0.046776831 -0.011426908 0.10329944
-0.047488749 0.0037417444 0.10066646
-0.04781574 -0.0010086769 0.10068238
-0.047443986 -0.005748902 0.10016668
-0.047260344 -0.013655935 0.099638879
-0.026311338 0.037801065 0.14028466
-0.027080894 0.037722416 0.13506919
-0.028921604 0.037655123 0.13016909
-0.028984368 -0.042482968 0.12527665
-0.030847788 0.036251217 0.12559408
-0.034009814 0.034154616 0.12629074
-0.031835496 -0.038201164 0.12081939
-0.029973686 -0.040979672 0.12193429
-0.034907818 0.032811034 0.12203389
-0.033543289 -0.036784053 0.11783963
-0.035521746 0.031479649 0.11755949
-0.037396252 0.028822988 0.11717159
-0.037343323 -0.03313541 0.11471105
-0.034565985 -0.03586027 0.11294496
-0.037945986 0.028000027 0.11298889
-0.040169537 0.024255399 0.11314017
-0.041989505 0.020652333 0.11106044
-0.041213274 -0.028415669 0.1080634
-0.038452566 -0.032213684 0.10945612
-0.036063373 -0.035046499 0.10881412
-0.039016366 0.02720169 0.10819852
-0.040558636 0.023787152 0.10844171
-0.042893052 0.018728074 0.1074068
-0.043923795 0.014547101 0.10634255
-0.043182015 -0.022283182 0.10446209
-0.040483654 -0.02708327 0.10445893
-0.038912714 -0.030578945 0.10559773
-0.041067362 0.022601258 0.10459656
-0.041991413 0.018349154 0.10311538
-0.043933094 0.013141473 0.10268503
-0.046139717 0.0092229461 0.10187304
-0.043754518 -0.016193185 0.10078079
-0.041714787 -0.020219885 0.10002691
-0.040796995 -0.025092281 0.10204595
-0.042796969 0.01647643 0.099693418
-0.044177771 0.01317075 0.098114192
-0.046608388 0.0086042983 0.098265231
-0.047561586 0.0038708462 0.097778976
-0.047664225 -0.00088347925 0.09762454
-0.047543287 -0.0056339507 0.097299099
-0.047010183 -0.010421433 0.097640216
-0.045308173 -0.015378662 0.095850587
-0.042961359 -0.019282255 0.097075939
-0.046405375 0.0085137459 0.093364954
-0.047402024 0.0040937937 0.092728198
-0.047667801 -0.00067743531 0.092699885
-0.047900617 -0.0054426719 0.092647076
-0.047154546 -0.010205151 0.091838539
-0.046739638 -0.014180166 0.091323614
-0.048328638 0.0026601735 0.089411974
-0.048054576 0.00027862319 0.089082181
-0.047719777 -0.004491108 0.088588655
-0.028655112 0.038967989 0.12756312
-0.027507842 0.040706255 0.12587079
-0.02878505 0.038636222 0.12441039
-0.029125214 0.03677218 0.12002265
-0.030703366 0.034662183 0.11910343
-0.031836748 -0.038589381 0.11433619
-0.028749883 -0.04197365 0.11486799
-0.031580746 0.033312 0.11479288
-0.032633245 -0.038063642 0.11055154
-0.030078292 -0.041570161 0.11012691
-0.034884572 0.031928852 0.11027867
-0.036422074 0.029789906 0.10999984
-0.034279704 -0.037133701 0.10614073
-0.031823337 -0.039998755 0.10545504
-0.035433412 0.032132674 0.10676497
-0.037214398 0.029424302 0.10570431
-0.039605737 0.025746826 0.10562235
-0.037438333 -0.032166462 0.10246038
-0.034968972 -0.035574693 0.10150295
-0.037549376 0.028792292 0.10176826
-0.039855003 0.024575599 0.10156542
-0.04108423 0.020655295 0.10123205
-0.040433705 -0.023423873 0.098902822
-0.038964629 -0.026865076 0.098364711
-0.037381172 -0.030885715 0.098011911
-0.039703429 0.023559894 0.097032845
-0.041007578 0.019842653 0.096519589
-0.043515861 0.015457821 0.096239328
-0.042210519 -0.021414787 0.095130265
-0.040053785 -0.025949445 0.09354794
-0.041933894 0.018982222 0.092553258
-0.04395479 0.014786034 0.092178524
-0.045956671 0.0089619728 0.0905267
-0.045290947 -0.016578607 0.090087175
-0.043637156 -0.019851401 0.090636075
-0.041788042 -0.024226375 0.08928299
-0.044362247 0.013673884 0.087430656
-0.045723379 0.0093486411 0.087138355
-0.047153294 0.0043479125 0.086918294
-0.047416449 -0.0004106691 0.086226881
-0.047344267 -0.0052057547 0.086269081
-0.046896875 -0.010236223 0.08624357
-0.046400309 -0.014809859 0.086060584
-0.044323444 -0.019142408 0.085893273
-0.04272449 -0.022939857 0.08579725
-0.04557991 0.0076842825 0.083518445
-0.046845019 0.0045466064 0.08235538
-0.047255337 -0.00046081524 0.081862628
-0.04664433 -0.0052359109 0.081470907
-0.046427906 -0.0098418416 0.081326842
-0.046545327 -0.014447724 0.081445336
-0.045217395 -0.017916005 0.081986308
-0.047457457 0.0031107622 0.078755796
-0.047712862 0.00032627338 0.078320265
-0.047488332 -0.0040938579 0.078429937
-0.04725337 -0.011296102 0.077893496
-0.047390163 -0.012896058 0.077924192
-0.027330041 0.037530497 0.11289495
-0.029154301 0.035062939 0.1131137
-0.028514087 0.037390679 0.10833281
-0.030481458 0.034481052 0.10913658
-0.028881967 -0.042200521 0.10360944
-0.032514989 0.033686657 0.10401863
-0.033104837 -0.037664089 0.099618793
-0.03043139 -0.040492345 0.099471152
-0.035938084 0.029427715 0.098111391
-0.035872817 -0.03232896 0.095024228
-0.033709645 -0.036462683 0.095177174
-0.036771715 0.028435085 0.094214559
-0.038761497 0.025319133 0.094415367
-0.03753525 -0.030817479 0.091391087
-0.034818053 -0.035003323 0.090314806
-0.039377868 0.024576146 0.089815974
-0.041693449 0.02069892 0.090459764
-0.040636122 -0.026273061 0.087013423
-0.038952768 -0.029552575 0.086553931
-0.036646426 -0.032886427 0.08661902
-0.040274203 0.023675315 0.085169375
-0.04236567 0.020419946 0.085634053
-0.04393971 0.016227685 0.085855663
-0.043336868 -0.020694647 0.083049595
-0.041839182 -0.024695769 0.082770407
-0.03993088 -0.028745618 0.082141221
-0.043194592 0.02044433 0.080830991
-0.044818342 0.01501651 0.081269264
-0.045683086 0.0095889317 0.081435323
-0.046694517 0.0062399316 0.080313683
-0.046490431 -0.0081680501 0.079451323
-0.045472801 -0.016181268 0.078257024
-0.044160783 -0.019662142 0.078811646
-0.0416978 -0.023298573 0.07829082
-0.043860912 0.019278189 0.076688349
-0.045235574 0.014902166 0.076700389
-0.046149373 0.0096479701 0.076016963
-0.047378063 0.0050152014 0.076518774
-0.048340142 -0.00028925447 0.07607162
-0.047948122 -0.0050249887 0.076162159
-0.04731977 -0.0094122523 0.075771391
-0.046340406 -0.014628653 0.074737847
-0.045273662 -0.018312052 0.074365258
-0.046296954 0.0082241027 0.072019875
-0.0476982 0.0050215232 0.071975827
-0.049046457 0.00022368075 0.07181412
-0.048412561 -0.0043940959 0.071332633
-0.047821701 -0.0092087323 0.070624411
-0.046386421 -0.013495275 0.071038604
-0.048436821 0.00040176453 0.0672732
-0.026960194 0.039729923 0.10641956
-0.027702689 0.038847513 0.10161036
-0.029363334 0.035783924 0.10144907
-0.030513763 0.034054969 0.097642481
-0.029531956 -0.040680215 0.092827439
-0.030102849 0.033051342 0.092884719
-0.032702327 0.031024784 0.092249811
-0.033953249 -0.036295444 0.088394761
-0.031543791 -0.038702399 0.088846684
-0.034594834 0.029219374 0.088087916
-0.03757906 0.02675141 0.088252544
-0.034233868 -0.035037018 0.084374487
-0.032728851 -0.037912488 0.085377157
-0.03634274 0.028662294 0.083366215
-0.038238943 0.025926344 0.083697975
-0.038006246 -0.030229576 0.079767227
-0.035590649 -0.033192541 0.080264151
-0.039121211 0.025625523 0.079325497
-0.042085946 0.02166664 0.077421486
-0.040122211 -0.024677392 0.075233996
-0.038031518 -0.029004622 0.076212525
-0.039906561 0.024768949 0.075172544
-0.042067826 0.021058774 0.073660612
-0.04363966 0.016648259 0.07283771
-0.044917464 0.012999539 0.073174775
-0.042950273 -0.020490386 0.07149905
-0.039962411 -0.024244647 0.071140826
-0.038290262 -0.027585074 0.072024703
-0.042381406 0.019658979 0.069433272
-0.043569505 0.016263919 0.068437338
-0.045156062 0.010999075 0.069019258
-0.046889067 0.005173448 0.068285823
-0.046711683 -0.0061040712 0.067596614
-0.046907485 -0.010936708 0.067520916
-0.04500562 -0.014450551 0.067268372
-0.043661892 -0.018884003 0.06713587
-0.041021883 -0.022496641 0.068338513
-0.045521975 0.010405771 0.064114034
-0.046430409 0.0053643282 0.06384033
-0.046307385 0.00013404471 0.062977314
-0.046035409 -0.0043283259 0.06305027
-0.045883358 -0.0089840116 0.062957525
-0.044545412 -0.013682877 0.062923908
-0.042988241 -0.019041516 0.063961387
-0.046714842 0.0063496376 0.060023487
-0.026156604 0.038969107 0.09488529
-0.027487397 0.035756297 0.093720257
-0.026133716 0.038181309 0.090137005
-0.028784096 0.034879532 0.089967072
-0.028810263 -0.040984821 0.08575803
-0.030681312 0.03431502 0.085333586
-0.03260994 0.031385478 0.086166143
-0.029978871 -0.039604843 0.081173122
-0.031752944 0.033739746 0.081068337
-0.033616304 0.0312493 0.081376553
-0.033020556 -0.035447478 0.077250898
-0.031087101 -0.03782643 0.077054501
-0.034903228 0.029469352 0.076710403
-0.037827134 0.027424749 0.07636869
-0.03680706 -0.030396398 0.073426664
-0.034578264 -0.034089923 0.073103964
-0.038699567 0.02633395 0.072529018
-0.039150596 -0.025833063 0.06872195
-0.037303925 -0.029376 0.068865299
-0.035565436 -0.032900807 0.068080485
-0.038375676 0.024659086 0.067487001
-0.040528595 0.021841947 0.067759156
-0.040358841 -0.024266604 0.065424979
-0.038019836 -0.028476033 0.064283907
-0.041144311 0.020503841 0.063700378
-0.043325841 0.016957175 0.063341558
-0.045175672 0.011917812 0.062112629
-0.045456409 0.0014258319 0.060808957
-0.045183957 -0.010721658 0.059999883
-0.044098735 -0.014848159 0.060967863
-0.042783678 -0.019194074 0.061153352
-0.041407824 -0.023873385 0.060396731
-0.039980352 -0.027184732 0.060108304
-0.043697774 0.015746707 0.058517575
-0.045388579 0.012274547 0.058963597
-0.046772957 0.0061324756 0.05712229
-0.046141744 0.00073448516 0.058254302
-0.046010077 -0.0041272384 0.057911694
-0.046032012 -0.0087421397 0.057266057
-0.044669032 -0.013895673 0.057368457
-0.04341352 -0.018779676 0.05610311
-0.042366922 -0.022892304 0.05607897
-0.045738161 0.012084222 0.053897798
-0.047014236 0.0069221626 0.053427279
-0.047021091 0.00093619467 0.053833842
-0.046812475 -0.0039321487 0.053426445
-0.046495557 -0.0089957723 0.052661955
-0.045477033 -0.013485988 0.052118838
-0.044302046 -0.017825298 0.052749693
-0.046886444 0.0059950161 0.049823761
-0.047288954 0.0016201207 0.048762798
-0.047227383 -0.0034158123 0.0488258
-0.046860218 -0.0082956525 0.048284531
-0.046292901 -0.011906751 0.048468292
-0.026975274 0.036872156 0.084644973
-0.028200805 -0.041266747 0.077701151
-0.029215693 0.035531204 0.079192579
-0.028853536 -0.039861307 0.074615777
-0.02939117 0.034950107 0.075218499
-0.032047451 0.0319327 0.074763358
-0.033256114 -0.035913303 0.069684565
-0.029469669 -0.039144564 0.07064265
-0.033016324 0.030437142 0.070268452
-0.036169589 0.027860235 0.068956017
-0.0341537 -0.034972444 0.066348374
-0.030711293 -0.03759912 0.065545499
-0.033435285 0.030230343 0.066206992
-0.035793722 0.026783332 0.064905524
-0.037396431 -0.030067645 0.061653554
-0.034146428 -0.034039311 0.06125325
-0.031662107 -0.037472349 0.062193215
-0.037195206 0.025056634 0.060380816
-0.03950882 0.02231615 0.060402989
-0.038181305 -0.02910668 0.057526648
-0.035149634 -0.03279173 0.05696106
-0.039430618 0.02148607 0.05547148
-0.041464031 0.018079337 0.055868506
-0.041732371 -0.024317522 0.053630352
-0.038461566 -0.02871123 0.05329299
-0.039976895 0.022153623 0.053183377
-0.042321086 0.01709746 0.051309764
-0.044783056 0.013290563 0.050498068
-0.044352531 -0.015247137 0.048768222
-0.043211162 -0.018803183 0.04913193
-0.041588366 -0.023298118 0.04875809
-0.039712489 -0.026885923 0.048521638
-0.043012083 0.016367262 0.046041131
-0.04474318 0.012675489 0.046268523
-0.045829713 0.0080039268 0.046359658
-0.04699415 0.0020996141 0.045565844
-0.046819925 -0.0040353839 0.045645893
-0.046417832 -0.0089255469 0.04507333
-0.045060873 -0.013667838 0.045009673
-0.043274343 -0.017868795 0.044268668
-0.041570783 -0.022605997 0.045055926
-0.045455217 0.012902564 0.041648626
-0.046023726 0.0079751546 0.041893423
-0.046440482 0.0030582375 0.042010128
-0.046422899 -0.0023195394 0.041887343
-0.046255887 -0.0075273742 0.040298998
-0.045560837 -0.013043051 0.040046096
-0.044512749 -0.016607847 0.040487528
-0.049080074 0.01159853 0.035216928
-0.025945008 0.037381839 0.076748431
-0.027316749 0.036320291 0.072230518
-0.028427482 0.034624077 0.067254007
-0.030618489 0.032845993 0.068900049
-0.028139412 -0.040165294 0.063387871
-0.032011211 0.031839274 0.063360512
-0.02996397 -0.039139505 0.058692098
-0.032334864 0.030651979 0.059141994
-0.034508467 0.027596518 0.05936414
-0.034052134 -0.034895331 0.055557609
-0.031708539 -0.037314154 0.054999232
-0.035025358 0.026392438 0.05432409
-0.038649738 0.023742951 0.054248512
-0.037884116 -0.030318983 0.051012933
-0.035374045 -0.033531811 0.051142395
-0.03963238 0.022547115 0.050239503
-0.038176954 -0.02938582 0.047132075
-0.036068857 -0.032338224 0.045772493
-0.039754093 0.022023141 0.045335412
-0.041706383 0.018600978 0.045683324
-0.042660058 -0.020037647 0.04295367
-0.041380346 -0.023925312 0.043090284
-0.039719641 -0.02789937 0.042509556
-0.038215041 -0.030046828 0.040851414
-0.040726244 0.021139264 0.041206181
-0.043067157 0.018079573 0.040665627
-0.046018422 0.0064778845 0.038669169
-0.045890331 -0.0099069336 0.037776947
-0.045583785 -0.013184805 0.037359595
-0.043405294 -0.01871926 0.039151013
-0.041834831 -0.022749189 0.038232684
-0.040593505 -0.025732398 0.037795663
-0.044129014 0.017127991 0.035883427
-0.046174347 0.013130578 0.037014484
-0.04650557 0.0085963001 0.036379516
-0.046046197 0.0032887119 0.036435425
-0.045836806 -0.0016292637 0.036021531
-0.046389997 -0.0065140915 0.035207391
-0.045989454 -0.011919708 0.035059035
