# .PCD v0.7 - Point Cloud Data file format
VERSION 0.7
FIELDS x y z
SIZE 4 4 4
TYPE F F F
COUNT 1 1 1
WIDTH 1349
HEIGHT 1
VIEWPOINT 0 0 0 1 0 0 0
POINTS 1349
DATA ascii
0.042826552 -0.0059391721 0.29878965
0.043104734 -0.0017204309 0.298682
0.042883363 0.0024883719 0.29829884
0.042586431 0.0066992836 0.29787397
0.042168312 0.010868514 0.2972281
0.042095866 0.01416127 0.29698384
0.043990988 -0.0095207496 0.29525208
0.044594765 -0.0061868788 0.29448745
0.045049209 -0.0019147025 0.29433739
0.044979624 0.0022957446 0.29403776
0.044904165 0.0065063033 0.29373491
0.044219155 0.010560851 0.29324037
0.046368141 -0.0057376903 0.28978682
0.046717286 -0.0021142811 0.28983396
0.046949692 0.0021019951 0.28970692
0.046837654 0.006312672 0.28938285
0.046159234 0.0099241482 0.28877175
0.048331261 -0.0065314863 0.28555322
0.048620481 -0.0023090702 0.28546134
0.04871944 0.0019059096 0.28525916
0.048612203 0.0061185141 0.28493726
0.047917232 0.010045424 0.28468403
0.049452629 -0.0048350417 0.2829605
0.05004333 -0.0022198181 0.28139815
0.050538287 0.0017104581 0.28083575
0.05008461 0.0056775031 0.28093687
0.049213886 0.0084149893 0.28200531
0.051555175 0.0033748504 0.27739602
0.014330864 -0.0029328226 0.35230726
0.013277395 0.00068491703 0.35161334
0.013058066 0.0031072902 0.35136279
0.015663948 -0.0067400923 0.34864295
0.015911222 -0.0031778056 0.34986159
0.016115274 0.00094010541 0.3498584
0.015529684 0.0046012229 0.34886423
0.014758792 0.0077893687 0.34731537
0.018325262 -0.011080214 0.34636346
0.018108282 -0.0082550915 0.34713757
0.018225329 -0.0043330821 0.34813952
0.018160293 0.0053225607 0.34749761
0.017233832 0.0088617625 0.34460306
0.021076646 -0.011103303 0.34536496
0.021769676 -0.009383142 0.34332252
0.021915743 0.0062257992 0.34089875
0.020270655 0.0085565085 0.34104288
0.017932637 0.011119083 0.3402552
0.022295594 -0.012597038 0.33763197
0.02210922 -0.0084406072 0.33764011
0.023077521 -0.0044581816 0.33633444
0.023754001 0.00014439168 0.33667916
0.02242291 0.0043595056 0.33657736
0.020824466 0.0080776503 0.33599442
0.022617357 -0.0035572771 0.33292621
0.023996115 -0.00018547052 0.33246323
0.023334198 0.0040429602 0.33187929
0.022297382 0.0079387873 0.3313531
0.024702685 8.0132071e-05 0.32803309
0.024381535 0.0032907764 0.32851925
0.024185965 0.008453425 0.32859039
0.031374592 -0.0017074194 0.31174335
0.031514883 0.0013256114 0.31162697
0.03373085 -0.0044884374 0.30983883
0.035014018 -0.0011729765 0.31052822
0.03429646 0.0028772342 0.30975765
0.03353497 0.00699978 0.3083117
0.035815358 -0.012771484 0.30445081
0.03568048 -0.0095965173 0.30521697
0.036328096 -0.0056112278 0.30609185
0.03756753 -0.0012180773 0.30694342
0.037243418 0.002891372 0.30682439
0.036443558 0.0070998296 0.30582663
0.035655756 0.011218457 0.3048144
0.036022324 0.015495463 0.30306271
0.037882857 -0.014062031 0.3017104
0.038588557 -0.010181464 0.30260894
0.039127298 -0.006092655 0.3034445
0.038981643 -0.0014544101 0.30441955
0.039299216 0.0029485382 0.30380148
0.039394192 0.0069388207 0.30286762
0.039268561 0.011385069 0.3021253
0.038793378 0.015340416 0.30069107
0.036835466 0.017762082 0.29869562
0.040216684 -0.014470625 0.29787442
0.041550536 -0.010998419 0.298397
0.041172419 0.011599946 0.2991187
0.04116486 0.015834035 0.29663146
0.039229888 0.018112911 0.29564312
0.04218604 -0.014493743 0.29364592
0.043692011 -0.010809899 0.29360288
0.044846792 -0.005598404 0.29289165
0.044565186 0.012472395 0.29161531
0.04298304 0.014949455 0.2921313
0.040471062 0.017401226 0.29056609
0.043759398 -0.014271384 0.28889224
0.045158897 -0.010593951 0.28946593
0.046089191 -0.0076630153 0.28997356
0.045870475 0.012334747 0.28845748
0.044534326 0.014760408 0.28754342
0.042167902 0.017210938 0.28603858
0.044972472 -0.014066224 0.28459042
0.047013965 -0.010793105 0.28504929
0.048109788 0.010908385 0.28356498
0.047132239 0.014559385 0.28355667
0.044693317 0.017007878 0.28198758
0.046200819 -0.013391718 0.28157803
0.047473464 -0.01091766 0.28001544
0.048874754 -0.006891225 0.28022212
0.050690379 -0.0033817491 0.27940029
0.050497159 0.0066604079 0.27866873
0.049160857 0.010258106 0.2793375
0.047402807 0.014105229 0.27901062
0.045452461 0.016902268 0.27927533
0.048138805 -0.010595407 0.27621058
0.049118605 -0.0065159262 0.27531064
0.050418429 -0.0027378611 0.27550524
0.051080246 0.001329353 0.2755096
0.050281558 0.0057217786 0.27490467
0.049061641 0.0093729701 0.27463007
0.05049767 -0.0058451537 0.27097279
0.050953798 -0.0028409313 0.27048683
0.050970349 0.0012467074 0.27018812
0.050520096 0.0057066446 0.2704784
0.050557647 0.0081910295 0.26951212
0.012508801 0.0018892209 0.35119849
0.012395331 0.0055290805 0.35091704
0.011917387 0.0091714095 0.35047504
0.012458785 -0.011739511 0.34651786
0.013275759 -0.0079901591 0.34815642
0.012500985 -0.0051029781 0.34913397
0.013436233 -0.00058886083 0.35026413
0.013308151 0.0054748999 0.34982204
0.013159122 0.0092177624 0.34820318
0.012994459 0.011461549 0.34704664
0.014779433 -0.011724363 0.34630466
0.014523268 -0.00926698 0.34678662
0.014758689 0.010159816 0.34565991
0.015326653 0.01180004 0.34322727
0.017309546 0.011992725 0.33877701
0.019771354 -0.012879976 0.33428836
0.020202706 -0.009219422 0.33426219
0.01997791 0.0096576503 0.3344847
0.018706338 0.011325619 0.33504629
0.02004867 -0.012786948 0.33081502
0.020226104 -0.0087914569 0.33043072
0.021868894 -0.0049158386 0.33021557
0.021148019 0.0094915405 0.33048686
0.02036047 -0.0083573889 0.32663929
0.022160616 -0.0045022289 0.32625234
0.023294501 -0.001632088 0.32688156
0.023262415 0.0040992289 0.32554802
0.022625685 0.0078330887 0.32580581
0.022627575 0.010485543 0.32502764
0.023722377 -0.00042841319 0.31933588
0.023073945 0.0022975749 0.3207128
0.025214758 -0.0094813667 0.31524521
0.025284598 -0.0041449717 0.31597963
0.025802646 -0.00071916298 0.316351
0.025594661 0.003047155 0.31585905
0.025655048 0.0072369841 0.31545565
0.02539398 0.011263526 0.3140381
0.027748244 -0.012750386 0.31054494
0.027921285 -0.0093418956 0.31214944
0.028528742 -0.0051926523 0.31265283
0.02891355 -0.00090128643 0.31320193
0.029048273 0.0033423163 0.31269673
0.028792927 0.007467356 0.31215176
0.02796936 0.011726589 0.31146073
0.027645145 0.015543512 0.30976093
0.029522233 -0.017189341 0.30707955
0.029973917 -0.013686129 0.30850241
0.031216621 -0.0097421706 0.30906504
0.031742897 -0.0067970147 0.30946788
0.03098917 0.0049001896 0.30958223
0.031158993 0.0076180692 0.30911425
0.031432323 0.011522589 0.30785182
0.030872636 0.015778542 0.30729225
0.029633198 0.018604361 0.30542603
0.032187991 -0.021058647 0.30249318
0.032754574 -0.018243231 0.30465549
0.033336587 -0.014495112 0.30546337
0.033234563 -0.010471066 0.30629444
0.033055697 0.013202123 0.30472469
0.032943148 0.015630729 0.30451339
0.032080397 0.019585108 0.30202815
0.033736262 -0.021151168 0.30020496
0.035592198 -0.018628901 0.30105841
0.035411749 -0.015518519 0.30232793
0.034711976 0.020012986 0.29833537
0.0325565 0.02334263 0.29679978
0.035724521 -0.021618092 0.29535857
0.037523031 -0.018828077 0.29665336
0.037286229 0.020441184 0.29382762
0.035316262 0.023737367 0.29279441
0.037519813 -0.022165563 0.29135281
0.039385814 -0.019030301 0.29220897
0.041011129 -0.016609048 0.29140359
0.039064154 0.019852715 0.28962308
0.037642941 0.023533359 0.2885958
0.040292043 -0.022322645 0.28740537
0.041641679 -0.019213744 0.28798577
0.042287655 -0.01675502 0.28820312
0.04125534 0.019307075 0.28538692
0.04003736 0.023327304 0.28444177
0.038520098 0.02582364 0.28421193
0.041809764 -0.022544278 0.28274646
0.043500781 -0.0194162 0.28353739
0.04427382 -0.016168585 0.28325996
0.042898893 0.019465441 0.28079256
0.041504197 0.023145143 0.27975458
0.043003373 -0.022413444 0.27906165
0.044964399 -0.019637737 0.27885324
0.045910683 -0.015469603 0.27899808
0.046676159 -0.012390431 0.27703819
0.046461686 0.014949828 0.27602637
0.04425548 0.018791972 0.27591345
0.042704243 0.022569858 0.27518994
0.046389036 -0.019862063 0.27413645
0.04755342 -0.015550463 0.27457142
0.047923312 -0.01147893 0.27408889
0.048603263 -0.0084792404 0.27370697
0.048058596 0.01077495 0.27230513
0.047460336 0.014208617 0.27269053
0.045458846 0.018493438 0.27122548
0.04445805 0.021580925 0.27123582
0.047759976 -0.019247351 0.26985785
0.048995785 -0.015769338 0.26986462
0.049568601 -0.011491652 0.2699528
0.050057992 -0.0078491811 0.26966539
0.050817695 -0.0042768628 0.26787674
0.050934128 0.0017933081 0.26757726
0.050699525 0.0051432275 0.2676284
0.049636859 0.010478425 0.2685779
0.048898868 0.01401911 0.26798359
0.046878371 0.017198347 0.26735896
0.050071068 -0.015512513 0.26524866
0.050924677 -0.011709284 0.26518846
0.051057205 -0.0074482942 0.26501045
0.051289406 -0.0031881686 0.26489422
0.051510982 0.001068267 0.26477203
0.051298041 0.005317694 0.26438048
0.05073636 0.0095707737 0.26377219
0.049163818 0.013499742 0.26278731
0.050222501 -0.014326336 0.26168856
0.05116209 -0.011852575 0.26212552
0.051160403 -0.0075883376 0.26186448
0.051359244 -0.003033201 0.26130748
0.051666498 0.0010087667 0.26020375
0.051573362 0.0051720487 0.26053807
0.050883908 0.0094433734 0.26011476
0.010256768 -0.011734569 0.3470453
0.0095936228 -0.0084232762 0.34805304
0.01857652 -0.012927167 0.32399893
0.019796338 -0.008697059 0.32381895
0.020400882 -0.0066660359 0.3234753
0.020492487 0.0055544889 0.32275236
0.019568324 0.0082896343 0.32173866
0.017796841 0.011036429 0.32030621
0.019161804 -0.011771776 0.31957167
0.020463927 -0.0094129657 0.31960407
0.021790061 -0.005100566 0.31891823
0.022809658 -0.0020000937 0.31820375
0.021324379 0.0045868228 0.31910908
0.020445738 0.0077385684 0.31851879
0.018488135 0.011288886 0.31737596
0.021915181 -0.016985087 0.3132517
0.022409985 -0.013753652 0.31507209
0.023650441 -0.0094451839 0.31619206
0.023481488 -0.0061740708 0.31622368
0.023871865 -0.0020480494 0.31719491
0.023666279 0.00444119 0.3161684
0.022878477 0.008512957 0.3155151
0.022584813 0.011955786 0.31450522
0.021606905 0.015875371 0.31293046
0.021943996 0.018591871 0.31025991
0.024383221 -0.017590825 0.31034616
0.025448646 -0.013978183 0.31194329
0.025575859 -0.010382867 0.31341791
0.025248323 -0.0071094655 0.3135626
0.024685673 0.016476739 0.31076261
0.024051649 0.019332476 0.30795684
0.02627063 -0.022252047 0.30541536
0.026879771 -0.018589295 0.30753204
0.027988315 -0.015911311 0.30853206
0.027025428 0.02020143 0.30521584
0.025414875 0.022924762 0.30272168
0.028241875 -0.02654607 0.3012329
0.029200675 -0.022937676 0.30296522
0.029182537 -0.019771321 0.30471674
0.02875047 0.021793608 0.30189741
0.028792055 0.024017565 0.29923552
0.027196014 0.0266323 0.29683691
0.030382022 -0.026949925 0.29828942
0.031863008 -0.023690814 0.29934359
0.031375155 0.02520526 0.29604104
0.029355371 0.027287781 0.29402298
0.032417946 -0.027389612 0.29409516
0.033960599 -0.023982733 0.29521641
0.032543778 0.02736395 0.2908197
0.034543429 -0.027718902 0.28942567
0.036051698 -0.024687354 0.29068252
0.035103783 0.027265826 0.28693596
0.033240795 0.02975915 0.28493926
0.036590338 -0.027934637 0.28541642
0.03808691 -0.024883056 0.28630143
0.037215881 0.027466934 0.28230739
0.03527534 0.029561391 0.28053585
0.038374133 -0.02795005 0.28088146
0.039716516 -0.025101727 0.28168696
0.038653035 0.027003327 0.27753943
0.036483254 0.029428961 0.27724782
0.039860949 -0.027483851 0.27647984
0.041821156 -0.024602599 0.27690083
0.04170125 0.024195323 0.27343172
0.03983387 0.026601493 0.27276012
0.043075051 -0.024135306 0.27255416
0.043537617 0.023145981 0.26955748
0.041317515 0.026067587 0.26787102
0.04474216 -0.02391338 0.26776662
0.046060733 -0.021014199 0.26785743
0.045839719 0.019189538 0.26517433
0.043662328 0.022396909 0.26490161
0.045131411 -0.022883479 0.26390126
0.046547875 -0.020279232 0.26319975
0.048257232 -0.017560117 0.26281467
0.048099007 0.015047132 0.26099604
0.046296306 0.017543441 0.26053211
0.045130033 0.020333176 0.26004487
0.046816096 -0.019370819 0.25986511
0.04889008 -0.016335092 0.25854334
0.049925823 -0.012048172 0.25812402
0.050004859 -0.0077638626 0.25791311
0.050255045 -0.003639532 0.25761774
0.050966367 0.00057318073 0.25720313
0.050597295 0.0050488855 0.25669694
0.049876876 0.00934292 0.25646663
0.048975401 0.013665861 0.25676963
0.046882562 0.01680267 0.25688893
0.049057297 -0.015628643 0.25412929
0.049726419 -0.01212187 0.25332254
0.050406728 -0.0079703741 0.25330094
0.051267691 -0.0036616009 0.25359035
0.051206537 0.00062135188 0.25329047
0.051021084 0.0049023954 0.25291201
0.051030688 0.0091857444 0.25265816
0.050241966 0.013476153 0.25189298
0.050824232 -0.0077179889 0.24974158
0.051553898 -0.0036983711 0.24908203
0.051705427 0.00045105405 0.24806884
0.051585674 0.004696988 0.24756995
0.051346984 0.0086564021 0.24815765
0.05083159 0.012611516 0.24840379
0.016590767 -0.014218143 0.32052067
0.017169919 0.012856008 0.3191067
0.01694308 0.014087081 0.3189171
0.016881466 -0.01311558 0.31779471
0.018752882 0.011792308 0.31607804
0.016292198 0.015585468 0.31507456
0.015383158 0.020150641 0.31386366
0.015547819 0.023020426 0.31350607
0.018429486 -0.021497896 0.31096542
0.019156847 -0.018556787 0.31240857
0.018278463 -0.014468067 0.31514755
0.018029861 0.016336754 0.31309137
0.01860656 0.019944619 0.3105543
0.017669216 0.0244599 0.30874723
0.020448908 -0.029690234 0.3078025
0.020180585 -0.026684145 0.30842042
0.020654442 -0.022634231 0.30889949
0.022306375 -0.019303799 0.31008145
0.021256838 0.020994261 0.30741116
0.02004412 0.024082007 0.30580661
0.022345101 -0.029898008 0.30328929
0.022505268 -0.027324945 0.30479336
0.023711752 -0.023503533 0.30615193
0.023183122 0.024758609 0.30251434
0.021846259 0.027370317 0.3005088
0.023628885 -0.030050976 0.30002654
0.025208985 -0.027865155 0.30126452
0.025689838 0.025527501 0.2992487
0.02421861 0.027996555 0.29672995
0.026737181 -0.030731855 0.29585865
0.028468406 -0.028840061 0.29702568
0.026724966 0.028732959 0.29368776
0.025825839 0.030677373 0.29135939
0.029187137 -0.030971741 0.29199716
0.031776614 -0.029051112 0.29172879
0.028721552 0.030923886 0.28767604
0.031036276 -0.031572342 0.28716823
0.032671809 -0.029134229 0.28985143
0.030575546 0.032068133 0.28297305
0.033166613 -0.031850174 0.2829155
0.032520074 0.032126848 0.27879798
0.034883175 -0.032086641 0.2787205
0.036994252 -0.029653111 0.2787798
0.034784164 0.031562939 0.27429491
0.035932202 -0.031810999 0.27426314
0.037902936 -0.02940256 0.27415156
0.036286816 0.030359572 0.27004766
0.039294004 -0.028456505 0.26986188
0.041893601 -0.026351821 0.26941535
0.040664691 0.027439924 0.26618409
0.038226791 0.029616574 0.26573682
0.040649313 -0.028383084 0.26473048
0.042870436 -0.026521055 0.26597476
0.042675428 0.023447579 0.26171947
0.040967651 0.02639436 0.26157323
0.038809318 0.028969044 0.26172525
0.041236229 -0.028037259 0.26181191
0.043491483 -0.025086354 0.26124808
0.045515809 -0.021807907 0.26082772
0.043461237 0.022659656 0.25825983
0.041051388 0.02547819 0.25788522
0.043855958 -0.024529031 0.25687373
0.045458846 -0.020918837 0.25643805
0.047882795 -0.01834259 0.25558829
0.046171904 0.017663747 0.25394592
0.044642329 0.021718232 0.25355032
0.045171108 -0.023496358 0.25254127
0.046267595 -0.020889297 0.25164437
0.048335042 -0.017134639 0.25191891
0.049502034 -0.013599153 0.25142986
0.047024336 0.017201219 0.24960825
0.045190677 0.020538028 0.24878076
0.047292657 -0.019938774 0.24875021
0.048541088 -0.016787548 0.24705929
0.049242549 -0.01257262 0.24709338
0.050011858 -0.0085329833 0.24619856
0.05115417 -0.0042961957 0.24578297
0.051479358 -0.00031052573 0.24534336
0.051266108 0.0082938774 0.24468279
0.050427523 0.012889418 0.2451717
0.047889642 0.016515946 0.24527928
0.04951169 -0.015845805 0.24334586
0.049662657 -0.01253511 0.24258301
0.049932513 -0.0089482088 0.24175745
0.050698347 -0.0047709914 0.24180281
0.050954923 -0.00044914804 0.24170977
0.05132946 0.0038694849 0.24169543
0.051419124 0.0081807682 0.2414943
0.050881352 0.012493467 0.24087882
0.051100936 0.015571828 0.24083674
0.051223908 -0.0046632402 0.23812231
0.051307287 -0.00060708384 0.23781466
0.051545367 0.003861411 0.23702425
0.051768679 0.0080102216 0.23677215
0.051200099 0.011890822 0.23678058
0.050788626 0.015477318 0.23732752
0.011562057 0.016620407 0.31609437
0.012783103 -0.017789926 0.31415388
0.014039245 -0.01522812 0.31588021
0.013161675 0.017167384 0.31528834
0.015302693 -0.022806551 0.31102189
0.016273908 -0.018955408 0.31284729
0.016102195 -0.015786154 0.31413075
0.015006013 0.020708324 0.31128979
0.018466424 -0.024675403 0.30961084
0.021368982 -0.03148324 0.29810834
0.021206463 0.0293695 0.29661685
0.021535685 0.031798061 0.29505423
0.023492679 -0.033057172 0.29445997
0.022714784 0.032469746 0.29061073
0.026152868 -0.03365111 0.29048035
0.025520988 0.032657318 0.28682014
0.023781843 0.034574158 0.28493735
0.025750792 -0.035872661 0.28504133
0.02780986 -0.034051687 0.28635585
0.027611986 0.033693418 0.28232235
0.025951469 0.036044203 0.28062481
0.027937023 -0.036079876 0.2803781
0.030017907 -0.034351174 0.28186697
0.028739434 0.035377 0.27642968
0.030507039 -0.0362418 0.27620611
0.032596454 -0.034628585 0.27683997
0.030800954 0.035389014 0.27223733
0.033989415 -0.033690929 0.27218866
0.034249663 0.032741275 0.26808742
0.031796236 0.034906868 0.26723137
0.035360355 -0.032732483 0.26770821
0.037282653 -0.030294506 0.26768118
0.035833649 0.031383224 0.26335269
0.033719711 0.033486567 0.26358119
0.037786908 -0.031788744 0.26318774
0.038456388 -0.030193673 0.26350006
0.037075639 0.03002844 0.25897285
0.03828381 -0.031948589 0.26022857
0.039805517 -0.029627929 0.25918344
0.040097084 0.026704365 0.25558493
0.038041387 0.0294719 0.25468659
0.040692791 -0.029154751 0.25498521
0.043096766 -0.026112836 0.25420123
0.041046228 0.026139809 0.25101686
0.039482269 0.029010206 0.25109369
0.044100523 -0.025682667 0.25019398
0.045718737 -0.022405697 0.24953404
0.044233613 0.022591697 0.24694625
0.042199478 0.02548665 0.24668023
0.044392705 -0.024694053 0.24606261
0.046079993 -0.02149117 0.2453548
0.047601342 -0.018940525 0.24393624
0.046560645 0.017749239 0.24235758
0.044657502 0.021091046 0.24252191
0.043032952 0.024620419 0.24329737
0.045996718 -0.020786934 0.24078155
0.048291411 -0.017482903 0.24065185
0.049211077 -0.013213593 0.24008885
0.049578667 -0.010434439 0.23974925
0.046863608 0.017373219 0.23826626
0.045703873 0.019393535 0.23788014
0.048276953 -0.016965101 0.2363179
0.049491353 -0.01307038 0.23652199
0.04992158 -0.0093734311 0.23575181
0.050991144 -0.0052739582 0.23483518
0.051291246 -0.00073876913 0.23448581
0.051302895 0.0032039394 0.23375595
0.051518235 0.0078959977 0.23328507
0.050133552 0.012734757 0.23310208
0.047955446 0.01587775 0.23374975
0.049097046 -0.008340287 0.23095587
0.050921917 -0.0050812559 0.2304714
0.051468678 -0.00090139237 0.2304388
0.050891161 0.0032735122 0.22994757
0.050464716 0.007809666 0.2300702
0.049235906 0.011568798 0.22985053
0.050977912 -0.0047747418 0.22698152
0.05117052 -0.0010555109 0.22646931
0.051161222 0.0014487415 0.22673306
0.026877882 -0.038029961 0.27989072
0.026178205 0.037360024 0.2748374
0.028815612 -0.038240217 0.27534369
0.028289793 0.037142478 0.26958257
0.030364806 -0.037856892 0.27052808
0.03235158 -0.035312496 0.26992005
0.029349597 0.036685832 0.2649391
0.02765766 0.039586972 0.26416689
0.031442389 -0.038005516 0.26567379
0.033525262 -0.035258122 0.26604593
0.030306354 0.034979422 0.260021
0.028599244 0.038472269 0.26086059
0.032375693 -0.037168112 0.26020715
0.035013661 -0.034472644 0.26165566
0.035254139 0.031527974 0.25694618
0.033088703 0.032878261 0.2563591
0.036031008 -0.033433337 0.25755602
0.035909519 0.031416818 0.25324592
0.034619961 0.032715812 0.25236759
0.037700005 -0.03228027 0.25494933
0.03911509 -0.030651554 0.25210279
0.037123766 0.030457724 0.24766287
0.035293836 0.032621801 0.24948728
0.040398359 -0.029717809 0.24845922
0.040596433 0.026618499 0.24409559
0.038551774 0.028897004 0.24389327
0.041557789 -0.029481329 0.2436845
0.043275118 -0.026540296 0.24323383
0.043653388 0.021991555 0.23887596
0.041982088 0.025538171 0.23962092
0.039446864 0.028414523 0.23824859
0.043802567 -0.025983477 0.23868975
0.045477137 -0.02214559 0.23885411
0.045443468 0.018084863 0.23528633
0.044458766 0.020990128 0.2358909
0.042692695 0.024884759 0.23488116
0.040686555 0.028278746 0.23488003
0.044184513 -0.024893006 0.2348128
0.046065178 -0.02185238 0.23415256
0.047470093 -0.018244497 0.23309121
0.048275113 -0.013272353 0.23237559
0.046030436 0.017159674 0.2309176
0.044633336 0.020479977 0.2304101
0.043689046 0.023347264 0.23086855
0.04630392 -0.020976657 0.22898275
0.047372308 -0.017573968 0.22899646
0.048436966 -0.013424659 0.22913247
0.049165864 -0.0098239435 0.22920164
0.050105352 -0.0072142058 0.22821358
0.049978442 0.0052335989 0.22737813
0.049811482 0.0077231312 0.22711438
0.049100008 0.012327642 0.2274732
0.046641726 0.016531162 0.22610953
0.045619879 0.019048916 0.2252638
0.047683597 -0.016156843 0.22456071
0.048877001 -0.013646731 0.22438315
0.050225616 -0.0098907864 0.22424111
0.050872717 -0.0055547762 0.22425774
0.051316943 -0.0011780831 0.22341615
0.050608892 0.0033345469 0.2235418
0.050151076 0.0075788889 0.22313946
0.049886379 0.011685872 0.22295162
0.048365541 0.014783207 0.22190014
0.049475823 -0.012531127 0.22134066
0.050548144 -0.0098504089 0.21954846
0.051089391 -0.0056877513 0.21881136
0.051402826 -0.0013691442 0.2186172
0.050958958 0.0030003756 0.21804503
0.050516419 0.0072269416 0.21769494
0.050089821 0.011413568 0.21795371
0.04939878 0.013744369 0.21971089
0.027709009 -0.041457206 0.26376757
0.029861061 -0.039666612 0.26212928
0.029083267 0.035633408 0.25787014
0.028605016 0.038163278 0.25742564
0.030340487 -0.038739599 0.25905752
0.029852627 0.03489526 0.25425577
0.028547643 0.037732903 0.25304636
0.030604774 -0.037901744 0.25460529
0.032812409 -0.035474736 0.25474626
0.031519379 0.034727264 0.25032267
0.02939236 0.037032049 0.24927947
0.032136187 -0.037532475 0.25045416
0.033686195 -0.034276858 0.25006118
0.033220667 0.033776514 0.24571598
0.034595694 -0.033592001 0.24516472
0.036786217 -0.031626634 0.24519113
0.036709785 0.030636836 0.2418606
0.033846259 0.033025194 0.24055281
0.035939403 -0.0331407 0.24138504
0.038095236 -0.031339236 0.24082741
0.037357859 0.030370919 0.23677239
0.040183477 -0.0298083 0.23680323
0.041373916 -0.028280096 0.23539323
0.041786365 0.026914245 0.23233023
0.038856883 0.029562796 0.23191765
0.040484447 -0.029785888 0.23151436
0.042012639 -0.026816173 0.23122868
0.043621812 -0.023492474 0.22985581
0.04231647 0.025166104 0.2284075
0.040033374 0.028361205 0.22770312
0.042727537 -0.025792066 0.22656378
0.04456789 -0.022736918 0.22682151
0.046545777 -0.019214781 0.2265057
0.045065608 0.020939305 0.22477305
0.042340789 0.023792828 0.22299188
0.044850726 -0.02216723 0.22269139
0.046582565 -0.018514669 0.22292578
0.046416573 0.017012982 0.2208463
0.045208044 0.020022331 0.22004664
0.043185301 0.022779904 0.21998304
0.046230454 -0.018580355 0.21831068
0.047467384 -0.014609668 0.2175096
0.049842138 -0.010539796 0.21679705
0.05017744 -0.0064717815 0.21636271
0.049032364 0.0085706143 0.21465701
0.049135566 0.010781007 0.21502352
0.047078438 0.015375635 0.21572721
0.045062236 0.01945523 0.21635741
0.048147745 -0.013341949 0.21306095
0.04953846 -0.010408371 0.21272463
0.050295763 -0.0059865988 0.21299714
0.050261941 -0.0015905717 0.2127105
0.050001383 0.0026369777 0.2124289
0.049586125 0.0069413423 0.2115497
0.04864531 0.010973341 0.21081385
0.048489895 0.01349243 0.21055344
0.050301943 -0.0098425923 0.20842469
0.050661769 -0.0061946586 0.20812088
0.050698809 -0.0018003556 0.20754078
0.050486226 0.0019875558 0.20750704
0.050044198 0.0063930219 0.20692658
0.049366135 0.010837959 0.20720947
0.049367923 0.013353172 0.20688826
0.029310467 -0.039755065 0.25316581
0.028604403 0.038758945 0.2479353
0.028082322 -0.041820295 0.24951434
0.030740518 -0.038954578 0.24786353
0.031362329 0.035221957 0.24269268
0.029838832 0.037847709 0.2432462
0.031948943 -0.037603773 0.24329492
0.033926062 -0.034820221 0.2440559
0.032457743 0.034771688 0.23880348
0.031790309 0.037293293 0.23888224
0.034423828 -0.034759123 0.23872077
0.037207961 -0.03203902 0.23793429
0.03362821 0.033254597 0.23445553
0.034782682 -0.033571139 0.23474672
0.036922522 -0.031770382 0.23401153
0.037103791 0.030850291 0.22899064
0.035197429 0.032223459 0.22934172
0.037335023 -0.03120796 0.23034707
0.041267142 -0.028666271 0.2285808
0.038090076 0.030418081 0.2258566
0.0359837 0.032089546 0.22477221
0.038463287 -0.03011002 0.2267783
0.041795254 -0.028014183 0.22492868
0.041244507 0.025416655 0.22105455
0.039421525 0.02779505 0.22171766
0.042027611 -0.026685335 0.22083136
0.044001766 -0.023562664 0.22048384
0.044120856 0.02141018 0.21729672
0.042259354 0.024176482 0.21734089
0.039518699 0.027307499 0.2171973
0.042033333 -0.025482019 0.21695036
0.04414957 -0.022459304 0.21630648
0.046091948 -0.019571148 0.21541852
0.047084007 -0.016637675 0.21479627
0.045788426 0.017004298 0.21244317
0.044478841 0.020141352 0.21282411
0.042806167 0.023131434 0.21319601
0.044714469 -0.021893993 0.21172059
0.046407122 -0.019365678 0.21104077
0.047956366 -0.015384058 0.21151966
0.046493001 0.016038211 0.20898557
0.044771791 0.019454518 0.20813665
0.046658993 -0.018709332 0.20714939
0.048470125 -0.01510094 0.20707813
0.04991065 -0.011592416 0.20747247
0.05103365 -0.0063307565 0.20494789
0.051031966 -0.0019173366 0.20468381
0.050897293 0.0018633361 0.20436108
0.050739016 0.0050143697 0.20405883
0.049878664 0.010761174 0.2052539
0.047777757 0.014816891 0.20479715
0.045835171 0.01718845 0.20412812
0.047883052 -0.013384694 0.20308736
0.049651112 -0.010701407 0.20268965
0.051288538 -0.0064711384 0.20167795
0.05135807 -0.0020480447 0.20146558
0.050214224 0.001726489 0.20040539
0.049773011 0.0062472406 0.20091969
0.049335428 0.010611124 0.20010412
0.04841372 0.013203198 0.20101905
0.050955024 -0.0063859033 0.19720614
0.05111248 -0.0024710945 0.19713941
0.028321013 -0.040799554 0.24539596
0.028882438 -0.040386502 0.24150297
0.029959613 -0.037708521 0.23660314
0.033124313 -0.036128499 0.23551205
0.030503254 0.035057854 0.2311855
0.028868588 0.036435816 0.23173946
0.03045457 -0.03770842 0.23215503
0.032714982 -0.035264522 0.23157308
0.031948686 0.033954039 0.22752234
0.033751436 -0.03404722 0.22727197
0.035899658 -0.03233112 0.22817755
0.032993674 0.033810809 0.22309956
0.037083659 -0.031095017 0.22297034
0.037125196 0.029802982 0.21941406
0.035310693 0.031679325 0.21835583
0.037845459 -0.030932983 0.21825814
0.039708957 -0.028884353 0.21783963
0.03859612 0.02810538 0.21430555
0.036319103 0.031077916 0.21339658
0.040793795 -0.027401319 0.21416616
0.042719111 -0.024063597 0.21346688
0.040798955 0.024419185 0.21034029
0.038683586 0.027404238 0.21029884
0.041934934 -0.026725641 0.2097576
0.043769054 -0.023474431 0.20919967
0.043671217 0.020698907 0.20555183
0.041403756 0.023216797 0.20544353
0.043999724 -0.023108991 0.2049273
0.045788016 -0.020107331 0.20487258
0.046286959 0.015839143 0.20193022
0.044138432 0.019310931 0.20191559
0.041969676 0.022784965 0.2013154
0.045549273 -0.019551152 0.20026776
0.047226854 -0.015574041 0.1999529
0.048622523 -0.011356225 0.19871634
0.048774872 0.0067226817 0.19731688
0.046503834 0.01457775 0.19771063
0.04414298 0.018036047 0.19807088
0.046193108 -0.018838445 0.19606668
0.047876358 -0.015521497 0.19463536
0.049185786 -0.011196206 0.19518614
0.050396919 -0.0071532512 0.19444275
0.050272413 -0.0020088512 0.19413275
0.049495596 0.0015234299 0.19465998
0.048754282 0.0059670839 0.19384855
0.048944183 0.010417143 0.19372478
0.047129888 0.013771766 0.19324028
0.048445139 -0.013930757 0.19128728
0.049225278 -0.011391465 0.1908375
0.049901504 -0.0069485605 0.19019851
0.050016608 -0.002487469 0.19002101
0.050257292 0.0013358222 0.18997523
0.049841318 0.0057887188 0.18940043
0.049397655 0.0100947 0.18903321
0.047823891 0.012861102 0.1892364
0.050078835 -0.0019876249 0.18651295
0.050816316 0.0011783701 0.18599868
0.050440244 0.0056690108 0.1863327
0.050118022 0.0088558355 0.18590119
0.027999045 -0.040325776 0.23474738
0.027667316 0.037738878 0.2291792
0.029183662 -0.040019721 0.22958931
0.030277336 0.034957584 0.22507691
0.028385689 0.037616543 0.22452313
0.029934783 -0.038898736 0.22570595
0.031376991 -0.036137063 0.22581232
0.031793222 0.034794532 0.22095126
0.029311178 0.037066631 0.2205883
0.03170177 -0.035462175 0.22081599
0.033804979 -0.033119146 0.22123468
0.033093557 0.034087069 0.21633762
0.030087026 0.036074005 0.21541464
0.034902539 -0.032903638 0.2155726
0.035048656 0.033165064 0.21205235
0.033599395 0.034490369 0.21010563
0.036175489 -0.031867564 0.21210721
0.038942151 -0.029680934 0.2115905
0.0373175 0.028687563 0.20753515
0.035935163 0.031575046 0.20805216
0.036989912 -0.031188169 0.20857003
0.039189272 -0.028813289 0.20692465
0.039321899 0.025104089 0.20422953
0.037533864 0.027608305 0.20305324
0.035627093 0.030406402 0.20392427
0.040420227 -0.027148252 0.20260209
0.042742509 -0.024545694 0.20236519
0.042655554 0.020993285 0.19900498
0.041410752 0.024033722 0.19909313
0.039429035 0.026879035 0.1980837
0.042588934 -0.023536792 0.19835496
0.044393726 -0.021305384 0.19840598
0.043463588 0.018953433 0.19562587
0.041947756 0.023009708 0.19470647
0.040359635 0.026128124 0.19528705
0.043990936 -0.023408281 0.19333425
0.045603123 -0.020506751 0.19362062
0.047172088 -0.017731568 0.19232747
0.045791134 0.015019817 0.19076985
0.044033084 0.018041411 0.19076538
0.042566605 0.021637177 0.19070324
0.04465827 -0.023070183 0.18900767
0.046410594 -0.020503044 0.18839064
0.047560677 -0.016149068 0.1888324
0.049082126 -0.011514685 0.1880931
0.048660073 0.011469728 0.18641564
0.046734352 0.014096974 0.18658465
0.04438448 0.016739642 0.18644404
0.046791572 -0.020019282 0.18510029
0.04782537 -0.015965804 0.18445554
0.048562646 -0.01169132 0.18416879
0.049013563 -0.0078354282 0.18428221
0.049631901 -0.003613058 0.18414664
0.050499815 0.0010756926 0.18311143
0.049886841 0.0055745891 0.18326578
0.048903108 0.010231646 0.18290967
0.048032079 0.01328399 0.18229184
0.048648681 -0.011546747 0.18022275
0.049826708 -0.007870066 0.17979282
0.050510593 -0.0035742985 0.17894989
0.050937448 0.00091552315 0.1790123
0.050313592 0.0047512627 0.17830682
0.049577698 0.0092652459 0.17836791
0.048853192 0.013115723 0.17758554
0.051135167 -0.003098452 0.17494035
0.050984964 0.00074994948 0.17459744
0.050908837 0.0033150211 0.17438743
0.027882405 0.038390338 0.21782726
0.027236583 -0.038591973 0.21972388
0.030452425 -0.036622804 0.21830592
0.028287442 0.037805483 0.21359733
0.026829293 0.040096041 0.21296722
0.031005573 -0.036181856 0.21459663
0.029191883 0.036997709 0.20997149
0.027986422 0.038662177 0.2086091
0.031543083 -0.035127226 0.21024567
0.034119949 -0.03339478 0.20902017
0.034208179 0.032423932 0.20455527
0.031491227 0.03453536 0.20603043
0.035158753 -0.032700591 0.20562026
0.037907787 -0.030139327 0.20390767
0.037021942 0.028960947 0.19974619
0.034627728 0.031851668 0.20116359
0.036069937 -0.032096066 0.20065978
0.038392171 -0.029480238 0.20011437
0.037501931 0.0288685 0.1965813
0.035742402 0.031104328 0.19636044
0.03833076 -0.027640963 0.19550565
0.040974088 -0.025336264 0.19615534
0.038599238 0.02758674 0.19193888
0.036309805 0.030125329 0.19211715
0.039513335 -0.027247196 0.19121605
0.041734356 -0.025252938 0.19140339
0.043306895 0.019374387 0.18725854
0.041728787 0.023330344 0.18838662
0.039870653 0.026313173 0.18829647
0.043370962 -0.024495445 0.18686438
0.045275945 0.015342085 0.18364459
0.044019341 0.01813506 0.18409106
0.042241625 0.022670636 0.18342704
0.040533133 0.025837572 0.18303493
0.044372626 -0.02340702 0.18258196
0.045572724 -0.021020966 0.18194509
0.047131881 -0.016964644 0.18161622
0.046452131 0.015224419 0.18098086
0.044953465 0.017817808 0.17969275
0.043403354 0.021560809 0.17852122
0.045327187 -0.020170955 0.1780439
0.047019534 -0.016313156 0.17807814
0.049006615 -0.012220297 0.17812657
0.049578004 -0.0085010286 0.17629045
0.049299717 0.0091496427 0.17458862
0.048154797 0.014236088 0.17555511
0.046226468 0.017650029 0.17530572
0.044807553 0.020279018 0.17496112
0.046865601 -0.014775793 0.17321649
0.048446774 -0.01221656 0.17249036
0.049846787 -0.0083441893 0.17245248
0.05054554 -0.0040611606 0.17214671
0.050523877 0.0006434418 0.17155436
0.050100241 0.0046836087 0.17165971
0.049178533 0.00903395 0.17091018
0.048659768 0.013563789 0.17083943
0.047188845 0.016658826 0.17191625
0.049119677 -0.011748265 0.16848066
0.049441747 -0.0085392995 0.16782174
0.049702048 -0.004020439 0.16758049
0.050137129 0.00048929942 0.16727078
0.049736127 0.0043708137 0.16711473
0.049326897 0.0079340301 0.16703615
0.026622843 -0.039122809 0.21147162
0.029879147 -0.037085921 0.2109623
0.02749162 0.037034735 0.20617822
0.026834043 0.039474852 0.20636606
0.028188435 -0.039377455 0.20640844
0.030266713 -0.036795553 0.20748237
0.028677871 0.0357081 0.20224893
0.02693045 0.039279312 0.20257932
0.029526424 -0.039488018 0.20381916
0.031195013 -0.036867846 0.20307019
0.033835582 -0.034185402 0.20301414
0.030067051 0.035600238 0.19771776
0.033220205 -0.035785791 0.19825119
0.034590073 -0.033992097 0.19853553
0.034517474 0.032849751 0.19420099
0.03210865 0.035448134 0.1934464
0.031074744 0.03819067 0.19141093
0.035188794 -0.033024877 0.19354352
0.036872916 -0.030203965 0.19399068
0.034981269 0.031218156 0.18931401
0.032713857 0.035470333 0.19008622
0.036315169 -0.032287866 0.18961063
0.037886739 -0.029813189 0.18950397
0.037807755 0.028104696 0.18587258
0.035786953 0.030331166 0.18505654
0.039296765 -0.028373089 0.18555087
0.041359153 -0.025974341 0.18404225
0.039116673 0.027479431 0.18098867
0.036834188 0.029865544 0.18093687
0.039466638 -0.027897689 0.18124089
0.041402373 -0.025128774 0.17954141
0.042702351 0.02298001 0.17588946
0.040468507 0.025834244 0.17642266
0.042319484 -0.024344429 0.17514822
0.044428416 -0.021599527 0.17564142
0.045071892 -0.018605391 0.17475966
0.043440599 0.021942904 0.17266005
0.041610565 0.024553364 0.17181215
0.044406243 -0.020946726 0.17137378
0.045956202 -0.016998017 0.17124808
0.046846136 0.014802979 0.16694844
0.04565835 0.017925102 0.16885185
0.04340826 0.021211099 0.16860244
0.046779618 -0.016638106 0.16626942
0.048738346 -0.012697356 0.1659078
0.049105015 -0.0086531555 0.16511863
0.049229059 -0.0041388203 0.16449875
0.049545713 0.00039475149 0.16448355
0.049094185 0.0042710244 0.163899
0.048313737 0.0091194715 0.16429302
0.047229156 0.012965916 0.16373017
0.045217548 0.017417716 0.16552138
0.047809381 -0.015283748 0.16220737
0.048482947 -0.012702035 0.16167966
0.048742995 -0.0086303949 0.16125757
0.049548168 -0.0042778337 0.16112366
0.049921889 0.00026443126 0.16115582
0.048774667 0.0041416395 0.16001362
0.047975063 0.0080630351 0.16005945
0.047296338 0.011989521 0.16020226
0.049623881 -0.0037723875 0.15750659
0.049537182 0.00012333589 0.15720919
0.026836138 0.037292145 0.19998613
0.027468683 -0.040197138 0.20064005
0.027339371 0.037222642 0.19768894
0.027617658 0.038995311 0.19565246
0.027436292 -0.03998211 0.19703996
0.030873301 -0.037861314 0.19758335
0.030011209 0.039058767 0.19273114
0.031271338 -0.037147351 0.19292387
0.033548303 -0.03487929 0.19131404
0.032784361 0.032801922 0.18672967
0.032062616 0.035198212 0.18731251
0.031590395 0.038135797 0.19000581
0.034614392 -0.033759836 0.18755341
0.0328237 0.032186754 0.18195945
0.030747667 0.034141399 0.18247414
0.035577741 -0.032309256 0.18304697
0.03777935 -0.0300411 0.18249971
0.034922514 0.030886201 0.17810503
0.03609303 -0.031608243 0.17862138
0.038056102 -0.029162118 0.17802125
0.04041905 -0.026363162 0.17706752
0.038848504 0.027673617 0.1744878
0.036472116 0.029204292 0.1733219
0.038586669 -0.028836437 0.17348906
0.040836249 -0.026228966 0.17330873
0.039782424 0.026344689 0.16949201
0.037250929 0.028280873 0.16870889
0.041172113 -0.025319122 0.16874599
0.043388385 -0.02239055 0.16885525
0.042734489 0.021749368 0.16559976
0.04111525 0.025040425 0.16577122
0.041861877 -0.024336709 0.16535056
0.04334547 -0.021563863 0.16475099
0.045554027 -0.018677143 0.164267
0.045488581 0.014660098 0.16043681
0.044602275 0.017351668 0.16231471
0.042728253 0.021163829 0.1617583
0.041557178 0.023981776 0.16135964
0.044304013 -0.020655172 0.15973622
0.045682568 -0.01757618 0.1591523
0.047243305 -0.012869825 0.15795892
0.047837276 -0.0095932428 0.15824294
0.047564764 0.0079729352 0.15699732
0.046344332 0.012790889 0.15695974
0.044307489 0.017093433 0.15686044
0.043075051 0.020333327 0.15758303
0.046195865 -0.016068263 0.15485573
0.04691102 -0.013046629 0.15402707
0.047628727 -0.009105132 0.15437549
0.048383221 -0.0050291494 0.15428758
0.048522796 -0.0003711741 0.15353829
0.048117146 0.0039442498 0.15400806
0.047930107 0.0078526922 0.15362957
0.047082014 0.012247878 0.1528562
0.047746539 -0.011873029 0.150949
0.047800083 -0.0089489408 0.15036014
0.047791753 -0.0050264993 0.15012467
0.048064828 -0.00055058196 0.14906994
0.048508286 0.0037533145 0.14881146
0.048657365 0.0076719536 0.14870471
0.048167724 0.011435766 0.14831689
0.048988122 0.0042815711 0.14547396
0.048791274 0.0082050394 0.14508379
0.02717502 -0.04011279 0.19507396
0.028359024 -0.037722316 0.19040328
0.026518514 0.038361624 0.1845383
0.028722579 -0.036648996 0.18609956
0.031274915 -0.035358973 0.18428794
0.029232755 0.034622036 0.18013215
0.032245722 -0.035048649 0.18010843
0.032169804 0.0326369 0.17640036
0.030280095 0.034027994 0.17491117
0.03399156 -0.033772346 0.17626008
0.033817343 0.031154891 0.17228794
0.032043152 0.03287489 0.17130417
0.03539351 -0.032518022 0.1721518
0.037656017 -0.030347615 0.1711114
0.035337314 0.030041145 0.16753256
0.032468013 0.032449681 0.16754892
0.036058493 -0.032171972 0.16862291
0.037949223 -0.02940494 0.16678238
0.039850064 -0.02697573 0.16576368
0.038852233 0.026760468 0.16274109
0.036235876 0.028525764 0.16243684
0.038673673 -0.028508043 0.16218331
0.040486082 -0.025997089 0.16230872
0.042124119 -0.023201043 0.16182935
0.041427664 0.022611529 0.15859294
0.039593186 0.025543857 0.15881196
0.041056804 -0.025268024 0.15779579
0.042574167 -0.022708168 0.15848202
0.041850686 0.021623086 0.15469804
0.040187053 0.023865836 0.15385723
0.042656727 -0.021936489 0.15323049
0.045399938 -0.018343152 0.15311745
0.046050567 0.014334241 0.14989004
0.044513483 0.017166412 0.15069711
0.042878971 0.020741908 0.1504454
0.045660701 -0.017410118 0.1481317
0.046881542 -0.013470164 0.14825475
0.047587447 -0.0096505908 0.14772958
0.047579017 -0.0057209441 0.14749372
0.047851272 -0.0022084459 0.14677137
0.047779389 0.012846334 0.14583606
0.045234051 0.016032008 0.14559084
0.043296628 0.020254543 0.14638537
0.046376161 -0.013173135 0.14387357
0.047227927 -0.0094155641 0.14319181
0.047884278 -0.0056318534 0.14328134
0.048652615 -0.001026358 0.1436494
0.048899993 0.0033560586 0.1430681
0.048549056 0.0072853514 0.14254868
0.047564507 0.011425909 0.14202505
0.04550498 0.014124521 0.14203483
0.04730773 -0.0084291771 0.13923398
0.048170738 -0.0053871796 0.13852885
0.049166679 -0.0012287243 0.13849574
0.049063887 0.003210865 0.13838506
0.048473954 0.0073366552 0.13835517
0.04765749 0.010968245 0.13793164
0.04907712 -0.002029517 0.13472161
0.025533708 0.037066359 0.18209836
0.026437284 -0.038400862 0.18294695
0.026590141 0.03560612 0.17752746
0.027982799 -0.038303569 0.17850038
0.028487561 0.035422899 0.17349347
0.025823899 0.037673324 0.17210606
0.0297621 -0.037268382 0.1751056
0.03120707 -0.036000002 0.1733779
0.029758673 0.034734305 0.16864988
0.028058102 0.036651772 0.16670367
0.032330889 -0.035083696 0.16960099
0.030976243 0.033957671 0.1642634
0.029629162 0.036950376 0.16390076
0.033962846 -0.033741198 0.16526467
0.036792297 -0.030453606 0.16358671
0.033444591 0.030415218 0.16071689
0.031812377 0.032352708 0.16063175
0.035000987 -0.032962441 0.1609537
0.036751732 -0.030390998 0.15960068
0.036748357 0.026683485 0.15466592
0.034612451 0.02912529 0.15561631
0.037510309 -0.029234959 0.15530571
0.039040908 -0.027207857 0.15547597
0.037502952 0.025918415 0.15160543
0.03516141 0.028015522 0.15148193
0.040120944 -0.026031122 0.15143287
0.041662268 -0.023741862 0.15134519
0.041817173 0.02233066 0.14785135
0.039495043 0.024913924 0.14791954
0.03703538 0.027832892 0.14740449
0.040661473 -0.0257349 0.14723933
0.042282548 -0.022624841 0.14712992
0.044150539 -0.019604661 0.14537191
0.043649707 0.018151328 0.14214176
0.042762332 0.021029575 0.14357871
0.040802021 0.02424584 0.14319369
0.042429533 -0.021952251 0.14285171
0.044219818 -0.018271603 0.14098868
0.045671124 -0.013905106 0.14081264
0.046630129 -0.01100423 0.14069104
0.044265289 0.015561282 0.13882565
0.042789664 0.020127038 0.13825768
0.041512985 0.023903375 0.13943052
0.044978347 -0.017370362 0.13655925
0.046180896 -0.013823929 0.13673067
0.047107663 -0.010007333 0.13704976
0.048192758 -0.0067783231 0.13675538
0.04822249 0.0046113185 0.13549519
0.047420282 0.0072430582 0.13466948
0.046855792 0.011487402 0.13470092
0.044755697 0.014867272 0.13414446
0.046634726 -0.013846487 0.13199997
0.047723446 -0.010053472 0.13216037
0.048362989 -0.0060734097 0.13247132
0.048755102 -0.0013936977 0.13236052
0.048336063 0.0031640716 0.13191414
0.047874827 0.0071204528 0.13129559
0.04737711 0.011083346 0.13064522
0.045577474 0.013797077 0.13085744
0.048247781 -0.0093416711 0.12815547
0.049044628 -0.0061102617 0.1276232
0.049221858 -0.0020418423 0.12749225
0.048856258 0.0024828401 0.1265572
0.048619151 0.006935962 0.12626985
0.048295088 0.010535862 0.12605557
0.049400363 -0.0051038745 0.12383971
0.049564261 -0.0024518212 0.12382817
0.049287815 0.0028407711 0.12328494
0.049259305 0.0081372112 0.1229552
0.049194116 0.0094613284 0.1228227
0.027254209 -0.039077073 0.17126215
0.02676446 0.038436893 0.16680118
0.027958276 -0.039172348 0.16650343
0.030124122 -0.036455508 0.1661551
0.028998356 0.038289897 0.16242018
0.028622033 -0.039368521 0.16286075
0.03057136 -0.036195606 0.16279024
0.030409556 0.034091726 0.15826017
0.029530609 0.037737582 0.15762985
0.032868095 -0.034441292 0.15816996
0.033084974 0.03083436 0.15431973
0.030801771 0.033437222 0.15353951
0.029250382 0.036359821 0.15378451
0.033256941 -0.0335343 0.15358242
0.03550458 -0.031047121 0.15335488
0.035033174 0.029604213 0.14963472
0.03268775 0.032522753 0.14894861
0.036136203 -0.030239351 0.14874521
0.038381491 -0.02789858 0.14894554
0.038208757 0.026389858 0.14470208
0.036443148 0.029300336 0.1447432
0.034183912 0.031899393 0.14394653
0.037398782 -0.029539658 0.14356056
0.039015312 -0.027256472 0.14411873
0.038906951 0.026285056 0.14153391
0.036678061 0.028026717 0.14008972
0.039193511 -0.026588252 0.13983625
0.041182943 -0.023437923 0.14003524
0.040564504 0.025211345 0.1366967
0.037623372 0.027571604 0.13665295
0.041618381 -0.023224818 0.13535482
0.043708358 -0.019696986 0.13437483
0.044041004 0.016543778 0.13223866
0.042907938 0.019870069 0.13276678
0.040855817 0.024467913 0.13249141
0.039084282 0.027401833 0.13220185
0.042182717 -0.022050438 0.13197201
0.04408576 -0.018277371 0.12998244
0.046202764 -0.014824516 0.12925828
0.045183983 0.015231472 0.12831426
0.043238845 0.018909227 0.12723559
0.041781001 0.021848379 0.1281423
0.04416234 -0.017656932 0.12578577
0.04594573 -0.014127492 0.12574184
0.047316007 -0.01077751 0.12554353
0.048255086 -0.0077064727 0.12490529
0.047661014 0.012204743 0.12419695
0.045457467 0.014908249 0.1231046
0.04370882 0.01764545 0.12336043
0.045935102 -0.013179649 0.12131816
0.047100715 -0.010166493 0.12051094
0.048523102 -0.0067036459 0.12103009
0.049719982 -0.0025579825 0.12111384
0.049457788 0.0018697126 0.12094927
0.04877058 0.0065758978 0.12047946
0.047983903 0.010891757 0.11954999
0.045929484 0.013462929 0.11977834
0.048409071 -0.0064493837 0.11656433
0.049264926 -0.002711986 0.1169048
0.048703909 0.0016556962 0.11630088
0.047908086 0.006622341 0.11614352
0.047606144 0.0099516101 0.11568892
0.028500492 -0.039528534 0.16026908
0.029276952 -0.036843181 0.15996987
0.027946526 -0.039785136 0.15631148
0.028731722 -0.036655501 0.15580571
0.030095866 0.034925073 0.15080571
0.028419152 0.037864245 0.15095055
0.029836332 -0.03511392 0.15096894
0.03028924 0.034508549 0.14677626
0.028280392 0.037305921 0.14689946
0.03296946 -0.03342548 0.14772961
0.034385104 -0.032096982 0.14691028
0.031860404 0.033339392 0.14256379
0.033886876 -0.033731058 0.14189348
0.035625458 -0.031657413 0.1422421
0.034903254 0.029869443 0.13769054
0.033017535 0.031819016 0.13641989
0.036552481 -0.031017814 0.13783365
0.038515501 -0.028060937 0.137476
0.036535725 0.028680349 0.13380772
0.037441187 -0.030097011 0.13322741
0.039152436 -0.02736537 0.1335417
0.039454632 0.025308311 0.12884018
0.038225923 0.028057003 0.12955478
0.039476089 -0.026684344 0.12933329
0.040877122 -0.023728298 0.12883088
0.042859301 -0.020869501 0.12867433
0.042921577 0.01904141 0.12451565
0.040308442 0.023569975 0.12558025
0.038380675 0.026396599 0.1253387
0.041452751 -0.022981696 0.12416738
0.04344295 -0.019583629 0.12443489
0.04447598 -0.015819691 0.12212831
0.04285368 0.019122766 0.12111324
0.040973015 0.022880679 0.12096584
0.043009195 -0.019628474 0.11964822
0.044772301 -0.015314066 0.11852002
0.04613987 -0.011964105 0.11855149
0.045273952 0.014907847 0.11697406
0.043598261 0.018797042 0.11618072
0.042119112 0.022229221 0.11695009
0.045736417 -0.013915551 0.11478859
0.046694502 -0.01081717 0.11416131
0.047732491 -0.0071709589 0.11341834
0.047770552 -0.0028494538 0.11272269
0.047619171 0.0022355882 0.11268264
0.047562718 0.0065269307 0.11296415
0.047307935 0.01073357 0.11291134
0.045368314 0.014408111 0.11210442
0.044340491 0.017996963 0.11237967
0.046832494 -0.0096364692 0.11035573
0.047626071 -0.00697697 0.10993564
0.047968064 -0.0031507378 0.10929269
0.047752108 0.0010375524 0.10917282
0.047316927 0.0057305992 0.1089347
0.047010083 0.010414068 0.10839534
0.026766915 -0.039375935 0.15255424
0.025966084 -0.038405109 0.14885324
0.027868154 -0.036205981 0.14853248
0.026455469 0.037018951 0.14312187
0.027512059 -0.037853677 0.1436204
0.029324057 -0.035698157 0.14494488
0.029569488 0.034782056 0.14101976
0.029673459 -0.038019951 0.13967517
0.031174934 -0.035887107 0.14076704
0.029962776 0.033852175 0.13533515
0.02819589 0.036089383 0.13415408
0.031098044 -0.038618796 0.13642851
0.032367773 -0.035433587 0.13632891
0.035065465 -0.032112177 0.134231
0.033959679 0.030312905 0.1306403
0.031613536 0.032474488 0.13144085
0.035158753 -0.031643275 0.13046587
0.035762124 0.029480647 0.12742183
0.03327518 0.031065516 0.12602323
0.035955958 -0.03086547 0.1258181
0.037579078 -0.028241348 0.12591439
0.03685626 0.027745647 0.12206447
0.034042187 0.030137714 0.12211758
0.036986846 -0.030745476 0.12139231
0.0382764 -0.028019337 0.12136853
0.040236611 -0.024901483 0.12237915
0.039721522 0.024369296 0.11765361
0.037818536 0.026994118 0.11804157
0.039565749 -0.027412983 0.11703491
0.040836353 -0.024127251 0.11755359
0.042417631 -0.020732222 0.11775863
0.041085262 0.023420857 0.11425823
0.038955435 0.026195368 0.11341941
0.040427532 -0.027041622 0.11349881
0.041601881 -0.024155417 0.1129685
0.042913456 -0.020268423 0.11333364
0.043820143 -0.016246893 0.11278874
0.044241123 0.014540985 0.1086244
0.043533988 0.019197702 0.110834
0.04131864 0.022325465 0.11014158
0.04293808 -0.020146692 0.10780245
0.043906178 -0.015976664 0.1079616
0.045789294 -0.011271621 0.1073457
0.046905909 -0.0071128462 0.10639912
0.047060303 -0.0017425318 0.10622889
0.047022343 0.0009395128 0.10604161
0.046886701 0.0056324094 0.10565251
0.046551451 0.010327005 0.10508585
0.044354185 0.014457945 0.10581678
0.042770609 0.017745314 0.10559237
0.044500299 -0.015485412 0.10352105
0.046262231 -0.011326265 0.10216898
0.046879139 -0.0072703622 0.10248971
0.047608957 -0.0032213612 0.10291153
0.04777142 0.00080954225 0.10282737
0.04746994 0.0055062547 0.1022886
0.046432309 0.010208847 0.10109085
0.044440474 0.014060566 0.10143578
0.0466405 -0.010805331 0.098566473
0.0472195 -0.007180572 0.098097444
0.047792725 -0.0032269142 0.097773612
0.048092112 0.00060366519 0.097266138
0.048029933 0.0051362892 0.097129643
0.047282491 0.0093529988 0.096034884
0.048353486 0.0011409277 0.093547583
0.048269596 0.0038367105 0.093317688
0.025113905 0.036318265 0.13660204
0.028233189 -0.040159121 0.13863218
