# .PCD v0.7 - Point Cloud Data file format
VERSION 0.7
FIELDS x y z
SIZE 4 4 4
TYPE F F F
COUNT 1 1 1
WIDTH 1346
HEIGHT 1
VIEWPOINT 0 0 0 1 0 0 0
POINTS 1346
DATA ascii
0.010119998 0.035644669 0.3005586
0.0058662784 0.035721354 0.30033606
0.0018491022 0.035514645 0.3002862
-0.0026320005 0.035544839 0.29971194
-0.0068811611 0.035161462 0.29923993
-0.011134815 0.034829635 0.29879487
-0.015391762 0.034527797 0.29836613
-0.018321455 0.033298835 0.29720172
0.018286051 0.036048226 0.2958048
0.014573598 0.037520427 0.29638857
0.010309126 0.037846327 0.29630479
0.0064182146 0.037327714 0.29708141
0.0029706152 0.037105937 0.29700622
-0.0029524704 0.037488956 0.29606783
-0.0066864006 0.037482925 0.29504979
-0.010936746 0.037337013 0.29470569
-0.015192413 0.036862493 0.29417899
-0.018176969 0.035452314 0.29355001
0.018474489 0.03822393 0.29152018
0.014772745 0.039432406 0.29197153
0.010695321 0.039967164 0.29157141
0.0077073257 0.040265221 0.29095611
-0.0034040923 0.040650487 0.2899625
-0.0064919135 0.039820433 0.29087514
-0.010741294 0.039403696 0.29037786
-0.015005648 0.038159046 0.28941357
-0.017460469 0.036709275 0.28844586
0.018486975 0.039187789 0.28706491
0.015002092 0.040593062 0.28712541
0.01071575 0.041365333 0.28730235
0.0065812976 0.041728172 0.28709748
0.0022330103 0.042317186 0.28633863
-0.0022991693 0.041725107 0.28648025
-0.0062960936 0.041721329 0.28645682
-0.010545922 0.041390367 0.28600505
-0.014809907 0.040162224 0.28503916
-0.017263245 0.038787041 0.28410155
0.014861074 0.041674122 0.28235352
0.010924515 0.042959485 0.28269973
0.0066526188 0.043558206 0.28278482
0.0023994222 0.043618187 0.28255773
-0.0018504582 0.043561526 0.28226307
-0.0061002318 0.043472223 0.28194925
-0.010352031 0.04298263 0.28140223
-0.014614612 0.042100158 0.28062633
-0.017089766 0.040859088 0.2805469
0.014694268 0.043188419 0.27797845
0.011140815 0.044355258 0.27797025
0.0068647782 0.044919133 0.27804136
0.0026009374 0.045299239 0.27800417
-0.0016539004 0.045471258 0.27784473
-0.0059030382 0.044942841 0.27727118
-0.010159822 0.044233151 0.27658957
-0.014070756 0.042515621 0.27666366
0.010715392 0.044424534 0.27399716
0.0066512311 0.045237117 0.27370104
0.002817034 0.046213031 0.27298436
-0.0014451576 0.046338305 0.27279857
-0.0053138915 0.045369439 0.27251279
-0.0094124917 0.045013446 0.27311429
0.0027330872 0.046235051 0.26915053
-0.00085075607 0.046523504 0.2688309
-0.0043658246 0.045935001 0.26917589
0.0035722263 0.0059770863 0.34953797
-0.00093766261 0.0075485539 0.34945428
-0.0043766503 0.0078404807 0.35125035
0.012303875 0.0094879195 0.34673882
0.0082741044 0.0083493348 0.34789541
0.0049463073 0.0081905471 0.34821898
-0.010060092 0.012085726 0.3414318
-0.0085587017 0.014867969 0.33519828
0.016447289 0.015418003 0.33346841
0.013207359 0.015106457 0.33286119
0.0099189254 0.017083578 0.3328253
-0.0059481259 0.016619172 0.33160356
-0.0078350846 0.014939955 0.3322202
0.011257192 0.015735373 0.33073503
0.0086508393 0.016206264 0.32951367
0.004964876 0.018031547 0.32802624
0.00038418328 0.018815057 0.32692245
-0.0046895104 0.017747743 0.32793072
-0.0078455592 0.016729577 0.32778817
0.0042046728 0.017905712 0.32363683
0.0005393044 0.01863471 0.32320088
-0.0033462266 0.017917514 0.32291043
-0.0078579001 0.018232584 0.32329738
0.0042392598 0.019533379 0.31731963
0.00060055603 0.019858973 0.31774324
-0.002305975 0.019459197 0.31780455
0.012098821 0.022221057 0.31232211
0.009367479 0.022224121 0.31277716
0.005217717 0.021727273 0.31475666
0.00090827222 0.02280828 0.31503555
-0.0032964512 0.022328496 0.31396228
-0.007322696 0.021987729 0.31161159
-0.010935668 0.021697741 0.31100294
0.013571627 0.024004342 0.30986384
0.0097061284 0.025058525 0.310516
0.0053775026 0.025408234 0.31120557
0.0015254515 0.025446193 0.31238347
-0.0033981935 0.025337782 0.31087953
-0.0074348529 0.02475163 0.30928603
-0.011349997 0.024098752 0.30854723
-0.014983077 0.023335574 0.30755848
0.021063631 0.026028926 0.30469048
0.018553751 0.025981922 0.3055554
0.014162461 0.026790058 0.30701333
0.010231191 0.027677026 0.30775434
0.0073354258 0.027500868 0.30852067
-0.0081191137 0.027220998 0.30688992
-0.0115467 0.027161937 0.30560488
-0.015838007 0.026229449 0.30484718
-0.018579494 0.025646413 0.3035858
0.022568479 0.02848726 0.30157667
0.018526563 0.029264128 0.30290279
0.014879603 0.029297847 0.30436161
-0.01226397 0.029075501 0.30282035
-0.015685139 0.02862397 0.30221081
-0.019140678 0.028755885 0.30010712
-0.021743352 0.027157901 0.29790878
0.026327694 0.030113801 0.29697758
0.023300322 0.030606408 0.29839331
0.01940616 0.031920586 0.29910898
-0.020531449 0.030931182 0.29608926
-0.022378886 0.029180134 0.29396811
0.026487982 0.032005757 0.29328334
0.023210384 0.032976616 0.29425099
0.020216964 0.033880387 0.29472399
-0.020530105 0.033014979 0.29145619
-0.022602445 0.030982986 0.28967437
0.026690967 0.033937406 0.2888222
0.023682293 0.03488829 0.2897214
0.020426221 0.0356391 0.29018658
-0.019600883 0.034490194 0.28729108
-0.021859154 0.033472944 0.28521785
0.026872355 0.03546872 0.28492677
0.023617936 0.036773752 0.28531259
0.020235686 0.037818894 0.2853325
-0.019134212 0.036557898 0.2827099
-0.021586418 0.03536265 0.28107783
0.022968356 0.038167942 0.28012148
0.01960437 0.03951221 0.28122932
0.017147766 0.040638328 0.28093702
-0.018767707 0.038576756 0.27772295
-0.021317719 0.037081614 0.27683845
0.022982182 0.040065564 0.2753613
0.019814666 0.041250024 0.27666897
0.016741345 0.042463865 0.27639839
-0.014805996 0.042068534 0.27369326
-0.017729133 0.04025393 0.27386174
-0.020644192 0.038376279 0.27328756
0.022928296 0.041057371 0.27219653
0.019980513 0.042234115 0.27106199
0.015712673 0.043582782 0.27219611
0.011612347 0.043978062 0.27172354
0.007582997 0.04433855 0.27108258
-0.0064724791 0.04458838 0.27037194
-0.010156923 0.043689404 0.27013925
-0.014255081 0.043027028 0.27002451
-0.017119411 0.041832499 0.26886338
0.019051118 0.042937212 0.26717767
0.015962053 0.044336148 0.26703203
0.011649683 0.044916835 0.26712307
0.0073538949 0.045260821 0.26707044
0.0032761227 0.04637289 0.26623586
-0.0015199593 0.046332426 0.26601979
-0.0055993055 0.045536298 0.26622608
-0.0097767934 0.044980187 0.26585096
-0.013821646 0.04346272 0.26530567
0.015705019 0.045479435 0.262665
0.011880403 0.045957889 0.26211941
0.0075856759 0.045981441 0.26187158
0.0032778692 0.046734247 0.26207486
-0.001014738 0.047147412 0.26206964
-0.0052941148 0.046348929 0.26131332
-0.0086266845 0.045657381 0.2609123
-0.011484386 0.044088669 0.26115838
0.014473327 0.046444416 0.25933403
0.012013253 0.04652708 0.25923577
0.0079215765 0.046469197 0.25895008
0.0034096455 0.04690918 0.25895029
-0.00086502935 0.047033124 0.2582252
-0.0045627514 0.046603102 0.25827274
-0.0082435785 0.046021905 0.25768474
0.013829942 0.011791094 0.32940078
0.016967749 0.011810356 0.3261238
0.013381979 0.011931387 0.32595515
0.0093147987 0.013173735 0.32536945
0.017668208 0.013362614 0.32251826
0.013321248 0.013475777 0.32148501
0.0092480695 0.014300824 0.32141155
0.0059677814 0.016369598 0.3209281
0.00066058029 0.017561469 0.32014951
-0.0042796801 0.016802583 0.32023948
-0.0069341711 0.015744619 0.31929067
-0.010410692 0.013731172 0.31755814
0.013409338 0.016206369 0.31700704
0.0094260247 0.017046127 0.31733409
0.0056837592 0.017693946 0.3180894
0.0013325614 0.018070579 0.31889209
-0.0041354503 0.017807262 0.31686231
-0.0072110407 0.016267011 0.31589925
-0.010779173 0.015292269 0.31487584
0.018072527 0.018543977 0.31120229
0.014059197 0.019000668 0.31330097
0.0097175427 0.019925799 0.31456909
-0.004027152 0.019678576 0.31469578
-0.0075245448 0.018947892 0.31313303
-0.011514575 0.018342119 0.3121863
-0.015358596 0.018615909 0.31001037
-0.018662436 0.017847672 0.30815452
0.021750944 0.019968819 0.30800191
0.018469105 0.020777568 0.30884594
0.015501829 0.021677002 0.31017053
-0.016327614 0.021034136 0.30774471
-0.019008236 0.020474603 0.30603325
0.026562003 0.021966221 0.30393466
0.023243083 0.022734355 0.30488503
0.018851627 0.023284489 0.30664074
-0.020266451 0.022822941 0.30233052
-0.0223135 0.021870935 0.30017945
0.027374713 0.024643833 0.30020687
0.023994332 0.025799992 0.30199742
-0.020613605 0.025655149 0.29953617
-0.023896016 0.023906043 0.29681769
0.030254569 0.026332295 0.29515362
0.028072704 0.027346119 0.29663014
-0.024343479 0.026691349 0.29307014
0.030417196 0.028201003 0.29141617
0.028464297 0.029827904 0.29219764
-0.024503116 0.028827921 0.28836066
-0.026381753 0.027123211 0.28650075
0.030614799 0.03025721 0.28698924
0.0286687 0.031759556 0.28771588
-0.024301298 0.030989731 0.28400707
-0.026720002 0.029460769 0.28288081
0.030816866 0.032244805 0.28252363
0.028626537 0.033628162 0.28295323
-0.024096817 0.033247333 0.27971011
-0.02660735 0.03165834 0.27864373
0.030943891 0.033205241 0.27987054
0.028506555 0.03489488 0.27828747
0.025414109 0.036873225 0.27890721
-0.023678092 0.035613295 0.27522686
-0.0262303 0.033228222 0.2744832
0.028373582 0.036363605 0.27373031
0.02555079 0.038104642 0.27435708
-0.019343084 0.038650684 0.27111879
-0.022634726 0.037326436 0.27078953
0.027651062 0.037727036 0.27022204
0.024887538 0.039886497 0.26929492
0.021468924 0.042037677 0.26839569
-0.018759593 0.039793763 0.26645947
-0.021788143 0.038398091 0.26624203
0.024802504 0.04061529 0.26449004
0.020563513 0.042248674 0.26502714
-0.014843397 0.042628475 0.26221696
-0.017435269 0.040405411 0.26201034
0.023112103 0.040837836 0.26126519
0.020655047 0.042235699 0.26034743
0.017224088 0.044442058 0.26028642
-0.010172943 0.044470873 0.25903875
-0.013452971 0.042605896 0.25834638
-0.016386146 0.041441713 0.25759414
0.020489037 0.043235168 0.25728425
0.016513852 0.044663634 0.25589201
0.012211526 0.045250349 0.25518245
0.0078287292 0.045543961 0.25535205
0.0035649585 0.045977354 0.25511503
5.8201469e-05 0.046470881 0.25474709
-0.0045887674 0.045705505 0.25469819
-0.0088824835 0.04449892 0.25375104
-0.012499685 0.043410096 0.25385752
0.015456489 0.045232926 0.2520918
0.012363412 0.045314617 0.25195572
0.0085527357 0.045788631 0.25058874
0.0043841098 0.046142988 0.25035644
5.9526617e-05 0.046354908 0.25022876
-0.0042583048 0.046102218 0.24980479
-0.0084308833 0.045382056 0.24929646
0.0045090751 0.046773791 0.24747905
0.0001815096 0.046921033 0.24731144
-0.0034889914 0.046868104 0.24611267
0.017745806 0.012797562 0.31925508
0.015545163 0.013091684 0.3196533
-0.011650482 0.013052906 0.31714454
0.018355645 0.013435213 0.31551665
0.015653748 0.014392939 0.31717956
-0.012487715 0.012815441 0.31423628
-0.015969144 0.012359005 0.31261152
0.022339651 0.015371257 0.31067777
0.018355144 0.016156148 0.31248823
-0.01572814 0.015407528 0.31102023
-0.020010751 0.01440811 0.30788493
0.023696676 0.01810481 0.30823791
-0.020759419 0.017211299 0.30494124
-0.023146702 0.015667215 0.30306947
0.028194696 0.020191774 0.30378562
-0.024365062 0.018910849 0.29989102
0.030680383 0.021835534 0.29878581
0.028819041 0.022030491 0.30067983
-0.025662854 0.020998323 0.29673657
-0.027198415 0.019853147 0.29404056
0.032238081 0.023707207 0.29463941
-0.02766367 0.022542305 0.2899653
0.032903343 0.025582096 0.29031798
-0.028057754 0.025242241 0.28637975
-0.030209364 0.023318153 0.28334403
0.033159915 0.027530862 0.28568211
-0.028488861 0.027413605 0.28189182
-0.030264791 0.025870493 0.28026822
0.032833848 0.029885432 0.28129494
-0.028502902 0.030343395 0.27777275
-0.030901199 0.028173309 0.27617845
0.032532919 0.032026347 0.2766431
-0.02788985 0.032066394 0.27262813
-0.030279061 0.029630745 0.27240944
0.03248753 0.033367347 0.27217978
0.030093104 0.035272636 0.27214861
-0.026567325 0.032940488 0.26832762
0.031652894 0.034789074 0.26707578
0.029328374 0.036459807 0.26761365
-0.023854693 0.03687245 0.26411542
-0.026124759 0.034039374 0.26308301
0.028666185 0.038092941 0.26318395
-0.019024529 0.038532156 0.25972006
-0.022174915 0.037117835 0.2594772
-0.02534291 0.035416141 0.25906241
0.028233523 0.038054265 0.25985995
0.025266256 0.040305737 0.2592833
-0.018276092 0.039277349 0.25613615
-0.021257367 0.037811995 0.25525126
-0.023959877 0.036784273 0.2558879
0.025035614 0.040672053 0.25458336
0.021154528 0.042424679 0.25373831
0.018535258 0.043664321 0.25292557
-0.014432588 0.042600274 0.25156018
-0.017061673 0.040707096 0.2516301
-0.020058962 0.038546309 0.25228786
0.023718365 0.041082863 0.24995139
0.020855932 0.042910133 0.24952531
0.017070783 0.044495244 0.24974361
0.012487667 0.045086451 0.24934959
0.010030036 0.045693807 0.24876651
-0.0097586755 0.045313291 0.24732035
-0.012915888 0.043913025 0.2478784
-0.016068371 0.04142746 0.24692431
0.020152904 0.042866144 0.24590692
0.016572403 0.04411386 0.2454581
0.012716135 0.045234203 0.24449819
0.0089762853 0.045757875 0.24461192
0.0046562087 0.046421017 0.24395514
0.00031452964 0.046771441 0.24392048
-0.0044862288 0.046599884 0.24315026
-0.0083805304 0.045718022 0.24353406
-0.012591877 0.044206176 0.24327812
0.0079370569 0.045087628 0.23996204
0.0048407223 0.045981593 0.23952925
0.00032362522 0.046213694 0.23905137
-0.0038443934 0.04616465 0.23862395
-0.0074460558 0.045562863 0.23801062
-0.012919241 0.0089596501 0.31503871
-0.029259054 0.020166991 0.2896899
0.034507725 0.02418321 0.28783417
0.034677554 0.025970174 0.28401631
-0.03207441 0.023626221 0.27971989
0.037457284 0.026213411 0.27947477
0.034849811 0.027722856 0.28017932
-0.032425761 0.025883926 0.27659199
-0.033699639 0.024423731 0.27405837
0.037551504 0.02799915 0.27504733
0.035058234 0.029664775 0.27564287
-0.031487424 0.026569501 0.26925114
-0.034550983 0.025922397 0.27064177
0.037299145 0.029472984 0.26996505
0.034988094 0.031499356 0.27061665
-0.02820533 0.030878559 0.26595896
-0.029864775 0.028534411 0.26528305
0.037176166 0.030670272 0.26616699
0.0342815 0.032818545 0.26605019
-0.028042495 0.032373954 0.26196316
-0.030520871 0.029822024 0.26049951
-0.033230621 0.028582281 0.2618286
0.033539433 0.03396479 0.26112172
0.030701924 0.035424732 0.2616761
-0.026962578 0.033964682 0.25702143
-0.029225236 0.031039951 0.25615436
0.032269303 0.034286451 0.25695413
0.029817402 0.036851052 0.25736231
-0.022622464 0.037142154 0.25290224
-0.025635246 0.034865241 0.2529518
0.029458554 0.038275789 0.25293383
0.026473215 0.039949235 0.25146687
-0.018714845 0.038965855 0.24933365
-0.021364367 0.037622858 0.24892554
-0.02433699 0.035821792 0.2479541
0.029234394 0.038703769 0.24752432
0.025874654 0.040775355 0.24807775
0.022578737 0.041582774 0.24771661
-0.017662954 0.039805617 0.24472621
-0.020941233 0.038060494 0.24385586
-0.023640346 0.037017446 0.24365029
0.02532549 0.040437549 0.24370044
0.021582596 0.041809615 0.24281272
0.017690066 0.043199964 0.24202421
-0.013038879 0.043633003 0.23973799
-0.017022002 0.040833388 0.24006623
-0.020138774 0.038688388 0.24020922
0.020562217 0.041527852 0.2383886
0.017264379 0.043163128 0.23774031
0.013018019 0.044476185 0.23819733
0.0094221355 0.045080476 0.23817027
0.0049494682 0.045831952 0.23693594
0.0012144204 0.045791492 0.2366834
-0.0037656627 0.045696005 0.23631915
-0.0091002379 0.045199309 0.23692042
-0.012543144 0.04440226 0.23660338
-0.016001044 0.043023758 0.23590472
0.01575288 0.043573942 0.23357326
0.013082354 0.044638652 0.2334916
0.0093742339 0.045811467 0.23323035
0.0051120962 0.046452846 0.23317328
0.0007490922 0.046317101 0.23281908
-0.0036155307 0.046307549 0.23254934
-0.0079803355 0.046226725 0.23223126
-0.011863178 0.045066375 0.23190734
-0.014907616 0.044456057 0.23230952
0.0090637486 0.045691915 0.22869483
0.0051768734 0.046744108 0.22763887
0.00096947711 0.047122888 0.22749022
-0.0029547382 0.046527233 0.22748181
-0.006583625 0.045420785 0.22756875
0.0023513113 0.04736587 0.22435966
0.039190404 0.026636077 0.27168074
-0.032225396 0.025828954 0.26681408
-0.034589965 0.02401486 0.26724106
0.039367419 0.027037233 0.26864892
-0.031617306 0.026813608 0.26415658
-0.033406761 0.025946613 0.26353338
0.03886769 0.028559348 0.2631495
-0.031825293 0.029888952 0.25776798
-0.033169784 0.028462578 0.25847018
0.037867226 0.029547168 0.25885084
0.036010377 0.031768497 0.2589381
-0.030893492 0.028923817 0.25369665
-0.033134576 0.027322102 0.25364628
0.037207421 0.03040011 0.25402004
0.034571454 0.031995948 0.25484806
-0.027757643 0.032965418 0.25081632
-0.029732531 0.030843461 0.25020802
0.033451512 0.032557167 0.25013497
0.031431913 0.034604944 0.24963224
-0.026548142 0.03383619 0.24680838
-0.028699201 0.031807419 0.24554405
0.031026332 0.035647381 0.24526387
-0.022305263 0.037770916 0.2417129
-0.025266631 0.035597149 0.24157053
-0.02754879 0.032901708 0.24162424
0.029747758 0.037408289 0.24100897
0.026678914 0.038943022 0.24004945
0.023032879 0.040523738 0.2395567
-0.018319629 0.04003787 0.23673451
-0.021186164 0.038542733 0.23744655
-0.024021702 0.036939431 0.23724392
0.029589813 0.038300723 0.23597223
0.026249591 0.039238065 0.23569682
0.022115426 0.040676344 0.23603126
0.019455608 0.042045083 0.23530439
-0.017711045 0.040150523 0.23314899
-0.020362828 0.0385601 0.23283917
-0.023363018 0.037091833 0.23281711
0.025128221 0.040022753 0.23205411
0.022110336 0.041053589 0.23081556
0.018196713 0.042632002 0.2313388
0.014184182 0.043580174 0.22960415
0.01089648 0.044731889 0.22984457
-0.012283698 0.04356112 0.22765827
-0.016086172 0.041228823 0.2284922
-0.019405816 0.039053269 0.22928318
0.021154417 0.041878276 0.22684211
0.018481404 0.042568598 0.22593468
0.014244768 0.043330655 0.22571144
0.0099839065 0.04514965 0.22620779
0.0073126811 0.046401963 0.22569153
-0.004284841 0.045410819 0.22474039
-0.0079270527 0.044421826 0.22490576
-0.011549548 0.043286867 0.22412845
-0.014702966 0.042372413 0.22331792
0.013649611 0.044341002 0.22147411
0.010012683 0.045098305 0.22156313
0.0055823564 0.04616148 0.22202784
0.001033103 0.046415448 0.22171691
-0.0028295813 0.045119304 0.22097629
-0.0071397186 0.044529624 0.21998677
-0.011164325 0.043641534 0.2203123
-0.013961726 0.043112703 0.2204634
0.0093341218 0.045602255 0.21788952
0.0055337572 0.046053428 0.21717733
0.0015250106 0.046310306 0.21643162
-0.0022527818 0.046222329 0.21614388
-0.0057675471 0.045627236 0.21643102
0.039802071 0.027192954 0.25678101
-0.033754863 0.026795572 0.25162551
0.039075926 0.02804089 0.25267231
-0.031726249 0.028035469 0.24834508
-0.033045627 0.026653644 0.24740732
0.037449159 0.029725777 0.24859905
0.034917746 0.031878542 0.24779052
-0.0305306 0.030066591 0.24318364
-0.032933768 0.027332064 0.24364811
0.03699467 0.030251643 0.24386135
0.034416247 0.03224501 0.24329117
0.031817336 0.034679383 0.24301344
-0.029456267 0.031439882 0.23889619
0.033654775 0.033213161 0.23846912
0.031631973 0.035311107 0.23863918
-0.02577321 0.03527743 0.23519418
-0.02790634 0.033484899 0.23476806
0.031050384 0.03604082 0.2337265
0.028434452 0.03888851 0.23375627
-0.021592135 0.037841111 0.23060244
-0.024619406 0.035764929 0.2301766
-0.027252249 0.03367199 0.23033601
0.029961267 0.037019443 0.2300607
0.027211761 0.03939154 0.23025098
0.023621174 0.041245174 0.22826189
-0.017408252 0.039748091 0.22647852
-0.020794999 0.038014054 0.22659755
-0.02322863 0.036489636 0.22649604
0.02592562 0.038826894 0.22563279
0.022536939 0.041280478 0.22481698
0.019401347 0.042583976 0.22381255
-0.017279875 0.040190119 0.22253209
-0.020022113 0.038146276 0.22162193
0.021453878 0.041171607 0.2212618
0.018776417 0.0425217 0.22052962
0.016062202 0.043898363 0.22067398
-0.011656099 0.043950524 0.21819162
-0.015333423 0.042335272 0.21792457
-0.017792048 0.040073022 0.21814936
0.018290639 0.042720899 0.21642321
0.014378655 0.044116311 0.21561655
0.010572504 0.045684151 0.21535581
0.006325807 0.046682902 0.21446863
0.00088144484 0.046860848 0.21369609
-0.0029000405 0.046807308 0.21343204
-0.0073698685 0.045924529 0.2142593
-0.011188267 0.044441089 0.21384898
-0.014386524 0.043033056 0.21353415
0.013024342 0.044588789 0.2111012
0.010360474 0.045789905 0.21027994
0.0060730134 0.046756372 0.21049264
0.0016509051 0.046689596 0.21018094
-0.0021438221 0.0470437 0.21020544
-0.0063947081 0.046192084 0.20950428
-0.01038726 0.044788547 0.20897838
0.0062521738 0.046368651 0.20619792
0.0017972835 0.046122808 0.2063337
-0.0020073229 0.046296868 0.206231
-0.0051725036 0.045901895 0.20575964
0.039567888 0.026785258 0.24567717
-0.034250654 0.025277952 0.24017167
0.038275681 0.028736221 0.24128273
-0.033000331 0.027199639 0.23596853
0.03753598 0.029515849 0.23551157
0.035537064 0.031969227 0.23690432
-0.029716557 0.030815259 0.23205253
-0.032921892 0.028356105 0.23162258
0.03769695 0.030603958 0.23225239
0.034952294 0.03226795 0.23168591
0.032491934 0.03419444 0.2317439
-0.025881581 0.034437876 0.22752512
-0.028552363 0.031639539 0.22721851
0.034042541 0.033103216 0.22769648
0.031786997 0.035067104 0.22777155
-0.024882808 0.034612089 0.22404653
-0.027662292 0.032141391 0.22281516
0.030681038 0.035406698 0.22269142
0.027818706 0.03757719 0.22261822
0.023997206 0.039327014 0.2218658
-0.021415707 0.037308756 0.21904349
-0.023732068 0.034966093 0.21859953
0.027204426 0.037880767 0.2182025
0.023059618 0.03968418 0.2184048
0.020369116 0.041018996 0.2176604
-0.019844672 0.038620133 0.21515381
-0.022930276 0.036303516 0.21439332
0.02567954 0.038592394 0.21457317
0.02298549 0.039762091 0.21371049
0.019476522 0.041602749 0.2135821
0.016371667 0.042744603 0.21230501
-0.015502425 0.041644081 0.21112034
-0.019143987 0.039299421 0.21081942
0.019389506 0.041875262 0.20879436
0.015237655 0.043389458 0.20849708
0.011910732 0.044691119 0.2076484
-0.0084002037 0.044403434 0.20623016
-0.01148317 0.04377595 0.20663917
-0.014958514 0.042472038 0.20654601
-0.01745126 0.040025406 0.20605534
0.018458195 0.042255726 0.20456344
0.015096476 0.044054594 0.20406651
0.010766656 0.045610733 0.20476741
0.0063578836 0.046036467 0.20365226
0.0019044507 0.045857448 0.20354757
-0.0019042575 0.045722213 0.20322323
-0.0066203326 0.045022435 0.20295957
-0.010828314 0.04426958 0.20251524
-0.013898524 0.043605771 0.20220485
0.013553169 0.04443654 0.19972757
0.011000728 0.045625091 0.19956401
0.0065521393 0.04598001 0.19905835
0.0020797809 0.045666117 0.19906315
-0.0017381425 0.045374498 0.1986233
-0.005956315 0.044471741 0.19871628
-0.010719012 0.043775797 0.19867808
0.009879549 0.04564425 0.19600925
0.0066740583 0.046181254 0.19621232
0.003004859 0.046068855 0.19520986
-0.035097279 0.025177306 0.23412177
0.04005697 0.027219981 0.23452371
-0.033708263 0.027982589 0.22938433
-0.036572006 0.025663167 0.22880065
0.039869878 0.028753387 0.22945285
0.036556885 0.031541251 0.22938046
-0.029831477 0.030402096 0.2246131
-0.032509234 0.028174533 0.22469282
-0.035459708 0.026765326 0.22401494
0.035903201 0.031037046 0.22532555
-0.029418398 0.030700257 0.22097403
-0.031429093 0.0287566 0.22041434
0.034467578 0.031419605 0.22142997
0.032628506 0.033282846 0.22048181
-0.025702022 0.032940894 0.21710658
-0.027667617 0.031474825 0.21599466
0.031664196 0.03475612 0.21632284
0.028275404 0.036345672 0.21490404
-0.02458439 0.034842554 0.2121774
-0.026871968 0.032585207 0.21160215
0.031033976 0.034830455 0.21228251
0.027998252 0.036553096 0.21139991
0.024589639 0.03855091 0.21101156
-0.021443732 0.037684113 0.20851481
-0.023290174 0.036614805 0.20887336
0.026933853 0.037634972 0.20760518
0.023499116 0.039302338 0.20712212
0.020940846 0.041022167 0.20644698
-0.01913403 0.039317302 0.20429248
-0.021676771 0.037061993 0.20414764
0.023602111 0.040136885 0.20182198
0.020033116 0.041444931 0.20211032
0.017328998 0.042759471 0.20136452
-0.015619998 0.041597895 0.19987443
-0.018139254 0.039164595 0.19899932
0.019938156 0.041787285 0.19752663
0.015957575 0.043089814 0.19784048
-0.006528724 0.044369459 0.19620642
-0.01063548 0.043661714 0.19597206
-0.014510566 0.042366847 0.19567645
0.019008305 0.042531714 0.19338778
0.015646173 0.043933921 0.19306397
0.011420031 0.045115113 0.19283158
0.0074680368 0.045927696 0.19255656
0.0027565167 0.045587797 0.19167396
-0.0015049196 0.045010228 0.19222689
-0.0053403522 0.044343457 0.19150865
-0.0098240767 0.044078656 0.19104674
-0.013855424 0.043232918 0.19084609
0.010213226 0.044911318 0.18843415
0.0076668477 0.045528173 0.18785667
0.0030217248 0.04595891 0.18717813
-0.0012833276 0.045793638 0.18663824
-0.0051579732 0.045044508 0.18673578
-0.0090232966 0.044584651 0.1866073
0.0014129948 0.046214666 0.18356475
0.00012876913 0.046196479 0.18347508
-0.03650032 0.024591459 0.22122401
0.039142527 0.026834305 0.22365135
-0.033231471 0.026683837 0.21814269
-0.035165701 0.024566323 0.2186937
0.0361958 0.029023703 0.21904799
-0.029686363 0.029287167 0.21525654
-0.031670909 0.027848328 0.21416312
0.034886479 0.03058766 0.21481287
0.033202037 0.0325117 0.21312985
-0.028578062 0.030716145 0.20984268
-0.030899778 0.028800793 0.21050602
0.032323975 0.033094428 0.20940632
-0.025093079 0.033250347 0.20563409
-0.026767585 0.032077175 0.20602891
0.031873293 0.033670973 0.20569181
0.028812548 0.036366928 0.20523909
-0.023092523 0.034719378 0.20109618
0.028186888 0.036925338 0.20074612
0.025194069 0.039360885 0.19938326
-0.019395601 0.038007669 0.196336
-0.022503862 0.035751339 0.19658571
0.023701094 0.039567798 0.19616985
0.02149309 0.041562289 0.19547373
-0.018259959 0.038640313 0.19296545
-0.021083681 0.036437836 0.19274849
0.023323663 0.040379666 0.19161969
0.02053084 0.042561598 0.19195294
0.016592998 0.043880787 0.18981788
-0.015245501 0.042760391 0.18842676
-0.017292799 0.039841481 0.18881172
0.023171147 0.041054253 0.18811068
0.020634333 0.04252778 0.18668097
0.016133826 0.04355596 0.18599522
0.011757839 0.044617705 0.18630934
0.0077781593 0.045587335 0.18524688
0.0052088252 0.045567002 0.18507957
-0.0050666397 0.045421448 0.18436208
-0.0099204313 0.044890165 0.18478626
-0.014130325 0.043465223 0.18413541
-0.016847409 0.040485673 0.18531507
0.015667548 0.043283906 0.18219748
0.011792343 0.044456825 0.18195945
0.0079414174 0.045185108 0.18138826
0.0035905496 0.046345763 0.18184927
-0.0012419755 0.046202201 0.1813944
-0.0049422267 0.045521326 0.18088245
-0.0094475579 0.045049515 0.18025914
-0.013012942 0.043731555 0.17949775
0.0074541457 0.044944167 0.17759931
0.003440266 0.046413865 0.17685553
-0.00089607586 0.046671815 0.17663428
-0.0045339498 0.045536552 0.17662668
-0.0093328841 0.044574279 0.17632625
0.0018206299 0.046737008 0.17325461
0.037483484 0.027596461 0.21641657
-0.033768699 0.023932453 0.21138769
0.039389718 0.026401933 0.21151191
0.036853541 0.028236819 0.2121512
-0.02950443 0.029133029 0.20644879
-0.032489199 0.02677069 0.20691901
-0.03500085 0.023918455 0.20779863
0.03672041 0.028744446 0.20688799
0.034036394 0.03086758 0.20707747
-0.028497931 0.029168025 0.20276961
-0.031119581 0.027484568 0.20213142
0.035597693 0.03079718 0.20271343
0.033360023 0.032340549 0.2030817
-0.026949948 0.030197738 0.19872558
0.03582241 0.031301945 0.19865662
0.033161793 0.033630766 0.19838807
0.030135158 0.035392851 0.19740751
-0.023752024 0.0348165 0.19318908
-0.02636352 0.032388411 0.19418851
0.031892259 0.034288395 0.19292381
0.028428184 0.035813678 0.19364747
0.025546916 0.037281636 0.19347811
-0.019681776 0.037237134 0.18986726
-0.022506705 0.035624996 0.19007787
-0.025804337 0.033459917 0.18959972
0.031020638 0.035068635 0.18951473
0.028021052 0.036847476 0.18911049
0.025228849 0.038243297 0.1893605
-0.019054662 0.037490077 0.18617558
-0.021845585 0.035850044 0.18541464
0.02732601 0.038014721 0.18430927
0.024834029 0.039205931 0.18482605
0.021473881 0.041648172 0.18309867
-0.01809977 0.038944501 0.181714
-0.020808166 0.036317416 0.18198726
0.024216155 0.039713558 0.18090898
0.020821627 0.041879144 0.17987171
0.016677119 0.042467646 0.17924994
0.011950703 0.043341383 0.17843822
-0.014743883 0.042591438 0.17772719
-0.017573984 0.039455552 0.17683065
0.020529736 0.041790146 0.17596322
0.016409324 0.0425382 0.17484826
0.012090733 0.043949246 0.17531344
0.0083936825 0.04456728 0.17505601
0.0056630736 0.044984479 0.17392975
-0.00502651 0.044824667 0.17362672
-0.0089740083 0.043647919 0.1730687
-0.013550977 0.04282558 0.17275938
-0.016458336 0.041091852 0.17234424
0.01212892 0.043830719 0.17032254
0.0084126666 0.044727597 0.17028236
0.0040343865 0.045744844 0.1706486
-0.00067992322 0.045566797 0.17039675
-0.0044050533 0.044519663 0.16959229
-0.0081716795 0.043263931 0.16953039
0.0085693635 0.044646367 0.16660157
0.003750216 0.045638628 0.16631603
0.000117132 0.04464611 0.16610476
0.036865879 0.027690109 0.20502687
-0.032809708 0.025622807 0.20029181
-0.035514057 0.024109071 0.20084637
0.039714735 0.027363492 0.20142341
0.037703454 0.028744701 0.20138991
-0.02930644 0.028836453 0.19656059
-0.031333145 0.027333956 0.19626382
0.037705354 0.029475437 0.19632092
-0.029217612 0.029732311 0.19454068
-0.03069023 0.028398512 0.19149858
0.037126049 0.03086007 0.19351971
0.034046207 0.032818288 0.19103083
-0.027446162 0.031640917 0.18740711
-0.030125299 0.029485906 0.1875349
0.032514118 0.033762835 0.18685216
0.029830219 0.035655707 0.18719089
-0.023504622 0.035094019 0.1836099
-0.025809824 0.033472124 0.18343127
0.031467173 0.034415096 0.18187326
0.029392863 0.036190871 0.18307269
-0.022236384 0.035650998 0.17938581
-0.025054764 0.034395572 0.17895898
0.02853008 0.036794957 0.17866632
0.025244219 0.038568739 0.17765969
0.022469183 0.040219806 0.17668605
-0.018874705 0.039270863 0.17487639
-0.021622878 0.036718979 0.17484063
-0.024591163 0.035080019 0.17453408
0.024884699 0.038356155 0.17269033
0.021564653 0.040168561 0.17245618
0.018111195 0.041660734 0.17210555
-0.018117001 0.039957304 0.17021435
-0.021152984 0.03820416 0.16946945
0.020708501 0.039833818 0.16842574
0.016983114 0.041659202 0.16840562
0.013073802 0.043715462 0.16795686
-0.0057900758 0.043543953 0.16671416
-0.008676257 0.042751398 0.1666539
-0.012843535 0.041427765 0.16663581
-0.01766222 0.039348517 0.16639879
0.01610009 0.042179704 0.1638968
0.01260398 0.043223415 0.16390014
0.0086962255 0.044280104 0.16358989
0.0045305253 0.045081753 0.16342977
-0.00063004042 0.044520583 0.1636219
-0.004363169 0.04367188 0.16325688
-0.0082729775 0.042619996 0.16220203
-0.011422597 0.041552119 0.16154516
0.012762494 0.043370146 0.160368
0.0086931624 0.043892846 0.15923363
0.0048719975 0.0445753 0.15835994
0.00055191328 0.044522371 0.15799814
-0.0040025767 0.043767266 0.1583904
-0.0078670606 0.043317981 0.15838408
-0.033513557 0.0235385 0.19701937
-0.033403501 0.024527956 0.19415933
-0.033234455 0.026103919 0.18992913
-0.035906982 0.024934016 0.18893352
0.037040204 0.029412648 0.19022828
-0.031197308 0.028016463 0.18497166
-0.034822289 0.026232768 0.18505538
0.03654623 0.029383322 0.18747944
0.035034109 0.030873762 0.18442363
-0.027529905 0.031232253 0.18052304
-0.02949658 0.028633218 0.18047911
0.033568006 0.032454733 0.18053687
-0.026878271 0.031833373 0.17612913
-0.02881204 0.029738493 0.1757234
0.032151677 0.033278044 0.17607945
0.030037014 0.035223592 0.17575884
-0.023208421 0.035445515 0.17217451
-0.025934158 0.033218823 0.17214751
0.028970284 0.035785116 0.17213637
0.026424533 0.037492484 0.17075464
-0.023123274 0.035286728 0.16842121
-0.025112895 0.034497496 0.16770196
0.028202185 0.036433753 0.16867775
0.025520308 0.037645906 0.16602391
0.022131925 0.039386071 0.16633689
-0.014935833 0.039877601 0.16332102
-0.017611843 0.03844336 0.16335273
-0.02160915 0.03678662 0.16296521
-0.024639769 0.035431009 0.1634185
0.024532404 0.038331479 0.16260147
0.021760002 0.039472517 0.16172332
0.018386889 0.041088939 0.16195405
-0.013168721 0.040848717 0.16006631
-0.016560338 0.038836703 0.15911317
0.020795533 0.039612755 0.15786558
0.017103538 0.041597638 0.15756208
0.012892781 0.043179274 0.1574693
0.0096470239 0.043497104 0.15661287
-0.0047585107 0.043340564 0.15564489
-0.0083742468 0.043016348 0.15563467
-0.01202618 0.041865502 0.15588486
-0.015205057 0.039988823 0.15457755
0.016082283 0.042012844 0.15256989
0.013097965 0.043231692 0.15291163
0.0091399048 0.043813094 0.15314719
0.0052424585 0.044269834 0.15205526
0.00051147264 0.044384532 0.15153965
-0.0039476566 0.044144616 0.15172538
-0.007881158 0.043994103 0.1513747
-0.011484907 0.042589493 0.15122384
-0.014551454 0.040829405 0.15121928
0.012605927 0.043215752 0.14916521
0.0086630601 0.04299438 0.14875582
0.0066845687 0.043131914 0.14875177
0.00016467742 0.043777585 0.14703786
-0.003930259 0.044631243 0.14616609
-0.0076685543 0.044535756 0.14533895
-0.010838609 0.043311138 0.14725554
-0.035143081 0.024431497 0.18141162
0.037321776 0.026338479 0.18349111
-0.031169286 0.025880709 0.17799503
-0.034144834 0.023668319 0.17864823
0.0371457 0.025673751 0.17935297
0.035770033 0.029270722 0.17829543
-0.030605277 0.02678459 0.17303184
0.034859288 0.030475875 0.17344394
-0.027300227 0.030840345 0.16935849
-0.029190782 0.028320754 0.16947961
0.03339519 0.031883191 0.169388
0.030848801 0.033862561 0.16960514
-0.027168691 0.031769663 0.1654985
0.032497149 0.032802757 0.16429409
0.029915616 0.034556307 0.16526723
0.027169701 0.0366024 0.16324574
-0.022884861 0.035845652 0.15971339
-0.026076268 0.034015823 0.16086429
0.029523237 0.035060357 0.16010526
0.026185965 0.037227787 0.15976089
0.023412524 0.038172539 0.15872717
-0.018088615 0.038013391 0.15616727
-0.021472227 0.035989162 0.15622056
-0.025155785 0.034801736 0.15599799
0.025893532 0.037465204 0.15487525
0.022439366 0.038503498 0.15500113
0.019602966 0.039836884 0.15520138
-0.017324271 0.038314104 0.15275362
-0.020391917 0.036394358 0.15157974
0.025100926 0.038401727 0.15159446
0.022119187 0.039097007 0.15038177
0.018633343 0.040942568 0.151164
-0.013146976 0.041495103 0.14905563
-0.015833534 0.039494738 0.14821792
-0.018554188 0.037688512 0.14847022
0.02132198 0.040075783 0.14712971
0.017840896 0.041706152 0.14655203
0.013574637 0.0428125 0.14650136
0.0096114976 0.042992491 0.14641678
0.0054832939 0.043029938 0.14580771
0.001094984 0.043369994 0.14551923
-0.0029987025 0.04442995 0.14366359
-0.011803275 0.042792425 0.14414176
-0.014332933 0.041076627 0.14399421
0.016870556 0.041953325 0.14278993
0.013576981 0.04267415 0.14225242
0.0095431348 0.04314724 0.14078817
0.0057051331 0.043201242 0.14035398
0.0011985317 0.043450408 0.14048457
-0.0032525114 0.044172611 0.13951072
-0.0074845804 0.044238158 0.13950604
-0.011295718 0.042905688 0.13925642
-0.014221583 0.041348014 0.14048365
0.0046059624 0.044903602 0.13512909
0.002381515 0.044609532 0.13538232
-0.0027307258 0.044145074 0.13595319
-0.0080232602 0.044093575 0.13560313
-0.031536907 0.025847347 0.16992635
-0.034302112 0.024346894 0.17139012
0.039081495 0.026315745 0.1711536
-0.030108111 0.026368769 0.16627392
-0.034207813 0.024568213 0.16697392
0.038489446 0.027466999 0.16701213
0.036121305 0.029075202 0.16671437
-0.029278677 0.028048242 0.16253313
0.03446734 0.030885972 0.16329837
-0.028984856 0.029297946 0.15796599
0.033161893 0.032126278 0.15872002
0.031058475 0.03403499 0.15777245
-0.026860815 0.033068161 0.1545395
-0.028838417 0.03032444 0.15357625
0.033041585 0.032448448 0.15478045
0.030406475 0.034380306 0.15335661
0.027724465 0.036364067 0.15291265
-0.021637678 0.035559598 0.14891678
-0.025200559 0.03381044 0.14977956
0.029670758 0.035008758 0.14820737
0.026769362 0.037254967 0.14867273
0.023914374 0.038490929 0.14880079
-0.017126059 0.037866559 0.14496687
-0.020290034 0.036734004 0.14573795
-0.023625987 0.034927517 0.14484113
0.026408598 0.037247714 0.14388222
0.022984238 0.038823165 0.14410225
0.020154575 0.040598068 0.14374557
-0.016347826 0.038732991 0.14197093
-0.019541059 0.036735382 0.1403946
-0.022436701 0.035530787 0.14089376
0.02214843 0.03861523 0.13973188
0.01864861 0.04017055 0.1391727
0.013726952 0.042034201 0.13891992
-0.012782122 0.041909594 0.13727617
-0.015295332 0.039428882 0.13696629
0.017478002 0.040490627 0.13471356
0.013894283 0.042080946 0.13519782
0.0099215945 0.043343529 0.13476169
0.0066188467 0.043814726 0.13433546
0.0011342193 0.044270344 0.13314116
-0.0023475657 0.043708768 0.13291794
-0.0069822888 0.043098602 0.13341996
-0.011499604 0.042210255 0.13359568
-0.014355675 0.040760893 0.13293344
0.013577571 0.042186346 0.13034514
0.010163369 0.043345675 0.12909791
0.0061746794 0.044251084 0.12899974
0.0021876409 0.044137564 0.1286729
-0.0022898933 0.043078575 0.12803704
-0.0072037913 0.042058773 0.12922379
-0.0098979045 0.041308675 0.12938747
0.0054637454 0.04427658 0.12454337
0.0036980631 0.044348411 0.12418485
-0.031566259 0.023191553 0.16425073
-0.031437989 0.024115561 0.16033161
-0.034158446 0.022923687 0.15926164
0.038277373 0.026189808 0.15999001
0.036390319 0.027940346 0.16076753
-0.030903546 0.025970884 0.15528333
0.035088252 0.028836407 0.15579692
-0.030692127 0.028315695 0.15105799
0.033721924 0.030593432 0.15148818
-0.026762556 0.031571537 0.14684433
-0.029388094 0.029288495 0.14698762
0.033499025 0.031160273 0.1472275
0.031438392 0.0334846 0.14708796
-0.025653366 0.032987438 0.14295042
-0.02839506 0.030512042 0.14261901
0.030658437 0.034408454 0.14173442
0.027890174 0.036408208 0.1414032
-0.020989398 0.036475796 0.13798219
-0.023907131 0.034710079 0.13802263
-0.026778208 0.032681819 0.13795426
0.029922988 0.035382275 0.13721412
0.027217429 0.036651343 0.13715124
0.023622278 0.037749004 0.13721609
-0.016843606 0.037727799 0.13453037
-0.01955023 0.036930747 0.13466138
-0.023426345 0.03559332 0.13357264
-0.026360221 0.03372737 0.13352963
0.026061371 0.036880635 0.13347915
0.023394063 0.038444079 0.13272172
0.019785602 0.039940391 0.13312617
-0.016151957 0.038926568 0.13044935
-0.019234924 0.037249088 0.12949038
-0.022141527 0.036244866 0.13015234
0.022893876 0.038821686 0.12920073
0.01910441 0.040226445 0.12867695
0.015550263 0.041472368 0.12814629
-0.0044154259 0.042791553 0.126203
-0.0068198713 0.042661991 0.12614459
-0.011331418 0.041304383 0.12716216
-0.015189523 0.039948259 0.12603378
-0.018617941 0.037718501 0.12586978
0.014558475 0.041614193 0.12415245
0.010405306 0.042963471 0.12338868
0.006883421 0.043899588 0.12239301
0.0020410728 0.043793473 0.12238657
-0.0022545552 0.043486938 0.12214953
-0.0070705814 0.043107238 0.12192941
-0.010848898 0.04204217 0.12194949
-0.014162349 0.040632505 0.12221688
0.010576342 0.042711649 0.11935085
0.0066421772 0.044003658 0.11735475
0.0026271704 0.043977603 0.11710137
-0.0018806603 0.044172712 0.11718535
-0.0062442217 0.044078503 0.11691779
-0.0099222008 0.042725191 0.1172201
-0.034037333 0.022930687 0.15274853
0.035988558 0.027141456 0.15264946
-0.032584075 0.022998534 0.14725578
0.037561323 0.025556091 0.14961314
0.035678551 0.027290076 0.14860928
-0.030897086 0.027994802 0.14376053
-0.032405797 0.024718519 0.14296055
0.035334114 0.028164119 0.14399558
-0.030107262 0.029153822 0.14096007
-0.0318399 0.027508684 0.1390695
0.034292039 0.029578179 0.13985533
0.032483887 0.032533668 0.14072308
-0.028745513 0.02996855 0.13563895
-0.030710999 0.028915182 0.13694921
0.031680793 0.033010948 0.13556105
-0.024904788 0.034728371 0.13063842
-0.027372589 0.033175856 0.13254333
0.03095546 0.033801202 0.13120967
0.027732298 0.036053695 0.13074422
-0.020701421 0.036495157 0.12663367
-0.023632463 0.034898091 0.1268003
-0.026805012 0.032903701 0.12749183
0.030463506 0.034171704 0.12765852
0.027385475 0.035787467 0.12563488
0.023939632 0.037709769 0.12586683
0.021050218 0.039215684 0.12560391
-0.019434445 0.036754642 0.12255055
-0.022458274 0.035221029 0.12291229
0.023994451 0.037975896 0.12087995
0.019883243 0.039415855 0.12186846
0.016217623 0.040278248 0.12095255
-0.015467945 0.038952164 0.11879176
-0.018927963 0.036779471 0.11793232
0.022808461 0.038508762 0.11740774
0.019755699 0.039528199 0.11645019
0.015398788 0.040492006 0.11675352
0.011025172 0.042380027 0.11668569
-0.011615444 0.041247267 0.11546254
-0.014490175 0.039654288 0.11458588
0.018952096 0.040312938 0.11293399
0.014924328 0.041102428 0.11227995
0.010861158 0.042800851 0.1126945
0.0068439241 0.043711372 0.11229163
0.0028129406 0.0438626 0.11219221
-0.0012110196 0.043712907 0.11183053
-0.0061938469 0.042910799 0.11142355
-0.010644717 0.041378822 0.11021894
-0.013342371 0.040676236 0.10945207
0.010367239 0.042327866 0.10837322
0.0070520602 0.04321897 0.10702014
0.0030060133 0.043418221 0.10696375
-0.0010328476 0.043309756 0.10663652
-0.0050710314 0.042934299 0.10607415
-0.0091210697 0.042411141 0.10562521
-0.033854913 0.022715446 0.14223716
0.036644466 0.027102832 0.14132279
-0.033648923 0.024676677 0.1371682
0.036292106 0.027816094 0.13768795
-0.032104854 0.026783003 0.13324109
-0.037564196 0.025262063 0.13073474
0.035506014 0.028562363 0.13344297
0.033057693 0.029548801 0.13164759
-0.029183106 0.029633248 0.13000816
-0.031096129 0.027294872 0.12925816
-0.037431363 0.026709229 0.12809074
0.032520708 0.030603549 0.12865031
-0.02869519 0.030248623 0.12431955
0.030648131 0.033722628 0.12440774
0.028644146 0.034961808 0.12341017
-0.023607541 0.034363233 0.12045866
-0.027138619 0.031741768 0.12063605
0.030836198 0.033230532 0.12110925
0.028167298 0.03531412 0.11949813
-0.019725826 0.036991749 0.1155867
-0.023206126 0.035115272 0.11636132
-0.025989242 0.033297502 0.11594433
0.027589282 0.036647614 0.11453187
0.024448149 0.038293723 0.11513817
0.021562658 0.039257992 0.11507809
-0.016200881 0.038467579 0.11222011
-0.018943338 0.037416205 0.11212415
-0.022883188 0.035816427 0.11124796
0.027238764 0.037136186 0.11065179
0.024147082 0.038487814 0.10997695
0.020601481 0.03977108 0.1103701
0.016643962 0.040842533 0.11015505
-0.015381761 0.039256964 0.10809749
-0.01861525 0.03815823 0.10719723
-0.021559728 0.03690888 0.10764724
0.020324139 0.039102316 0.10562193
0.0156438 0.040314011 0.10534292
0.011343582 0.042260885 0.10586482
-0.011122793 0.042159166 0.1045571
-0.014151278 0.040320192 0.1035291
0.014047712 0.04096571 0.10151893
0.011197424 0.042244181 0.10077512
0.007288211 0.043228116 0.10118318
0.0032319305 0.043252535 0.10097283
-0.00082240737 0.043251261 0.10074008
-0.0048761447 0.04327558 0.10053033
-0.009605553 0.042942524 0.09996289
-0.013348959 0.041442428 0.098902643
0.007207111 0.043214269 0.096453369
0.0034171371 0.043333001 0.096146882
-0.00064903771 0.043428645 0.096000731
-0.0047114333 0.043279257 0.09563446
-0.0091669671 0.043081898 0.095343411
-0.011456845 0.042883106 0.093907773
-0.033491265 0.025064398 0.12985396
0.036674988 0.026456598 0.12931317
-0.032497078 0.025207244 0.12554482
0.035700485 0.026762523 0.1262911
0.033357903 0.0290564 0.1264492
-0.03111114 0.025824664 0.1213758
0.032911535 0.02955202 0.12200287
-0.02890593 0.030140057 0.11794716
-0.030382326 0.027433837 0.11655766
0.032430161 0.031313032 0.11763793
-0.028106542 0.030715225 0.1136297
0.031836387 0.03236926 0.113047
0.029494781 0.034955371 0.11376888
-0.024420587 0.034615923 0.1093958
-0.026444223 0.03225619 0.10958844
0.028710939 0.035710629 0.10901022
0.026007257 0.037544239 0.10800642
-0.02010059 0.037210822 0.1040886
-0.02323441 0.034619909 0.10517097
-0.025784003 0.032913614 0.10589433
0.027483236 0.036426548 0.10613513
0.02461133 0.036700748 0.10346109
0.02107417 0.038851466 0.10279626
0.017406924 0.039613724 0.10247529
-0.015877273 0.038580537 0.10063511
-0.018207416 0.037186403 0.10090858
-0.021498285 0.03538559 0.10241115
0.023651756 0.037141141 0.10064477
0.02082075 0.03857369 0.098371923
0.016392207 0.040314779 0.098927915
0.012831761 0.041811652 0.098272562
-0.01482306 0.039622154 0.096705258
-0.016865514 0.03765934 0.095627248
0.016254108 0.04076881 0.093760908
0.011627254 0.042279992 0.094679892
0.0079306997 0.042995095 0.093633771
0.0035365911 0.042985696 0.092880905
-0.00053802936 0.043034896 0.09269315
-0.0046104784 0.042961989 0.092395008
-0.0086829662 0.04298069 0.092179835
-0.013051298 0.041518144 0.092586458
0.015234617 0.041424904 0.090150058
0.011845976 0.042045288 0.089527249
0.0075967307 0.042780008 0.089208126
0.0036882763 0.042958975 0.088900506
-0.00039843636 0.04320344 0.088891029
-0.0044754641 0.042586584 0.088096559
-0.008559268 0.042327866 0.087628484
-0.011966829 0.041895799 0.08704102
0.0065657678 0.043046031 0.085166216
0.0031567295 0.042997751 0.084928215
-0.00022523913 0.043567657 0.084262788
-0.0040468648 0.043262191 0.083964229
-0.0070706676 0.042670317 0.084046304
0.037042581 0.025233205 0.12348658
-0.032888863 0.024328297 0.11964446
0.036333591 0.025828399 0.12019151
-0.032534804 0.025199478 0.11553305
0.036100704 0.026943279 0.11512029
0.033985287 0.030073646 0.11472422
-0.030957628 0.027227178 0.11050427
0.035606403 0.028083857 0.11116064
0.033841219 0.030727237 0.11087245
-0.028339377 0.029928444 0.10659975
-0.03014617 0.028011303 0.10632211
0.032844756 0.03130547 0.10647213
0.030292718 0.032676972 0.10597026
-0.024331743 0.032919899 0.10205919
-0.027176609 0.030665975 0.10190183
0.028773224 0.033352021 0.10203928
0.026406635 0.034967478 0.10085559
-0.020038379 0.035372104 0.098549306
-0.02304236 0.032814141 0.097850978
-0.025699655 0.031321865 0.09861362
0.027962856 0.034387507 0.097462952
0.025372012 0.03586027 0.097383142
-0.019243553 0.036000356 0.095201671
-0.021930728 0.034003358 0.093557358
0.024748931 0.036769718 0.092451632
0.021419629 0.038472231 0.093542993
0.018619386 0.039959498 0.091001511
-0.014142727 0.039931044 0.089108109
-0.017176494 0.037615404 0.090569317
-0.020496966 0.035453696 0.089681864
0.024262691 0.037612189 0.088199556
0.021495944 0.039005607 0.088307679
0.017410113 0.040529914 0.087467432
0.013059922 0.041709065 0.086702406
0.0092494087 0.041801896 0.086172044
-0.01402244 0.04070209 0.085836172
-0.016407756 0.038029585 0.085928023
0.02077481 0.039576225 0.084122121
0.017804999 0.040749244 0.083121479
0.012831946 0.041912302 0.082478046
0.0082128691 0.042276878 0.082302213
0.0041418076 0.042516336 0.081970632
-0.00011419085 0.043294892 0.081020474
-0.0045709191 0.043363351 0.081331074
-0.0085351821 0.042774491 0.081811249
-0.012312454 0.041682806 0.081089497
-0.015318926 0.039583787 0.081743479
0.017062653 0.041132212 0.079992831
0.013018363 0.041516304 0.078108132
0.0082110045 0.041660532 0.07796973
0.0036749579 0.042322908 0.076985955
3.3755354e-05 0.042989168 0.076729059
-0.0040765973 0.043112755 0.076611578
-0.0076610856 0.042502746 0.076645553
-0.010991358 0.041130729 0.076389372
0.0029186772 0.04326674 0.07312268
0.00017452182 0.043227859 0.072931051
-0.033182453 0.023863789 0.10948414
0.037322003 0.026391102 0.10907322
-0.032069124 0.025585052 0.10413396
-0.034457196 0.023713585 0.10337859
0.037214518 0.027709369 0.10427731
0.03392582 0.03043153 0.10323846
-0.028563423 0.028874617 0.098289311
-0.031247124 0.026589477 0.10010874
-0.032846976 0.025800344 0.097350359
0.036883231 0.028399693 0.10064524
0.033255 0.030643705 0.099669933
0.02998426 0.03169227 0.099164784
-0.026836697 0.030109148 0.095505059
-0.029937977 0.027766583 0.095258892
0.03331488 0.030616118 0.0954234
0.029903511 0.032677025 0.094777942
-0.0226664 0.03367148 0.090949476
-0.025680954 0.031640511 0.090710163
-0.028405575 0.029273015 0.091695666
0.029252775 0.033657487 0.090580523
0.026872789 0.035620455 0.091540813
-0.021704957 0.034676615 0.08712101
-0.024526104 0.032934457 0.086592078
0.028520189 0.034530099 0.086651087
0.026142906 0.036759447 0.086245239
-0.01774388 0.036810227 0.082743704
-0.020855322 0.034994654 0.08250165
-0.023871906 0.033008691 0.082287252
0.025138235 0.037657198 0.081671655
0.022252535 0.039406814 0.082043827
-0.017078048 0.037551999 0.078487098
-0.019535001 0.035363011 0.078641295
0.021714458 0.039485749 0.077925324
0.017878443 0.040616974 0.077210248
0.013122959 0.041016851 0.075633049
0.0082880035 0.041807771 0.076096952
0.0048832004 0.042279635 0.075336397
-0.0088703912 0.041693535 0.075018942
-0.01280623 0.040517554 0.075043619
-0.015852291 0.03870213 0.07486707
0.01667802 0.040409703 0.073244572
0.013279879 0.041505832 0.072053015
0.0084313191 0.042518787 0.072731197
0.0046579014 0.043584213 0.071722388
0.00051618257 0.043589372 0.071268797
-0.003904141 0.042579837 0.071079314
-0.008221766 0.041813441 0.070872784
-0.011893407 0.040314827 0.071032941
0.012760936 0.041588545 0.068041265
0.0086235907 0.042940326 0.068070412
0.0045405165 0.044251647 0.067053497
0.0002153025 0.044164743 0.067489207
-0.0037380611 0.043088283 0.066497266
-0.0075706886 0.041660786 0.066453993
-0.00085092825 0.043945059 0.063404202
-0.0029126322 0.043315787 0.062686145
-0.034757882 0.023487769 0.097222924
0.038046051 0.026869403 0.09797883
-0.031354476 0.026255503 0.09285748
-0.033761617 0.024517072 0.092860699
