# .PCD v0.7 - Point Cloud Data file format
VERSION 0.7
FIELDS x y z
SIZE 4 4 4
TYPE F F F
COUNT 1 1 1
WIDTH 1355
HEIGHT 1
VIEWPOINT 0 0 0 1 0 0 0
POINTS 1355
DATA ascii
0.039683502 0.03983723 0.28506699
0.012272834 0.013135477 0.34806359
0.023224235 0.0057821525 0.344486
0.021525808 0.0081569534 0.34526962
0.018199146 0.011757653 0.34688401
0.014186821 0.014951571 0.34698254
0.010789406 0.018403102 0.34470454
0.025253274 0.0055644168 0.34130278
0.022293732 0.0089348918 0.34160659
0.019994341 0.013411757 0.3422763
0.016777253 0.017629748 0.34151927
0.012943048 0.019078862 0.34095013
0.022643659 0.010065582 0.33803248
0.020091759 0.013174916 0.33772132
0.016647831 0.016729102 0.33748442
0.013833781 0.018956719 0.33788246
0.028316164 0.0262227 0.30795419
0.029754672 0.0279302 0.30488595
0.026910648 0.031461474 0.30428645
0.023851389 0.034759447 0.30308795
0.04174421 0.020404777 0.30079585
0.039583728 0.022940869 0.30100343
0.035926554 0.026326869 0.30142817
0.033092357 0.030742748 0.30148199
0.029473932 0.033859629 0.30125707
0.025195152 0.036557313 0.30047309
0.022587661 0.038420998 0.29966986
0.044247005 0.021017049 0.29742426
0.042002458 0.025139827 0.2978752
0.03928541 0.029248063 0.29824147
0.035622675 0.03236803 0.29959261
0.031546429 0.036185578 0.29768482
0.027868977 0.03891363 0.29670623
0.02351303 0.041543242 0.29586533
0.01960057 0.044091575 0.29438198
0.046011865 0.022366844 0.29307607
0.043694414 0.026503185 0.29345429
0.041022435 0.03042195 0.29331946
0.038563717 0.03528877 0.29261994
0.034071539 0.038439583 0.29239494
0.029874193 0.040598873 0.29250219
0.025701925 0.043408282 0.29177535
0.047186315 0.023626121 0.28888351
0.044726089 0.027162613 0.28856018
0.042191558 0.031467475 0.28897151
0.039815463 0.03631068 0.28950393
0.034844872 0.039275248 0.28851178
0.031487744 0.041890677 0.28803125
0.027658371 0.043861538 0.2870979
0.046071425 0.028429786 0.28415942
0.044322163 0.033495501 0.28487623
0.042534884 0.037320156 0.28433785
0.036811791 0.040925369 0.2842907
0.033006594 0.043088026 0.28348848
0.028533172 0.044693854 0.28382981
0.047165237 0.029976895 0.28013766
0.044959694 0.033968031 0.27991107
0.041982599 0.037983961 0.2800796
0.038362369 0.041142263 0.27944586
0.034297265 0.043645322 0.27925885
0.029686518 0.045936219 0.27930015
0.037081607 0.042605273 0.27544993
0.013022347 0.0019852184 0.35024157
0.010774246 0.0052687833 0.35095093
0.008347 0.0094796838 0.35127729
0.0041142558 0.012262831 0.35062152
0.0022010556 0.015373757 0.35074607
0.019673897 0.00032840669 0.34687176
0.01640051 0.0038829967 0.34819597
0.013601688 0.0074940743 0.34867078
0.010352604 0.011285082 0.34873313
0.0066327057 0.014563786 0.34815669
0.0040908665 0.017511416 0.34767783
0.02304668 0.0025056051 0.34495574
0.018833406 0.0055584065 0.34682634
0.007648543 0.016401714 0.34588602
0.0052615581 0.019691568 0.34344676
0.027696639 0.00084958971 0.34018281
0.025249917 0.004179542 0.34096736
0.022872012 0.0080685792 0.33963743
0.0093817338 0.019630976 0.33889005
0.0068586143 0.020462152 0.338539
0.028054029 0.0011339271 0.33529699
0.026172442 0.0045015272 0.33678824
0.023445792 0.0088955052 0.33564144
0.019768378 0.012610516 0.33444035
0.016237505 0.016095281 0.33415869
0.011562818 0.018565688 0.33424801
0.028535113 0.0020598751 0.33237737
0.023455679 0.0093155168 0.33144361
0.019859035 0.012443405 0.33092001
0.016523041 0.016067851 0.32966751
0.01310309 0.018976897 0.32876694
0.014677257 0.01933803 0.3245239
0.024190936 0.017615367 0.31496426
0.021770013 0.020285124 0.31562269
0.020283619 0.022781609 0.31500947
0.033545293 0.012517584 0.31063315
0.03114903 0.015310538 0.31242642
0.027655985 0.01908217 0.31254867
0.024602015 0.022879612 0.31267601
0.021036558 0.025467008 0.31150228
0.016916219 0.029094063 0.30935967
0.013827012 0.032040056 0.30908605
0.035684586 0.013476089 0.30816039
0.033626653 0.017543415 0.30895823
0.030371934 0.021322355 0.3088595
0.027173955 0.025166444 0.3089931
0.02342118 0.028408065 0.30837229
0.019222319 0.031219281 0.30766478
0.015271645 0.03429684 0.30712074
0.011316076 0.036384884 0.30629694
0.041392427 0.011748172 0.3030943
0.038767599 0.01532181 0.30473116
0.035831597 0.019449979 0.30485031
0.032707281 0.02336059 0.30483976
0.029618997 0.026305657 0.30495343
0.024792261 0.029761776 0.30551928
0.021511631 0.03344693 0.3042824
0.017842818 0.036536563 0.30323446
0.013900086 0.03920823 0.3022601
0.04393151 0.013118546 0.30050978
0.0416128 0.017145723 0.30118096
0.037715115 0.021140512 0.30212867
0.031751346 0.027191358 0.30170462
0.019450983 0.039079696 0.29929382
0.016113209 0.041501619 0.29858017
0.01226886 0.042499956 0.2971454
0.047986537 0.011574293 0.29528117
0.046395537 0.015322115 0.29658991
0.044953078 0.017964751 0.29709995
0.017918196 0.043252055 0.29467821
0.013745002 0.044865754 0.29321069
0.050168924 0.0132432 0.29188064
0.048555274 0.017192882 0.29246876
0.046914577 0.019594073 0.29257587
0.019870542 0.044610851 0.28993282
0.01516474 0.045737624 0.28869116
0.051728666 0.014577093 0.28762037
0.050275579 0.018581666 0.28803778
0.0481821 0.021816315 0.28744617
0.024326291 0.044336405 0.286194
0.021214211 0.04564359 0.28524512
0.016739734 0.047059804 0.28443977
0.052098922 0.016005412 0.28398442
0.051385932 0.019298719 0.28315547
0.0486423 0.023648903 0.28345743
0.046897598 0.026840419 0.28220135
0.027628448 0.045006756 0.28147003
0.023076957 0.047182254 0.28090835
0.018786047 0.048315864 0.280123
0.052893583 0.020452049 0.27855393
0.050233565 0.024898166 0.27892873
0.047684141 0.028333342 0.27822942
0.045924719 0.031505782 0.27696511
0.041822638 0.035410535 0.27659598
0.0328083 0.043780278 0.27624652
0.029328091 0.046309315 0.27673995
0.02469879 0.04848567 0.27640155
0.020785205 0.048715875 0.2765229
0.054186411 0.021993086 0.2742129
0.051640648 0.02594858 0.27425608
0.048283022 0.02962644 0.27411056
0.044802442 0.033168212 0.2738719
0.041469425 0.036860742 0.27374214
0.038287587 0.040415749 0.27348286
0.034335148 0.043754447 0.27313295
0.030507244 0.04694315 0.27263981
0.0264978 0.049404796 0.27206427
0.053925153 0.022907536 0.27097803
0.051637534 0.026062626 0.27040723
0.048741952 0.029393157 0.27038223
0.04514613 0.033695959 0.2690177
0.042792227 0.037841942 0.26900843
0.039295118 0.041367795 0.26875824
0.035428986 0.04451903 0.26823309
0.031895064 0.048010051 0.26795688
0.027971338 0.04999822 0.26736537
0.044623699 0.035357956 0.264911
0.043189745 0.038238805 0.26421878
0.039974492 0.041613039 0.26364401
0.035851583 0.044654123 0.26363283
0.032670543 0.047553033 0.26410747
0.013467895 -0.00095533859 0.35021085
0.010674082 0.0017069764 0.35097301
0.017209601 -0.0030152155 0.34785721
0.014712991 0.00015650177 0.34832478
0.026517112 -0.0018192278 0.33534402
0.0064044818 0.019332912 0.33253092
0.027793314 0.001120857 0.33036542
0.026852775 0.0020023892 0.32797343
0.022736171 0.0076132682 0.32788596
0.019247681 0.011590745 0.32764229
0.0097725932 0.018437387 0.32957789
0.0067083715 0.019450407 0.32959494
0.026409347 0.0045737298 0.32326022
0.02252608 0.0079079904 0.32264993
0.019176504 0.011065967 0.32344884
0.016499257 0.015667638 0.32418412
0.011741517 0.020188345 0.32375914
0.0094632916 0.020729782 0.32313615
0.027899148 0.0051915217 0.31934863
0.024565751 0.0091759209 0.31903002
0.021111446 0.012983164 0.31930313
0.018220296 0.017061083 0.31972861
0.014618019 0.019806853 0.31904751
0.031963717 0.0039287051 0.31316945
0.030113943 0.0073963301 0.31580356
0.027151352 0.011543585 0.31589827
0.023829855 0.014905035 0.31596673
0.019926762 0.018548166 0.31683978
0.015757304 0.021613296 0.31481656
0.011995109 0.023925977 0.31348071
0.0084238835 0.027443592 0.31215671
0.0059987772 0.028672738 0.3116478
0.034667198 0.0050646355 0.31000265
0.032664716 0.0094063487 0.31213045
0.028822292 0.013065692 0.31378692
0.026778314 0.015052684 0.31361637
0.017129524 0.024284476 0.31183949
0.014478946 0.02683921 0.31099039
0.010918188 0.030316517 0.31030887
0.0070069376 0.033158921 0.30835432
0.04005868 0.0031525474 0.30581608
0.037163779 0.0067078006 0.3071765
0.03546121 0.01019647 0.30832899
0.0079518678 0.036091335 0.30501524
0.0055366047 0.03700516 0.30310497
0.044983484 0.001088921 0.30180106
0.04286778 0.0052382927 0.30278224
0.039925009 0.0087744109 0.30405682
0.010113091 0.037995934 0.30241993
0.0081178937 0.039737575 0.30016106
0.0042193532 0.040917899 0.29845691
0.047774598 0.0022448618 0.2984291
0.045312747 0.0072323214 0.29929721
0.0086950008 0.042810977 0.29646128
0.0048464797 0.043770246 0.29378736
0.049772136 0.004359588 0.29436806
0.047838096 0.0080317669 0.29556906
0.0099260565 0.045141496 0.29186827
0.006919302 0.046002049 0.29052883
0.051700287 0.0055466834 0.28954589
0.050307296 0.0093846936 0.2907612
0.012323476 0.046679836 0.28730923
0.0084110461 0.047557946 0.28591248
0.053159796 0.0070539732 0.2851015
0.051815506 0.010558877 0.28580719
0.014456494 0.047964588 0.28257376
0.010314986 0.048760649 0.2815437
0.053938352 0.0086157452 0.28051743
0.052556559 0.012595221 0.28110015
0.016366666 0.049229592 0.27840698
0.011874301 0.050020792 0.27685431
0.055039793 0.010043206 0.27606124
0.053743042 0.014154097 0.27670729
0.018374154 0.049507558 0.27416682
0.014624368 0.05059636 0.272293
0.055136055 0.015250029 0.27201492
0.054478101 0.019500742 0.27248538
0.023645889 0.049120303 0.26979679
0.020455664 0.050038733 0.26961896
0.016729251 0.051247381 0.2680589
0.056589819 0.016516671 0.2675252
0.054420833 0.020905275 0.26788354
0.051668677 0.025034536 0.26701656
0.047615599 0.028658394 0.26664957
0.045691453 0.031124547 0.26607475
0.02500901 0.04978833 0.26526403
0.021432329 0.05054656 0.26476279
0.054374352 0.020900169 0.2628887
0.052137189 0.025524953 0.26306835
0.048846569 0.029325973 0.26299819
0.045973316 0.033262424 0.26299882
0.043261096 0.037173294 0.26227522
0.03884311 0.041451268 0.26136258
0.035735216 0.044390243 0.26107523
0.031443037 0.047550865 0.26144996
0.02689399 0.04977534 0.26086441
0.023217419 0.05022195 0.26030982
0.052389748 0.026031544 0.25864172
0.049714781 0.029799379 0.25784415
0.046447806 0.033629604 0.25779685
0.043219142 0.037492074 0.25777692
0.039577808 0.040919129 0.25743446
0.035596997 0.04400415 0.25683147
0.032251872 0.046770267 0.25719786
0.028407477 0.04943876 0.25716078
0.050137829 0.029925842 0.25399378
0.046506882 0.033986516 0.25354967
0.043904055 0.037497442 0.25291321
0.040461011 0.041182071 0.25234857
0.036634173 0.044359338 0.25267044
0.04157028 0.041349683 0.24946123
0.0063193301 0.018627726 0.31874296
0.028089784 0.00034483988 0.31788895
0.0074992389 0.019683456 0.31613517
0.0037867175 0.022100128 0.31484693
0.032876633 -0.0025992673 0.31092533
0.03067535 0.00025967695 0.31309435
0.0090414071 0.023090001 0.31379214
0.0059033642 0.025092691 0.31314468
0.0025238851 0.027968094 0.31059971
0.037967451 -0.0048609357 0.30815771
0.036113106 -0.0014682282 0.30922967
0.034130447 0.0024992917 0.31067061
0.0023393584 0.03095505 0.3078666
0.00082631223 0.03272561 0.30573079
0.043422595 -0.0059453659 0.30269626
0.041479502 -0.0033833049 0.30487931
0.039346665 -6.8331137e-05 0.30657485
0.0021376945 0.035665922 0.30313772
-0.00076218694 0.037574086 0.30057424
0.045430832 -0.0049001481 0.30024043
0.044868149 -0.0018818192 0.30161482
0.00035306253 0.040750906 0.29732105
-0.0022778902 0.041826889 0.29509243
0.048519641 -0.0034654159 0.29616058
0.0019846484 0.042967748 0.29413331
-0.00080909207 0.044263925 0.29178077
0.050520018 -0.0019656699 0.29234299
0.00094391219 0.04645738 0.2881152
0.052621812 -0.00082544051 0.28774032
0.0029783379 0.048153035 0.28381655
-0.00017026626 0.049057998 0.28049552
0.054302529 0.00050447509 0.28319219
0.0049362574 0.049776502 0.27947032
0.001332242 0.050341815 0.27825841
0.055459827 0.002011871 0.27867681
0.054419126 0.0061677247 0.27886289
0.01058815 0.050844252 0.27398989
0.0064246021 0.050960016 0.27480412
0.0019197911 0.050774474 0.27540499
0.056327075 0.0038206056 0.27376527
0.055095002 0.0072165839 0.27413976
0.011601118 0.050870039 0.27086031
0.0083012357 0.05133529 0.27034721
0.056613885 0.0049030632 0.27099389
0.055924378 0.0084315855 0.26951253
0.055696066 0.012301128 0.27061561
0.013430055 0.051848415 0.26631483
0.010358445 0.052248254 0.26547986
0.057265252 0.009952398 0.26534599
0.057096601 0.013160763 0.26418287
0.020078201 0.051285598 0.26181114
0.015614092 0.052050062 0.26186451
0.011288768 0.052934431 0.26121014
0.057265013 0.011021309 0.2619049
0.056282196 0.015166324 0.26126948
0.054729149 0.019730002 0.26055053
0.021519344 0.051093098 0.25886041
0.017128959 0.052697748 0.25798693
0.056105051 0.015325088 0.25744164
0.053915665 0.019528164 0.25606069
0.05235295 0.024070665 0.25534171
0.030672502 0.046393175 0.25369239
0.026633956 0.048776194 0.25374579
0.022250518 0.050557487 0.25413987
0.018562026 0.052168138 0.25442758
0.054237217 0.020893497 0.25202635
0.052304566 0.024729505 0.25145504
0.049716152 0.029303787 0.25149238
0.046966668 0.033229936 0.2512362
0.043003265 0.03747892 0.2508893
0.036357414 0.043939915 0.25011638
0.031884413 0.046036761 0.25026172
0.027823292 0.04849875 0.24956644
0.052637052 0.025795538 0.24774405
0.050164998 0.029360034 0.24641937
0.047199577 0.033129871 0.24672341
0.043981131 0.036868323 0.24620163
0.041033957 0.040580381 0.24567124
0.036883704 0.043589294 0.24578118
0.032568324 0.046393629 0.24492571
0.02904834 0.04879158 0.245298
0.047338296 0.033397619 0.2425184
0.044438541 0.037021957 0.24185824
0.041137926 0.040686384 0.24127492
0.037756529 0.043737438 0.2413803
0.03401766 0.046589538 0.24149457
-0.00026890263 0.018970555 0.31629348
0.026727153 -0.0034083985 0.31486085
0.00015154947 0.020623643 0.31478199
-0.0028853156 0.023130976 0.31271052
0.032081977 -0.0058799544 0.31164438
-0.00099900179 0.026610292 0.31023067
-0.0043560788 0.028341513 0.30751324
-0.0030977111 0.031023538 0.30545557
0.039874375 -0.0072937645 0.30578995
-0.0046732575 0.036225148 0.30100393
-0.0031401403 0.039161701 0.29718316
-0.0061810222 0.039875574 0.29469955
0.047557287 -0.008043183 0.29605722
-0.004919719 0.042703863 0.29160118
-0.0072466657 0.044097509 0.28851873
0.049741633 -0.0095346328 0.29003283
0.050635617 -0.0058748238 0.29026011
-0.0057787951 0.046104312 0.28549668
-0.0093041603 0.046815529 0.28519395
0.052217886 -0.0078888405 0.28543776
-0.0037974976 0.047746796 0.28112233
-0.0067822449 0.048876662 0.27872288
0.054565564 -0.0057911221 0.2813412
-0.0021052752 0.050104804 0.27686155
0.056080714 -0.0046613049 0.27662399
0.056105629 -0.0014034882 0.27685663
-0.00019816123 0.050478593 0.27215469
-0.004556641 0.050691001 0.27286473
0.056667 -0.0035003535 0.27154362
0.056706578 -0.00013682432 0.27264193
0.0054848529 0.051329434 0.26850128
0.00229262 0.050834745 0.26748249
0.057331644 0.0024339315 0.26810244
0.056243978 0.0063296799 0.26806715
0.0073717721 0.052406702 0.26433176
0.0039202087 0.052538864 0.26282358
0.05819539 0.0044523627 0.26389295
0.057393752 0.0077535566 0.26303515
0.0085733011 0.052887678 0.25903869
0.0049390569 0.052923508 0.25862241
0.057709403 0.0048774835 0.25919527
0.057445072 0.0085842907 0.25931594
0.013332542 0.052621286 0.2554118
0.010385176 0.052371226 0.2553398
0.058031373 0.0098462105 0.25506395
0.056604095 0.014434839 0.25428265
0.020558048 0.050582122 0.25089154
0.015904035 0.051954921 0.25110677
0.012055326 0.05224264 0.25064424
0.058392689 0.011066576 0.25007364
0.057291381 0.015194282 0.25022608
0.055072926 0.019519068 0.25025353
0.024571717 0.048891254 0.24733603
0.02170576 0.050174505 0.24739274
0.017455809 0.05154448 0.24630588
0.056409042 0.015985247 0.24599412
0.054894604 0.019778989 0.24526039
0.053014144 0.024075223 0.24456537
0.027112305 0.049311817 0.24258691
0.022442127 0.050227217 0.24226767
0.018821586 0.051262554 0.24323982
0.052717652 0.025051963 0.24054801
0.050571118 0.029330369 0.24079472
0.04769804 0.032264564 0.24013209
0.044790562 0.036154483 0.23942342
0.0415636 0.039651096 0.23895335
0.037008997 0.043896768 0.23883894
0.033256892 0.047019448 0.23918816
0.028762544 0.049421713 0.23857212
0.025234992 0.051071122 0.23846456
0.051828995 0.026084341 0.2359972
0.050547719 0.028902547 0.23563191
0.047424123 0.03192988 0.23536792
0.044751633 0.036641601 0.23525554
0.041669235 0.040521421 0.23515767
0.037720472 0.043726206 0.23459324
0.033848532 0.046840005 0.23453158
0.029815719 0.048531309 0.23426604
0.044814415 0.037167102 0.23012635
0.041641187 0.040187847 0.23042464
0.039256129 0.041925695 0.23042807
-0.0072800927 0.046578489 0.2818639
0.054697968 -0.0089692306 0.280406
-0.0072191171 0.04885523 0.2749123
0.055930752 -0.008173991 0.27545553
-0.0031960718 0.049839903 0.2690661
-0.0064060427 0.050033845 0.26914954
0.056312781 -0.0104356 0.27081007
0.056701522 -0.0068042912 0.27049369
-0.0014166925 0.05036056 0.26586005
-0.0042097494 0.050752006 0.26487982
0.057497609 -0.0046264976 0.26606429
0.057477094 -0.0011483394 0.26528856
0.00035363249 0.051825427 0.2618646
-0.0023093689 0.052369878 0.26206654
0.056720175 -0.0045281332 0.26140052
0.057516348 -0.00013038144 0.26099449
0.0023720358 0.051829487 0.25639188
0.056933492 0.0012775455 0.25716564
0.007213315 0.052047938 0.2531808
0.0037425663 0.051603913 0.25192663
0.057272471 0.0038585812 0.25372034
0.057659257 0.006762702 0.25198779
0.0091706403 0.052303825 0.24821827
0.0047053583 0.052354645 0.24844176
0.057975221 0.0083089583 0.24810293
0.015254995 0.051974617 0.24445733
0.011029441 0.052420784 0.24381584
0.058418103 0.0095204264 0.24324748
0.057062052 0.013596803 0.2432065
0.055138588 0.017439796 0.24181128
0.02049914 0.05067534 0.23959592
0.017065188 0.051482193 0.24006829
0.013279775 0.052750595 0.24006128
0.056368999 0.014917336 0.23865098
0.054873541 0.019008705 0.2389251
0.053298444 0.022219859 0.23829174
0.021159917 0.04977373 0.23538321
0.018488385 0.05060792 0.23535821
0.054973502 0.019128662 0.23379928
0.053320721 0.023862973 0.23392186
0.05034123 0.028409984 0.23200971
0.047338717 0.031583868 0.23185408
0.045731228 0.034113783 0.23207968
0.032520358 0.046572756 0.23083469
0.028077245 0.048920579 0.23161927
0.024392676 0.049287599 0.23159257
0.052506283 0.024799211 0.22882232
0.050496757 0.028305881 0.22867471
0.047950905 0.031978231 0.22891223
0.045406971 0.035902645 0.22876546
0.041850448 0.040253632 0.22827646
0.037527386 0.043443281 0.22839046
0.033362955 0.046199001 0.2277098
0.029278785 0.048053682 0.22678569
0.049589131 0.029201452 0.22522745
0.048172422 0.032109819 0.22420904
0.045536205 0.036463439 0.22445887
0.042186975 0.040332846 0.22441319
0.037968513 0.043308314 0.22363293
0.033689741 0.045972098 0.22319055
0.029915646 0.047723316 0.22335729
0.044752777 0.036459312 0.22071418
0.042076334 0.039440982 0.2202121
0.038241699 0.042334981 0.21999645
-0.0088187419 0.049311917 0.26291797
0.057245478 -0.0080324616 0.26375097
-0.002490215 0.050086819 0.25713444
-0.006462913 0.049152866 0.25742683
0.057729524 -0.010920223 0.25913554
0.056980357 -0.0069606453 0.25883681
-0.0012504403 0.050612994 0.25409496
-0.0044424329 0.050172351 0.25305933
0.057115957 -0.0062425211 0.25491646
0.056772966 -0.0016867816 0.25510061
-0.0002632793 0.050876081 0.25002691
-0.0035257041 0.050910648 0.25035846
0.057580441 -0.003435567 0.2494005
0.056597516 -0.00043371879 0.25030246
0.002294885 0.052272052 0.24565086
-0.0016728528 0.052457865 0.24665242
0.056730628 0.00058630481 0.24534261
0.056495506 0.0043225624 0.24523905
0.0076370649 0.052794941 0.24150553
0.0045105126 0.052721366 0.24132201
0.057026569 0.0023529455 0.24141708
0.05691947 0.0048447084 0.24057919
0.014856191 0.051279888 0.23653746
0.010275735 0.052623712 0.23727506
0.0067265462 0.052762546 0.23607704
0.057279855 0.0076933075 0.2362043
0.056520693 0.011318706 0.23629138
0.020695234 0.048565023 0.23306301
0.015802843 0.050588891 0.23310038
0.011488063 0.05171375 0.23234841
0.0082049333 0.052987654 0.232586
0.057957329 0.0088113677 0.23150346
0.056072552 0.01237056 0.23130497
0.054696184 0.016641568 0.23013398
0.021256648 0.048887424 0.22868007
0.016400252 0.050161336 0.22777003
0.01320968 0.051422089 0.22828954
0.055821963 0.013970943 0.22681534
0.054539792 0.017564366 0.22645518
0.053278312 0.021939984 0.22696835
0.027542874 0.048548035 0.22429192
0.022388253 0.048710529 0.22373182
0.018278122 0.050672516 0.22296613
0.054643419 0.01890089 0.22232917
0.053075578 0.02204873 0.22239015
0.050401989 0.026410472 0.22268379
0.048904534 0.030342583 0.22196081
0.032450218 0.045936685 0.22043425
0.028811051 0.047837712 0.22071826
0.023331817 0.049111109 0.21935847
0.053423204 0.022134885 0.21917108
0.049895179 0.026835185 0.21765625
0.047843777 0.031022333 0.21747676
0.044998471 0.035190459 0.21719199
0.040909044 0.038810872 0.21623755
0.03723453 0.042168364 0.21648777
0.033096563 0.044976849 0.21590155
0.0290218 0.047490664 0.21571279
0.025663264 0.048412099 0.2165823
0.049981266 0.028676972 0.21327296
0.048111703 0.031359214 0.21276906
0.044926118 0.035035472 0.21255901
0.041153904 0.038531121 0.21217704
0.038242601 0.0415558 0.21136636
0.034758139 0.044105101 0.21182004
-0.0095990337 0.048745953 0.25595221
-0.0081507843 0.049764983 0.25141108
0.057488613 -0.0082540978 0.25272229
-0.0058207847 0.050993271 0.24756503
-0.0095441937 0.051390111 0.2480458
0.057208486 -0.0072775353 0.24861753
0.00032666512 0.052142702 0.24236587
-0.0035670456 0.051988378 0.24375132
0.057448488 -0.0043200254 0.24378365
0.057436742 -0.00026875921 0.24318564
0.0011895895 0.052316256 0.23901626
-0.0020067822 0.051884457 0.23792714
0.057290442 -0.0040047728 0.24011773
0.057311319 -0.00022712164 0.23859668
0.057106674 0.004242193 0.23791811
0.0033334084 0.053006392 0.23436591
0.056968495 0.0014885943 0.23347843
0.057002917 0.0042894725 0.23408771
0.01066207 0.052146092 0.22997397
0.0060876776 0.052961908 0.22996369
0.057491872 0.0049293786 0.22986728
0.011173613 0.052055344 0.22653392
0.0071048979 0.0527502 0.22608697
0.056783546 0.0070485286 0.22607815
0.05700355 0.011501096 0.22528312
0.01661402 0.051927879 0.22269145
0.013033336 0.051996551 0.22162402
0.055792399 0.01265914 0.22061792
0.055252269 0.016540335 0.22093761
0.021899328 0.050984628 0.21756077
0.018579993 0.051949386 0.21812797
0.014490867 0.052647464 0.21696714
0.054609306 0.01788841 0.21722174
0.052922692 0.021286946 0.21518472
0.051182933 0.025154022 0.2153143
0.029366851 0.047669835 0.21285993
0.023947947 0.049697012 0.21372068
0.019579835 0.05151692 0.21327722
0.052084543 0.021482863 0.2108556
0.050894298 0.025962673 0.21075416
0.048795324 0.030943308 0.21060365
0.045198996 0.035138119 0.2101495
0.041501202 0.038719341 0.20983565
0.03726932 0.042806488 0.20947197
0.033522606 0.045098968 0.20970145
0.029410932 0.047533955 0.20938778
0.024463113 0.048424128 0.20873046
0.050711006 0.027383819 0.20645151
0.048720103 0.03110392 0.2067492
0.045203708 0.034897052 0.20660511
0.041738935 0.038736507 0.20650485
0.03887023 0.042124718 0.20650494
0.034203548 0.044742558 0.20535004
0.029777421 0.047375418 0.2045314
0.045044702 0.033408623 0.20246893
0.041705351 0.037407231 0.20249325
0.037702922 0.041773219 0.20235062
0.035814065 0.043015126 0.20195371
0.031250525 0.046817493 0.20131767
0.056376964 -0.010323944 0.24483362
-0.0073874909 0.050303943 0.23983136
0.056346051 -0.0096668154 0.24110457
-0.0060002226 0.051231802 0.23600221
-0.0083974693 0.052103162 0.23698646
0.057338156 -0.0065055136 0.23670727
-0.0035274513 0.052314788 0.2315034
0.057731271 -0.0049454644 0.231902
0.057436943 -0.0013566855 0.23264983
0.0025891624 0.052728239 0.2283521
-0.0013120808 0.052822273 0.22668341
0.057222895 -0.00034715794 0.22804937
0.0048274323 0.052389696 0.22341436
0.00046906807 0.052316658 0.22328925
0.056298643 -0.00018036738 0.22402754
0.056672558 0.0042420309 0.22317261
0.0089667737 0.051201306 0.21950465
0.0058987476 0.05105412 0.21865016
0.056459665 0.0059906691 0.21867248
0.056026179 0.0090964325 0.21822223
0.010895263 0.051772628 0.21457565
0.055139635 0.010420296 0.21410739
0.053732578 0.014782522 0.2140722
0.017293854 0.050931014 0.21027783
0.013388986 0.051391646 0.21081889
0.054632746 0.011888802 0.20972577
0.053835317 0.015517486 0.20927575
0.052688465 0.019797707 0.20874387
0.023594264 0.048392218 0.20597637
0.018467946 0.049768895 0.20632717
0.053619433 0.016805757 0.20422786
0.052636541 0.020071916 0.20419443
0.051517978 0.024096921 0.20492613
0.028019935 0.047875665 0.20194998
0.024115158 0.048036285 0.20212728
0.020502627 0.048957825 0.20144817
0.052660931 0.021220889 0.2005955
0.050578967 0.02539443 0.20028293
0.047965333 0.029833704 0.19980055
0.044892631 0.034262687 0.19975683
0.041153286 0.037905347 0.19929853
0.037985109 0.040598109 0.19887614
0.033576865 0.043960948 0.19848233
0.029727399 0.047430664 0.19798735
0.02601804 0.048211075 0.19729871
0.050094057 0.026396152 0.19592348
0.048283264 0.029771768 0.19467905
0.045406848 0.034238726 0.1942485
0.041882392 0.03807633 0.19412386
0.03798613 0.040476382 0.19344664
0.033900112 0.043181248 0.19377071
0.029704399 0.047001094 0.19366568
0.043947361 0.035694674 0.19062778
0.041668985 0.03762104 0.19031781
-0.0096733794 0.050871417 0.23346615
0.05750123 -0.010491733 0.23484167
-0.0084054843 0.051881727 0.22924957
0.057811253 -0.0092215836 0.22974297
-0.0045624729 0.053174816 0.22453585
-0.007208582 0.052803125 0.22410193
0.056598566 -0.0078908 0.22604445
0.056926891 -0.0037312452 0.22556829
-0.0013616625 0.052597396 0.22086841
-0.0056593716 0.052096684 0.22108421
0.056023538 -0.0026601516 0.22101021
0.056032762 0.0012442973 0.21927175
0.0032328609 0.051238485 0.21637893
-0.00013484433 0.051863525 0.21567985
0.056044631 -0.0011996087 0.21662131
0.056031723 0.002480913 0.21603116
0.0090039838 0.050941139 0.21167135
0.0048577543 0.051203787 0.2116186
0.0011860803 0.051926028 0.21196675
0.055902537 0.0032911077 0.2119002
0.055688068 0.0073987693 0.21165091
0.0099307243 0.050851017 0.20824465
0.0059735924 0.051398974 0.20756859
0.055791229 0.0042687878 0.20815888
0.055556636 0.0088883378 0.20698789
0.054347429 0.013397899 0.20583412
0.016193353 0.049632356 0.20362073
0.011940265 0.050267726 0.20319772
0.055935066 0.010663699 0.20221487
0.054561056 0.014886407 0.20278308
0.022184066 0.048393868 0.19939679
0.018103909 0.049253751 0.19931227
0.01401544 0.050712932 0.19843692
0.054285601 0.015421407 0.19810849
0.053074729 0.019310627 0.19826841
0.05143737 0.022576367 0.19764212
0.022913124 0.048089396 0.19576597
0.019192986 0.048906371 0.19492561
0.054652758 0.01640868 0.19358894
0.05358281 0.020125447 0.19327369
0.051078059 0.024342796 0.19320983
0.047807764 0.029061425 0.19151759
0.037749887 0.040111527 0.19120491
0.033152156 0.042929649 0.19101903
0.029457208 0.046009254 0.19037309
0.024603736 0.047982242 0.19082439
0.02073497 0.04873981 0.19182122
0.053755224 0.020969622 0.18840253
0.051081587 0.024937589 0.18802461
0.047959145 0.02895337 0.18801245
0.04543972 0.032812901 0.18839028
0.042178117 0.036898389 0.18761751
0.038204279 0.040356938 0.18799973
0.034257468 0.042730745 0.18706024
0.030336177 0.046204016 0.18659195
0.027125461 0.048284352 0.18588865
0.050302617 0.026804199 0.18471503
0.048225269 0.029481301 0.18437415
0.04583424 0.032845918 0.18328002
0.042716105 0.037160348 0.18356362
0.038826007 0.040663119 0.18312126
0.035214443 0.043135282 0.1826019
0.031117236 0.046056338 0.18277487
0.045233898 0.034134939 0.17996919
0.043172758 0.037902605 0.17916337
0.039834976 0.041090846 0.17897418
0.036717147 0.042570263 0.17932513
-0.009310862 0.052888595 0.22235632
0.05659309 -0.0098352935 0.22345632
-0.0081754047 0.051778935 0.21813029
0.055813439 -0.0092743021 0.2192708
0.055651873 -0.0044002142 0.21812898
-0.0048201364 0.050627269 0.21398884
0.056474 -0.0075976495 0.21438935
0.056031827 -0.004219275 0.2141628
-0.001271788 0.052099705 0.20937493
0.055376232 -0.0025218893 0.21058476
0.055784553 0.00069955736 0.20909959
0.0041131265 0.051646985 0.20506549
0.00040019676 0.052440401 0.20508185
0.056345165 0.0021377169 0.20561278
0.0090631451 0.050598666 0.20111331
0.0051459 0.051101174 0.2012423
0.001702603 0.052059241 0.20177817
0.056743629 0.003201833 0.20094255
0.056622788 0.0071394071 0.20047358
0.010933142 0.051631998 0.19669244
0.0073833801 0.051624484 0.19692627
0.054399386 0.0089315623 0.19587594
0.053909726 0.012010977 0.19541541
0.017356258 0.049757708 0.19326293
0.013335081 0.051137291 0.19278434
0.008723272 0.051978976 0.19181314
0.05430593 0.0099461786 0.19210833
0.054642964 0.014157888 0.19151342
0.022774246 0.048428383 0.18825871
0.019202013 0.049512688 0.18941084
0.014374793 0.050906457 0.18863794
0.054940905 0.015565883 0.18673024
0.05444587 0.019585574 0.18656451
0.052634023 0.022847861 0.18597648
0.024072317 0.048436865 0.18445829
0.020066921 0.049387205 0.18447956
0.015976358 0.050174806 0.18479404
0.054925412 0.01627326 0.18255761
0.053597637 0.019503037 0.18198618
0.051432081 0.024252789 0.1822511
0.048649572 0.028763905 0.18187785
0.033862054 0.044048503 0.18031743
0.03062789 0.046851248 0.18049669
0.025808699 0.048830584 0.18013605
0.021922432 0.049280286 0.17929929
0.050661556 0.024466889 0.17752171
0.048607759 0.028829992 0.17759514
0.046229139 0.032587402 0.17779258
0.043748792 0.037215639 0.17697456
0.039836913 0.041198827 0.17583111
0.035416998 0.043536693 0.17707852
0.030788619 0.046084959 0.17607808
0.026379798 0.048319843 0.17555043
0.044707906 0.032105569 0.17345726
0.042437736 0.036706876 0.17273021
0.039177999 0.04033599 0.17213303
0.03535879 0.042453904 0.17277265
0.032299325 0.044206642 0.17243853
0.057117358 -0.010067567 0.21257511
0.054965269 -0.0051143132 0.21115366
-0.0079886448 0.050959714 0.20687017
0.056624368 -0.0090864357 0.20722231
0.05541737 -0.0052772053 0.20756736
-0.0034800656 0.051458772 0.20179126
-0.0066668149 0.051332019 0.20233685
0.056954868 -0.0081934109 0.20383835
0.056311786 -0.0044908896 0.20322001
-0.001243405 0.051582169 0.19824463
0.056979973 -0.0024626888 0.19867098
0.056956835 0.00066321716 0.19804475
0.0040557943 0.051217437 0.19402003
0.00052707084 0.051266767 0.19430164
0.057726629 -0.0016568247 0.19437179
0.056603335 0.0017906167 0.1936706
0.055270769 0.0060134437 0.19393003
0.0051996037 0.051057082 0.18887639
0.0015036557 0.051524416 0.19086802
0.056740224 0.0027514827 0.18974543
0.055397596 0.0072684474 0.1895963
0.053989731 0.011523753 0.18904614
0.012687944 0.050606087 0.185754
0.0084693786 0.051166132 0.18513685
0.056613408 0.0051080342 0.18498668
0.055900432 0.008790426 0.1852718
0.054711469 0.012323005 0.18473086
0.017874271 0.049006626 0.1804722
0.013766684 0.050076768 0.18189263
0.010219885 0.050914451 0.18140805
0.055871274 0.0098815151 0.18152946
0.054557402 0.013436083 0.17938399
0.05359868 0.01786012 0.17898822
0.019337125 0.049425207 0.17693049
0.015380947 0.050181001 0.17683387
0.054502614 0.014182249 0.17607108
0.053401701 0.018452605 0.17554316
0.051285569 0.022320274 0.17506415
0.024558049 0.048354227 0.17303652
0.020788139 0.049998589 0.17275509
0.017168477 0.050714076 0.1712516
0.052489869 0.019311836 0.17093873
0.050744481 0.023256024 0.17102772
0.04811357 0.027886719 0.17154434
0.045353714 0.031210838 0.17107737
0.042412657 0.035234395 0.16944742
0.038331408 0.039299037 0.16854677
0.034099393 0.042002812 0.16950548
0.030024614 0.045034114 0.16984433
0.02582562 0.047615349 0.16884223
0.02180554 0.049388491 0.16878808
0.050831839 0.02424662 0.16698903
0.048235152 0.028079133 0.1660547
0.045596439 0.03136101 0.16544348
0.042469997 0.035462219 0.16502345
0.038423851 0.039168492 0.16491151
0.034452334 0.041676924 0.1651946
0.031051496 0.044444215 0.16490114
0.027527293 0.046584226 0.16472369
0.042679537 0.035669517 0.16130465
0.039206147 0.038620286 0.16082495
-0.0078652371 0.050854936 0.19924796
0.056272574 -0.010360917 0.20090324
-0.0066189282 0.051973403 0.1961233
0.056991398 -0.0056996997 0.1973893
-0.0022673849 0.051442981 0.19226071
-0.0058204718 0.05210926 0.19121319
0.057157725 -0.0042151343 0.19271326
0.057117797 -0.00041848607 0.19101611
0.0033425633 0.050985143 0.18617469
-0.00051341392 0.051393092 0.18762809
-0.0048714578 0.052874021 0.18839297
0.056601588 0.00042992458 0.18717706
0.0057183504 0.050972786 0.18283546
0.0025056824 0.050927415 0.18252349
0.056609511 0.0023193713 0.18292901
0.011566008 0.049998313 0.17899227
0.0075508952 0.051036596 0.17900437
0.0037173871 0.051057667 0.17830351
0.056153301 0.0033040158 0.17890561
0.055744361 0.0076691099 0.17830536
0.055018052 0.011511756 0.17699495
0.012882717 0.050632328 0.17486346
0.0092341863 0.051248394 0.17502511
0.055370972 0.0078904312 0.17351466
0.054418489 0.012410728 0.17294425
0.013914037 0.050755244 0.16964003
0.010653852 0.050912239 0.17080247
0.054419652 0.0125935 0.1683172
0.053176105 0.017061865 0.16914141
0.051596161 0.0203523 0.16821736
0.023647325 0.048220135 0.16619012
0.019642016 0.049323462 0.16584998
0.01620244 0.050105251 0.16551167
0.054611042 0.014457522 0.16535056
0.053194627 0.017275995 0.16403735
0.051337458 0.021951273 0.16436526
0.048793241 0.026877634 0.1632835
0.036631983 0.039352294 0.16164654
0.034494556 0.041507334 0.16150254
0.030873492 0.044373974 0.1618225
0.024649138 0.046880558 0.16201672
0.020092055 0.047857091 0.16240153
0.052893445 0.018899158 0.16094059
0.050464313 0.02286623 0.15961766
0.048054852 0.026651278 0.15859318
0.045377027 0.030665582 0.15863541
0.042516124 0.035314266 0.15831959
0.038050193 0.038685646 0.15790421
0.034175724 0.040992588 0.15781575
0.03047272 0.043957517 0.1575222
0.027372733 0.046061322 0.15710691
0.047792129 0.027402401 0.15475321
0.045447245 0.030421883 0.15415514
0.042639308 0.034094088 0.15416333
0.038885169 0.037827067 0.15296677
0.034959055 0.041165061 0.15294924
0.03139253 0.043975897 0.15293348
-0.0097100567 0.051752634 0.1928201
-0.009138681 0.052175753 0.18968159
0.054259948 -0.0082134213 0.18828526
-0.002635235 0.050656676 0.18407989
-0.0056015123 0.051793106 0.18522203
0.05488167 -0.0057176221 0.18418252
0.05563838 -0.0026893802 0.18398935
-0.0018601865 0.049658082 0.17908794
-0.0051262677 0.050414406 0.18189076
0.055663146 -0.00250021 0.18001175
0.0010934528 0.050671309 0.17596298
0.055820212 8.6823478e-05 0.17618093
0.0061416365 0.050984539 0.17222494
0.0029590093 0.050983477 0.17192611
0.055521138 0.0021541268 0.17189911
0.055621557 0.0061064642 0.17136103
0.0079157185 0.050631143 0.16772732
0.0038524307 0.050841365 0.16830152
0.055615515 0.0067841597 0.16678074
0.05512847 0.010620782 0.16576368
0.012898002 0.049763571 0.16287127
0.0094272178 0.050323777 0.16282463
0.055809565 0.0088250712 0.16257358
0.055100136 0.012238979 0.16256505
0.019159034 0.048212789 0.15972799
0.014711386 0.049763933 0.15888941
0.010597711 0.05040589 0.15868104
0.054657221 0.013314098 0.15798593
0.053243198 0.016545156 0.15800503
0.051631436 0.020275719 0.1578415
0.023726817 0.045727227 0.15599009
0.020231806 0.047661036 0.15504628
0.015955472 0.049618028 0.15493917
0.052272618 0.016926268 0.15359607
0.051275983 0.022095524 0.15325221
0.048585445 0.026633106 0.15244877
0.045390993 0.030182354 0.15152651
0.042396519 0.033651564 0.1510694
0.034084901 0.041538768 0.15028808
0.030835237 0.044254515 0.15027672
0.026729643 0.04620716 0.15101111
0.021560933 0.047888052 0.15070993
0.051777814 0.023046415 0.14808604
0.049091235 0.027112288 0.14790928
0.045638986 0.030144081 0.14747173
0.042471778 0.033478525 0.14732528
0.039084602 0.037681747 0.14746153
0.035439968 0.041610286 0.14733523
0.032026328 0.044681437 0.1469366
0.027777709 0.046964921 0.1463536
0.023522142 0.047227997 0.14732009
0.038629878 0.036977772 0.14317816
0.035306174 0.040776726 0.1424183
0.031744201 0.04459158 0.14228442
0.02881437 0.046691373 0.14243892
-0.0072231665 0.048406959 0.177349
0.055078603 -0.0080963355 0.17846102
-0.0018482227 0.050001167 0.17333984
-0.0059817322 0.049035076 0.17274618
0.056114957 -0.0072085168 0.1743497
0.055500314 -0.0031363107 0.17344743
-0.00097581372 0.05012637 0.16880503
-0.0038008317 0.05014972 0.16787899
0.05528684 -0.0022578426 0.16944328
0.001127379 0.049990512 0.16475359
0.055842496 0.00017007254 0.16525275
0.055805095 0.004441889 0.16341063
0.0061348882 0.049738429 0.16054171
0.0021376144 0.049733102 0.16085759
0.056057736 0.0016713049 0.16094425
0.055491924 0.0056666918 0.16010183
0.01246047 0.049914926 0.15573257
0.0091297124 0.050204031 0.15563011
0.054692663 0.0062864088 0.15564781
0.054416671 0.0098517109 0.15548593
0.01413258 0.049923211 0.15228587
0.010238357 0.050845321 0.15130004
0.053687602 0.011368252 0.15096164
0.052887045 0.015153563 0.1512621
0.0191883 0.048837975 0.14825112
0.015241828 0.050074238 0.14798295
0.011554789 0.051367085 0.14710668
0.05382457 0.012078095 0.14725438
0.052770019 0.015663058 0.14670092
0.052293956 0.020022199 0.14635074
0.025838073 0.04708128 0.14289665
0.022332797 0.048098378 0.1446102
0.017083844 0.049473025 0.14308691
0.052720726 0.017199798 0.14247245
0.051402103 0.021280725 0.14131749
0.048352938 0.025888313 0.14135975
0.04507225 0.029136717 0.14111412
0.042141277 0.032751057 0.14122567
0.038746819 0.03692279 0.14041451
0.034524269 0.040820889 0.13949814
0.031806622 0.043538962 0.1393072
0.027225379 0.04638974 0.13904583
0.022229759 0.047767639 0.13942021
0.018601894 0.049704999 0.14025697
0.050289288 0.023149403 0.13737059
0.048390444 0.025861088 0.13627511
0.045929294 0.029639836 0.13618457
0.043066043 0.033338692 0.13637787
0.039005179 0.036894131 0.13585362
0.03489726 0.04040651 0.13528338
0.031775117 0.043823011 0.13520238
0.028098045 0.045995355 0.1348626
0.046387956 0.030251786 0.13220304
0.043687016 0.033605583 0.1311917
0.04054299 0.036315411 0.13139367
0.036426004 0.039539982 0.13193852
0.043455172 0.035344172 0.12811512
-0.0084108915 0.049597129 0.17179787
0.055225421 -0.0095822401 0.17043513
-0.0063891485 0.050914679 0.16692549
-0.0088537708 0.052846987 0.16652447
0.054193072 -0.0091682673 0.16631714
0.05492555 -0.0052229539 0.16615516
-0.0014980976 0.049976073 0.16251796
-0.0043660942 0.051561631 0.16268551
-0.0070897471 0.054302648 0.16249913
0.054705493 -0.0080484282 0.1629813
0.054880686 -0.0055637322 0.16321272
1.0561198e-05 0.049803305 0.15796998
-0.0041384995 0.051122792 0.15845573
-0.0064104665 0.05377838 0.15892199
0.055865504 -0.0015393142 0.15897727
0.055111453 0.003106745 0.15692729
0.0049138088 0.049277514 0.15528959
0.0013553649 0.049590647 0.15387973
0.055169806 9.4912946e-05 0.15422654
0.054042451 0.0033624861 0.15239793
0.0065266453 0.050560839 0.15018594
0.0033338461 0.050752863 0.14862311
0.054108694 0.0042770803 0.14854378
0.053773873 0.0082518719 0.1487599
0.0091768112 0.051957525 0.14529121
0.0055142567 0.051505793 0.14354599
0.055051155 0.0062900428 0.14338267
0.054018304 0.0094864592 0.14406568
0.053443402 0.013632886 0.14402306
0.013819817 0.05062246 0.14188802
0.01039793 0.051643241 0.14054689
0.054343678 0.010031754 0.13961768
0.052983545 0.014417609 0.14011624
0.020427778 0.048083358 0.13672626
0.01698144 0.049932159 0.13738549
0.012527037 0.050897058 0.13606632
0.052619919 0.014891153 0.13502112
0.050829481 0.019838389 0.13505843
0.04898024 0.024849575 0.13369393
0.026155133 0.045805048 0.13215047
0.022107163 0.04738903 0.13353544
0.017455019 0.048972122 0.13290346
0.050277609 0.019832741 0.13036373
0.0485413 0.025220999 0.12984514
0.046765801 0.029452812 0.12947533
0.039344378 0.037177354 0.12925825
0.035444509 0.039861452 0.12903416
0.03157185 0.0433129 0.12919191
0.027082264 0.045161396 0.12832823
0.022265956 0.046805054 0.12909043
0.04780782 0.026349977 0.12523216
0.046213698 0.029419746 0.12511784
0.044237781 0.033499215 0.12552133
0.040623553 0.036736898 0.12532407
0.035954583 0.039715361 0.12418008
0.031885613 0.043318864 0.12367049
0.028572701 0.045494907 0.12288952
0.043376178 0.033295766 0.1200971
0.040673926 0.03642235 0.11947805
0.036580674 0.040014982 0.1189478
0.032620326 0.043368168 0.11952263
0.029279877 0.046002652 0.11971021
0.054828063 -0.010094071 0.16030037
0.054473475 -0.006326519 0.15989614
-0.0056449696 0.050614309 0.15497157
-0.0077892989 0.052449364 0.15487006
0.054176118 -0.0086554997 0.1549978
0.054718509 -0.0056360569 0.15659866
-0.0010874067 0.050002955 0.1516186
-0.0058829542 0.049850293 0.15027344
-0.0085657928 0.05164282 0.15039453
0.054474421 -0.0037182365 0.15171102
0.00030869059 0.051148228 0.14817265
-0.0038920175 0.050820172 0.14648932
-0.0063463785 0.053487208 0.14578378
0.054859944 -0.0014646109 0.14728591
0.054508049 0.0020459406 0.14633712
0.0020430144 0.051718071 0.14333066
-0.0018626247 0.051114507 0.14234331
0.056225564 0.00063946843 0.14236096
0.055608347 0.003391169 0.14235058
0.0045540202 0.051513851 0.13834527
0.056713887 0.00073100254 0.13793266
0.056111865 0.0049162675 0.13788837
0.055053748 0.0091053043 0.13713989
0.0097083636 0.051195182 0.13394397
0.0062008966 0.051773354 0.13309699
0.055879258 0.0062442683 0.13340181
0.054841965 0.0096874703 0.13350692
0.053634048 0.012925185 0.13342786
0.01660818 0.049019605 0.12991172
0.011974327 0.050310116 0.12967491
0.0074338466 0.051714703 0.12955159
0.054652244 0.010634402 0.1294117
0.05317273 0.014321566 0.12908432
0.051128775 0.018860452 0.12822688
0.024704788 0.045230743 0.12634832
0.021625906 0.047039233 0.12628719
0.016948989 0.048628047 0.12563106
0.013114385 0.05004663 0.12548786
0.05282297 0.01468431 0.12429231
0.051368657 0.018807951 0.12451684
0.048692182 0.023532003 0.12364528
0.046749864 0.027280148 0.12223387
0.025256138 0.045541633 0.12203261
0.022339769 0.046855494 0.12162977
0.018125709 0.048127364 0.12157899
0.051186956 0.018831687 0.12011641
0.04809719 0.023684453 0.11883664
0.045806885 0.028268225 0.11835641
0.044575147 0.03216929 0.11830115
0.032448873 0.044048242 0.11717415
0.027954817 0.045975894 0.11649239
0.022897104 0.047384202 0.11714643
0.045128569 0.029550003 0.11476022
0.043715712 0.032763537 0.11386389
0.040878069 0.036265668 0.1137535
0.037254591 0.039939132 0.11391222
0.032666635 0.043533605 0.11368018
0.029503211 0.04553327 0.11320591
-0.0059065353 0.049766317 0.14811733
-0.0082111582 0.051890295 0.14787382
0.054051891 -0.010171458 0.14889568
0.054124609 -0.0055065341 0.14885694
-0.005845068 0.051092066 0.1437231
-0.0075357947 0.052454725 0.14659214
0.054675072 -0.0093153715 0.14507994
0.054702945 -0.0052227173 0.14551315
-0.0035424214 0.050600223 0.14029574
0.055506527 -0.0036753472 0.14095983
9.7440556e-05 0.050623342 0.13748166
-0.0019124709 0.050318886 0.13486338
0.056138001 -0.0027654227 0.13639286
0.056268271 0.0022228733 0.13458693
0.0036031697 0.051470451 0.13118857
0.00018619187 0.050524391 0.13178748
0.055548921 0.0034044851 0.13093925
0.0097026546 0.050494842 0.1263921
0.0058734715 0.051247731 0.12626699
0.05531415 0.0044153519 0.12602359
0.054480042 0.0079079978 0.1261104
0.011020336 0.050140809 0.12247795
0.006983215 0.05050163 0.12156528
0.055624336 0.0049530771 0.1221236
0.054438177 0.0088779368 0.12170494
0.053485926 0.013166193 0.12220097
0.016642528 0.048787929 0.11916113
0.012113323 0.050002873 0.11812931
0.055247318 0.010017332 0.11702704
0.05362042 0.013815887 0.11758476
0.051778287 0.01822181 0.11755109
0.049173616 0.02123539 0.11744058
0.021995012 0.047493424 0.11445117
0.017773893 0.048938837 0.11472762
0.013944779 0.050175499 0.11368066
0.054669026 0.014479537 0.11269486
0.052016929 0.01856572 0.11321747
0.048329193 0.022331681 0.11282307
0.045407392 0.027447648 0.11226839
0.04404043 0.030402113 0.11070436
0.035101168 0.039166972 0.10999572
0.03227672 0.04187493 0.10974127
0.02721791 0.045218527 0.11047286
0.022546552 0.04676082 0.11053437
0.018287327 0.048487272 0.10963559
0.052179433 0.018825946 0.10878199
0.048639655 0.02266413 0.10769367
0.045647327 0.027094085 0.10778445
0.043088559 0.031406585 0.10678321
0.039889015 0.034867607 0.10669154
0.03640832 0.038034059 0.10629237
0.032279126 0.041663721 0.10575575
0.027642028 0.044593371 0.10603809
0.023546405 0.045358382 0.10652316
0.047833923 0.024848986 0.10425448
0.046051189 0.027710937 0.10296613
0.04341916 0.031658202 0.10149491
0.040155701 0.034770355 0.1009478
0.036806621 0.038092457 0.10070211
0.03318239 0.041593619 0.10058403
0.029686384 0.044616401 0.10039496
0.042241089 0.034418635 0.09806025
0.036601048 0.039901126 0.097589552
0.034345023 0.042094104 0.097401202
0.032089032 0.044287123 0.09721297
-0.0064980108 0.048918732 0.1370492
0.055102859 -0.010401573 0.13839918
-0.0057208426 0.049493548 0.1329577
-0.0087406226 0.051001687 0.13205454
-0.010354947 0.053745549 0.13054541
0.056137532 -0.0076959673 0.13421318
0.055223662 -0.0047807992 0.13268307
-0.0030470956 0.050249882 0.12871337
-0.007707864 0.052977458 0.12797993
0.05469729 -0.0030895695 0.12973627
0.054641347 -2.0969659e-05 0.12884191
-0.00082505681 0.04992681 0.12475401
-0.0084192771 0.055306971 0.12462759
0.054337487 -0.0029642731 0.12536931
0.054747246 0.00056838058 0.12417862
0.0039850976 0.050956689 0.12110984
0.00068163313 0.050587565 0.11962003
0.055831969 0.0038112123 0.11975956
0.055270173 0.0066576209 0.11985493
0.010294175 0.05062867 0.11525702
0.0060033798 0.051016752 0.11597484
0.0016014501 0.051287957 0.11562175
0.056116432 0.0039304327 0.11532384
0.055863664 0.0074292738 0.11523694
0.011366645 0.050620072 0.11158985
0.0072906837 0.051165055 0.11113888
0.055594817 0.0092676636 0.11129308
0.016904155 0.049257293 0.10729361
0.013088744 0.050046135 0.10747916
0.053534709 0.0135452 0.10639811
0.052494422 0.017900927 0.10586852
0.04947773 0.022142831 0.10578597
0.025442967 0.044830583 0.103441
0.022091672 0.046310306 0.10397786
0.01795138 0.047914956 0.10331953
0.051381007 0.01773148 0.1013934
0.049158175 0.022319678 0.10160321
0.046979088 0.02816141 0.10022515
0.045012575 0.03061666 0.099685252
0.026754731 0.045335181 0.099560797
0.023223631 0.046264976 0.09925741
0.019148044 0.047409244 0.099178255
0.049098641 0.023060894 0.096968472
0.046933673 0.027550682 0.096708596
0.044086225 0.031724066 0.096770346
0.040744253 0.035404988 0.096057832
0.037617888 0.03859305 0.095873594
0.034131505 0.041768648 0.095146358
0.029740822 0.045246769 0.095685542
0.025192145 0.045617763 0.094542801
0.046641804 0.02786657 0.092829049
0.043884668 0.03154226 0.092195868
0.040926591 0.034926437 0.091400921
0.037636824 0.038059168 0.091092765
0.033877302 0.041346978 0.091824293
0.030470833 0.04410734 0.091748655
0.027302349 0.045997091 0.091363907
-0.0073427558 0.051000737 0.12512621
0.054635044 -0.010178972 0.12729332
0.05402375 -0.0072218664 0.12657577
-0.0045228396 0.04938715 0.12164497
-0.008377431 0.051754631 0.12170875
0.054125477 -0.0054218434 0.12215963
-0.0035304315 0.049720258 0.11730784
-0.00863491 0.052832875 0.11756009
0.05446396 -0.0041502323 0.11760813
0.054851204 -0.00072681159 0.11897516
-0.00088773295 0.050389964 0.11285621
0.055212755 -7.8946352e-05 0.113653
0.004415933 0.050763816 0.10882431
0.0011375677 0.05067119 0.10923409
0.05491535 0.0019223727 0.10957861
0.05450622 0.0058951024 0.10738879
0.010536473 0.04937207 0.10408169
0.0061088353 0.050385136 0.10502553
0.053057648 0.0074886624 0.10343307
0.053274997 0.010710159 0.10287404
0.015792893 0.047946379 0.10014701
0.011136923 0.048394572 0.10015315
0.0072337072 0.049487606 0.10129356
0.053756703 0.0079209954 0.10010844
0.053329192 0.011951895 0.098935664
0.052138709 0.016049245 0.099012792
0.020622347 0.046505693 0.096619606
0.016388915 0.047127478 0.095236003
0.012181435 0.048447397 0.096695483
0.05378652 0.012799513 0.094361246
0.052168146 0.01727022 0.09504807
0.050016254 0.021257268 0.094359517
0.022944465 0.046008199 0.09249717
0.018690731 0.046643961 0.091128647
0.05221691 0.017675206 0.090001106
0.049681935 0.022298809 0.090245187
0.046927113 0.026934814 0.089842618
0.04430782 0.030335682 0.08927542
0.033552259 0.040852778 0.08841002
0.029595885 0.044102009 0.088561833
0.024780091 0.045641053 0.08772105
0.052193522 0.018846421 0.085951269
0.049923051 0.023045953 0.085252404
0.047133092 0.027272444 0.085368931
0.044254109 0.031158656 0.085699737
0.041072395 0.034712698 0.085676789
0.037897237 0.038268439 0.085658729
0.034311086 0.041400246 0.085173488
0.030333675 0.044145793 0.084253073
0.026928172 0.045822769 0.08361119
0.044119831 0.030743759 0.081413925
0.040806036 0.034587678 0.080666363
0.037880957 0.037953697 0.080498755
0.034484826 0.041297987 0.080238342
0.030605532 0.044170223 0.079639018
