# .PCD v0.7 - Point Cloud Data file format
VERSION 0.7
FIELDS x y z
SIZE 4 4 4
TYPE F F F
COUNT 1 1 1
WIDTH 1331
HEIGHT 1
VIEWPOINT 0 0 0 1 0 0 0
POINTS 1331
DATA ascii
0.039333493 -0.04360415 0.25254402
0.034813195 -0.047078475 0.25601834
0.035709649 -0.046458527 0.25601834
0.039183974 -0.043694213 0.25601834
0.034695268 -0.047078475 0.25949267
0.035709649 -0.046373278 0.25949267
0.039179265 -0.04360415 0.25949267
0.039183974 -0.04360415 0.2593883
0.039291769 -0.04360415 0.25601834
0.042658299 -0.040566728 0.24906969
0.043108135 -0.040129825 0.24906969
0.046132624 -0.036968365 0.24906969
0.042658299 -0.040568769 0.25254402
0.043105721 -0.040129825 0.25254402
0.046132624 -0.036938503 0.25254402
0.039183974 -0.043600217 0.25949267
0.042658299 -0.040509909 0.25601834
0.043044537 -0.040129825 0.25601834
0.046132624 -0.036860332 0.25601834
0.042658299 -0.040411308 0.25949267
0.04294616 -0.040129825 0.25949267
0.046132624 -0.036784276 0.25949267
0.046406388 -0.036655501 0.24906969
0.046377987 -0.036655501 0.25254402
0.04926911 -0.033181176 0.24906969
0.049606949 -0.032713279 0.24906969
0.051640749 -0.029706851 0.24906969
0.049228281 -0.033181176 0.25254402
0.049606949 -0.032656327 0.25254402
0.051610351 -0.029706851 0.25254402
0.046309769 -0.036655501 0.25601834
0.046245426 -0.036655501 0.25949267
0.049167037 -0.033181176 0.25601834
0.049606949 -0.032572821 0.25601834
0.051557809 -0.029706851 0.25601834
0.049110651 -0.033181176 0.25949267
0.049606949 -0.032492131 0.25949267
0.05148676 -0.029706851 0.25949267
0.053081274 -0.026443481 0.23517239
0.053081274 -0.026232526 0.23295838
0.053081274 -0.026754931 0.23864672
0.053186268 -0.026232526 0.23517239
0.054772317 -0.022758201 0.23517239
0.053338408 -0.026232526 0.23864672
0.054903567 -0.022758201 0.23864672
0.056000113 -0.019283876 0.23517239
0.056555599 -0.017214462 0.23517239
0.056886137 -0.015809551 0.23517239
0.056102306 -0.019283876 0.23864672
0.056555599 -0.017586887 0.23864672
0.056965619 -0.015809551 0.23864672
0.053081274 -0.026991203 0.24212104
0.053081274 -0.027144656 0.24559537
0.053454906 -0.026232526 0.24212104
0.055015236 -0.022758201 0.24212104
0.053536057 -0.026232526 0.24559537
0.055106163 -0.022758201 0.24559537
0.056194663 -0.019283876 0.24212104
0.056555599 -0.017915323 0.24212104
0.057029039 -0.015809551 0.24212104
0.056260765 -0.019283876 0.24559537
0.056555599 -0.018132284 0.24559537
0.057071239 -0.015809551 0.24559537
0.057583958 -0.012335226 0.23517239
0.058091521 -0.008860901 0.23517239
0.057624072 -0.012335226 0.23864672
0.058111906 -0.008860901 0.23864672
0.058451086 -0.0053865761 0.23517239
0.058670431 -0.0019122511 0.23517239
0.058475524 -0.0053865761 0.23864672
0.05870223 -0.0019122511 0.23864672
0.057655364 -0.012335226 0.24212104
0.058135092 -0.008860901 0.24212104
0.057696611 -0.012335226 0.24559537
0.058183789 -0.008860901 0.24559537
0.058506697 -0.0053865761 0.24212104
0.058744878 -0.0019122511 0.24212104
0.058568329 -0.0053865761 0.24559537
0.058813304 -0.0019122511 0.24559537
0.053081274 -0.027214095 0.24906969
0.053081274 -0.027200103 0.25254402
0.053579837 -0.026232526 0.24906969
0.055168271 -0.022758201 0.24906969
0.053579032 -0.026232526 0.25254402
0.05518052 -0.022758201 0.25254402
0.056317896 -0.019283876 0.24906969
0.056555599 -0.018368542 0.24906969
0.057140648 -0.015809551 0.24906969
0.056355208 -0.019283876 0.25254402
0.056555599 -0.018548504 0.25254402
0.057202697 -0.015809551 0.25254402
0.053081274 -0.027131394 0.25601834
0.053081274 -0.026984274 0.25949267
0.053542495 -0.026232526 0.25601834
0.055142403 -0.022758201 0.25601834
0.053462595 -0.026232526 0.25949267
0.055055857 -0.022758201 0.25949267
0.056340218 -0.019283876 0.25601834
0.056555599 -0.018515199 0.25601834
0.05721736 -0.015809551 0.25601834
0.056270778 -0.019283876 0.25949267
0.056555599 -0.01827985 0.25949267
0.057182223 -0.015809551 0.25949267
0.057774782 -0.012335226 0.24906969
0.058258832 -0.008860901 0.24906969
0.057855427 -0.012335226 0.25254402
0.058352619 -0.008860901 0.25254402
0.05864352 -0.0053865761 0.24906969
0.058879822 -0.0019122511 0.24906969
0.05871889 -0.0053865761 0.25254402
0.058942556 -0.0019122511 0.25254402
0.057907641 -0.012335226 0.25601834
0.058419079 -0.008860901 0.25601834
0.05790922 -0.012335226 0.25949267
0.058433294 -0.008860901 0.25949267
0.058772504 -0.0053865761 0.25601834
0.058981895 -0.0019122511 0.25601834
0.058788627 -0.0053865761 0.25949267
0.058966458 -0.0019122511 0.25949267
0.0079150647 -0.056113169 0.26296699
0.01138939 -0.055846483 0.26296699
0.0079150647 -0.055805489 0.26644132
0.01138939 -0.055556536 0.26644132
0.014863715 -0.055342466 0.26296699
0.01833804 -0.054573417 0.26296699
0.014863715 -0.055067614 0.26644132
0.01833804 -0.054311946 0.26644132
0.0079150647 -0.055424973 0.26991564
0.01138939 -0.055180997 0.26991564
0.0079150647 -0.054967985 0.27338997
0.01138939 -0.05472587 0.27338997
0.014863715 -0.054695815 0.26991564
0.018063113 -0.054027125 0.26991564
0.01833804 -0.054027125 0.26930949
0.01833804 -0.05396013 0.26991564
0.014863715 -0.054247558 0.27338997
0.016072199 -0.054027125 0.27338997
0.01833804 -0.05352217 0.27338997
0.020323306 -0.054027125 0.26296699
0.021812364 -0.053552449 0.26296699
0.025286689 -0.052166477 0.26296699
0.019431025 -0.054027125 0.26644132
0.021812364 -0.053296119 0.26644132
0.025286689 -0.051898435 0.26644132
0.028653428 -0.0505528 0.26296699
0.028761014 -0.0505528 0.26197696
0.028170988 -0.0505528 0.26644132
0.028761014 -0.050498366 0.26296699
0.032235324 -0.048472881 0.26296699
0.028761014 -0.05025585 0.26644132
0.032235324 -0.048195973 0.26644132
0.021812364 -0.052934006 0.26991564
0.025286689 -0.051535979 0.26991564
0.021812364 -0.052463219 0.27338997
0.025286689 -0.051049531 0.27338997
0.027451754 -0.0505528 0.26991564
0.02639474 -0.0505528 0.27338997
0.028761014 -0.049902126 0.26991564
0.032235324 -0.047809213 0.26991564
0.028761014 -0.049366474 0.27338997
0.032235324 -0.047254369 0.27338997
0.0079150647 -0.054434925 0.27686429
0.01138939 -0.054193214 0.27686429
0.0079150647 -0.054027125 0.27935615
0.01138939 -0.054027125 0.27788761
0.0079150647 -0.053860113 0.28033862
0.01138939 -0.053606391 0.28033862
0.012869984 -0.054027125 0.27686429
0.014863715 -0.054027125 0.27493221
0.014863715 -0.053722844 0.27686429
0.01833804 -0.052958697 0.27686429
0.014863715 -0.053061292 0.28033862
0.01833804 -0.052212879 0.28033862
0.0079150647 -0.053111523 0.28381294
0.01138939 -0.052832887 0.28381294
0.0079150647 -0.052039936 0.28728727
0.01138939 -0.051735789 0.28728727
0.014863715 -0.052221417 0.28381294
0.01833804 -0.051279262 0.28381294
0.014863715 -0.051103398 0.28728727
0.017024592 -0.0505528 0.28728727
0.01833804 -0.0505528 0.28614995
0.01833804 -0.050159454 0.28728727
0.021812364 -0.051848501 0.27686429
0.025001228 -0.0505528 0.27686429
0.025286689 -0.0505528 0.27621916
0.021812364 -0.051044136 0.28033862
0.023087963 -0.0505528 0.28033862
0.025286689 -0.050425664 0.27686429
0.025286689 -0.049572393 0.28033862
0.028761014 -0.04859069 0.27686429
0.03129296 -0.047078475 0.27686429
0.032235324 -0.047078475 0.27429825
0.032235324 -0.046482921 0.27686429
0.028761014 -0.047609553 0.28033862
0.029650584 -0.047078475 0.28033862
0.032235324 -0.045392513 0.28033862
0.020515725 -0.0505528 0.28381294
0.021812364 -0.0505528 0.28217679
0.021812364 -0.050066814 0.28381294
0.025286689 -0.048421144 0.28381294
0.021812364 -0.048785806 0.28728727
0.025272191 -0.047078475 0.28728727
0.025286689 -0.047078475 0.28726867
0.025286689 -0.047070876 0.28728727
0.027722329 -0.047078475 0.28381294
0.028761014 -0.047078475 0.28203583
0.028761014 -0.04644908 0.28381294
0.032235324 -0.044050157 0.28381294
0.028761014 -0.044899553 0.28728727
0.030672774 -0.04360415 0.28728727
0.032235324 -0.04360415 0.28490633
0.032235324 -0.0424916 0.28728727
0.034435064 -0.047078475 0.26296699
0.035709649 -0.046196833 0.26296699
0.038999379 -0.04360415 0.26296699
0.034010619 -0.047078475 0.26644132
0.035709649 -0.04591462 0.26644132
0.038732737 -0.04360415 0.26644132
0.03339982 -0.047078475 0.26991564
0.035709649 -0.04548806 0.26991564
0.038220733 -0.04360415 0.26991564
0.032513559 -0.047078475 0.27338997
0.035709649 -0.044832125 0.27338997
0.037372231 -0.04360415 0.27338997
0.039183974 -0.043452561 0.26296699
0.039183974 -0.043238342 0.26644132
0.042658299 -0.040284544 0.26296699
0.042817146 -0.040129825 0.26296699
0.046132624 -0.03666985 0.26296699
0.042590052 -0.040129825 0.26644132
0.042658299 -0.040129825 0.26559824
0.042658299 -0.040063426 0.26644132
0.045933157 -0.036655501 0.26644132
0.046132624 -0.036655501 0.26326025
0.046132624 -0.036428213 0.26644132
0.039183974 -0.042827711 0.26991564
0.039183974 -0.04216513 0.27338997
0.042195648 -0.040129825 0.26991564
0.042658299 -0.03968446 0.26991564
0.045576215 -0.036655501 0.26991564
0.041523963 -0.040129825 0.27338997
0.042658299 -0.039062366 0.27338997
0.044995338 -0.036655501 0.27338997
0.046132624 -0.036028579 0.26991564
0.046132624 -0.035362586 0.27338997
0.04614529 -0.036655501 0.26296699
0.049016833 -0.033181176 0.26296699
0.049606949 -0.032362014 0.26296699
0.051368654 -0.029706851 0.26296699
0.048828453 -0.033181176 0.26644132
0.049606949 -0.032112733 0.26644132
0.05117473 -0.029706851 0.26644132
0.048473507 -0.033181176 0.26991564
0.049606949 -0.031609729 0.26991564
0.050822467 -0.029706851 0.26991564
0.047869563 -0.033181176 0.27338997
0.049606949 -0.030763373 0.27338997
0.050277948 -0.029706851 0.27338997
0.035709649 -0.043989867 0.27686429
0.036236912 -0.04360415 0.27686429
0.03480351 -0.04360415 0.28033862
0.035709649 -0.04360415 0.27827811
0.032876492 -0.04360415 0.28381294
0.039183974 -0.041252643 0.27686429
0.035709649 -0.04294385 0.28033862
0.039171308 -0.040129825 0.28033862
0.039183974 -0.040129825 0.28030878
0.039183974 -0.040119112 0.28033862
0.040496975 -0.040129825 0.27686429
0.042658299 -0.038106054 0.27686429
0.044065118 -0.036655501 0.27686429
0.042658299 -0.036839157 0.28033862
0.042836845 -0.036655501 0.28033862
0.046132624 -0.034282684 0.27686429
0.045914233 -0.033181176 0.28033862
0.046132624 -0.033181176 0.27969116
0.046132624 -0.032902539 0.28033862
0.035709649 -0.041472316 0.28381294
0.037407994 -0.040129825 0.28381294
0.039183974 -0.038618281 0.28381294
0.035312891 -0.040129825 0.28728727
0.035709649 -0.040129825 0.28664789
0.035709649 -0.039814889 0.28728727
0.039183974 -0.036769345 0.28728727
0.041266114 -0.036655501 0.28381294
0.042658299 -0.036655501 0.28079519
0.039306641 -0.036655501 0.28728727
0.042658299 -0.035235763 0.28381294
0.04445827 -0.033181176 0.28381294
0.046132624 -0.031064272 0.28381294
0.042658299 -0.033224359 0.28728727
0.042696565 -0.033181176 0.28728727
0.045521528 -0.029706851 0.28728727
0.046132624 -0.029706851 0.28599477
0.046996325 -0.033181176 0.27686429
0.049534857 -0.029706851 0.27686429
0.049606949 -0.029706851 0.27657351
0.048484623 -0.029706851 0.28033862
0.047092676 -0.029706851 0.28381294
0.053081274 -0.026737556 0.26296699
0.053081274 -0.02633962 0.26644132
0.053334624 -0.026232526 0.26296699
0.054918945 -0.022758201 0.26296699
0.053133756 -0.026232526 0.26644132
0.054696292 -0.022758201 0.26644132
0.056157142 -0.019283876 0.26296699
0.056555599 -0.017903909 0.26296699
0.057084143 -0.015809551 0.26296699
0.055964679 -0.019283876 0.26644132
0.056555599 -0.017253056 0.26644132
0.056920141 -0.015809551 0.26644132
0.052811116 -0.026232526 0.26991564
0.053081274 -0.026232526 0.26712859
0.053081274 -0.025660038 0.26991564
0.0523085 -0.026232526 0.27338997
0.053081274 -0.024563357 0.27338997
0.054353774 -0.022758201 0.26991564
0.053839862 -0.022758201 0.27338997
0.055646449 -0.019283876 0.26991564
0.056555599 -0.016082644 0.26991564
0.056623191 -0.015809551 0.26991564
0.055146486 -0.019283876 0.27338997
0.056123883 -0.015809551 0.27338997
0.056555599 -0.015809551 0.27048805
0.057818204 -0.012335226 0.26296699
0.058367431 -0.008860901 0.26296699
0.057650775 -0.012335226 0.26644132
0.058184206 -0.008860901 0.26644132
0.058723867 -0.0053865761 0.26296699
0.058888912 -0.0019122511 0.26296699
0.058538288 -0.0053865761 0.26644132
0.058703482 -0.0019122511 0.26644132
0.057344407 -0.012335226 0.26991564
0.057853281 -0.008860901 0.26991564
0.056555599 -0.013808221 0.27338997
0.056827843 -0.012335226 0.27338997
0.057348907 -0.008860901 0.27338997
0.058202416 -0.0053865761 0.26991564
0.058369577 -0.0019122511 0.26991564
0.057697147 -0.0053865761 0.27338997
0.057881981 -0.0019122511 0.27338997
0.046132624 -0.028831065 0.28728727
0.049606949 -0.0295901 0.27686429
0.051529169 -0.026232526 0.27686429
0.053081274 -0.022878364 0.27686429
0.049606949 -0.02785933 0.28033862
0.050480664 -0.026232526 0.28033862
0.052195013 -0.022758201 0.28033862
0.053081274 -0.022758201 0.27707481
0.053129822 -0.022758201 0.27686429
0.053081274 -0.020496935 0.28033862
0.054422319 -0.019283876 0.27686429
0.055418551 -0.015809551 0.27686429
0.053496361 -0.019283876 0.28033862
0.05451858 -0.015809551 0.28033862
0.049285918 -0.026232526 0.28381294
0.049606949 -0.026232526 0.28293383
0.049606949 -0.025620669 0.28381294
0.050986052 -0.022758201 0.28381294
0.047777086 -0.026232526 0.28728727
0.049606949 -0.022798374 0.28728727
0.049625218 -0.022758201 0.28728727
0.052414924 -0.019283876 0.28381294
0.053081274 -0.019283876 0.28174353
0.053081274 -0.017157406 0.28381294
0.05107376 -0.019283876 0.28728727
0.052241802 -0.015809551 0.28728727
0.053081274 -0.015809551 0.28492787
0.053446829 -0.015809551 0.28381294
0.056142598 -0.012335226 0.27686429
0.056555599 -0.012335226 0.27487719
0.056555599 -0.0097175241 0.27686429
0.056667686 -0.008860901 0.27686429
0.055275619 -0.012335226 0.28033862
0.055821389 -0.008860901 0.28033862
0.056555599 -0.008860901 0.27736968
0.057023287 -0.0053865761 0.27686429
0.057220638 -0.0019122511 0.27686429
0.056183487 -0.0053865761 0.28033862
0.056555599 -0.0053865761 0.27889633
0.05637905 -0.0019122511 0.28033862
0.056555599 -0.0019122511 0.27967405
0.053035647 -0.012335226 0.28728727
0.053081274 -0.012335226 0.28716207
0.053081274 -0.012068138 0.28728727
0.054230183 -0.012335226 0.28381294
0.054773241 -0.008860901 0.28381294
0.053543359 -0.008860901 0.28728727
0.055135638 -0.0053865761 0.28381294
0.055334657 -0.0019122511 0.28381294
0.053890467 -0.0053865761 0.28728727
0.054077893 -0.0019122511 0.28728727
0.0079150647 -0.050679043 0.29076159
0.0097913295 -0.0505528 0.29076159
0.01138939 -0.0505528 0.29033604
0.0079150647 -0.0505528 0.29105166
0.014863715 -0.0505528 0.28875944
0.01138939 -0.050371841 0.29076159
0.0079150647 -0.048904613 0.29423591
0.01138939 -0.048557773 0.29423591
0.014863715 -0.049717218 0.29076159
0.01833804 -0.048644602 0.29076159
0.014863715 -0.047854289 0.29423591
0.017503604 -0.047078475 0.29423591
0.01833804 -0.047078475 0.29372925
0.01833804 -0.046787888 0.29423591
0.0079150647 -0.047078475 0.29712644
0.01138939 -0.047078475 0.29663262
0.0079150647 -0.046668857 0.29771024
0.01138939 -0.046328142 0.29771024
0.0079150647 -0.043803677 0.30118456
0.01046814 -0.04360415 0.30118456
0.01138939 -0.04360415 0.30104682
0.014863715 -0.047078475 0.29553664
0.014863715 -0.045583084 0.29771024
0.01833804 -0.044385731 0.29771024
0.014863715 -0.04360415 0.30021241
0.01833804 -0.04360415 0.29873931
0.021812364 -0.047209904 0.29076159
0.022101402 -0.047078475 0.29076159
0.025286689 -0.045395911 0.29076159
0.021812364 -0.047078475 0.29102841
0.021812364 -0.045242622 0.29423591
0.02481322 -0.04360415 0.29423591
0.025286689 -0.04360415 0.29379505
0.028096139 -0.04360415 0.29076159
0.028761014 -0.04360415 0.28990361
0.020214975 -0.04360415 0.29771024
0.021812364 -0.04360415 0.2966789
0.01138939 -0.04348217 0.30118456
0.014863715 -0.042750165 0.30118456
0.01833804 -0.041489765 0.30118456
0.025286689 -0.043326333 0.29423591
0.028761014 -0.043152049 0.29076159
0.032235324 -0.040563762 0.29076159
0.028761014 -0.040939301 0.29423591
0.029895797 -0.040129825 0.29423591
0.032235324 -0.040129825 0.29152626
0.032235324 -0.038337618 0.29423591
0.021812364 -0.042840049 0.29771024
0.025286689 -0.040733874 0.29771024
0.021173567 -0.040129825 0.30118456
0.021812364 -0.040129825 0.30083352
0.025286689 -0.040129825 0.29843435
0.021812364 -0.039789334 0.30118456
0.025286689 -0.037571475 0.30118456
0.026211247 -0.040129825 0.29771024
0.028761014 -0.040129825 0.29539958
0.028761014 -0.038308427 0.29771024
0.030938879 -0.036655501 0.29771024
0.032235324 -0.036655501 0.29647562
0.0266359 -0.036655501 0.30118456
0.028761014 -0.036655501 0.29958576
0.032235324 -0.035619691 0.29771024
0.028761014 -0.035075754 0.30118456
0.031126678 -0.033181176 0.30118456
0.032235324 -0.033181176 0.30028406
0.032235324 -0.032246396 0.30118456
0.0079150647 -0.04360415 0.30140838
0.0079150647 -0.040267542 0.30465889
0.0096651614 -0.040129825 0.30465889
0.01138939 -0.040129825 0.30446813
0.01138939 -0.039900869 0.30465889
0.0079150647 -0.040129825 0.30477458
0.0079150647 -0.036655501 0.3075811
0.01138939 -0.036655501 0.30724528
0.014863715 -0.040129825 0.30378997
0.01833804 -0.040129825 0.30256593
0.014863715 -0.039116666 0.30465889
0.01833804 -0.037770376 0.30465889
0.014863715 -0.036655501 0.30658695
0.01833804 -0.036655501 0.30552083
0.0079150647 -0.035922989 0.30813321
0.01138939 -0.035472825 0.30813321
0.014863715 -0.034550607 0.30813321
0.01833804 -0.03320694 0.30813321
0.0079150647 -0.033181176 0.31020364
0.01138939 -0.033181176 0.30975348
0.0079150647 -0.031282246 0.31160754
0.01138939 -0.030641437 0.31160754
0.0079150647 -0.029706851 0.31292358
0.01138939 -0.029706851 0.31236127
0.014863715 -0.033181176 0.30904877
0.01833804 -0.033181176 0.30815116
0.014716998 -0.029706851 0.31160754
0.014863715 -0.029706851 0.31157222
0.01833804 -0.029706851 0.31058192
0.020555407 -0.036655501 0.30465889
0.021812364 -0.036655501 0.30409086
0.025286689 -0.036655501 0.30206823
0.021812364 -0.03595221 0.30465889
0.025286689 -0.033682957 0.30465889
0.018397421 -0.033181176 0.30813321
0.021812364 -0.033181176 0.30681214
0.025286689 -0.033181176 0.30505076
0.021812364 -0.031377271 0.30813321
0.024376839 -0.029706851 0.30813321
0.025286689 -0.029706851 0.30769825
0.026013479 -0.033181176 0.30465889
0.028761014 -0.033181176 0.30292216
0.028761014 -0.031107232 0.30465889
0.030436888 -0.029706851 0.30465889
0.032235324 -0.029706851 0.30339837
0.028761014 -0.029706851 0.30570388
0.021812364 -0.029706851 0.30925548
0.032811642 -0.040129825 0.29076159
0.035709649 -0.037776977 0.29076159
0.037015736 -0.036655501 0.29076159
0.039183974 -0.036655501 0.28749949
0.0343014 -0.036655501 0.29423591
0.035709649 -0.036655501 0.2925109
0.039183974 -0.034634337 0.29076159
0.035709649 -0.035434857 0.29423591
0.038111359 -0.033181176 0.29423591
0.039183974 -0.033181176 0.29282394
0.039183974 -0.032099977 0.29423591
0.040596336 -0.033181176 0.29076159
0.042658299 -0.033181176 0.28735912
0.042658299 -0.030849501 0.29076159
0.043560624 -0.029706851 0.29076159
0.041307688 -0.029706851 0.29423591
0.042658299 -0.029706851 0.29223058
0.035016656 -0.033181176 0.29771024
0.035709649 -0.033181176 0.29699484
0.035709649 -0.032538623 0.29771024
0.038506448 -0.029706851 0.29771024
0.039183974 -0.029706851 0.29693809
0.034970403 -0.029706851 0.30118456
0.035709649 -0.029706851 0.30052486
0.0079150647 -0.027674764 0.31508186
0.01138939 -0.027022049 0.31508186
0.014863715 -0.029661253 0.31160754
0.01833804 -0.028270841 0.31160754
0.014026016 -0.026232526 0.31508186
0.025286689 -0.02905719 0.30813321
0.032235324 -0.028009072 0.30465889
0.028627068 -0.026232526 0.30813321
0.028761014 -0.026232526 0.30806136
0.032235324 -0.026232526 0.30582753
0.028761014 -0.02610752 0.30813321
0.031823739 -0.022758201 0.30813321
0.032235324 -0.022758201 0.30788678
0.032235324 -0.022245646 0.30813321
0.021812364 -0.026232526 0.31160042
0.025286689 -0.026232526 0.30989173
0.025806859 -0.022758201 0.31160754
0.028761014 -0.022758201 0.30993766
0.02875258 -0.019283876 0.31160754
0.028761014 -0.019283876 0.31160229
0.032235324 -0.019283876 0.3094196
0.028761014 -0.019271478 0.31160754
0.030834198 -0.015809551 0.31160754
0.032235324 -0.015809551 0.31072655
0.026396275 -0.015809551 0.31508186
0.028761014 -0.015809551 0.31306034
0.032235324 -0.012517542 0.31160754
0.028209299 -0.012335226 0.31508186
0.028761014 -0.012335226 0.31451499
0.032235324 -0.012335226 0.31165069
0.028761014 -0.010973319 0.31508186
0.029462174 -0.008860901 0.31508186
0.032235324 -0.008860901 0.31243733
0.030372113 -0.0053865761 0.31508186
0.032235324 -0.0053865761 0.31307915
0.030819729 -0.0019122511 0.31508186
0.032235324 -0.0019122511 0.31350306
0.046040565 -0.026232526 0.29076159
0.046132624 -0.026232526 0.29058561
0.046132624 -0.026080668 0.29076159
0.042658299 -0.028001428 0.29423591
0.043920457 -0.026232526 0.29423591
0.04610014 -0.022758201 0.29423591
0.046132624 -0.022758201 0.29418054
0.046132624 -0.022696361 0.29423591
0.039183974 -0.028944746 0.29771024
0.035709649 -0.028960049 0.30118456
0.038192481 -0.026232526 0.30118456
0.039183974 -0.026232526 0.3001973
0.039183974 -0.024997503 0.30118456
0.041379064 -0.026232526 0.29771024
0.042658299 -0.026232526 0.29605919
0.042658299 -0.02443333 0.29771024
0.043727785 -0.022758201 0.29771024
0.040774405 -0.022758201 0.30118456
0.042658299 -0.022758201 0.29909369
0.04562071 -0.019283876 0.29771024
0.046132624 -0.019283876 0.29694963
0.046132624 -0.018059582 0.29771024
0.042658299 -0.01954712 0.30118456
0.042784482 -0.019283876 0.30118456
0.044224262 -0.015809551 0.30118456
0.046132624 -0.015809551 0.29882604
0.048024744 -0.022758201 0.29076159
0.049606949 -0.022758201 0.28733197
0.049584061 -0.019283876 0.29076159
0.049606949 -0.019283876 0.29071027
0.049606949 -0.019222602 0.29076159
0.050746739 -0.015809551 0.29076159
0.047803938 -0.019283876 0.29423591
0.0490821 -0.015809551 0.29423591
0.049606949 -0.015809551 0.29319838
0.046901882 -0.015809551 0.29771024
0.045208365 -0.012335226 0.30118456
0.046132624 -0.012335226 0.30003032
0.045713663 -0.008860901 0.30118456
0.046132624 -0.008860901 0.30067292
0.045927107 -0.0053865761 0.30118456
0.046132624 -0.0053865761 0.30093864
0.04595235 -0.0019122511 0.30118456
0.046132624 -0.0019122511 0.30096561
0.051593184 -0.012335226 0.29076159
0.052137941 -0.008860901 0.29076159
0.053081274 -0.008860901 0.2885026
0.049606949 -0.013670787 0.29423591
0.04985866 -0.012335226 0.29423591
0.050351202 -0.008860901 0.29423591
0.052476197 -0.0053865761 0.29076159
0.053081274 -0.0053865761 0.28935525
0.052632689 -0.0019122511 0.29076159
0.053081274 -0.0019122511 0.28975451
0.050661266 -0.0053865761 0.29423591
0.050780624 -0.0019122511 0.29423591
0.047781199 -0.012335226 0.29771024
0.049606949 -0.012335226 0.29471359
0.048309177 -0.008860901 0.29771024
0.049606949 -0.008860901 0.2955977
0.04857564 -0.0053865761 0.29771024
0.049606949 -0.0053865761 0.2960954
0.048647523 -0.0019122511 0.29771024
0.049606949 -0.0019122511 0.29626358
0.033945501 -0.026232526 0.30465889
0.035709649 -0.026232526 0.30334753
0.035709649 -0.024258748 0.30465889
0.036902875 -0.022758201 0.30465889
0.039183974 -0.022758201 0.3027367
0.035709649 -0.022758201 0.30553538
0.039171249 -0.019283876 0.30465889
0.039183974 -0.019283876 0.30464834
0.039183974 -0.019259825 0.30465889
0.034409881 -0.019283876 0.30813321
0.035709649 -0.019283876 0.30729645
0.035709649 -0.016992852 0.30813321
0.036282539 -0.015809551 0.30813321
0.039183974 -0.015809551 0.30599612
0.042658299 -0.019283876 0.30131915
0.040816605 -0.015809551 0.30465889
0.042658299 -0.015809551 0.30288666
0.035709649 -0.015809551 0.30850878
0.037554085 -0.012335226 0.30813321
0.039183974 -0.012335226 0.30690974
0.038119733 -0.008860901 0.30813321
0.039183974 -0.008860901 0.30732402
0.041872174 -0.012335226 0.30465889
0.042658299 -0.012335226 0.30392081
0.042366773 -0.008860901 0.30465889
0.042658299 -0.008860901 0.30438846
0.038437903 -0.0053865761 0.30813321
0.039183974 -0.0053865761 0.30755934
0.038592905 -0.0019122511 0.30813321
0.039183974 -0.0019122511 0.3076686
0.042574942 -0.0053865761 0.30465889
0.042658299 -0.0053865761 0.30458033
0.04262656 -0.0019122511 0.30465889
0.042658299 -0.0019122511 0.30462921
0.032299131 -0.012335226 0.31160754
0.035709649 -0.012335226 0.30933034
0.033335805 -0.008860901 0.31160754
0.035709649 -0.008860901 0.30987602
0.033925384 -0.0053865761 0.31160754
0.035709649 -0.0053865761 0.31022105
0.034185082 -0.0019122511 0.31160754
0.035709649 -0.0019122511 0.31035778
0.0079150647 -0.026232526 0.31703234
0.01138939 -0.026232526 0.3160696
0.0079150647 -0.025354475 0.31855619
0.01138939 -0.024626583 0.31855619
0.0079150647 -0.024015799 0.32203051
0.01138939 -0.023320407 0.32203051
0.012885794 -0.022758201 0.32203051
0.0079150647 -0.023635522 0.32550484
0.01138939 -0.022883207 0.32550484
0.0079150647 -0.023909584 0.32897916
0.01138939 -0.023065254 0.32897916
0.011705056 -0.022758201 0.32550484
0.012075573 -0.022758201 0.32897916
0.014863715 -0.021085069 0.32550484
0.01730676 -0.019283876 0.32550484
0.01833804 -0.018428579 0.32550484
0.014863715 -0.021258906 0.32897916
0.01759544 -0.019283876 0.32897916
0.01833804 -0.018681288 0.32897916
0.021186903 -0.015809551 0.32550484
0.02147907 -0.015809551 0.32897916
0.025286689 -0.012980103 0.31855619
0.021812364 -0.015672013 0.32203051
0.024279162 -0.012335226 0.32203051
0.025286689 -0.012335226 0.31921026
0.025286689 -0.010452658 0.32203051
0.025624976 -0.012335226 0.31855619
0.027112111 -0.008860901 0.31855619
0.028761014 -0.008860901 0.31596401
0.02590327 -0.008860901 0.32203051
0.028082162 -0.0053865761 0.31855619
0.028761014 -0.0053865761 0.31737122
0.028473839 -0.0019122511 0.31855619
0.028761014 -0.0019122511 0.31803903
0.026755631 -0.0053865761 0.32203051
0.027059376 -0.0019122511 0.32203051
0.021812364 -0.015158325 0.32550484
0.023879141 -0.012335226 0.32550484
0.025286689 -0.0094937384 0.32550484
0.021812364 -0.015464738 0.32897916
0.023975313 -0.012335226 0.32897916
0.025286689 -0.0097119361 0.32897916
0.025563851 -0.008860901 0.32550484
0.025728002 -0.008860901 0.32897916
0.026572645 -0.0053865761 0.32550484
0.026880637 -0.0019122511 0.32550484
0.026943982 -0.0053865761 0.32897916
0.02731289 -0.0019122511 0.32897916
0.0079150647 -0.024156764 0.33245349
0.01138939 -0.02325283 0.33245349
0.0079150647 -0.023915425 0.33592781
0.01138939 -0.022964776 0.33592781
0.012328953 -0.022758201 0.33245349
0.011867687 -0.022758201 0.33592781
0.014863715 -0.021393389 0.33245349
0.017886892 -0.019283876 0.33245349
0.01833804 -0.018926382 0.33245349
0.014863715 -0.02136305 0.33592781
0.018018842 -0.019283876 0.33592781
0.01833804 -0.019029871 0.33592781
0.0079150647 -0.023914561 0.33940214
0.01138939 -0.022800043 0.33940214
0.0079150647 -0.023046851 0.34287646
0.00898619 -0.022758201 0.34287646
0.01138939 -0.022758201 0.3398931
0.011493325 -0.022758201 0.33940214
0.01138939 -0.021972194 0.34287646
0.014863715 -0.021204248 0.33940214
0.017653838 -0.019283876 0.33940214
0.01833804 -0.018752068 0.33940214
0.014863715 -0.020223767 0.34287646
0.016262859 -0.019283876 0.34287646
0.01833804 -0.017668515 0.34287646
0.021812364 -0.015873596 0.33245349
0.021812364 -0.015809551 0.33189577
0.021872088 -0.015809551 0.33245349
0.021812364 -0.015931189 0.33592781
0.021919668 -0.015809551 0.33592781
0.0214836 -0.015809551 0.33940214
0.021812364 -0.015809551 0.33719805
0.020254046 -0.015809551 0.34287646
0.024355128 -0.012335226 0.33245349
0.025286689 -0.010664761 0.33245349
0.024397701 -0.012335226 0.33592781
0.025286689 -0.010832295 0.33592781
0.026186943 -0.008860901 0.33245349
0.026210561 -0.008860901 0.33592781
0.02715148 -0.0053865761 0.33245349
0.027370483 -0.0019122511 0.33245349
0.026978418 -0.0053865761 0.33592781
0.027077839 -0.0019122511 0.33592781
0.021812364 -0.015435159 0.33940214
0.024194196 -0.012335226 0.33940214
0.025286689 -0.010347769 0.33940214
0.021812364 -0.013997689 0.34287646
0.023021817 -0.012335226 0.34287646
0.024745226 -0.008860901 0.34287646
0.025286689 -0.008860901 0.34150752
0.025881797 -0.008860901 0.33940214
0.025286689 -0.0067591816 0.34287646
0.026549533 -0.0053865761 0.33940214
0.026583776 -0.0019122511 0.33940214
0.025497928 -0.0053865761 0.34287646
0.025587067 -0.0019122511 0.34287646
0.0079150647 -0.022758201 0.3435201
0.0079150647 -0.020911619 0.34635079
0.01138939 -0.019692659 0.34635079
0.0079150647 -0.019283876 0.34795114
0.01138939 -0.019283876 0.34676158
0.0079150647 -0.016626492 0.34982511
0.010186955 -0.015809551 0.34982511
0.01138939 -0.015809551 0.34951809
0.012313083 -0.019283876 0.34635079
0.014863715 -0.019283876 0.3446635
0.014863715 -0.017920971 0.34635079
0.017604187 -0.015809551 0.34635079
0.01833804 -0.015809551 0.34566781
0.014863715 -0.015809551 0.34815806
0.0079150647 -0.015809551 0.35028556
0.01138939 -0.015262991 0.34982511
0.01833804 -0.015107259 0.34635079
0.014863715 -0.012781635 0.34982511
0.015304685 -0.012335226 0.34982511
0.01833804 -0.012335226 0.34825337
0.017819062 -0.008860901 0.34982511
0.01833804 -0.008860901 0.34956655
0.01833804 -0.0077386796 0.34982511
0.0079150647 -0.012335226 0.35197416
0.01138939 -0.012335226 0.35121733
0.0079150647 -0.008860901 0.3529585
0.01138939 -0.008860901 0.35233271
0.014863715 -0.012335226 0.35000449
0.014863715 -0.008860901 0.35114375
0.0079150647 -0.0063288659 0.35329944
0.0085387677 -0.0053865761 0.35329944
0.01138939 -0.0053865761 0.35281861
0.0087749809 -0.0019122511 0.35329944
0.01138939 -0.0019122511 0.35283858
0.0079150647 -0.0053865761 0.3533648
0.0079150647 -0.0019122511 0.35340983
0.014863715 -0.0053865761 0.35176271
0.01833804 -0.0053865761 0.35018608
0.014863715 -0.0019122511 0.35185117
0.01833804 -0.0019122511 0.35030618
0.020672008 -0.012335226 0.34635079
0.021812364 -0.012335226 0.34497756
0.021812364 -0.010350943 0.34635079
0.022476047 -0.008860901 0.34635079
0.021812364 -0.008860901 0.34702298
0.023488641 -0.0053865761 0.34635079
0.025286689 -0.0053865761 0.34340155
0.0235966 -0.0019122511 0.34635079
0.025286689 -0.0019122511 0.34363121
0.019044951 -0.0053865761 0.34982511
0.021812364 -0.0053865761 0.34800339
0.019257277 -0.0019122511 0.34982511
0.021812364 -0.0019122511 0.3481141
-0.04879351 0.0015620738 0.17958321
-0.048430145 0.0050363988 0.17958321
-0.048794895 0.0015620738 0.18305753
-0.048447907 0.0050363988 0.18305753
-0.047922358 0.0085107237 0.17958321
-0.047674134 0.0099469572 0.17958321
-0.047274336 0.011985049 0.17958321
-0.047964245 0.0085107237 0.18305753
-0.047674134 0.010240987 0.18305753
-0.047337174 0.011985049 0.18305753
-0.048785284 0.0015620738 0.18653186
-0.048453033 0.0050363988 0.18653186
-0.048805997 0.0015620738 0.19000618
-0.048492163 0.0050363988 0.19000618
-0.047993854 0.0085107237 0.18653186
-0.047674134 0.010493174 0.18653186
-0.04739058 0.011985049 0.18653186
-0.048046187 0.0085107237 0.19000618
-0.047674134 0.010849193 0.19000618
-0.04746452 0.011985049 0.19000618
-0.046411902 0.015459374 0.17958321
-0.045214981 0.018933699 0.17958321
-0.046495795 0.015459374 0.18305753
-0.045345962 0.018933699 0.18305753
-0.044199809 0.021354422 0.17958321
-0.044199809 0.021681041 0.18305753
-0.043709531 0.022408023 0.17958321
-0.041716456 0.025882334 0.17958321
-0.043861464 0.022408023 0.18305753
-0.041878581 0.025882334 0.18305753
-0.046573088 0.015459374 0.18653186
-0.045449227 0.018933699 0.18653186
-0.046674579 0.015459374 0.19000618
-0.045546249 0.018933699 0.19000618
-0.044199809 0.021908894 0.18653186
-0.044199809 0.022068709 0.19000618
-0.043965816 0.022408023 0.18653186
-0.041973636 0.025882334 0.18653186
-0.044036761 0.022408023 0.19000618
-0.04200612 0.025882334 0.19000618
-0.048864275 0.0015620738 0.19348051
-0.048560545 0.0050363988 0.19348051
-0.048930064 0.0015620738 0.19695483
-0.048646182 0.0050363988 0.19695483
-0.048124731 0.0085107237 0.19348051
-0.047674134 0.011319831 0.19348051
-0.047553286 0.011985049 0.19348051
-0.048227862 0.0085107237 0.19695483
-0.047674134 0.01181379 0.19695483
-0.047640666 0.011985049 0.19695483
-0.049023405 0.0015620738 0.20042916
-0.048769429 0.0050363988 0.20042916
-0.049169928 0.0015620738 0.20390347
-0.048927233 0.0050363988 0.20390347
-0.048355848 0.0085107237 0.20042916
-0.047739744 0.011985049 0.20042916
-0.047674134 0.011985049 0.19830164
-0.048501328 0.0085107237 0.20390347
-0.047867402 0.011985049 0.20390347
-0.046762899 0.015459374 0.19348051
-0.045614302 0.018933699 0.19348051
-0.046820611 0.015459374 0.19695483
-0.045648783 0.018933699 0.19695483
-0.044199809 0.022151411 0.19348051
-0.044199809 0.022139087 0.19695483
-0.044072405 0.022408023 0.19348051
-0.041991621 0.025882334 0.19348051
-0.044061989 0.022408023 0.19695483
-0.041921958 0.025882334 0.19695483
-0.047674134 0.012292907 0.20042916
-0.046892285 0.015459374 0.20042916
-0.045686483 0.018933699 0.20042916
-0.047674134 0.012850046 0.20390347
-0.046983451 0.015459374 0.20390347
-0.045710504 0.018933699 0.20390347
-0.044199809 0.022108153 0.20042916
-0.044199809 0.022097707 0.20390347
-0.044042319 0.022408023 0.20042916
-0.041870415 0.025882334 0.20042916
-0.044036344 0.022408023 0.20390347
-0.041854024 0.025882334 0.20390347
-0.040725484 0.027465671 0.17958321
-0.039379731 0.029356658 0.17958321
-0.03725116 0.031968921 0.17958321
-0.040725484 0.027695626 0.18305753
-0.039521381 0.029356658 0.18305753
-0.03725116 0.03207919 0.18305753
-0.040725484 0.027801573 0.18653186
-0.039581224 0.029356658 0.18653186
-0.03725116 0.03213343 0.18653186
-0.040725484 0.027810842 0.19000618
-0.039563283 0.029356658 0.19000618
-0.03725116 0.032105446 0.19000618
-0.036495462 0.032830983 0.17958321
-0.036579221 0.032830983 0.18305753
-0.033776835 0.035712451 0.17958321
-0.03318128 0.036305308 0.17958321
-0.03030251 0.039000988 0.17958321
-0.033776835 0.035745919 0.18305753
-0.03320311 0.036305308 0.18305753
-0.03030251 0.038990438 0.18305753
-0.02940011 0.039779633 0.17958321
-0.029381052 0.039779633 0.18305753
-0.036616296 0.032830983 0.18653186
-0.036595166 0.032830983 0.19000618
-0.033776835 0.035708547 0.18653186
-0.033151999 0.036305308 0.18653186
-0.03030251 0.038941771 0.18653186
-0.033776835 0.03566587 0.19000618
-0.033103243 0.036305308 0.19000618
-0.03030251 0.038899601 0.19000618
-0.02933526 0.039779633 0.18653186
-0.029292375 0.039779633 0.19000618
-0.026828185 0.041839421 0.17958321
-0.024842098 0.043253958 0.17958321
-0.02335386 0.044210076 0.17958321
-0.026828185 0.0418365 0.18305753
-0.024884656 0.043253958 0.18305753
-0.02335386 0.044266313 0.18305753
-0.026828185 0.041836381 0.18653186
-0.024940833 0.043253958 0.18653186
-0.02335386 0.044328332 0.18653186
-0.026828185 0.041837215 0.19000618
-0.024979144 0.043253958 0.19000618
-0.02335386 0.044365048 0.19000618
-0.040725484 0.0277614 0.19348051
-0.039511263 0.029356658 0.19348051
-0.03725116 0.032025039 0.19348051
-0.040725484 0.027646542 0.19695483
-0.03944248 0.029356658 0.19695483
-0.03725116 0.031977743 0.19695483
-0.040725484 0.027575672 0.20042916
-0.039404511 0.029356658 0.20042916
-0.03725116 0.031972736 0.20042916
-0.040725484 0.027551174 0.20390347
-0.039396793 0.029356658 0.20390347
-0.03725116 0.031997323 0.20390347
-0.036525443 0.032830983 0.19348051
-0.036482632 0.032830983 0.19695483
-0.033776835 0.035634547 0.19348051
-0.033080071 0.036305308 0.19348051
-0.03030251 0.038885623 0.19348051
-0.033776835 0.03561908 0.19695483
-0.033077627 0.036305308 0.19695483
-0.03030251 0.03891027 0.19695483
-0.029284298 0.039779633 0.19348051
-0.029331475 0.039779633 0.19695483
-0.036487788 0.032830983 0.20042916
-0.036521778 0.032830983 0.20390347
-0.033776835 0.03564623 0.20042916
-0.033116266 0.036305308 0.20042916
-0.03030251 0.038989782 0.20042916
-0.033776835 0.03572619 0.20390347
-0.033206105 0.036305308 0.20390347
-0.03030251 0.039107621 0.20390347
-0.029432535 0.039779633 0.20042916
-0.029564902 0.039779633 0.20390347
-0.026828185 0.04185304 0.19348051
-0.025023222 0.043253958 0.19348051
-0.02335386 0.044406205 0.19348051
-0.026828185 0.041913897 0.19695483
-0.025117651 0.043253958 0.19695483
-0.02335386 0.044498265 0.19695483
-0.026828185 0.042018712 0.20042916
-0.025251538 0.043253958 0.20042916
-0.02335386 0.044604361 0.20042916
-0.026828185 0.042140007 0.20390347
-0.025409296 0.043253958 0.20390347
-0.02335386 0.044721574 0.20390347
-0.019879535 0.046326697 0.17958321
-0.019079641 0.046728283 0.17958321
-0.019879535 0.046410233 0.18305753
-0.01925458 0.046728283 0.18305753
-0.01640521 0.04793793 0.17958321
-0.01640521 0.048037916 0.18305753
-0.012930885 0.049255639 0.17958321
-0.0095651299 0.050202608 0.17958321
-0.00945656 0.050202608 0.17848587
-0.00945656 0.050228685 0.17958321
-0.012930885 0.049347728 0.18305753
-0.0098759532 0.050202608 0.18305753
-0.00945656 0.050302476 0.18305753
-0.019879535 0.046486437 0.18653186
-0.019411564 0.046728283 0.18653186
-0.019879535 0.04654178 0.19000618
-0.019523114 0.046728283 0.19000618
-0.01640521 0.048128366 0.18653186
-0.01640521 0.048195451 0.19000618
-0.012930885 0.049424887 0.18653186
-0.010158002 0.050202608 0.18653186
-0.00945656 0.050372005 0.18653186
-0.012930885 0.049498051 0.19000618
-0.010465935 0.050202608 0.19000618
-0.00945656 0.05045253 0.19000618
-0.0059822351 0.050941646 0.17958321
-0.0025079101 0.0514189 0.17958321
-0.0059822351 0.051012874 0.18305753
-0.0025079101 0.051498085 0.18305753
0.00096641481 0.051668137 0.17958321
0.0044407398 0.051735729 0.17958321
0.00096641481 0.051750451 0.18305753
0.0044407398 0.051814198 0.18305753
-0.0059822351 0.05108887 0.18653186
-0.0025079101 0.051576167 0.18653186
-0.0059822351 0.05117175 0.19000618
-0.0025079101 0.051649094 0.19000618
0.00096641481 0.051820308 0.18653186
0.0044407398 0.051869392 0.18653186
0.00096641481 0.051882684 0.19000618
0.0044407398 0.051918507 0.19000618
-0.019879535 0.046598494 0.19348051
-0.019635543 0.046728283 0.19348051
-0.019879535 0.046690792 0.19695483
-0.019809887 0.046728283 0.19695483
-0.01640521 0.048278332 0.19348051
-0.01640521 0.048403859 0.19695483
-0.012930885 0.049593896 0.19348051
-0.010817364 0.050202608 0.19348051
-0.00945656 0.050540298 0.19348051
-0.012930885 0.049721569 0.19695483
-0.011254311 0.050202608 0.19695483
-0.00945656 0.050640047 0.19695483
-0.020008698 0.046728283 0.20042916
-0.019879535 0.046728283 0.19815506
-0.0202059 0.046728283 0.20390347
-0.019879535 0.046799779 0.20042916
-0.01640521 0.048542976 0.20042916
-0.019879535 0.046910465 0.20390347
-0.01640521 0.048667282 0.20390347
-0.012930885 0.049851865 0.20042916
-0.011714801 0.050202608 0.20042916
-0.00945656 0.050745785 0.20042916
-0.012930885 0.049959749 0.20390347
-0.012092739 0.050202608 0.20390347
-0.00945656 0.050847977 0.20390347
-0.0059822351 0.051248044 0.19348051
-0.0025079101 0.051714748 0.19348051
-0.0059822351 0.051327169 0.19695483
-0.0025079101 0.051782429 0.19695483
0.00096641481 0.051942915 0.19348051
0.0044407398 0.051969826 0.19348051
0.00096641481 0.052000523 0.19695483
0.0044407398 0.052019954 0.19695483
-0.0059822351 0.051398039 0.20042916
-0.0025079101 0.051830411 0.20042916
-0.0059822351 0.05147928 0.20390347
-0.0025079101 0.051881135 0.20390347
0.00096641481 0.052037925 0.20042916
0.0044407398 0.052055657 0.20042916
0.00096641481 0.052085817 0.20390347
0.0044407398 0.052106619 0.20390347
-0.049328744 0.0015620738 0.20737779
-0.049080372 0.0050363988 0.20737779
-0.049471363 0.0015620738 0.21085212
-0.049217179 0.0050363988 0.21085212
-0.048642308 0.0085107237 0.20737779
-0.047989428 0.011985049 0.20737779
-0.04876411 0.0085107237 0.21085212
-0.048086494 0.011985049 0.21085212
-0.049600065 0.0015620738 0.21432644
-0.04934454 0.0050363988 0.21432644
-0.049716249 0.0015620738 0.21780077
-0.049448282 0.0050363988 0.21780077
-0.048873216 0.0085107237 0.21432644
-0.048166767 0.011985049 0.21432644
-0.048959881 0.0085107237 0.21780077
-0.048237696 0.011985049 0.21780077
-0.047674134 0.013320073 0.20737779
-0.047071487 0.015459374 0.20737779
-0.045753449 0.018933699 0.20737779
-0.047674134 0.013653576 0.21085212
-0.047147676 0.015459374 0.21085212
-0.045825213 0.018933699 0.21085212
-0.044199809 0.022147492 0.20737779
-0.044199809 0.022281766 0.21085212
-0.044061974 0.022408023 0.20737779
-0.041872099 0.025882334 0.20737779
-0.044133082 0.022408023 0.21085212
-0.041969031 0.025882334 0.21085212
-0.047674134 0.013910457 0.21432644
-0.047213495 0.015459374 0.21432644
-0.045899838 0.018933699 0.21432644
-0.047674134 0.014144197 0.21780077
-0.047280267 0.015459374 0.21780077
-0.045987815 0.018933699 0.21780077
-0.044235125 0.022408023 0.21432644
-0.044199809 0.022408023 0.21325535
-0.044199809 0.022474974 0.21432644
-0.044355303 0.022408023 0.21780077
-0.044199809 0.022709936 0.21780077
-0.042131469 0.025882334 0.21432644
-0.042337105 0.025882334 0.21780077
-0.049818501 0.0015620738 0.22127509
-0.049533412 0.0050363988 0.22127509
-0.049920455 0.0015620738 0.22474942
-0.049618199 0.0050363988 0.22474942
-0.049032032 0.0085107237 0.22127509
-0.048300445 0.011985049 0.22127509
-0.049100637 0.0085107237 0.22474942
-0.048348963 0.011985049 0.22474942
-0.050009876 0.0015620738 0.22822374
-0.049686894 0.0050363988 0.22822374
-0.050065055 0.0015620738 0.23169807
-0.049711704 0.0050363988 0.23169807
-0.049148947 0.0085107237 0.22822374
-0.048377514 0.011985049 0.22822374
-0.049144283 0.0085107237 0.23169807
-0.048364088 0.011985049 0.23169807
-0.047674134 0.014355749 0.22127509
-0.047343597 0.015459374 0.22127509
-0.046072572 0.018933699 0.22127509
-0.047674134 0.014516234 0.22474942
-0.047395408 0.015459374 0.22474942
-0.046152338 0.018933699 0.22474942
-0.044462442 0.022408023 0.22127509
-0.044199809 0.022930771 0.22127509
-0.044560015 0.022408023 0.22474942
-0.044199809 0.023135036 0.22474942
-0.042517826 0.025882334 0.22127509
-0.042654812 0.025882334 0.22474942
-0.047674134 0.014595464 0.22822374
-0.047418132 0.015459374 0.22822374
-0.046193853 0.018933699 0.22822374
-0.047674134 0.014557317 0.23169807
-0.047407418 0.015459374 0.23169807
-0.046196863 0.018933699 0.23169807
-0.04463397 0.022408023 0.22822374
-0.044199809 0.023296505 0.22822374
-0.044671133 0.022408023 0.23169807
-0.044199809 0.023393258 0.23169807
-0.042767882 0.025882334 0.22822374
-0.042847261 0.025882334 0.23169807
-0.040725484 0.027582884 0.20737779
-0.039436415 0.029356658 0.20737779
-0.03725116 0.032081842 0.20737779
-0.040725484 0.027754754 0.21085212
-0.039574012 0.029356658 0.21085212
-0.03725116 0.032248765 0.21085212
-0.040725484 0.028021991 0.21432644
-0.039781272 0.029356658 0.21432644
-0.03725116 0.032502592 0.21432644
-0.040725484 0.028351992 0.21780077
-0.040021688 0.029356658 0.21780077
-0.03725116 0.032792836 0.21780077
-0.036606774 0.032830983 0.20737779
-0.036755905 0.032830983 0.21085212
-0.033776835 0.03585279 0.20737779
-0.033331931 0.036305308 0.20737779
-0.03030251 0.039233059 0.20737779
-0.033776835 0.036018461 0.21085212
-0.033493325 0.036305308 0.21085212
-0.03030251 0.039378196 0.21085212
-0.029702753 0.039779633 0.20737779
-0.029857799 0.039779633 0.21085212
-0.036972806 0.032830983 0.21432644
-0.03721872 0.032830983 0.21780077
-0.033776835 0.036238402 0.21432644
-0.033709884 0.036305308 0.21432644
-0.03030251 0.039549947 0.21432644
-0.033980459 0.036305308 0.21780077
-0.033776835 0.036305308 0.21524853
-0.033776835 0.036508769 0.21780077
-0.03030251 0.0397605 0.21780077
-0.030041799 0.039779633 0.21432644
-0.030280262 0.039779633 0.21780077
-0.026828185 0.042248517 0.20737779
-0.025553092 0.043253958 0.20737779
-0.02335386 0.044840753 0.20737779
-0.026828185 0.042363942 0.21085212
-0.025687456 0.043253958 0.21085212
-0.02335386 0.044918239 0.21085212
-0.026828185 0.04249844 0.21432644
-0.025844961 0.043253958 0.21432644
-0.02335386 0.044997573 0.21432644
-0.026828185 0.042659938 0.21780077
-0.026028723 0.043253958 0.21780077
-0.02335386 0.045087129 0.21780077
-0.040725484 0.028638214 0.22127509
-0.040225297 0.029356658 0.22127509
-0.037453353 0.032830983 0.22127509
-0.03725116 0.032830983 0.21827677
-0.040725484 0.028869987 0.22474942
-0.040393025 0.029356658 0.22474942
-0.037662804 0.032830983 0.22474942
-0.03725116 0.033071965 0.22127509
-0.03725116 0.033328563 0.22474942
-0.040725484 0.029068142 0.22822374
-0.040530607 0.029356658 0.22822374
-0.03781262 0.032830983 0.22822374
-0.040725484 0.029182792 0.23169807
-0.040607616 0.029356658 0.23169807
-0.037883431 0.032830983 0.23169807
-0.03725116 0.033503324 0.22822374
-0.03725116 0.033579618 0.23169807
-0.034268007 0.036305308 0.22127509
-0.033776835 0.036794782 0.22127509
-0.030538961 0.039779633 0.22127509
-0.03030251 0.039779633 0.21808636
-0.034501225 0.036305308 0.22474942
-0.033776835 0.037022054 0.22474942
-0.030761451 0.039779633 0.22474942
-0.034642816 0.036305308 0.22822374
-0.033776835 0.037155449 0.22822374
-0.030881956 0.039779633 0.22822374
-0.034690082 0.036305308 0.23169807
-0.033776835 0.037189811 0.23169807
-0.030890465 0.039779633 0.23169807
-0.03030251 0.039981484 0.22127509
-0.03030251 0.04016304 0.22474942
-0.026828185 0.042822778 0.22127509
-0.026225492 0.043253958 0.22127509
-0.02335386 0.045182317 0.22127509
-0.026828185 0.042945892 0.22474942
-0.026390299 0.043253958 0.22474942
-0.02335386 0.045287222 0.22474942
-0.03030251 0.040257573 0.22822374
-0.03030251 0.040262431 0.23169807
-0.026828185 0.043008745 0.22822374
-0.026477695 0.043253958 0.22822374
-0.02335386 0.045358151 0.22822374
-0.026828185 0.043010801 0.23169807
-0.026481926 0.043253958 0.23169807
-0.02335386 0.045392245 0.23169807
-0.020388991 0.046728283 0.20737779
-0.020477057 0.046728283 0.21085212
-0.019879535 0.047014266 0.20737779
-0.01640521 0.048777014 0.20737779
-0.019879535 0.047062427 0.21085212
-0.01640521 0.048832923 0.21085212
-0.012930885 0.050055921 0.20737779
-0.012433484 0.050202608 0.20737779
-0.00945656 0.050949275 0.20737779
-0.012930885 0.050118804 0.21085212
-0.012651116 0.050202608 0.21085212
-0.00945656 0.051029176 0.21085212
-0.020549193 0.046728283 0.21432644
-0.02063635 0.046728283 0.21780077
-0.019879535 0.047095627 0.21432644
-0.01640521 0.048846602 0.21432644
-0.019879535 0.047134101 0.21780077
-0.01640521 0.048854232 0.21780077
-0.012930885 0.050141931 0.21432644
-0.012732446 0.050202608 0.21432644
-0.00945656 0.051086873 0.21432644
-0.012930885 0.050156891 0.21780077
-0.012786359 0.050202608 0.21780077
-0.00945656 0.051141381 0.21780077
-0.0059822351 0.051576644 0.20737779
-0.0025079101 0.051968813 0.20737779
-0.0059822351 0.051663429 0.21085212
-0.0025079101 0.052085429 0.21085212
0.00096641481 0.05218181 0.20737779
0.0044407398 0.05220893 0.20737779
0.00096641481 0.052317679 0.21085212
0.0044407398 0.052344054 0.21085212
-0.0059822351 0.051750958 0.21432644
-0.0025079101 0.052203655 0.21432644
-0.0059822351 0.051853031 0.21780077
-0.0025079101 0.052317858 0.21780077
0.00096641481 0.052452326 0.21432644
0.0044407398 0.052487433 0.21432644
0.00096641481 0.052562565 0.21780077
0.0044407398 0.05260247 0.21780077
-0.02073276 0.046728283 0.22127509
-0.020889848 0.046728283 0.22474942
-0.019879535 0.04717654 0.22127509
-0.01640521 0.048872799 0.22127509
-0.019879535 0.047255427 0.22474942
-0.01640521 0.048931628 0.22474942
-0.012930885 0.050181001 0.22127509
-0.012864441 0.050202608 0.22127509
-0.00945656 0.051190495 0.22127509
-0.013003767 0.050202608 0.22474942
-0.012930885 0.050202608 0.22317109
-0.012930885 0.05022648 0.22474942
-0.00945656 0.051241219 0.22474942
-0.021027744 0.046728283 0.22822374
-0.02112405 0.046728283 0.23169807
-0.019879535 0.04732886 0.22822374
-0.01640521 0.049005538 0.22822374
-0.019879535 0.047387004 0.23169807
-0.01640521 0.049088597 0.23169807
-0.013205409 0.050202608 0.22822374
-0.012930885 0.050292104 0.22822374
-0.00945656 0.051303715 0.22822374
-0.013446689 0.050202608 0.23169807
-0.012930885 0.05036968 0.23169807
-0.00945656 0.051364154 0.23169807
-0.0059822351 0.051927775 0.22127509
-0.0025079101 0.0524095 0.22127509
-0.0059822351 0.051981628 0.22474942
-0.0025079101 0.052464217 0.22474942
0.00096641481 0.052654266 0.22127509
0.0044407398 0.052677482 0.22127509
0.00096641481 0.052706063 0.22474942
0.0044407398 0.052723527 0.22474942
-0.0059822351 0.052037299 0.22822374
-0.0025079101 0.052506745 0.22822374
-0.0059822351 0.052078217 0.23169807
-0.0025079101 0.052537471 0.23169807
0.00096641481 0.052730292 0.22822374
