# .PCD v0.7 - Point Cloud Data file format
VERSION 0.7
FIELDS x y z
SIZE 4 4 4
TYPE F F F
COUNT 1 1 1
WIDTH 1025
HEIGHT 1
VIEWPOINT 0 0 0 1 0 0 0
POINTS 1025
DATA ascii
0.013610724 0.059436891 0.8191002
0.016673852 0.059463494 0.81946683
0.013153885 0.061577559 0.81920022
0.015901489 0.061719902 0.81906688
0.022932999 0.053708985 0.8247335
0.026784977 0.053722009 0.82493347
0.0087415958 0.058406521 0.82300949
0.012896009 0.057110123 0.8222
0.017644648 0.056892622 0.82199985
0.022080891 0.057327155 0.82164437
0.027476823 0.057393078 0.82257491
0.033070348 0.057059623 0.82438004
0.03702037 0.05726862 0.82444453
0.0082896557 0.062688746 0.82177758
0.012490964 0.063759252 0.82079983
0.017901836 0.062826507 0.82072359
0.022076994 0.062665746 0.8214739
0.026909418 0.062477488 0.82347417
0.0087386612 0.067137972 0.82277137
0.012882887 0.067244925 0.82140714
0.017487647 0.067278147 0.82180721
0.021910084 0.066971876 0.82341909
0.025238289 0.065976985 0.8246668
0.0098549696 0.070556283 0.82440013
0.013225337 0.071104512 0.82364005
0.017233932 0.071164198 0.82433337
0.038517278 0.049366504 0.82910025
0.04237796 0.049360555 0.82900029
0.045470152 0.049360551 0.82900035
0.0093943616 0.053474102 0.82902223
0.01320646 0.052818578 0.82797146
0.017604433 0.052337196 0.82733339
0.02201795 0.051906701 0.82747632
0.027468512 0.05231642 0.8270067
0.032711677 0.05216179 0.82699335
0.037621439 0.052279849 0.82640725
0.042273171 0.052314863 0.82694793
0.046181422 0.052373782 0.82787776
0.0070623197 0.056974921 0.82760316
0.011421966 0.055363737 0.8265332
0.032172367 0.059865002 0.82500017
0.037567485 0.057386834 0.82521689
0.042270567 0.056925997 0.82688874
0.04605059 0.056715608 0.82830679
0.029359534 0.06397479 0.82522231
0.032988891 0.063024662 0.82617027
0.037830651 0.062825292 0.82759321
0.042140689 0.061232537 0.82866699
0.045495749 0.060189128 0.82946688
0.0067859665 0.067549221 0.82513332
0.022940539 0.069072954 0.82500017
0.027822416 0.067812972 0.82664227
0.0330594 0.067778543 0.82792592
0.037234012 0.067368902 0.82921141
0.0085965926 0.072808176 0.82674438
0.012554986 0.073294751 0.8250168
0.017941136 0.073297724 0.82505012
0.022205593 0.072251514 0.82624441
0.027443582 0.072254658 0.82788485
0.032334376 0.072505243 0.82915032
0.0088006277 0.076861657 0.82860011
0.012964605 0.076898567 0.82662213
0.017609669 0.076981738 0.82751125
0.022066027 0.076859504 0.82827514
0.026526172 0.075948156 0.82885021
0.030021273 0.075606674 0.8293336
0.0099107558 0.080209017 0.82906699
0.013224213 0.081311651 0.82907659
0.016869837 0.080985121 0.82911694
0.044157188 0.044971693 0.83339995
0.013867352 0.049691994 0.83456647
0.017746458 0.04965825 0.83399993
0.022760719 0.049179796 0.83248323
0.027026219 0.048785612 0.8323667
0.032460704 0.048787013 0.83239162
0.037890986 0.04774946 0.83231109
0.042472307 0.04715215 0.83085555
0.047203317 0.047232099 0.83230001
0.050378419 0.049626492 0.83346671
0.0076267906 0.052696586 0.8329888
0.012257896 0.051023431 0.83096659
0.048635226 0.052523568 0.83024436
0.051947091 0.052740853 0.83367401
0.0060606757 0.055685241 0.8313334
0.048311848 0.05761854 0.8313334
0.051604345 0.056281086 0.83443314
0.042470142 0.064149559 0.83079994
0.047424003 0.062170252 0.83274162
0.038863342 0.069058254 0.83097774
0.042723432 0.067860171 0.83270663
0.046553858 0.067546248 0.83456647
0.006060889 0.073450506 0.8311283
0.034718532 0.073413745 0.83069998
0.037716582 0.072626181 0.83273327
0.042670853 0.072549298 0.83472353
0.045799252 0.071463473 0.83499974
0.0068550492 0.078315586 0.83353341
0.023857385 0.078768007 0.83013344
0.02730692 0.078273982 0.83143997
0.032399144 0.077320382 0.83300745
0.036408957 0.076026008 0.83393341
0.009171851 0.082062662 0.83221668
0.013022467 0.083933316 0.83031106
0.018302787 0.08255887 0.83098662
0.022354225 0.082018718 0.8317703
0.026569685 0.081747502 0.83426648
0.013053621 0.086715087 0.8322953
0.017717285 0.086746559 0.83259261
0.02197331 0.086686924 0.83415228
0.013873263 0.09009181 0.83489978
0.018078458 0.090718158 0.83494645
0.020882672 0.090102598 0.83499974
0.047541805 0.043674968 0.83826661
0.0084640812 0.049951997 0.83893353
0.012021555 0.048538294 0.83763802
0.018215196 0.047925096 0.83761668
0.022193322 0.047370143 0.83745337
0.027199188 0.046137903 0.83770669
0.03214338 0.046237808 0.83763331
0.037373826 0.045618307 0.83816665
0.04193116 0.045084998 0.8355
0.049042687 0.045176744 0.83720005
0.052380934 0.04811272 0.83750844
0.057066731 0.048501179 0.83785188
0.0037640757 0.053765319 0.83756673
0.0058435653 0.051920265 0.83713341
0.057150811 0.053108878 0.83703327
0.003766062 0.056913204 0.83800876
0.052401464 0.058484476 0.83597314
0.057430781 0.057508837 0.83739877
0.052204061 0.062353358 0.83780003
0.056207485 0.060900241 0.83926678
0.04899323 0.066912413 0.83635551
0.051104154 0.066733524 0.83900017
0.03960485 0.074635468 0.83573318
0.042705745 0.074605703 0.83539987
0.047817722 0.073019147 0.83700007
0.050726976 0.071045443 0.83923346
0.034159951 0.079321511 0.83596647
0.038298629 0.078055628 0.83697498
0.042803962 0.077894129 0.83732587
0.047103178 0.07777103 0.83840007
0.028198101 0.083513975 0.83642215
0.03219502 0.082436301 0.83758003
0.036894836 0.082219422 0.8390891
0.04211013 0.081176467 0.83906686
0.010396799 0.087609321 0.83715004
0.024017366 0.087846875 0.83569992
0.027190031 0.087244019 0.83737034
0.030892009 0.086370088 0.83897799
0.035093289 0.085920334 0.83966672
0.012561828 0.092754573 0.8372727
0.017577564 0.093823321 0.83651417
0.022490533 0.09237881 0.83685178
0.026450336 0.09128245 0.83870012
0.0084623648 0.097529873 0.83876336
0.01236719 0.097485453 0.83837777
0.017655602 0.098129384 0.83888346
0.022553852 0.095761769 0.83922237
0.047124557 0.0393009 0.84479988
0.027385449 0.043945897 0.84346676
0.032072458 0.043899592 0.84257793
0.037754156 0.04361416 0.84313345
0.042931661 0.042539507 0.84326661
0.047593992 0.04235867 0.84313065
0.053133491 0.042942453 0.844311
0.055682927 0.042361051 0.84317631
0.0032681993 0.048165187 0.84408885
0.0071283798 0.047246944 0.84290832
0.012323651 0.046160441 0.84300941
0.017929137 0.04624467 0.84249985
0.022652114 0.045484915 0.8429113
0.027287157 0.045349423 0.84039992
0.033572555 0.045371 0.84079987
0.036717489 0.045381788 0.84099972
0.052456874 0.045428555 0.84186667
0.056320932 0.045379791 0.84096271
0.0018996733 0.052210968 0.84266597
0.0061292043 0.050053224 0.84063315
0.0029979525 0.057941228 0.841627
0.0037962412 0.064438969 0.844724
0.057338838 0.063045897 0.84110206
0.060244627 0.061026018 0.84100002
0.0037936585 0.067536227 0.84414941
0.0053575872 0.067404486 0.84251064
0.053347073 0.067601778 0.84105331
0.056898516 0.066323847 0.8437084
0.003795621 0.07071282 0.84458607
0.005359326 0.072129376 0.84278411
0.052717712 0.072049581 0.84184432
0.0037965516 0.075444549 0.84479332
0.049325831 0.079114556 0.84203339
0.051542293 0.076478444 0.84231997
0.038585998 0.083836056 0.84069318
0.043251842 0.08344581 0.84170473
0.047608398 0.082918294 0.84288335
0.0081116855 0.088226795 0.84304172
0.032522582 0.088109292 0.84067756
0.037767604 0.08788231 0.84213334
0.042956229 0.087753892 0.84415001
0.047125466 0.08723326 0.84481663
0.0081167417 0.092197984 0.84351671
0.010045436 0.092241287 0.84033322
0.027940687 0.092961311 0.84118652
0.032066293 0.092469767 0.84240752
0.036836289 0.09261208 0.84370387
0.040435612 0.092355162 0.84494996
0.0084775332 0.095360048 0.84026664
0.022916021 0.097949721 0.84102648
0.027354445 0.097175956 0.84245199
0.032102328 0.097279847 0.84335583
0.036876593 0.097426794 0.84462959
0.040043999 0.09589722 0.84499991
0.0085057244 0.10195226 0.84306097
0.012110402 0.1021705 0.84227717
0.018140104 0.10226233 0.84193325
0.022648279 0.10191124 0.84273356
0.027386988 0.1019991 0.84345943
0.031952169 0.10193956 0.84459162
0.035840567 0.10113417 0.84497768
0.013692011 0.10659087 0.84432375
0.017790923 0.10701831 0.84344691
0.02247248 0.10639639 0.84456176
0.026642431 0.10530347 0.84479988
0.014303721 0.11056796 0.84499997
0.017717538 0.11161155 0.84496659
0.021132769 0.11004401 0.84499991
0.052733321 0.034649193 0.84633332
0.042544127 0.039439689 0.84778345
0.047891907 0.037474804 0.84795654
0.0527182 0.037786074 0.84608495
0.055803359 0.039310195 0.84500003
0.003022799 0.044223748 0.8488003
0.0073699267 0.043790754 0.84806693
0.012507533 0.043385245 0.84785855
0.018046351 0.043555021 0.84809351
0.022791348 0.043395508 0.84806681
0.027921429 0.042198896 0.84778345
0.032276545 0.041811947 0.84794456
0.03666392 0.041608602 0.84701335
0.040918693 0.04096913 0.84680009
0.049546488 0.040920749 0.8458001
0.051630553 0.041429702 0.84548879
-0.00093505951 0.048198946 0.84930021
0.0016991515 0.046744604 0.84681129
0.0053789276 0.045644414 0.8458668
0.016406259 0.04560126 0.84506649
-0.0017236458 0.052018434 0.84718895
-0.0012483646 0.057064664 0.84717637
0.0012776705 0.05858181 0.84636515
0.0020272699 0.06284526 0.84707403
-0.00093433616 0.069473818 0.84864318
0.0014352432 0.067730255 0.84658998
0.057532091 0.068570212 0.84723347
-0.0014625485 0.071576409 0.84861565
0.002027184 0.072622031 0.84623283
0.054291598 0.073978625 0.84600002
0.056827884 0.072621435 0.84852242
0.054012567 0.077684835 0.84780014
0.049546484 0.084974594 0.84580004
0.051990483 0.081950352 0.84705561
0.0069509968 0.0880588 0.84519994
0.044778865 0.089623973 0.84513319
0.048627485 0.088799685 0.84626663
0.051947635 0.087244608 0.84820032
0.0069504865 0.094340794 0.84513789
0.043474257 0.093123078 0.84656668
0.048085451 0.093065903 0.84783721
0.05214769 0.091680549 0.84962517
0.0069603194 0.097622916 0.84633344
0.042541239 0.097770378 0.84761345
0.046575386 0.097422272 0.8491559
0.0069708042 0.10171182 0.84760845
0.03377486 0.10386301 0.84586662
0.037508424 0.10295992 0.84705567
0.041259211 0.10206803 0.848378
0.045026135 0.10118435 0.84980023
0.008527006 0.10692181 0.84517026
0.010734488 0.10724373 0.84522933
0.023514755 0.10855344 0.84563327
0.027733501 0.10762702 0.84717149
0.031956412 0.10631406 0.84784019
0.037091479 0.10589629 0.84955579
0.012093334 0.11202089 0.84656912
0.018533377 0.11335844 0.84626669
0.022771418 0.11191968 0.8472954
0.025997275 0.11141623 0.84946692
0.014495803 0.11642902 0.84856689
0.018249389 0.11698382 0.84830022
0.021232806 0.11609247 0.84900033
0.04753622 0.034889378 0.85220003
0.013394252 0.039728884 0.85400003
0.018178584 0.039741285 0.8542667
0.022973876 0.039769195 0.85486692
0.028532673 0.039739735 0.85423338
0.032828577 0.039097123 0.85408676
0.037216119 0.038861442 0.85242778
0.041984629 0.038070317 0.85243326
0.04519745 0.0365103 0.8530333
-0.0014707004 0.043944325 0.85360003
0.0020137068 0.042370375 0.85238564
0.0066864891 0.041838594 0.85169333
0.012554405 0.04117557 0.85106653
0.018115006 0.041582335 0.8513
0.022890806 0.041209433 0.85176659
0.026836684 0.041170731 0.85096657
-0.0021290858 0.047141127 0.85159993
-0.0041148989 0.053091824 0.85176921
-0.003053087 0.057015985 0.85117579
-0.0017338794 0.06261681 0.85200864
-0.0019991738 0.067393027 0.85229737
0.059380829 0.069674946 0.85109991
-0.0025236246 0.07281515 0.85079557
0.059549794 0.073050432 0.85352188
0.0026374955 0.077351317 0.85284591
0.005409664 0.07913699 0.85070002
0.056884825 0.077333413 0.85174656
0.0038396507 0.081863716 0.85438347
0.0054199793 0.082457751 0.85232228
0.054583956 0.082288437 0.8505556
0.056327265 0.08251857 0.85293323
0.0038418225 0.08588548 0.85486686
0.0054185661 0.085607514 0.85209996
0.054698046 0.087217152 0.85233331
0.05638963 0.087374844 0.85387784
0.054257769 0.092120834 0.85372239
0.048513975 0.098659687 0.85139513
0.052213751 0.096522003 0.85329342
0.0429589 0.10393059 0.85071105
0.046945576 0.10326241 0.85226244
0.050831296 0.10090572 0.85413349
0.032783445 0.10882645 0.85084152
0.037155841 0.10845589 0.85103875
0.041978035 0.10781715 0.85224068
0.046386957 0.10781336 0.85400963
0.010172153 0.11398251 0.85093361
0.024449417 0.11395576 0.85073322
0.028126201 0.11279839 0.85222852
0.03226338 0.11229505 0.85356677
0.037291937 0.11187203 0.85415345
0.041269422 0.11122259 0.85405004
0.0086191166 0.11761177 0.85430014
0.011779557 0.11736681 0.85251904
0.023328241 0.11740696 0.85116661
0.027197778 0.11703873 0.85398334
0.013916347 0.12200326 0.85351664
0.018118821 0.12197912 0.85149986
0.022925308 0.1221965 0.85301483
0.026136022 0.12074774 0.85400003
0.014989309 0.12632762 0.85413337
0.018372454 0.12690984 0.85404176
0.021998668 0.12680644 0.85414678
0.047084328 0.033147901 0.85843337
-0.0022268789 0.039295129 0.8584134
0.0022558761 0.039901525 0.85771114
0.0074478118 0.039467137 0.85696679
0.011847202 0.038286764 0.85730684
0.017758494 0.037477825 0.85706013
0.023027869 0.038067248 0.85686678
0.027606551 0.037828207 0.85726684
0.032240167 0.037098818 0.85748333
0.037443273 0.035908576 0.85763335
0.042221423 0.035890702 0.85721117
0.045382876 0.035066787 0.85653359
-0.0030783538 0.042550474 0.85748893
-0.0057514296 0.047947418 0.85893339
-0.0041419924 0.047860462 0.85737771
-0.0057569649 0.051192068 0.85976005
-0.0041351579 0.050965983 0.85596287
-0.00094133499 0.076356091 0.85500008
0.0022542337 0.078966543 0.85743332
0.059334502 0.078449845 0.85615027
0.061474476 0.076639302 0.85816836
0.0026561287 0.08346726 0.85863346
0.05815642 0.082857907 0.8564446
0.058231879 0.087752543 0.85755569
0.05488199 0.093873166 0.85520035
0.057422858 0.092519246 0.85740012
0.05455038 0.09757226 0.85625023
0.05752258 0.09747564 0.85890001
0.052659217 0.10216123 0.85609549
0.056382198 0.10191212 0.85859996
0.048538066 0.10906698 0.85583365
0.051857937 0.10694069 0.85792589
0.033381306 0.11466121 0.8560003
0.037390694 0.11431918 0.85641688
0.042436592 0.11365009 0.85694295
0.046831906 0.11306419 0.8574667
0.050852809 0.11079875 0.85897779
0.0086418176 0.11792272 0.8565501
0.010220766 0.11929867 0.85500014
0.028847637 0.11886423 0.85568923
0.03261672 0.11796489 0.85685945
0.037465706 0.11814031 0.85813326
0.041791212 0.11777083 0.85932225
0.047136109 0.11617958 0.85937786
0.0086450111 0.12354305 0.8568669
0.011293289 0.12285278 0.85575581
0.028018774 0.12293015 0.85675019
0.032472987 0.12261156 0.85910481
0.035940323 0.12158666 0.8599335
0.0086362679 0.12580749 0.85600019
0.011836428 0.12748832 0.85658538
0.01581447 0.1289469 0.85570025
0.024194192 0.12775828 0.85573363
0.02765022 0.12745616 0.85771668
0.031109661 0.12710638 0.85940003
0.0134779 0.13109294 0.8593334
0.017784266 0.13145782 0.85723823
0.022829246 0.13202664 0.85797155
0.027096931 0.13107261 0.85920006
0.010304444 0.028876647 0.86200005
0.034526873 0.028967105 0.86470014
0.036127001 0.028152701 0.86440021
0.043353081 0.028134719 0.8638376
0.04569903 0.028893396 0.86250001
-0.0025563461 0.033688411 0.86203331
0.0014659512 0.033755306 0.86374533
0.0087200087 0.03216923 0.86430019
0.01167585 0.032439142 0.86435658
0.018685933 0.033083607 0.86300677
0.022792704 0.033327859 0.86309171
0.028411547 0.033309221 0.86261666
0.033085383 0.032583989 0.86315244
0.037650652 0.032094941 0.86235934
0.042458802 0.03208337 0.86204451
0.046829205 0.031249125 0.86110419
-0.0061846264 0.036552649 0.86341667
-0.0027844657 0.036406018 0.86130208
0.0022678818 0.036900938 0.86219633
0.0068993159 0.036750633 0.86337936
0.011584065 0.035913829 0.8615734
0.016709628 0.035238732 0.86073345
0.023145877 0.035258751 0.86122227
0.027937824 0.0352269 0.86044461
0.032735288 0.035208706 0.86000019
-0.010623785 0.042621955 0.86435133
-0.0073817312 0.042507946 0.8620584
-0.010615014 0.047406979 0.86363769
-0.0081781792 0.048083555 0.8613655
-0.0070681488 0.052677959 0.86313468
0.063254818 0.078458495 0.86061543
0.00065819151 0.082542121 0.86146677
0.061742239 0.082583956 0.86189556
0.0011938713 0.086096615 0.86228895
0.061909515 0.08788345 0.86198676
0.065082669 0.085956693 0.86357141
0.0038846659 0.091667108 0.86440009
0.061823413 0.093125612 0.86301678
0.061345905 0.097685061 0.86277157
0.057972584 0.10366157 0.86162233
0.06015294 0.10185506 0.86216664
0.055989653 0.10717992 0.86242008
0.052428026 0.11258248 0.86203337
0.043160714 0.11919641 0.86000019
0.047576185 0.11800805 0.86008352
0.051315133 0.11710304 0.86225009
0.033537239 0.12479562 0.86000019
0.037755683 0.12342242 0.86018348
0.042638838 0.12219844 0.86101913
0.047261659 0.12183041 0.8616519
0.050587233 0.12210119 0.86356682
0.0086806603 0.12805468 0.86040014
0.029527472 0.12959486 0.86000019
0.03320295 0.12825952 0.86023825
0.037612829 0.12821846 0.86149633
0.042474423 0.12673877 0.86233336
0.047161464 0.12652889 0.86402863
0.012249739 0.13296553 0.86318672
0.017020961 0.13410965 0.86022681
0.023913775 0.13439418 0.86000019
0.028202424 0.13348685 0.86151427
0.032830011 0.1323732 0.86246115
0.037285469 0.13209009 0.86323345
0.041481055 0.13073193 0.86398906
0.013552658 0.13744643 0.86410022
0.017525325 0.13781874 0.86139995
0.023142498 0.13777512 0.86112607
0.027563261 0.13785362 0.86305249
0.031815767 0.1355655 0.8640669
0.017558916 0.14289963 0.86305553
0.023002267 0.1427547 0.86339176
0.027258918 0.14150538 0.8643502
0.018387334 0.14628668 0.86410016
0.020017412 0.14642212 0.86490023
0.0038905083 0.029000603 0.86570013
0.0055056852 0.029003952 0.8658002
0.023356119 0.029114122 0.86908883
0.028614655 0.028700907 0.86881661
0.032661438 0.028062869 0.86657351
0.038622677 0.028209003 0.86612511
0.041014683 0.028188094 0.8654834
0.0038947775 0.033062711 0.8666501
0.0071210242 0.032460131 0.86591625
0.012493961 0.031665627 0.86518151
0.016156944 0.031891633 0.86550492
0.023634676 0.031315915 0.86739349
0.02784504 0.031322096 0.86757344
0.032191437 0.030655164 0.86695015
-0.011962323 0.0381108 0.86780375
-0.0082209166 0.037866995 0.86591792
-0.015554936 0.042075455 0.86966664
-0.012552842 0.041975647 0.86758786
-0.017959956 0.046453863 0.86833334
-0.013088237 0.046805102 0.86737365
-0.011890231 0.051307458 0.86848485
-0.0082332296 0.054070786 0.8674286
-0.0063611022 0.057684284 0.86923409
-0.0066273725 0.063030593 0.86862504
0.0022816816 0.092490196 0.86835837
0.0038973987 0.096807651 0.86723346
0.0055134576 0.096784316 0.86702228
0.0039007151 0.10254016 0.86797118
0.0055157575 0.1024703 0.86738372
0.061510917 0.10313743 0.86619711
0.0039059808 0.10752957 0.86914301
0.0064884005 0.10783235 0.86767846
0.058062062 0.10806736 0.86696678
0.060591642 0.10663653 0.86845458
0.053932067 0.11433055 0.86555183
0.055656381 0.11213863 0.86726677
0.054015856 0.11773358 0.86689663
0.055807155 0.11891124 0.86961615
0.053253498 0.12267554 0.86762786
0.055827506 0.12138233 0.86993343
0.048318569 0.12891784 0.86620021
0.051475547 0.1272002 0.86766672
0.038624007 0.13374409 0.86615014
0.043255836 0.13284108 0.86726117
0.047439668 0.13230416 0.86859167
0.050909407 0.13096119 0.8690666
0.011984098 0.13713536 0.86721128
0.029716309 0.13847367 0.86550015
0.033541843 0.13764411 0.86702782
0.037899598 0.13727072 0.86806667
0.04280445 0.13742439 0.86904442
0.046046961 0.13581103 0.8690666
0.012787695 0.14193064 0.86695004
0.024868052 0.14488013 0.86530012
0.028787872 0.14253138 0.86668015
0.033065513 0.14221126 0.86865926
0.037414256 0.14178245 0.86933333
0.012404327 0.14580195 0.86839163
0.016515579 0.14781375 0.86740017
0.022848818 0.14776456 0.8673811
0.0281925 0.146993 0.86826676
0.032108396 0.14680654 0.86907995
0.017337423 0.15176657 0.86918098
0.022061193 0.15183094 0.86915332
0.026605275 0.15040684 0.86933327
0.018507205 0.1553297 0.86973339
0.020929838 0.15525231 0.86929989
0.023384148 0.027530488 0.8701334
0.026644379 0.027545253 0.87060016
-0.015574314 0.042127408 0.87075007
-0.013938338 0.040473215 0.87
-0.015562885 0.046952683 0.87011117
-0.015578785 0.051861335 0.87100005
-0.01287298 0.052408855 0.87111115
-0.011141496 0.056466486 0.87330484
-0.0079978323 0.05779523 0.8708989
-0.01073009 0.060100161 0.87299997
-0.0076924167 0.062989689 0.87126124
-0.0074626468 0.068119593 0.87170011
-0.0058478527 0.071495086 0.87333328
-0.0025928183 0.082946882 0.87418318
-0.00096162973 0.08937557 0.87343329
-0.00096117111 0.091769114 0.87301648
0.00066552626 0.093184516 0.87106681
0.0014783446 0.097339191 0.87199444
0.0018861059 0.10186536 0.87256485
0.0018871481 0.10758904 0.87289637
0.059138026 0.10855684 0.87090003
0.060869336 0.10874817 0.87243497
0.003513505 0.11157995 0.87235749
0.0061850818 0.11207423 0.87053585
0.057605747 0.11278055 0.87226254
0.06260857 0.11056906 0.87400007
0.0055476553 0.11523517 0.87240005
0.057204425 0.11685276 0.87236118
0.057360202 0.12257222 0.87265563
0.053855427 0.12839252 0.87083352
0.05683801 0.12749261 0.87298876
0.049379356 0.13444145 0.8706668
0.052696787 0.13299473 0.87179995
0.056088489 0.13170458 0.87399983
0.010418409 0.13781776 0.87153345
0.047972657 0.13792311 0.87091684
0.051783852 0.13770443 0.87286663
0.010415222 0.14263634 0.87126678
0.039110228 0.14367425 0.87100023
0.042895623 0.14257729 0.87089658
0.047847565 0.14281191 0.87232596
0.051225759 0.14234842 0.8744666
0.012049781 0.14845556 0.87212503
0.034356557 0.14779237 0.8706001
0.038058523 0.14757493 0.87170374
0.042788532 0.1475649 0.8728416
0.047554657 0.14681487 0.87442493
0.01303521 0.15261537 0.87271345
0.015285311 0.15312558 0.87100023
0.027792487 0.15263274 0.87096012
0.03321356 0.15258521 0.87253338
0.038174774 0.15127577 0.87435549
0.013688418 0.15749335 0.87275535
0.016721012 0.15751955 0.87177509
0.02202479 0.15770678 0.87137163
0.027312698 0.15740265 0.87306666
0.030031029 0.15946487 0.87466663
0.013721002 0.16112261 0.87483335
0.01779636 0.16109189 0.87466663
0.021460138 0.16144344 0.87436658
-0.014018442 0.053727172 0.87500006
-0.012405432 0.057069335 0.87633342
-0.01133369 0.062051762 0.87765002
-0.0091279978 0.061900865 0.87550002
-0.010785398 0.066123068 0.87750006
-0.0091488492 0.066939227 0.87750006
-0.0069571077 0.072828263 0.87633342
-0.0066992044 0.076791413 0.87815326
-0.0042412356 0.077586621 0.87792051
-0.005888029 0.080164909 0.87933326
-0.0042454847 0.08175198 0.87879997
-0.0026023588 0.088151611 0.87739992
-0.0017855047 0.093026578 0.87724984
-0.00096713461 0.097240388 0.87843329
0.0023083743 0.11352855 0.8780266
0.059548132 0.11338746 0.87693977
0.061917912 0.11304498 0.87807006
0.0034000531 0.11654833 0.8782118
0.0055898372 0.11938167 0.87903327
0.059470743 0.11731281 0.87580007
0.062076937 0.11760866 0.87800568
0.059429996 0.12211749 0.87520009
0.062073667 0.12250099 0.87795001
0.059531856 0.12722009 0.8767001
0.061764926 0.12720138 0.87939149
0.057915859 0.13215175 0.87696666
0.054621141 0.13699193 0.87661123
0.056390114 0.13649979 0.87870008
0.053028367 0.142315 0.87728006
0.048935004 0.14851284 0.87725008
0.052286029 0.14710106 0.87856662
0.012092191 0.15302078 0.87503338
0.037854999 0.1536627 0.87637514
0.043459672 0.15230107 0.87758106
0.048203662 0.15204875 0.87881851
0.051544044 0.15141676 0.8798998
0.011302815 0.15748261 0.87722772
0.032854322 0.15773261 0.87537146
0.03791542 0.15697418 0.87780017
0.042768471 0.15705632 0.8793999
0.046626251 0.15634476 0.87999976
0.0088679316 0.16024786 0.8789615
0.011899477 0.16265966 0.87811428
0.016781254 0.16351373 0.87642866
0.022244373 0.16401252 0.87636012
0.026854493 0.16324078 0.87746686
0.031791251 0.1625628 0.87821674
0.036526874 0.16166045 0.87885827
0.041702628 0.16043715 0.87999982
0.01181606 0.16610481 0.87880659
0.017063221 0.16759674 0.87891102
0.021976797 0.16756378 0.87873888
0.026590535 0.16755635 0.87955981
0.031437583 0.1657166 0.87978315
0.035137776 0.16534807 0.87999976
0.018725671 0.17025901 0.87999976
0.022007456 0.17123604 0.87997305
-0.012457337 0.062219027 0.88000005
-0.010828417 0.068845049 0.88100004
-0.0091957664 0.068923198 0.88200003
-0.011251942 0.072204575 0.88200003
-0.009174915 0.072040848 0.88000005
-0.010855048 0.077229597 0.88316673
-0.0091877738 0.077060662 0.88123339
-0.0072736549 0.082003795 0.88151425
-0.0064668134 0.086036563 0.88363338
-0.0042662029 0.087080859 0.88308889
-0.003717988 0.092009068 0.88312227
-0.0032821498 0.096711308 0.88404673
-0.0015220296 0.10074624 0.88290542
0.00067316054 0.11473995 0.88105893
-0.00097411033 0.116869 0.88476932
0.001222558 0.11770377 0.88279676
0.064679585 0.11869447 0.88000005
0.0039712 0.12000939 0.88365531
0.0064376816 0.12319879 0.88295013
0.06471727 0.12285904 0.88051248
0.066371031 0.12451813 0.88066673
0.0072755739 0.12672932 0.8846665
0.064171143 0.12832087 0.88202798
0.06645897 0.1271438 0.88183331
0.059841942 0.13361993 0.88126659
0.062121511 0.13189542 0.88252228
0.057848603 0.13827139 0.88218331
0.060088675 0.13663922 0.88490015
0.0089244805 0.14234719 0.88456661
0.054853097 0.14330354 0.88033307
0.057336427 0.14327119 0.88316
0.054390352 0.14762576 0.88170004
0.056298338 0.14836979 0.88368344
0.010521214 0.15391265 0.88013309
0.052932151 0.15309635 0.8825084
0.055125155 0.1514198 0.88470012
0.0089025488 0.15923201 0.88239276
0.044991869 0.15882424 0.88013309
0.048337169 0.15738992 0.88126659
0.051455673 0.15771019 0.88306117
0.038458046 0.16387233 0.88086659
0.041775625 0.16317602 0.88152772
0.046355806 0.16133115 0.88265002
0.012993094 0.16877854 0.88081652
0.028575098 0.1686348 0.88006645
0.032246672 0.16829357 0.88170671
0.036586907 0.16727957 0.8832801
0.041086249 0.16617483 0.88440019
0.013838112 0.17070405 0.88230002
0.016904749 0.17236724 0.88135827
0.022028126 0.17286159 0.88074988
0.026796268 0.17213306 0.8822583
0.031998813 0.17101793 0.88392234
0.017475214 0.17646459 0.88320005
0.021861074 0.17707723 0.88235837
0.026253641 0.17612535 0.88480014
-0.012528117 0.06915763 0.88500005
-0.013078296 0.072450168 0.88500005
-0.012544042 0.078310728 0.88612503
-0.011446562 0.081911765 0.88642865
-0.0092307674 0.084007971 0.88535708
-0.011739554 0.086714283 0.88777137
-0.0081428476 0.087978788 0.88664722
-0.0075950152 0.092412837 0.88698435
-0.0042764018 0.093872927 0.88520014
-0.0109206 0.096701562 0.88850009
-0.0073978836 0.097493298 0.8881731
-0.0042809104 0.098917015 0.88613325
-0.0065077716 0.10147505 0.8892889
-0.0030437608 0.10228459 0.88674676
-0.0009789163 0.1066952 0.88913447
-0.00097832794 0.11406907 0.88859999
-0.0018065546 0.11764203 0.88748622
-0.00097796414 0.12146318 0.88826978
0.0021258523 0.1224311 0.88779777
0.0026684818 0.12637341 0.88910657
0.0056429007 0.12711966 0.88737768
0.0064774244 0.13223749 0.88850832
0.063396566 0.13336223 0.88500017
0.065130375 0.13270929 0.88613331
0.0039970172 0.13898855 0.88939995
0.0064701536 0.13704559 0.88753337
0.062390268 0.13726933 0.88744748
0.066160537 0.13725273 0.8888666
0.0039976914 0.14149451 0.88955003
0.0064733415 0.14206034 0.88791102
0.05844935 0.14160417 0.88506681
0.061949417 0.1420567 0.88789618
0.065771952 0.14185542 0.88922179
0.0039984742 0.14565946 0.8897242
0.0070298105 0.14710477 0.88845712
0.05844935 0.14736663 0.88506687
0.061920226 0.14694449 0.88748765
0.008140184 0.15216121 0.88903493
0.057462055 0.1523283 0.88679433
0.06202893 0.15133764 0.88905102
0.053554788 0.15906219 0.88601649
0.056543846 0.15678504 0.888457
0.047255848 0.16410185 0.88564003
0.051927537 0.16243313 0.88642216
0.055964183 0.1610278 0.8892889
0.038089283 0.16903563 0.8850224
0.042230006 0.16862269 0.88614273
0.04699856 0.16749269 0.88702196
0.051815726 0.16665655 0.88805819
0.013907388 0.17403334 0.88671654
0.028735282 0.17451902 0.88500017
0.032085124 0.17395566 0.88632202
0.036855228 0.17301197 0.88676637
0.042108942 0.1727411 0.88855553
0.046683513 0.17074093 0.88890004
0.05128666 0.17047428 0.8896668
0.013929083 0.17678227 0.88809991
0.017203484 0.17914683 0.88617772
0.023783682 0.17945771 0.88500017
0.027353065 0.17848706 0.88601887
0.031908534 0.17804234 0.88717473
0.03735929 0.17727886 0.88821894
0.041588843 0.1764608 0.88925558
0.017781943 0.18245186 0.88755536
0.022152331 0.1829088 0.88576293
0.027145306 0.1831574 0.8869701
0.032408036 0.18233468 0.88870466
0.036823545 0.1809303 0.88900006
0.017721768 0.18772188 0.88849509
0.02218437 0.1881227 0.88704413
0.027186258 0.18756084 0.88828874
0.03107892 0.18579985 0.88908887
0.017677676 0.19147798 0.88921666
0.022230864 0.19265018 0.88889998
0.026789319 0.1905797 0.88888323
0.020589072 0.19528398 0.88960004
-0.010939036 0.099348634 0.89000005
-0.010951327 0.1011177 0.89100003
-0.0079710614 0.10324921 0.89222491
-0.0034710611 0.10436307 0.89040709
-0.0059890086 0.10732873 0.89441395
-0.0031241919 0.10822371 0.8929686
-0.001539379 0.11298845 0.89311117
-0.0059828889 0.11719073 0.89350009
-0.0038977517 0.11751132 0.89276516
-0.0026482071 0.12285207 0.8923651
-0.00098200468 0.12694305 0.89193982
0.0019284377 0.12908341 0.89240855
0.002554948 0.13315493 0.89327109
0.0056602112 0.13413073 0.89010012
0.0023449194 0.13758883 0.89258593
0.0027613286 0.1432015 0.89245856
0.0056620734 0.14908157 0.89039308
0.062181871 0.15419398 0.8912223
0.058842294 0.1583021 0.8910169
0.061275203 0.15741315 0.89255351
0.057778552 0.1631193 0.89167804
0.060696799 0.16296388 0.89385581
0.053811681 0.16893317 0.89026695
0.057051707 0.16743794 0.89222533
0.047534622 0.17335601 0.89086694
0.051949449 0.17301004 0.89250028
0.056570329 0.17140052 0.89450026
0.013986589 0.179171 0.89176667
0.043339934 0.17849815 0.89116693
0.047105167 0.17754245 0.89295453
0.051269334 0.1768855 0.8941893
0.015626933 0.18305118 0.89046681
0.037649259 0.18354927 0.89087516
0.041747998 0.18211706 0.89265031
0.013995269 0.1892415 0.89232004
0.015630152 0.18640204 0.89065021
0.032822475 0.18793951 0.89138907
0.037295431 0.1867553 0.89233357
0.040716972 0.18635507 0.8944003
0.013996007 0.19174269 0.89236718
0.016470239 0.19315147 0.89121306
0.027615834 0.19336814 0.89144689
0.031901911 0.1914092 0.89275026
0.018335426 0.19735803 0.89298689
0.022534825 0.1978465 0.89275444
0.026683653 0.1971736 0.89366025
-0.0086744186 0.10702848 0.89608157
-0.0066774026 0.11151534 0.89730406
-0.0036605105 0.11301629 0.89598072
-0.0071185119 0.11566453 0.89670557
-0.0059996289 0.1200192 0.89600003
-0.0043317988 0.12344444 0.89666671
-0.0026590852 0.12782449 0.89620167
-0.0023843392 0.13246131 0.89748448
0.00068411772 0.1315981 0.89539999
-0.0018253139 0.13689162 0.89734143
0.00068411225 0.13825952 0.89539295
-0.0018233615 0.14014696 0.89681256
0.00068419415 0.14160766 0.8955
0.063713081 0.15856318 0.89718908
0.062555343 0.16263014 0.89660013
0.059118517 0.16986936 0.89520007
0.062204123 0.16655162 0.89752519
0.05410381 0.17318051 0.8951
0.05798763 0.17314218 0.89705843
0.062269412 0.17091018 0.89848351
0.05377879 0.17722997 0.89663351
0.056790318 0.17707913 0.89797801
0.01324544 0.18208791 0.89797658
0.043277368 0.18410587 0.89559996
0.047716469 0.18217823 0.89606661
0.052586302 0.18202649 0.89766312
0.014095672 0.18642038 0.89872193
0.036574099 0.18982401 0.89506686
0.043016326 0.18723713 0.89596659
0.047543474 0.18695933 0.89729649
0.051608641 0.18680465 0.89816028
0.033267841 0.19334112 0.89593333
0.037721157 0.19234173 0.89681911
0.042554274 0.19210902 0.89795941
0.047596376 0.19134547 0.89830023
0.051014606 0.19076422 0.89950013
0.016560026 0.19836436 0.89604229
0.028242704 0.19825232 0.89553344
0.032492802 0.19703667 0.89757794
0.036440302 0.19615306 0.89863366
0.018249234 0.20273411 0.89693344
0.022413872 0.20257558 0.89623338
0.027459932 0.20196973 0.89724296
0.030866502 0.20069207 0.89900017
0.018557159 0.20611839 0.89835578
0.0224579 0.20631047 0.89797801
0.025810691 0.20550302 0.89810026
0.064517207 0.16252638 0.90064478
0.066795655 0.16296253 0.90305841
0.063686237 0.1684121 0.90076691
0.066454589 0.16904446 0.90415001
0.062906995 0.17360613 0.90163356
0.066376179 0.17220587 0.90308332
0.010784043 0.17957306 0.90211999
0.059488345 0.17763548 0.90080029
0.062403504 0.17740197 0.90245563
0.066422977 0.17652936 0.90371996
0.011207293 0.1834078 0.90241504
0.057690792 0.18274154 0.90222514
0.061378885 0.18160878 0.90389997
0.012463026 0.18707305 0.90186828
0.054054309 0.18819705 0.90122509
0.056305949 0.18744257 0.90364993
0.012501427 0.190173 0.90464711
0.047741186 0.19444168 0.90103358
0.052514516 0.1926779 0.90219355
0.038212042 0.19832011 0.90088362
0.042718496 0.19788168 0.90142983
0.04761152 0.19791834 0.90255427
0.052133415 0.19599806 0.90435004
0.01582114 0.20377366 0.90153348
0.029255876 0.20449822 0.90103364
0.032842405 0.20312725 0.90145439
0.037478026 0.20266537 0.90246665
0.042467635 0.20231239 0.9032467
0.047076952 0.20190126 0.90441668
0.018061122 0.20906866 0.90146685
0.022521883 0.20940767 0.90052247
0.027603185 0.20805065 0.90190017
0.032297127 0.20723571 0.90383333
0.03778886 0.20605278 0.90417504
0.041190427 0.20535316 0.90480006
0.019205879 0.21156205 0.90256667
0.022558561 0.21226889 0.90200013
0.02650547 0.21216106 0.90273333
0.020940861 0.21545164 0.90480006
0.066531755 0.1667154 0.90520012
0.0085957907 0.17849906 0.90803814
0.064865053 0.17687784 0.90550005
0.067209877 0.17768365 0.90674895
0.0083097341 0.18236125 0.90764922
0.063244089 0.1821252 0.90646684
0.066967994 0.18269478 0.90825027
0.0084802862 0.18710013 0.9076972
0.010827139 0.18787307 0.905725
0.059198093 0.18755682 0.90664017
0.062516637 0.18753737 0.90817809
0.066848941 0.18760033 0.90950841
0.07027889 0.18791278 0.90999991
0.0091740172 0.19115113 0.90929997
0.010847028 0.19074938 0.90738893
0.0547143 0.19365692 0.90520012
0.0577721 0.19227555 0.90776223
0.060654297 0.19296753 0.9098888
0.053690974 0.19795819 0.90690571
0.057240915 0.19684975 0.90957779
0.044589974 0.20378247 0.90530008
0.048683919 0.20294562 0.90607345
0.052635927 0.2021762 0.90816689
0.033632249 0.20893848 0.9057501
0.038274072 0.20850021 0.90567511
0.043162793 0.20759927 0.90633762
0.047637042 0.20757373 0.90820026
0.018153245 0.21350634 0.90606683
0.028978042 0.21266511 0.90547508
0.032804534 0.21241589 0.9062075
0.037921879 0.21268071 0.90733361
0.042697944 0.21185665 0.90814704
0.018903742 0.21755189 0.90830028
0.022865973 0.21760303 0.90587091
0.027733902 0.21746857 0.90618896
0.032873075 0.21792644 0.90809661
0.037662312 0.217186 0.90924013
0.0013781535 0.15320297 0.91298473
0.0020597694 0.15764523 0.91313088
0.0024025925 0.16114859 0.91421974
0.0041011544 0.17910635 0.91257215
0.0066510104 0.17814556 0.91200447
0.0041006929 0.18248197 0.91246939
0.0057890546 0.18206036 0.91036141
0.070974752 0.18321756 0.91021997
0.066899247 0.18964723 0.91019988
0.070302054 0.18797474 0.91029996
0.062712818 0.19320838 0.91102493
0.067069352 0.19267553 0.91251117
0.070469387 0.19181684 0.91246665
0.057591692 0.19905747 0.91064996
0.062011063 0.19735032 0.91320014
0.065454826 0.19548257 0.91373348
0.05332486 0.20490807 0.9102999
0.057239015 0.20249131 0.91314679
0.061245814 0.20074993 0.91450024
0.049916599 0.20824133 0.9100666
0.052608978 0.20797265 0.91260004
0.055226076 0.20566586 0.9136669
0.015984934 0.21350752 0.91086668
0.04483296 0.2133591 0.91023326
0.047994602 0.21247315 0.91224015
0.05185305 0.21232317 0.91427803
0.016854536 0.21716806 0.91201669
-0.0010106968 0.15285066 0.91799986
-0.0016953418 0.15670404 0.91756916
-0.0010107578 0.16139796 0.9180553
0.001268119 0.16231906 0.91522437
0.0032694298 0.16565752 0.9180001
0.0058463723 0.16761588 0.919375
0.0024138466 0.17844629 0.91790909
0.0066976445 0.17684889 0.91847831
0.0024075583 0.18228628 0.91575271
0.063857689 0.19921573 0.91526693
0.06652423 0.19697738 0.91673332
0.058764555 0.2044201 0.91570032
0.06229227 0.20307854 0.9173333
0.065827355 0.20001379 0.91893333
0.057142932 0.20785286 0.91706657
0.061532784 0.20681785 0.91878325
0.0028519961 0.16798647 0.92140549
0.0075747408 0.16963334 0.92104363
0.0027747999 0.17158575 0.92417365
0.0067322417 0.17263187 0.92333889
0.0024262003 0.17645101 0.92236108
0.0058668805 0.17592573 0.92260003
0.066128209 0.2035048 0.92313331
0.063921899 0.20804857 0.9223417
0.0024321086 0.17382048 0.92509085
0.00070684234 0.17555116 0.92514294
0.068043403 0.20322321 0.92576653
0.070101582 0.20418914 0.9301669
