# .PCD v0.7 - Point Cloud Data file format
VERSION 0.7
FIELDS x y z
SIZE 4 4 4
TYPE F F F
COUNT 1 1 1
WIDTH 1119
HEIGHT 1
VIEWPOINT 0 0 0 1 0 0 0
POINTS 1119
DATA ascii
0.034466382 0.053704653 0.8246668
0.037519868 0.05367282 0.8241778
0.04062501 0.053713329 0.82480013
0.022282235 0.057279468 0.8239395
0.027516102 0.057478514 0.82379586
0.033029243 0.057263836 0.82370299
0.037501704 0.057478383 0.82377225
0.041111242 0.056233853 0.82426673
0.027553089 0.061392229 0.82490015
0.034678135 0.049404215 0.82973343
0.037740737 0.049361873 0.82902259
0.042387381 0.049371134 0.82917815
0.0099103572 0.05321791 0.82903367
0.013185476 0.05259908 0.82840848
0.017612413 0.052360576 0.82768887
0.022226257 0.052318785 0.8270371
0.027423652 0.052477419 0.82733345
0.032517642 0.051992279 0.82728153
0.037594222 0.051474273 0.82581121
0.042438496 0.052087847 0.82640821
0.046208631 0.052403897 0.82836676
0.0099099586 0.057071071 0.82900029
0.012979274 0.056975696 0.82761478
0.01771017 0.057404939 0.82573336
0.020632589 0.059865002 0.82500017
0.03140305 0.059865002 0.82500017
0.042547856 0.058033638 0.82562226
0.046181485 0.056994017 0.82787782
0.0099107558 0.060160104 0.82906699
0.013188129 0.06147448 0.82858348
0.017464202 0.062855564 0.82798672
0.022212906 0.063055836 0.82657772
0.027569409 0.063272916 0.82540673
0.032976959 0.063002706 0.8258816
0.037623771 0.06304609 0.82645166
0.042290099 0.063109003 0.82728136
0.045981541 0.061949413 0.82892233
0.019188074 0.066328973 0.82906699
0.022466136 0.067657813 0.82880861
0.027637584 0.067739554 0.8274498
0.033042509 0.067745358 0.8275184
0.037703484 0.06780117 0.82820022
0.042071421 0.066944897 0.82905358
0.023060726 0.07097847 0.8293336
0.027223777 0.072332144 0.82893372
0.032075323 0.072502628 0.82911891
0.03699363 0.071001291 0.8296001
0.026921328 0.075588435 0.82913369
0.030023681 0.075612746 0.82940018
0.0092026424 0.04971581 0.83496642
0.013067652 0.049610615 0.83320016
0.017724261 0.049594741 0.83293349
0.022380956 0.048811372 0.83281106
0.027021466 0.048777342 0.83222222
0.032123286 0.048668839 0.83225715
0.037865795 0.047978688 0.83177775
0.042557854 0.047246009 0.83252215
0.047041096 0.048510451 0.83334285
-0.0013086374 0.053212646 0.83499974
0.0021913433 0.052757304 0.83394808
0.0071484344 0.052450038 0.83153993
0.011481853 0.051017284 0.83086658
0.048691198 0.052584108 0.83119994
0.050450947 0.052803159 0.83466655
-0.00091931585 0.055930853 0.83499974
0.0021935797 0.057457976 0.83461452
0.0068426817 0.057289526 0.83217043
0.048701614 0.0572352 0.8313778
0.050452288 0.057462987 0.83468884
0.0032334467 0.061108392 0.83499974
0.0074175689 0.062174514 0.83351511
0.013031098 0.06441211 0.83086663
0.048115801 0.062845424 0.83196008
0.0089384457 0.06625279 0.83457762
0.013068165 0.067696676 0.83322221
0.017504068 0.068284392 0.83174169
0.020775979 0.06955298 0.83073336
0.042867728 0.069189101 0.83099985
0.046832401 0.067799166 0.83358091
0.014653536 0.072240099 0.83499974
0.017753385 0.072960526 0.83434796
0.02212471 0.073158503 0.83156192
0.034724109 0.073425591 0.83083332
0.038125046 0.073250346 0.83259052
0.042421058 0.072704934 0.8336333
0.045799252 0.071463473 0.83499974
0.019325396 0.076123245 0.83499974
0.022715762 0.076628886 0.8337332
0.027039921 0.077666909 0.83279163
0.032409146 0.077346019 0.8332814
0.037986618 0.07606855 0.83439988
0.041127395 0.076123245 0.83499974
0.027111826 0.080783039 0.83499974
-0.010837552 0.049452845 0.83928722
-0.0017061316 0.049948029 0.83886683
0.0025944225 0.049528088 0.83836675
0.0068903929 0.048325974 0.83782864
0.012350005 0.047516517 0.83728325
0.017811246 0.047501352 0.83702213
0.022510575 0.046758905 0.8376444
0.027203625 0.045989413 0.83784443
0.032179832 0.046422403 0.83721334
0.038491905 0.046329729 0.83694983
0.042862032 0.045246303 0.838489
0.047824122 0.045827501 0.83773339
0.051130954 0.04933485 0.83728904
-0.010704699 0.05269511 0.83911616
-0.0071769664 0.053027194 0.83820748
-0.0034174409 0.052607436 0.83649319
0.052950125 0.052966464 0.83725554
0.055936258 0.054124992 0.83911133
-0.0069563338 0.057281386 0.83852392
-0.0026769431 0.057790294 0.83661658
0.052957907 0.057648402 0.83737785
0.056538384 0.057550222 0.83920014
-0.0056206351 0.060909919 0.83940011
-0.0022911767 0.062174641 0.83802509
0.0016789814 0.062776186 0.8365221
0.051973667 0.061896957 0.83766669
0.056209501 0.060902663 0.83930016
-0.0014450828 0.066058904 0.83868903
0.0022013083 0.067007072 0.8375333
0.0063558412 0.067410685 0.83609986
0.04897631 0.067667447 0.83606648
0.050655115 0.067048356 0.83804446
0.0029892831 0.070281386 0.83943343
0.0071179876 0.07130973 0.83840001
0.011698689 0.072820999 0.83719999
0.044249013 0.074581876 0.83513314
0.047806896 0.073002756 0.83681464
0.05071792 0.072593488 0.83908337
0.01315242 0.077236362 0.83864444
0.017626019 0.078105718 0.83750838
0.022078805 0.078945301 0.83609998
0.034145962 0.079289898 0.83563328
0.03808834 0.078607902 0.83664441
0.042968698 0.078034088 0.83674157
0.047335122 0.07776697 0.83805835
0.050749145 0.076542601 0.83960003
0.018248962 0.081581309 0.83921677
0.022515794 0.082618453 0.83785188
0.027162539 0.082686156 0.83656657
0.032626439 0.08249741 0.83662766
0.03814118 0.082612954 0.83780003
0.042370189 0.082216717 0.83905572
0.0460479 0.081221603 0.83953345
0.023070276 0.086899698 0.8390668
0.027187459 0.087239742 0.83733332
0.031884976 0.087273262 0.83765197
0.036621548 0.087000623 0.83878344
0.024135198 0.090620525 0.83979994
0.027243108 0.091319613 0.83904457
0.031549573 0.09093906 0.8391335
0.035101645 0.090627722 0.83986664
-0.0080106016 0.043967552 0.84388244
-0.002506224 0.044024043 0.84496653
0.0022196975 0.044001471 0.84453326
0.006545905 0.043574646 0.8438834
0.012458119 0.043997128 0.84445
0.016404964 0.044025782 0.84499991
0.027401136 0.043970212 0.84393334
0.032157008 0.044015363 0.84479994
0.037633479 0.043971084 0.84395015
0.043090224 0.043918114 0.8429336
0.04677242 0.043408055 0.84319997
-0.011135168 0.04700204 0.84200007
-0.0072159097 0.04705466 0.84296441
-0.0025011254 0.047052521 0.84293342
0.002017661 0.046812799 0.84214175
0.0065294239 0.045811567 0.84171665
0.01241639 0.045417767 0.84166652
0.017929109 0.04546693 0.84257787
0.022630798 0.04544295 0.84213334
0.032846078 0.045450136 0.84226674
0.036760431 0.045434549 0.84197778
0.052497741 0.047291026 0.84251112
0.05580334 0.048741352 0.84499991
-0.01506903 0.052515663 0.84250003
-0.012703571 0.05404212 0.84186637
-0.0071994192 0.05007109 0.84093308
-0.0040612635 0.05005521 0.84066653
0.054000661 0.050102845 0.84146661
0.05687191 0.0523353 0.84217328
0.060256984 0.054779541 0.84117252
-0.011734268 0.057820164 0.8427161
-0.0079821888 0.059445098 0.84076655
0.058697086 0.058699861 0.84130013
-0.011009069 0.062531643 0.84442651
-0.0074080322 0.062881149 0.84226668
-0.0040625515 0.064149775 0.84093308
0.053257704 0.064238779 0.84209991
0.057135317 0.06288331 0.84141666
0.060225543 0.061006658 0.84073317
-0.011432439 0.066531561 0.8446908
-0.0072213477 0.067475669 0.84338528
-0.0030192931 0.067829572 0.84130001
0.053292025 0.067416191 0.8426556
-0.015077974 0.070579998 0.84300005
-0.006288507 0.072004937 0.84499991
-0.0025026258 0.072182603 0.84339273
0.0019880736 0.072491713 0.84178096
0.0061292043 0.073509336 0.84063315
0.05292045 0.071756385 0.84300005
-0.0021907508 0.076065615 0.84470665
0.0024151641 0.076739565 0.84390008
0.0069267396 0.076795794 0.84236306
0.011636265 0.079121664 0.84211117
0.049253579 0.079780102 0.84079975
0.051941279 0.076761365 0.84200001
0.0037974806 0.080178641 0.84499991
0.007470449 0.081184365 0.84455556
0.012438814 0.08315783 0.84332234
0.017589079 0.083902761 0.84135979
0.044029053 0.083955713 0.84084433
0.047958545 0.083237313 0.84214175
0.051005039 0.0824233 0.84383345
0.013445176 0.087812483 0.84471655
0.017934565 0.087816514 0.84286684
0.021562109 0.088692389 0.84126657
0.039084546 0.088435225 0.84129989
0.04308594 0.087813452 0.84283721
0.047883879 0.087964818 0.84428883
0.018917207 0.092395976 0.84460002
0.022444664 0.092679389 0.84253347
0.027305113 0.09387394 0.84095526
0.032325275 0.093251877 0.84098655
0.037783656 0.092621207 0.84249109
0.042976554 0.092508256 0.84454995
0.047529697 0.091574632 0.84499991
0.023741454 0.096350521 0.84437776
0.027571086 0.097055092 0.84310013
0.032081921 0.097219214 0.84282988
0.036836669 0.09732119 0.8437112
0.040982608 0.096823707 0.84485322
0.032462396 0.10118921 0.84455985
0.036884233 0.1013763 0.84481096
0.040043999 0.10061287 0.84499991
0.00064892112 0.039511789 0.84933329
0.0054035168 0.0395304 0.84973341
0.046596408 0.039521102 0.84953368
-0.0060571814 0.042491212 0.84575641
-0.0025108226 0.042079538 0.84652489
0.0022255802 0.041750979 0.84670001
0.0072784848 0.041590933 0.84665334
0.012500446 0.041780688 0.84730834
0.018362194 0.043236926 0.8480401
0.022790501 0.043394346 0.84804457
0.027555108 0.042638127 0.84866709
0.032278154 0.042605747 0.84802246
0.0370318 0.041824643 0.84820014
0.042538147 0.041795421 0.84760851
0.048361864 0.042245854 0.84716016
0.052612875 0.043053973 0.84800023
0.056552704 0.043674167 0.84835583
0.053499285 0.045648016 0.84593332
0.056923099 0.046998035 0.84758681
0.058580533 0.052018303 0.84717792
-0.01512567 0.058219686 0.84566671
-0.013555611 0.059822969 0.84611124
0.060590614 0.058228381 0.84582978
-0.015170384 0.062335089 0.8481667
-0.013151655 0.063318245 0.84549636
-0.015165169 0.0686206 0.84787506
-0.012232247 0.068169512 0.84551388
0.056672648 0.067700543 0.84620553
-0.011793971 0.072301127 0.84707594
-0.0084231123 0.072771564 0.84568334
0.054355774 0.072490476 0.84700012
0.055966236 0.070953973 0.84746671
-0.010432371 0.075800404 0.84877801
-0.007262859 0.076542333 0.84824473
-0.0029095069 0.078443885 0.84748346
0.00064596691 0.078650184 0.84546661
0.053647224 0.077330343 0.84826672
-0.0022018757 0.081179999 0.84889352
0.0020302171 0.082213074 0.8477335
0.00655927 0.083376735 0.84554988
0.052848652 0.082845062 0.84816444
0.0038162065 0.086102858 0.84916699
0.0069736787 0.086774692 0.84800971
0.010514347 0.088592649 0.8465333
0.052376006 0.087840952 0.84688759
0.008566319 0.090041071 0.84906703
0.013127301 0.092759795 0.84824473
0.01683658 0.093357354 0.84690011
0.044800058 0.094384931 0.84553331
0.048315637 0.093846634 0.84634668
0.051888 0.092763104 0.84796017
0.014915607 0.096457094 0.84993339
0.018581806 0.097343661 0.84846687
0.022224911 0.098180763 0.8466112
0.025862629 0.099048801 0.84506661
0.043515384 0.098126896 0.84680015
0.047582313 0.097322069 0.84827811
0.023124229 0.10168596 0.8487069
0.027507739 0.10245507 0.84722227
0.03179986 0.10346173 0.84579998
0.036948461 0.10391212 0.84626669
0.042548284 0.10252011 0.84776688
0.046589095 0.10113671 0.84940022
0.027575269 0.10586307 0.84928918
0.032477047 0.10708722 0.8480252
0.037055705 0.10717751 0.84874189
0.040780604 0.10640388 0.84940022
0.048451133 0.034180678 0.85430014
0.052309629 0.034287047 0.85411912
0.057468574 0.034438748 0.85413337
-0.0025235626 0.039581567 0.85083336
0.0032970372 0.039073061 0.85127467
0.0078031225 0.039641269 0.8521167
0.012588618 0.039699808 0.85337508
0.018584073 0.039360821 0.85463357
0.022950577 0.039728884 0.85400003
0.027730221 0.039730951 0.85404444
0.032507703 0.039729919 0.85402226
0.037276205 0.039719582 0.8538
0.042390902 0.039266095 0.85259163
0.047205776 0.038519245 0.85238105
0.052540563 0.038114168 0.85343343
0.056802586 0.037747346 0.85410005
0.018124983 0.04120997 0.85177773
0.022870848 0.041173961 0.85103321
0.027631328 0.041172344 0.85099989
0.032388393 0.041166972 0.85088873
0.049808107 0.041136861 0.85026675
0.053811461 0.0411667 0.85088325
0.058190357 0.042500712 0.85224676
0.061704624 0.04343364 0.85396671
0.059364546 0.047496308 0.85086662
0.061784126 0.047332186 0.85360003
0.059464555 0.05074789 0.85229993
0.061138853 0.051610876 0.8534835
-0.015217485 0.064902447 0.85080004
-0.015221062 0.074415848 0.85100001
-0.013639278 0.074444994 0.85133338
-0.016071081 0.077061087 0.85400003
-0.012065751 0.077698328 0.85226673
-0.0072918381 0.07921762 0.85156661
0.054713018 0.078519613 0.85256672
-0.010897805 0.082246289 0.8542276
-0.0073075998 0.082574278 0.8535037
-0.0029206187 0.08349853 0.85079992
0.052983802 0.080684684 0.85033339
-0.010504751 0.085865393 0.85466677
-0.0069943308 0.086451322 0.85417336
-0.0023303758 0.087039381 0.852525
0.0017839009 0.087322235 0.8511523
0.0054086042 0.088614464 0.85053331
0.054706596 0.087230131 0.85246682
-0.0017376379 0.091399685 0.85438347
0.0024426871 0.091918632 0.85366255
0.0068057622 0.092110649 0.85176241
0.010701686 0.094465017 0.85097766
0.054817822 0.09217535 0.85420018
0.0072490419 0.096446209 0.85383338
0.012646085 0.098026462 0.85135543
0.017050495 0.099216558 0.85099989
0.049317684 0.099207453 0.85092211
0.052286364 0.096677534 0.85187507
0.012939734 0.10168903 0.85403818
0.018140724 0.10310102 0.8525629
0.022466464 0.10406891 0.85076666
0.047620211 0.1032125 0.85162848
0.050984509 0.10264184 0.85403347
0.019234231 0.10697982 0.85400003
0.022877891 0.1077018 0.85132957
0.027619595 0.10840589 0.85064441
0.030791106 0.10919104 0.8506
0.03714826 0.10922527 0.85086656
0.042438928 0.10817216 0.85088325
0.046793684 0.10792525 0.85309631
0.023458302 0.11216845 0.85318333
0.027688794 0.11264356 0.85276669
0.03245838 0.11263748 0.85271853
0.037009768 0.11220904 0.85290951
0.042021859 0.11189842 0.85313892
0.046045028 0.11121608 0.85400003
0.028550554 0.11608603 0.85476691
0.030947976 0.11610867 0.85493356
0.043928597 0.033582877 0.85933346
0.045901921 0.032933015 0.85628581
0.053328563 0.033447418 0.85586703
0.058127604 0.033452626 0.85600007
0.0070557171 0.038309243 0.85778332
0.012174185 0.037672468 0.85784006
0.017099096 0.037372977 0.85723811
0.023020767 0.037458807 0.85660011
0.02783001 0.03748095 0.85711122
0.032624308 0.037480023 0.85708904
0.037412114 0.037472308 0.85691118
0.042234711 0.03669858 0.85747623
0.0465312 0.035825599 0.85563356
0.053311951 0.036620144 0.85560024
0.059180882 0.037957739 0.85585576
0.062792756 0.037663903 0.85629827
0.066314436 0.039945979 0.85866672
0.059713367 0.041407805 0.85586703
0.063513972 0.042785391 0.85687786
0.066361904 0.043172002 0.85928124
0.064195156 0.047944169 0.8588779
0.067339294 0.047658477 0.85948527
0.062979273 0.053411111 0.85686684
-0.015322416 0.078896523 0.85666668
-0.013710037 0.079606794 0.85575002
0.056997616 0.077731088 0.85701686
-0.012932341 0.082913823 0.85702604
0.054930165 0.082809523 0.85595083
0.056621727 0.08294978 0.85739249
-0.0118595 0.087648518 0.85654926
-0.0077300211 0.088812195 0.85625017
-0.0041334061 0.089142345 0.85560024
0.054876048 0.08590965 0.85510731
0.056705356 0.08786229 0.85865879
-0.011362491 0.09192276 0.85927159
-0.0071445648 0.092368126 0.85783339
-0.0031808435 0.093099199 0.85685349
0.00065401493 0.093960993 0.8560003
0.054980401 0.092447765 0.85673344
0.056765318 0.09115456 0.85956675
-0.0014794363 0.096388482 0.85871118
0.0022525447 0.097295508 0.85731119
0.0062382394 0.098691806 0.8556003
0.053328563 0.09872257 0.85586703
0.055073109 0.097392976 0.85817772
0.0030592545 0.10070144 0.85916674
0.0072533712 0.10193183 0.85774171
0.010769916 0.1030352 0.85642242
0.053379815 0.10200509 0.85668892
0.055142984 0.10231243 0.8592667
0.012502129 0.10636405 0.85842669
0.016821811 0.10792699 0.85626686
0.051796641 0.1068122 0.85690492
0.017617637 0.11222716 0.85808671
0.021929406 0.11407716 0.85560018
0.038152575 0.11460762 0.85560024
0.042145472 0.11461655 0.85566694
0.047176085 0.1135155 0.85593361
0.050912548 0.11144271 0.8581866
0.018820988 0.11617962 0.85937786
0.023045164 0.11806336 0.85757041
0.027577415 0.11835282 0.8563717
0.032803223 0.11811814 0.85652518
0.037412092 0.11797141 0.85690379
0.042274456 0.11816113 0.85828137
0.046627019 0.11795332 0.85842854
0.050339259 0.11510767 0.8593334
0.023896595 0.12151125 0.85940009
0.027876779 0.12219409 0.85857779
0.032697883 0.12225416 0.85899997
0.037531558 0.1223455 0.85964447
0.040748522 0.12157723 0.8598668
0.032514814 0.028257776 0.86268651
0.036026694 0.028876647 0.86200011
0.0071087866 0.032174241 0.86443967
0.011540437 0.033372723 0.86424178
0.01756062 0.033731069 0.86312509
0.023180323 0.03370795 0.86253333
0.028559983 0.032656591 0.86305565
0.032832585 0.032103922 0.86256671
0.037629768 0.032079574 0.86189628
0.04221363 0.03185147 0.86115003
0.0074139 0.036270469 0.86243439
0.011501012 0.035662714 0.86131668
0.017507268 0.035228498 0.86048359
0.023124615 0.035227809 0.86046678
0.027930385 0.035216894 0.86020017
0.032755133 0.035230543 0.86053348
0.037547018 0.035208706 0.86000019
0.04075484 0.035208706 0.86000019
0.06802132 0.044807304 0.86000001
0.064883836 0.049660426 0.86093354
0.066422574 0.04961044 0.86006677
0.064494126 0.052472584 0.86108339
0.067102805 0.05252067 0.86056006
0.060191307 0.073032759 0.86271679
0.058420502 0.078432769 0.8603335
0.060250599 0.077121578 0.86356688
-0.015382037 0.082401797 0.86000001
-0.013794148 0.084900051 0.86100006
0.058426529 0.081642121 0.86042231
0.061147656 0.082063556 0.86486346
0.058640741 0.085958466 0.86357701
-0.012846023 0.093334004 0.86199266
-0.0089754295 0.094495162 0.86086679
0.056917213 0.093803495 0.86186683
-0.011883178 0.097208478 0.86220443
-0.0071805124 0.097643808 0.86214584
-0.0030871499 0.098176382 0.86037797
0.057002332 0.097958349 0.86315566
-0.0057900446 0.10135002 0.86470014
-0.0023589539 0.10254228 0.86288339
0.0020329622 0.10294427 0.86073345
0.0054688021 0.10399865 0.86000019
0.057277206 0.1025162 0.86323351
0.06023898 0.10200073 0.86340004
0.0027281253 0.10734513 0.86301428
0.0070848498 0.10738918 0.86152595
0.011084286 0.10801705 0.86015022
0.053644277 0.10891604 0.86093336
0.055798326 0.1071962 0.86320007
0.0033479447 0.11152447 0.86460018
0.0072961249 0.11215998 0.86278337
0.011895571 0.11211365 0.86088902
0.015092262 0.11359721 0.86000019
0.053342696 0.11272827 0.86253047
0.0087169819 0.11573284 0.8640002
0.011920628 0.11716121 0.86267781
0.016704686 0.11726182 0.86047512
0.048774395 0.11839653 0.86000019
0.05142777 0.11731498 0.86145335
0.013551089 0.12055444 0.8640002
0.017764084 0.12178603 0.86236978
0.023127699 0.12328211 0.86060011
0.027924238 0.12479884 0.86002237
0.032735288 0.12479562 0.86000019
0.037547018 0.12479562 0.86000019
0.042366367 0.1232178 0.8601526
0.047435846 0.12214544 0.86064768
0.051365864 0.12203564 0.8631056
0.019182406 0.12532279 0.86363351
0.022594117 0.12735634 0.86256671
0.027948389 0.12811087 0.86077046
0.032760099 0.12809332 0.86065197
0.037594739 0.12815833 0.86108893
0.042447954 0.1274631 0.8618083
0.047311254 0.12677275 0.86256301
0.050625309 0.1262117 0.86421686
0.023225142 0.13103671 0.86423361
0.028337797 0.13226983 0.86283338
0.032853346 0.13247137 0.86310011
0.037386559 0.13240361 0.86370689
0.04286797 0.13113102 0.86379355
0.046597742 0.13023528 0.86425018
0.028880596 0.13512087 0.86465019
0.024976306 0.029113378 0.8690666
0.027866429 0.028439622 0.86826003
0.007120369 0.032234099 0.86599851
0.012304771 0.03129961 0.86693347
0.016848398 0.031491961 0.86781675
0.02251816 0.031500202 0.86804593
0.027065495 0.031186275 0.8667779
0.0055052624 0.035443433 0.86573339
0.063937254 0.059886757 0.86990005
0.063650593 0.061229173 0.86600006
0.062689364 0.067943886 0.86946678
0.063048929 0.074359089 0.8688333
0.065526955 0.074413292 0.86946672
0.062959425 0.077480674 0.86760002
0.065536439 0.076850407 0.86959267
0.062034287 0.081364036 0.86598349
0.058774341 0.091787666 0.8655445
0.06062039 0.093757056 0.86886662
-0.011443654 0.099824145 0.86541665
-0.0090331184 0.099937581 0.86640012
0.058786593 0.09744364 0.86572516
0.06053026 0.097650081 0.86757505
-0.012285202 0.10252222 0.86780757
-0.0074246414 0.10325497 0.86718577
-0.0041846135 0.1047484 0.86620015
0.058789428 0.10469601 0.86576676
0.061250515 0.10315204 0.86632228
-0.011498426 0.10595842 0.86951679
-0.0074395188 0.10777487 0.86894816
-0.002572573 0.10805873 0.86689639
0.00066187163 0.10878775 0.86628342
0.057765633 0.10800972 0.86653072
-0.0063609555 0.11212343 0.8692444
-0.002576771 0.11310863 0.86852592
0.0017405944 0.11349902 0.86739451
0.005507593 0.11440296 0.86610007
0.056198429 0.11187475 0.86731118
0.0029328479 0.11738185 0.86906672
0.0069288686 0.11798194 0.8672334
0.054011166 0.11772352 0.86682153
0.055804975 0.1189069 0.869582
0.0074713044 0.12190989 0.86907995
0.011782596 0.12283769 0.86734587
0.015215107 0.12419861 0.86700016
0.054049283 0.12264708 0.86743301
0.013229611 0.1273655 0.86935008
0.016642099 0.12773147 0.86771661
0.052895956 0.12772022 0.86744297
0.017947977 0.13146652 0.86884433
0.021971509 0.13291802 0.86776662
0.026521619 0.13381359 0.86660016
0.039460495 0.13384447 0.86680013
0.042702574 0.13387191 0.86697793
0.047777843 0.13270482 0.86686677
0.051532637 0.1321903 0.86863995
0.023814026 0.13717449 0.86892378
0.027922327 0.13758053 0.86711437
0.032997098 0.137082 0.86687046
0.037897404 0.13726246 0.86801481
0.042786896 0.13736838 0.86868882
0.047125746 0.13688351 0.86903328
0.024993546 0.14075807 0.86966676
0.028749591 0.14169814 0.86881667
0.033079017 0.1422717 0.86902952
0.037748046 0.1421044 0.8692416
0.042488463 0.14133158 0.86921328
0.017717291 0.029170327 0.87076682
0.022195939 0.028783103 0.87130016
0.025029948 0.027555801 0.87093359
0.063964196 0.064768575 0.8702668
0.067207493 0.062973805 0.87232
0.063993603 0.068037197 0.87066686
0.067280792 0.068076454 0.87117052
0.070677713 0.0682199 0.87300003
0.063190237 0.072096199 0.87078345
0.067447096 0.072696798 0.87069929
0.070596755 0.072197907 0.87200004
0.066503629 0.077839479 0.87162971
0.064018101 0.081025437 0.87100011
-0.012323786 0.10688677 0.87050009
-0.010702774 0.11178186 0.87077779
-0.008669694 0.11214663 0.87046683
0.056666069 0.11415583 0.87035608
-0.010722625 0.11523423 0.87239283
-0.0072688721 0.11670738 0.87277913
-0.0025850208 0.11751995 0.87128901
0.0014772203 0.11908974 0.87091684
0.057202067 0.1168481 0.87232584
-0.0017765468 0.12105855 0.87343323
0.0022914046 0.1224962 0.87210006
0.006758132 0.12439039 0.87116688
0.056771502 0.12247455 0.87195563
0.0033844879 0.12576266 0.87413329
0.0077167824 0.12769167 0.87249994
0.011063026 0.128352 0.8711068
0.056693733 0.12736973 0.87326652
0.0080036307 0.13089712 0.87403333
0.012292215 0.13267995 0.87277138
0.016373741 0.13346128 0.87131119
0.02013853 0.13435909 0.87013352
0.053892456 0.1333452 0.87143338
0.0560917 0.13252553 0.8740499
0.017425468 0.13792041 0.87364757
0.020816404 0.13811292 0.87134677
0.048838004 0.13876075 0.8706668
0.052233677 0.13763301 0.87182862
0.018605091 0.14232716 0.87433326
0.021820653 0.14285125 0.87256289
0.026320776 0.14351141 0.8706668
0.039645631 0.14419225 0.87086689
0.043294251 0.14376816 0.87075019
0.047792565 0.14264938 0.87133348
0.05182603 0.14269188 0.8735798
0.023488056 0.14633685 0.87399989
0.028159929 0.14741369 0.87288147
0.033158068 0.14747472 0.87111121
0.038048822 0.14753874 0.87148899
0.042737197 0.14739013 0.87180847
0.047904238 0.14704265 0.87336093
0.051227707 0.14642057 0.87449986
0.032738212 0.15254349 0.87436652
0.038178612 0.15129305 0.87445545
0.041464102 0.15138149 0.87496668
0.062997766 0.093261383 0.87943321
-0.011761514 0.11780097 0.87699747
-0.0091300821 0.11892899 0.87570006
0.059519451 0.11903997 0.87651736
-0.011621047 0.1226204 0.87880278
-0.0075157308 0.12248756 0.87784827
-0.0032511901 0.12283926 0.87570012
0.059511486 0.12228552 0.87640005
-0.011358966 0.12655944 0.87967175
-0.0073228138 0.12739116 0.87929153
-0.0026048021 0.12739661 0.87791866
0.0017584325 0.1277148 0.87636679
0.0055641886 0.1285999 0.87500006
0.059221692 0.12783566 0.87814164
-0.0020618015 0.13196537 0.87934428
0.0023078707 0.13235384 0.87830007
0.0066606211 0.13258761 0.87625009
0.057929844 0.13137171 0.87720001
0.0039547752 0.13588263 0.87999976
0.0072306371 0.13740815 0.87928134
0.011915813 0.13728274 0.87717509
0.015356085 0.13837123 0.87503338
0.054580986 0.13851883 0.87596673
0.056422193 0.13575913 0.87919998
0.012146439 0.14227687 0.87904811
0.016042814 0.14225689 0.87690687
0.054723617 0.14214914 0.87825555
0.013390694 0.14692117 0.87993312
0.01705545 0.14709926 0.8785482
0.021592408 0.14773199 0.87648678
0.025979413 0.1490397 0.87555009
0.044739682 0.14979385 0.87520009
0.046366628 0.14977673 0.87510008
0.053075422 0.14701766 0.87806666
0.018169615 0.15108879 0.87957764
0.021980511 0.15206642 0.87891847
0.026622999 0.15229909 0.87757158
0.031697694 0.15421934 0.87567782
0.037841201 0.1536101 0.87607503
0.043540083 0.15277079 0.87733352
0.04834345 0.15205058 0.87765014
0.051909424 0.15169387 0.87913334
0.023102241 0.15661757 0.87999982
0.026902558 0.15699856 0.87907392
0.032554608 0.15740322 0.87677509
0.038523309 0.15695 0.87766266
0.043286178 0.15695058 0.87880749
0.047774673 0.15685008 0.8795523
0.051549904 0.15552633 0.87999976
0.028572934 0.16043715 0.87999976
0.032368816 0.16136034 0.87907773
0.03690476 0.16146342 0.87865192
0.04224227 0.16150014 0.87984425
0.0647678 0.091810964 0.8811999
0.067043588 0.09252575 0.88411677
0.064192101 0.097177319 0.88231218
0.066682532 0.097122416 0.88480008
0.059774809 0.11463825 0.88027787
0.06213301 0.11385617 0.88267773
0.059858501 0.11725715 0.88151026
0.06159804 0.1190815 0.8828792
0.061466321 0.12292534 0.8809914
-0.010829735 0.12949747 0.88110703
-0.0091811698 0.12942292 0.88059974
0.061541349 0.12799837 0.88206667
-0.01086256 0.13153403 0.88377786
-0.0075519844 0.13209091 0.88199991
-0.0037126702 0.1339754 0.88181108
0.059028983 0.13281994 0.88139987
0.060023028 0.13320144 0.88393331
-0.0009721627 0.13634585 0.88300008
0.0025914395 0.1377746 0.88162774
0.056534491 0.13848789 0.88094991
0.0039714016 0.14138554 0.88370013
0.0072555318 0.14282471 0.88242596
0.056659639 0.14290082 0.8829
0.0083680367 0.14690425 0.88393348
0.011189286 0.14784551 0.88104647
0.05486659 0.14825276 0.88054991
0.056775153 0.14812855 0.88470012
0.012756226 0.1522928 0.88339454
0.016558003 0.15299267 0.88111657
0.05409345 0.15248173 0.88132489
0.055116855 0.1546879 0.88456661
0.013878893 0.15639232 0.88490015
0.017692246 0.15716493 0.88307232
0.021486783 0.15762605 0.88105541
0.049946487 0.15810187 0.88066643
0.052661918 0.15787053 0.88211995
0.055129312 0.15636876 0.8847667
0.022084905 0.16100849 0.88313341
0.026801404 0.16273865 0.8824833
0.03078033 0.16326861 0.88055539
0.038423114 0.16372351 0.88006645
0.042276978 0.16326879 0.88055539
0.046950426 0.1626925 0.88223332
0.050918467 0.16185685 0.88327503
0.028696323 0.16606209 0.88380015
0.032159455 0.16729896 0.882725
0.036673993 0.16723636 0.8823958
0.041504759 0.1665238 0.88276005
0.068376482 0.091420069 0.8853668
0.06796065 0.097180136 0.88532734
0.066420108 0.10214855 0.88759458
0.066097029 0.10655802 0.88800031
0.065350458 0.11330916 0.88912773
0.063095495 0.11710726 0.88655835
0.063531868 0.12209778 0.8868888
0.063455835 0.12524787 0.88582754
-0.010885776 0.13346265 0.88566673
0.062886462 0.13235931 0.88710672
-0.0073923199 0.13685729 0.88763851
-0.0029611215 0.13788129 0.88653326
0.0006762991 0.13915046 0.88516682
0.058585837 0.13780951 0.88713312
0.060694706 0.13666362 0.88772494
-0.006619601 0.14198212 0.88949549
-0.0026351006 0.14209086 0.8881036
0.0019981731 0.14276615 0.88614655
0.05857116 0.14189917 0.88691086
0.061008882 0.14185163 0.88867998
-0.0072812461 0.14623755 0.88921487
-0.0026370101 0.14719857 0.88902217
0.0023319228 0.1468996 0.88721454
0.0068718661 0.14833429 0.88593328
0.058499433 0.14749184 0.88582492
0.060368609 0.14719869 0.88902217
-0.00097935519 0.15059233 0.88953334
0.0025425672 0.15188117 0.88859993
0.0070871171 0.15200417 0.88690799
0.011411829 0.15404436 0.88559997
0.057729661 0.15258548 0.8866834
0.060852345 0.15088522 0.88801104
0.0039952192 0.1554632 0.889
0.0073042819 0.15698159 0.88822949
0.011696431 0.157195 0.88633317
0.01608512 0.15919384 0.88522243
0.056305569 0.15787247 0.88767993
0.008142041 0.16046038 0.88919997
0.012505919 0.16140878 0.88791418
0.017217865 0.1625226 0.88691092
0.022568805 0.16357905 0.88593328
0.052298788 0.16354047 0.88572508
0.055911109 0.16197681 0.88844442
0.013943196 0.16538544 0.889
0.017259274 0.16704389 0.88902217
0.021983435 0.16692805 0.88730806
0.026915584 0.16837347 0.88622487
0.03041788 0.16975899 0.88593328
0.038641397 0.1695929 0.88506681
0.042388793 0.16931202 0.88574994
0.046961971 0.16798182 0.88633323
0.052215617 0.16719434 0.88731396
0.055408329 0.16708522 0.88924456
0.022786954 0.17145799 0.88904446
0.027186992 0.17270254 0.88835543
0.032304268 0.17299926 0.8866998
0.037033841 0.17308804 0.88609624
0.041843358 0.17311898 0.88731647
0.047090005 0.17242537 0.8887524
0.051522646 0.17144275 0.88896674
0.027767947 0.17646135 0.88925552
0.0319282 0.17734854 0.88857132
0.037080258 0.1774307 0.88721085
0.042340577 0.17732373 0.88844746
0.046909451 0.17680643 0.88925833
0.050443687 0.1762206 0.88943344
0.032192029 0.18115924 0.88931113
0.037157543 0.18146193 0.88905716
0.041725904 0.18072964 0.88923335
0.067698836 0.10837866 0.89277583
0.067248717 0.11329913 0.89228475
0.067308836 0.11797011 0.89309621
0.066166878 0.12315427 0.89455843
0.063164257 0.1379168 0.89102685
-0.0088691218 0.14288573 0.890486
0.063256912 0.14251755 0.89077789
-0.0080435239 0.14876987 0.89100385
0.062247571 0.14772286 0.89218909
-0.0074143782 0.15252624 0.89393628
-0.0028539316 0.15286341 0.89191693
0.00068070495 0.154144 0.89093357
0.060564008 0.15431124 0.89190024
-0.001819157 0.15641335 0.89443362
0.0026223117 0.157726 0.89244479
0.058888871 0.15759785 0.89172238
0.060578346 0.15766551 0.8921113
0.0040179896 0.16133861 0.89406711
0.0073406743 0.16273899 0.89262027
0.011478839 0.16406329 0.89080018
0.058042355 0.16253075 0.89148355
0.060530055 0.16168699 0.8914001
0.012663044 0.16733252 0.89232695
0.057277139 0.16770178 0.89252239
0.017873352 0.17204286 0.8920725
0.021176843 0.1735055 0.89106685
0.053288564 0.17344667 0.89076686
0.056019854 0.17223652 0.89236689
0.019025007 0.17630686 0.89406699
0.02252239 0.17740582 0.89226705
0.026158316 0.17844923 0.89092237
0.048826933 0.17885628 0.89020026
0.052717008 0.17775476 0.89179069
0.055648558 0.176947 0.89310014
0.024027344 0.18129632 0.89406699
0.027322883 0.18270619 0.8928225
0.032259941 0.18402822 0.8911891
0.037227586 0.18393415 0.8907336
0.042577825 0.18341711 0.89144021
0.047311507 0.18272796 0.89292622
0.051237721 0.18176281 0.89363366
0.028473144 0.18683565 0.89404482
0.032327823 0.18690889 0.89306688
0.037109356 0.18749715 0.89289612
0.041998439 0.18678434 0.89326686
0.045738205 0.18642452 0.89473343
0.069162026 0.10996214 0.89553845
0.068616487 0.11220107 0.89568049
0.071026921 0.11360528 0.89800006
0.071057297 0.11699501 0.89838427
0.068622224 0.12220842 0.89575559
0.071066596 0.12202593 0.89850187
0.06779626 0.12700808 0.89679599
0.07103131 0.12530622 0.89805549
0.066329852 0.13229433 0.89788687
0.065882549 0.13674246 0.89636689
-0.0076626916 0.1548591 0.89506668
-0.0073464485 0.15721488 0.89710981
-0.0030749417 0.15793189 0.89596665
0.00068416871 0.15825978 0.89546663
-0.0064349901 0.16171712 0.89847529
-0.0026640985 0.1620432 0.89796692
0.0017988812 0.16229779 0.89630002
0.059149336 0.16495958 0.89566678
-0.00098900741 0.1654446 0.89830023
0.002600491 0.16663173 0.89826208
0.007166056 0.1670545 0.89684594
0.011541654 0.16911852 0.89563334
0.059246197 0.16773345 0.89713347
0.0085081281 0.17109095 0.8987003
0.012161159 0.17243041 0.89738113
0.016552523 0.17411351 0.89561665
0.05866015 0.17181949 0.896689
0.013269965 0.17571482 0.89955032
0.016856981 0.17745747 0.89708346
0.020729477 0.17995462 0.89566666
0.057129864 0.17766593 0.89673346
0.018427825 0.18166177 0.89751351
0.022071319 0.18266666 0.89589328
0.052888691 0.18329673 0.89571667
0.05652019 0.18211855 0.89812249
0.019113906 0.18715662 0.89824468
0.022429613 0.18687025 0.89686668
0.026298812 0.18773924 0.89571112
0.032414872 0.18990886 0.89546663
0.039083835 0.18985231 0.89520007
0.042433321 0.18906933 0.89543331
0.047796167 0.18764135 0.89577329
0.052764341 0.18713561 0.89714181
0.056001645 0.1855931 0.89876693
0.022817777 0.19132695 0.89900029
0.027462203 0.19198319 0.89737046
0.032470345 0.19273549 0.89698905
0.037486758 0.19272356 0.89693338
0.042708084 0.19207141 0.89680845
0.047342718 0.19179565 0.89747101
0.052295156 0.19120507 0.89842689
0.033385552 0.19569688 0.89910018
0.037539586 0.19550101 0.89820021
0.042575151 0.19554453 0.89840025
0.071265265 0.12823319 0.90101373
0.068496197 0.1324852 0.90143347
0.067878321 0.13572302 0.90066665
-0.0082741575 0.16261321 0.90112233
-0.0060486225 0.16721001 0.9033168
-0.0026762863 0.16784929 0.90223825
0.0015286724 0.16930017 0.90103364
-0.00099605392 0.17167206 0.90470004
0.0026131789 0.17249428 0.90270954
0.0068565714 0.17339022 0.90196127
0.05952137 0.17438011 0.90130013
0.061417345 0.1749928 0.90446669
0.0085566742 0.17711429 0.90384442
0.012221105 0.17831148 0.9018001
0.05958594 0.17792709 0.90227789
0.061396971 0.17661664 0.90416664
0.013326366 0.18235075 0.90340829
0.016244808 0.18327084 0.90173352
0.058782779 0.18307704 0.90285015
0.014187871 0.18511488 0.90460002
0.016859483 0.18784198 0.90314674
0.057086553 0.18807343 0.90265006
0.019211199 0.19230738 0.90281653
0.022124939 0.19411844 0.90147513
0.049380906 0.19428343 0.9003002
0.053233072 0.19413233 0.90154195
0.056281015 0.19240037 0.9032501
0.022604996 0.19674407 0.90391111
0.027842667 0.19751199 0.9019286
0.032400202 0.1984165 0.90168107
0.037651371 0.19859804 0.90087801
0.04269515 0.19861133 0.90093923
0.047773749 0.19792788 0.90164101
0.052600861 0.19736484 0.90367347
0.02768459 0.20025955 0.90460002
0.033870589 0.20250328 0.90460008
0.037769899 0.20258623 0.90371674
0.042478703 0.20236821 0.90349329
0.047008112 0.20160732 0.90309995
0.051250938 0.20005293 0.90366668
0.065967128 0.15220524 0.90905023
0.065125339 0.15729231 0.90913343
-0.0077668503 0.16793449 0.9072336
-0.0069288299 0.172337 0.90820581
-0.0032502962 0.17247553 0.9059723
-0.0067551523 0.17764322 0.90769368
-0.0026913146 0.1772446 0.90737808
0.0021716272 0.17730269 0.906596
0.0063246968 0.17810269 0.90602231
0.062898301 0.17770097 0.90756679
0.065174282 0.17856658 0.90981674
-0.0065007294 0.18193683 0.90763366
-0.0026930508 0.18247606 0.90821511
0.0023876445 0.1825092 0.90837806
0.0074595041 0.18226351 0.90715575
0.010825647 0.18279305 0.90560007
0.062443178 0.18225236 0.90710014
-0.0035433217 0.18602556 0.90905023
0.0040851012 0.18686152 0.90900016
0.0076809684 0.18734388 0.90826702
0.012314465 0.18739264 0.90645844
0.059845686 0.18713118 0.9062112
0.062114924 0.18717861 0.90849185
0.0083281016 0.19120023 0.90953338
0.0125436 0.19252038 0.90777808
0.016573157 0.19245438 0.90588009
0.058631323 0.19193856 0.90702516
0.060047481 0.19283555 0.90926677
0.014253742 0.19611762 0.90880018
0.017610554 0.19745849 0.90718913
0.022649443 0.19881088 0.90566677
0.054760635 0.19887672 0.90596676
0.056968391 0.19710013 0.90748352
0.018778296 0.20180963 0.90905571
0.022905443 0.20237051 0.9074586
0.027486518 0.20273957 0.90601444
0.031661812 0.20332588 0.90576673
0.044585049 0.20375998 0.90520006
0.048411626 0.20345706 0.90572506
0.053350065 0.20271443 0.90710849
0.056620583 0.20116717 0.90870011
0.024419703 0.20707625 0.90866697
0.027797589 0.20783956 0.90830773
0.032831725 0.20753723 0.9069854
0.037861627 0.2072918 0.90591484
0.042935498 0.20731363 0.90601116
0.048069395 0.20759206 0.90722615
0.051972821 0.20755832 0.90892518
0.0295297 0.21148755 0.9094668
0.032892715 0.21251068 0.90867174
0.037953407 0.21286292 0.90811133
0.043015394 0.21276702 0.90770406
0.04795479 0.21287383 0.90906268
0.043966383 0.2166582 0.90986663
0.068199806 0.14768414 0.91245562
0.071175724 0.14684178 0.91425771
0.067054823 0.15360174 0.91231674
0.070662461 0.15149401 0.91496694
0.067508265 0.157906 0.91268337
0.066559486 0.16311091 0.9133001
0.065509751 0.16757786 0.91450018
0.063698001 0.17210756 0.91297799
0.065500207 0.17180547 0.91436678
-0.0077931043 0.17612137 0.91030025
0.065313958 0.17640515 0.91176677
0.065286502 0.18226521 0.91138339
-0.0022803454 0.18784904 0.91174161
0.0020553528 0.18781671 0.91117334
0.005787605 0.18963334 0.9101333
0.063511193 0.18797472 0.91030008
-0.0021417742 0.19091578 0.91356689
0.0024017389 0.19209456 0.91378587
0.0074938685 0.1935503 0.91130549
0.06189391 0.19245283 0.91146672
0.0041101184 0.19651181 0.91456699
0.0075180666 0.19755274 0.91413355
0.012266254 0.19790576 0.91236675
0.05840731 0.19809844 0.9101333
0.061196722 0.19761573 0.9137668
0.013052027 0.20100507 0.91372526
0.016591607 0.20327874 0.91312236
0.058144521 0.20246869 0.91265845
0.018585538 0.20732386 0.9134779
0.021783702 0.2072908 0.91183996
0.053326808 0.20830232 0.9103334
0.056002405 0.20708396 0.91242516
0.019456262 0.21091847 0.91433352
0.023323759 0.21211217 0.91319048
0.027552506 0.21296103 0.91142672
0.052733488 0.21237132 0.9118067
0.055285182 0.2126921 0.91464472
0.024588106 0.21616268 0.91493374
0.068976127 0.14983565 0.91523355
0.071812093 0.14924963 0.91511995
0.068984926 0.15240905 0.9153502
0.0720893 0.15332535 0.91573846
0.069026373 0.15590796 0.91590011
0.072543107 0.1569736 0.91715151
0.069075793 0.16198854 0.91655558
0.0720663 0.16173452 0.91834736
0.068182275 0.16708434 0.91832656
0.070984274 0.16586207 0.91913331
0.066250145 0.17170358 0.91685563
0.065583788 0.17543082 0.91553324
-0.0030014419 0.19312143 0.91596669
0.00069909293 0.19405141 0.91500038
0.063913524 0.19257358 0.91606677
-0.0015822534 0.19710106 0.91863316
0.0021244772 0.19778632 0.91652799
0.0058210944 0.19924477 0.91540033
0.062132608 0.19745559 0.91500002
0.0027556487 0.20191391 0.91824657
0.0077519701 0.20270997 0.91662502
0.012315625 0.20380171 0.91598016
0.061157048 0.20196064 0.91742224
0.0041336375 0.20533544 0.91979992
0.0075556249 0.20622683 0.91868877
0.012682226 0.2074502 0.91779989
0.016062731 0.20773655 0.91530037
0.058215592 0.20789723 0.9160111
0.060751919 0.20536521 0.91993344
0.01326282 0.21130602 0.91848326
0.017447963 0.21241383 0.91638011
0.021180404 0.21366052 0.9151504
0.058038607 0.21254766 0.91769999
0.072786786 0.16435173 0.92025006
0.069483601 0.16980343 0.92196679
0.072280191 0.16735585 0.92107791
0.068866335 0.17254929 0.92136675
0.071753964 0.17223689 0.92351675
0.068250082 0.1763771 0.92271852
0.071394734 0.17541943 0.92444819
-0.0027316767 0.19875035 0.92099994
-0.0010163116 0.20178038 0.92310011
0.00070505228 0.20343173 0.92280006
0.062562659 0.20396391 0.92133343
0.0032865899 0.20775042 0.92292506
0.0071420749 0.20853381 0.92070007
0.061975397 0.20806494 0.92279994
0.0041528125 0.2123048 0.92406666
0.0075884066 0.21287678 0.92281872
0.011578036 0.21352661 0.92068905
0.073188826 0.17128399 0.92533314
0.069812663 0.17750022 0.92633319
0.071607247 0.17766628 0.92719978
0.069822334 0.18097164 0.92646146
0.064664707 0.20345737 0.92683333
0.066515036 0.20210336 0.92853338
-0.0010225993 0.20734853 0.92881113
0.00070845219 0.20786157 0.92724991
0.068095393 0.20337293 0.93237507
-0.0027656858 0.20729658 0.9324668
