# .PCD v0.7 - Point Cloud Data file format
VERSION 0.7
FIELDS x y z
SIZE 4 4 4
TYPE F F F
COUNT 1 1 1
WIDTH 416
HEIGHT 1
VIEWPOINT 0 0 0 1 0 0 0
POINTS 416
DATA ascii
0.026442202 -0.031537898 0.18859261
0.028581059 -0.030723633 0.18853059
0.026397876 -0.033391085 0.18573937
0.030284178 -0.031743005 0.18572247
0.027609723 -0.03518736 0.18202513
0.031057328 -0.033548027 0.18172687
0.029245375 -0.035484422 0.17892328
0.015071163 -0.032019459 0.18796486
0.019535523 -0.030646902 0.18914172
0.023605317 -0.028789008 0.18932998
0.028094303 -0.026836062 0.18934745
0.015996732 -0.034173217 0.18469852
0.020774465 -0.034165166 0.18543285
0.024019944 -0.032969102 0.18581471
0.031907015 -0.028938625 0.18631962
0.01756233 -0.034812585 0.18155116
0.02125668 -0.034701999 0.18068141
0.024871748 -0.034576192 0.18108788
0.034292296 -0.030396914 0.1800037
0.021890994 -0.035150092 0.17658404
0.025935523 -0.035141617 0.176431
0.030725159 -0.034512449 0.17590117
0.034269854 -0.031417876 0.17508209
0.026945639 -0.034443412 0.17232943
0.028865807 -0.035068296 0.17312464
0.034493864 -0.031889729 0.17158869
-0.0016437611 -0.031538554 0.19116807
0.0026982967 -0.02986085 0.19141391
0.0070588086 -0.028322987 0.19096851
0.010769597 -0.026274126 0.19002888
0.016676886 -0.024207823 0.18987146
0.02138886 -0.022069415 0.19075185
-0.00071603153 -0.034109283 0.18834385
0.0037707957 -0.032809418 0.18845612
0.0084851198 -0.031774737 0.18811429
0.01252416 -0.029719198 0.1887984
0.018316031 -0.027486512 0.18996662
-0.00016759802 -0.035372101 0.1842759
0.0043550562 -0.034475908 0.18346041
0.0086336145 -0.033532377 0.18295851
0.012589621 -0.033628892 0.18299839
0.0096326154 -0.033732958 0.17780885
0.014226545 -0.033655431 0.17817134
0.018759716 -0.033994611 0.17856592
0.014611857 -0.034580011 0.17349568
0.019861568 -0.034491237 0.17392474
0.023698458 -0.034467157 0.17349216
0.034715917 -0.028787456 0.17409027
0.014867525 -0.03555236 0.17048019
0.019564178 -0.03422913 0.16941386
0.024647696 -0.033629589 0.16926897
0.029590707 -0.033053014 0.16926509
0.034458384 -0.030738696 0.16884214
0.025343876 -0.033123799 0.16564432
0.02934308 -0.032338493 0.1643858
0.032377802 -0.030669991 0.16497913
1.1854805e-05 -0.023422576 0.19125667
0.0034224074 -0.021533625 0.19080889
0.013626557 -0.017060284 0.19015864
0.018883385 -0.016206631 0.19067267
-0.0026210118 -0.029081043 0.19224873
0.0017920546 -0.027581282 0.19222298
0.0057318639 -0.025025818 0.19148526
0.010025145 -0.022562584 0.19014484
0.014432619 -0.020720627 0.18986481
0.01864641 -0.019819921 0.19092995
-0.00090501551 -0.034692269 0.18045563
0.0022781268 -0.034324534 0.17996323
-0.0016219579 -0.033507958 0.17652822
0.0033394797 -0.0333522 0.1759153
0.0070912112 -0.033248428 0.17616415
0.0041119838 -0.033398733 0.17094329
0.0084065963 -0.033919439 0.17179146
0.0050324798 -0.034395568 0.16768569
0.0088346992 -0.034156628 0.16710168
0.013157739 -0.034379493 0.16700977
0.018085329 -0.03364351 0.16627282
0.013518892 -0.033560682 0.16227767
0.018234208 -0.032404497 0.16181022
0.023981629 -0.032672137 0.16268629
0.027646797 -0.032970086 0.16234261
0.032612242 -0.027809938 0.16161126
0.020191722 -0.03280469 0.1581434
0.023973931 -0.032562099 0.15756598
0.028831696 -0.032207221 0.15746546
0.031374313 -0.029084375 0.15741146
0.02512422 -0.033036657 0.15376657
0.02866891 -0.032886904 0.15156603
0.031241659 -0.030149378 0.15386736
-0.0015013879 -0.019771481 0.19138852
0.0033837156 -0.018414967 0.19034809
0.007853929 -0.017383853 0.1905407
0.011818105 -0.014689717 0.19051182
-0.0031149825 -0.033014137 0.17377034
-0.0030204179 -0.033482708 0.16988093
0.0017544543 -0.033380359 0.16960704
-0.0012494186 -0.034269702 0.16516644
0.0027790889 -0.033908837 0.16481414
0.0069092498 -0.033865862 0.16465625
0.0032282174 -0.033943508 0.16096884
0.0079300394 -0.034093607 0.16067019
0.012088519 -0.033966258 0.16055179
0.0090461709 -0.034291804 0.15589261
0.012981548 -0.034563381 0.15645623
0.01768472 -0.033265769 0.1562317
0.01330499 -0.035003725 0.15230975
0.018429741 -0.033994261 0.15165803
0.023999702 -0.033791672 0.15135345
0.03043694 -0.032775655 0.1497775
0.032336205 -0.028920203 0.15081155
0.01837012 -0.034233537 0.14803627
0.0232355 -0.034464728 0.14623141
0.028892092 -0.033443488 0.1461072
0.032112472 -0.029909644 0.14544606
0.025445949 -0.035038859 0.14197329
0.028481379 -0.03367348 0.1416305
0.031244311 -0.031288017 0.14143175
0.0055423276 -0.0080453046 0.19069639
0.00084205158 -0.013280455 0.19007969
0.00509763 -0.012026506 0.19034532
0.0099646766 -0.0096255448 0.19015512
-0.0031468142 -0.033765122 0.15825343
0.0023064716 -0.033910472 0.15822235
-0.0022684261 -0.034121409 0.15398026
0.0024581989 -0.034013946 0.15380812
0.0063842158 -0.033606242 0.15402594
0.0033024047 -0.033849165 0.14948034
0.0075090509 -0.033904057 0.14941925
0.012107457 -0.034299899 0.1490435
0.0086005153 -0.033417828 0.14531887
0.012375722 -0.033878975 0.14480427
0.017029271 -0.033912037 0.14509368
0.01356964 -0.033602111 0.14085156
0.017726738 -0.034101587 0.14085665
0.02246131 -0.03413922 0.14024037
0.028806273 -0.032847233 0.13859129
0.03209547 -0.029304177 0.13935679
0.018561265 -0.033836883 0.1364224
0.023090124 -0.034117658 0.13539711
0.028481845 -0.033469807 0.13464656
0.03192579 -0.031192057 0.13445511
0.023552872 -0.034071658 0.13199317
0.027963981 -0.033304311 0.12994581
0.031772755 -0.031484798 0.1302411
0.0027879854 -0.0063305367 0.19029516
0.0011109821 -0.033058252 0.14658421
0.0053824596 -0.033718992 0.1466971
0.0023720562 -0.032456223 0.14266095
0.0063125337 -0.032881424 0.14231116
0.010085496 -0.033298209 0.14176834
0.0071104318 -0.032644019 0.1387524
0.011334454 -0.032634616 0.1377902
0.01557018 -0.033270877 0.13790604
0.012785137 -0.032411464 0.13413864
0.016266998 -0.033213791 0.13331836
0.020383537 -0.03447393 0.1334444
0.032994725 -0.027738281 0.13374254
0.017132701 -0.033090558 0.12983033
0.021558346 -0.033587568 0.12927544
0.027192995 -0.033019476 0.12732649
0.032260086 -0.029585084 0.12858295
0.023070313 -0.033566706 0.12479508
0.026828961 -0.033260975 0.12412351
0.031444676 -0.031086894 0.1250788
0.0017050996 -0.0027726637 0.19063148
0.00053279195 -0.032457817 0.14033625
0.0011258153 -0.032575853 0.13566586
0.0057822699 -0.032442622 0.13584918
0.0091300076 -0.031761806 0.13478765
0.0062998598 -0.032485321 0.13104066
0.010697724 -0.032320622 0.13142926
0.0071107778 -0.033343613 0.12701708
0.011077651 -0.032764986 0.1265015
0.015822519 -0.032876033 0.12689459
0.019205576 -0.032284848 0.12590563
0.01239882 -0.032745738 0.12267315
0.015750941 -0.032675169 0.12147367
0.020603802 -0.033083607 0.12263072
0.031345215 -0.028879851 0.1219269
0.017382916 -0.032833237 0.11807388
0.021183351 -0.033295419 0.11760038
0.026160218 -0.033382047 0.11861736
0.03025075 -0.030831115 0.11782873
0.032165237 -0.027110714 0.11570436
0.022707522 -0.033720013 0.11411476
0.026251908 -0.033598255 0.11317968
0.030111365 -0.031495556 0.11264628
0.030603413 -0.032530315 0.10933125
-0.0019207407 0.005212483 0.19143918
-0.0027063964 -0.032351673 0.13440442
-0.00066895504 -0.031758834 0.13039085
0.003724874 -0.031884704 0.12879691
0.00043823663 -0.031340349 0.12539816
0.0052118353 -0.032670837 0.12443185
0.0089039486 -0.032506537 0.1236304
0.0058197356 -0.032675941 0.11967146
0.010365356 -0.032808419 0.12004018
0.0071935337 -0.033440236 0.11604857
0.010481547 -0.033072546 0.11560202
0.015526015 -0.033276912 0.1157341
0.018928424 -0.032782421 0.11449945
0.015813265 -0.033379927 0.11079204
0.020265758 -0.032768086 0.11064154
0.023964057 -0.032970443 0.1099723
0.031507757 -0.030372189 0.10999185
0.022034911 -0.03268766 0.1073277
0.025884874 -0.032353133 0.10672545
0.029777985 -0.03076946 0.10492092
0.033451088 -0.028635692 0.10609031
0.029369831 -0.03112407 0.10160941
-0.0016728988 0.0078049931 0.1914157
-0.0023025852 -0.031914026 0.12384671
-0.00087576453 -0.0324343 0.1193167
0.0034267921 -0.032323785 0.11928159
0.00031832326 -0.033285744 0.114537
0.0048682354 -0.033546317 0.11490834
0.010196557 -0.03273911 0.11235344
0.0047733984 -0.033381537 0.10970902
0.010348726 -0.033502914 0.10897964
0.014563392 -0.033340938 0.1079241
0.0066685197 -0.033346482 0.10598832
0.010243881 -0.033687115 0.10512531
0.015333132 -0.032976616 0.10414261
0.019774415 -0.032185677 0.10418642
0.023820397 -0.031740606 0.10380256
0.015036578 -0.033223324 0.10002172
0.020167556 -0.033145599 0.099260449
0.025183808 -0.032656498 0.10017014
0.030067017 -0.031155217 0.099127114
0.032456152 -0.027534658 0.098715127
0.021342874 -0.033977594 0.094572008
0.025381727 -0.033670891 0.094978333
0.029774338 -0.031693224 0.09466064
0.03234316 -0.029490286 0.093714356
0.025870528 -0.034206159 0.090992749
0.030216005 -0.032333173 0.090438128
0.032798722 -0.030940669 0.09088558
-0.0024732854 -0.032272857 0.10697019
0.0011131456 -0.03245762 0.10698056
-0.0013364712 -0.032702934 0.10290205
0.0034770621 -0.032126769 0.10257047
0.008948368 -0.030973762 0.10088891
0.0054997206 -0.032544881 0.097649813
0.0092951022 -0.032180063 0.097837031
0.013697498 -0.032368515 0.097075939
0.010596037 -0.032700416 0.093022108
0.014437473 -0.032453876 0.093314409
0.018760283 -0.033160709 0.09292078
0.014869737 -0.032889467 0.089214742
0.019340238 -0.032812871 0.088217854
0.024691489 -0.032629065 0.087353826
0.029190343 -0.030872677 0.08689028
0.032276534 -0.027501963 0.088237047
0.021060061 -0.032460816 0.084943295
0.024386812 -0.032208048 0.083598018
0.028857036 -0.030873256 0.083522141
0.031927757 -0.029204423 0.08435297
0.025495276 -0.033125412 0.080517769
0.028408755 -0.031702932 0.080223858
0.0011817692 -0.031451073 0.09930253
-0.0029013446 -0.03160385 0.095884442
0.001936757 -0.032125242 0.095704615
0.0023972262 -0.032673601 0.090996742
0.0072593605 -0.032753039 0.09145844
0.0087761898 -0.0326881 0.086435854
0.013939525 -0.032854196 0.08622241
0.014200616 -0.032598823 0.081485629
0.018946616 -0.032371532 0.082047224
0.02248282 -0.032044329 0.080952764
0.03143429 -0.028236635 0.080468774
0.015733624 -0.033086918 0.076900482
0.019477338 -0.033116594 0.077144265
0.024236489 -0.033054434 0.07751888
0.029098187 -0.0308653 0.077165365
0.031457197 -0.02862495 0.076693296
0.024737623 -0.032689184 0.072516024
0.028329646 -0.030829063 0.072617888
0.0019158376 -0.032464486 0.088121533
0.0012378348 -0.03183249 0.084875882
0.0060597141 -0.03230099 0.083988309
-0.0020203274 -0.032409817 0.080963373
0.0019632857 -0.031809997 0.080324888
0.0062058717 -0.031595875 0.079866529
0.010803023 -0.032139331 0.08000648
0.0068125213 -0.031809106 0.07616204
0.011537087 -0.032170687 0.075549185
0.01625023 -0.032534223 0.073553979
0.01246806 -0.032032546 0.072173655
0.017768925 -0.032235418 0.070652962
0.022642914 -0.032096077 0.069454253
0.028596306 -0.029787069 0.06913209
0.030661061 -0.02708235 0.070209265
0.018402139 -0.031932164 0.067504704
0.02295769 -0.031055378 0.065313637
0.027520262 -0.029395947 0.065144718
0.030386431 -0.026742561 0.065757096
0.024775345 -0.030756414 0.062130272
0.00025723595 -0.031828351 0.0780527
-0.0028976137 -0.031216115 0.073691845
0.0010185912 -0.031465955 0.073430479
0.0059933932 -0.032080721 0.073375762
0.0062787649 -0.031275231 0.06944555
0.011091482 -0.031789396 0.068974674
0.011379039 -0.031253967 0.064582348
0.016074019 -0.031517677 0.063901544
0.020657144 -0.031345721 0.063533366
0.028944716 -0.027799219 0.06307143
0.030187044 -0.02650496 0.062419355
0.017260071 -0.031318009 0.059819162
0.021378884 -0.031331729 0.059568107
0.026134353 -0.029424274 0.059141755
0.028026618 -0.025730817 0.059161842
0.021712001 -0.031496584 0.05509907
0.025542043 -0.029802583 0.054529309
-0.00041136891 -0.031178916 0.070186377
0.00016127154 -0.0307974 0.066942513
0.005229238 -0.030214164 0.065778494
0.00027715228 -0.031633329 0.062403023
0.0051620491 -0.031038443 0.062671006
0.010185163 -0.030667592 0.06100744
0.0012413068 -0.032216728 0.05893153
0.0052609514 -0.031177603 0.058182001
0.01036129 -0.030654959 0.057078719
0.015126156 -0.030735141 0.05670172
0.028202422 -0.024154074 0.055912852
0.010672472 -0.031247605 0.052980185
0.016014999 -0.031296384 0.052394509
0.020765129 -0.03142073 0.051951766
0.026089581 -0.029433915 0.051569283
0.02854727 -0.025429027 0.05175674
0.01626284 -0.031469785 0.04849422
0.02140351 -0.031887397 0.048054218
0.02595792 -0.030601151 0.047720969
0.029167231 -0.027463956 0.047211885
0.021112615 -0.032215372 0.043762267
0.026204463 -0.031651925 0.043350458
0.029790826 -0.029020928 0.042917073
0.026482034 -0.031805143 0.039530933
0.030190889 -0.030135725 0.038694143
-0.00041373167 -0.031460859 0.055204868
0.0048284647 -0.030550621 0.054438293
2.7175993e-06 -0.0314961 0.050893962
0.0048692706 -0.031092361 0.050655723
0.0094920509 -0.031487394 0.050135374
0.0058724415 -0.031141344 0.046041489
0.010075387 -0.031188736 0.045838833
0.014611926 -0.03086653 0.046011329
0.010502386 -0.031609863 0.041519582
0.015199667 -0.030986818 0.041822731
0.019509453 -0.030794987 0.039708614
0.031196143 -0.026291683 0.041578352
0.021512948 -0.031185685 0.036760986
0.025516815 -0.031678822 0.036284924
0.030876702 -0.028298823 0.035651743
0.0259558 -0.031400219 0.031996429
0.029548381 -0.030280054 0.031950951
-0.00060450751 -0.03122782 0.048193097
-0.00060842838 -0.032105695 0.045429528
0.0034863409 -0.0313279 0.044814467
-0.0001854701 -0.032567978 0.040400863
0.0048960336 -0.032282814 0.040999532
0.0090440055 -0.031564724 0.039475203
0.015546585 -0.02999758 0.037947237
0.0048721074 -0.032799173 0.036066115
0.0101237 -0.031836849 0.035995007
0.014501658 -0.030549046 0.035341799
0.018702822 -0.03000376 0.034584165
0.014997317 -0.030451607 0.0311988
0.019753922 -0.030695923 0.030547023
0.025262969 -0.030590691 0.028385282
0.020637577 -0.031210277 0.026102066
0.025021005 -0.030869817 0.025775552
0.027844861 -0.028280213 0.025111318
0.022054631 -0.032246657 0.021247983
0.024841342 -0.031082686 0.021334469
-0.0017223833 -0.032106984 0.03685385
-0.00076778419 -0.03201241 0.033370376
0.004065129 -0.031352736 0.031461895
0.0075188293 -0.030852094 0.032052755
-0.0014956817 -0.03130883 0.029830754
0.0043309447 -0.031204764 0.028725564
0.0089711407 -0.030320464 0.028814316
0.013762614 -0.029780921 0.027395129
0.0099879913 -0.028783794 0.024628639
0.014791399 -0.029594265 0.023436666
0.018472681 -0.030598633 0.022809386
0.02802369 -0.02545068 0.022318244
0.015713405 -0.030020479 0.019716442
0.019312378 -0.030999457 0.018760502
0.024620915 -0.029924385 0.017569959
0.027613575 -0.025956294 0.017729461
0.020458711 -0.031023981 0.015423417
0.02403928 -0.02969389 0.013866246
-0.0018327842 -0.031461947 0.027075768
0.0026455475 -0.030712372 0.026221275
-0.0015258286 -0.03156241 0.021974027
0.0033401316 -0.030664727 0.022043347
0.0079853795 -0.029192274 0.021933794
0.011624618 -0.028642653 0.021737099
0.0036875186 -0.030927991 0.017457247
0.0083867526 -0.029664597 0.016444266
0.013104737 -0.029586907 0.017191112
0.013834291 -0.029993292 0.01212126
0.018409096 -0.029964201 0.012112021
0.025338978 -0.027613552 0.011876106
0.027677573 -0.024866953 0.01166749
0.019197822 -0.030352594 0.0070968866
0.023968782 -0.029181227 0.0072870255
0.026915502 -0.02586635 0.0068742037
-0.0027545225 -0.030025112 0.015367985
0.0022732941 -0.031057592 0.015506268
0.0063622072 -0.030050615 0.013700068
-0.001339199 -0.029511705 0.010970056
0.0027353559 -0.029834272 0.010873377
0.0077551282 -0.029348874 0.010241628
0.0014626011 -0.029976243 0.0077773929
