# .PCD v0.7 - Point Cloud Data file format
VERSION 0.7
FIELDS x y z
SIZE 4 4 4
TYPE F F F
COUNT 1 1 1
WIDTH 372
HEIGHT 1
VIEWPOINT 0 0 0 1 0 0 0
POINTS 372
DATA ascii
0.035108447 -0.012980206 0.18712091
0.03473109 -0.0086098369 0.18728781
0.034649312 -0.0045016375 0.18735132
0.034398973 0.0011993252 0.18747756
0.034328699 0.0062794494 0.18756434
0.034525752 0.011050971 0.18783352
0.035228789 0.015645647 0.18836302
0.035731494 -0.012279617 0.18567091
0.036090136 -0.010775119 0.18492329
0.036122561 0.0017165912 0.18398839
0.036868572 0.0060909535 0.18374637
0.036968946 0.010693083 0.18360171
0.037113249 0.015292475 0.18348485
0.037512422 0.01209751 0.18025398
0.037780046 0.016671451 0.17930925
0.028223753 -0.013235119 0.19052169
0.028574884 -0.0089547345 0.19099775
0.028518021 -0.0043257144 0.19075131
0.028656125 0.00058961229 0.19006878
0.028566241 0.0067734546 0.19009307
0.028448403 0.011130442 0.19090825
0.03216511 -0.013850385 0.18857086
0.03277576 -0.0092196763 0.18890351
0.031955421 -0.0044047893 0.18927565
0.031753957 0.00047684787 0.18922871
0.031439245 0.0063935681 0.18936467
0.03155911 0.010238838 0.1892643
0.032189608 0.014081733 0.18948293
0.035947144 -0.014103999 0.18384674
0.035729945 -0.0088674631 0.18343839
0.035521448 -0.0046860003 0.18337554
0.036122441 -0.00070678472 0.18285254
0.036209226 -0.014168041 0.1787765
0.036289632 -0.0095395166 0.17861938
0.036407411 -0.0049123955 0.17848703
0.036428332 0.00048046719 0.17825696
0.037093401 0.0058782413 0.17844182
0.037462294 0.010294052 0.17825255
0.037273288 0.014658017 0.17790085
0.037961543 0.020194063 0.17744541
0.036719084 -0.0093378108 0.17476976
0.037124932 -0.0049401806 0.17368913
0.037169456 -0.00019452185 0.17345846
0.037423551 0.0050976947 0.17303503
0.037525356 0.01049416 0.17325416
0.037402451 0.01511859 0.17296621
0.038279891 0.020304704 0.17307737
0.038195074 -0.0037377814 0.17042959
0.037923872 -0.001426317 0.17014718
0.038180649 0.0024405417 0.17014265
0.037828267 0.015563479 0.1693213
0.038430452 0.019418037 0.16954482
0.020990849 0.0081334459 0.19007263
0.022730887 0.011246641 0.19099915
0.025409341 -0.0089231404 0.19175628
0.024423122 -0.0043033091 0.19093639
0.024385691 0.00062205375 0.18996245
0.024679422 0.0052270079 0.19005376
0.035342574 -0.014482513 0.17272314
0.036245048 -0.010168774 0.17201561
0.0367468 -0.0067841918 0.17145601
0.036486566 0.0086749475 0.17059028
0.036727846 0.01331223 0.17054006
0.035153151 -0.014771765 0.16706812
0.035189509 -0.010304922 0.16742125
0.036130667 -0.0056272582 0.16707239
0.036693037 -0.00055975863 0.16692048
0.03644377 0.0048675272 0.16687214
0.03526026 0.010078976 0.1660234
0.035530508 0.014493575 0.16547614
0.037136316 0.019341124 0.16592655
0.035836935 -0.005599244 0.16339964
0.035614371 0.0052809822 0.16276449
0.035575032 0.015383461 0.16228631
0.036579967 0.019438447 0.16144723
0.018885195 -0.008626231 0.19000447
0.018476009 -0.0043268269 0.19001326
0.018675447 0.00059625029 0.19030163
0.018593609 0.0052347863 0.19035766
0.035016596 -0.0094255954 0.16488373
0.035507023 -0.01561678 0.16159484
0.035191774 -0.010376809 0.16131961
0.035428703 -0.0057062139 0.16103595
0.035434365 -0.0010225571 0.16106308
0.035336912 0.0043485104 0.1605885
0.035000801 0.0098727029 0.16028637
0.035287321 0.014302706 0.15974787
0.036168635 0.018367281 0.15882644
0.036023676 -0.016379816 0.15691119
0.035983086 -0.010414012 0.15647754
0.036045849 -0.0059340694 0.15608609
0.036128938 -0.0012486374 0.15593386
0.035791099 0.003746636 0.15566981
0.035830259 0.0090966057 0.15510061
0.035766661 0.01435093 0.15499392
0.036461234 0.01902415 0.15525669
0.036308348 -0.0053159618 0.15248269
0.036256135 -0.0014072659 0.15227342
0.035915077 0.0017138437 0.15190199
0.035819113 0.006404703 0.15162814
0.036417067 0.019195145 0.15071568
0.009655714 0.0012565148 0.19079408
0.0095341802 0.004401431 0.1905759
0.012744129 -0.0043011135 0.19017178
0.013347387 0.00011206476 0.19051859
0.012906253 0.0055253622 0.19027638
0.035375416 -0.014644517 0.15414268
0.034967005 -0.012311796 0.15376127
0.035032392 -0.016417546 0.15021572
0.035032511 -0.010925993 0.14997211
0.035469949 -0.0064557181 0.14953402
0.03597796 -0.0015349949 0.1492604
0.035531938 0.0033824944 0.14944384
0.035393178 0.0088842828 0.14916885
0.035313487 0.01415878 0.14905182
0.035670698 0.018416753 0.14769349
0.035206318 -0.016308535 0.14573121
0.034294009 -0.011133717 0.14568612
0.034234226 -0.0064145089 0.14543608
0.034976482 -0.0013969432 0.14496732
0.035610855 0.0029685346 0.14407328
0.035980999 0.0084695984 0.14408767
0.035471737 0.013964711 0.14349106
0.035173059 0.018677587 0.14307535
0.036511302 0.0043637152 0.13988382
0.036603034 0.007510887 0.13980925
0.036294937 0.012501666 0.13969147
0.036028385 0.018929737 0.1393806
0.0066344142 0.00049680128 0.1908465
0.034692109 -0.01727494 0.14280844
0.034560442 -0.011261782 0.14302272
0.033774137 -0.0065574595 0.14226896
0.034220278 -0.002232146 0.14191198
0.034435332 -0.016979991 0.13936949
0.034659386 -0.011279516 0.13855711
0.033617318 -0.0067359419 0.13834617
0.034061849 -0.001984634 0.13844776
0.035324216 0.0024711506 0.13817877
0.036734164 0.0074034012 0.13704285
0.036418438 0.013463208 0.13719085
0.036163509 0.018139632 0.13693285
0.034520268 0.004149077 0.13370657
0.035655379 0.0078008226 0.13306805
0.035942674 0.012573255 0.13259605
0.035973608 0.017783539 0.13221449
0.0034785867 -0.0002726613 0.19082624
0.033127189 -0.017183939 0.13558331
0.033581734 -0.013203477 0.13572848
0.03361702 -0.0068672118 0.13547471
0.033043683 -0.0021300488 0.13486263
0.03301549 0.0010374277 0.13470352
0.033099592 -0.017383324 0.13171619
0.034459591 -0.011773884 0.13243711
0.034432411 -0.0070189503 0.13220936
0.033513069 -0.0022847024 0.13134786
0.033688962 0.0022679432 0.13103247
0.034714699 0.0061375252 0.13054848
0.033902943 -0.01759574 0.12746197
0.03462261 -0.012047997 0.12676501
0.035217702 -0.007259727 0.12698257
0.033829451 -0.0027310089 0.12634385
0.033460796 0.0019676066 0.12648374
0.034493029 0.0072689406 0.12638128
0.035396397 0.011788821 0.12627834
0.035607338 0.017127799 0.12637377
0.035007477 -0.012220673 0.12316573
0.035182655 -0.0074383006 0.12308407
0.034612179 0.012446364 0.12180483
0.035257459 0.016077751 0.12133521
-0.0084044933 -0.0040930943 0.19320258
-0.0084862709 -9.1268121e-05 0.19296899
-0.0050235987 0.00064956374 0.19219396
0.034159005 -0.015343791 0.12463462
0.033281386 -0.0018264693 0.12341225
0.03263557 0.002565918 0.12324166
0.033063948 0.0061385497 0.12290794
0.034036934 -0.013230523 0.12037635
0.034344673 -0.0075629693 0.12028736
0.033020139 -0.0027966169 0.11936152
0.032443523 0.0019870657 0.11873484
0.033665597 0.006793288 0.11941385
0.03470993 0.011336053 0.11941761
0.034663618 0.016711323 0.11824429
0.03336519 -0.010962343 0.11605066
0.034224093 -0.0077344314 0.1165393
0.032984018 -0.0029662387 0.11542463
0.032918572 0.00023522372 0.11523771
0.033572197 0.0069357581 0.11464012
0.034180641 0.011166824 0.11428511
0.034174204 0.016419271 0.11405253
0.033355713 -0.01376362 0.11504221
0.033759177 -0.0074590952 0.11373055
0.033481836 -0.0030179401 0.11431801
0.033421397 0.0022231038 0.11355442
0.034034312 0.0061201132 0.11236149
0.034100115 0.01210692 0.11165875
0.03406179 0.015308632 0.11149186
0.033266008 -0.013656519 0.11018306
0.033893466 -0.0080430955 0.10974747
0.033967614 -0.0032393192 0.10926545
0.034531832 0.001400692 0.10889065
0.034601986 0.00635861 0.10833281
0.034334898 0.01116907 0.10792714
0.034200311 0.015980216 0.10761958
0.033874273 -0.0090444591 0.1054849
0.03498888 -0.0034275299 0.1050849
0.035268486 0.001398401 0.10508651
0.034197211 0.0062054484 0.10407722
0.034170687 0.011029055 0.10384965
0.034771502 0.016235733 0.10357851
0.031691551 -0.014815007 0.10310328
0.031686604 -0.0097185308 0.10128546
0.032148302 -0.0035816343 0.10096979
0.032427013 0.0012695617 0.10097075
0.032202065 0.0061099618 0.10059345
0.032273889 0.010953153 0.10043925
0.032407403 0.014986979 0.10036618
0.031514943 -0.015017192 0.09898442
0.032137752 -0.0085724089 0.098033071
0.032095611 -0.0037114457 0.097936034
0.032148242 0.001126518 0.097338676
0.032155573 0.0059585958 0.096564531
0.032523394 0.01081345 0.096634448
0.032965958 0.015661607 0.096761465
0.033337474 0.011485184 0.093212843
0.033864856 0.015826864 0.092626214
0.031338394 -0.015151574 0.096277058
0.031733274 -0.01062551 0.095751166
0.031956792 -0.003844094 0.094826818
0.031794548 0.001016363 0.094495356
0.032154977 -0.015386704 0.091441095
0.032478511 -0.010500381 0.091480494
0.032727361 -0.0048100841 0.091428578
0.032990932 0.0008751094 0.091388822
0.032957017 0.0057399846 0.091154993
0.033219635 0.0103535 0.090583324
0.033645034 0.015010545 0.089775324
0.031781435 -0.015600783 0.087117195
0.031909108 -0.01070813 0.087007403
0.032907307 -0.0044675362 0.086836517
0.033417344 0.00063784566 0.085661173
0.033672035 0.0057322546 0.085895121
0.034210742 0.010396687 0.085860729
0.034681678 0.015265195 0.086019516
0.033684254 0.01025228 0.081399918
0.03437525 0.015524769 0.081207156
0.03130722 -0.015695143 0.085230947
0.031862438 -0.010780121 0.085451961
0.032365084 -0.0059416168 0.084111571
0.032862604 -0.0027128332 0.0833444
0.032756031 0.0038033812 0.082984805
0.031175852 -0.015925776 0.080550849
0.03110224 -0.011019169 0.080285192
0.031744838 -0.006351654 0.080006182
0.032780945 -0.00073961396 0.080285966
0.032208383 0.0048385835 0.079310358
0.032671988 0.010204466 0.079387188
0.034074664 0.014255272 0.079499066
0.031904817 -0.016146654 0.076012313
0.031804264 -0.011232409 0.075725436
0.032156289 -0.0063059763 0.075794101
0.03300029 -0.0014171791 0.075226724
0.032875657 0.0040920093 0.075082481
0.033121049 0.0097001996 0.074648023
0.033002794 0.014939671 0.074537933
0.033532917 -0.001574891 0.071546853
0.033450127 0.0033396049 0.071274102
0.033315122 0.0090726446 0.070925295
0.03319782 0.014805922 0.070590615
0.031557083 -0.016312748 0.072659552
0.03181076 -0.011375985 0.072652221
0.032790661 -0.0064227921 0.073219657
0.031180799 -0.016430207 0.070302188
0.031982243 -0.011465481 0.070730388
0.032131314 -0.0064060078 0.068826079
0.032324493 -0.0016965442 0.068265021
0.032602668 0.0032084896 0.067507744
0.03303647 0.0081387963 0.067647815
0.032913327 0.013064945 0.067342997
0.032454669 0.0088465232 0.064046979
0.031832218 0.012960528 0.063374043
0.03033483 -0.01166804 0.066320419
0.031132162 -0.008390001 0.065783858
0.030866563 -0.011842246 0.0625965
0.031479239 -0.0068682865 0.062880814
0.031281054 -0.0019216747 0.062514007
0.031352401 0.0027934904 0.061592937
0.031332552 0.0079285363 0.060754955
0.031395137 0.012863086 0.060112953
0.030848563 -0.012036688 0.058414996
0.031125367 -0.0070614968 0.058431208
0.031246364 -0.0019197152 0.057529449
0.031356752 0.0030417419 0.056553125
0.031144321 0.0075318827 0.056193173
0.031098485 0.012731695 0.055938363
0.032371283 0.0037595998 0.053059161
0.03211993 0.0076470538 0.053391516
0.031966329 0.013440618 0.05302453
0.030552149 -0.012193353 0.055036187
0.030608535 -0.0072141816 0.054874599
0.030962229 -0.0038877227 0.055024445
0.030740738 -0.012382166 0.050987303
0.030624211 -0.0073982929 0.050684214
0.031313598 -0.0023958017 0.051043332
0.032064378 0.0020167246 0.050776184
0.031976283 0.0075327731 0.05012393
0.031181395 0.012284343 0.049723089
0.030445397 -0.010922306 0.046457171
0.030781925 -0.0025814069 0.046390057
0.030878544 0.0028117071 0.045716763
0.031001151 0.0073913275 0.045628786
0.030405521 0.012399946 0.045457602
0.030412734 -0.012983306 0.045242548
0.030123651 -0.0076447004 0.044994175
0.030414045 -0.0026771021 0.043968499
0.030451 0.0014932541 0.04382658
0.030488789 0.007330311 0.043616474
0.030142009 0.012329382 0.043121457
0.030370831 0.015663257 0.043173552
0.03140676 -0.012850001 0.040961146
0.031373978 -0.00784015 0.040727139
0.031236768 -0.0028336295 0.040405631
0.031111181 0.0021734587 0.040093839
0.031183004 0.007182607 0.039947629
0.031161785 0.01218933 0.039723516
0.03185302 -0.016971687 0.036525011
0.032308698 -0.013064159 0.036391854
0.032206059 -0.0080488604 0.036099076
0.031908095 -0.0030377083 0.035641193
0.031280994 0.0020117643 0.035974801
0.031725407 0.007433088 0.035591722
0.031878293 0.012012896 0.034997642
0.031092942 -0.013259328 0.032152534
0.030859947 -0.0082310168 0.031748533
0.029768407 -0.0032202215 0.030616283
0.029815733 0.0022086776 0.031723678
0.030113697 0.0065604574 0.031367838
0.030916572 0.01190376 0.030970991
0.030378103 -0.013411784 0.028856158
0.030254364 -0.0083911838 0.028005302
0.029641867 -0.003311832 0.028355718
0.028691411 0.00092044601 0.028452694
0.029800594 0.007186213 0.027521133
0.031070709 0.011979108 0.027059495
0.030855298 0.011616101 0.022292614
0.029356301 -0.013525975 0.026367426
0.028928816 -0.0034181315 0.025588632
0.028393328 0.0016655339 0.02578944
0.028609216 0.0058529614 0.024936318
0.030135036 -0.013697966 0.022703052
0.029810011 -0.0086421957 0.022216797
0.029217124 -0.0035907056 0.02150023
0.029303551 0.0014794929 0.021368027
0.029850483 0.0065517141 0.021632791
0.030426383 0.011309893 0.021211386
0.031298578 -0.013905709 0.018275619
0.030710101 -0.008676975 0.016731441
0.030136466 -0.0037930929 0.016854346
0.03052026 0.0012481523 0.015890598
0.030789196 0.0063261366 0.015919328
0.031018317 0.01139876 0.015912831
0.031526506 0.0061762533 0.012193441
0.03107053 0.011253321 0.011588275
0.030863941 0.014640586 0.011270046
0.030334771 -0.0022284114 0.013682306
0.030092061 -0.003661877 0.011772513
0.030945063 0.0010443418 0.01079309
0.03164649 0.0060989945 0.010107517
0.030882001 0.011179307 0.00922966
0.030832291 0.015724624 0.0097345114
0.031224668 0.0026200353 0.0076760054
0.032457054 0.006541369 0.0071373582
