# .PCD v0.7 - Point Cloud Data file format
VERSION 0.7
FIELDS x y z
SIZE 4 4 4
TYPE F F F
COUNT 1 1 1
WIDTH 414
HEIGHT 1
VIEWPOINT 0 0 0 1 0 0 0
POINTS 414
DATA ascii
0.026888844 0.033082686 0.18711689
0.02950719 0.026052438 0.18808064
0.02628364 0.028354058 0.18944964
0.022215202 0.030077327 0.18949625
0.017546812 0.031209301 0.18947098
0.012667232 0.032003403 0.18833187
0.0082935691 0.032577816 0.18877545
0.031094939 0.029017193 0.18599549
0.028237116 0.03177648 0.18675575
0.023715746 0.033318907 0.18634489
0.018990412 0.033804413 0.18527105
0.014542894 0.033872262 0.18429765
0.032027207 0.030741019 0.18181282
0.028927755 0.03340362 0.18246076
0.024558552 0.034814566 0.18201566
0.019723764 0.034516707 0.18067443
0.031773813 0.031587586 0.17768222
0.02929171 0.033589568 0.17721921
0.024911128 0.035005618 0.17677233
0.021530777 0.034863945 0.17661738
0.029597325 0.033882335 0.17382795
0.026054773 0.035365831 0.17366526
0.023527004 0.021178283 0.19030103
0.019261934 0.02311461 0.19109175
0.015141679 0.025292434 0.19115055
0.010610559 0.027069287 0.19056919
0.0043866583 0.028873833 0.19043535
0.00053625274 0.030378982 0.19079834
0.024854179 0.023323625 0.18960661
0.020372652 0.025686061 0.19012114
0.017728511 0.027388262 0.19033036
0.01049408 0.030885825 0.1888985
0.006597016 0.032745589 0.18740389
0.002293556 0.033695243 0.18734848
-0.002646408 0.034274552 0.18664247
0.01140476 0.033735037 0.18269923
0.0076039522 0.03421165 0.18224871
0.0027287072 0.034925826 0.18192464
-0.001911398 0.035068996 0.18207109
0.017932985 0.034412473 0.17804754
0.013628618 0.034180194 0.17849255
0.0080759134 0.034808084 0.1772528
0.0036441209 0.035486642 0.1774655
0.032530628 0.030082047 0.1756503
0.019471943 0.034863524 0.17484182
0.014488138 0.035175059 0.17399928
0.0095927455 0.03593152 0.17284894
0.032447211 0.030704917 0.17131472
0.029397169 0.032933697 0.17045474
0.024739049 0.034347549 0.17031512
0.020268761 0.035045985 0.16993809
0.016177783 0.035676662 0.1698451
0.012459322 0.036468323 0.17032668
0.032229677 0.031146957 0.1665388
0.029547652 0.033257235 0.1663155
0.025726482 0.034447696 0.16592818
0.021251606 0.034983519 0.16650558
0.00075400621 0.023085942 0.19045728
-0.0021096813 0.025174566 0.1915392
0.017880592 0.019829717 0.19160452
0.013328927 0.020934891 0.19094807
0.0086348914 0.022698 0.19016239
0.0051558441 0.024613386 0.18998
-0.0020427546 0.034964569 0.17870274
0.0029516909 0.035391327 0.17473572
-0.0020955466 0.034893468 0.17473221
0.0070618573 0.035752889 0.1710856
0.0035719099 0.034994815 0.17077291
-0.001421093 0.034875002 0.17012662
0.014439846 0.034854937 0.16718522
0.0095223077 0.034953929 0.16692466
0.0051910933 0.03498096 0.16731384
0.03212342 0.028438153 0.16395286
0.02977955 0.032885954 0.16315576
0.024215583 0.034319922 0.16328704
0.020161958 0.034613259 0.16357973
0.015693683 0.034043197 0.16305679
0.011646388 0.033793464 0.16294596
0.02957507 0.031917114 0.15971887
0.025384877 0.033962164 0.15947211
0.020688636 0.034213684 0.15868044
0.017011587 0.034052655 0.15911362
0.028893555 0.031767409 0.15568951
0.025478933 0.033602241 0.15484777
0.022376815 0.034311894 0.15528122
0.015517365 0.013951879 0.19044301
0.011201691 0.01575936 0.19023982
0.0067113903 0.017227372 0.19071576
0.0021453574 0.019242231 0.19055662
0.0012978585 0.033853225 0.16735983
-0.0019790372 0.035131916 0.16761708
0.0074455761 0.033959508 0.16366118
0.0028953431 0.033781584 0.16383904
-0.0015652766 0.03474234 0.16332775
0.014062935 0.033918615 0.16063729
0.0094405813 0.03365805 0.1603466
0.0047360957 0.033736147 0.15926224
0.030851763 0.027408389 0.15689069
0.019120336 0.034739166 0.1564303
0.015264726 0.034141846 0.15654159
0.010578858 0.034000233 0.15551624
0.0065652672 0.034413952 0.15558058
0.03329704 0.027341189 0.15054077
0.03023719 0.030488217 0.15249777
0.026042953 0.033547711 0.15170389
0.020767061 0.034731325 0.1529429
0.016323229 0.034324359 0.15220597
0.012221793 0.033991702 0.15201536
0.034702301 0.029582381 0.14906132
0.031051813 0.031884328 0.14796394
0.025897626 0.033206686 0.14731371
0.021916747 0.034561362 0.14966494
0.0028914567 0.010305516 0.19138059
-0.00057931291 0.012202894 0.19145632
0.0089537501 0.010394087 0.19034538
0.0046963161 0.012530281 0.19124976
0.00051526725 0.014735286 0.19129866
0.0024282327 0.033576686 0.1572763
-0.0017361166 0.033834402 0.15712786
0.0088223275 0.034112915 0.15294504
0.0038789846 0.034103949 0.15291533
-0.0010750797 0.033777237 0.15191647
0.014425257 0.033536024 0.14926106
0.010395035 0.033928894 0.1493018
0.0054271333 0.034542613 0.14859921
0.0015101321 0.03448968 0.14719012
0.023953544 0.032824479 0.14542925
0.020323586 0.032890517 0.14570886
0.015602388 0.03316173 0.14497331
0.011018039 0.034372311 0.14432445
0.0064577246 0.035117462 0.14393571
0.030849194 0.03033201 0.14198041
0.025619283 0.03285734 0.14162701
0.020978278 0.033320945 0.14102769
0.016458612 0.034133188 0.14068779
0.011745958 0.034854148 0.14028636
0.0083030611 0.035644311 0.14048427
0.029381778 0.030844221 0.13672429
0.026295014 0.033261694 0.13654053
0.021690153 0.033897035 0.13643828
0.018129049 0.034190036 0.13688147
0.02670753 0.03373456 0.13237956
0.02355852 0.034452349 0.13300321
0.0020567095 0.0062941541 0.19113308
-0.003179457 0.033874191 0.15012902
-0.0015480723 0.034428053 0.14595315
0.0057189595 0.035740886 0.14165437
0.00072083808 0.034963518 0.14173114
-0.0024747923 0.03457411 0.13936377
0.031861953 0.026204348 0.13798827
0.015526487 0.034235161 0.13801235
0.011363784 0.035529155 0.13801894
0.0067084227 0.03620806 0.13820013
0.0018348489 0.035748523 0.13718951
-0.0020616679 0.035314851 0.13708299
0.031396754 0.027595542 0.1346212
0.020908227 0.034369629 0.1340358
0.016382936 0.034330532 0.13427144
0.011704203 0.034849893 0.13338217
0.0071222284 0.035512269 0.13301665
0.0035034716 0.03583264 0.13337603
0.030442758 0.030698294 0.13106459
0.026945181 0.033934895 0.12941319
0.021834772 0.034625255 0.13041055
0.017315958 0.033877805 0.12951562
0.02965826 0.031834785 0.12649399
0.027043175 0.033698373 0.12567216
0.022784093 0.034456804 0.12570047
0.026501846 0.034009498 0.12207359
0.0024042749 0.003034987 0.19100961
0.00062646624 0.035257962 0.13403928
0.0062861824 0.03536116 0.13073531
0.0014150431 0.035239708 0.13017899
-0.002656932 0.034907296 0.12932399
0.031890042 0.026348647 0.12846771
0.01571581 0.033484358 0.12701845
0.011440276 0.033551358 0.12667882
0.0065611354 0.034277342 0.12658095
0.0025107237 0.03495786 0.12671632
0.030929368 0.028241394 0.1235798
0.021115409 0.034268845 0.1231094
0.01689251 0.033234373 0.12262344
0.012223911 0.032942574 0.12265223
0.029675726 0.029811114 0.11885649
0.027259201 0.032779671 0.11900175
0.022399554 0.034097254 0.11886907
0.018178366 0.033595812 0.11848468
0.027034178 0.032821521 0.11421365
0.023015823 0.034438498 0.11367917
-0.0026840484 -0.0048030857 0.19193429
0.0061636423 0.033000581 0.12271708
0.001003243 0.033751197 0.12296379
0.014826679 0.032596789 0.11935681
0.011156804 0.032753751 0.11968362
0.0063158823 0.032984294 0.11885089
0.0015448993 0.033477224 0.11790073
0.031747844 0.026662251 0.1167056
0.016445408 0.033296924 0.11577529
0.011695592 0.032913733 0.11464745
0.0075591742 0.032751691 0.11452281
0.031974129 0.027778644 0.11243773
0.028968338 0.030777734 0.11212569
0.021408251 0.034967281 0.11130536
0.017790195 0.034678459 0.11189991
0.012971179 0.034117483 0.110618
0.027590942 0.031614721 0.10824615
0.022818668 0.033688232 0.10695988
0.017879676 0.034441911 0.10783225
-0.0033335295 0.034748908 0.11693656
0.0063369554 0.033803817 0.1128608
0.0014482094 0.033935014 0.1134389
-0.0031532692 0.034849145 0.11312985
0.011449745 0.034404978 0.10834521
0.0073706503 0.034412801 0.10834205
0.0021815002 0.034623716 0.10877937
-0.0026656203 0.034782249 0.10850596
0.031453572 0.026079765 0.10611832
0.028041001 0.030077729 0.10463959
0.017688679 0.03359342 0.10422778
0.012786178 0.033857923 0.10403925
0.0076151784 0.03462106 0.10460311
0.0036164476 0.034867723 0.10478812
0.027735934 0.030682601 0.10076237
0.022982063 0.033354167 0.10084242
0.0181113 0.033566687 0.099627852
0.012552222 0.033419158 0.10010284
0.027348835 0.031556807 0.096268713
0.023649598 0.033414245 0.094922185
0.01998394 0.034003776 0.096310616
0.007043066 0.032999277 0.10133016
0.0013627997 0.033433232 0.10109407
-0.0030792998 0.03402748 0.10071033
0.011778772 0.032319412 0.096931398
0.0070587257 0.032632794 0.09708941
0.0023212312 0.033859007 0.096367478
-0.0015903274 0.034398202 0.096784055
0.030535802 0.025369668 0.093849599
0.029112816 0.028835712 0.094571054
0.017463326 0.033352379 0.094354033
0.012602436 0.032813527 0.093031883
0.0082791224 0.033406049 0.092808545
0.0042460887 0.033913631 0.0930264
0.029029768 0.029171074 0.089699864
0.024055768 0.032495558 0.08960104
0.018262537 0.033291399 0.089218259
0.013791263 0.033768699 0.088724256
0.027829781 0.030506441 0.085437894
0.024490029 0.032386646 0.084808052
0.019417077 0.03355452 0.085755825
0.025597215 0.033106025 0.081457496
-0.0030802712 0.034862712 0.094603896
0.0068000676 0.033451412 0.090535879
0.0025960514 0.034483425 0.090606451
-0.0022104792 0.035094623 0.089681149
0.012228595 0.033999529 0.086341321
0.0081318673 0.034084074 0.086370945
0.0033431323 0.03472371 0.085463583
-0.00033201091 0.034941755 0.085144401
0.029509 0.028850636 0.083533049
0.018910501 0.033594608 0.082827508
0.013521714 0.033817187 0.081917346
0.0092413817 0.033454757 0.081568956
0.029120822 0.029699806 0.078482866
0.025626305 0.032880303 0.079018474
0.019931497 0.033915177 0.07806462
0.014848974 0.033892512 0.076719224
0.025515903 0.032008618 0.074015498
0.022272423 0.032699473 0.073909342
-0.0033357963 0.034088369 0.083541393
0.0074048587 0.032748707 0.079089642
0.0023002336 0.032874614 0.07890892
-0.0022832667 0.033555366 0.07867974
0.03036131 0.026955482 0.076652884
0.012769135 0.034195367 0.075816154
0.0084773647 0.033358581 0.075116098
0.0034699906 0.0332244 0.074679136
-0.00048331264 0.033778436 0.075095773
0.028554346 0.027612854 0.071374357
0.025577154 0.031803187 0.071119249
0.020369371 0.032568652 0.070849121
0.015827322 0.03333243 0.070348024
0.010474077 0.033877183 0.070696831
0.0058933236 0.033655193 0.071020961
0.028452413 0.028192813 0.066604376
0.025537286 0.031176798 0.066735804
0.020841217 0.032632176 0.066165268
0.015742579 0.033257984 0.066571891
0.012427304 0.033925738 0.067284822
0.02587793 0.031514145 0.06275785
0.021799404 0.032463215 0.063272774
0.033076502 0.031278316 0.059095979
0.0032052398 0.033763673 0.072235227
-0.00068357866 0.033679716 0.072314978
0.029843569 0.024776213 0.069769084
0.0087423678 0.03374178 0.067941248
0.0048038866 0.033521812 0.067897439
-0.00013139844 0.032972869 0.067945778
0.030052178 0.026459079 0.065480053
0.015402461 0.033261057 0.064214706
0.010731332 0.03313534 0.064050794
0.0067534363 0.032987438 0.064637542
0.029994853 0.028342616 0.061032712
0.02609266 0.031843588 0.061209559
0.020776507 0.032411303 0.060206532
0.016429331 0.032805651 0.0602597
0.011945443 0.032034636 0.059512496
0.034237742 0.029666809 0.058304906
0.030780751 0.030937191 0.056688905
0.026643869 0.0326332 0.056787848
0.021701571 0.032198772 0.055013776
0.032516256 0.031229088 0.052599788
0.026560832 0.031852439 0.051994085
-0.0011102203 0.032301091 0.064326763
0.0082956813 0.032098752 0.061409831
0.0047002877 0.032102026 0.061202109
-0.00053595658 0.032482125 0.06070292
0.014366325 0.031806834 0.056714773
0.010209109 0.032439917 0.05685401
0.0047169393 0.032317061 0.056594372
3.6154874e-05 0.032462049 0.057232797
0.019416731 0.031986549 0.052700639
0.01611381 0.032174606 0.052981377
0.010885101 0.033065904 0.052583039
0.0060710278 0.033083007 0.052646339
0.030592177 0.029997634 0.049094141
0.026728222 0.031882521 0.048926473
0.021665685 0.032616213 0.04872179
0.016134439 0.032875478 0.048447371
0.011180492 0.033370838 0.048711181
0.035082377 0.03013178 0.046385407
0.03150551 0.029944928 0.044955134
0.027135599 0.032276936 0.044101655
0.022128625 0.033185869 0.044047415
0.017874189 0.033162195 0.044966698
0.034957878 0.029305164 0.042539835
0.031719934 0.030077398 0.04196018
0.027300041 0.032154307 0.039831579
0.022511821 0.033803269 0.041483283
-0.0007476816 0.032271698 0.05398953
0.0043279529 0.032991473 0.049859583
-0.00013875403 0.032437596 0.049273252
0.011309066 0.033365514 0.045588195
0.0061426219 0.032821998 0.045751035
0.016027935 0.032743145 0.041866779
0.011220695 0.032809347 0.041957498
0.0066749565 0.032746788 0.041343093
0.031574063 0.029214473 0.038057923
0.02742463 0.032206506 0.037791908
0.022204611 0.032602467 0.037262559
0.017253214 0.032761097 0.038250208
0.031073712 0.028517734 0.033602417
0.027042739 0.031369925 0.03334713
0.023383748 0.032094695 0.033387661
0.0033231536 0.031530786 0.043475747
-4.557427e-05 0.032200422 0.043840647
0.011761749 0.031574085 0.038022578
0.0049737203 0.032457214 0.039662361
0.00057442207 0.033239663 0.039528906
0.01640507 0.031454742 0.03462851
0.010860138 0.031921994 0.035216212
0.0059514316 0.032565262 0.034543693
0.001014323 0.03384022 0.034806669
-0.0025557391 0.034055836 0.03475368
0.032106627 0.027468083 0.031558692
0.027857367 0.030116372 0.029916346
0.021753663 0.031922292 0.031229973
0.01650051 0.031843591 0.031124473
0.011975545 0.032043006 0.03061235
0.0077555031 0.032146245 0.030587733
0.030195042 0.027498282 0.028013587
0.026767597 0.030132033 0.026514888
0.02222516 0.032016348 0.026908815
0.01710909 0.032255057 0.026559889
0.02596424 0.031356979 0.023729503
0.023927696 0.032184415 0.022906423
0.00069079362 0.032773916 0.030654192
0.010166088 0.031797033 0.02760911
0.005874204 0.032288801 0.027589202
0.001053785 0.03275001 0.026726127
0.028126026 0.027837303 0.023920059
0.017082639 0.031816017 0.022966385
0.01174999 0.032237206 0.023492515
0.0063903551 0.032516226 0.022821128
0.0019343002 0.032825287 0.022509158
0.029038563 0.025139464 0.019964397
0.027292129 0.029193092 0.020074606
0.021963701 0.031456847 0.019434094
0.017117323 0.031535264 0.019504547
0.011976864 0.032355621 0.019332707
0.0082349982 0.032273758 0.020056605
0.027062992 0.029484972 0.015271127
0.023272397 0.031831983 0.015726328
0.018406862 0.031301051 0.015809119
0.026024055 0.030096535 0.01187551
0.023814209 0.031400461 0.012091398
0.00028159469 0.032718126 0.020949543
0.011806457 0.031692855 0.016568899
0.0063562538 0.032446027 0.017047763
0.0015027774 0.032887515 0.01614219
-0.0027477955 0.032177083 0.015922427
0.028510958 0.027392052 0.012830019
0.020865584 0.031012094 0.012859106
0.016695546 0.031295456 0.01298058
0.012135637 0.03206953 0.012620091
0.0072048255 0.032843888 0.01166743
0.0034279581 0.033270326 0.012515187
0.029425498 0.024661515 0.0087892413
0.027666304 0.028736299 0.0089322329
0.0228002 0.031430289 0.0089153051
0.017720569 0.031723518 0.0078607202
0.012714784 0.032062542 0.0075663924
-0.00061617978 0.032528386 0.012611985
0.0053196852 0.033025455 0.0086382031
0.0012983205 0.032442272 0.0099644661
