# .PCD v0.7 - Point Cloud Data file format
VERSION 0.7
FIELDS x y z
SIZE 4 4 4
TYPE F F F
COUNT 1 1 1
WIDTH 405
HEIGHT 1
VIEWPOINT 0 0 0 1 0 0 0
POINTS 405
DATA ascii
0.033269722 -0.027532872 0.18680653
0.034531172 -0.025321227 0.18629426
0.035752449 -0.025680248 0.18378788
0.026510634 -0.029980207 0.18787077
0.028546654 -0.026354622 0.18957841
0.029736146 -0.022085818 0.18926722
0.031114383 -0.017692165 0.18880072
0.032830227 -0.012601674 0.18832815
0.034188822 -0.0073634326 0.18761137
0.034897469 -0.0043378863 0.18715498
0.028973052 -0.031078618 0.18596557
0.031511974 -0.028462322 0.18697
0.033425331 -0.023180949 0.18685535
0.034318816 -0.01918848 0.18562338
0.035245568 -0.013798942 0.18461135
0.035190519 -0.007920498 0.18471467
0.03050057 -0.031756043 0.18195969
0.033462245 -0.028949913 0.18250069
0.035633422 -0.024251346 0.18167654
0.036407419 -0.020255769 0.18169552
0.036222797 -0.016079472 0.18038255
0.0336827 -0.029327136 0.17728427
0.037181221 -0.025776168 0.17739055
0.037574764 -0.020969275 0.1771296
0.037445169 -0.017634381 0.17608142
0.035046905 -0.028969161 0.17372179
0.036009267 -0.026390377 0.17231432
0.038034014 -0.021323714 0.17385426
0.021113088 -0.022679629 0.19002724
0.022790344 -0.018818371 0.19060576
0.024833187 -0.014964489 0.19084543
0.027250186 -0.010637666 0.19043556
0.029430464 -0.0047821393 0.19010007
0.03052289 -0.00037713256 0.19031668
0.023243701 -0.024824563 0.18955374
0.02522647 -0.020198628 0.18981495
0.027365187 -0.016072473 0.18985179
0.029205054 -0.01100934 0.18945786
0.031194869 -0.0060044229 0.18916419
0.034583561 -0.0023592822 0.18740726
0.035245597 0.0020640912 0.18669429
0.03590335 -0.0083228182 0.18251368
0.036465868 -0.0035374016 0.18237469
0.037100255 0.0013766596 0.1816968
0.035620347 -0.012544162 0.17901272
0.036049768 -0.0085745994 0.17811555
0.036948573 -0.0039526485 0.17730102
0.037077591 0.00070873462 0.17712986
0.030114848 -0.031725783 0.17543316
0.036683213 -0.014035583 0.17458504
0.036907736 -0.009350311 0.17357928
0.037054081 -0.0052783694 0.17347348
0.030657625 -0.032615125 0.17096904
0.033859551 -0.029967882 0.17071459
0.036137391 -0.025712851 0.17035672
0.036894001 -0.021021452 0.17033982
0.036785346 -0.016193401 0.17029673
0.036542103 -0.011961902 0.1696102
0.032586373 -0.03343799 0.16720861
0.034504697 -0.030290315 0.16582569
0.035864037 -0.025710989 0.16533577
0.03662074 -0.021324789 0.16529182
0.036725741 -0.017786432 0.16652155
0.035436776 -0.029222101 0.16175577
0.036096565 -0.026997644 0.1614894
0.022452803 -0.00049712183 0.19003764
0.024443746 0.0020444542 0.19042778
0.01923454 -0.018092621 0.19088113
0.020581108 -0.013192436 0.1907146
0.02292623 -0.0088198297 0.19006774
0.024857095 -0.0044463044 0.1898649
0.027296647 -3.4343451e-05 0.19076204
0.036806356 0.0014839042 0.17427385
0.036103088 -0.0072415802 0.17042345
0.036076322 -0.0032813381 0.1704773
0.03601329 0.0012422306 0.16973567
0.035621166 -0.014782252 0.16681951
0.03500627 -0.0088272858 0.16613385
0.035114314 -0.0040057916 0.16658145
0.036361404 0.00095966272 0.16632468
0.031969432 -0.032786265 0.16257262
0.036713611 -0.021357885 0.16202754
0.035627291 -0.015587819 0.16312674
0.034835037 -0.011104749 0.16229343
0.031345591 -0.032664254 0.1602993
0.032871753 -0.030217711 0.15942857
0.035171576 -0.025713675 0.15814751
0.035767846 -0.020875273 0.15891743
0.035428829 -0.016162898 0.15806177
0.032093383 -0.029063694 0.1550054
0.034289729 -0.025490906 0.15358961
0.035066489 -0.021370124 0.15469152
0.013548534 -0.015329819 0.19085538
0.015083552 -0.010896116 0.19069847
0.017316004 -0.0067458381 0.19077381
0.018988352 -0.0020430512 0.19038931
0.034600742 -0.003139399 0.16351581
0.035593547 0.0011764877 0.16301906
0.034653984 -0.0085035432 0.16013402
0.035111424 -0.0038620029 0.1595616
0.03515736 0.00081389956 0.15960163
0.02851161 -0.031743132 0.15642729
0.034937203 -0.014187504 0.15506527
0.035290658 -0.010548516 0.15624505
0.035693455 -0.0057585379 0.15513325
0.030935278 -0.029247453 0.15228552
0.033680279 -0.026140172 0.15087587
0.035259966 -0.021045703 0.15117523
0.03512546 -0.01630405 0.15230113
0.035127047 -0.010990386 0.15233982
0.032164227 -0.029316785 0.14779508
0.034184583 -0.026131488 0.1469487
0.034975506 -0.021636505 0.14660379
0.0348708 -0.017856969 0.1486181
0.0073368791 -0.0076387334 0.19107518
0.00993999 -0.0035916804 0.19137472
0.010917665 0.00024845614 0.19085199
0.0098439883 -0.0086962264 0.19088972
0.012318068 -0.0046117925 0.19111133
0.013356477 3.8017984e-05 0.19039804
0.034804057 0.0016304832 0.15661862
0.035121437 -0.0032820981 0.15283319
0.034232162 0.0013625184 0.15183678
0.025560712 -0.030241864 0.15002364
0.033807348 -0.01399933 0.14867043
0.03419834 -0.010743375 0.14886594
0.035185009 -0.0054108864 0.1489723
0.035020564 -0.00059495028 0.14723942
0.028341515 -0.031033903 0.14642209
0.034196652 -0.015805576 0.14544362
0.034816835 -0.01119464 0.14465603
0.035818819 -0.006521245 0.1438494
0.035928991 -0.0025557848 0.14397225
0.029211544 -0.030337591 0.14132705
0.032993961 -0.025930371 0.14140248
0.033796079 -0.020961352 0.14108387
0.034074597 -0.016436048 0.14064333
0.035017531 -0.011480479 0.14011663
0.036276769 -0.0073054256 0.14009812
0.030402713 -0.029060371 0.13723522
0.032902744 -0.026141718 0.13664508
0.033661216 -0.022378001 0.13633803
0.033472877 -0.026575625 0.13284069
0.0058515696 -0.0018548688 0.19145218
0.034804709 0.0021753339 0.14579171
0.035592668 0.00017146394 0.14123625
0.027756495 -0.032421187 0.13914564
0.033671901 -0.015306338 0.13758701
0.034200866 -0.011281015 0.13667387
0.035796199 -0.0064517255 0.13695151
0.035991523 -0.0013782466 0.13793123
0.028058577 -0.030907206 0.1346114
0.033748969 -0.020180749 0.1348469
0.033318598 -0.016390739 0.13410684
0.033647362 -0.011518287 0.13371065
0.034004819 -0.0078830421 0.13357547
0.030260287 -0.029911041 0.13101548
0.033585012 -0.026750833 0.1303747
0.03406648 -0.021820918 0.13028485
0.033282388 -0.018094584 0.12956923
0.031068016 -0.029325569 0.12685478
0.033432361 -0.02670864 0.12587464
0.034130711 -0.022480138 0.12619686
0.034744725 -0.00082477834 0.13425589
0.032366578 -0.014211181 0.13065335
0.03330566 -0.010729458 0.13064775
0.034442242 -0.0062281317 0.13117245
0.033948906 -0.0012945803 0.12979972
0.0344088 0.0027826754 0.12986937
0.026862865 -0.030979116 0.12802935
0.032679785 -0.015735593 0.12719417
0.032826647 -0.011356962 0.12642699
0.033735763 -0.0063423817 0.12616348
0.034427803 -0.0031533567 0.12657672
0.028477093 -0.02988857 0.12340283
0.031742755 -0.028092531 0.12303025
0.033804871 -0.021722948 0.12312829
0.032808565 -0.01672804 0.12229264
0.032986593 -0.013139075 0.12199855
0.029533561 -0.029124532 0.11898494
0.032449014 -0.026641969 0.11938357
0.033631727 -0.022222877 0.11850363
0.033258542 -0.017733635 0.11877018
0.033441227 -0.024091126 0.11409467
-0.0044284714 0.0025364805 0.19217145
0.034208849 0.00045098551 0.1272437
0.032128185 -0.0092487102 0.12312603
0.033084787 -0.0061983387 0.12278265
0.033383206 -0.0010773689 0.12330532
0.032698318 -0.014866275 0.11943614
0.032907635 -0.010960985 0.12000078
0.0333605 -0.0064677061 0.11914563
0.033274416 -0.0014596228 0.11861515
0.034176625 0.002809193 0.11966604
0.029319275 -0.02835409 0.11566222
0.032976337 -0.016642608 0.11571902
0.033189058 -0.011803912 0.11486435
0.033369675 -0.0066706212 0.11431861
0.026359547 -0.030831698 0.11154091
0.030549701 -0.027314778 0.11222136
0.033446088 -0.021965958 0.11214799
0.03346077 -0.017319547 0.11093092
0.033865463 -0.012692284 0.11118037
0.030632516 -0.027549546 0.10841531
0.033170559 -0.022977848 0.10814351
0.033604618 -0.01841441 0.10744131
0.033768304 0.00027288403 0.11726868
0.034057353 -0.0070677809 0.11195248
0.033862341 -0.0014373641 0.11370337
0.034849152 0.0031532953 0.11312985
0.033957712 -0.012070524 0.10837793
0.034262076 -0.007516318 0.10853511
0.034492787 -0.0021276698 0.10867435
0.034814611 0.0030289385 0.10920215
0.025848636 -0.031369701 0.1059345
0.029942077 -0.027448289 0.10494739
0.032628097 -0.022132911 0.1048314
0.032738119 -0.01709421 0.10387599
0.033325572 -0.012665857 0.10458207
0.034055255 -0.0069348412 0.10449505
0.034222133 -0.0039067268 0.10510987
0.030115616 -0.027526654 0.10030472
0.032610491 -0.022700319 0.10023952
0.032808352 -0.018159008 0.099539399
0.032283124 -0.013777961 0.10105979
0.03112027 -0.026631027 0.096527815
0.032624844 -0.022900533 0.096327305
0.034051668 0.0032440778 0.10565084
0.032101948 -0.010157488 0.10174137
0.031972338 -0.006630729 0.10049886
0.03307534 -0.001563156 0.1013329
0.033188019 0.0031997431 0.10067558
0.031317394 -0.015310106 0.096910834
0.031488087 -0.011614399 0.097557724
0.032193933 -0.0068824673 0.096731842
0.033543091 -0.0024199318 0.096756816
0.027941173 -0.028642658 0.094329298
0.031289585 -0.023355763 0.093551159
0.032070402 -0.01730941 0.093832612
0.03216346 -0.012553858 0.092818022
0.028881745 -0.0284665 0.089812458
0.031363066 -0.023580983 0.089655042
0.03236036 -0.018125504 0.089098036
0.032965411 -0.014576429 0.089771569
0.030141927 -0.02764334 0.086129785
0.0318138 -0.023948656 0.086059928
0.033844378 -0.0015157815 0.094084978
0.034193799 0.0027983217 0.094909251
0.032167435 -0.010693736 0.089935541
0.032678179 -0.0073221796 0.091182351
0.034243386 -0.0027070399 0.090729237
0.035017531 0.0022425819 0.089617193
0.027682692 -0.030085338 0.087245941
0.032167803 -0.017054643 0.086006343
0.033003412 -0.012732442 0.086907625
0.033241823 -0.0080030523 0.085991442
0.034384139 -0.0032998901 0.08617568
0.034996361 0.00034593884 0.086191893
0.028677432 -0.029166287 0.083330572
0.031338669 -0.024785463 0.082968891
0.032268479 -0.018788567 0.082422674
0.032601569 -0.013598218 0.081761837
0.02900769 -0.028864745 0.079139829
0.031638786 -0.02514964 0.078219473
0.032413725 -0.020179722 0.078095973
0.032328639 -0.016614323 0.077839553
0.03258102 -0.0058559095 0.082524538
0.033363055 -0.0026164213 0.082999349
0.034095019 0.0027961219 0.083523929
0.032631993 -0.013145825 0.078915358
0.031317219 -0.0081087537 0.07933706
0.031994615 -0.0023849709 0.078445554
0.033061195 0.0024688225 0.078597426
0.027376223 -0.028816763 0.075743735
0.031269446 -0.019886974 0.074109256
0.032325979 -0.014939683 0.075561881
0.031786375 -0.0093864053 0.074987411
0.031740446 -0.0051981588 0.074895978
0.026614796 -0.028425539 0.071638286
0.029911108 -0.024809349 0.070715547
0.031143492 -0.020255223 0.070623934
0.03188026 -0.014755224 0.070472062
0.032628804 -0.011278547 0.070587635
0.02778447 -0.028231613 0.067607999
0.03019901 -0.025172491 0.065894365
0.031281084 -0.020262752 0.066355884
0.032140706 -0.016126346 0.067268908
0.0337147 0.0032442287 0.076164186
0.032222703 -0.0037046233 0.072674751
0.032619201 0.00089024846 0.072074771
0.024826027 -0.029861618 0.069811463
0.03165016 -0.0085453903 0.068012238
0.031537443 -0.0044990648 0.067641139
0.031755377 -0.00068401732 0.067868173
0.026683606 -0.029682703 0.065239131
0.031360906 -0.019527711 0.063743532
0.031608123 -0.015131093 0.064466715
0.031811211 -0.011033833 0.064573169
0.027811073 -0.027996678 0.060979486
0.029595098 -0.025204219 0.060273945
0.030183392 -0.020519026 0.060628533
0.028837096 -0.026886228 0.056135654
0.031171596 -0.0035417462 0.064976573
0.031500205 0.0011417046 0.065329671
0.030297335 -0.013829353 0.060978711
0.030667977 -0.0088944295 0.060918808
0.031005694 -0.0042151543 0.061276197
0.031787932 0.0010743914 0.060792327
0.025327852 -0.029188709 0.058525264
0.029343763 -0.019538296 0.056850195
0.030199576 -0.015069509 0.057428241
0.030962581 -0.0097901095 0.056925118
0.0310417 -0.0050009172 0.057052195
0.026116248 -0.029684279 0.054501653
0.029076712 -0.025114512 0.053331375
0.03005711 -0.020607397 0.052992582
0.030732088 -0.01502466 0.052757859
0.031611927 -0.010477303 0.052670121
0.032064099 -0.0067957886 0.053545535
0.026711756 -0.029428612 0.049451947
0.029905342 -0.025911996 0.04879564
0.030783895 -0.020647077 0.048482239
0.031713206 -0.016138382 0.048779309
0.03190067 -0.012336777 0.049073637
0.028597353 -0.02909141 0.046233654
0.030484449 -0.026378917 0.044313908
0.031581603 -0.021839749 0.045366943
0.031386726 -0.027793258 0.041542768
0.030546866 -0.003092614 0.053924382
0.030722838 0.0010745302 0.053993583
0.032069709 -0.0087512862 0.050035357
0.031525552 -0.0051702629 0.050471187
0.029779198 -0.00049041957 0.049635291
0.031654332 -0.015092115 0.045648634
0.031805161 -0.010391461 0.045933306
0.030968241 -0.0057093832 0.046022058
0.027449286 -0.030578423 0.043175459
0.031125791 -0.021002444 0.041860878
0.03084106 -0.016081437 0.041753232
0.031270076 -0.011463509 0.041940689
0.028063787 -0.030816913 0.038569212
0.029944792 -0.026258631 0.037144244
0.031129902 -0.021967849 0.038706303
0.030758496 -0.017796101 0.037445903
0.029725645 -0.0023474917 0.048136652
0.030303499 0.001410367 0.048086107
0.030397749 -0.0038940213 0.044101715
0.03060062 0.00074396003 0.04345417
0.029839152 -0.015559765 0.038068235
0.030742265 -0.00997716 0.039411366
0.031014133 -0.0050765029 0.039456666
0.03126885 -7.7392906e-05 0.039140165
0.026991064 -0.030823348 0.035004735
0.029867357 -0.020228948 0.035508215
0.030201025 -0.015229087 0.03537637
0.030691627 -0.010559977 0.03584671
0.031273946 -0.0071508219 0.036131084
0.026736325 -0.030861741 0.032322228
0.029143725 -0.026449062 0.03186208
0.029710917 -0.021261103 0.031478107
0.02967995 -0.017009165 0.031336308
0.027353916 -0.02956762 0.027310848
0.029032271 -0.026620941 0.027539611
0.02974081 -0.022701472 0.027010858
0.030657994 0.00088558905 0.035445452
0.029087983 -0.010059178 0.031219661
0.030192873 -0.0047784899 0.032033801
0.030995736 0.00015822053 0.032208562
0.028977429 -0.01503687 0.02791965
0.029056873 -0.010533796 0.028351903
0.029411804 -0.0057531511 0.027749121
0.030776126 0.00013127923 0.028820217
0.025015913 -0.029962353 0.024547637
0.028164186 -0.026459645 0.023561239
0.028684022 -0.020837761 0.023625612
0.028146153 -0.015473588 0.023831248
0.028407376 -0.010965126 0.024547875
0.025050744 -0.029846022 0.021281123
0.02814585 -0.026613876 0.020351171
0.028295876 -0.021681841 0.019728065
0.028257951 -0.0080991024 0.025550008
0.029063025 -0.0043141525 0.025333285
0.030226912 0.00027007423 0.025915325
0.027708959 -0.015400939 0.021292806
0.028656201 -0.010014427 0.021603227
0.029623851 -0.0051834369 0.021203578
0.030803366 -0.00041071326 0.020643353
0.027929857 -0.01996097 0.017348468
0.028076427 -0.01573522 0.017348886
0.029368568 -0.010799618 0.016539693
0.030084433 -0.0062019029 0.016129196
0.030472653 -0.0020438135 0.016353488
0.026952414 -0.026443861 0.01389122
0.028416818 -0.021584405 0.013241887
0.028772609 -0.016508084 0.011901021
0.029738689 -0.011604571 0.012209475
0.027548734 -0.026750226 0.0081783533
0.028978586 -0.02267305 0.008251071
0.030587917 0.0016496871 0.017265737
0.030372495 -0.0045775399 0.013566494
0.030305192 -0.00080768857 0.014305472
0.029344914 -0.010150219 0.0097061396
0.02967195 -0.005668527 0.0093902946
0.030002542 -0.0013436601 0.0095798969
0.029786162 0.0017119404 0.0089321136
