# .PCD v0.7 - Point Cloud Data file format
VERSION 0.7
FIELDS x y z
SIZE 4 4 4
TYPE F F F
COUNT 1 1 1
WIDTH 446
HEIGHT 1
VIEWPOINT 0 0 0 1 0 0 0
POINTS 446
DATA ascii
0.029945202 0.025852758 0.18941155
0.027231768 0.02877583 0.18968433
0.024283905 0.030973732 0.18882349
0.03185172 0.026710566 0.18672332
0.029040348 0.030189291 0.18718365
0.025036734 0.032432601 0.18654978
0.03399504 0.028409014 0.18342644
0.031438291 0.032227643 0.18324366
0.026340675 0.032666091 0.18330622
0.03465366 0.029330907 0.17916456
0.032369427 0.032995105 0.17804259
0.016720003 0.028037926 0.1912289
0.013515815 0.031349421 0.19106579
0.033383135 0.016173549 0.1879479
0.031465322 0.01894315 0.18885621
0.028952375 0.022449248 0.18955699
0.024571333 0.025997296 0.19051009
0.021120297 0.030290851 0.18997845
0.01720937 0.032654144 0.1888428
0.01364213 0.033465482 0.18837991
0.034765787 0.017395489 0.18549645
0.034014903 0.021015143 0.18574274
0.0322286 0.024168938 0.18665299
0.023019128 0.033272538 0.1851148
0.019329302 0.034460191 0.18428144
0.03475453 0.022210559 0.18177184
0.034217935 0.025320135 0.18222374
0.024961354 0.033599079 0.1809907
0.020877436 0.034447636 0.17994729
0.034505311 0.023144495 0.17780191
0.034646016 0.02682744 0.17671978
0.030140854 0.033747107 0.17474455
0.026087247 0.033570856 0.17656428
0.021857463 0.034351427 0.17637879
0.033955179 0.027715182 0.17310998
0.031672437 0.031573545 0.1715925
0.027124908 0.032840531 0.17285097
0.029226262 0.011034767 0.19020331
0.026531097 0.013866488 0.19099206
0.023700736 0.01760722 0.19117966
0.01988478 0.020937141 0.19060579
0.015410302 0.025136566 0.19078767
0.012542681 0.028024673 0.19128925
0.032108661 0.012472504 0.18833035
0.029077627 0.015795615 0.18981421
0.025829516 0.019665476 0.19031134
0.022502609 0.022858862 0.19004217
0.01148687 0.033470582 0.18695453
0.034682676 0.010638336 0.18445683
0.034754731 0.014221507 0.18348211
0.012327752 0.034019027 0.18162721
0.034749825 0.016030889 0.1789059
0.034662221 0.019738991 0.17885625
0.018319398 0.034768857 0.17801434
0.014101669 0.034081198 0.17733994
0.034694061 0.016582044 0.17508453
0.034433652 0.020393835 0.17452866
0.023329468 0.033507749 0.17400074
0.019529097 0.034089617 0.17328876
0.034427255 0.021252858 0.17035061
0.033491172 0.025262462 0.1702812
0.030362507 0.030917408 0.16858634
0.024824018 0.032843579 0.16964105
0.021287667 0.033479128 0.17022431
0.033756547 0.026374698 0.16543883
0.031119537 0.030895673 0.16481468
0.026534798 0.032529119 0.16475695
0.034138579 0.028183796 0.16051731
0.032625128 0.031007929 0.16008216
0.029240852 0.032856371 0.15955126
0.033253372 0.031433187 0.15688425
0.018063303 0.011981919 0.19079843
0.014738329 0.015252525 0.19056118
0.010813482 0.019020081 0.19024363
0.0075827027 0.024058707 0.19121653
0.023718884 0.011062464 0.19125444
0.020822385 0.01476304 0.19139183
0.016525635 0.016994765 0.19027966
0.014020482 0.021033471 0.18983054
0.034625936 0.01276246 0.17663348
0.011897879 0.033981159 0.17438805
0.034824438 0.01519384 0.17234564
0.0166445 0.033281222 0.16967487
0.013144859 0.033644043 0.17020777
0.035040703 0.015877999 0.16803932
0.034057297 0.01870255 0.16739339
0.018260362 0.032520436 0.16645262
0.014228965 0.032963365 0.16648912
0.034945443 0.01603926 0.16389036
0.034183178 0.020310333 0.16379538
0.034183562 0.024043996 0.16332862
0.024101663 0.032793548 0.16284347
0.019925274 0.032278992 0.16208404
0.03431591 0.020996854 0.15956226
0.034228701 0.025361883 0.15889898
0.025716787 0.033606924 0.15794444
0.022188924 0.03369746 0.15781164
0.033736691 0.025954204 0.15465108
0.032449391 0.030419458 0.15320963
0.027480269 0.033144515 0.15281072
0.022588596 0.033902679 0.15437388
0.031497557 0.030710688 0.14941308
0.028445281 0.032778241 0.14892685
0.019467285 0.0067299306 0.19025752
0.015346234 0.009844684 0.19095576
0.012090671 0.012675998 0.19103137
0.0089510726 0.016861595 0.19053751
0.010543372 0.033816185 0.16780844
0.03431711 0.011425876 0.16527623
0.016359542 0.032712035 0.16373262
0.012501567 0.033611383 0.16382068
0.034679931 0.014468267 0.16120124
0.034100719 0.017212056 0.16118824
0.017412195 0.032679584 0.1601541
0.013656642 0.033612311 0.15930933
0.034634043 0.015291598 0.15780395
0.034081113 0.018333718 0.15638351
0.018363375 0.033147153 0.15561286
0.015261116 0.033395231 0.15507913
0.033568975 0.019807901 0.15303171
0.032980129 0.023849078 0.15180472
0.020871326 0.034249585 0.15114707
0.032799311 0.02457376 0.14758679
0.032057807 0.028930873 0.1470052
0.027584601 0.033445213 0.14666662
0.022325289 0.03479271 0.14659038
0.033197176 0.026158316 0.14317176
0.03179308 0.029388547 0.14227641
0.028812254 0.033204895 0.14243406
0.025563076 0.034631725 0.14119267
0.031173797 0.030470857 0.13842374
0.028873505 0.033123832 0.13797158
0.0066863024 0.0079512978 0.19168931
0.0041611427 0.011523048 0.19147933
0.012522168 0.0060212649 0.19059244
0.0092394659 0.009889218 0.19134209
0.0057021119 0.012994567 0.1909408
0.010904058 0.033649288 0.15673172
0.033697467 0.011828545 0.15390158
0.012172563 0.033098966 0.15216261
0.033500064 0.012832388 0.14984369
0.033487726 0.017296698 0.14996827
0.014134145 0.033051863 0.14775258
0.033245999 0.018123168 0.14544311
0.032631952 0.022057209 0.14539653
0.019597383 0.034870759 0.1447961
0.016535282 0.034063358 0.14377403
0.033862144 0.018924842 0.14111146
0.033144854 0.023492754 0.14119244
0.032332443 0.027274411 0.13943955
0.021441091 0.03463411 0.14091375
0.018044144 0.034551244 0.13908464
0.033677306 0.024264665 0.13635853
0.031964328 0.028618647 0.13582739
0.0291596 0.032258727 0.13514364
0.02404809 0.033703376 0.13560313
0.033992045 0.024770858 0.13214046
0.031913642 0.028806562 0.13062659
0.028785741 0.031766046 0.13066164
0.025687577 0.03348837 0.13118461
0.0044882889 0.0048076198 0.19192404
0.010719308 0.032978714 0.14595616
0.033243451 0.011911079 0.14270067
0.033005685 0.014810422 0.14257345
0.012544429 0.033414766 0.14139497
0.033360623 0.01655094 0.13831434
0.014322462 0.034169506 0.13694483
0.033741694 0.018584628 0.13457865
0.034191437 0.022136897 0.134193
0.021570517 0.034043178 0.13403115
0.017675236 0.034015596 0.13317329
0.033991233 0.019484773 0.13090762
0.033839591 0.022830132 0.12972307
0.033030625 0.027278565 0.1283375
0.027920628 0.032183725 0.12792408
0.023102162 0.033343002 0.12900007
0.019381147 0.033873081 0.12893444
0.033407386 0.024367092 0.12559599
0.032222949 0.028470956 0.12461519
0.029003084 0.031947326 0.12454188
0.024224428 0.033163309 0.12413657
0.031643264 0.029250586 0.11934918
0.029330248 0.031947643 0.11891055
0.026299167 0.033475347 0.11993134
0.00053283363 0.0013812233 0.19228226
0.0326523 0.013945931 0.13528454
0.032189269 0.013945851 0.13118434
0.014713221 0.033861779 0.13028443
0.011568493 0.03413403 0.12969941
0.032748766 0.016856641 0.12705696
0.016299825 0.033601031 0.12590438
0.011839795 0.034223169 0.1260168
0.03261954 0.01761394 0.12346673
0.03380885 0.021620661 0.12361676
0.022410564 0.033520412 0.12235045
0.018224856 0.033987843 0.12186742
0.033040475 0.022860743 0.11872762
0.032359812 0.026764715 0.11868799
0.024100788 0.033737332 0.11812019
0.019784624 0.034226477 0.11720198
0.033283345 0.023823777 0.11368251
0.032672718 0.028036026 0.11469334
0.030102126 0.032136209 0.11383039
0.024580061 0.033684839 0.11356062
0.020934891 0.034598637 0.11362046
0.032285742 0.028234599 0.1104154
0.029767428 0.031260449 0.10904312
0.026487406 0.033129226 0.11010242
-0.0065137041 -0.0055108755 0.19292226
-0.0037116569 -0.0027830882 0.19244847
0.031666264 0.011039114 0.12953597
0.032163098 0.012086707 0.12502337
0.010649326 0.034061398 0.123034
0.032463219 0.014968927 0.12015742
0.015483754 0.034069642 0.11916131
0.011534965 0.034438729 0.11889809
0.032191209 0.016680842 0.11594206
0.031988826 0.018669577 0.11484104
0.016685423 0.034115858 0.11456221
0.013062167 0.033767447 0.11475521
0.032981798 0.020561727 0.11141187
0.023109317 0.033198282 0.11021268
0.019375291 0.03426433 0.110232
0.032611147 0.023275236 0.10663748
0.032132741 0.026870485 0.10699064
0.027901731 0.031355135 0.10672933
0.023855397 0.032609411 0.10639626
0.020348227 0.033704177 0.10695124
0.031844053 0.027413908 0.10263926
0.02909885 0.030798987 0.1025148
0.025143309 0.032151878 0.10227835
0.031381581 0.028323224 0.098586917
0.029878139 0.030868366 0.098233163
0.032426652 0.010362767 0.11987346
0.032087911 0.012900479 0.11446464
0.010653317 0.034354966 0.11306471
0.032079287 0.014777472 0.10962814
0.032204498 0.018431483 0.10794789
0.015290163 0.033401247 0.10891461
0.011553471 0.033530172 0.10855347
0.031812295 0.015658544 0.10635066
0.031964786 0.018732393 0.10466081
0.021942539 0.032837406 0.10345745
0.017544415 0.033571452 0.10355383
0.031944085 0.022180982 0.099756241
0.032413442 0.024948165 0.10043651
0.023753455 0.032913148 0.099890471
0.019395927 0.034348555 0.099055171
0.03232345 0.026558561 0.095979273
0.029613145 0.03147475 0.095705211
0.025279302 0.03342367 0.095712543
0.021285985 0.034539539 0.094493985
0.032245398 0.02783451 0.091242552
0.030355548 0.031406779 0.091602325
0.026271714 0.033384368 0.090931296
0.032448899 0.028648017 0.086360216
0.030631702 0.031402472 0.086743236
0.027493306 0.032843281 0.086671948
0.03138895 0.0095535107 0.10706556
0.03151783 0.011910789 0.10272723
0.031231616 0.014758941 0.10159624
0.010672485 0.03310924 0.10123467
0.030947443 0.016544551 0.098337471
0.012158198 0.034037441 0.096793354
0.031497423 0.019090511 0.093930721
0.018329047 0.034658898 0.093160272
0.014082818 0.034596957 0.092304647
0.03131257 0.020159101 0.089678645
0.031405281 0.02396379 0.088344574
0.023650751 0.032532599 0.087294042
0.019250112 0.033958428 0.088170648
0.015309348 0.034698814 0.088631928
0.031655125 0.025473749 0.084232032
0.030614033 0.031208228 0.083606958
0.024642844 0.032500107 0.083673716
0.021093965 0.033283815 0.08417815
0.032293085 0.028115148 0.07992065
0.030366641 0.030774865 0.08019495
0.025875323 0.032778677 0.079622149
0.02964968 0.031019358 0.076853991
0.027750693 0.032547958 0.076543212
0.031515718 0.010717449 0.096002221
0.031283766 0.014397851 0.095435858
0.032564804 0.012181493 0.091410398
0.03191141 0.01535316 0.091751754
0.01122665 0.034799814 0.089868546
0.032474689 0.012726707 0.087187111
0.031979259 0.016827973 0.086993754
0.031156 0.020560626 0.086429656
0.016897216 0.033803165 0.08504498
0.013150027 0.034743793 0.085387945
0.031400863 0.018249219 0.082322836
0.031045651 0.021099104 0.082184553
0.018536204 0.033597592 0.081546307
0.014783718 0.034391284 0.080570161
0.03121501 0.023514779 0.07785809
0.023604222 0.033104278 0.077437162
0.020701984 0.033680096 0.077046633
0.030984221 0.025728663 0.074137211
0.030369317 0.029558191 0.07369411
0.025604468 0.032557677 0.073230088
0.021492096 0.033114627 0.073128223
0.02996164 0.029302729 0.069164515
0.026933543 0.031367179 0.06928575
0.0322445 0.014588573 0.08395642
0.032087028 0.011307532 0.080626488
0.031139243 0.01438542 0.080149591
0.010807323 0.033931132 0.079031825
0.03067936 0.015587427 0.076077521
0.030630132 0.019405087 0.07635808
0.016769132 0.033181205 0.074461699
0.012845851 0.03359003 0.07441783
0.030579548 0.021332301 0.07120204
0.023254225 0.032371014 0.069677353
0.019107819 0.032475457 0.069726408
0.014337244 0.032959446 0.0708552
0.030692855 0.022317598 0.066645622
0.029374462 0.027871072 0.066113412
0.024513133 0.031106461 0.065630317
0.019975508 0.032036994 0.065471888
0.029464517 0.027029961 0.061850011
0.026911678 0.030609077 0.060863256
0.023135785 0.031815864 0.06104672
0.029631184 0.028047705 0.05808264
0.027575998 0.030848807 0.056571424
0.032145701 0.010791143 0.075094461
0.031393856 0.013812009 0.073504806
0.010218651 0.033671223 0.072916508
0.030374808 0.015013216 0.069553792
0.030668728 0.018977057 0.068960786
0.013009533 0.03227675 0.0669505
0.010238344 0.033507638 0.06872046
0.029913738 0.015633602 0.064642012
0.030936787 0.019557076 0.064780533
0.018927576 0.032478094 0.064046919
0.01469606 0.031442598 0.063366532
0.030436166 0.021157984 0.059935272
0.03008212 0.02479375 0.060376406
0.01992189 0.032058321 0.059230089
0.030882157 0.022993989 0.055707097
0.030504849 0.026463527 0.055657744
0.025969742 0.031983688 0.055590153
0.022691257 0.03263744 0.055681884
0.030353136 0.027598865 0.05131942
0.028115682 0.031273525 0.051556528
0.023406073 0.031543132 0.050632417
0.028142221 0.030163474 0.04649055
0.030069649 0.012812323 0.066679716
0.030654881 0.013601668 0.062429786
0.012872026 0.031849068 0.060412526
0.031240437 0.014189735 0.058057666
0.03054885 0.01810387 0.056990623
0.013993287 0.031626295 0.055997789
0.031448856 0.015868986 0.053690255
0.030957306 0.020206353 0.053164363
0.019965136 0.032105442 0.051624298
0.015003689 0.032355461 0.052221894
0.031426899 0.020769022 0.048512578
0.030511558 0.025255296 0.048004389
0.025679909 0.031290237 0.047697783
0.021191042 0.031552281 0.04751873
0.016729861 0.031933226 0.048841
0.031606734 0.022234935 0.044170916
0.030214187 0.02661974 0.044272304
0.027158085 0.030519623 0.043366015
0.022085741 0.031776499 0.044050753
0.030647971 0.02537303 0.041117072
0.026917782 0.029731795 0.039138198
0.024180237 0.031723931 0.039614379
0.031368695 0.011775009 0.055068731
0.031703331 0.012790757 0.051200747
0.012584232 0.032618515 0.049837708
0.031617437 0.014619931 0.046954334
0.014417769 0.032143705 0.04515934
0.010279193 0.032525484 0.045205295
0.031313755 0.01559029 0.042363703
0.031546209 0.019349143 0.042502522
0.020019114 0.031629402 0.040844083
0.016224878 0.031979062 0.040514588
0.030850818 0.021121388 0.038113892
0.029279817 0.024945136 0.036825001
0.026771219 0.029461781 0.036766171
0.022121221 0.03193742 0.037380755
0.028661681 0.02531427 0.033445477
0.026444716 0.029201346 0.032408297
0.023395281 0.031718548 0.031657577
0.025936434 0.030520363 0.02829808
0.024554286 0.031488463 0.027977347
0.031676333 0.012525258 0.044056118
0.031681914 0.012671153 0.040238738
0.030749783 0.017145727 0.038633108
0.013644784 0.032357909 0.038697064
0.031132203 0.014014069 0.035383463
0.030620765 0.01855896 0.035085142
0.018920461 0.031001216 0.033761501
0.015155137 0.032408424 0.034793019
0.011141454 0.032861207 0.034214973
0.030671198 0.019354243 0.03128624
0.028807754 0.023560127 0.030920506
0.027160557 0.027110929 0.0292449
0.019984249 0.031866066 0.030648291
0.016683597 0.033331055 0.030471563
0.030692235 0.021069404 0.026915193
0.029348707 0.024443315 0.026941717
0.027065467 0.028740246 0.026693821
0.022464324 0.032494321 0.02650851
0.018018499 0.034084026 0.025574803
0.029347502 0.025759503 0.022678316
0.027600713 0.029486433 0.022301793
0.023680158 0.032361072 0.021731496
0.019431978 0.033207916 0.021381736
0.028030923 0.029691713 0.018375039
0.025042085 0.031419352 0.017455578
0.031371661 0.011122648 0.033459008
0.03069444 0.012359407 0.029434621
0.030500913 0.016248791 0.028312802
0.01098627 0.032989748 0.02720654
0.030168392 0.013357249 0.025351822
0.03060364 0.018052198 0.024023473
0.012091718 0.033279363 0.023212194
0.02980344 0.01972096 0.019059837
0.029491279 0.023352187 0.019186676
0.021006044 0.032202158 0.017469287
0.017493563 0.033097826 0.018767118
0.029612584 0.024509618 0.0154562
0.026878214 0.028813282 0.014055729
0.022505214 0.031636707 0.014626503
0.018079823 0.032774057 0.014820218
0.028960695 0.025570078 0.012171984
0.026833011 0.028130354 0.010851562
0.023364829 0.030674679 0.011559546
0.030274544 0.0095351785 0.026104689
0.030079138 0.011159107 0.02228713
0.030097928 0.012772243 0.017351747
0.029805344 0.015825532 0.017425716
0.0134371 0.031897988 0.015660644
0.010323504 0.032089204 0.016313076
0.0300407 0.018399179 0.012978077
0.029558279 0.021441516 0.012284875
0.015827138 0.032415241 0.011320472
0.030545549 0.019172391 0.0077337623
0.029478215 0.023218665 0.0086369514
0.026677707 0.027229207 0.0078340769
0.022111727 0.030797148 0.0079935789
0.029474251 0.011145786 0.011058092
0.029953621 0.014666318 0.011804342
