# .PCD v0.7 - Point Cloud Data file format
VERSION 0.7
FIELDS x y z
SIZE 4 4 4
TYPE F F F
COUNT 1 1 1
WIDTH 359
HEIGHT 1
VIEWPOINT 0 0 0 1 0 0 0
POINTS 359
DATA ascii
-0.02643821 -0.019615768 0.19140533
-0.025589678 -0.022588555 0.19148517
-0.023867372 -0.025197277 0.1909762
-0.033516016 -0.0092587546 0.18930802
-0.031622615 -0.014126845 0.18889523
-0.029389884 -0.019172292 0.18880674
-0.027638998 -0.023265667 0.18832463
-0.025236003 -0.026201744 0.18897825
-0.03249513 -0.014296913 0.18492687
-0.020372437 -0.017277159 0.19280076
-0.019692387 -0.020340977 0.19299358
-0.031486064 0.0014178203 0.19186124
-0.03017759 -0.0028689271 0.19215149
-0.028828925 -0.007328718 0.19222566
-0.026581181 -0.011990808 0.19164389
-0.024361704 -0.016599143 0.19179884
-0.023264948 -0.021724988 0.19265008
-0.034177989 0.00068439636 0.188391
-0.033975355 -0.0044157533 0.18862113
-0.034499507 -0.0077148778 0.18662837
-0.030182544 -0.017562365 0.18600082
-0.024392543 -0.027256314 0.18667239
-0.035353974 0.00022273324 0.18396097
-0.034739483 -0.0041092131 0.18277568
-0.034049738 -0.0090139387 0.18298453
-0.032934174 -0.01438644 0.18303132
-0.030266222 -0.019112118 0.18273118
-0.027968854 -0.023150586 0.18215442
-0.02546561 -0.02711121 0.18143734
-0.034756146 -0.0057682563 0.17910817
-0.034248382 -0.0090519432 0.17786804
-0.03329565 -0.014307325 0.1781331
-0.031077158 -0.01922385 0.17778084
-0.028690675 -0.02323465 0.17713979
-0.025873009 -0.02678307 0.17723864
-0.035091341 -0.00986748 0.17466176
-0.034352794 -0.014017491 0.17341468
-0.032337606 -0.018407214 0.17289484
-0.029304666 -0.022508528 0.17370468
-0.03578528 -0.014127026 0.17047003
-0.034340419 -0.016865892 0.17014268
-0.024703111 -0.00058917049 0.19211739
-0.0225804 -0.0047821179 0.1925936
-0.02117442 -0.0092435274 0.19262984
-0.019052714 -0.013879515 0.19241175
-0.016821411 -0.019213863 0.19291031
-0.034923747 0.00081575383 0.18030989
-0.034514733 0.0012095412 0.17630792
-0.034182295 -0.0034912573 0.17622727
-0.034247518 -0.0070452634 0.17539293
-0.025016051 -0.027091146 0.17430109
-0.03451436 -0.00021012779 0.17137837
-0.034116793 -0.0033937991 0.17086938
-0.034674868 -0.008475557 0.17174917
-0.030326227 -0.020309545 0.17112207
-0.027483255 -0.022727542 0.17025277
-0.024683814 -0.026182428 0.16999301
-0.034395568 -0.0050324844 0.16768569
-0.03427463 -0.0086845476 0.16763777
-0.033760741 -0.013142593 0.16691384
-0.031073343 -0.017820371 0.16665357
-0.027369313 -0.02231434 0.16692841
-0.025656966 -0.024966147 0.16641542
-0.033379145 -0.01281267 0.16312742
-0.020463713 0.0011793887 0.19203547
-0.017748775 -0.0027758165 0.19212332
-0.01536079 -0.0068816673 0.19243371
-0.014064824 -0.01173227 0.19205886
-0.034207236 0.0032438124 0.17000517
-0.023603324 -0.027551005 0.16752857
-0.034467317 0.001836299 0.16535258
-0.033972435 -0.0028082561 0.16485989
-0.03368954 -0.0075328839 0.16452256
-0.029380487 -0.018791888 0.16373518
-0.026686292 -0.021916062 0.1636312
-0.024393581 -0.026259942 0.16380668
-0.033930682 -0.0032227375 0.16095951
-0.033776864 -0.0077888616 0.16043857
-0.032969482 -0.012534623 0.160712
-0.030645492 -0.017480321 0.16053122
-0.027552849 -0.022094131 0.1595574
-0.024677873 -0.025428131 0.15907007
-0.034519769 -0.0084422436 0.15606436
-0.034404889 -0.012912487 0.15633932
-0.032283191 -0.017091315 0.15588638
-0.029359654 -0.020954054 0.15531904
-0.035189021 -0.0096656103 0.15238041
-0.034861181 -0.01289293 0.15193838
-0.032892268 -0.016742609 0.15198091
-0.030743573 -0.019667998 0.15170377
-0.0095161647 -0.0044658273 0.19134027
-0.013528135 -0.00099608302 0.19116661
-0.0093306135 -0.010286378 0.19050241
-0.033535406 -0.0021357043 0.15794635
-0.023372706 -0.026512992 0.15660137
-0.034286465 0.0023719119 0.15316692
-0.033963274 -0.0024350584 0.15377077
-0.034180447 -0.0064830869 0.15353972
-0.027014483 -0.022454813 0.15272963
-0.023904439 -0.025441881 0.15232196
-0.034256194 -0.0033256207 0.14886546
-0.03461758 -0.0073749912 0.14938113
-0.0344669 -0.012587092 0.14878717
-0.032148827 -0.017076928 0.14902791
-0.028476944 -0.021407312 0.14855859
-0.024703395 -0.025358099 0.14738828
-0.034285732 -0.0083817504 0.14520544
-0.034087334 -0.012467835 0.14496189
-0.032568879 -0.016717933 0.14468148
-0.030006623 -0.020745324 0.14390057
-0.027209949 -0.024032176 0.14356071
-0.032830399 -0.016972663 0.1403496
-0.030942425 -0.020946862 0.13980919
-0.029180523 -0.02365586 0.14020881
-0.00507958 -0.0026217941 0.1902808
-0.03383594 0.0032992335 0.14717007
-0.033690877 -0.00068706274 0.14705929
-0.024036221 -0.026918489 0.14516699
-0.03344297 0.0017803134 0.1430158
-0.033542864 -0.0022538304 0.14271021
-0.033939835 -0.0064074667 0.14263237
-0.034105066 -0.010442583 0.14238143
-0.025231415 -0.025794152 0.14135057
-0.033492021 -0.0069319243 0.13850784
-0.033265792 -0.011612118 0.13827246
-0.033133812 -0.016218819 0.13780385
-0.03090154 -0.020813029 0.13688788
-0.026832595 -0.025166385 0.13708299
-0.023286186 -0.028045008 0.13729879
-0.033130378 -0.011373186 0.13429558
-0.032726061 -0.016508086 0.13352549
-0.030360393 -0.020435296 0.13284248
-0.027993212 -0.023481481 0.13299763
-0.0025275708 -0.0015985591 0.19047159
-0.032983441 -0.00015847944 0.13995969
-0.033054948 -0.0011133524 0.13574022
-0.033190072 -0.005887161 0.13547948
-0.033222921 -0.0021181842 0.1315847
-0.034217235 -0.0065651364 0.13199103
-0.033180807 -0.011260307 0.13141644
-0.032299615 -0.014288262 0.13056093
-0.029554516 -0.020004354 0.13003513
-0.026945032 -0.024685923 0.13064668
-0.023324035 -0.027792893 0.12957078
-0.034524262 -0.0070261741 0.12715191
-0.033375237 -0.011119567 0.12668264
-0.031499181 -0.015497836 0.12643272
-0.029329192 -0.019525971 0.12645519
-0.026997134 -0.023977458 0.126329
-0.024390008 -0.027232379 0.1262911
-0.032990202 -0.01163699 0.12266046
-0.031906661 -0.013768954 0.12242252
0.0040906142 0.0010619282 0.19084051
-0.032810792 0.0008130949 0.12982601
-0.032983333 0.00016584899 0.12513691
-0.034072556 -0.0049821353 0.12442422
-0.02780964 -0.019890316 0.12301171
-0.026160065 -0.023516992 0.12273991
-0.023433939 -0.027859166 0.12329137
-0.03325684 -0.00100521 0.12097865
-0.033855237 -0.0058203228 0.1199224
-0.033124886 -0.010460013 0.11996651
-0.030801954 -0.015146469 0.11979663
-0.028586611 -0.01919594 0.11947948
-0.025625266 -0.023145907 0.11838186
-0.023669507 -0.02704015 0.1182422
-0.03361268 -0.0063937553 0.11597615
-0.032981247 -0.010441696 0.11552906
-0.030739514 -0.014698023 0.11499691
-0.028329609 -0.01888592 0.11433208
-0.026515959 -0.021633863 0.11471689
0.0058969394 0.0069567226 0.19152293
0.0076155243 0.0024631643 0.19137779
-0.033088978 0.003006421 0.12317824
-0.033719279 0.0011924617 0.11963326
-0.033827696 0.00030084606 0.11469626
-0.033764131 -0.0054867147 0.11389732
-0.032987159 -0.010306559 0.11255324
-0.031075001 -0.014713269 0.11228621
-0.029146394 -0.01911266 0.11200583
-0.026380662 -0.023237372 0.11304331
-0.023469774 -0.027532477 0.11345989
-0.033849195 -0.0010182094 0.11090457
-0.03425049 -0.0048307423 0.10941571
-0.033876956 -0.010514652 0.10928297
-0.032034893 -0.014956492 0.10907376
-0.02977819 -0.019220296 0.10852951
-0.026945574 -0.023286093 0.10852122
-0.024082871 -0.027348362 0.10849136
-0.034331061 -0.0052973968 0.10535395
-0.033954933 -0.010678089 0.10462773
-0.032023415 -0.01473406 0.10406178
-0.029692197 -0.018639006 0.10357231
-0.026851282 -0.02343726 0.10433316
-0.024587795 -0.0265471 0.10469037
-0.033576827 -0.010889564 0.10123122
-0.032700643 0.0025117071 0.10701263
-0.03296518 0.0012157289 0.10311675
-0.032867067 -0.0030777585 0.10211009
-0.032377597 -0.0078075253 0.1016041
-0.027046004 -0.019566102 0.10072911
-0.025617212 -0.022466794 0.10043252
-0.023144485 -0.026983753 0.10121703
-0.033128545 -0.004927191 0.097709775
-0.033107545 -0.0094274785 0.097962797
-0.031042796 -0.014089191 0.098220885
-0.028248005 -0.018161019 0.097238779
-0.025798801 -0.022390831 0.096543968
-0.023566168 -0.026158396 0.096556425
-0.033682019 -0.0062321224 0.094135404
-0.03327876 -0.010122168 0.093487859
-0.031632818 -0.014081192 0.092630386
-0.029516822 -0.018245932 0.092406094
-0.027290259 -0.022481203 0.092823923
-0.032365885 -0.00070832577 0.099835515
-0.032260709 0.0026001679 0.095205784
-0.03282252 -0.0014003646 0.09591949
-0.033231601 0.0011566263 0.090933204
-0.033590659 -0.0025293762 0.091115892
-0.033596464 -0.0074568326 0.09116298
-0.028403617 -0.019660465 0.089692891
-0.026842663 -0.022980522 0.089908719
-0.024069501 -0.026713386 0.090358019
-0.033351097 -0.0040031746 0.087273359
-0.032856409 -0.008851761 0.086578012
-0.032291684 -0.014101818 0.087064743
-0.0300592 -0.01843923 0.086545944
-0.027858194 -0.022583529 0.086253583
-0.024392763 -0.026669528 0.085529268
-0.032154348 -0.013201986 0.081095099
-0.029338188 -0.017965078 0.081837773
-0.027653769 -0.020787623 0.081328273
-0.032758679 -0.0015244223 0.084986567
-0.032337528 -0.006076335 0.084019125
-0.025437744 -0.023468722 0.08242619
-0.024857651 -0.024991766 0.082393527
-0.033182904 0.0023014573 0.080777049
-0.032622419 -0.0015716245 0.08000356
-0.031940367 -0.0063602719 0.080160916
-0.03228309 -0.011990918 0.079063475
-0.029228913 -0.017370846 0.079055548
-0.025562512 -0.021984866 0.078871608
-0.023059599 -0.026154324 0.079077363
-0.033366345 -0.0028326157 0.075421333
-0.032753211 -0.0067125643 0.075299323
-0.03250299 -0.012809799 0.075693488
-0.029198458 -0.017865997 0.075327992
-0.026377134 -0.02178647 0.074512124
-0.023938991 -0.025593504 0.073989272
-0.032898743 -0.0083763693 0.071738124
-0.032529134 -0.012327693 0.071136951
-0.031097084 -0.016651116 0.07098186
-0.028023869 -0.021084083 0.070078433
-0.033332855 0.0032017529 0.073810935
-0.033627875 -0.0010981811 0.074131191
-0.022745755 -0.027334101 0.072236657
-0.033259403 -0.0013365401 0.070140719
-0.032668572 -0.0061409338 0.068647325
-0.032849889 -0.010585478 0.068854392
-0.03038168 -0.017823311 0.06823808
-0.028241903 -0.02109693 0.068184376
-0.024770953 -0.024651572 0.067631423
-0.032360442 -0.0078453645 0.064990819
-0.032387905 -0.011595037 0.064204633
-0.030812565 -0.01583872 0.064151406
-0.02826418 -0.020016257 0.064326465
-0.031994633 -0.0010814341 0.06653285
-0.032645952 -0.00049975794 0.062971115
-0.03218529 -0.0056252219 0.061919451
-0.031639725 -0.0091345683 0.060631931
-0.028959256 -0.016958518 0.060706139
-0.026785847 -0.020085769 0.060414314
-0.023887152 -0.023857074 0.061045587
-0.032985736 -0.0012183003 0.058118403
-0.032333437 -0.005679219 0.057089448
-0.03173602 -0.011028143 0.05730772
-0.03036155 -0.015593994 0.057237506
-0.027475141 -0.019532822 0.056356788
-0.023914365 -0.023686711 0.055987477
-0.033080701 -0.0064021233 0.053321779
-0.032359291 -0.010591293 0.052619338
-0.031415753 -0.015829604 0.05288595
-0.028273353 -0.020154841 0.052092731
-0.025562093 -0.02395118 0.051901221
-0.023741366 -0.027033016 0.05212909
-0.033384867 -0.011092414 0.04889977
-0.031733796 -0.015771713 0.048463106
-0.029431561 -0.019777868 0.048759222
-0.032943729 0.00073063467 0.055458546
-0.033209298 -0.00059758592 0.051380694
-0.033295035 -0.0045800796 0.050881505
-0.024968512 -0.025637783 0.049541414
-0.032928426 -0.0018426152 0.047020435
-0.03323625 -0.0055278675 0.046171188
-0.033156507 -0.010849067 0.045486391
-0.031485964 -0.015550456 0.045493841
-0.028544713 -0.020100776 0.04530555
-0.025151677 -0.023767311 0.044938684
-0.022578137 -0.026951743 0.045227706
-0.033665922 -0.0067016394 0.041892529
-0.032933466 -0.010607369 0.042062879
-0.031418756 -0.015127385 0.041346312
-0.028841708 -0.019355739 0.041515172
-0.026011262 -0.022167616 0.040925205
-0.03236917 0.0019698581 0.047642946
-0.032875612 0.00044423062 0.045069396
-0.033854585 -0.00011038221 0.040888429
-0.033617303 -0.0042096674 0.04044044
-0.032340672 -0.010202147 0.038287818
-0.029854583 -0.016392715 0.038074315
-0.027972486 -0.019255595 0.038459301
-0.024907077 -0.023827333 0.03924495
-0.034011111 -0.00028806832 0.035937786
-0.03374505 -0.0052458849 0.035854816
-0.03238152 -0.010076277 0.035079539
-0.030409805 -0.014682217 0.034823954
-0.028122056 -0.019410985 0.035152853
-0.025611747 -0.023357969 0.034814477
-0.022598116 -0.027439617 0.034597039
-0.031669311 -0.010532221 0.031425893
-0.030633274 -0.014643935 0.03177917
-0.028475102 -0.019178245 0.031353474
-0.033576839 0.00088829827 0.03235662
-0.023663286 -0.024501113 0.031175196
-0.032628521 0.0010010591 0.028871417
-0.032456305 -0.0046488303 0.02882123
-0.031235343 -0.0090380022 0.027875245
-0.029852727 -0.014169598 0.027786613
-0.027788304 -0.018759808 0.02745229
-0.024884628 -0.023039989 0.027428746
-0.03163112 -0.0038805734 0.025155246
-0.030164981 -0.0098547377 0.022818387
-0.029343652 -0.01376677 0.022933125
-0.027535971 -0.018125914 0.022955775
-0.025690353 -0.022308439 0.023546875
-0.022836044 -0.025752187 0.024402618
-0.032144718 0.0013332786 0.026223481
-0.032221522 0.0012740167 0.022231281
-0.031703126 -0.0035146875 0.022317767
-0.030491898 -0.0075093471 0.021674395
-0.025959793 -0.019601678 0.020805299
-0.023870774 -0.022858201 0.020602524
-0.032776646 -0.00031958893 0.017430305
-0.032053869 -0.0036525959 0.016729951
-0.030953581 -0.0087140864 0.01732409
-0.029680016 -0.013684275 0.017750204
-0.027579404 -0.01828989 0.017390132
-0.024678908 -0.022562394 0.016274929
-0.021744821 -0.025481965 0.015278995
-0.032083228 -0.0053140204 0.012871146
-0.031831164 -0.0088356305 0.012147486
-0.030408535 -0.01372521 0.011805654
-0.028660972 -0.018494328 0.01178652
-0.025646411 -0.02251015 0.010766387
-0.028313365 -0.019095376 0.0072876215
-0.031884633 0.0016841469 0.010933161
-0.03197898 -0.0029717656 0.010767639
-0.021316806 -0.025767041 0.0096414089
-0.031817667 0.00061489735 0.0064726472
