# .PCD v0.7 - Point Cloud Data file format
VERSION 0.7
FIELDS x y z
SIZE 4 4 4
TYPE F F F
COUNT 1 1 1
WIDTH 998
HEIGHT 1
VIEWPOINT 0 0 0 1 0 0 0
POINTS 998
DATA ascii
0.031779967 0.025177311 0.19077078
0.03554932 0.021364223 0.18739161
0.031926945 0.030591786 0.18706
0.036434434 0.02647821 0.18355769
0.038176339 0.023718901 0.17953479
0.035440631 0.029754974 0.17939702
0.025320403 0.02709638 0.19249031
0.032718658 0.014766097 0.19005388
0.029049521 0.023098502 0.19193891
0.027138593 0.029305413 0.19112676
0.024932083 0.031763095 0.18939486
0.035607569 0.015566277 0.18625531
0.027531426 0.032924376 0.18486527
0.036760177 0.016051836 0.18178234
0.03215858 0.032137282 0.18209624
0.03000778 0.032055762 0.17985085
0.03788336 0.021408154 0.17770225
0.033666685 0.030609818 0.17665547
0.029639998 0.031810716 0.17684099
0.035902962 0.025893021 0.17402092
0.032284617 -0.0047515538 0.19109422
0.03112752 -0.0014331751 0.19151285
0.028158596 0.0069857743 0.19185701
0.024355095 0.01767065 0.19199964
0.020334035 0.025507268 0.19265983
0.018517384 0.029509427 0.19123879
0.034457631 -0.0044034347 0.18836731
0.033937294 -0.00079486798 0.18922624
0.0320451 0.0076448796 0.18976825
0.021885477 0.032520801 0.18772218
0.036135618 -0.0038861744 0.18492547
0.035834469 -7.7223405e-05 0.18468806
0.035259869 0.0087117478 0.1846582
0.023022695 0.032796331 0.18301627
0.036126237 0.0048208693 0.17915186
0.036139455 0.012947227 0.178776
0.026255742 0.032224152 0.17848882
0.036664043 0.0098534469 0.1750271
0.027990151 0.032062236 0.17367619
0.036794834 0.015445613 0.17115274
0.034493312 0.02519178 0.17023879
0.029961657 0.032516781 0.16985995
0.034804169 0.02526384 0.16517362
0.030696012 0.031854577 0.16649926
0.019036863 0.0091177439 0.19144595
0.015909743 0.019200008 0.19201526
0.01457523 0.023279544 0.1924752
0.011606089 0.027096318 0.19147459
0.010198007 0.029847477 0.19027045
0.032688774 -0.016562171 0.18901992
0.031404108 -0.013341876 0.18962064
0.030326296 -0.0085352547 0.19023576
0.028233068 -0.0033918824 0.19187564
0.023465455 0.0050398214 0.19143435
0.021248857 0.013843149 0.1911135
0.014641594 0.029891532 0.19106731
0.012445809 0.031816956 0.18833229
0.034522653 -0.01662717 0.18607447
0.034150232 -0.012649278 0.18700647
0.033967808 -0.007792295 0.1880866
0.015158643 0.032207083 0.1849145
0.035871051 -0.015558292 0.18288082
0.035939489 -0.012138508 0.18269104
0.035664987 -0.0069685811 0.18295532
0.035697427 -0.0013447236 0.18106297
0.036435775 -0.012131579 0.17932096
0.035568114 -0.0063074715 0.17795321
0.035594355 -0.0009728428 0.17717695
0.022783849 0.030823257 0.17607409
0.035975732 -2.4823472e-05 0.17231122
0.036903504 0.0079550017 0.1727125
0.023394845 0.032491148 0.16943353
0.036276389 0.0044803368 0.1690051
0.035980631 0.013194839 0.16770625
0.024185326 0.032716751 0.1672006
0.034966029 0.013420443 0.16340354
0.035580318 0.023641281 0.16229069
0.02893905 0.032065179 0.16320887
0.034651089 0.019192955 0.1590358
0.033842087 0.029672991 0.15854234
0.029638972 0.031164471 0.15825522
0.035676584 0.024984796 0.15333238
0.030987693 0.03155053 0.15454358
0.035312407 0.028420709 0.14870459
0.023328984 -0.010320012 0.19020978
0.022152878 -0.0059539354 0.19097358
0.020180073 -0.0014040745 0.19100186
0.016481234 0.0070238709 0.1918976
0.012157586 0.0164693 0.19188318
0.0089566614 0.0211109 0.1924305
0.0071745953 0.025437176 0.1922209
0.0062301774 0.029661331 0.18937615
0.033446256 -0.027585704 0.18975365
0.032469802 -0.023473606 0.18936908
0.031188365 -0.019099642 0.18969429
0.028956318 -0.015131172 0.19029453
0.026809663 -0.0096622538 0.19054931
0.0097963912 0.032916479 0.18698329
0.035567939 -0.027072396 0.18545523
0.034769844 -0.022717407 0.18538207
0.03423164 -0.019048423 0.1862455
0.010993408 0.032663703 0.18215263
0.035593741 -0.022407383 0.18094486
0.035858314 -0.017866034 0.18122822
0.01299443 0.030924534 0.1779505
0.036987182 -0.022258557 0.17759913
0.036600135 -0.01712656 0.17678976
0.036345776 -0.012349635 0.17645657
0.035928838 -0.0074744299 0.17566368
0.01487511 0.029379483 0.17277887
0.013175868 0.030443357 0.17380989
0.035960183 -0.016176721 0.17265677
0.03610342 -0.012477275 0.1721828
0.035732158 -0.0074902317 0.17161477
0.035588678 -0.0034792461 0.17098016
0.018796895 0.030768635 0.16992265
0.01777387 0.031918418 0.16581044
0.035645142 -0.0080731018 0.16764036
0.035989098 -0.001675698 0.16641149
0.022746332 0.032046944 0.16337144
0.018167185 0.03201554 0.1642136
0.036197245 -0.00018564425 0.16251022
0.035836019 0.0081096981 0.16219547
0.023514125 0.032232147 0.16016915
0.035866164 0.0084418757 0.15730333
0.035179976 0.016563231 0.15676573
0.025696326 0.032085218 0.15592277
0.03627906 0.013470886 0.15304616
0.028530078 0.032386985 0.15149212
0.035758965 0.019407248 0.14817274
0.034313783 0.03024736 0.14761102
0.030959364 0.032224339 0.14675921
0.034897622 0.029081762 0.14268324
0.032010507 0.032079358 0.14247069
0.035615779 0.027713064 0.13786936
0.0097082835 0.0045493362 0.19246671
0.0082540754 0.0090535078 0.19247931
0.0053977529 0.013269836 0.192242
0.0034003141 0.018953091 0.1920113
0.0012961486 0.023198307 0.1920591
-0.00081070233 0.026992247 0.19110352
0.024839818 -0.025110941 0.19008285
0.020753372 -0.017160859 0.18983951
0.01971258 -0.013321914 0.19096494
0.017553393 -0.008795267 0.19117203
0.014650558 -0.0037051667 0.19100761
0.012023845 0.0054714815 0.19214597
0.0079034101 0.014787194 0.19153121
0.0016776407 0.02884843 0.18937954
0.031996876 -0.02995152 0.18598717
0.025702387 -0.024812818 0.18880424
0.024929132 -0.02169811 0.18895233
0.023508687 -0.017160963 0.18899593
0.023239817 -0.012953024 0.18964988
0.0051173223 0.032759968 0.18419293
0.033588775 -0.032187007 0.18095252
0.033977374 -0.029220412 0.18362156
0.0087286355 0.032276072 0.17888191
0.0048873154 0.033193767 0.17898205
0.035342745 -0.031570494 0.17842463
0.035789583 -0.027833957 0.17944488
0.035836559 -0.02357129 0.17848322
0.0090611158 0.031611234 0.17488137
0.0060123485 0.032840025 0.17551428
0.04010208 -0.029698368 0.17427748
0.037278324 -0.027485792 0.17485708
0.03646896 -0.022679489 0.17481446
0.036308132 -0.01936209 0.17407116
0.010923964 0.031381279 0.17054051
0.036615897 -0.027210623 0.17078418
0.035980031 -0.022985313 0.16993111
0.03571973 -0.018390764 0.16995645
0.035848446 -0.013865335 0.16934806
0.014213196 0.031462505 0.16722944
0.035979409 -0.018167263 0.1650252
0.035212126 -0.013539642 0.16528425
0.03489241 -0.008827352 0.16397429
0.035033919 -0.0045673773 0.16395479
0.016070774 0.032557193 0.1620819
0.036374807 -0.016705928 0.16159564
0.035181485 -0.013384053 0.16107982
0.034991875 -0.0086073736 0.15922648
0.035092305 -0.0034719519 0.15943885
0.018086018 0.032726727 0.15736485
0.035424519 -0.0071686851 0.1555064
0.035202712 -0.0027985135 0.15459806
0.021069665 0.033598345 0.15327993
0.035343405 -0.0014566546 0.15103132
0.035114221 0.0073203188 0.15065745
0.022327652 0.033763297 0.14884564
0.034547277 0.012444283 0.14602181
0.02551301 0.032507531 0.14553389
0.022783121 0.033134699 0.14483446
0.034839168 0.017446911 0.14164892
0.032564986 0.029942175 0.13918802
0.029259501 0.032066885 0.14000577
0.035254341 0.022827879 0.13617566
0.030857949 0.031790562 0.13519919
0.033912908 0.028835392 0.13143671
0.031889811 0.031938061 0.13155535
-0.0027075966 0.016637549 0.19312853
-0.0048795678 0.020903796 0.19360495
-0.0064568524 0.025385179 0.19393277
-0.0080332365 0.028118692 0.19223049
0.015470603 -0.019658282 0.19121641
0.014356777 -0.015762951 0.19223163
0.012266126 -0.010363982 0.19279984
0.0098093599 -0.005656586 0.19221199
0.0077437353 -0.0015855606 0.1922518
0.0040836032 0.0073915822 0.19252551
0.0018614265 0.012035093 0.19258139
0.00054596644 0.01689974 0.1924108
-0.00132692 0.022237912 0.19312304
-0.0030758935 0.026935512 0.19226822
-0.0064389366 0.030108323 0.18960407
0.019956317 -0.023653878 0.18883729
0.018879788 -0.019681927 0.19011122
0.018178502 -0.015872326 0.19165462
-0.0030539772 0.030635661 0.18636191
-0.0017594974 0.031415898 0.18218759
0.0025891652 0.033326879 0.17819354
0.0042058453 0.03292663 0.17258453
0.0054739993 0.032836676 0.16773814
0.036326606 -0.027930979 0.1685864
0.035950482 -0.024295211 0.16723755
0.010054669 0.032349475 0.16484159
0.0061274813 0.032558486 0.16433483
0.035669919 -0.028431773 0.16369331
0.035796776 -0.023518544 0.1637845
0.036024254 -0.020255476 0.16250205
0.01188369 0.032899752 0.1604659
0.035563786 -0.022368085 0.15988016
0.035929348 -0.019034978 0.15869722
0.035439402 -0.014207019 0.15852529
0.035234571 -0.0097565046 0.15671217
0.013114906 0.033214532 0.15566301
0.035816349 -0.018225595 0.15525493
0.035157874 -0.013995082 0.1543954
0.034906544 -0.009250069 0.15314591
0.03560948 -0.0055645527 0.15219432
0.015785808 0.03409636 0.15188581
0.034873065 -0.0083465567 0.1492092
0.035181243 -0.0034835637 0.14837018
0.018203057 0.034004208 0.14679456
0.034813996 -0.0020180065 0.14486083
0.033553705 0.0062349066 0.14333889
0.024424665 0.031975083 0.14185026
0.020047858 0.032829568 0.14106512
0.033261731 0.011383626 0.13897896
0.023878498 0.031597011 0.13662517
0.033509612 0.016394991 0.13454702
0.034197841 0.021549746 0.13013911
0.031836782 0.031544618 0.128865
0.034423411 0.027369611 0.12468249
0.031014269 0.031381086 0.12504703
0.034058295 0.027827272 0.12087834
-0.011380029 0.018493488 0.19540733
-0.011728317 0.023274919 0.19637865
-0.015457843 0.027123008 0.19429708
-0.016956439 0.030511046 0.193766
0.012536027 -0.027992195 0.19412825
0.0089513045 -0.022411564 0.19251075
0.0073130447 -0.018788991 0.19225135
0.0059231305 -0.013104755 0.19288635
0.0029669139 -0.0082131727 0.19306409
0.001169614 -0.0040418538 0.19281605
0.0003142177 0.00076546858 0.19282487
-0.001553684 0.0051620607 0.19297421
-0.0034024669 0.0097760335 0.19307548
-0.0062574353 0.013550801 0.19269252
-0.0079336949 0.018390594 0.19380185
-0.0091001578 0.024416629 0.19461805
-0.011611301 0.028699419 0.1923787
-0.013943737 0.032677393 0.19156206
-0.015050363 0.035646673 0.19148353
0.014026459 -0.026379026 0.19096979
0.012525046 -0.022039847 0.19145185
0.010321779 -0.017489186 0.19236028
0.009655118 -0.014303486 0.19257423
0.0067100422 -0.0069434564 0.19226605
-0.0099276453 0.030723777 0.18979424
-0.010785484 0.033735693 0.18802136
-0.013908704 0.037420269 0.18668938
0.01874627 -0.027976701 0.18783578
0.017719813 -0.025711996 0.18952236
-0.0070418972 0.031632062 0.18423539
-0.0098662646 0.033738185 0.18322912
-0.0131026 0.036137834 0.18250728
-0.0069538066 0.03151425 0.17869374
-0.0090193748 0.032860834 0.17820773
-0.0041710213 0.032433275 0.17492574
-0.00090624858 0.033089098 0.1704663
-0.0042356905 0.033982936 0.17051542
0.0031071957 0.033186149 0.16636306
0.033556066 -0.03072542 0.1653533
0.0044246726 0.032849398 0.1610865
0.03440024 -0.033309817 0.16061574
0.034450233 -0.030071516 0.16069788
0.03446788 -0.026312461 0.1602428
0.0053991061 0.032747246 0.15675724
0.035050791 -0.029838771 0.15606865
0.034878038 -0.024842676 0.15679011
0.0073492061 0.032650556 0.1518929
0.036732085 -0.029316723 0.15268213
0.035184592 -0.024609143 0.15180612
0.035383102 -0.019731838 0.15221024
0.034622725 -0.015535513 0.15127736
0.010918826 0.033826102 0.14680481
0.034674782 -0.019082652 0.14709973
0.034519576 -0.01494834 0.14752525
0.034354217 -0.010399841 0.14746761
0.034184191 -0.0065640025 0.14534426
0.014472262 0.033377729 0.14422935
0.034723297 -0.014268903 0.14302373
0.034155492 -0.010432347 0.14230821
0.034156326 -0.0041752085 0.14203447
0.033427496 -0.00020160992 0.14149004
0.015761055 0.033287793 0.13931227
0.033444136 -0.0043477789 0.13768446
0.033415668 0.0059884326 0.1366531
0.019703928 0.032352947 0.13536438
0.034136713 0.0065288637 0.13292828
0.022843895 0.031020951 0.13099384
0.021035021 0.032004353 0.13000476
0.0340342 0.011409411 0.12819922
0.025233787 0.03182533 0.12796891
0.022793671 0.032553807 0.12648261
0.033659589 0.016176675 0.12325042
0.02984523 0.031692322 0.12238032
0.034508914 0.021248255 0.11897254
0.030809699 0.030721445 0.11864948
0.034227904 0.026290905 0.1143868
0.03385238 0.026847214 0.11034077
-0.014687244 0.0070293755 0.19756219
-0.015525376 0.0097303409 0.19804347
-0.0058768983 -0.0077309245 0.1942493
-0.011867084 0.0068077613 0.1951257
-0.012773825 0.011136428 0.19566658
-0.013269523 0.015549324 0.19680163
-0.014285255 0.019124351 0.19626638
-0.018838093 0.030961471 0.19402316
0.0044098515 -0.023568805 0.19157222
0.0040868232 -0.020217128 0.19154543
0.0021562532 -0.015751947 0.19266659
-0.00068731979 -0.011475905 0.19347051
-0.0029888162 -0.0057073063 0.1936467
-0.0067587877 0.0030931369 0.19313532
-0.0080955112 0.0073021511 0.19343036
-0.009816464 0.011765605 0.19327813
-0.01084953 0.015231866 0.19379246
-0.018937547 0.032579064 0.19241536
-0.011787651 0.034867674 0.18023756
-0.014357799 0.037823521 0.18090391
-0.011049164 0.034366358 0.17646608
-0.013109125 0.037203684 0.17644614
-0.0093726832 0.033368647 0.17228276
-0.013386607 0.035790678 0.17198855
-0.0075084185 0.033845354 0.1675823
-0.0022488097 0.032867283 0.16491157
-0.0017625373 0.032900255 0.15954244
0.0022312971 0.032472566 0.15243548
0.036134787 -0.029807167 0.14961576
0.035076775 -0.026811179 0.14911076
0.0067863902 0.032291029 0.14668828
0.034884259 -0.029468652 0.14584789
0.03464514 -0.025515858 0.14528009
0.034441516 -0.021646887 0.14552155
0.0092686042 0.033095714 0.14271024
0.034316085 -0.025052903 0.14131907
0.034387901 -0.020167992 0.14079982
0.034429267 -0.016111091 0.14068869
0.010463924 0.033339687 0.13584492
0.033671163 -0.015798531 0.13579148
0.033276595 -0.010963159 0.13607198
0.03313572 -0.006990077 0.13559371
0.014881302 0.033278957 0.1358453
0.014409061 0.033005111 0.13257527
0.032543495 -0.010657696 0.13177955
0.032229509 -0.0062651439 0.13087606
0.032736927 -0.0010621753 0.13078755
0.017569687 0.032395005 0.12970373
0.032967895 -0.00034866575 0.12608373
0.019424245 0.031874023 0.12345368
0.03396583 0.0058696591 0.12101018
0.023502816 0.031761669 0.11997098
0.033528071 0.010867251 0.11627448
0.025606083 0.032417566 0.11571878
0.03447444 0.01624267 0.11234993
0.030422209 0.031528119 0.11103219
0.027614143 0.033034474 0.11138773
0.033635136 0.0211155 0.10827821
0.031293549 0.02999302 0.10634774
0.028988071 0.033236485 0.10689276
0.031646434 0.02999929 0.10264587
0.029697036 0.03265769 0.10191423
-0.013974737 0.00041231187 0.19770008
-0.014617731 0.0050213183 0.19835165
-0.001605249 -0.025955459 0.19519097
-0.0031555104 -0.022897959 0.19511035
-0.0048981244 -0.018627994 0.19467956
-0.0066839168 -0.013265211 0.19465426
-0.010630928 -0.0033486078 0.19424599
-0.011703059 0.0011782651 0.19446498
-0.0124778 0.0043702349 0.19553497
0.00012907851 -0.025423136 0.19160563
-0.00038606441 -0.022117751 0.19192123
-0.0012093242 -0.017610585 0.19274724
-0.013376647 0.034039628 0.16976649
-0.015254172 0.035043288 0.16884488
-0.01004863 0.033399522 0.16406935
-0.013853711 0.033721041 0.1637376
-0.0085758297 0.032845881 0.16143537
-0.0067635034 0.032716714 0.15737921
-0.0038477816 0.031939961 0.15233827
0.0011696741 0.031951923 0.1478312
0.0018114252 0.0320388 0.14249045
0.033867598 -0.030765411 0.14233416
0.0040884903 0.032318879 0.13774443
0.034442797 -0.030651651 0.13860774
0.033865325 -0.026601281 0.13819203
0.033468887 -0.02299263 0.13832521
0.0061684689 0.032992058 0.13440198
0.03389883 -0.030155178 0.13408524
0.033964455 -0.025556561 0.13360915
0.033790004 -0.021373298 0.13405246
0.033995535 -0.016941428 0.13325459
0.0088100834 0.033251334 0.1302768
0.033801895 -0.021318834 0.12939817
0.033751875 -0.016416887 0.12931859
0.032840736 -0.011806433 0.12921232
0.032701209 -0.0081566861 0.12856966
0.012189494 0.032845706 0.1262024
0.033959061 -0.015731938 0.12473005
0.033401858 -0.011367431 0.12463456
0.033063389 -0.0064430563 0.12530994
0.033088978 -0.0030064294 0.12417823
0.012797162 0.032074261 0.12154478
0.033521324 -0.010892336 0.12065983
0.03368739 -0.0064860526 0.11984748
0.033552133 -0.0012696013 0.12050021
0.017627265 0.032053672 0.11796379
0.033068173 -0.0052222665 0.11578572
0.033467256 -5.8701262e-06 0.11577648
0.033646528 0.0088474117 0.11365998
0.018579377 0.03224948 0.11276609
0.034124717 0.010393586 0.11018103
0.020447783 0.032840952 0.10927135
0.033995721 0.011028353 0.10534644
0.03327148 0.02006894 0.10509259
0.023531497 0.033393413 0.10365438
0.034202166 0.015604424 0.10012132
0.033395324 0.024890075 0.1009658
0.027144767 0.033337481 0.099659145
0.034836538 0.020872539 0.095926106
0.032487407 0.030100338 0.096320212
0.029544597 0.033232704 0.094980001
0.03482265 0.026242532 0.091704905
0.030981511 0.032782055 0.090907395
-0.011506934 -0.016125271 0.19518372
-0.016160661 -0.0061257775 0.19551578
-0.0032239994 -0.026836898 0.19226342
-0.0038001863 -0.025326708 0.19221523
-0.01308098 -0.0063315993 0.19420287
-0.019532857 0.034279652 0.16520077
-0.01639946 0.033612076 0.1617063
-0.01085386 0.032948643 0.15778166
-0.01541256 0.034720879 0.15727395
-0.0095223207 0.032916084 0.15428934
-0.013093376 0.035456564 0.15309149
-0.0092998734 0.032433718 0.14904469
-0.012058294 0.034026913 0.14958909
-0.0058681732 0.031685665 0.14486539
-0.0041596629 0.032208823 0.14103293
-0.0013821917 0.032419689 0.1366514
0.032246981 -0.030851267 0.13478917
0.0018821638 0.033523377 0.1331777
0.033185124 -0.031769186 0.13090545
0.032954827 -0.028551508 0.13138339
0.0060085794 0.033125587 0.12604821
0.0046486892 0.034408297 0.12837142
0.035025738 -0.030144148 0.12701613
0.033826463 -0.027138254 0.1269027
0.033466656 -0.022466552 0.12626761
0.034394421 -0.026819346 0.12264031
0.033528574 -0.022280078 0.12192881
0.032417469 -0.018201916 0.12134057
0.032802299 -0.013792182 0.12145448
0.010523412 0.032302037 0.11907679
0.032976866 -0.021009654 0.11790484
0.032627191 -0.017066423 0.11727709
0.03262306 -0.012620401 0.11710262
0.012501293 0.03174936 0.1143775
0.032331623 -0.01228876 0.11309272
0.031880695 -0.0076705655 0.11239886
0.032027941 -0.003519767 0.11217886
0.01236354 0.031575412 0.11028355
0.032170124 -0.006030187 0.10802895
0.032160595 -0.0025251312 0.1078791
0.020388491 0.032724764 0.10623044
0.015823845 0.032706477 0.10501009
0.032735795 -0.001321258 0.10392892
0.032325327 0.0086662341 0.10277987
0.016868958 0.033000477 0.10182768
0.032660093 0.0089903679 0.098818123
0.022760101 0.033330608 0.097105682
0.034144059 0.014557713 0.094901085
0.023282621 0.033383235 0.092479706
0.033305243 0.019424535 0.088967144
0.02849981 0.032903653 0.088113487
0.033017799 0.024712775 0.0849455
0.029695673 0.032965638 0.084976077
0.032253928 0.028879838 0.080405295
-0.021785112 0.034281868 0.16290629
-0.019963225 0.034454212 0.16068736
-0.021402799 0.036047667 0.15870327
-0.01834194 0.037078347 0.1559701
-0.016130386 0.0381952 0.15130535
-0.013953203 0.035209764 0.14648387
-0.016352603 0.038171589 0.14714241
-0.010457256 0.032288801 0.14297253
-0.0084356964 0.03275444 0.13803715
-0.0054107793 0.032601863 0.13409206
-0.0046990435 0.032720864 0.12870461
-0.000221394 0.03341971 0.12590641
0.031900022 -0.034314014 0.12593466
0.0033940766 0.032050591 0.12209755
0.0014005834 0.033043273 0.12197787
0.0340827 -0.030974759 0.12126428
0.034145076 -0.02745655 0.12015301
0.033675518 -0.026990505 0.11697131
0.033147655 -0.023170479 0.11632311
0.032493912 -0.019055897 0.11473382
0.0073968638 0.031535245 0.11282039
0.032592602 -0.023103755 0.11175406
0.032846864 -0.017914809 0.11160535
0.032461889 -0.013195578 0.1102826
0.031538472 -0.0097342376 0.10967898
0.010711024 0.031933837 0.10803711
0.032059446 -0.017322924 0.10754448
0.032238718 -0.012127072 0.10599631
0.032143712 -0.0084161349 0.1061483
0.010488825 0.032402363 0.10320127
0.031955063 -0.013487171 0.10306293
0.032094229 -0.0076177362 0.10125649
0.03229361 -0.0034175739 0.10109723
0.013666141 0.032605655 0.099472284
0.031856 -0.00255391 0.09644556
0.032509584 0.0058043953 0.096192956
0.016044917 0.032461688 0.09408772
0.032594215 0.0071876864 0.092324853
0.032762043 0.013171404 0.086551607
0.022113739 0.032758474 0.086424768
0.032630205 0.019012436 0.082930028
0.026745377 0.03258045 0.080661356
0.033904165 0.019583033 0.078506231
0.031055689 0.030067135 0.077789485
0.028314609 0.032208305 0.077660739
0.033713516 0.024783529 0.073875248
0.029469298 0.032475293 0.072470605
-0.017035328 0.037271999 0.14329612
-0.016554151 0.033482447 0.14036271
-0.010606987 0.032455128 0.13463062
-0.01497837 0.032637354 0.13579887
-0.0085372385 0.033145525 0.13219345
-0.013178417 0.033175722 0.13117516
-0.0074583362 0.0328435 0.12758774
-0.010935064 0.033882029 0.12686902
-0.0047243764 0.032581721 0.12373549
0.0007067332 0.030946629 0.11807173
-0.0031295903 0.032430112 0.1178304
0.00043161679 0.030783294 0.11586559
0.00012240279 0.032413244 0.11603433
0.0041007074 0.031934571 0.10866761
0.03234696 -0.028480478 0.10944313
0.032314975 -0.024579335 0.1086421
0.0052908184 0.032286596 0.1055696
0.033356205 -0.028646264 0.10462385
0.03237506 -0.023906523 0.10483521
0.031971075 -0.01930245 0.10500002
0.031323124 -0.015413363 0.10515827
0.0060605919 0.032417499 0.10011387
0.034253784 -0.027804505 0.10117799
0.032954387 -0.023367096 0.10000378
0.031753905 -0.019143712 0.099520802
0.031226577 -0.014250892 0.099776089
0.031310786 -0.010423573 0.099340558
0.011808314 0.032746226 0.098193288
0.031676337 -0.017615397 0.095801353
0.031198472 -0.014041613 0.094901681
0.03103683 -0.0092226556 0.095154643
0.031556748 -0.0043498408 0.094976366
0.015284075 0.032159697 0.093467712
0.031284738 -0.0085707596 0.090344369
0.031207126 -0.0040719481 0.090493381
0.016887937 0.0326134 0.088668048
0.031636238 -0.0034327805 0.085409582
0.031440079 0.006168935 0.085402846
0.020990968 0.032214284 0.082418621
0.016665153 0.03237154 0.083364069
0.032409817 -0.0020203302 0.08196336
0.031445231 0.0061862445 0.08107847
0.020607539 0.03196542 0.079010665
0.017528359 0.032591499 0.079972088
0.03271329 0.012210353 0.076182067
0.021249034 0.032062881 0.074393332
0.032548495 0.012085179 0.071813107
0.031974375 0.021974638 0.069497526
0.023211941 0.032721523 0.071926653
0.031596366 0.022965737 0.066531181
0.028943295 0.031812429 0.067098141
0.030295089 0.0283092 0.061667204
0.028760353 0.031036085 0.063305438
-0.018419139 0.034056179 0.13784391
-0.01818935 0.033625554 0.13446337
-0.014831785 0.034308895 0.13064128
-0.0097035328 0.032500658 0.12341154
-0.011981885 0.034936462 0.12609303
-0.010493007 0.032123722 0.11983055
-0.012002608 0.033950098 0.12156671
-0.0095116775 0.032422971 0.1175611
-0.0019832989 0.029756483 0.11100805
-0.0044872547 0.031480629 0.11172074
0.02870466 -0.030533619 0.11074263
-5.115103e-05 0.030397795 0.10846764
-0.0012966748 0.031645354 0.10691082
0.0013827579 0.032961864 0.1030342
0.033675477 -0.030703904 0.10208184
0.0027072765 0.033752128 0.098096609
0.033406802 -0.029287074 0.098194182
0.033114728 -0.025249582 0.097633541
0.0070845354 0.032060776 0.094690979
0.0040651541 0.033259436 0.093867362
0.031144943 -0.024269283 0.093773723
0.031255126 -0.019771686 0.092935205
0.03175544 -0.015098737 0.092428744
0.0079379138 0.031043785 0.088955581
0.030624058 -0.01850546 0.088725984
0.030919148 -0.014594147 0.088135779
0.031968463 -0.010175006 0.088398635
0.010889868 0.032029293 0.085208893
0.032058459 -0.0089563755 0.084266722
0.03244666 -0.0054489663 0.084172964
0.01353954 0.032895718 0.081219673
0.031696476 -0.007782951 0.07995069
0.032118715 -0.0040725376 0.079167485
0.015238572 0.032502875 0.076212227
0.031579074 -0.0027301675 0.075005233
0.032612823 0.0056532789 0.073861182
0.017259957 0.032236733 0.071466029
0.031832289 0.0063849194 0.069755137
0.022597432 0.032346614 0.067240775
0.0199234 0.032257184 0.068302214
0.031309765 0.01598441 0.064718783
0.025524572 0.032509677 0.065370858
0.022572778 0.03217515 0.061992764
0.031340268 0.021382114 0.060574949
0.02767472 0.031575225 0.060129106
0.023503199 0.032451354 0.059659064
0.031019036 0.027010161 0.055816233
0.028425803 0.030624662 0.054612517
-0.014963645 0.033354104 0.11682904
-0.011942406 0.032494556 0.11356568
-0.0068400218 0.031427231 0.10911751
-0.010069756 0.032032229 0.11009651
-0.0068456968 0.031319134 0.10506201
-0.009025326 0.032252964 0.10379976
-0.0051799943 0.031828202 0.10127282
-0.0064472831 0.033060085 0.098667204
-0.0010666773 0.033280931 0.099399805
0.031352442 -0.032167163 0.096039116
0.0015596272 0.034054089 0.092297375
0.030366603 -0.030023573 0.091382384
0.029901011 -0.026366033 0.090837777
0.0036967136 0.032093283 0.088232696
0.031432301 -0.029881906 0.086446226
0.030651048 -0.025839377 0.086900532
0.030383736 -0.021109052 0.087216198
0.0055280961 0.032471973 0.083911479
0.033887628 -0.029255133 0.082211077
0.032279871 -0.025438607 0.082015634
0.031155055 -0.020467117 0.082464278
0.030415462 -0.01562163 0.0825755
0.030703388 -0.01177619 0.080248177
0.007745808 0.032875091 0.078531802
0.033435363 -0.025138363 0.078811526
0.03185343 -0.019859187 0.077634513
0.031021439 -0.015405866 0.07748431
0.031075191 -0.010331563 0.077599823
0.031432889 -0.0063175187 0.076021314
0.013856309 0.032780778 0.073206723
0.0089700734 0.033473149 0.074325144
0.0319333 -0.01436012 0.073259473
0.03149309 -0.010052683 0.073023438
0.031673849 -0.0049320683 0.073259532
0.031751387 -0.0010551559 0.071444452
0.01471255 0.03302861 0.070808828
0.010836111 0.033307143 0.069036484
0.032229546 -0.008760103 0.069074154
0.031505316 -0.0046733189 0.068487048
0.030901479 -0.00016460288 0.067726433
0.015225428 0.032488037 0.06586951
0.031589024 -0.0032756478 0.06450212
0.031393778 0.0055581708 0.063601196
0.017956158 0.032200877 0.061610222
0.031298127 0.005314819 0.059288621
0.03047964 0.015362179 0.057669163
0.02290649 0.032114156 0.055977106
0.031130906 0.01594365 0.053246617
0.026218709 0.031471543 0.05208236
0.022481944 0.031812847 0.051370978
0.031825077 0.021377653 0.048998356
0.028232533 0.03010378 0.048624933
0.031587671 0.026177511 0.044291914
0.028511761 0.030014051 0.044000149
0.031805128 0.026482081 0.04053098
-0.016015042 0.033435836 0.11146981
-0.014134395 0.032731943 0.10623044
-0.011791641 0.03319547 0.10213935
-0.0099636503 0.03403404 0.097785234
-0.0075603756 0.034068294 0.093303621
-0.0062138657 0.033588402 0.088145196
-0.0011030529 0.032891676 0.085017264
0.031284764 -0.031067841 0.086042523
0.0015331749 0.033156168 0.080803692
0.033168942 -0.032256406 0.082986712
0.0032537477 0.033550836 0.076368868
0.033349615 -0.029740887 0.075906217
0.033351362 -0.025385849 0.075582445
0.031761628 -0.021879803 0.074975073
0.0050157784 0.032928795 0.068787336
0.034481216 -0.02874016 0.072432041
0.033153348 -0.025690313 0.072244465
0.030998677 -0.020537538 0.07074374
0.031728216 -0.016226396 0.070750296
0.010513416 0.033180483 0.068763912
0.031356338 -0.015440436 0.066826284
0.031572636 -0.010760742 0.066245794
0.03164266 -0.0067906203 0.065688193
0.011406729 0.031508699 0.060651302
0.011171197 0.033291742 0.064081252
0.030626085 -0.0092761423 0.061118603
0.031369738 -0.0055604195 0.06137079
0.031553544 -0.0016874317 0.060725033
0.03093411 -0.0039676353 0.056486487
0.031295151 -0.00019762013 0.056737125
0.016934792 0.031604074 0.054388225
0.030935388 0.0047982633 0.051514566
0.031043049 0.0064697005 0.047837317
0.031592596 0.014421116 0.046964705
0.023275696 0.031967632 0.046765208
0.031263519 0.015559167 0.042687953
0.027158242 0.031513147 0.042294681
0.023816511 0.031986989 0.04084146
0.03164852 0.025504781 0.037257075
0.028370826 0.030617684 0.036986768
0.031367555 0.025898367 0.032609046
-0.021131368 0.034201324 0.10925567
-0.020275144 0.034241106 0.10517591
-0.017763536 0.035027165 0.10013759
-0.015931809 0.035764039 0.095846295
-0.013433009 0.036129173 0.092028201
-0.0095120799 0.035224099 0.087870419
-0.011772678 0.036155749 0.086512744
-0.0070373747 0.034241091 0.083542407
-0.00036413688 0.032960318 0.077322423
-0.004441944 0.033283278 0.078611493
0.0020940658 0.033692449 0.070999205
0.031888194 -0.025530187 0.069264829
0.030406283 -0.022547673 0.068945229
0.0045399433 0.032658022 0.065236807
0.031975485 -0.025763202 0.065083265
0.030915637 -0.021884479 0.065053463
0.030583374 -0.017292511 0.064188182
0.029853631 -0.013146616 0.062646151
0.0046905344 0.032631047 0.062200963
0.030264148 -0.020359151 0.061032951
0.029927967 -0.016636174 0.060269594
0.030121276 -0.012279305 0.059930742
0.010587253 0.031092521 0.056772828
0.0076998072 0.031839486 0.057946682
0.030111946 -0.011416486 0.05515188
0.030274533 -0.007030773 0.055148542
0.030494774 -0.0025026398 0.053388774
0.011946949 0.031476695 0.052641749
0.030503521 -0.0057475623 0.050692558
0.030870836 -0.00071411487 0.049944162
0.01422004 0.031294901 0.047997534
0.031414445 -0.0043065893 0.046189189
0.031497654 -0.00088727288 0.045876801
0.017084219 0.031344566 0.043866456
0.031747919 0.0046547619 0.041509151
0.030428059 0.014824747 0.039083719
0.017197464 0.031261187 0.039673805
0.031532653 0.0097964685 0.037461936
0.03027641 0.019078961 0.034841359
0.022805287 0.031413674 0.03454119
0.030581687 0.019355761 0.031237781
0.027529251 0.029937584 0.030414104
0.031345785 0.025461242 0.026832342
0.027825946 0.029455867 0.025905669
0.031534709 0.025627064 0.022258759
-0.016549399 0.036291067 0.089394033
-0.015035478 0.036766589 0.086441338
-0.0099970344 0.033952497 0.078958452
-0.012553654 0.035746463 0.080699503
-0.0087991096 0.03340907 0.075520217
-0.0049060555 0.032947131 0.07196033
-0.0026674103 0.031795435 0.064929307
-0.0045175343 0.032963775 0.067018926
-0.0011329297 0.032278638 0.061983228
0.030124851 -0.029633999 0.060568929
0.0034322878 0.032054286 0.057954073
0.030369211 -0.027610071 0.05766809
0.02944527 -0.023006866 0.057332218
0.028752269 -0.018562011 0.056151509
0.0043296441 0.031058526 0.053085148
0.029909927 -0.028288074 0.054414332
0.028606262 -0.021563683 0.053111732
0.028921474 -0.017141324 0.053132594
0.029422561 -0.013965944 0.051550686
0.0071938578 0.031401701 0.048988819
0.029071283 -0.016120829 0.048566043
0.029181093 -0.012220281 0.047855198
0.029461468 -0.0086829197 0.047715425
0.011986366 0.031244472 0.044129431
0.0081787715 0.031668931 0.04556495
0.029037287 -0.010917083 0.043570101
0.029594004 -0.007407805 0.043268383
0.012615176 0.031368975 0.04038471
0.029846091 -0.0059359865 0.039168775
0.031008013 -0.0018464867 0.038376629
0.014851464 0.031165754 0.035660386
0.030564724 -0.001291682 0.033744991
0.030115973 0.0090254461 0.032896101
0.017141486 0.031012241 0.032058656
0.029891737 0.0091587212 0.029739857
0.020538701 0.030366911 0.028128266
0.030228158 0.015222152 0.024428666
0.025330143 0.030255552 0.024416268
0.021850677 0.030693404 0.022800267
0.030927859 0.019643795 0.019727468
0.028041821 0.029918753 0.019318402
0.02365455 0.031251431 0.019005179
0.030819472 0.025222143 0.015719056
0.028842445 0.02948688 0.015139878
-0.014448519 0.034964673 0.076044381
-0.012328172 0.03391666 0.075208902
-0.01453621 0.034252599 0.072321653
-0.011376528 0.032299213 0.06815958
-0.013779668 0.034136642 0.068465531
-0.011410899 0.032209147 0.064956427
-0.0051697604 0.032579929 0.061186254
-0.00090354588 0.032228723 0.056868851
-0.0046166014 0.032631636 0.055262625
0.00057010259 0.030793177 0.050170243
-0.0018345546 0.031756438 0.051804721
0.029631225 -0.028219707 0.051667035
0.028397147 -0.023996528 0.05101794
0.027548909 -0.020337885 0.05050987
0.0027691927 0.03153532 0.047779024
0.00011769682 0.032316666 0.0459705
0.029291889 -0.027810423 0.046964288
0.028503206 -0.023894651 0.045999825
0.028225094 -0.018951356 0.046833992
0.0055166483 0.031966928 0.043064535
0.0024512578 0.033052683 0.041535497
0.029000327 -0.022036722 0.042607486
0.028931614 -0.01844408 0.041399658
0.028895389 -0.013510481 0.042025983
0.0072965762 0.032048527 0.03857106
0.02949803 -0.017218685 0.037163079
0.029367935 -0.012992526 0.036808789
0.029208934 -0.0086110681 0.03748548
0.0088634007 0.032314096 0.033848584
0.030236233 -0.011513127 0.031977057
0.030328844 -0.00729864 0.032708943
0.030870181 -0.0034410385 0.032081664
0.013624736 0.031455528 0.030465603
0.010567127 0.032063019 0.028209567
0.031168466 -0.0061132358 0.027658999
0.030223772 -0.0021052212 0.027620971
0.02916286 0.0065684761 0.027108371
0.01569913 0.031013438 0.025940359
0.014956179 0.031730972 0.02294606
0.030499741 -0.00088653062 0.022221327
0.028961422 0.0078829369 0.022716463
0.019043896 0.030675253 0.021162927
0.029356152 0.0082990536 0.017516673
0.02067763 0.031266011 0.016570687
0.029845806 0.018358817 0.012998641
0.023768535 0.031093221 0.012506187
-0.017915336 0.03540143 0.070540905
-0.018699583 0.036895569 0.069303334
-0.016246185 0.034818273 0.065911949
-0.011842006 0.03196745 0.06141293
-0.013782671 0.034373634 0.061971664
-0.010775461 0.03224507 0.056966305
-0.013159001 0.034091562 0.056751907
-0.010102702 0.032372035 0.052174628
-0.0049705994 0.032346141 0.048965752
0.026190983 -0.032185655 0.048403442
-0.004352713 0.033373289 0.044998348
0.029019512 -0.028765379 0.043633521
-0.0025221128 0.033473514 0.040516376
0.028713157 -0.028863885 0.03941977
0.028268689 -0.024395708 0.03959316
0.0018955665 0.033331219 0.036884487
0.029163435 -0.028582647 0.035885811
0.028243616 -0.024704782 0.034804821
0.028821677 -0.019357577 0.034592211
0.0079686986 0.032981653 0.030741453
0.0038600145 0.033315927 0.031931758
0.028399209 -0.019330895 0.030290663
0.028626526 -0.014928094 0.029909313
0.0074133687 0.032675553 0.026964068
0.0040929373 0.033292197 0.027771413
0.028843051 -0.017508037 0.02644521
0.028918209 -0.01342415 0.025929332
0.030280903 -0.0089198798 0.025703967
0.0095760552 0.032634132 0.022802949
0.029003287 -0.012148632 0.021561682
0.029925654 -0.0077237748 0.02096504
0.029926006 -0.0037824791 0.02109319
0.012846056 0.031742834 0.019066989
0.029586159 -0.0065907827 0.01707828
0.029091924 -0.0027862135 0.01603651
0.014622088 0.031342592 0.013822377
0.028726719 0.0072846697 0.011411846
0.019010734 0.031070553 0.01075846
-0.017713353 0.035226706 0.059022188
-0.018141437 0.036906891 0.060200989
-0.017468106 0.035226651 0.054940522
-0.018904842 0.036536172 0.055291653
-0.013958446 0.03398931 0.051513612
-0.0083430447 0.032887589 0.047211289
-0.011267417 0.03362418 0.046281755
-0.0055271364 0.033780545 0.042067766
-0.0097831516 0.034086563 0.043223858
-0.0045040902 0.034040291 0.037532389
-0.0018810276 0.033696257 0.03405726
0.028516548 -0.029391505 0.032622635
0.027780175 -0.026971724 0.031634808
0.00033838395 0.033777539 0.029303849
0.029656116 -0.028154574 0.029513419
0.028479896 -0.025002329 0.028384328
0.028666247 -0.020300638 0.027688205
0.0031588497 0.033464693 0.024179518
0.029084761 -0.024654917 0.023719072
0.028929077 -0.01974396 0.023413837
0.028742965 -0.015250791 0.023373127
0.0051585874 0.033534285 0.022149265
0.029350482 -0.023288123 0.019716322
0.029424176 -0.019187305 0.018983543
0.028473889 -0.014392476 0.018655658
0.02903866 -0.01043086 0.018801987
0.0088541163 0.031996652 0.015914917
0.028620565 -0.014090079 0.014644682
0.029169889 -0.0087661659 0.014267385
0.029415788 -0.0043590125 0.013933003
0.01061778 0.031650878 0.012846947
0.029323349 -0.012615275 0.010682285
0.029581483 -0.0088117663 0.010176897
0.029437562 -0.0033063488 0.010220349
-0.01517581 0.034072686 0.047773063
-0.014548966 0.0342362 0.045057833
-0.012367421 0.033684485 0.039723873
-0.0097018015 0.033940166 0.035683155
-0.010439376 0.03358357 0.031759083
-0.0070999959 0.032861363 0.027598321
-0.0026952196 0.033445038 0.023556173
0.026687821 -0.029852616 0.023397982
0.0005501695 0.032970462 0.018314958
0.028272167 -0.025162466 0.017205596
0.029413715 -0.021555375 0.016967833
0.0059743524 0.03178338 0.013523042
0.0033760322 0.03272558 0.016106427
0.02829197 -0.024153175 0.013092995
0.028226279 -0.020185918 0.012616098
0.028023358 -0.015894994 0.011971056
0.006190028 0.031134505 0.009092927
-0.015575187 0.033679314 0.036564529
-0.015354937 0.033664376 0.032371223
-0.016202521 0.035188843 0.032138169
-0.0090312324 0.032175481 0.02809459
-0.011551595 0.033084147 0.027486205
-0.0075166547 0.032621697 0.023922741
-0.011971042 0.033464264 0.023976684
-0.006344019 0.032882895 0.017216742
-0.0061495728 0.032903466 0.015167177
-0.001484002 0.032209124 0.011501491
0.026157133 -0.026682898 0.01006645
-0.015405215 0.033522375 0.026823461
-0.016194111 0.035074156 0.02664119
-0.01368646 0.034022518 0.021694243
-0.014461498 0.035604857 0.022630751
-0.011313864 0.032466602 0.017045021
-0.0094101466 0.032892141 0.012572527
-0.015341844 0.033198055 0.011297524
