# .PCD v0.7 - Point Cloud Data file format
VERSION 0.7
FIELDS x y z
SIZE 4 4 4
TYPE F F F
COUNT 1 1 1
WIDTH 1076
HEIGHT 1
VIEWPOINT 0 0 0 1 0 0 0
POINTS 1076
DATA ascii
-0.014964268 -0.030628175 0.19245574
-0.02782405 -0.021366378 0.19000107
-0.020294702 -0.02923518 0.18990245
-0.013441528 -0.033265274 0.1892021
-0.020831758 -0.030051038 0.18552172
-0.0099408077 -0.025857296 0.19358537
-0.031392518 -0.0078305146 0.19273517
-0.029890712 -0.010751405 0.19321465
-0.024045758 -0.017735675 0.19307393
-0.016023129 -0.025252797 0.19287661
-0.0090836808 -0.031363472 0.19179043
-0.0060489941 -0.032614168 0.18905565
-0.033276953 -0.0094597805 0.18884665
-0.032440398 -0.013296682 0.18966472
-0.024916219 -0.020935254 0.19139841
-0.011277419 -0.03326194 0.18776822
-0.0069297738 -0.033357561 0.18705165
-0.033034574 -0.013582028 0.18452358
-0.028344736 -0.02171299 0.18429568
-0.021536991 -0.029645804 0.18324137
-0.012740186 -0.033476617 0.18220797
-0.03165165 -0.018407002 0.17926505
-0.025308149 -0.02598406 0.1791541
-0.017830903 -0.032663383 0.17833745
-0.031766351 -0.020168005 0.17526209
-0.026604468 -0.025880665 0.17425209
-0.018634353 -0.032804947 0.17439705
-0.025349911 -0.028803818 0.17121625
-0.027073473 -0.0034119282 0.19255906
-0.025979873 -0.0068033747 0.19341218
-0.019384788 -0.013370897 0.19297391
-0.011702096 -0.019960809 0.19264367
-0.0080209579 -0.023983087 0.19302642
-0.0047386242 -0.027266432 0.19263259
-0.00062137563 -0.029698312 0.19077885
-0.030857816 -0.0040087504 0.19056758
-0.018026903 -0.018550746 0.19261169
-0.0028230995 -0.031977557 0.18932062
0.0016974825 -0.033168115 0.18744999
-0.031984311 -0.0052181194 0.18694428
-0.0041788481 -0.033392373 0.18458638
-0.00031515397 -0.033909611 0.18367964
-0.032729119 -0.0075458977 0.18268117
-0.033003703 -0.011955433 0.18154636
-0.00964336 -0.033528503 0.18112731
-0.0054337196 -0.033162091 0.18012559
-0.033084344 -0.012586988 0.17772549
-0.011684478 -0.033332743 0.1753909
-0.0070796032 -0.033047318 0.17693728
-0.032270968 -0.017716117 0.17327476
-0.017489571 -0.032509156 0.17122081
-0.013355154 -0.033370446 0.17092958
-0.032090068 -0.017862963 0.16889516
-0.026463358 -0.025676761 0.1680364
-0.017837074 -0.031389859 0.16736668
-0.022699844 -0.027974324 0.16397899
-0.028847303 0.0038962904 0.1904487
-0.026365694 0.0011918908 0.19194666
-0.023320578 -0.0029933825 0.19337797
-0.019487716 -0.0068798559 0.19315132
-0.01182409 -0.012488319 0.19326705
-0.0045534139 -0.019521795 0.19217744
-0.00028177723 -0.023545526 0.1922583
0.0019598473 -0.027306292 0.19174263
0.004956523 -0.030573383 0.19012651
0.008367883 -0.031826571 0.18743789
-0.031528484 0.0023973472 0.1886484
-0.030732851 -0.00082467869 0.19003806
0.0033408338 -0.034357294 0.18715942
0.0077821752 -0.033506174 0.18524921
-0.032505348 0.0011545066 0.18457296
-0.032197032 -0.0022693044 0.1850087
0.0017773192 -0.03477215 0.18221435
0.0055097044 -0.034257066 0.18151376
-0.032853372 0.00053196959 0.18085411
-0.03266488 -0.0030726073 0.18015644
-0.0031033903 -0.033623293 0.1780155
0.0002997797 -0.034435362 0.1778658
-0.032711044 -0.0061124358 0.17679974
-0.032621421 -0.0077474127 0.17498577
-0.0050646812 -0.033428546 0.17404512
-0.0013922006 -0.033975586 0.17364621
-0.03302294 -0.0057288893 0.17247173
-0.032865666 -0.0091672977 0.17077342
-0.010367606 -0.033685379 0.16959077
-0.0064749336 -0.033843674 0.16903687
-0.033400103 -0.01273223 0.16638789
-0.015928082 -0.031575128 0.16463873
-0.012298735 -0.033409022 0.16463095
-0.0086869644 -0.03452789 0.1640141
-0.03193124 -0.017234067 0.16203371
-0.025860438 -0.024417633 0.16214171
-0.017466888 -0.031427082 0.1610007
-0.013153402 -0.033022016 0.16015112
-0.029143285 -0.021019809 0.15692282
-0.022596916 -0.027893743 0.15660965
-0.014623781 -0.032803565 0.15642959
0.014518023 -0.024237683 0.19441527
-0.024606531 0.010321958 0.19325727
-0.021103466 0.0065417346 0.19359756
-0.017815949 0.0030425554 0.19379482
-0.014098134 -0.00032021618 0.19262624
-0.0036676875 -0.011019394 0.19205359
0.0001484151 -0.013863591 0.19142157
0.0043880874 -0.018514365 0.19130793
0.0077943583 -0.021368682 0.1916025
0.012272549 -0.024778284 0.19137883
0.015117688 -0.027809881 0.19004363
0.018522697 -0.031078251 0.18976814
0.021077882 -0.033018433 0.1902768
-0.029432591 0.011587117 0.1906988
-0.027105846 0.0078583136 0.19171965
-0.024528669 0.0045710457 0.1925678
-0.02004106 0.00034061447 0.19327095
-0.015575277 -0.0029095695 0.19249859
-0.0051833964 -0.013584596 0.19193536
-0.0014015073 -0.016442712 0.19132322
0.0010097288 -0.020677812 0.19188976
0.0049816789 -0.024450999 0.19155276
0.0094643487 -0.027167549 0.19010407
0.012866605 -0.029825408 0.18821359
0.016966421 -0.032425471 0.18734851
0.020718725 -0.035591345 0.18646163
-0.032848913 0.01361976 0.18748581
-0.031886131 0.0096287206 0.18717256
-0.030843249 0.0060725417 0.1883058
0.010855578 -0.033674311 0.18426615
0.014311662 -0.03452041 0.18353885
0.019190183 -0.036230668 0.1834189
-0.033052348 0.0079451418 0.18195066
-0.032586589 0.00429249 0.18249238
0.0083510252 -0.034279354 0.17898732
0.013552274 -0.034233317 0.17953628
-0.033860892 0.0066137211 0.17695653
-0.033317886 0.002826333 0.17804298
0.0029508397 -0.034231983 0.17442676
0.0068988437 -0.034154542 0.17496192
-0.033559091 0.0024044011 0.17323065
-0.032801427 -0.0020333603 0.17413324
0.0014892388 -0.033934057 0.17103609
-0.033321269 0.00094465539 0.16977268
-0.032940075 -0.0028500967 0.16910762
-0.0038042674 -0.033792242 0.16639671
0.00014835969 -0.034132801 0.16669148
-0.033247218 -0.0044804448 0.16496322
-0.033032533 -0.0082268668 0.16386607
-0.0057085101 -0.034571491 0.16282782
-0.0015419405 -0.034511067 0.16222373
-0.033189133 -0.0050226292 0.16104472
-0.033175487 -0.010142194 0.15953112
-0.010986153 -0.032981273 0.15716529
-0.0071944119 -0.033741899 0.15777701
-0.032894023 -0.011639766 0.15467587
-0.030005924 -0.019230694 0.15444958
-0.01232974 -0.032264747 0.15313885
-0.03264299 -0.012724295 0.15098539
-0.029382991 -0.020598702 0.1509752
-0.022842845 -0.027362734 0.15066648
-0.013906463 -0.032620203 0.14881858
-0.025707452 -0.023862887 0.14629975
-0.019479806 -0.031163093 0.14515072
-0.02347989 -0.028736768 0.1406284
-0.018269509 -0.033339143 0.14059359
0.016271092 -0.022764748 0.19853467
-0.027769696 0.021693308 0.19575816
0.010240659 -0.015201347 0.19284201
0.012494387 -0.017891128 0.19360012
0.014530038 -0.021848001 0.19554061
0.018172307 -0.025129579 0.19401801
0.020944927 -0.028567446 0.19391271
0.022504387 -0.031824075 0.19373813
-0.03257877 0.022255417 0.19382235
-0.029043367 0.019391663 0.19356045
-0.025728062 0.015996108 0.19337726
-0.022018209 0.012962291 0.19378906
-0.019133331 0.0095521789 0.19399071
-0.014637855 0.0050927768 0.19405025
-0.011399634 0.0012739408 0.19259822
-0.008329005 -0.0023039691 0.19167832
-0.00079042464 -0.0081808707 0.19145167
0.0031074244 -0.0110237 0.19170472
0.006278811 -0.015275734 0.19161552
0.010276413 -0.020037964 0.1924184
0.012236461 -0.022699844 0.19241273
0.016610079 -0.026461238 0.19089445
0.019907132 -0.029863404 0.19140834
0.022641005 -0.033736594 0.19075942
-0.032971129 0.021664318 0.18893588
-0.031478442 0.017136468 0.19004911
-0.029036049 0.014236191 0.19129959
0.022816276 -0.036658578 0.18724325
-0.033024892 0.016336944 0.18591845
-0.032532066 0.01185643 0.18528208
0.020447861 -0.03758065 0.18147561
-0.033303201 0.013703748 0.18118918
-0.033415116 0.010853665 0.18092668
0.014731395 -0.034397714 0.17672837
0.019462416 -0.035715934 0.17780936
0.022085641 -0.038133904 0.17802101
-0.0333324 0.014015836 0.1773538
-0.034010515 0.010006629 0.17561308
0.0090157269 -0.034236323 0.17211992
0.012811048 -0.034452789 0.17199609
-0.034551263 0.0075184498 0.17131865
-0.034607962 0.0040625464 0.17094299
0.0077283671 -0.033859842 0.16823378
0.011980997 -0.034199052 0.16724652
-0.034409862 0.0068199532 0.16780144
-0.03399514 0.0030251388 0.1671088
0.0020478256 -0.034667891 0.16388363
0.006739568 -0.033985827 0.1634208
-0.033841837 0.0016762968 0.16346818
-0.03350208 -0.0015326515 0.16296625
0.0016879998 -0.034303259 0.15968168
0.0053614154 -0.033593237 0.1599032
-0.033463206 -0.0032196343 0.15850884
-0.033577994 -0.007339594 0.15661287
-0.0049070483 -0.033655129 0.15564498
-0.00095358677 -0.033707649 0.1559394
-0.032939352 -0.0042236252 0.15395901
-0.032951623 -0.007527722 0.15259704
-0.0099467803 -0.032434069 0.15105349
-0.0060635116 -0.033113252 0.15126756
-0.0025083721 -0.034128368 0.15180624
-0.033042319 -0.010143531 0.14860252
-0.010984833 -0.032665733 0.14647871
-0.0072469292 -0.03291649 0.14609069
-0.032636736 -0.011133183 0.14455655
-0.028740514 -0.019478597 0.14349192
-0.013217133 -0.033550784 0.14328593
-0.011074869 -0.032973982 0.13951403
-0.028859409 -0.019591173 0.13906947
-0.024754269 -0.026949376 0.13960987
-0.028950663 -0.020282248 0.13536483
-0.023835234 -0.027424183 0.13462499
-0.017379031 -0.032913204 0.13450286
0.016152125 -0.012970126 0.19482845
-0.024321767 0.02270755 0.19502801
-0.02132467 0.020451481 0.19516027
-0.018696023 0.01696885 0.19393522
-0.015060001 0.013338645 0.19323298
-0.011252619 0.0092764413 0.19308358
-0.0058164177 0.0063353321 0.19222015
-0.0033504381 0.0037684517 0.19163561
0.0011495238 0.00041665303 0.19089487
0.004285994 -0.0032038328 0.19087848
0.0076468331 -0.0066404529 0.19161382
0.010480223 -0.010546818 0.19184613
0.014352777 -0.014396109 0.19361031
-0.0084819989 0.0030903229 0.1923911
-0.0050004339 0.0010060933 0.19161758
0.0015854526 -0.0058586388 0.19129708
-0.035014618 0.026043672 0.18690002
-0.03351279 0.023212954 0.18856925
-0.03525234 0.025300469 0.18390214
-0.033531748 0.022207741 0.18364474
-0.031814266 0.01865215 0.1821869
-0.032390546 0.0217929 0.1793161
-0.031940866 0.01886254 0.17843035
0.021663995 -0.034567431 0.17378232
0.0244879 -0.03655649 0.17313266
-0.032353379 0.016107632 0.17414969
0.016869096 -0.033575863 0.17024192
0.020606976 -0.032846432 0.17002136
-0.0325858 0.015475538 0.16982955
-0.034458049 0.011201932 0.16971731
0.015300686 -0.033594362 0.16506693
-0.034107532 0.0087934695 0.16455108
0.0097240629 -0.033901945 0.1607061
0.012606126 -0.03394736 0.16072196
-0.033497643 0.0084311469 0.16005877
-0.033202443 0.0045833057 0.16025519
0.0076652998 -0.033775531 0.15671289
0.01171495 -0.034100834 0.15697354
-0.032734953 0.0032571983 0.15576816
-0.032691397 0.0004583355 0.15555432
0.0019983314 -0.033780515 0.15363595
0.0061992053 -0.033071537 0.15215999
-0.032421816 -0.0012186961 0.15141028
0.00062114932 -0.033874683 0.14888221
-0.0325111 -0.0026696278 0.14685741
-0.032908648 -0.006649618 0.14647412
-0.0048789429 -0.033359803 0.14507094
-0.0010408461 -0.033323929 0.14441681
-0.032637239 -0.0082898773 0.14176753
-0.031322122 -0.012927006 0.14087015
-0.0074193999 -0.032664701 0.14019814
-0.0031729573 -0.033190757 0.1402874
-0.032132886 -0.0095726792 0.13782531
-0.029693305 -0.017738674 0.13648987
-0.0099301701 -0.033000529 0.13508564
-0.029755618 -0.019489095 0.1329456
-0.023097349 -0.026519943 0.13133201
-0.015385505 -0.033057157 0.13158453
-0.011172268 -0.033534076 0.13059241
-0.029959986 -0.019993046 0.12829036
-0.023064906 -0.026263177 0.12732393
-0.0160098 -0.031960987 0.12688839
-0.02376736 -0.025619473 0.12351406
-0.015967436 0.023577729 0.19708312
-0.013314571 0.024144886 0.19567892
0.017265577 -0.0052867718 0.19416144
0.017883161 -0.0089671686 0.19584247
-0.017889498 0.023984022 0.19594061
-0.014531855 0.020721801 0.19383481
-0.011818797 0.017293004 0.19254133
-0.0075178845 0.013814712 0.19222105
-0.0034312431 0.010270667 0.19265214
-0.0003499852 0.0052758567 0.19207171
0.0066184895 -0.00098059094 0.19173709
0.011526675 -0.0029250961 0.19212598
0.014461475 -0.0067654648 0.1922819
0.01578911 -0.009939976 0.19290513
-0.03309086 0.031495105 0.18445191
-0.035592973 0.032161724 0.1822331
-0.033859689 0.028909216 0.18039346
-0.033448972 0.025246784 0.18027997
-0.034181163 0.027220706 0.17606911
-0.033048555 0.023976963 0.17662644
-0.03294652 0.023103721 0.17152905
-0.032077007 0.019519281 0.17222416
0.022886306 -0.033481106 0.16798496
0.026319878 -0.035586379 0.16774967
-0.033405773 0.02181329 0.16756573
-0.032939643 0.018295981 0.1676029
0.017634412 -0.03319411 0.16313416
0.021589803 -0.033913132 0.16340405
0.025844488 -0.035408799 0.16197094
-0.033050627 0.017117862 0.16337681
-0.032724943 0.013601747 0.16313708
0.016041536 -0.033663731 0.15919706
0.020693382 -0.034318455 0.15856847
0.024881441 -0.036198385 0.15898097
-0.032912292 0.016070673 0.15932214
-0.03284096 0.012042088 0.15836039
-0.032601308 0.0072954223 0.15726006
0.014311381 -0.034063593 0.15424478
0.018293202 -0.035018932 0.15410912
-0.032616116 0.0099303285 0.15325573
-0.032402843 0.0069239857 0.15313232
0.0088567175 -0.033469725 0.1501416
0.012866281 -0.033528864 0.14980778
-0.032611009 0.0050064288 0.14900658
-0.03227536 0.0013904935 0.14921796
0.0068762666 -0.033228338 0.14595884
-0.032505035 0.0038402984 0.14440113
-0.032332316 0.00080133416 0.14433694
0.0018015187 -0.033521496 0.14218357
0.0055313231 -0.032748077 0.14135858
-0.032540455 -0.00073557161 0.13999367
-0.0012394208 -0.033090286 0.13763392
0.0019830093 -0.033692785 0.13687563
-0.032190144 -0.0020283712 0.13533112
-0.032230392 -0.0058994358 0.1355314
-0.031576674 -0.010444235 0.13408023
-0.0058767768 -0.032208718 0.13451207
-0.0024059266 -0.033004764 0.13329929
-0.031768717 -0.0072385222 0.13113171
-0.031250566 -0.011656186 0.13021716
-0.007809408 -0.03325469 0.12925288
-0.0041105868 -0.033038743 0.12864107
-0.031862862 -0.0079654809 0.12724566
-0.03143952 -0.012916154 0.12605715
-0.014158796 -0.032260649 0.12409306
-0.0099743307 -0.033436503 0.12434477
-0.0051857438 -0.033345163 0.12497967
-0.030072941 -0.019049967 0.12126845
-0.023091694 -0.026247513 0.12094373
-0.015973866 -0.032354157 0.12057441
-0.011325794 -0.033772517 0.11970752
-0.026781358 -0.022528937 0.1158424
-0.020526109 -0.029846963 0.11597914
-0.027224969 -0.02274939 0.11226422
-0.02044739 -0.029555883 0.11186415
-0.0038795481 0.024532266 0.19690341
0.017229617 0.0023285421 0.19685435
0.018558687 -0.0008388916 0.19653162
-0.010563731 0.023158733 0.19544366
-0.0058555258 0.022713091 0.19421887
-0.0026741223 0.018730473 0.19461405
0.0013389313 0.015095391 0.19406718
0.0077677984 0.0068083517 0.19286513
0.012434846 0.0042881789 0.19306973
0.014958414 0.00028694142 0.19399717
0.017500089 -0.0031039943 0.19489366
-0.011264785 0.021796782 0.19380331
-0.0085528754 0.019602014 0.19268426
-0.0057000751 0.016648313 0.19281477
-0.0021797325 0.013928759 0.19274098
0.0029713504 0.0088778157 0.19236505
0.0094652791 0.001767108 0.1921764
-0.033438262 0.032334447 0.18021908
-0.034738559 0.027762763 0.17045507
-0.033647925 0.025961278 0.17067957
0.030272758 -0.034694396 0.16332373
-0.03566502 0.026644174 0.16568077
-0.034481563 0.023834687 0.16601881
-0.036454774 0.026303375 0.16049799
-0.034536242 0.02327976 0.16108349
-0.033546943 0.019160628 0.1608488
0.022070315 -0.03543096 0.15622988
0.024648 -0.036340475 0.15630305
-0.03432864 0.021861022 0.15657285
-0.033473365 0.018370472 0.1564596
-0.032807551 0.014116275 0.15630108
0.021120954 -0.035334062 0.15284345
0.024893276 -0.036804575 0.15136993
-0.032431155 0.017243296 0.15187877
-0.03239236 0.013255338 0.15209541
0.015016481 -0.033665039 0.14783025
0.019508619 -0.034740161 0.14791882
0.023961861 -0.036738858 0.14773124
-0.032561049 0.012436529 0.14732617
-0.032839611 0.0079413671 0.14658052
0.012626776 -0.032795653 0.14289007
0.0170701 -0.033843711 0.1439923
-0.032259375 0.01109812 0.1439105
-0.03291725 0.0062638409 0.14255738
0.0072430996 -0.032714382 0.13901916
0.01166769 -0.032977059 0.13831347
-0.033255082 0.0047737649 0.13760501
-0.032760859 0.0018824823 0.13673526
0.0058500394 -0.033299953 0.13468677
0.0097201606 -0.033716813 0.13416234
-0.033396248 0.0039020581 0.13224933
-0.033055045 0.00018708408 0.13351288
-0.00051367655 -0.033579756 0.13039038
0.0038154805 -0.033659585 0.13033512
-0.032787703 -0.00060178339 0.12882417
-0.03214708 -0.0043836134 0.12911892
-0.0016862042 -0.033654355 0.12676734
0.0013878271 -0.033814099 0.12559789
-0.032917034 -0.0019782754 0.12497818
-0.032556649 -0.0058846418 0.12443376
-0.0033453433 -0.033705451 0.12221187
-0.032537401 -0.007189963 0.11980176
-0.032175004 -0.010644505 0.12038314
-0.0086431094 -0.034117568 0.11841553
-0.0051700417 -0.034119003 0.11751068
-0.031660911 -0.012925814 0.1155588
-0.014357484 -0.032658085 0.11297643
-0.010437648 -0.033689935 0.11403131
-0.0058722124 -0.033513349 0.11366421
-0.030417666 -0.019002125 0.11021161
-0.024551515 -0.026116835 0.10899115
-0.016343987 -0.032139808 0.10888904
-0.011486279 -0.032737821 0.10978591
-0.030379593 -0.019253038 0.10585898
-0.023991307 -0.025912501 0.10510904
-0.016712977 -0.0317441 0.10493737
-0.018171672 -0.031299964 0.10155708
-0.0019744225 0.024226613 0.19617561
0.015005792 0.011620646 0.19341066
-0.0026090182 0.023682782 0.19479901
-0.0019388124 0.022031568 0.19512627
0.0023159133 0.019507475 0.19419163
0.012072564 0.011089489 0.19211149
-0.034643628 0.026142284 0.15776339
-0.033797372 0.025039434 0.15397927
-0.032925956 0.024049841 0.14915311
-0.03231803 0.020642437 0.14909667
0.024359137 -0.035650454 0.14445662
0.026673544 -0.037465341 0.14428458
-0.032888092 0.019476723 0.1446113
-0.032631487 0.015283771 0.14513183
0.019964397 -0.033279862 0.14034519
0.023759246 -0.035375599 0.14023942
-0.03234949 0.013932252 0.14050591
0.014283027 -0.033267744 0.1371018
0.01774488 -0.032821406 0.13658339
0.022740666 -0.035382453 0.1366359
-0.03246852 0.012490838 0.13601255
-0.032232344 0.0093821865 0.1369144
0.0123887 -0.033533361 0.13217622
0.017042816 -0.034230053 0.13190106
-0.032926045 0.011376625 0.13246286
-0.031933613 0.0086044949 0.13126263
0.0070459675 -0.032979604 0.12612551
0.010624317 -0.033048637 0.12819135
-0.032540895 0.005269615 0.12627083
-0.03280168 0.0019458942 0.12567991
0.0055643637 -0.032599382 0.12330163
0.0094054583 -0.03295628 0.12487066
-0.032688908 0.0053519635 0.12336141
-0.032460641 0.0006887503 0.1215052
-0.00017456152 -0.032776691 0.11810189
0.0030751498 -0.032533105 0.1187005
-0.032531239 -0.00036116876 0.11661655
-0.032358259 -0.0037011476 0.11714011
-0.00096377172 -0.033385575 0.11487681
0.001367867 -0.033373009 0.11360627
-0.032180313 -0.0052011553 0.11257476
-0.031223943 -0.008548094 0.11244297
-0.0034417938 -0.033578485 0.11013961
0.00023332052 -0.034317732 0.11071825
-0.032065541 -0.0067797704 0.10806906
-0.031419676 -0.0095867598 0.1080988
-0.0093364352 -0.032782093 0.10663503
-0.0053621326 -0.033259135 0.10582709
-0.03161693 -0.012017949 0.10383606
-0.026376043 -0.02136521 0.10317844
-0.010208539 -0.032374363 0.10185796
-0.026571123 -0.021321436 0.099273086
-0.020180825 -0.028588897 0.098329723
-0.012155243 -0.032956302 0.097395778
-0.027033605 -0.021742182 0.093984962
-0.02037622 -0.028518677 0.093392789
-0.013879572 -0.033507902 0.093235314
-0.01873845 -0.031258758 0.089832783
0.015225515 0.015256772 0.19335026
-0.03393757 0.029846553 0.15197131
-0.033718992 0.027707346 0.15182257
-0.034561701 0.029609879 0.14754266
-0.033925451 0.026203655 0.14746657
-0.034405161 0.02515124 0.14286464
-0.03381725 0.021389673 0.14204851
-0.034334555 0.024355289 0.13838664
-0.033512738 0.019641463 0.13877845
0.020340383 -0.033352643 0.13461655
0.022681266 -0.035359133 0.13373432
-0.03423319 0.018633217 0.13401997
-0.033166751 0.015083317 0.13431594
0.018323164 -0.034107927 0.13020581
0.021529771 -0.036084015 0.13016158
-0.032612305 0.013832182 0.12960002
-0.031687237 0.010591903 0.12923673
0.014177922 -0.032444626 0.12555981
0.017851787 -0.034013256 0.12485015
-0.031826541 0.013144704 0.12517375
-0.031782467 0.0096904449 0.12478518
0.0078980131 -0.032019336 0.12130064
0.011895499 -0.032381319 0.1213212
0.018685184 -0.035342216 0.12108737
-0.031735681 0.0078064753 0.1197198
-0.032512162 0.0034511592 0.12022132
0.0073955338 -0.031778 0.11701411
0.0099233007 -0.032763779 0.11711729
-0.032222901 0.0064563472 0.11566162
-0.032565769 0.0028455863 0.11539227
0.0060422234 -0.031770017 0.11278546
-0.033226371 -0.00028323196 0.11090446
-0.032789852 -0.0029955134 0.10959941
0.0023055058 -0.033619948 0.10805553
-0.033258885 -0.00012916885 0.10645795
-0.032632545 -0.0045207385 0.10627383
-0.0029035136 -0.033873156 0.10387117
0.0010320097 -0.034402877 0.1033504
-0.032644048 -0.0053547034 0.10169005
-0.031993337 -0.009139033 0.10171002
-0.008094592 -0.032740735 0.098605692
-0.0048238011 -0.033886395 0.099598169
-0.00056263059 -0.034582619 0.09831351
-0.032346603 -0.0062578823 0.096948981
-0.032063976 -0.010606756 0.096968055
-0.0098439017 -0.033700623 0.095561445
-0.0056893853 -0.034130454 0.094504535
-0.032551952 -0.011547556 0.092348814
-0.028863207 -0.019703869 0.09172374
-0.011442437 -0.033963881 0.090780377
-0.0073999818 -0.033985026 0.090790927
-0.032274585 -0.012510401 0.087960303
-0.027640961 -0.020848142 0.087750018
-0.02099549 -0.029125459 0.087434649
-0.013012121 -0.033873215 0.086532772
-0.020808907 -0.028416505 0.083483398
-0.034160875 0.030379973 0.14408591
-0.034501519 0.030279765 0.14137352
-0.034763388 0.027760278 0.13969171
-0.034647703 0.02668491 0.13554129
-0.035064764 0.025546249 0.13126987
-0.03428793 0.021881422 0.13130671
0.023660835 -0.035375476 0.12638038
-0.032389801 0.021157846 0.12637293
-0.031416271 0.017488936 0.12557882
0.023539191 -0.034743857 0.12192613
-0.031453546 0.016215783 0.12156618
0.01623296 -0.030848397 0.1173178
0.018525261 -0.032917324 0.11781269
0.023201684 -0.0348338 0.11780751
-0.032236196 0.01400213 0.11705643
-0.031841196 0.010793574 0.11786562
0.014189616 -0.031710152 0.11344481
0.017631527 -0.032408476 0.11366147
-0.032458305 0.013484813 0.11343038
-0.031896256 0.0097702639 0.11290365
0.0075925272 -0.031915564 0.11052454
0.011284384 -0.03159285 0.10976768
-0.031893976 0.0079860147 0.1082589
-0.031452257 0.00545533 0.10874218
0.0066550979 -0.03263383 0.10639113
0.0098803407 -0.031805053 0.10422808
-0.031664155 0.0040826723 0.10350966
0.0064470097 -0.032614395 0.1004805
0.0086313877 -0.032822676 0.10038513
-0.032680027 0.00010270812 0.10100543
-0.032275949 -0.0017239936 0.099674761
0.0033025593 -0.033737477 0.097244263
-0.031889092 -0.0029279916 0.095016658
-0.0019930676 -0.033460528 0.092508852
0.00057776645 -0.033278838 0.091977417
-0.032431766 -0.0049533239 0.09067297
-0.032608632 -0.0083546462 0.090074718
-0.0041863071 -0.033556961 0.088337123
-0.032623991 -0.0057984209 0.086740434
-0.032251939 -0.0093695056 0.086036205
-0.028681856 -0.017934242 0.084629655
-0.010773337 -0.033481866 0.083344877
-0.0063461168 -0.033281282 0.084247649
-0.032365184 -0.010615154 0.081598222
-0.02739368 -0.018748015 0.081248224
-0.0205446 -0.027981512 0.080046952
-0.011229027 -0.032950483 0.07969147
-0.027951038 -0.019010834 0.076597273
-0.02130015 -0.027365552 0.076076627
-0.013138671 -0.032557115 0.075556695
-0.025691601 -0.023440497 0.072479546
-0.017848428 -0.030413423 0.071754992
-0.035936099 0.027577631 0.1285755
-0.034654278 0.026856955 0.12526453
-0.033322416 0.022768181 0.12413752
-0.034452651 0.026744509 0.12023383
-0.032950293 0.021560371 0.12043035
-0.03230093 0.017909138 0.11923444
0.024477443 -0.035120629 0.11660552
-0.032779314 0.021292282 0.11590225
-0.032331191 0.017245241 0.11557329
0.01945675 -0.032880865 0.11091352
0.024422141 -0.032850172 0.1122486
-0.032538779 0.014813259 0.11083633
-0.03213913 0.011723709 0.11009747
0.014285535 -0.031754903 0.10732335
0.018056517 -0.0325558 0.1068387
-0.032206092 0.014395094 0.1058287
-0.03230672 0.010929594 0.10615277
0.012764197 -0.032238577 0.10326487
0.016282057 -0.0325757 0.10312027
-0.031185556 0.0094280941 0.10196811
-0.031146266 0.0063790157 0.10108608
0.010943373 -0.032862693 0.098527253
-0.031013878 0.0090800747 0.098671257
-0.030949723 0.0049656909 0.09661746
0.0061454056 -0.032646589 0.09359926
0.0089092487 -0.032894351 0.093698442
-0.030724382 0.0027550654 0.092515826
-0.03228578 -0.0011810865 0.092331707
0.0030970396 -0.033118583 0.090476096
0.0070827436 -0.031634219 0.089521527
-0.032313231 -0.0014635865 0.087911665
-0.0021431595 -0.033320047 0.085421503
0.0018833866 -0.032919824 0.084956706
-0.03249998 -0.0040137675 0.083298504
-0.0030657826 -0.032909337 0.081657708
-0.00057111494 -0.032769747 0.080149293
-0.032533754 -0.0051596006 0.079194784
-0.032949023 -0.0086805122 0.078880012
-0.0055919196 -0.032619596 0.077233195
-0.032639924 -0.010326003 0.075060427
-0.010950256 -0.032858107 0.073917627
-0.0082532521 -0.032496013 0.072140276
-0.031740852 -0.010769213 0.070342958
-0.028845545 -0.019006722 0.069716156
-0.018170172 -0.030248381 0.069075763
-0.029823339 -0.015536952 0.065535903
-0.025588062 -0.022963338 0.065967143
-0.018161133 -0.029112121 0.064392745
-0.034827732 0.028837495 0.11945927
-0.034750521 0.026568476 0.11446756
-0.033336237 0.023839295 0.11449808
0.025353502 -0.032662194 0.10899222
0.028275793 -0.033012941 0.1099419
-0.034412846 0.026189413 0.10943377
-0.032755293 0.022809656 0.10939384
-0.031864405 0.019236375 0.10936034
0.024458956 -0.032501597 0.1044116
-0.032107338 0.021752458 0.10525739
-0.031970002 0.018324547 0.10480964
0.018339863 -0.03231737 0.10137016
0.022883369 -0.032889377 0.099930525
-0.032312535 0.015975077 0.10005951
-0.031388775 0.012564481 0.099869013
0.016991666 -0.031994939 0.096132219
0.020783104 -0.032719355 0.095670998
-0.032870278 0.014629805 0.094926059
-0.031744316 0.011246542 0.095720351
0.011027476 -0.032561064 0.091845095
0.014723194 -0.032532353 0.091806114
-0.032342426 0.0098737814 0.091555655
-0.031157508 0.00616688 0.091658413
0.0099720899 -0.031886686 0.087342799
0.013464008 -0.032453954 0.088391304
-0.032360654 0.008597088 0.087433279
-0.031145167 0.0048355078 0.086854219
0.007999422 -0.032178316 0.08343941
-0.031552572 0.0033109002 0.081961215
-0.03178722 8.9678913e-05 0.08220917
0.0015211031 -0.033033211 0.079080343
0.0064599197 -0.032377962 0.078475952
-0.031978916 -0.0012785634 0.076853335
-0.0039781854 -0.032311689 0.073662698
0.00066155754 -0.032865971 0.074785769
-0.032700796 -0.0024964539 0.072742045
-0.032682974 -0.0071490826 0.072080195
-0.0052082203 -0.032191634 0.070189297
-0.00097816437 -0.032542661 0.070375621
-0.033505946 -0.0047942381 0.068725467
-0.032208882 -0.0082651516 0.068040848
-0.030545244 -0.012469573 0.067086577
-0.011161336 -0.031174418 0.065570891
-0.0063401954 -0.03195747 0.066241443
-0.033736266 -0.005308738 0.064453602
-0.032595985 -0.0088123595 0.063570082
-0.028245535 -0.017832855 0.062189817
-0.020301964 -0.026787614 0.061748922
-0.012852028 -0.030778393 0.062110603
-0.0081478152 -0.031763989 0.061835647
-0.032521915 -0.010802598 0.059380114
-0.028144777 -0.018093603 0.058618069
-0.021531381 -0.025768174 0.058024228
-0.012924827 -0.030568279 0.057267666
-0.028709169 -0.018357225 0.05386585
-0.022529067 -0.025880802 0.053644001
-0.014886403 -0.031241216 0.052956164
-0.026153257 -0.022620844 0.050454974
-0.019686896 -0.02960081 0.049835265
-0.033444978 0.027617175 0.10519475
-0.033316497 0.025222374 0.1062721
-0.032307204 0.024587175 0.10171449
0.024436388 -0.033922561 0.097302496
-0.031855881 0.022707494 0.097539425
-0.032547019 0.019476529 0.098476648
0.022689771 -0.033814102 0.093849242
-0.032711819 0.018297438 0.093430936
0.018665267 -0.032224927 0.089461684
0.021555517 -0.033756029 0.089197397
-0.03312809 0.015959665 0.090319157
-0.032181971 0.012730113 0.087985039
0.016082937 -0.032192566 0.084743202
0.020444289 -0.032712236 0.084611118
-0.031913985 0.011359395 0.083725095
-0.031686701 0.007208325 0.083647192
0.010777846 -0.032417394 0.080662072
0.014005481 -0.032262325 0.080293059
-0.031645294 0.010010819 0.079095006
-0.031577438 0.0067108907 0.079301298
0.0096305516 -0.032406464 0.075742662
-0.031566124 0.0044571087 0.074661672
0.0067676613 -0.032200087 0.071902275
-0.032568719 0.0035585426 0.069894612
-0.033045553 -0.00025062077 0.069684029
0.0023588305 -0.032382309 0.067401648
-0.033187918 -0.0013200622 0.06616801
-0.0034083342 -0.031318903 0.062425673
8.38954e-05 -0.031983756 0.063095272
-0.032926459 -0.0034362348 0.060871601
-0.0050694598 -0.031613391 0.059392035
-0.0018256111 -0.031965122 0.058690429
-0.032672361 -0.0084413802 0.057135284
-0.010658317 -0.030986652 0.055077314
-0.007235392 -0.0309301 0.054447412
-0.032314427 -0.010054109 0.051485062
-0.012202661 -0.031676508 0.050610244
-0.0091709225 -0.031613067 0.049251556
-0.029498741 -0.018471535 0.047827303
-0.023246372 -0.025960663 0.046833634
-0.014464723 -0.031249691 0.04625535
-0.02577715 -0.021785989 0.042348623
-0.019346222 -0.029492704 0.042692006
-0.030514117 0.031240404 0.09983027
-0.033724792 0.028191343 0.095889986
-0.032398161 0.02519224 0.096011102
-0.033967219 0.028311376 0.091855288
-0.032827821 0.024613578 0.09201777
-0.032376256 0.020425528 0.089727998
0.023002919 -0.032658689 0.085210562
-0.032285281 0.023075443 0.088360012
-0.03169575 0.018984184 0.086633563
0.018546224 -0.032089785 0.081246912
0.023281939 -0.033083368 0.082519174
0.025953585 -0.034388699 0.081329942
-0.031407792 0.018188778 0.082461298
-0.031684194 0.014550748 0.081975877
0.017635137 -0.032080978 0.07831496
0.021970475 -0.033085115 0.078338563
0.025177199 -0.035001386 0.07793659
-0.032038867 0.016859014 0.07893157
-0.03206531 0.013506964 0.078166425
0.016060228 -0.031890508 0.074280441
0.019684166 -0.033125732 0.074917912
-0.032604236 0.011548607 0.073923528
-0.031525861 0.0081602456 0.073754609
0.01098546 -0.031868473 0.069911242
0.013999656 -0.031933062 0.06976527
-0.033098631 0.00992411 0.069056451
-0.032906152 0.0065024206 0.069172144
0.0087181143 -0.031830695 0.065735757
0.013180968 -0.031980325 0.06556493
-0.033209972 0.0047420589 0.064701378
-0.032505453 0.0008397717 0.06251955
0.0032108985 -0.031916704 0.060911298
0.0067956289 -0.031797905 0.06124568
-0.031758815 0.0041673006 0.060297251
-0.032438636 0.00035890378 0.059236586
-0.0033092676 -0.030958906 0.055886209
0.0012010876 -0.032117914 0.056965649
-0.032197226 -0.0011835778 0.055429637
-0.031938061 -0.005174933 0.05491215
-0.0043922495 -0.031068005 0.052384794
-0.00013503246 -0.032436058 0.052670896
-0.031716075 -0.0058550537 0.050925374
-0.0052704457 -0.031581078 0.0485484
-0.0019211844 -0.032195598 0.047801077
-0.032654893 -0.0093017854 0.04704541
-0.031996548 -0.012797877 0.044343829
-0.011713663 -0.031507678 0.044401586
-0.0077632591 -0.031989485 0.044361174
-0.032995082 -0.010038868 0.041283607
-0.030216597 -0.016715769 0.041188061
-0.01337566 -0.03151967 0.040335119
-0.0096300095 -0.032210097 0.039782107
-0.029556915 -0.018174304 0.037334025
-0.022284565 -0.025062867 0.036692917
-0.014743706 -0.031402376 0.035839379
-0.010393832 -0.032165553 0.035423696
-0.026047159 -0.021496169 0.032740176
-0.019462848 -0.02900763 0.030742645
-0.033333335 0.029357634 0.08789283
-0.033030193 0.02713622 0.088824093
-0.033027925 0.03012326 0.083193362
-0.031679168 0.02650304 0.084590077
-0.030962437 0.022432011 0.083805382
-0.031169897 0.025044115 0.079491138
-0.031299151 0.021835931 0.079623282
0.023492258 -0.033062045 0.074796915
0.025277108 -0.034831218 0.074680924
-0.033557504 0.023160731 0.07240361
-0.032403786 0.019517057 0.075441003
0.018790195 -0.031548306 0.070459247
0.022159543 -0.03332442 0.071263909
0.024906147 -0.035121456 0.072958529
-0.032847408 0.018317712 0.070997596
-0.032611977 0.014587632 0.070003092
0.017330363 -0.031863026 0.066863596
0.021249257 -0.03344176 0.066096842
-0.032523133 0.013784906 0.066174507
0.015282296 -0.03223183 0.062374711
0.018959412 -0.033412755 0.061898708
-0.032497481 0.011276299 0.062570691
-0.032119606 0.0086225765 0.060242057
0.010209092 -0.031621553 0.058192015
0.013446151 -0.03227248 0.058561325
-0.031167503 0.0062542548 0.056716621
0.0072483206 -0.030788857 0.054226935
-0.031091128 0.0054193195 0.052880824
-0.031462159 0.0019359384 0.051455438
0.0024622986 -0.032163188 0.048839629
0.0058502462 -0.031340666 0.049533546
-0.030961562 -0.00033272058 0.047855616
-0.031164542 -0.0038566189 0.047365487
0.0011693463 -0.03208752 0.045331657
-0.030898832 -0.00090930611 0.04344058
-0.031028569 -0.0046361741 0.043451309
-0.0044394676 -0.031405926 0.040926397
-0.0013581486 -0.031620756 0.041643083
-0.031077284 -0.0047912803 0.039289296
-0.0057975817 -0.031341299 0.036381006
-0.03287337 -0.0095255133 0.035566866
-0.03223528 -0.012318825 0.033535838
-0.012191239 -0.031397201 0.031821609
-0.0088007553 -0.031671602 0.031998694
-0.032386132 -0.0087652039 0.031600296
-0.031581044 -0.012946255 0.029789448
-0.025280558 -0.020498842 0.028450787
-0.014233362 -0.031779535 0.028164625
-0.010254093 -0.031691462 0.027534425
-0.024042776 -0.020227177 0.02426213
-0.019125232 -0.028705794 0.024499178
-0.021389645 -0.025722101 0.021423757
-0.015898209 -0.03093967 0.020948112
-0.032883778 0.030497013 0.080843031
-0.031313039 0.028447736 0.080987394
-0.033095047 0.030454557 0.078895926
-0.031821944 0.027440455 0.078025043
-0.032333449 0.026336972 0.074272037
-0.033371918 0.025600301 0.069360137
-0.033020202 0.021598585 0.068700612
-0.032116633 0.0200253 0.064780176
0.021258293 -0.033566616 0.060639143
0.024488783 -0.033825584 0.060369968
-0.031629991 0.018915221 0.059787989
-0.031890661 0.015554131 0.060126662
0.016894676 -0.032118969 0.05715543
0.019650269 -0.033265397 0.055837214
0.022413522 -0.034651965 0.055247962
-0.031325154 0.013872321 0.05555898
-0.03041652 0.01080231 0.054890096
0.010812991 -0.030298837 0.052372456
0.014361029 -0.031101935 0.05144912
0.018475097 -0.032779071 0.050915003
0.022188494 -0.034749106 0.051184475
-0.030795099 0.0090295449 0.050445139
0.0087712333 -0.030903308 0.048604429
0.012664353 -0.031194981 0.046731293
-0.031322576 0.0069402931 0.045794666
-0.031088095 0.0034938008 0.046472549
0.0073549859 -0.030868296 0.043039083
0.010504635 -0.031359494 0.041398942
-0.031783186 0.0055870702 0.041458547
-0.031317048 0.0018827925 0.041843235
0.0024242476 -0.031270061 0.039306819
0.006386891 -0.031001076 0.037804365
-0.031612992 0.00056501757 0.036925316
-0.031037256 -0.0030036541 0.037186444
0.00024212338 -0.031117393 0.034928262
0.0025511906 -0.031428445 0.031246006
-0.032209098 -0.0013783975 0.031605124
-0.031595048 -0.00446874 0.032973349
-0.0042278031 -0.030793535 0.030789554
-0.0014270088 -0.0310243 0.029711485
-0.032169223 -0.0062915441 0.027886212
-0.0060243746 -0.030888766 0.025916994
-0.032495447 -0.0075353719 0.023741484
-0.031097226 -0.011402893 0.023368776
-0.024997523 -0.019299738 0.022704899
-0.012322496 -0.031032622 0.020883679
-0.0089395382 -0.031116156 0.021380007
-0.030853093 -0.012545849 0.01805073
-0.025298094 -0.019933732 0.018368959
-0.019304086 -0.027605189 0.017376363
-0.009774969 -0.030779239 0.016922414
-0.029623715 -0.016791005 0.01384902
-0.02258784 -0.024116009 0.013618171
-0.015606053 -0.029896446 0.012872756
-0.030635286 0.0315498 0.068535268
-0.033304334 0.028105527 0.066200316
-0.032239564 0.027148992 0.061841726
-0.031760484 0.023539921 0.061678052
-0.031255223 0.021958819 0.05761236
-0.031646691 0.019465333 0.053120077
-0.031419702 0.016510766 0.052074015
0.020446595 -0.033190716 0.047831833
0.022687215 -0.034201831 0.047396064
-0.030697763 0.015133698 0.048104584
0.015534172 -0.031425986 0.043757081
0.01932792 -0.032119665 0.044214308
0.022637568 -0.034163393 0.044194043
-0.030772069 0.014954955 0.044308305
-0.030974485 0.011061034 0.044403076
0.01397952 -0.031597413 0.040496886
0.018337313 -0.031081688 0.040811121
-0.03158991 0.0088424189 0.039759338
0.0078270314 -0.031319354 0.035483181
0.011661598 -0.031282648 0.036351383
-0.032136165 0.0071886936 0.034961939
-0.031837121 0.0036740964 0.033932567
0.0064765289 -0.031289987 0.031979918
0.010313192 -0.03121306 0.031735599
-0.032157008 0.0059474893 0.031770527
-0.031474173 0.0031493912 0.029665649
0.00033479277 -0.031013068 0.026978433
0.0040320288 -0.031093683 0.027971029
-0.031555947 0.00051521976 0.025774896
-0.032135174 -0.0033280207 0.026163816
-0.0013283743 -0.03054468 0.022757053
0.0027379291 -0.030959379 0.0232656
-0.031824645 -0.004472468 0.021179318
-0.0022986364 -0.03036686 0.018903375
-0.03155496 -0.0056703947 0.016228139
-0.03127471 -0.0098131532 0.016281724
-0.0076998547 -0.030485952 0.014870167
-0.0041866666 -0.030069705 0.014017999
-0.032092001 -0.0072024278 0.013077497
-0.031359244 -0.0097369617 0.011456668
-0.0091903321 -0.030576147 0.0095284581
-0.031873554 0.033763263 0.057469189
-0.032528374 0.030363131 0.059624851
-0.033793241 0.031925473 0.055270493
-0.032396518 0.028662907 0.055901527
-0.030513294 0.024171552 0.055294752
-0.034545098 0.031462651 0.051667631
-0.03255992 0.027788062 0.051013708
-0.030917453 0.024097428 0.051288962
-0.030496988 0.023069374 0.046753645
-0.030990941 0.018295221 0.045855463
0.021548221 -0.032797139 0.041961789
0.022739921 -0.034011766 0.041903615
-0.030504052 0.016690178 0.041585803
0.020944644 -0.031192489 0.036870182
0.023700943 -0.033033952 0.037560165
-0.03060006 0.015501717 0.03677392
-0.031341989 0.011273691 0.036964238
0.015135607 -0.030896176 0.033475518
0.019091958 -0.030175408 0.033376634
-0.031034037 0.014472612 0.031740367
-0.031685818 0.011246375 0.032851517
0.013361173 -0.031019025 0.028664887
-0.031797055 0.0086615616 0.027839482
0.0077241668 -0.030464251 0.024768531
0.011233198 -0.031036239 0.023888826
-0.031576991 0.0071212053 0.024205446
-0.030712783 0.0044194786 0.023012757
0.0056693591 -0.030452725 0.020042002
0.0099133821 -0.031188525 0.019985497
-0.030941602 0.0014426075 0.018837214
-0.031364143 -0.0019933982 0.018352687
-0.0004499862 -0.0305438 0.015930772
0.0026745861 -0.030772293 0.016635716
-0.031239016 0.00093484763 0.013266802
-0.031564333 -0.0027320692 0.014516175
-0.0017663427 -0.030532647 0.012076437
0.0023651998 -0.030906294 0.012512267
-0.032161508 -0.0042980406 0.010150433
-0.034425952 0.031815302 0.049258411
-0.032380491 0.030359309 0.04774338
-0.031755462 0.0295984 0.04410547
-0.030146634 0.024337206 0.043523669
-0.03275029 0.028484112 0.039227068
-0.029771965 0.025064087 0.039653003
-0.029150292 0.020777492 0.039077103
0.023765504 -0.032888453 0.034195364
-0.034343999 0.026605424 0.033956587
-0.029868726 0.022951173 0.033969462
-0.02925661 0.021037648 0.034647405
0.020450596 -0.031517357 0.031115592
0.022767305 -0.033701725 0.03090632
-0.029637393 0.019169303 0.029905975
0.015095563 -0.031264197 0.025550485
0.020161087 -0.031310793 0.026194394
0.022633258 -0.033682737 0.025525689
-0.031192046 0.014756301 0.026213706
-0.031799071 0.011662577 0.026147008
0.014533957 -0.031693462 0.022861004
0.019509858 -0.031431273 0.021345139
0.021903111 -0.034217332 0.020798981
-0.031605449 0.014752194 0.020981908
-0.031327236 0.01089656 0.021166444
0.0082825515 -0.030306056 0.01831305
0.012507182 -0.031475715 0.018521011
0.017222119 -0.031411875 0.017732799
-0.031205423 0.010231893 0.016221583
-0.030311892 0.0058931941 0.016970456
0.0071100052 -0.030312862 0.01421684
0.011182847 -0.030592404 0.013711572
-0.031157896 0.0084748054 0.012147188
-0.030556001 0.0051621087 0.011914551
0.0057109185 -0.030010607 0.0087484121
-0.032336403 0.032153748 0.042427599
-0.032815844 0.030278701 0.039018691
-0.030422874 0.02585585 0.03707689
-0.033765554 0.028026177 0.034278214
-0.031085966 0.025487609 0.033316016
-0.03155582 0.024202637 0.028013527
-0.030553469 0.020224802 0.028239191
-0.031368278 0.023083564 0.023846388
-0.030009469 0.019922389 0.023676753
0.020225227 -0.032195024 0.018503845
0.022984514 -0.033269618 0.021792293
-0.030747507 0.018287305 0.019103825
0.019522581 -0.030779421 0.014462292
0.022437125 -0.032455862 0.016169488
-0.032298673 0.015304903 0.015582383
-0.031724177 0.010248512 0.01369679
0.014367163 -0.030074794 0.010811925
0.018293729 -0.030234024 0.010861754
-0.032272529 0.014838325 0.011392713
-0.031955302 0.011097592 0.010392487
-0.031112894 0.0062941397 0.0089483857
-0.030771401 0.030236145 0.026111722
-0.031413738 0.026219318 0.02101022
-0.030759651 0.024113525 0.016802073
-0.031250924 0.020393398 0.017555714
0.02379613 -0.031128341 0.012352824
-0.03154232 0.019230306 0.012852252
-0.030193042 0.028523028 0.01413697
-0.030667204 0.025643226 0.010411203
-0.028700402 0.033701472 0.011769772
-0.030606499 0.029415693 0.0086650252
