# .PCD v0.7 - Point Cloud Data file format
VERSION 0.7
FIELDS x y z
SIZE 4 4 4
TYPE F F F
COUNT 1 1 1
WIDTH 768
HEIGHT 1
VIEWPOINT 0 0 0 1 0 0 0
POINTS 768
DATA ascii
0.034531172 -0.025321227 0.18729424
0.026510634 -0.029980207 0.18887076
0.029736146 -0.022085818 0.19026721
0.032830227 -0.012601674 0.18932813
0.034897469 -0.0043378863 0.18815497
0.028973052 -0.031078618 0.18696555
0.033425331 -0.023180949 0.18785533
0.035245568 -0.013798942 0.18561134
0.03050057 -0.031756043 0.18295968
0.035633422 -0.024251346 0.18267652
0.036222797 -0.016079472 0.18138254
0.037181221 -0.025776168 0.17839053
0.037445169 -0.017634381 0.17708141
0.036009267 -0.026390377 0.1733143
0.021113088 -0.022679629 0.19102722
0.024833187 -0.014964489 0.19184542
0.029430464 -0.0047821393 0.19110006
0.031683445 0.0039116768 0.19076195
0.032854903 0.0067513622 0.19022965
0.022819914 -0.028290678 0.18957177
0.023243701 -0.024824563 0.19055372
0.027365187 -0.016072473 0.19085178
0.031194869 -0.0060044229 0.19016418
0.035245597 0.0020640912 0.18769428
0.035536788 0.006295085 0.18732315
0.021042792 -0.030457947 0.18590671
0.036465868 -0.0035374016 0.18337467
0.037100255 0.0013766596 0.18269679
0.037063602 0.0045868959 0.18230355
0.026152456 -0.032054204 0.17925125
0.036049768 -0.0085745994 0.17911553
0.037077591 0.00070873462 0.17812985
0.030114848 -0.031725783 0.17643315
0.036907736 -0.009350311 0.17457926
0.030657625 -0.032615125 0.17196903
0.036137391 -0.025712851 0.17135671
0.036785346 -0.016193401 0.17129672
0.032586373 -0.03343799 0.1682086
0.035864037 -0.025710989 0.16633576
0.036725741 -0.017786432 0.16752154
0.036096565 -0.026997644 0.16248938
0.024443746 0.0020444542 0.19142777
0.025900006 0.0065180715 0.19189817
0.026609421 0.0095879966 0.1914368
0.032384727 0.022278083 0.19018248
0.032725226 0.025559638 0.19075876
0.035771519 0.027567927 0.19148421
0.015623499 -0.026128396 0.19023827
0.017530482 -0.02228586 0.19126391
0.020581108 -0.013192436 0.19171458
0.024857095 -0.0044463044 0.19086489
0.029423229 0.0049426807 0.19155145
0.031143095 0.0096781012 0.18962821
0.033066463 0.014255174 0.18915758
0.034994032 0.019321019 0.18881142
0.036364794 0.023791164 0.1883243
0.038561311 0.027189618 0.18786716
0.017121717 -0.029293861 0.18727398
0.033871654 0.0085111922 0.18576163
0.035198964 0.012933601 0.18542561
0.036183596 0.018297464 0.18411675
0.037751302 0.023027204 0.18384665
0.040202752 0.025998652 0.18475112
0.020999225 -0.03054755 0.18408281
0.035506099 0.007796607 0.18141562
0.035807192 0.011879862 0.18042207
0.036028497 0.01717695 0.18026248
0.037702516 0.022957698 0.18018103
0.040900007 0.024907831 0.18143988
0.036806356 0.0014839042 0.17527384
0.035433047 0.0065500531 0.17596966
0.034908377 0.011306257 0.17640299
0.025928641 -0.031961709 0.1745069
0.036076322 -0.0032813381 0.17147729
0.03601329 0.0012422306 0.17073566
0.03564021 0.0048330277 0.17132086
0.026356831 -0.033528909 0.16968477
0.03500627 -0.0088272858 0.16713384
0.036361404 0.00095966272 0.16732466
0.031969432 -0.032786265 0.16357261
0.035627291 -0.015587819 0.16412672
0.031345591 -0.032664254 0.16129929
0.035171576 -0.025713675 0.1591475
0.035428829 -0.016162898 0.15906176
0.034289729 -0.025490906 0.15458959
0.025011323 0.024085663 0.19385755
0.025997363 0.025329009 0.19313905
0.0091822408 -0.024618562 0.19042966
0.011566633 -0.020091342 0.1919488
0.013548534 -0.015329819 0.19185537
0.017316004 -0.0067458381 0.1917738
0.020519773 0.0034211567 0.19144586
0.021531789 0.0088875741 0.19204092
0.024638023 0.012640015 0.19068375
0.026613008 0.016610432 0.18988562
0.027931279 0.021782624 0.19061056
0.029562885 0.025941439 0.19247812
0.0093738353 -0.029673925 0.18705714
0.011709721 -0.02719143 0.18961555
0.010435537 -0.029643785 0.18519253
0.015676323 -0.030288786 0.1809777
0.03564588 0.018409034 0.17724502
0.036995169 0.023209408 0.17695129
0.037766557 0.026254341 0.17560181
0.015203427 -0.030390177 0.17612392
0.034615144 0.0079282345 0.17352083
0.034921203 0.012314736 0.17375022
0.035307843 0.01736398 0.17323145
0.036204945 0.022605926 0.17251897
0.038056985 0.026914224 0.17280889
0.035200071 0.0070031136 0.16913626
0.035346493 0.011554978 0.16851982
0.035505816 0.016384847 0.16927791
0.035593547 0.0011764877 0.16401905
0.035985313 0.0058974735 0.16432357
0.036077276 0.010387946 0.16438931
0.035111424 -0.0038620029 0.16056159
0.03515736 0.00081389956 0.16060162
0.035899267 0.0043312525 0.16047075
0.02851161 -0.031743132 0.15742728
0.035290658 -0.010548516 0.15724504
0.030935278 -0.029247453 0.1532855
0.035259966 -0.021045703 0.15217522
0.035127047 -0.010990386 0.1533398
0.034184583 -0.026131488 0.14794868
0.0348708 -0.017856969 0.14961809
0.016844973 0.022684732 0.19442055
0.0016507409 -0.022306573 0.19301629
0.0037472299 -0.017212182 0.19275513
0.0050837463 -0.013514078 0.19246542
0.0073368791 -0.0076387334 0.19207516
0.010917665 0.00024845614 0.19185197
0.012592588 0.0055074319 0.19131789
0.015025461 0.010454481 0.19127893
0.017271521 0.013770213 0.19158566
0.019004419 0.021186169 0.19186723
0.021900669 0.022742976 0.19309586
0.0025164112 -0.027005531 0.19110629
0.0052902019 -0.02383342 0.19174504
0.0065123318 -0.018924791 0.19228065
0.0085099135 -0.013246955 0.19195825
0.012318068 -0.0046117925 0.19211131
0.013356477 3.8017984e-05 0.19139802
0.01594183 0.0048854547 0.19086114
0.018057978 0.0091205053 0.19145626
0.019500468 0.014464563 0.1907717
0.021369267 0.018409297 0.18997145
0.02365981 0.021189619 0.19118306
0.0019546458 -0.031251155 0.18737268
0.0044863783 -0.02925124 0.18708754
0.0068819271 -0.026282825 0.18962592
0.008372332 -0.029576022 0.18217531
0.0097273951 -0.029831514 0.17746192
0.012050857 -0.030985817 0.17355165
0.014816941 -0.030415187 0.17312822
0.035393029 0.022912633 0.16964471
0.035279669 0.027262839 0.16832304
0.01234806 -0.031312328 0.17009369
0.015607256 -0.03080551 0.17184198
0.035292517 0.017175118 0.16641384
0.034997702 0.022137042 0.16591486
0.035453614 0.02660325 0.164884
0.035300113 0.007196987 0.16113442
0.035302922 0.011766743 0.16192442
0.035395831 0.016659632 0.16214412
0.035389833 0.021582726 0.16123229
0.036641639 0.025582206 0.16120085
0.034804057 0.0016304832 0.15761861
0.034814142 0.0066300929 0.15702635
0.034773529 0.01161572 0.15732396
0.035300877 0.016227908 0.15771487
0.034232162 0.0013625184 0.15283677
0.034697138 0.004573267 0.15215585
0.025560712 -0.030241864 0.15102363
0.03419834 -0.010743375 0.14986593
0.035020564 -0.00059495028 0.1482394
0.025515426 -0.033273924 0.14661586
0.028341515 -0.031033903 0.14742208
0.034816835 -0.01119464 0.14565602
0.035928991 -0.0025557848 0.14497223
0.026766552 -0.033629104 0.14180157
0.029211544 -0.030337591 0.14232704
0.033796079 -0.020961352 0.14208385
0.035017531 -0.011480479 0.14111662
0.030402713 -0.029060371 0.13823521
0.033661216 -0.022378001 0.13733801
0.011569275 0.02257555 0.19714415
0.010178171 0.015256139 0.19287628
0.011117261 0.018291796 0.19255468
0.014244486 0.021949437 0.19529477
-0.0046142084 -0.028444936 0.19130954
-0.0031095943 -0.025319614 0.19288093
-0.0014947201 -0.021011015 0.19372395
0.00091723911 -0.016014621 0.19365886
0.0030232409 -0.010734655 0.19266394
0.0040405709 -0.0062307431 0.19267121
0.0080948155 0.0023191324 0.19190845
0.0091634225 0.0070211319 0.19181347
0.011796273 0.011906605 0.19189653
0.014348155 0.017009197 0.19118929
0.01627746 0.020083241 0.19152579
-0.0028944649 -0.030485593 0.18885052
-3.7616119e-05 -0.028603999 0.19015431
-0.0022540381 -0.03497573 0.18330839
-0.00056012534 -0.032597382 0.18517181
0.00096958224 -0.031887349 0.180215
0.0039085681 -0.029946391 0.17977053
0.0019577723 -0.032837596 0.17576307
0.0053373696 -0.030574454 0.17592108
0.0077045886 -0.031957526 0.17132655
0.009904908 -0.031954374 0.16698548
0.035413265 0.0297474 0.16581708
0.034916554 0.022840768 0.15816784
0.036514606 0.027155638 0.1589734
0.034883387 0.011478466 0.15460676
0.035739154 0.016736034 0.15528539
0.035728898 0.02151661 0.15527385
0.037500024 0.025901671 0.15503457
0.034029238 0.0074191336 0.15089434
0.034615193 0.0114755 0.15066478
0.035322495 0.016158916 0.15118998
0.035096999 0.01997098 0.15157339
0.036940269 0.02606938 0.15086663
0.021519631 -0.031545565 0.14883369
0.034804709 0.0021753339 0.1467917
0.034244284 0.0060725166 0.14597684
0.034589697 0.010916469 0.1463885
0.035004314 0.014671025 0.14741182
0.02331176 -0.03363014 0.14725149
0.035592668 0.00017146394 0.14223623
0.034817427 0.0041551488 0.1419118
0.0227255 -0.033806164 0.14026374
0.027756495 -0.032421187 0.14014563
0.034200866 -0.011281015 0.13767385
0.035991523 -0.0013782466 0.13893121
0.025505535 -0.033504024 0.1352157
0.028058577 -0.030907206 0.13561139
0.033318598 -0.016390739 0.13510683
0.034004819 -0.0078830421 0.13457546
0.033585012 -0.026750833 0.13137469
0.033282388 -0.018094584 0.13056922
0.033432361 -0.02670864 0.12687463
-0.011113223 -0.032161791 0.19510317
-0.011341001 -0.027541893 0.19460946
-0.0089346711 -0.023520093 0.19392607
-0.0067706546 -0.019338783 0.19367027
-0.0046400498 -0.013399766 0.19352758
-0.0031965221 -0.0083636232 0.19306508
-0.0016414154 -0.0038549453 0.19267309
0.00035864563 0.00047895309 0.19256586
0.0021314584 0.004900638 0.19231331
0.0041561862 0.0092188576 0.19222355
0.0060117068 0.013603004 0.1920256
0.007179263 0.018810851 0.19242477
0.0069078105 0.021941585 0.19301659
-0.0099428101 -0.032992341 0.19129226
-0.0075073061 -0.029192463 0.19202998
-0.0068790494 -0.025747474 0.19304359
0.0060196645 0.0049248873 0.19161633
-0.0087932609 -0.033103839 0.18661833
-0.00569137 -0.031592287 0.18881848
-0.0070753912 -0.033690847 0.18338263
-0.0016986253 -0.033345766 0.17897579
0.00021650549 -0.033114038 0.17423162
0.0030425666 -0.030819103 0.1739372
0.002251558 -0.033494767 0.16916224
0.0036400165 -0.033791281 0.16433197
0.0055109253 -0.032427754 0.16361409
0.0062674871 -0.030791741 0.16027167
0.011690312 -0.029917419 0.15105826
0.034373246 0.018458717 0.14778981
0.034537692 0.022113018 0.14845684
0.036660727 0.026146956 0.14853767
0.033776607 0.0081294049 0.14291939
0.034618862 0.011828883 0.14358845
0.034262542 0.016879849 0.14414594
0.034574535 0.021737354 0.14310861
0.036591712 0.026051357 0.14304215
0.039492283 0.028208904 0.14417106
0.033707853 0.0063250391 0.14007962
0.033679869 0.011030408 0.13896465
0.034293655 0.016176037 0.14002419
0.035340644 0.02042524 0.14014643
0.038069971 0.027035132 0.13982421
0.034254465 0.0041761743 0.13539118
0.03421668 0.0099441251 0.13606375
0.03330566 -0.010729458 0.13164774
0.033948906 -0.0012945803 0.13079971
0.0344088 0.0027826754 0.13086936
0.026862865 -0.030979116 0.12902933
0.032826647 -0.011356962 0.12742698
0.034427803 -0.0031533567 0.12757671
0.028477093 -0.02988857 0.12440282
0.033804871 -0.021722948 0.12412828
0.032986593 -0.013139075 0.12299854
0.032449014 -0.026641969 0.12038356
0.033258542 -0.017733635 0.11977017
-0.017333902 -0.021497803 0.19560331
-0.010495667 -0.0035481129 0.19438949
-0.0099133793 -0.0020566813 0.19429603
-0.0040901522 0.012857391 0.19336161
-0.00020728679 0.021640526 0.19304904
-0.014320374 -0.02442052 0.19519505
-0.014230534 -0.020851482 0.19388661
-0.012142118 -0.016803157 0.19306263
-0.01067579 -0.012201351 0.19321746
-0.0080967844 -0.0071684709 0.19384325
-0.0058390512 -0.002051603 0.19365984
-0.0024200594 0.0068892948 0.1930615
-0.00043964619 0.011249742 0.19293466
0.0012032194 0.015747404 0.19259328
0.0034336504 0.020445887 0.19296926
0.0049274783 0.022853933 0.19357193
-0.01248134 -0.034311358 0.18587184
-0.0052353912 -0.034443885 0.17402208
-0.0033191713 -0.03365691 0.17112392
-0.0042542946 -0.033457316 0.16864789
0.00092822127 -0.034147672 0.16238162
0.0012307875 -0.033365346 0.15853196
0.004021517 -0.030917874 0.1564163
0.0061435495 -0.027989417 0.15605262
0.0052043255 -0.029971406 0.1527406
0.0078789154 -0.02840662 0.15339956
0.0083313687 -0.031018455 0.14871341
0.010971459 -0.030372895 0.14821059
0.034080222 0.016976887 0.13705242
0.034965672 0.021648524 0.13706881
0.036432337 0.025767367 0.13703111
0.032565899 0.006593328 0.13302773
0.034004651 0.010841355 0.13300925
0.034518242 0.016225893 0.13321516
0.034753852 0.021038702 0.13304284
0.036964662 0.026086219 0.13316742
0.034208849 0.00045098551 0.12824368
0.034148213 0.0045839492 0.12917411
0.033956856 0.0093377205 0.12918466
0.033986669 0.01415382 0.12916419
0.022651747 -0.03117644 0.12587875
0.033084787 -0.0061983387 0.12378263
0.033986852 0.0041562254 0.12443906
0.024362739 -0.031407639 0.12180209
0.032907635 -0.010960985 0.12100077
0.033274416 -0.0014596228 0.11961514
0.034176625 0.002809193 0.12066603
0.025259499 -0.031016715 0.11678499
0.032976337 -0.016642608 0.11671901
0.033369675 -0.0066706212 0.1153186
0.026359547 -0.030831698 0.1125409
0.033446088 -0.021965958 0.11314797
0.033865463 -0.012692284 0.11218035
0.033170559 -0.022977848 0.1091435
-0.019203275 -0.01709938 0.19901824
-0.018996779 -0.013764253 0.19824243
-0.017674955 -0.0091195833 0.19769713
-0.016505923 -0.0029448327 0.19728735
-0.013697069 0.0066213831 0.19651884
-0.0090001058 0.015095441 0.19577649
-0.0079700835 0.019891197 0.19504023
-0.0060754539 0.023768857 0.19561344
-0.018141475 -0.018402882 0.19583842
-0.017367652 -0.014569707 0.19559222
-0.015580956 -0.010099086 0.19533393
-0.013059113 -0.0052741426 0.1955342
-0.010049826 0.0049678558 0.19420835
-0.007965398 0.00931946 0.19413659
-0.0059265196 0.013694426 0.19426626
-0.0043753101 0.018249925 0.19363093
-0.0031291395 0.022979844 0.19394788
-0.014435191 -0.014995771 0.19352937
-0.013372385 -0.012827104 0.19350728
-0.002500738 -0.034661084 0.16052866
-0.0018378692 -0.034477212 0.15666762
-0.0010635108 -0.033458475 0.1521045
0.0025092717 -0.031174712 0.15100411
0.0030823564 -0.031508356 0.14645168
0.033913016 0.022134893 0.12955871
0.035454303 0.0259238 0.12965155
0.036124296 0.029474374 0.12820023
0.03340188 0.015115557 0.12586612
0.033566732 0.019981362 0.12562513
0.034602601 0.02636902 0.12473202
0.035453863 0.029720962 0.12477404
0.032736715 0.0096708294 0.12245697
0.033045899 0.014569991 0.12136221
0.033672705 0.018922642 0.12113518
0.037523754 0.026811713 0.11819446
0.020262845 -0.032293551 0.11979204
0.033768304 0.00027288403 0.11826867
0.034572273 0.0041433219 0.11873943
0.033090986 0.0091180978 0.11722463
0.033116497 0.0128801 0.11777097
0.021058302 -0.032855406 0.11558253
0.033862341 -0.0014373641 0.11470336
0.034849152 0.0031532953 0.11412984
0.033610508 0.0072295228 0.11398202
0.023729902 -0.034141459 0.11185259
0.025807913 -0.032261584 0.11085892
0.034262076 -0.007516318 0.1095351
0.034814611 0.0030289385 0.11020213
0.025848636 -0.031369701 0.10693449
0.032628097 -0.022132911 0.10583138
0.033325572 -0.012665857 0.10558206
0.034222133 -0.0039067268 0.10610986
0.032610491 -0.022700319 0.1012395
0.032283124 -0.013777961 0.10205978
0.032624844 -0.022900533 0.097327292
-0.01495437 0.0074902903 0.19619811
-0.01295215 0.016828649 0.19607162
-0.011111749 0.020992503 0.19530064
-0.0087133422 0.023764869 0.19549268
-0.0057431525 -0.035934821 0.14844048
-0.0037981151 -0.034344207 0.14881033
-0.0055200635 -0.036197595 0.14575166
-0.003083678 -0.033476051 0.14474753
-0.00054453034 -0.031197816 0.14532444
-0.0021466594 -0.03259138 0.14089251
0.00093270652 -0.030635016 0.13968223
0.0014248248 -0.029906103 0.13642734
0.0055042058 -0.031060725 0.12954515
0.0052582668 -0.02914449 0.13075984
0.032805681 0.024394445 0.12246281
0.033161324 0.016428774 0.11864561
0.03319167 0.020673301 0.11850786
0.033686187 0.02506372 0.11823392
0.035913836 0.027591746 0.11887485
0.032302741 0.011354906 0.11378306
0.032417554 0.015094194 0.11439639
0.032822471 0.020000966 0.11359829
0.034666859 0.02470604 0.11330855
0.03619384 0.027310617 0.1122421
0.033099107 0.0093446989 0.11074501
0.032760851 0.013987429 0.10994452
0.034051668 0.0032440778 0.10665083
0.032868139 0.0087258825 0.1062758
0.033252943 0.012458308 0.10612482
0.022346128 -0.030616837 0.10282475
0.031972338 -0.006630729 0.10149884
0.033188019 0.0031997431 0.10167557
0.024255097 -0.02980718 0.099859118
0.031488087 -0.011614399 0.098557711
0.033543091 -0.0024199318 0.097756803
0.024898212 -0.030365195 0.094467044
0.027941173 -0.028642658 0.095329285
0.032070402 -0.01730941 0.094832599
0.028881745 -0.0284665 0.090812445
0.03236036 -0.018125504 0.090098023
0.030141927 -0.02764334 0.087129772
-0.0048235487 -0.034058139 0.14262405
-0.0032575252 -0.033383012 0.13811529
-0.0025254237 -0.033608444 0.13354921
0.00077100098 -0.030931644 0.13382342
-0.0014705434 -0.033612214 0.12890285
0.0021871412 -0.031700861 0.12986717
0.0035639014 -0.031280018 0.12484884
0.0056930184 -0.02914656 0.12382996
0.0040060328 -0.031003851 0.12069851
0.0055860486 -0.028973991 0.12107462
0.0076275421 -0.029234972 0.11553115
0.032394044 0.020130755 0.11105025
0.033821903 0.023038071 0.11105961
0.032531738 0.015793197 0.10722786
0.033316549 0.019615049 0.10784698
0.035229109 0.024081919 0.10767859
0.036521196 0.027050987 0.10758007
0.032538202 0.009571149 0.10309142
0.03287077 0.014544518 0.10295153
0.033474836 0.019411085 0.10303235
0.034661535 0.024230748 0.10276669
0.035706263 0.027312879 0.10196751
0.033076152 0.0042852014 0.098673284
0.032382101 0.0088390177 0.098970413
0.032716814 0.01307695 0.098901868
0.032607626 0.017934863 0.099925995
0.021242065 -0.030439444 0.098008871
0.034193799 0.0027983217 0.095909238
0.032888751 0.0075050015 0.094810128
0.022274155 -0.031601608 0.092559755
0.032678179 -0.0073221796 0.092182338
0.035017531 0.0022425819 0.09061718
0.024818301 -0.031332366 0.089085519
0.027682692 -0.030085338 0.088245928
0.033003412 -0.012732442 0.087907612
0.034384139 -0.0032998901 0.087175667
0.034996361 0.00034593884 0.08719188
0.024507288 -0.03077022 0.084214568
0.028677432 -0.029166287 0.084330559
0.032268479 -0.018788567 0.083422661
0.02900769 -0.028864745 0.080139816
0.032413725 -0.020179722 0.07909596
-0.0046097366 -0.034074791 0.13004208
-0.003874125 -0.034000169 0.12653399
-0.0027202396 -0.034763776 0.12155271
0.00039579999 -0.032557357 0.12234765
-0.0019375887 -0.03412718 0.11787546
0.001085843 -0.031832516 0.11710143
0.0046110312 -0.028802644 0.11742151
0.0025843689 -0.030920208 0.11279434
0.0040731635 -0.029767856 0.112396
0.034071665 0.024460793 0.10079801
0.031815801 0.015815455 0.096731305
0.032406487 0.019965958 0.096867085
0.033516198 0.024614546 0.096351922
0.034817155 0.027607676 0.096253276
0.032474104 0.0095517542 0.093316317
0.031197142 0.014761264 0.091945589
0.031654783 0.019341301 0.091429532
0.033481043 0.025430869 0.092024267
0.03437493 0.0277202 0.091880798
0.032224938 0.009007372 0.088214576
0.031691357 0.013963551 0.087983429
0.033363055 -0.0026164213 0.083999336
0.034095019 0.0027961219 0.084523916
0.032201599 0.0074621756 0.084221959
0.023784708 -0.030619456 0.081615329
0.031317219 -0.0081087537 0.080337048
0.033061195 0.0024688225 0.079597414
0.02345942 -0.030723192 0.077325284
0.027376223 -0.028816763 0.076743722
0.032325979 -0.014939683 0.076561868
0.031740446 -0.0051981588 0.075895965
0.026614796 -0.028425539 0.072638273
0.031143492 -0.020255223 0.071623921
0.032628804 -0.011278547 0.071587622
0.02778447 -0.028231613 0.068607986
0.031281084 -0.020262752 0.067355871
-0.0054939003 -0.03414638 0.12358034
-0.0036560316 -0.035146292 0.11908895
-0.0030331742 -0.035143435 0.11599451
-0.00035271421 -0.033185996 0.11460769
-0.0036055231 -0.033928778 0.11073834
0.00042626262 -0.032287721 0.11122614
-0.00033533759 -0.031820908 0.10817397
0.034283601 0.029605053 0.093226969
0.032592699 0.020662375 0.089605808
0.033039246 0.024413029 0.089449584
0.034867547 0.028521199 0.089519143
0.032305487 0.014419608 0.085507929
0.032589987 0.019125385 0.08561945
0.033323776 0.023906872 0.084866941
0.034892891 0.028536897 0.085190475
0.032037545 0.009016782 0.081818938
0.03223668 0.013349656 0.080915153
0.032500818 0.018055651 0.08089149
0.0337147 0.0032442287 0.077164173
0.031809088 0.0075135827 0.076836407
0.031574778 0.010525899 0.07730037
0.019412871 -0.031011648 0.074541032
0.032619201 0.00089024846 0.073074758
0.032710534 0.004448412 0.072958112
0.022040723 -0.03122269 0.070715547
0.024826027 -0.029861618 0.07081145
0.031537443 -0.0044990648 0.068641126
0.024011111 -0.031534001 0.066661716
0.026683606 -0.029682703 0.066239119
0.031608123 -0.015131093 0.065466702
0.027811073 -0.027996678 0.061979473
0.030183392 -0.020519026 0.06162852
-0.0027628308 -0.030664656 0.10420203
-0.0010217689 -0.028567629 0.09859246
0.0021290341 -0.028393673 0.092483819
0.0046041785 -0.029560268 0.089425385
0.0066983681 -0.029423175 0.085684836
0.033152848 0.02717001 0.082062185
0.03165897 0.017760225 0.078010857
0.032099329 0.023274178 0.079296529
0.032895014 0.027822398 0.078588784
0.011588377 -0.029571023 0.075738311
0.031448103 0.008658478 0.073725402
0.031260036 0.012774748 0.075085819
0.031248387 0.018073272 0.074269354
0.032068744 0.022694143 0.073805988
0.033328973 0.026608976 0.074491203
0.014090702 -0.030749561 0.07273072
0.031281076 0.0071761729 0.070393264
0.030627597 0.012297997 0.070432246
0.031432007 0.01675608 0.070969522
0.015787655 -0.033512488 0.067621708
0.017330829 -0.031867664 0.068170249
0.031500205 0.0011417046 0.066329658
0.031220563 0.006346168 0.06648773
0.020160513 -0.032244828 0.064315379
0.030667977 -0.0088944295 0.061918795
0.031787932 0.0010743914 0.061792314
0.032127783 0.0043381881 0.062213659
0.02138848 -0.030872529 0.059305131
0.025327852 -0.029188709 0.059525251
0.030199576 -0.015069509 0.058428228
0.0310417 -0.0050009172 0.058052182
0.026116248 -0.029684279 0.05550164
0.03005711 -0.020607397 0.053992569
0.031611927 -0.010477303 0.053670108
0.026711756 -0.029428612 0.050451934
0.030783895 -0.020647077 0.049482226
0.03190067 -0.012336777 0.050073624
0.028597353 -0.02909141 0.047233641
0.031581603 -0.021839749 0.04636693
-0.0082479613 -0.033159565 0.10140592
-0.0054689958 -0.031416781 0.10131729
-0.0073971152 -0.033325721 0.096920609
-0.0051606875 -0.030404406 0.096695125
-0.0014034919 -0.028552795 0.096297562
-0.0031481525 -0.030885911 0.090771258
-0.00088195689 -0.028974289 0.092696667
-0.00082642213 -0.031526044 0.087924898
0.0017392114 -0.02978212 0.089090347
0.0011107251 -0.032093454 0.083765209
0.0035309903 -0.030558895 0.083474338
0.0056062927 -0.030271772 0.079031646
0.007382025 -0.029840786 0.072870314
0.032642633 0.024419017 0.071302056
0.033316426 0.027157944 0.071541846
0.010857134 -0.032242734 0.070942163
0.030222584 0.01354984 0.067050517
0.031404175 0.017856264 0.067909062
0.032418363 0.022602582 0.067608178
0.033639565 0.026598578 0.06711638
0.013185199 -0.033629835 0.068221569
0.030433116 0.008176202 0.063488185
0.030073399 0.012366978 0.063440204
0.030936539 0.017675839 0.06302321
0.031909026 0.022257455 0.062673986
0.033466194 0.026583117 0.062831342
0.030620586 0.0070363563 0.059140146
0.02975966 0.010780154 0.059316874
0.030722838 0.0010745302 0.05499357
0.030735582 0.0046705166 0.053747475
0.031525552 -0.0051702629 0.051471174
0.023925014 -0.030756088 0.047471344
0.031805161 -0.010391461 0.046933293
0.025885932 -0.033621579 0.042564452
0.027449286 -0.030578423 0.044175446
0.03084106 -0.016081437 0.04275322
0.0263486 -0.033901572 0.040893495
0.028063787 -0.030816913 0.039569199
0.031129902 -0.021967849 0.03970629
-0.0097669773 -0.034087542 0.0986678
-0.0090176389 -0.03453365 0.096237123
-0.0066561489 -0.032008495 0.093918443
-0.0081296228 -0.034275662 0.09161514
-0.005143059 -0.031671584 0.091535926
-0.0070452443 -0.03502889 0.086405098
-0.0035185814 -0.032830145 0.086010933
-0.0023720702 -0.033243194 0.081761181
-3.4747645e-06 -0.033099666 0.077744842
0.0030226363 -0.031422015 0.077622652
0.0015089381 -0.032907527 0.07290405
0.0041683139 -0.03085489 0.073185027
0.0029247496 -0.033768032 0.067923009
0.0056425761 -0.032941807 0.069566667
0.0044960501 -0.034558583 0.065114439
0.0068484005 -0.033605102 0.066466451
0.029298693 0.01466778 0.059739947
0.030099628 0.016136011 0.059812188
0.031546734 0.023748409 0.06033355
0.033079736 0.027626026 0.060104251
0.029382026 0.0089967074 0.055459321
0.029659975 0.012959607 0.057231605
0.030142119 0.018098302 0.056802392
0.031477559 0.022762133 0.056421816
0.033242449 0.027464982 0.056338429
0.029495716 0.007940257 0.05274874
0.029897602 0.012339745 0.052563906
0.030837983 0.016808338 0.052399755
0.03154777 0.020794839 0.052939713
0.032432728 0.025895791 0.051812768
0.030303499 0.001410367 0.049086094
0.030217214 0.0067737037 0.048138857
0.030415367 0.011516802 0.048472941
0.03060062 0.00074396003 0.044454157
0.031562973 0.0039624069 0.044032514
0.030742265 -0.00997716 0.040411353
0.03126885 -7.7392906e-05 0.040140152
0.026991064 -0.030823348 0.036004722
0.030201025 -0.015229087 0.036376357
0.031273946 -0.0071508219 0.037131071
0.026736325 -0.030861741 0.033322215
0.029710917 -0.021261103 0.032478094
0.027353916 -0.02956762 0.028310835
0.02974081 -0.022701472 0.028010845
-0.0066023851 -0.03509051 0.081032038
-0.0039026802 -0.034084994 0.077874541
-0.0015908955 -0.034022544 0.071634173
-0.00061870553 -0.034196049 0.067661464
0.032050133 0.027954984 0.052933514
0.030358598 0.018787276 0.049242079
0.031468201 0.022830501 0.049792707
0.032919317 0.027690111 0.049161136
0.030224573 0.012330877 0.045178831
0.030797336 0.017238684 0.04515034
0.031795982 0.022330008 0.045164108
0.033025671 0.025480662 0.046031535
0.029614799 0.0075064544 0.041314483
0.029851902 0.011643619 0.04130584
0.030316936 0.015494972 0.041144669
0.030657994 0.00088558905 0.036445439
0.030300574 0.0053948276 0.037022531
0.030192873 -0.0047784899 0.033033788
0.030995736 0.00015822053 0.033208549
0.031014277 0.0037892293 0.031911194
0.029056873 -0.010533796 0.02935189
0.030776126 0.00013127923 0.029820204
0.025015913 -0.029962353 0.025547624
0.028684022 -0.020837761 0.024625599
0.028407376 -0.010965126 0.025547862
0.025050744 -0.029846022 0.02228111
0.028295876 -0.021681841 0.020728052
0.03089386 0.027644813 0.042274714
0.029253867 0.014059432 0.038718581
0.029573072 0.017626006 0.038763702
0.029902985 0.021713268 0.038326681
0.030825261 0.026327712 0.037688971
0.028758531 0.0076568723 0.034186184
0.028840866 0.01227315 0.034747064
0.029641956 0.016524937 0.033833623
0.030463578 0.020778939 0.032933056
0.031990994 0.025651269 0.032345593
0.02879866 0.0074984692 0.029959083
0.028908374 0.011125457 0.028734565
0.029566348 0.015119414 0.029097259
0.031251773 0.019924644 0.028651297
0.034505673 0.026245918 0.02863729
0.029063025 -0.0043141525 0.026333272
0.030226912 0.00027007423 0.026915312
0.029922972 0.0045372592 0.025941074
0.028656201 -0.010014427 0.022603214
0.030803366 -0.00041071326 0.021643341
0.031004258 0.0034603858 0.022284746
0.023632273 -0.029761992 0.018589795
0.028076427 -0.01573522 0.018348873
0.030084433 -0.0062019029 0.017129183
0.02376871 -0.02929803 0.013968647
0.028416818 -0.021584405 0.014241874
0.029738689 -0.011604571 0.013209462
0.028978586 -0.02267305 0.0092510581
0.030187048 0.015139652 0.026818812
0.032274388 0.021659847 0.027505755
0.03245081 0.024390155 0.027739465
0.028930821 0.0063096741 0.023988187
0.028172579 0.0103495 0.023021936
0.028922096 0.015976537 0.022645175
0.030347452 0.020126797 0.023869634
0.031736314 0.025565676 0.023511231
0.030587917 0.0016496871 0.018265724
0.028850598 0.0057208529 0.019236386
0.027710842 0.0091863293 0.019087374
0.030305192 -0.00080768857 0.015305459
0.029357234 0.0039355792 0.014632821
0.021801604 -0.029964877 0.01210171
0.02967195 -0.005668527 0.010390282
0.029786162 0.0017119404 0.0099321008
0.028372863 0.015782284 0.020110667
0.029316096 0.021345243 0.019688904
0.029594265 0.026088532 0.018617868
0.027476992 0.01106727 0.016024709
0.028123213 0.015540148 0.015895605
0.029174119 0.020927407 0.015565634
0.029836252 0.026272764 0.01522547
0.029381901 0.0047600437 0.011783898
0.02766127 0.010221569 0.011714637
0.028696174 0.015638575 0.011000276
0.028993098 0.019986831 0.012468517
0.030453866 0.0037567643 0.0082820058
0.028280634 0.0084087774 0.0079050064
0.02865855 0.013413912 0.0080056787
0.030162312 0.027013529 0.013006389
0.028527236 0.030605087 0.011525571
0.029264614 0.020996355 0.0094698071
0.029386839 0.026094276 0.008595109
