# .PCD v0.7 - Point Cloud Data file format
VERSION 0.7
FIELDS x y z
SIZE 4 4 4
TYPE F F F
COUNT 1 1 1
WIDTH 902
HEIGHT 1
VIEWPOINT 0 0 0 1 0 0 0
POINTS 902
DATA ascii
-0.021444019 0.033337377 0.19057569
-0.028975474 0.030035492 0.19077027
-0.026004691 0.034788456 0.18786797
-0.023203569 0.036336001 0.1846343
-0.029221103 0.034055132 0.18311307
-0.019350214 0.028490257 0.1929698
-0.027243746 0.025677096 0.19273096
-0.014738346 0.033031501 0.19086027
-0.029482583 0.026482953 0.19167033
-0.031288423 0.024984052 0.18933132
-0.015523165 0.035508912 0.18618575
-0.03197078 0.02909576 0.18742737
-0.032067474 0.027449075 0.18464413
-0.021209482 0.036241345 0.18213102
-0.030713076 0.032338243 0.18155104
-0.031552773 0.028612526 0.18070889
-0.021338977 0.036584735 0.17714101
-0.03004485 0.033577733 0.17708901
-0.029535234 0.033719085 0.17296368
-0.020245336 0.01946491 0.19384202
-0.02458911 0.01785095 0.193735
-0.027245242 0.016189072 0.19327465
0.0015226202 0.031085022 0.19174236
-0.0073621497 0.02900688 0.19243175
-0.016998313 0.023996297 0.19256023
-0.025708899 0.020825477 0.19298789
-0.029646236 0.018321553 0.19137576
0.0041382918 0.034055613 0.18863481
0.00088184606 0.033748742 0.18909594
-0.0074029327 0.031996865 0.1908969
-0.032046776 0.020626675 0.18778127
0.0038039656 0.03522725 0.18576196
-0.0041020289 0.034724262 0.18376493
-0.03160749 0.022123912 0.18223676
-0.0092660058 0.03473055 0.17920768
-0.031472951 0.02581303 0.17745805
-0.014869289 0.035711948 0.17508563
-0.031876072 0.027909709 0.1739535
-0.02002611 0.035507523 0.17053246
-0.029795883 0.03275932 0.16994065
-0.032499246 0.029918145 0.16982958
-0.02524632 0.034762196 0.16514295
-0.031858839 0.030785922 0.16563365
-0.0088297008 0.020323647 0.19214341
-0.019037971 0.015525442 0.1938484
-0.023461703 0.0142361 0.19451511
-0.027789611 0.01271542 0.1933901
-0.030221339 0.011065525 0.19176015
0.013592536 0.031577095 0.18985596
0.0078864237 0.030296572 0.19051874
0.0033480292 0.028479934 0.19230133
0.00016435049 0.027010178 0.19250816
-0.0099291457 0.023040863 0.19213259
-0.032104053 0.012509726 0.18819734
0.016341807 0.033390328 0.18765172
0.013178909 0.033042658 0.18623948
0.0081181563 0.032851636 0.18712738
-0.032309741 0.014545993 0.18493465
0.012109033 0.03395994 0.18333811
0.0072248988 0.0336284 0.18228343
0.0013148254 0.034476407 0.18179071
-0.031336278 0.019378534 0.18051529
-0.031577609 0.015580021 0.18101841
0.0057410151 0.033593297 0.17888877
0.0011688443 0.03401994 0.17745221
-0.00720608 0.034606516 0.17664725
-0.03120305 0.020575643 0.17525721
-0.0076861619 0.034624044 0.17271066
-0.032535855 0.02335413 0.17126411
-0.0090201935 0.03457411 0.16840237
-0.03354916 0.026334638 0.16780108
-0.018445343 0.034467731 0.16375434
-0.030717796 0.032478027 0.16183966
-0.032605663 0.028591109 0.1634762
-0.019470699 0.034278173 0.15910184
-0.029306056 0.03343847 0.1584335
-0.031479105 0.029342322 0.15859893
-0.024853706 0.035364754 0.15309995
-0.026022032 0.036232099 0.14867669
-0.027067792 0.03750537 0.14561504
-0.021741383 0.0061265589 0.19364867
-0.024661217 0.0050131222 0.19355851
0.027538866 0.031966738 0.19340381
0.025027869 0.029628273 0.19151822
0.019401349 0.027869882 0.19111606
0.011304369 0.023932911 0.1908313
0.0059720622 0.022536255 0.19136861
0.001154304 0.02073409 0.19137371
-0.0073834201 0.016710106 0.19248942
-0.016204204 0.011333915 0.19332916
-0.020923518 0.010469102 0.194179
-0.025949243 0.0083698947 0.19391888
-0.029731464 0.0063516386 0.19019198
-0.034084272 0.0039400067 0.18742526
-0.037237223 0.0034446511 0.18774331
0.027205121 0.03277849 0.18928152
0.023447674 0.032523256 0.18940529
0.01887705 0.031540677 0.19008428
0.014556439 0.029198511 0.19100419
0.010214959 0.027461048 0.19082493
-0.032581683 0.0088031404 0.18815842
-0.035070591 0.0067518204 0.18560705
-0.037637964 0.0048072925 0.1840432
0.026688866 0.033528708 0.18569636
0.023103826 0.033990622 0.18483993
0.018149737 0.033951845 0.18556896
-0.032659117 0.011761364 0.18169299
-0.035875108 0.0079212766 0.18200371
0.022098551 0.034274217 0.18091395
0.017886993 0.034765713 0.18082598
0.013109368 0.034495454 0.18109813
0.0099559594 0.033533715 0.17983872
-0.031727605 0.012696752 0.17784262
0.016577791 0.035467736 0.17644083
0.013075925 0.034710567 0.17623034
0.0080643566 0.033988822 0.17660874
0.0033525946 0.033732682 0.17516243
-0.030700278 0.018169921 0.17506203
-0.031276554 0.015416983 0.17349666
0.011807342 0.034228712 0.17249167
0.0080232797 0.033861361 0.17180902
0.0029392401 0.033843592 0.17090982
-0.03194385 0.017613333 0.16850489
0.001789663 0.034568705 0.16642645
-0.0070160516 0.034103874 0.16582841
-0.033020299 0.02083607 0.16423333
0.00027950574 0.03467162 0.1621471
-0.0080918632 0.034455221 0.16193503
-0.032754842 0.024891667 0.16022444
-0.032901883 0.020989183 0.15870932
-0.012973548 0.0350543 0.15753627
-0.032118276 0.025392957 0.15536106
-0.013508802 0.035753939 0.15325078
-0.032138094 0.028821621 0.15195429
-0.018898293 0.035474941 0.14766234
-0.029907003 0.033861801 0.14761218
-0.031747591 0.030446587 0.1469067
-0.029061023 0.034846596 0.14264476
-0.025960807 0.036798742 0.13857773
-0.020809107 -0.00081999414 0.19497707
-0.025193946 -0.0025542555 0.19480458
-0.03094087 -0.0051124492 0.19441628
-0.0092183556 0.0086399168 0.1927326
-0.013819568 0.0062116496 0.19298884
-0.01875197 0.0038209069 0.1935887
-0.023374844 0.001579795 0.19408378
-0.027107138 -0.0010480983 0.19183925
-0.031627622 -0.0035989257 0.19151908
0.024971128 0.026222475 0.19152898
0.021847382 0.024271874 0.19111404
0.017475732 0.021779858 0.19049954
0.013491221 0.02021645 0.19168365
0.0085924715 0.017837841 0.19161987
0.003680734 0.015714042 0.19117007
-0.0056306086 0.012390444 0.19238815
-0.011585265 0.010383295 0.19235751
-0.014628707 0.0095480112 0.19245195
-0.029290613 0.0016798992 0.18922198
-0.032642763 -4.99608e-05 0.18849048
-0.036496274 0.0013806121 0.18822509
0.032468665 0.0322221 0.18562746
0.02990406 0.032222506 0.18760207
0.016546343 0.024794023 0.1898666
0.032589037 0.033963941 0.18257725
0.028835939 0.033470578 0.1831646
-0.034989793 0.0070787696 0.17843318
0.031627774 0.035094604 0.17918974
0.028466767 0.034532554 0.17855811
0.023782197 0.034653869 0.17895713
-0.03198988 0.0098045226 0.17454389
-0.034592699 0.0063238405 0.1741977
0.028055845 0.03614717 0.17405021
0.023218036 0.035310306 0.17452565
0.019268949 0.03487511 0.17469576
-0.031574823 0.010197734 0.17073977
0.028060932 0.036673788 0.17064443
0.023338869 0.035267647 0.16941833
0.018580198 0.034854271 0.16961488
0.013911229 0.034185149 0.16993627
0.0099295052 0.033722565 0.16946924
-0.031727675 0.01275885 0.16638428
0.018325549 0.035266336 0.16543719
0.013696423 0.034401525 0.16497886
0.0088507086 0.03379932 0.16501406
0.0040660053 0.033602513 0.16347158
-0.032563664 0.015309261 0.16253924
0.012383262 0.034479849 0.16132018
0.008851436 0.03421665 0.16002622
0.003455678 0.034157638 0.15909457
-0.032604266 0.020243756 0.15817136
0.0025763968 0.034707032 0.15457603
-0.0061617545 0.034702636 0.15511942
-0.033064835 0.021849548 0.15366465
-0.0071648164 0.034767542 0.15039802
-0.033266723 0.022733269 0.1495662
-0.012154944 0.034403194 0.14562553
-0.032179583 0.026868708 0.14540902
-0.017427124 0.03531323 0.14172217
-0.030004833 0.032717414 0.13930452
-0.031537022 0.028932335 0.14045483
-0.023088351 0.035841864 0.13575703
-0.031500749 0.030408446 0.13523769
-0.028471418 0.034395598 0.13074166
-0.021429993 -0.0082762763 0.19728786
-0.024749251 -0.0073627895 0.19794753
-0.028537037 -0.0073699476 0.19817856
-0.010524398 -0.00094634411 0.1929954
-0.017314035 -0.0021370398 0.19403845
-0.021837927 -0.0040132846 0.1948815
-0.025976274 -0.0055536395 0.1953063
-0.0295667 -0.0066867159 0.1960125
0.027669635 0.018858109 0.19165519
0.024970697 0.017183984 0.19120044
0.019951025 0.015861664 0.19212392
0.015741469 0.014313428 0.19290251
0.010698932 0.012317384 0.19232035
0.0059258202 0.0093134018 0.1910004
0.0015575686 0.0074524004 0.19093779
-0.0074439682 0.0042064185 0.1926057
-0.011561643 0.0017052798 0.19286197
-0.015125766 7.2317198e-06 0.19255736
-0.027377697 -0.0032986668 0.1929563
-0.029549824 -0.004219552 0.19283578
0.026826577 0.022744805 0.19129768
0.023573341 0.020377278 0.19100526
0.019305561 0.019261694 0.19116998
0.0037526658 0.012522186 0.19068381
-0.034694467 -0.0035231365 0.18778303
0.033464633 0.029991115 0.18595982
0.034459542 0.032042626 0.18328246
0.0337906 0.03417236 0.17912874
-0.032040562 0.0089829564 0.16785574
-0.034066726 0.0059007425 0.16848293
0.027187543 0.036055695 0.16857296
0.024407858 0.035724502 0.16707379
-0.032191981 0.0096544875 0.16455987
-0.033678759 0.0069644041 0.16320464
0.02774054 0.034612708 0.16380706
0.023831978 0.035059515 0.16356036
0.019328041 0.03517139 0.16263261
0.015512355 0.034982938 0.16285169
-0.032748215 0.011426718 0.16108996
0.022764843 0.034762267 0.1592904
0.019039392 0.03495957 0.15855443
0.014471595 0.034499969 0.15876782
0.0097115617 0.034477636 0.15812573
-0.031297095 0.012557077 0.15489787
0.013566673 0.034044556 0.15449914
0.0095231272 0.034210294 0.15358594
0.0052054226 0.035061564 0.1525501
-0.032762289 0.016917938 0.14948112
0.0081085013 0.034142978 0.14878923
0.0034039347 0.034589685 0.1483866
-0.032905307 0.019070748 0.14616227
0.0024124226 0.033961311 0.14421409
-0.0066115716 0.033548776 0.14381766
-0.030914925 0.021714143 0.14077723
-0.031902611 0.019702718 0.14254129
-0.011242218 0.033797652 0.13890535
-0.031155333 0.022625007 0.13760853
-0.016231675 0.033999316 0.13443929
-0.021552818 0.034257017 0.12963068
-0.032037981 0.031711195 0.128254
-0.027579321 0.034926023 0.12507945
-0.023513913 0.035074301 0.12209862
-0.029755283 0.03396187 0.11894602
-0.017994981 -0.010535611 0.19631565
0.021985881 0.0098487791 0.19310042
0.018316081 0.0083180536 0.192911
0.01350759 0.0054707699 0.19218388
0.0086637093 0.0026738595 0.19149211
0.0032959024 0.0010411456 0.19155988
-0.00065961335 -0.0007062495 0.19204012
-0.005304426 -0.0011791736 0.19281688
-0.0097625358 -0.0035302951 0.1932312
-0.013348478 -0.0061725993 0.19292331
-0.018013582 -0.0080502387 0.19403446
0.025933804 0.014117267 0.19184539
0.021925978 0.013044393 0.19262633
0.017302534 0.010719432 0.1926223
0.011824915 0.0087248478 0.19250557
0.0072641131 0.0060528046 0.19136992
0.0028013135 0.0043312195 0.19168043
-0.034814939 0.0030676816 0.16479561
-0.035207324 -0.00032895245 0.16279197
0.029735649 0.033896152 0.16482827
-0.034316991 0.0019763354 0.16119599
0.030332956 0.033732925 0.16058826
0.025656013 0.034012232 0.16009554
-0.031042019 0.0073101958 0.15532264
-0.033000335 0.0060485872 0.1572156
0.028764855 0.034467965 0.15640455
0.025068067 0.03442508 0.15645459
0.02128659 0.034704275 0.15578321
-0.03088456 0.0092859846 0.15369195
0.028245218 0.03522465 0.1527144
0.024585661 0.034433387 0.15172857
0.019795351 0.034665801 0.15227926
0.015413145 0.034102947 0.1522378
-0.031487942 0.012046612 0.14892197
0.019302102 0.034510974 0.14751953
0.015241917 0.033911571 0.14706713
0.010666779 0.033531185 0.14755559
0.0065875268 0.034134064 0.14530626
-0.032737665 0.017377684 0.14311564
0.01416572 0.034285337 0.14308047
0.010127818 0.033810321 0.14263004
0.0042315982 0.034034263 0.14194125
-0.031976335 0.017904714 0.13946593
0.0043942388 0.03334409 0.13760757
-0.0052304752 0.033320144 0.13657627
-0.030999495 0.022474591 0.13459426
-0.032147169 0.018712331 0.13523778
-0.0065688421 0.034225568 0.13299742
-0.031308252 0.023556301 0.1315397
-0.032330927 0.021850063 0.13062918
-0.011464312 0.034159202 0.12829757
-0.031676888 0.024865981 0.12768382
-0.032625146 0.022971664 0.12661988
-0.01179009 0.034132775 0.12318319
-0.019809837 0.034172341 0.12349898
-0.031507734 0.029391238 0.12202281
-0.016546406 0.034578945 0.11837536
-0.026727675 0.035094917 0.11705661
-0.030749641 0.029956859 0.11834013
-0.02147973 0.034992058 0.11472845
-0.029777143 0.032270312 0.113864
-0.029604536 0.03294548 0.10972375
-0.006954934 -0.011677789 0.19490513
-0.011265041 -0.01246194 0.19586399
-0.014749864 -0.013461921 0.19639727
0.020161243 0.0041385787 0.19204783
0.015766241 0.0022431416 0.19178551
0.010444231 0.00015869271 0.19220728
0.005338802 -0.0013175345 0.19222441
-0.0030768928 -0.0067767035 0.19293755
-0.0073298947 -0.0080291331 0.19347268
-0.012117653 -0.010049642 0.19367313
-0.015101812 -0.011169463 0.19358885
-0.033564191 0.00022585038 0.1571188
-0.034828663 -0.0011875164 0.16029721
0.034408834 0.032389488 0.15817407
-0.032248169 0.0016539898 0.1520254
0.031401519 0.033724315 0.15489557
-0.030922469 0.0073702978 0.15058428
-0.03170583 0.0049358346 0.1501615
0.029397041 0.034979045 0.15039837
0.0263837 0.034657389 0.14957184
-0.03104409 0.0079708165 0.14717573
-0.03216866 0.0065452056 0.14555153
0.028743442 0.035186443 0.14588225
0.025503013 0.034670141 0.14529932
0.021143887 0.034240842 0.14521462
-0.031258151 0.0090267211 0.14119047
0.028903663 0.035550997 0.14126879
0.020210601 0.034078971 0.14095622
0.016072007 0.034249082 0.14070785
0.012228334 0.033832584 0.1400134
-0.032798387 0.013443725 0.13767934
-0.032728635 0.010290192 0.13655838
-0.037776165 0.0087169819 0.13472626
0.015853409 0.033557639 0.13570404
0.010957884 0.033287767 0.13608068
0.0068809781 0.033368394 0.13577312
-0.033050388 0.01444998 0.1335789
-0.033563673 0.011394747 0.13167116
0.010598862 0.032667574 0.13187593
0.0061413711 0.032389015 0.13132358
0.0010360032 0.032793894 0.13083202
-0.032391571 0.017561104 0.1296972
-0.032978356 0.014637235 0.12884408
0.00039724167 0.033051629 0.12600511
-0.031933084 0.019571841 0.12356704
-0.0058315881 0.034394499 0.12105256
-0.031358618 0.022897895 0.11984944
-0.010802183 0.034421336 0.11638987
-0.031118263 0.024520151 0.11464965
-0.016028358 0.035032041 0.11219782
-0.031124398 0.02926641 0.112082
-0.031783238 0.02664753 0.11040205
-0.020924039 0.033710696 0.1073671
-0.030660279 0.031492833 0.1069842
-0.032868169 0.028707212 0.10670239
-0.030352211 0.032591008 0.10242164
-0.032933153 0.030458217 0.10153806
-0.030191736 0.033518955 0.09749192
-0.00051047932 -0.013648305 0.19697195
-0.0039738207 -0.013694556 0.19756514
0.011777045 -0.0070745293 0.19284385
0.0035921878 -0.011133189 0.19338948
-0.0011092075 -0.011864645 0.19436201
-0.0048212362 -0.012812481 0.19573867
0.021101108 0.00012501655 0.19053447
0.01736624 -0.0024827821 0.19114515
0.012546559 -0.004647932 0.19220379
0.0070771202 -0.0061687441 0.19234812
-0.033931732 -0.0030733952 0.15228477
-0.036271233 -0.005879723 0.15006489
-0.031864926 0.0010155141 0.14675647
-0.033584155 -0.0023870431 0.14812481
-0.036499228 -0.005153846 0.14864916
-0.032587081 0.0032203672 0.14351243
-0.034546368 -0.00029117242 0.1429171
-0.037448179 -0.0021527503 0.14305675
0.029343065 0.034407854 0.14235708
-0.032528471 0.0056955284 0.13931292
-0.034525502 0.0014435202 0.13816145
0.029748771 0.035519511 0.13783437
0.026258409 0.033961758 0.13888457
0.022437271 0.033432916 0.13810349
-0.033649251 0.0078552011 0.13565388
-0.035347745 0.0055856742 0.13454926
0.030046392 0.03589014 0.13542414
0.025702566 0.033306036 0.13404942
0.021414135 0.033219568 0.13390842
0.017061777 0.033747971 0.13306254
-0.033973441 0.0091438722 0.13027212
-0.035920508 0.0062580965 0.13074958
0.020402743 0.032643929 0.12961584
0.016281422 0.033539381 0.12945154
0.011762705 0.032933075 0.12928444
0.0073533803 0.032528661 0.12863934
-0.033376794 0.012484341 0.12603354
0.015690098 0.034045342 0.12479824
0.011238159 0.03367373 0.12484944
0.00640414 0.033146046 0.12537479
-0.031875007 0.012218602 0.12208831
0.010457199 0.033894241 0.12036175
0.0064343754 0.033797145 0.11993504
0.0012307456 0.033677649 0.12024564
-0.031474747 0.01609759 0.11776161
0.0049690921 0.033611104 0.11622101
0.0003244672 0.033775929 0.11565489
-0.031813402 0.021885652 0.11396945
-0.0049303127 0.034473047 0.11059618
-0.032387741 0.02386735 0.10859448
-0.011089895 0.03464422 0.10531157
-0.019741047 0.033802908 0.10459763
-0.033223469 0.026500061 0.1037361
-0.015694823 0.034940008 0.10042542
-0.02397456 0.034002021 0.1008411
-0.033310585 0.027113389 0.09922868
-0.020991433 0.035650831 0.096297979
-0.030750087 0.033058263 0.09640348
-0.033254214 0.03002568 0.095335364
-0.02624847 0.035742372 0.091963589
-0.032953076 0.031485118 0.090316653
-0.030381534 0.034029111 0.087509036
-0.03298042 0.031880431 0.086596429
0.0057665505 -0.016073845 0.19497555
0.02800294 -0.0056879502 0.19067234
0.025178142 -0.0075244023 0.19203147
0.020912591 -0.0092444774 0.19130889
0.015889158 -0.010502227 0.19173941
0.0060378648 -0.014422702 0.19351074
0.027602063 -0.0044725919 0.18861413
0.024453223 -0.0046363771 0.18928659
0.019866772 -0.00520061 0.19055602
-0.035683855 0.00050004199 0.13664305
-0.035306927 -0.0002248548 0.13220239
0.031497538 0.033992857 0.13124043
0.027788045 0.032486465 0.13134438
0.023798779 0.032765653 0.1308744
-0.036299102 0.0051420592 0.12814873
0.030882629 0.033429898 0.12675869
0.027847664 0.032715932 0.12638873
0.022790879 0.032188881 0.12656027
0.019061793 0.032241002 0.12573975
-0.033669282 0.007544389 0.12523866
0.030583456 0.034714613 0.12277067
0.026353534 0.033620901 0.12235755
0.022320107 0.032958001 0.12178022
0.018125843 0.032575056 0.12146586
0.013721228 0.032950263 0.12157178
-0.031466052 0.0098681469 0.11843956
0.020961462 0.033075031 0.11798316
0.016983215 0.032799371 0.11741447
0.012687937 0.033206709 0.1173932
-0.031203836 0.015648391 0.11443728
-0.031364638 0.011529302 0.11362183
0.015776318 0.033414867 0.1135034
0.012190472 0.033056457 0.11269587
0.007574711 0.032591887 0.11266679
0.0039086044 0.032543838 0.11178309
-0.031549662 0.016824361 0.11138219
-0.031837054 0.013175347 0.108922
0.0062748045 0.032662541 0.10781664
0.0024815686 0.032765057 0.10806513
-0.032053173 0.018550817 0.1067608
0.0014321087 0.033178866 0.10388154
-0.0078734476 0.03252558 0.10272568
-0.032360032 0.019707572 0.10267818
-0.0091705127 0.033296697 0.098938763
-0.014996289 0.034949869 0.094261765
-0.033143751 0.02717733 0.093238056
-0.014938527 0.034213282 0.089686811
-0.023642987 0.034418263 0.088056862
-0.03277874 0.026672272 0.087746978
-0.020233819 0.03397724 0.085229516
-0.029875014 0.033010669 0.084100127
-0.032782804 0.029243859 0.084595442
-0.025497254 0.034185164 0.080569446
-0.032114811 0.030078156 0.080987573
-0.028244004 0.033949416 0.076764643
0.020687848 -0.011545165 0.19247624
0.017827541 -0.013082714 0.19213653
0.030610561 0.034939643 0.12094277
0.028664662 0.033914465 0.1213603
0.024327446 0.033301406 0.11932385
-0.031423803 0.0068190927 0.11636233
0.030927848 0.034733392 0.11775833
0.027901582 0.033670127 0.11675227
0.023189973 0.033108443 0.1162917
0.019055959 0.032493874 0.11473376
-0.031327069 0.0069412235 0.11146551
0.028333053 0.033360146 0.11246186
0.022937054 0.033039164 0.11178166
0.017710902 0.033351816 0.1113407
0.013445962 0.033165533 0.10991544
-0.031998105 0.0090169301 0.10807413
0.021638192 0.033019926 0.10783845
0.018090472 0.033090271 0.10707754
0.012549358 0.03316408 0.10639161
0.0087136477 0.032720752 0.1063664
-0.032416224 0.012808416 0.10382801
0.016517792 0.033165354 0.10317284
0.012694381 0.032923505 0.10193264
0.0075628478 0.033058066 0.10153401
0.0031768112 0.033086777 0.10158634
-0.031856947 0.018681515 0.098829627
-0.032649532 0.014513697 0.10007972
0.0062311944 0.033060923 0.097598016
0.0025932183 0.032903049 0.096630812
-0.032258917 0.02000029 0.095861316
0.0010555657 0.033451281 0.092117488
-0.0071648308 0.033414643 0.092494309
-0.032300726 0.020575743 0.090243757
-0.0084044747 0.033455096 0.087451756
-0.0099702664 0.033401616 0.083759129
-0.018522523 0.033716284 0.082834363
-0.019814922 0.034983069 0.079120994
-0.030739263 0.031328309 0.077493727
-0.032330301 0.029445292 0.077180922
-0.024872372 0.035017997 0.074374735
-0.032454647 0.029817652 0.07313776
-0.029005013 0.032992072 0.069288731
-0.030740999 0.00046706945 0.11389118
-0.031669203 -0.001797325 0.11457115
-0.031281997 0.0033684392 0.11050761
-0.032614347 0.0012716074 0.10789144
0.032307062 0.033002187 0.10926753
0.028836155 0.032671448 0.10961878
0.025543569 0.032203283 0.10833323
-0.032894727 0.0068469718 0.10679024
-0.033381838 0.0036014216 0.10466635
0.032774396 0.033944402 0.10512501
0.028593784 0.033460081 0.10470837
0.023844186 0.032994978 0.10503203
0.019207116 0.032960419 0.10437948
-0.033136055 0.0078982273 0.10157114
-0.033897944 0.0053540152 0.099978685
0.02729116 0.0334538 0.10074091
0.02320369 0.03328599 0.10027856
0.018956883 0.032636188 0.099938154
0.014581583 0.032608576 0.099905074
-0.032733385 0.010291839 0.097117841
0.017912552 0.032401286 0.095568061
0.01385549 0.032200724 0.095083475
0.0091119399 0.032120444 0.095535755
-0.031006079 0.012300461 0.092059851
0.012370707 0.032018024 0.091270149
0.0085221594 0.032240596 0.090622306
0.004345268 0.032477748 0.091188967
-0.03148365 0.013888951 0.088247776
0.0070138024 0.032602388 0.086945951
0.0035632728 0.032502539 0.085716069
-0.0054834136 0.033117954 0.08442229
-0.031442106 0.018823929 0.083683312
0.0023610797 0.033053532 0.081666589
-0.0065558525 0.032675799 0.081113338
-0.031256951 0.020948669 0.080106437
-0.0068090227 0.032969188 0.076485515
-0.030788859 0.022466162 0.074964941
-0.012655543 0.033576746 0.072034061
-0.032711774 0.028047804 0.069405377
-0.018038413 0.033457585 0.066470146
-0.02900283 0.031300019 0.065214694
-0.031325631 0.02921983 0.066833079
-0.022817841 0.033394255 0.061859071
-0.030896917 0.028418321 0.063005149
-0.027978607 0.032783616 0.057269514
-0.03243687 -0.0023683337 0.11197114
0.034574557 0.027975913 0.1092869
-0.033885337 -0.0018121898 0.10783726
-0.036385115 -0.0026167296 0.10612178
-0.034587774 0.00033192895 0.10309976
-0.036579262 -0.0018481873 0.10267425
0.032274541 0.034197479 0.10206527
0.030597851 0.033884838 0.10225427
-0.03477798 0.0018788716 0.098778784
-0.036147442 -0.0011173906 0.098031938
0.03265129 0.033884637 0.098719597
0.029164344 0.033651058 0.098397434
0.025076538 0.033461757 0.097921968
-0.032919642 0.0077811591 0.095393479
-0.033452727 0.0045988886 0.093783975
0.024279764 0.032119729 0.093955696
0.019891609 0.032344274 0.093005657
-0.030740442 0.0071683414 0.088330805
0.018577278 0.031818699 0.088885725
0.014290537 0.032057635 0.088779271
0.010498081 0.03264454 0.088127255
-0.031611733 0.011420822 0.084124804
0.01269116 0.032104693 0.085137308
0.0090208305 0.03294418 0.084385693
-0.031612627 0.012942825 0.080865264
0.0085417135 0.03282579 0.079214811
0.0040924344 0.033454046 0.079463959
9.9775381e-05 0.033133637 0.078900516
-0.030896604 0.017858472 0.077729166
-0.030796628 0.015394871 0.075887859
0.0074686902 0.033103645 0.074896753
0.0032459041 0.033236235 0.07472676
-0.03053673 0.017359864 0.072125316
-0.0061205085 0.032732062 0.069358408
-0.031130001 0.019241849 0.068523943
-0.011243115 0.033555992 0.065050304
-0.031350691 0.024925098 0.063563228
-0.016861323 0.033947926 0.060750842
-0.031316295 0.027034232 0.059565723
-0.022142913 0.034475878 0.056272447
-0.031657308 0.02878122 0.055176318
-0.028039631 0.033898845 0.051898122
-0.031847477 0.031209912 0.050854862
-0.030205838 0.032609448 0.04729867
-0.035052892 -0.00090859085 0.097913384
-0.034477983 0.0027270643 0.092209101
-0.034971625 -0.00071770605 0.091934741
0.033711575 0.032520093 0.092408001
0.030756624 0.031658497 0.091945648
0.026372857 0.030880928 0.091024816
-0.030453496 0.0064404318 0.087739825
-0.03294621 0.0030602571 0.087737024
-0.034950875 -0.00050227251 0.088003635
0.033969808 0.032588281 0.088302672
0.030495774 0.03241799 0.08700031
0.025458537 0.031417809 0.087547183
0.02058287 0.031324036 0.086661696
0.016728945 0.031037804 0.085383117
-0.030753031 0.007502866 0.084489167
-0.033367835 0.0051259836 0.083438098
-0.035491794 0.0013141045 0.083286464
0.029369436 0.034406908 0.082853615
0.025135715 0.032889113 0.082535267
0.020345148 0.031906724 0.082785606
0.014970045 0.031369299 0.082312524
-0.032266438 0.012097176 0.077954948
-0.034415811 0.0082529644 0.079809189
0.02836396 0.034381844 0.078674853
0.02491913 0.034012552 0.078258276
0.020036202 0.032837193 0.077622175
0.01513169 0.03209896 0.078089893
0.010293973 0.03253451 0.07683152
-0.031811681 0.012695991 0.074846566
-0.034737185 0.010064993 0.075299263
0.018237978 0.033415172 0.073344469
0.014702657 0.033260271 0.073117733
0.0099465558 0.03308621 0.073545933
0.0053938534 0.032762025 0.071743786
-0.031297147 0.01402014 0.070531785
0.01392924 0.033477001 0.06933409
0.0092660952 0.03328358 0.068937957
0.0045181466 0.032481872 0.067964494
-0.031205291 0.016138043 0.065694153
0.0077347737 0.033775277 0.064961195
0.0042578569 0.03312489 0.06357646
-0.0055829235 0.032500546 0.062159836
-0.031166807 0.018705446 0.061901152
0.0026380997 0.033686791 0.060002446
-0.0058411364 0.032694299 0.058410823
-0.03152727 0.021201408 0.057641447
-0.011402687 0.033121642 0.053535879
-0.031984787 0.022828396 0.052737415
-0.016631586 0.033333994 0.048851907
-0.03224092 0.02870322 0.046890914
-0.032130603 0.023517478 0.049108922
-0.022126216 0.034170922 0.044737995
-0.031162759 0.030768767 0.044003546
-0.026699752 0.033392753 0.039530218
-0.030930299 0.030572992 0.039195001
-0.029819887 0.032636344 0.035573602
-0.03546546 -0.00047742389 0.084735751
-0.036282416 0.0011322303 0.082327187
0.030128717 0.034843542 0.076489031
0.024974246 0.034315377 0.075364411
-0.035775848 0.0077613601 0.071550488
-0.036440536 0.0048756078 0.069595277
0.0299355 0.033958033 0.071733236
0.025723077 0.033228531 0.071249723
0.021118443 0.032549027 0.070611715
-0.0318386 0.011778397 0.067275524
-0.033149194 0.0092601916 0.06834358
0.019085091 0.032341298 0.067122459
0.015495169 0.032393388 0.066022694
0.011097847 0.032227751 0.064980924
-0.031863604 0.01207249 0.064379334
-0.032752261 0.0097974427 0.062909782
0.010125411 0.032200951 0.06103611
0.0061083557 0.033838227 0.061270535
-0.031411827 0.015975913 0.059895217
0.0046225311 0.03293556 0.056788921
0.00022346992 0.033465452 0.05629909
-0.031383343 0.016301451 0.054895878
0.003409286 0.03286482 0.05180198
-0.0047384193 0.033646282 0.052198291
-0.0057780663 0.033257063 0.047522008
-0.031573594 0.022377755 0.044893563
-0.011055278 0.033408958 0.043110549
-0.012258844 0.033091135 0.038339496
-0.020126155 0.03273572 0.037113011
-0.032276612 0.029631009 0.037056983
-0.026692191 0.034018785 0.032584071
-0.031172376 0.030925361 0.033517241
-0.026548512 0.033067659 0.028770208
0.034223892 0.029588584 0.077820897
0.030452074 0.033221491 0.06896621
0.026160566 0.032768656 0.067665398
-0.033187997 0.0059727263 0.065393448
0.030092757 0.034502134 0.065831065
0.02598406 0.033540249 0.065149486
0.02151037 0.03209015 0.065037906
0.0163844 0.030809734 0.062503457
-0.031215958 0.010666572 0.060015619
-0.032691602 0.0049193166 0.061337709
0.029187758 0.035300419 0.060368299
0.026120851 0.033884648 0.060721874
0.021457165 0.032093335 0.060014188
0.016542651 0.031368896 0.060182214
0.012788016 0.031119017 0.059500039
-0.030741494 0.0097001428 0.056006968
-0.0319365 0.0079467772 0.058158576
0.015903655 0.031488985 0.05542779
0.011198232 0.031720303 0.055574179
0.0074523436 0.031463403 0.054890752
-0.031315312 0.01309972 0.052779138
0.010850678 0.032068465 0.05046159
0.0066342475 0.032183692 0.051021397
-0.03090518 0.015581777 0.047882259
0.0048830472 0.03286089 0.046802342
0.00047646463 0.033041023 0.045871437
-0.031065412 0.016224045 0.045244038
0.0035953289 0.033678904 0.041772664
3.9958395e-05 0.033526987 0.04158777
-0.010328852 0.032626636 0.039551198
-0.031219719 0.021909567 0.039114892
-0.0054317568 0.033619672 0.037075996
-0.015561879 0.031547491 0.035382986
-0.031319447 0.022488125 0.035333037
-0.010418727 0.032743864 0.03239727
-0.018808564 0.032164264 0.031998336
-0.031450905 0.028104141 0.029174447
-0.020228187 0.033223838 0.027185559
-0.029875211 0.028911527 0.026144266
-0.025972452 0.033128984 0.021974564
-0.022662718 0.034170244 0.018599689
-0.029638257 0.03142288 0.017326891
-0.032664478 6.7865476e-06 0.060825646
-0.032663308 0.0018390622 0.057978094
0.026571812 0.033343062 0.057480991
-0.031323045 0.0050044553 0.053665817
0.027302707 0.032304853 0.053315878
0.02201244 0.031270832 0.05316335
0.01817389 0.030903552 0.052246869
-0.030686472 0.010107318 0.048904181
-0.031537253 0.0074623507 0.050292075
0.020674214 0.031240128 0.048989117
0.016604336 0.030827094 0.048366129
0.01322984 0.031741377 0.047163785
-0.030509267 0.0098952372 0.045504332
0.016620871 0.030632202 0.044299304
0.011458858 0.031443615 0.043766379
0.0074442169 0.031578422 0.042957664
-0.030404426 0.012377547 0.041004717
0.011992577 0.031296242 0.040038168
0.0066559138 0.031867441 0.038413584
-0.030156519 0.014512927 0.036180556
0.0050828336 0.032503001 0.034350514
0.00098886993 0.033357915 0.033152938
-0.03017506 0.019812042 0.030722439
0.00061694067 0.032515474 0.029350877
-0.0091006011 0.031924117 0.02844888
-0.029866681 0.019296944 0.02698487
-0.0094600804 0.031232767 0.024425864
-0.031477287 0.02404654 0.021563768
-0.018448245 0.032533579 0.019245446
-0.03111865 0.028141188 0.018311143
-0.031757217 0.024992321 0.019165099
-0.020301431 0.033002146 0.015836656
-0.030326411 0.029920623 0.014654577
-0.031689949 0.025077859 0.015952528
-0.025604732 0.032298144 0.010517418
-0.033505008 -0.0024849027 0.05919522
-0.034024749 -0.0024707681 0.055818498
-0.032463584 0.0012644418 0.052734196
-0.033247922 -0.0027344115 0.052588344
0.032374974 0.029572925 0.050927579
-0.032414261 0.00313647 0.048721373
-0.033021752 0.0020810394 0.045523047
0.031151578 0.033002533 0.046408772
0.027830541 0.031957105 0.047580719
0.023473261 0.030721545 0.04711169
0.019413594 0.030257773 0.046444654
-0.031673089 0.0058848718 0.043800473
-0.034020986 0.0031061638 0.041876256
0.030742707 0.034244001 0.044268548
0.027731841 0.033006921 0.04199475
0.022818228 0.031517439 0.042198241
0.018225012 0.030761566 0.042170286
-0.030598085 0.010670829 0.038653314
-0.031976081 0.0071130348 0.038408697
-0.034139249 0.0040323948 0.03804636
0.026816342 0.033660218 0.03737992
0.022111461 0.032413967 0.037361622
0.017501574 0.031681061 0.037360966
0.012594809 0.031141696 0.037025988
-0.030573718 0.010926208 0.034549654
-0.032325529 0.0088927904 0.03387481
-0.034129411 0.0059543895 0.033800066
0.016994916 0.032384738 0.031891644
0.012139247 0.031938344 0.03260988
0.0080565466 0.031753287 0.03308636
-0.030246736 0.013966207 0.030933022
-0.031412423 0.011222542 0.028545201
0.01037119 0.032365918 0.028044403
0.0066468967 0.032473311 0.028118491
0.002213872 0.032247145 0.027051151
-0.030125123 0.01533128 0.024954617
0.005626834 0.032959428 0.022723615
0.0014125956 0.032455888 0.023109138
-0.0070320857 0.030876551 0.022123039
-0.030272122 0.018911587 0.021372378
0.00035353843 0.033005267 0.017763257
-0.0087639568 0.03106647 0.018431365
-0.031457558 0.019563522 0.016804099
-0.0090705864 0.031764291 0.013162553
-0.017856527 0.031663455 0.012898386
-0.031662419 0.025262745 0.012822568
-0.01942152 0.032111786 0.0087348819
-0.029531954 0.028414551 0.0076875091
-0.0315357 0.025372591 0.0073931813
-0.033055115 -0.0030250605 0.049124837
0.032723967 0.029173035 0.048390746
-0.033500213 -0.0015167957 0.045044899
-0.034996599 0.00043690857 0.04051888
0.032296747 0.031471089 0.039534867
-0.035678905 0.0034625838 0.035878003
-0.037267875 -0.00040859636 0.035105228
0.026166044 0.033495434 0.034193039
0.024098039 0.032489616 0.03470403
-0.033048391 0.0081392471 0.030894876
-0.035898425 0.0053058984 0.031627059
-0.03794647 0.0017095907 0.031543851
0.026999561 0.032111026 0.030694604
0.023009963 0.031861115 0.030758739
0.019621126 0.031999916 0.030530155
-0.032598805 0.0088412724 0.026991963
-0.035236381 0.0053586429 0.026785851
0.022382837 0.031875409 0.026742935
0.018416394 0.031773798 0.025722444
0.01319728 0.031236025 0.025673807
-0.032014769 0.010826981 0.022974193
0.017545281 0.032269999 0.021902025
0.013145835 0.031656519 0.020952344
0.0081951516 0.032583468 0.021233618
-0.030314161 0.016296454 0.019262373
-0.031459838 0.012135348 0.018408358
0.012172271 0.031718798 0.017178118
0.007278692 0.03242708 0.016634166
0.0026826337 0.033123244 0.016734302
-0.031226691 0.019234765 0.013185024
-0.031602673 0.013633139 0.014557064
0.0061569465 0.032694623 0.012424171
0.0017977664 0.032874268 0.012035966
-0.030973468 0.018851336 0.0094992518
0.0003568558 0.033582702 0.0073621869
-0.0081398273 0.031324539 0.0072134137
0.027205743 0.031983722 0.028358996
0.025641765 0.031306934 0.028266251
0.027275492 0.032273255 0.025295913
0.024304207 0.031558439 0.024045706
-0.033800084 0.0043202993 0.020826638
0.024655858 0.031481519 0.02048713
0.017871134 0.031776201 0.019947588
-0.032064751 0.0082484279 0.015444815
0.012813644 0.031623304 0.014712453
0.0094268527 0.032066241 0.013873696
-0.031537563 0.0128845 0.011362851
-0.030998124 0.012538724 0.0076078773
-0.032499168 0.0027940134 0.015573859
-0.031427894 0.0053755371 0.0085113645
-0.031951111 -0.0016919682 0.010335982
-0.031623729 -0.00023637246 0.0067881942
