# .PCD v0.7 - Point Cloud Data file format
VERSION 0.7
FIELDS x y z
SIZE 4 4 4
TYPE F F F
COUNT 1 1 1
WIDTH 950
HEIGHT 1
VIEWPOINT 0 0 0 1 0 0 0
POINTS 950
DATA ascii
-0.025589678 -0.022588555 0.19248515
-0.023867372 -0.025197277 0.19197619
-0.031622615 -0.014126845 0.18989521
-0.027638998 -0.023265667 0.18932462
-0.025236003 -0.026201744 0.18997824
-0.020372437 -0.017277159 0.19380075
-0.019692387 -0.020340977 0.19399357
-0.017710134 -0.024531731 0.1936416
-0.032579962 0.0045616552 0.19221327
-0.031486064 0.0014178203 0.19286123
-0.028828925 -0.007328718 0.19322565
-0.024361704 -0.016599143 0.19279882
-0.021124547 -0.026014697 0.1925469
-0.018194979 -0.028763551 0.19112873
-0.034346957 0.0040027555 0.18883491
-0.034177989 0.00068439636 0.18939099
-0.034499507 -0.0077148778 0.18762836
-0.024392543 -0.027256314 0.18767238
-0.020668685 -0.029575381 0.18731681
-0.035688587 0.0035891309 0.18608254
-0.035353974 0.00022273324 0.18496096
-0.034049738 -0.0090139387 0.18398452
-0.030266222 -0.019112118 0.18373117
-0.02546561 -0.02711121 0.18243733
-0.022154264 -0.029699262 0.18247277
-0.034248382 -0.0090519432 0.17886803
-0.031077158 -0.01922385 0.17878082
-0.025873009 -0.02678307 0.17823863
-0.034352794 -0.014017491 0.17441466
-0.029304666 -0.022508528 0.17470467
-0.034340419 -0.016865892 0.17114267
-0.026552891 0.0079562683 0.19255215
-0.026364142 0.0037673125 0.1932494
-0.0225804 -0.0047821179 0.19359359
-0.019052714 -0.013879515 0.19341174
-0.016821411 -0.019213863 0.1939103
-0.014016485 -0.02311749 0.19393259
-0.01213643 -0.027084567 0.19217205
-0.032318734 0.017083364 0.19006872
-0.031548526 0.013548935 0.19075996
-0.031342417 0.0081466408 0.19187313
-0.029495196 0.0041323556 0.19319904
-0.015022978 -0.029984109 0.18949434
-0.011653394 -0.03030901 0.18757024
-0.033390332 0.016341802 0.18765172
-0.033139408 0.013132891 0.18630618
-0.033148073 0.0079788715 0.18733186
-0.016977668 -0.03058596 0.18531322
-0.013739599 -0.030962797 0.18345508
-0.034064196 0.011810441 0.18284911
-0.034052029 0.0072704172 0.18236369
-0.034923747 0.00081575383 0.18130988
-0.019282123 -0.030625306 0.18013203
-0.034437429 0.0057044206 0.17818356
-0.034514733 0.0012095412 0.1773079
-0.034247518 -0.0070452634 0.17639291
-0.025016051 -0.027091146 0.17530107
-0.020741846 -0.029539712 0.17508185
-0.034116793 -0.0033937991 0.17186937
-0.030326227 -0.020309545 0.17212206
-0.024683814 -0.026182428 0.170993
-0.021679923 -0.028576639 0.17124778
-0.03427463 -0.0086845476 0.16863775
-0.031073343 -0.017820371 0.16765356
-0.025656966 -0.024966147 0.16741541
-0.03102247 0.027955601 0.19192153
-0.027921204 0.019376962 0.19115081
-0.026406411 0.015314808 0.19150507
-0.024570499 0.011353374 0.19256648
-0.022451356 0.0062695504 0.19321761
-0.020463713 0.0011793887 0.19303545
-0.01536079 -0.0068816673 0.1934337
-0.011703071 -0.017590264 0.19289652
-0.0082352534 -0.020848276 0.19287312
-0.0071111294 -0.025754234 0.19242704
-0.0077239936 -0.029443825 0.1893537
-0.032569908 0.027309291 0.1891382
-0.032030225 0.023692034 0.18906704
-0.031700216 0.01966388 0.19002309
-0.0086617228 -0.03163499 0.18606451
-0.006508776 -0.033825513 0.18399823
-0.033610918 0.02300686 0.18515819
-0.033645831 0.018298421 0.18535665
-0.010675645 -0.03225987 0.18188253
-0.0077436641 -0.034828272 0.1809043
-0.034015864 0.021603316 0.18147254
-0.034348655 0.017858094 0.18081051
-0.034227036 0.013572644 0.18075541
-0.012758706 -0.031853084 0.17806178
-0.0093097836 -0.034965172 0.17792344
-0.035234515 0.016785394 0.17702785
-0.035122477 0.012878517 0.17652315
-0.034782164 0.0084789386 0.17659897
-0.017841749 -0.030538235 0.17390525
-0.015312597 -0.031234954 0.17342353
-0.034770831 0.012414443 0.17270038
-0.034404136 0.0081016263 0.17203951
-0.034207236 0.0032438124 0.17100516
-0.023603324 -0.027551005 0.16852856
-0.020123769 -0.029942073 0.16892231
-0.016963759 -0.03168489 0.16804737
-0.034467317 0.001836299 0.16635257
-0.03368954 -0.0075328839 0.16552255
-0.026686292 -0.021916062 0.16463119
-0.024393581 -0.026259942 0.16480666
-0.02147321 -0.029714745 0.16416892
-0.018322941 -0.032077629 0.16432422
-0.033776864 -0.0077888616 0.16143855
-0.030645492 -0.017480321 0.16153121
-0.024677873 -0.025428131 0.16007006
-0.022373576 -0.028468283 0.16050792
-0.034404889 -0.012912487 0.1573393
-0.029359654 -0.020954054 0.15631902
-0.034861181 -0.01289293 0.15293837
-0.030743573 -0.019667998 0.15270376
-0.023749109 0.02789236 0.19442976
-0.020704312 0.023262916 0.19354999
-0.019145248 0.018780824 0.19349808
-0.017736442 0.014639369 0.19392726
-0.015105974 0.0093887933 0.1929445
-0.013098562 0.0059847599 0.19243094
-0.0069395923 -0.0084917983 0.19161627
-0.0054019061 -0.013815068 0.19173542
-0.0040011508 -0.019182343 0.19194174
-0.002082597 -0.022375591 0.19205135
-0.027872432 0.029604577 0.1928232
-0.02555665 0.026379541 0.19209546
-0.0236906 0.022057354 0.19183719
-0.022402216 0.017659452 0.192157
-0.020480469 0.013515094 0.19297576
-0.017983008 0.0081694536 0.19300321
-0.015069131 0.0034679361 0.19221056
-0.0093306135 -0.010286378 0.19150239
-0.0079849763 -0.013972703 0.1914238
-0.0020905416 -0.028422421 0.18862107
0.00056314655 -0.030706326 0.18598172
-0.031540822 0.032608844 0.1879608
-0.031787243 0.029989144 0.1867761
-0.028531544 0.025165932 0.19039175
-0.027478961 0.022197854 0.19034815
-0.0035906853 -0.030591706 0.1865474
-0.0028847782 -0.033265486 0.18408164
-0.003429574 -0.037086856 0.18220156
-0.032427736 0.028889317 0.18299255
-0.033211682 0.024488671 0.18225849
-0.005723686 -0.036168367 0.17877927
-0.03290154 0.028206799 0.17799664
-0.033337619 0.024045404 0.17849365
-0.033632692 0.020300705 0.17780775
-0.0097679952 -0.031677455 0.17384151
-0.0081461538 -0.035289668 0.17513052
-0.0066048251 -0.03810817 0.17692462
-0.034667071 0.028126739 0.17437381
-0.034446254 0.023647293 0.17391017
-0.034583986 0.018964047 0.17433324
-0.010746265 -0.031948734 0.17077962
-0.039304413 0.030244123 0.17181444
-0.034830883 0.022764444 0.16910765
-0.034674801 0.018668056 0.16948563
-0.034299165 0.013906896 0.16970891
-0.03401389 0.0095408186 0.16911048
-0.012580898 -0.032094046 0.16681635
-0.035256155 0.018330548 0.16542983
-0.034357328 0.013717741 0.16494671
-0.033799551 0.0090017188 0.16535643
-0.033163186 0.004270249 0.16315162
-0.01942827 -0.030714354 0.16099599
-0.016030913 -0.032288164 0.1629346
-0.034479849 0.012383254 0.16132018
-0.03381604 0.0087138182 0.16042906
-0.03369898 0.0034233918 0.15898061
-0.023372706 -0.026512992 0.15760136
-0.020439036 -0.029511616 0.15739569
-0.017501863 -0.031539779 0.15714049
-0.034286465 0.0023719119 0.15416691
-0.034180447 -0.0064830869 0.1545397
-0.023904439 -0.025441881 0.15332195
-0.020892605 -0.029299423 0.1522271
-0.03461758 -0.0073749912 0.15038112
-0.032148827 -0.017076928 0.1500279
-0.024703395 -0.025358099 0.14838827
-0.022098158 -0.029217932 0.14873397
-0.034087334 -0.012467835 0.14596188
-0.030006623 -0.020745324 0.14490056
-0.032830399 -0.016972663 0.14134958
-0.029180523 -0.02365586 0.1412088
-0.013920993 0.0226749 0.19528931
-0.011704771 0.018476894 0.19480792
0.0046509886 -0.019260414 0.19250989
-0.020805713 0.027026676 0.194736
-0.018585738 0.02413418 0.19453096
-0.01639938 0.019916693 0.19446215
-0.014338992 0.015301803 0.19433066
-0.011809519 0.010748924 0.19355154
-0.0095344726 0.005460517 0.19158351
-0.0078271013 0.0013910488 0.19118473
-0.0036857347 -0.0071800658 0.19133699
-0.0012860363 -0.011348151 0.19166458
0.00046268571 -0.0166029 0.19164744
0.0022360659 -0.022161556 0.191122
0.0042445678 -0.02584422 0.18976781
0.0058270819 -0.029399494 0.18882492
0.0017807456 -0.027806792 0.18840221
0.0038613956 -0.030501397 0.18623677
0.0019324301 -0.032884095 0.18191019
-0.031615499 0.033052824 0.18145204
-0.031355955 0.031558514 0.17973948
-0.0011412082 -0.03611432 0.17695624
-0.031499341 0.033458333 0.17665511
-0.033262812 0.030460058 0.17692599
-0.034568496 0.032451272 0.1712552
-0.035071321 0.028937902 0.17259094
-0.0066900803 -0.033733267 0.16866443
-0.035516541 0.028543681 0.16819221
-0.035487909 0.024866661 0.16823566
-0.0091486601 -0.031992979 0.16420692
-0.007437272 -0.033070445 0.16524729
-0.035194416 0.027448103 0.16423094
-0.034684207 0.024242632 0.16364324
-0.034404978 0.019703776 0.16207224
-0.034680679 0.015658591 0.16263089
-0.010608925 -0.031551216 0.15938994
-0.034233086 0.019203596 0.15895849
-0.033928078 0.01474752 0.15834689
-0.034378812 0.0096131386 0.15808386
-0.013501158 -0.03164218 0.15462691
-0.033826329 0.013106627 0.15414307
-0.033786617 0.0096854055 0.15391099
-0.03436543 0.0056301272 0.15279695
-0.0169647 -0.032403138 0.15085363
-0.033780754 0.0081669735 0.1504443
-0.03383594 0.0032992335 0.14817005
-0.024036221 -0.026918489 0.14616698
-0.021735735 -0.029747896 0.14605421
-0.018528379 -0.032248288 0.1460425
-0.03344297 0.0017803134 0.14401579
-0.033939835 -0.0064074667 0.14363235
-0.025231415 -0.025794152 0.14235055
-0.022059724 -0.028837686 0.14212823
-0.033265792 -0.011612118 0.13927245
-0.03090154 -0.020813029 0.13788787
-0.023286186 -0.028045008 0.13829878
-0.032726061 -0.016508086 0.13452548
-0.027993212 -0.023481481 0.13399762
0.011605695 -0.018390344 0.19486672
0.012959871 -0.022001959 0.19463325
0.014970521 -0.026734918 0.19419235
-0.014028419 0.026134687 0.19470799
-0.011113999 0.021052442 0.19460943
-0.0088933073 0.017171355 0.19345081
-0.0059986198 0.013265032 0.19252923
-0.0024392253 0.0083089191 0.19188729
-0.001360353 0.0040240143 0.19160628
0.00058988907 -0.0003294757 0.19130516
0.0024875926 -0.0047058067 0.1910381
0.0042263502 -0.0091485372 0.1908738
0.0055179838 -0.014219039 0.19154292
0.0076173646 -0.018595219 0.19201922
0.010777401 -0.023016145 0.19157079
0.013182735 -0.026607992 0.1913324
-0.0057348479 0.0073828911 0.19162685
-0.0044097882 0.0027663959 0.19173184
-0.00070703146 -0.0059893667 0.19125134
0.0057928702 -0.022147993 0.19055516
0.0078754276 -0.025578624 0.19000596
0.010114937 -0.02925422 0.1879352
0.012473102 -0.031947188 0.18610066
0.0072292369 -0.031560052 0.18411481
0.010451931 -0.032712035 0.18283424
0.0069432678 -0.031568997 0.18057144
0.0081680622 -0.032773208 0.1791577
-0.030578718 0.03413621 0.17315927
-0.034717359 0.032865793 0.16468564
-0.033830792 0.031541895 0.16441119
-0.033861414 0.03440585 0.16099569
-0.033925459 0.02999578 0.16101533
-0.033256199 0.025149854 0.15972781
-0.0072912807 -0.031063063 0.15626019
-0.033948354 0.029026655 0.15601999
-0.033234488 0.025422962 0.15586197
-0.034048751 0.020255063 0.15606248
-0.01074242 -0.030636437 0.155503
-0.035075206 0.028320521 0.15260285
-0.034326099 0.024840623 0.15211403
-0.034036245 0.019867569 0.15209866
-0.033609167 0.01554495 0.1522547
-0.033233292 0.011812751 0.15119606
-0.011307503 -0.032330759 0.14863479
-0.034286559 0.019412134 0.14735025
-0.03342006 0.01524292 0.14698827
-0.033272576 0.010505646 0.1474576
-0.033399895 0.0063118776 0.14552543
-0.012114721 -0.032476388 0.14345798
-0.033402219 0.010270997 0.14263988
-0.033927921 0.0041721975 0.14209756
-0.020108126 -0.029688736 0.13912421
-0.017016005 -0.031682588 0.14073205
-0.033325922 0.0044019232 0.13759392
-0.033190072 -0.005887161 0.13647947
-0.02203426 -0.028436888 0.13536343
-0.018511036 -0.030519539 0.1345402
-0.034217235 -0.0065651364 0.13299102
-0.032299615 -0.014288262 0.13156092
-0.026945032 -0.024685923 0.13164666
-0.023324035 -0.027792893 0.13057077
-0.033375237 -0.011119567 0.12768263
-0.029329192 -0.019525971 0.12745517
-0.024390008 -0.027232379 0.12729108
-0.031906661 -0.013768954 0.1234225
0.014075019 -0.012261072 0.19329214
0.012730192 -0.015129289 0.19518137
0.015140712 -0.022151375 0.19449231
0.017167972 -0.026489412 0.19414562
-0.004074431 0.020193428 0.19200552
-0.0016900538 0.015625441 0.19224155
-6.0618622e-05 0.010936698 0.19250122
0.0017655264 0.0052682543 0.19238031
0.0059949597 -0.0033298144 0.19157237
0.0077756867 -0.0077737193 0.19138378
0.010508528 -0.011858906 0.1915189
0.01115609 -0.016362429 0.19290319
0.013488522 -0.022687459 0.1918239
0.01544047 -0.02814625 0.19018367
0.017373605 -0.03123904 0.1900242
0.019642334 -0.033884153 0.18669617
0.014104654 -0.029118266 0.1871084
0.01581159 -0.032405104 0.18519861
0.018694216 -0.034152057 0.18356302
0.015348988 -0.033000961 0.17967522
0.01722239 -0.0356047 0.17945832
0.010789546 -0.033427741 0.17587525
-0.032264695 0.034472622 0.15808254
-0.032669887 0.032549907 0.15779361
-0.0024721958 -0.031351745 0.15473098
-0.032834642 0.031853806 0.15423584
-0.0064442474 -0.030586321 0.15087891
-0.0046804519 -0.031605896 0.14997953
-0.034923054 0.030020365 0.15022674
-0.03403189 0.025966212 0.14910164
-0.033257477 0.022384405 0.14890659
-0.0085384017 -0.031296611 0.14854759
-0.0058562579 -0.031898845 0.14505258
-0.034484249 0.029992405 0.14515391
-0.034141183 0.025527142 0.14519149
-0.033663742 0.021427628 0.14477694
-0.033195924 0.017475486 0.1441952
-0.010153256 -0.031702597 0.14201844
-0.0065953564 -0.032076236 0.1417225
-0.032986552 0.020110181 0.1409077
-0.033016324 0.016038213 0.14054903
-0.033413179 0.011546928 0.13989061
-0.014339941 -0.03141116 0.13699457
-0.011198317 -0.031940967 0.13697854
-0.032752194 0.01552141 0.13663018
-0.032762669 0.010971569 0.13597149
-0.032903116 0.0070993509 0.13541448
-0.015146737 -0.031611856 0.13371405
-0.012524095 -0.032289587 0.13212958
-0.032114644 0.005803722 0.13143975
-0.032810792 0.0008130949 0.130826
-0.017780222 -0.030764341 0.12947047
-0.032983333 0.00016584899 0.1261369
-0.02780964 -0.019890316 0.1240117
-0.023433939 -0.027859166 0.12429136
-0.019204229 -0.030126642 0.12484103
-0.033855237 -0.0058203228 0.12092239
-0.030801954 -0.015146469 0.12079662
-0.025625266 -0.023145907 0.11938184
-0.023669507 -0.02704015 0.11924219
-0.020175159 -0.029687328 0.1211074
-0.032981247 -0.010441696 0.11652905
-0.028329609 -0.01888592 0.11533207
0.01457798 0.00020208862 0.19707257
0.015158936 -0.0033570384 0.19664526
0.0040234327 0.023540448 0.19427937
0.0051007173 0.01924349 0.19305843
0.0064617284 0.013264727 0.19291663
0.011300376 0.0033340403 0.19325486
0.01287278 -0.00067950971 0.19372246
0.014272131 -0.0053164936 0.19377935
0.015617602 -0.0097582899 0.19406378
0.0006973329 0.021919662 0.19159546
0.0017190645 0.017844979 0.1924178
0.0036584989 0.01209897 0.19284171
0.0058969394 0.0069567226 0.19252291
0.0098089017 -0.0018236034 0.19192806
0.011314381 -0.0064040474 0.19191861
0.012600139 -0.0093369652 0.19173172
0.019193681 -0.035628572 0.18168822
0.016488452 -0.033094231 0.17715758
0.016436808 -0.034822874 0.17751917
0.015181603 -0.033080008 0.17463279
0.015788358 -0.035670478 0.17468432
0.0054732249 -0.031442866 0.15600568
0.0004248973 -0.031493995 0.15247187
0.0043279142 -0.031754613 0.1520012
-0.031214733 0.035294447 0.15343243
-0.030909408 0.03386765 0.15066952
-0.00095140189 -0.031921104 0.14960283
0.0034890063 -0.032783963 0.14698663
-0.00030032638 -0.031532455 0.14430624
-0.03354729 0.032180905 0.14271891
-0.033417802 0.028050136 0.14199948
-0.0058974316 -0.031718295 0.13829976
-0.034742437 0.030831281 0.13915044
-0.033100799 0.026447646 0.13852054
-0.033109896 0.021958802 0.13864344
-0.0067124823 -0.031896576 0.13402951
-0.03218136 0.025619587 0.13397491
-0.03279271 0.021624176 0.13357827
-0.03292767 0.016735958 0.13397831
-0.032611147 0.01316683 0.13319385
-0.0085987765 -0.032764941 0.12996215
-0.0070460262 -0.035336569 0.1301654
-0.032818545 0.016341368 0.12898982
-0.032278553 0.011787112 0.12939638
-0.032055646 0.0075194407 0.12925661
-0.014778764 -0.031223811 0.12561709
-0.011331816 -0.03208936 0.12594163
-0.033193506 0.015783451 0.12452728
-0.033346243 0.011394197 0.12459093
-0.032991767 0.0064768167 0.12525374
-0.033088978 0.003006421 0.12417823
-0.015348273 -0.030882953 0.12152636
-0.03342044 0.010049895 0.12078935
-0.033835545 0.0064164838 0.11996579
-0.033719279 0.0011924617 0.12063324
-0.021756228 -0.028470144 0.11798835
-0.019045971 -0.03019144 0.11810374
-0.033660471 0.0049460633 0.11626059
-0.033827696 0.00030084606 0.11569625
-0.032987159 -0.010306559 0.11355323
-0.029146394 -0.01911266 0.11300582
-0.023469774 -0.027532477 0.11445987
-0.01988579 -0.030177683 0.11317295
-0.03425049 -0.0048307423 0.1104157
-0.032034893 -0.014956492 0.11007375
-0.026945574 -0.023286093 0.10952121
-0.024082871 -0.027348362 0.10949135
-0.021182902 -0.029671419 0.10901552
-0.033954933 -0.010678089 0.10562772
-0.029692197 -0.018639006 0.1045723
-0.024587795 -0.0265471 0.10569036
0.016255572 0.0093936399 0.19376081
0.0052435934 0.024112746 0.19349363
0.0084889131 0.019859895 0.1935755
0.010927256 0.016013442 0.19272637
0.014332396 0.0063211448 0.19288838
0.0029354664 0.025033606 0.19088534
0.018637633 -0.030277817 0.16399243
0.0148078 -0.031685699 0.16465884
0.014153233 -0.030444197 0.15717155
0.010895038 -0.031923331 0.15179735
0.012368697 -0.033956375 0.15130767
0.0084663145 -0.032752171 0.1496323
0.011372224 -0.034262989 0.1491012
0.0050530909 -0.033070475 0.14702499
-0.0013111541 -0.0317351 0.1382395
0.0011873804 -0.032442003 0.13483647
-0.033187136 0.031276993 0.13531175
-0.03148824 0.02943005 0.13460937
-0.0037167249 -0.032480128 0.13317183
-0.0016364986 -0.033401847 0.13201931
-0.03283716 0.032570742 0.13186097
-0.031715542 0.027786873 0.13122442
-0.031877004 0.02423873 0.13018319
-0.0069578839 -0.033495743 0.12676382
-0.0048312796 -0.035316143 0.12771946
-0.032711294 0.032012373 0.12798536
-0.032358073 0.027827885 0.12641597
-0.032170989 0.022559363 0.12684625
-0.031692427 0.019266132 0.12630361
-0.0082558487 -0.032739926 0.12354571
-0.033653591 0.026337264 0.12238353
-0.033154488 0.022465035 0.12163275
-0.032502227 0.018033024 0.12156886
-0.032432415 0.01396953 0.12116128
-0.010007485 -0.031559221 0.11986583
-0.032445006 0.017026544 0.11729366
-0.032575749 0.012592306 0.11739349
-0.013916031 -0.030574862 0.11507142
-0.011531084 -0.031335559 0.11262769
-0.032660455 0.012239671 0.11303443
-0.032733642 0.0075083775 0.11278069
-0.032248035 0.0040458124 0.11154431
-0.015636951 -0.031076159 0.11044502
-0.032601036 0.0063033979 0.10776645
-0.032700643 0.0025117071 0.10801262
-0.018382534 -0.030737564 0.10603881
-0.03296518 0.0012157289 0.10411674
-0.032377597 -0.0078075253 0.10260409
-0.025617212 -0.022466794 0.1014325
-0.023144485 -0.026983753 0.10221702
-0.019993752 -0.029671106 0.10161847
-0.033107545 -0.0094274785 0.098962784
-0.028248005 -0.018161019 0.098238766
-0.023566168 -0.026158396 0.097556412
-0.03327876 -0.010122168 0.094487846
-0.029516822 -0.018245932 0.093406081
0.01467558 0.016667534 0.19333482
0.01846865 0.010273809 0.19425258
0.016735977 -0.030855833 0.15951842
0.020483172 -0.032787655 0.15994579
0.01559039 -0.031194642 0.15644959
0.017291743 -0.034014605 0.15598685
0.020046759 -0.03644672 0.1548031
0.013528144 -0.030991681 0.15286624
0.014896035 -0.035000872 0.15212873
0.017420622 -0.037316378 0.15177357
0.012936907 -0.034514807 0.14721665
0.0099998834 -0.032933086 0.14485088
-0.032677591 0.033008356 0.12675375
-0.034017343 0.030937187 0.122217
-0.033615015 0.028908631 0.12192333
-0.0084231663 -0.031155214 0.11639881
-0.034297146 0.0310783 0.1184184
-0.033270251 0.027858084 0.11673808
-0.032947697 0.02289502 0.11644942
-0.032325048 0.018817045 0.11500484
-0.0078541571 -0.031279929 0.11307073
-0.032512605 0.022467326 0.11227804
-0.032594129 0.018038243 0.11140096
-0.03240307 0.013331588 0.10991061
-0.010862986 -0.031824879 0.10831368
-0.032010518 0.017346837 0.10750479
-0.032447249 0.012492495 0.10632056
-0.032514744 0.0088108052 0.10619843
-0.01206002 -0.031950854 0.10339046
-0.03255773 0.012357225 0.10275996
-0.032649852 0.0077045104 0.10153252
-0.032530721 0.0033079525 0.10129249
-0.017342789 -0.030932756 0.099151313
-0.014005501 -0.031834632 0.098515987
-0.032260709 0.0026001679 0.096205771
-0.022425639 -0.027370527 0.095035672
-0.019629141 -0.029874444 0.095285356
-0.033231601 0.0011566263 0.091933191
-0.033596464 -0.0074568326 0.092162967
-0.026842663 -0.022980522 0.090908706
-0.024069501 -0.026713386 0.091358006
-0.020681441 -0.029555023 0.090030313
-0.032856409 -0.008851761 0.087577999
-0.0300592 -0.01843923 0.087545931
-0.024392763 -0.026669528 0.086529255
-0.021871898 -0.029187871 0.086348534
-0.029338188 -0.017965078 0.08283776
0.010786731 -0.030536683 0.13017046
-0.032202408 0.033410929 0.11405474
-0.032691337 0.030352766 0.11351734
-0.0045742141 -0.032119527 0.10903585
-0.032883711 0.033283718 0.1089533
-0.031939082 0.029186934 0.10927951
-0.032100938 0.024422999 0.10973042
-0.0061367201 -0.032617155 0.10623258
-0.033865027 0.032814972 0.10506004
-0.032926023 0.028862454 0.10427088
-0.032131746 0.02402715 0.10463613
-0.031763636 0.019403934 0.10483074
-0.031727351 0.01528027 0.10447145
-0.0073712487 -0.032478787 0.10054243
-0.032841146 0.023423418 0.099910378
-0.032097537 0.018976934 0.099804163
-0.032092482 0.014186336 0.1003077
-0.010236658 -0.032156505 0.097945333
-0.031676341 0.017615389 0.095801353
-0.031624977 0.014131295 0.094604254
-0.031369317 0.0090663591 0.095431209
-0.032189127 0.0049540009 0.095278144
-0.0157899 -0.030576386 0.092424273
-0.011228299 -0.030641709 0.093228936
-0.032039426 0.0088576125 0.090138793
-0.032175392 0.0044856723 0.09093529
-0.015547859 -0.030353449 0.088142931
-0.032932818 0.0073968964 0.085559547
-0.032648288 0.0034955265 0.085839808
-0.032337528 -0.006076335 0.085019112
-0.024857651 -0.024991766 0.083393514
-0.018557889 -0.029608808 0.084039271
-0.033182904 0.0023014573 0.081777036
-0.031940367 -0.0063602719 0.081160903
-0.029228913 -0.017370846 0.080055535
-0.023059599 -0.026154324 0.08007735
-0.020286897 -0.028801404 0.079487026
-0.032753211 -0.0067125643 0.07629931
-0.029198458 -0.017865997 0.07632798
-0.023938991 -0.025593504 0.074989259
-0.021471288 -0.028687676 0.075725079
-0.032529134 -0.012327693 0.072136939
-0.028023869 -0.021084083 0.07107842
0.013559495 -0.031279039 0.13051498
0.016473893 -0.032354612 0.12838238
0.011791753 -0.031091943 0.12529898
0.014797825 -0.032417338 0.12403345
0.00051369797 -0.030301915 0.11113155
0.003724996 -0.031436667 0.11055565
0.00034672767 -0.030282438 0.10824084
0.0013112109 -0.031612363 0.10588944
-0.0019823853 -0.032753397 0.10339808
-0.033835754 0.032458816 0.101767
-0.033545747 0.030769626 0.1019749
-0.0033863308 -0.033133693 0.098419964
-0.032639779 0.033213172 0.098720253
-0.032981616 0.029432772 0.098872066
-0.032444406 0.025583491 0.097077131
-0.0071024597 -0.031773578 0.094632566
-0.004856931 -0.031775441 0.093048394
-0.031468738 0.023192665 0.094270885
-0.03177958 0.019211126 0.093449414
-0.011020807 -0.0304676 0.089996636
-0.031205412 0.018223383 0.089214742
-0.031554665 0.014533167 0.08835429
-0.011409312 -0.030468237 0.085186064
-0.031749606 0.013509184 0.083987772
-0.033345178 0.0097009111 0.084350586
-0.016418366 -0.030479614 0.081680357
-0.01228913 -0.030632513 0.079728782
-0.032853991 0.0085281767 0.079238772
-0.033462051 0.0040887082 0.079470932
-0.018020451 -0.03007862 0.077636182
-0.016022664 -0.030097464 0.074110329
-0.033055417 0.0074913381 0.07485497
-0.033332855 0.0032017529 0.074810922
-0.022745755 -0.027334101 0.073236644
-0.020394292 -0.029232595 0.072599351
-0.016617376 -0.030271417 0.072534978
-0.032668572 -0.0061409338 0.069647312
-0.03038168 -0.017823311 0.069238067
-0.024770953 -0.024651572 0.068631411
-0.021972738 -0.027765833 0.068646967
-0.032387905 -0.011595037 0.06520462
-0.02826418 -0.020016257 0.065326452
0.018503914 -0.032942202 0.12869143
0.015704339 -0.033394083 0.12366045
0.014650131 -0.031830251 0.1183086
0.012852551 -0.032006457 0.11425275
0.010402965 -0.031853832 0.10781986
0.0057357433 -0.031305652 0.10581273
0.0039200857 -0.032287229 0.10123616
0.0016209828 -0.033067189 0.098964393
-0.032014523 0.033677384 0.096135378
-0.00079938769 -0.03307014 0.092132509
-0.030575741 0.030749781 0.092015326
-0.030143179 0.026133724 0.091374397
-0.030347548 0.022109617 0.0906865
-0.0049635982 -0.029901193 0.087569892
-0.003129079 -0.03144227 0.088178277
-0.031100355 0.030020777 0.086583674
-0.030661959 0.025834233 0.086909652
-0.030669775 0.02075978 0.086964309
-0.0069937101 -0.030552249 0.084072769
-0.0045849904 -0.03210317 0.083141446
-0.033511154 0.029915599 0.083005667
-0.032237343 0.0254599 0.081979096
-0.03155154 0.02027343 0.082802117
-0.031401113 0.015432945 0.081875801
-0.0104139 -0.031692002 0.079660773
-0.0069837505 -0.032146454 0.078308046
-0.032698207 0.023656799 0.078652918
-0.032612678 0.019899741 0.077750981
-0.032195367 0.015085308 0.078172743
-0.032426011 0.010345556 0.076738179
-0.012338624 -0.03138509 0.074815571
-0.009260823 -0.0334953 0.075507581
-0.033329301 0.018215217 0.074323177
-0.033302948 0.014682005 0.073154867
-0.033150438 0.0099165589 0.073601902
-0.033179514 0.0051990226 0.072107315
-0.014502851 -0.030454963 0.069773316
-0.033764672 0.013790744 0.0695858
-0.033468843 0.0091784857 0.069100261
-0.03288297 0.0043317089 0.068315923
-0.020226916 -0.02833721 0.065932453
-0.015905257 -0.030386513 0.065821826
-0.033823274 0.0077121733 0.065003574
-0.033225451 0.0044534309 0.063339055
-0.03218529 -0.0056252219 0.062919438
-0.028959256 -0.016958518 0.061706126
-0.023887152 -0.023857074 0.062045574
-0.020643974 -0.028176717 0.06197238
-0.017776126 -0.030347934 0.060975492
-0.032333437 -0.005679219 0.058089435
-0.03036155 -0.015593994 0.058237493
-0.023914365 -0.023686711 0.056987464
-0.02152307 -0.027518796 0.057494044
-0.032359291 -0.010591293 0.053619325
-0.028273353 -0.020154841 0.053092718
-0.023741366 -0.027033016 0.053129077
-0.031733796 -0.015771713 0.049463093
0.01647892 -0.03191755 0.11031222
0.013684777 -0.03239033 0.10623491
0.012246118 -0.03280006 0.10173577
0.010612614 -0.031936631 0.096548915
-7.3208474e-05 -0.032625284 0.085379303
-0.031620584 0.032325111 0.085453451
-0.0023124348 -0.033457123 0.081438303
-0.033534423 0.030931991 0.079979002
-0.0039430289 -0.032737318 0.076249063
-0.032641284 0.030936392 0.07525593
-0.032575324 0.025952823 0.07564193
-0.032520778 0.022166366 0.074769914
-0.0078236237 -0.03224222 0.070679426
-0.031757753 0.025457919 0.071272314
-0.032155745 0.020456318 0.070791602
-0.010121197 -0.031244356 0.067965567
-0.009164515 -0.032651074 0.067624867
-0.031934738 0.019283246 0.066765964
-0.032388661 0.015497766 0.066018581
-0.032778963 0.010835842 0.065466046
-0.012878708 -0.031260744 0.063781977
-0.011567099 -0.033447243 0.064419448
-0.03256385 0.0098685632 0.061800063
-0.014692795 -0.030900553 0.058783591
-0.032805644 0.004340034 0.057466924
-0.032943729 0.00073063467 0.056458533
-0.020285416 -0.028734729 0.054780304
-0.017368745 -0.030453291 0.054935455
-0.032680031 0.003438835 0.052706897
-0.033295035 -0.0045800796 0.051881492
-0.024968512 -0.025637783 0.050541401
-0.021644069 -0.028434863 0.050537825
-0.0190605 -0.030503847 0.050463378
-0.03323625 -0.0055278675 0.047171175
-0.031485964 -0.015550456 0.046493828
-0.025151677 -0.023767311 0.045938671
-0.022578137 -0.026951743 0.046227694
-0.032933466 -0.010607369 0.043062866
-0.028841708 -0.019355739 0.042515159
0.018552296 -0.032431938 0.10753429
0.0174357 -0.03219685 0.10552716
0.019616576 -0.033719946 0.10306013
0.018404113 -0.034082804 0.099891961
0.012978201 -0.033593219 0.096676588
0.016229432 -0.03476036 0.095404744
0.011308718 -0.033124212 0.092008173
0.014377952 -0.035362788 0.092727005
0.0092030829 -0.032119501 0.086924672
0.0058032302 -0.032918185 0.083746672
-0.032893419 0.031261321 0.072684467
-0.032202035 0.031413101 0.0696311
-0.031724952 0.026972257 0.069287658
-0.030764887 0.023299079 0.069014728
-0.032781646 0.030459104 0.064970672
-0.031822685 0.026772246 0.06470257
-0.031477503 0.022023236 0.065001369
-0.010197497 -0.031030402 0.059612751
-0.032421827 0.024884623 0.06145221
-0.03154964 0.021419862 0.060215354
-0.031039445 0.016648319 0.060242236
-0.031184357 0.011894877 0.058738887
-0.010242363 -0.030956041 0.056474745
-0.030846424 0.015552143 0.055737376
-0.031038683 0.011521697 0.054964423
-0.031445153 0.0065985061 0.054054916
-0.012676936 -0.031168461 0.053118467
-0.030348575 0.010864912 0.050987661
-0.031664234 0.0064022169 0.050402582
-0.03236917 0.0019698581 0.048642933
-0.015895329 -0.03058181 0.048036873
-0.032590628 0.0045327311 0.046405613
-0.032875612 0.00044423062 0.046069384
-0.020948855 -0.027888618 0.043801785
-0.017043442 -0.030129053 0.043497741
-0.034214478 0.0034033461 0.041181982
-0.033617303 -0.0042096674 0.041440427
-0.029854583 -0.016392715 0.039074302
-0.024907077 -0.023827333 0.040244937
-0.021596512 -0.027778849 0.039758027
-0.018306907 -0.029903384 0.040164649
-0.03374505 -0.0052458849 0.036854804
-0.030409805 -0.014682217 0.035823941
-0.025611747 -0.023357969 0.035814464
-0.022598116 -0.027439617 0.035597026
-0.030633274 -0.014643935 0.032779157
0.015507857 -0.034869626 0.088745415
0.012812165 -0.032781802 0.084964156
0.010490936 -0.032967098 0.082508385
-0.031813554 0.033017762 0.063044965
-0.031248406 0.031163368 0.057835221
-0.031045152 0.027580164 0.057582319
-0.030975197 0.023072742 0.056625247
-0.030135889 0.026435573 0.052960634
-0.030647239 0.022263849 0.052961171
-0.029947504 0.017973129 0.052276313
-0.009812681 -0.030569788 0.04864651
-0.006805419 -0.031188902 0.046508729
-0.029446933 0.016604844 0.048012197
-0.03014838 0.012309059 0.047704577
-0.010609382 -0.030761059 0.045059025
-0.00778611 -0.031514455 0.045220494
-0.0302478 0.011335598 0.043326676
-0.030828567 0.007901364 0.043132961
-0.012801047 -0.030540183 0.040300608
-0.030200906 0.010607939 0.040281832
-0.031520162 0.0072270697 0.03840667
-0.015897024 -0.029774021 0.036092401
-0.032857493 0.0043181684 0.034491479
-0.033576839 0.00088829827 0.033356607
-0.023663286 -0.024501113 0.032175183
-0.021061257 -0.027530655 0.031500518
-0.017695803 -0.029423688 0.03204602
-0.032628521 0.0010010591 0.029871404
-0.031235343 -0.0090380022 0.028875232
-0.027788304 -0.018759808 0.028452277
-0.021075455 -0.026602503 0.027688563
-0.030164981 -0.0098547377 0.023818374
-0.027535971 -0.018125914 0.023955762
-0.022836044 -0.025752187 0.025402606
0.0089635048 -0.030377312 0.064162791
0.0063948887 -0.030297741 0.059691787
-0.029142208 0.034117509 0.055457115
-0.030019687 0.033095613 0.051073551
-0.030388199 0.028865317 0.051786482
-0.032754779 0.031989794 0.046630025
-0.031197492 0.02821102 0.046892643
-0.029897951 0.023459878 0.046925604
-0.029051945 0.019331574 0.046248436
-0.0049638199 -0.031751022 0.042580545
-0.0026490893 -0.033101194 0.040628433
-0.034639783 0.031125331 0.042861402
-0.032893691 0.027788034 0.041891396
-0.030742306 0.023199864 0.041489661
-0.029572763 0.018133786 0.041984797
-0.029702798 0.014390782 0.042053044
-0.0075737815 -0.032157581 0.038817167
-0.034171853 0.028378759 0.038422048
-0.03153177 0.021266453 0.037264705
-0.030892719 0.017632177 0.036974728
-0.030499175 0.012702713 0.037511528
-0.011526912 -0.030812021 0.035088599
-0.00882087 -0.032028303 0.03384316
-0.031365585 0.016973877 0.032945275
-0.031671353 0.012266425 0.032361388
-0.031539347 0.0078714909 0.033076465
-0.013536032 -0.030074891 0.030542374
-0.011586803 -0.030646555 0.028616667
-0.03179583 0.010580294 0.028612971
-0.032340128 0.0067097479 0.027993143
-0.032144718 0.0013332786 0.027223468
-0.019064717 -0.027921695 0.025153637
-0.016168341 -0.029112779 0.025877357
-0.032349333 0.0057329657 0.023215473
-0.032221522 0.0012740167 0.023231268
-0.030491898 -0.0075093471 0.022674382
-0.023870774 -0.022858201 0.021602511
-0.020453226 -0.026743252 0.021318972
-0.017174888 -0.028910201 0.021743596
-0.032053869 -0.0036525959 0.017729938
-0.029680016 -0.013684275 0.018750191
-0.024678908 -0.022562394 0.017274916
-0.021744821 -0.025481965 0.016278982
-0.031831164 -0.0088356305 0.013147473
-0.028660972 -0.018494328 0.012786508
-0.028313365 -0.019095376 0.0082876086
0.014614686 -0.03048541 0.06641531
0.01762443 -0.032403119 0.066137254
0.011372492 -0.030330678 0.06133467
0.015882885 -0.032324746 0.061736047
0.0099025043 -0.031216767 0.057344615
0.007663093 -0.030853679 0.052525461
0.0061814515 -0.030072317 0.048088074
0.0021961797 -0.02963586 0.044918716
0.0041619376 -0.030713914 0.044427395
-0.030405764 0.034143563 0.046806514
-6.2499195e-05 -0.032182474 0.041608095
-0.0030257665 -0.033134133 0.036627948
-0.032343913 0.027986366 0.035477817
-0.031044498 0.023811201 0.035520673
-0.031198002 0.019746527 0.034191608
-0.0071794549 -0.032731868 0.032211065
-0.032218508 0.028117079 0.031910896
-0.030755207 0.023878787 0.030505002
-0.03134881 0.018075524 0.030091286
-0.008920203 -0.031445827 0.02781266
-0.031442869 0.021986505 0.026147544
-0.030892545 0.018558495 0.025235713
-0.0305571 0.013496874 0.025478125
-0.013930365 -0.029564766 0.023669302
-0.0096980445 -0.030668207 0.022224963
-0.030559065 0.01285415 0.02206409
-0.030647762 0.0090666432 0.020138323
-0.013996673 -0.028986484 0.018648744
-0.031392083 0.006804633 0.016291976
-0.031400908 0.0032638293 0.016904235
-0.020415682 -0.026291236 0.01488322
-0.017125612 -0.027771138 0.014817834
-0.031984575 0.0058231801 0.012672961
-0.031884633 0.0016841469 0.011933148
-0.021316806 -0.025767041 0.010641396
-0.01817674 -0.027068902 0.0088769197
-0.031817667 0.00061489735 0.0074726343
0.016168445 -0.030446541 0.063169837
0.017479302 -0.032999426 0.063574135
0.015102728 -0.030775376 0.060847759
0.016242715 -0.033596389 0.059677303
0.013977426 -0.031101009 0.057504952
0.015903231 -0.033992779 0.055773497
0.011773486 -0.031760108 0.05183804
0.014515084 -0.033778545 0.051045835
0.010525584 -0.030994166 0.046569526
0.012843702 -0.033076618 0.047103822
0.0064923964 -0.03044094 0.043304265
0.0034879008 -0.030862089 0.040681124
-0.031646363 0.0295006 0.028890729
-0.031353321 0.025618697 0.028309882
-0.0044986112 -0.031564396 0.02542758
-0.030749369 0.028650098 0.024049878
-0.031251237 0.024365138 0.024219334
-0.031327121 0.020350607 0.02324903
-0.0082676467 -0.031033345 0.021732152
-0.031492505 0.023854524 0.01973933
-0.031141939 0.018558282 0.019508839
-0.030319905 0.013986169 0.018584251
-0.0087625152 -0.029861525 0.016682804
-0.031247295 0.022698555 0.015915453
-0.031164009 0.019021817 0.015452921
-0.03037025 0.013823773 0.01449424
-0.031136954 0.0097441021 0.015219271
-0.013747497 -0.028549634 0.012287855
-0.0084608383 -0.02902139 0.012527704
-0.03133427 0.013005195 0.010742903
-0.031833548 0.0082236733 0.010511339
-0.031880733 0.0041677337 0.0097733736
-0.014572581 -0.028406817 0.0074083805
0.01513848 -0.034086742 0.047804534
0.01272073 -0.031188708 0.04238838
0.014238598 -0.033735625 0.04479897
0.010754929 -0.031241484 0.040287554
0.013767142 -0.033021707 0.039384425
0.009856632 -0.030708224 0.036316693
0.012928312 -0.03279135 0.036164403
-0.030068405 0.030364947 0.021552205
-0.029075325 0.029163478 0.017796576
-0.029370327 0.02724155 0.016382635
-0.0059862686 -0.029947063 0.012998879
-0.030186448 0.02431602 0.012369394
-0.030768484 0.01983569 0.012499988
-0.0069048554 -0.029435528 0.0087317228
-0.030986227 0.023311038 0.007770896
-0.030862225 0.019615296 0.0076531768
-0.031254217 0.015067413 0.0078487992
0.016220463 -0.03350934 0.039286852
0.012856945 -0.030924916 0.033538163
0.014192029 -0.032260504 0.032880247
0.011395223 -0.031377558 0.030419528
-0.00053097028 -0.029710596 0.01073873
0.0021773111 -0.030565329 0.011024952
-0.02704037 0.030545942 0.010209262
-0.027822714 0.028298168 0.010389924
0.0052995505 -0.030732937 0.0080097914
-0.024801545 0.033533923 0.0086391568
