# .PCD v0.7 - Point Cloud Data file format
VERSION 0.7
FIELDS x y z
SIZE 4 4 4
TYPE F F F
COUNT 1 1 1
WIDTH 1333
HEIGHT 1
VIEWPOINT 0 0 0 1 0 0 0
POINTS 1333
DATA ascii
0.037776165 0.0077603888 0.025412083
0.037555266 0.010903745 0.025670052
0.010729562 0.037016157 0.022669554
0.0070410669 0.038380589 0.023023963
0.0025814865 0.038427904 0.022633433
0.036541015 0.012764304 0.020648718
0.03268306 0.020076701 0.01995343
0.012563491 0.037012748 0.019223392
0.0083063981 0.038478456 0.017994642
0.031823799 0.020501347 0.015943527
0.024768867 0.029589526 0.016371965
0.018113863 0.034350786 0.015262246
0.013808111 0.036942087 0.015099704
0.010035593 0.038365424 0.014397383
0.026972856 0.02995 0.010802627
0.030724183 0.02682009 0.0065778494
0.039230492 4.2364001e-05 0.03138423
0.038027581 -0.00031323358 0.027180552
0.037509322 0.0028153453 0.027651548
0.00011364371 0.038403347 0.023208201
-0.0037200619 0.04169926 0.024918497
0.038665019 0.0013625156 0.02426821
0.038041636 0.0047086719 0.023731709
-6.5814704e-05 0.03892209 0.020525157
-0.0042564496 0.040165987 0.020196378
0.038609788 0.0054687355 0.018866539
0.037028167 0.010154051 0.018820226
0.0055170171 0.038713571 0.016030073
0.0020944662 0.038701069 0.016424
0.038785737 0.00628509 0.014854312
0.037033465 0.010716974 0.014197588
0.031268463 0.019387243 0.012091219
0.011315986 0.037215434 0.012342453
0.0072645191 0.038717352 0.012088537
0.0039976798 0.039455466 0.012240291
0.036935929 0.012103953 0.0095034838
0.032152507 0.019831162 0.010141313
0.01692564 0.033197161 0.008048892
0.012363473 0.03574454 0.007743001
0.009149869 0.037329927 0.0088175535
0.038096055 -0.0010652449 0.02135253
-0.0060969293 0.039268605 0.016526282
0.037518069 -0.00043449178 0.015916228
-0.0011848602 0.038619861 0.013284504
-0.0038249213 0.039019734 0.013468504
0.038189158 0.0048077088 0.011184633
0.00089568645 0.039114822 0.0089244246
-0.0038907323 0.038868152 0.010053515
0.037774757 0.0057708602 0.007853508
0.037454244 0.0092240646 0.0070536137
-0.0069769137 0.038308289 0.011009872
0.036950901 -0.0014923364 0.0094128847
0.0138538 0.040134549 0.19388017
0.0232163 0.038199104 0.19001299
0.014983364 0.042517934 0.19026446
0.022764545 0.039422736 0.1870454
0.015484845 0.04339027 0.1867668
0.023025226 0.028851295 0.1952002
0.016469201 0.033843514 0.19583562
0.0068060076 0.037049308 0.19570318
-0.0019904813 0.038369209 0.19427645
0.030486755 0.028825248 0.19188532
0.022105124 0.034515273 0.19377691
0.0074181031 0.039665166 0.1941987
-0.0013028877 0.042651203 0.19204909
-0.0064791217 0.042972766 0.1901134
0.024457972 0.037236918 0.18979174
0.0052223373 0.044273425 0.1885767
-5.8781356e-05 0.04521469 0.1876581
-0.0053593013 0.04504858 0.18633723
0.024636418 0.039377179 0.18553427
0.015317958 0.04270805 0.18392962
0.0058180047 0.045303777 0.18399599
-0.0042848894 0.045833275 0.18266505
0.023933329 0.038372099 0.18064961
0.014938055 0.041380003 0.17973122
0.0058280043 0.044947833 0.17929766
0.0056965719 0.028513312 0.19564071
-0.0099676317 0.034258418 0.19465986
0.032011896 0.02255775 0.19403803
0.02893956 0.023080038 0.19439358
0.01899757 0.02697918 0.19570264
0.010283554 0.030331548 0.1955432
0.0002477793 0.033097032 0.19498584
-0.0041321637 0.035115264 0.19423416
-0.0084404321 0.037667219 0.19344997
-0.013775179 0.038632371 0.19254738
-0.017189808 0.038349997 0.19145325
0.033093967 0.02332747 0.19155651
0.031117972 0.026336968 0.19239908
-0.0089530954 0.040718965 0.1909
-0.012301171 0.041365467 0.18880355
0.033505656 0.025615629 0.18815792
0.031356234 0.028227419 0.18639851
-0.0077898065 0.044184115 0.18399554
-0.011328555 0.042605098 0.18425968
0.031117436 0.029546322 0.1820707
-0.0063113747 0.044780817 0.17966694
-0.0098139942 0.043111093 0.18009058
0.024246747 0.036955446 0.17744654
0.014818193 0.041006234 0.17598936
0.0053021489 0.044383656 0.17564812
-0.0040498106 0.045108747 0.17608649
0.024011111 0.036900215 0.17326629
0.01564238 0.041074324 0.17209834
0.0055243578 0.043616526 0.17161483
-0.0029123351 0.045157842 0.17241079
0.016093664 0.042063192 0.16824687
0.029287087 0.015541115 0.1946637
0.026565552 0.016998991 0.19475445
0.022137767 0.018325819 0.19520685
0.012547568 0.023141105 0.1953432
0.0028956826 0.025977444 0.1949802
-0.0017834669 0.02827277 0.1943751
-0.0062934803 0.029905075 0.19446468
-0.010938446 0.031265154 0.19525781
-0.015373051 0.033741377 0.19447115
-0.020138808 0.035073228 0.19364893
-0.023964858 0.036287647 0.19201961
0.035700399 0.01562216 0.19177756
0.032104485 0.01791176 0.1934146
0.027494784 0.019373938 0.19456404
0.022756845 0.021920387 0.19472879
-0.019481817 0.038777061 0.19107291
-0.02322169 0.036889099 0.18942052
0.036548629 0.017853051 0.18923014
0.034453381 0.02085704 0.18968886
-0.017768741 0.040542752 0.18717748
-0.023073224 0.039135195 0.18429762
0.036540415 0.018891282 0.18535894
0.034380533 0.022664815 0.1850909
-0.013341717 0.041784093 0.18147552
-0.017561954 0.040282134 0.18189868
-0.022809252 0.040226299 0.18199363
0.034003902 0.023599204 0.17987776
0.032620981 0.027528191 0.18047431
-0.011686645 0.042948458 0.17743096
-0.016170423 0.040831923 0.17740354
0.031460315 0.027521024 0.17537248
-0.0065197432 0.044562805 0.17374396
-0.0099465884 0.04301073 0.1727373
0.030613149 0.028568249 0.17188954
0.02412756 0.036764428 0.16957444
0.0059774518 0.043169238 0.16889146
-0.0036678743 0.045127574 0.16944408
-0.007683197 0.04352377 0.16913316
0.024897167 0.035716489 0.16576844
0.016702063 0.041483447 0.16559696
0.0058939215 0.043958601 0.16508949
-0.0031362446 0.044923753 0.16437572
0.020538287 0.039104052 0.16081935
0.01152642 0.043249212 0.16078514
0.0017455705 0.044705879 0.15993759
0.017156886 0.042475305 0.15642387
0.0051149959 0.017196819 0.19628316
0.033094373 0.0093242517 0.1944221
0.02918181 0.011554562 0.19537944
0.025084879 0.013327565 0.19587463
0.020621341 0.014606236 0.19629195
0.010408668 0.017878408 0.19538635
0.0017923391 0.021923404 0.19552296
-0.0033017662 0.02275514 0.19444218
-0.008034179 0.024537759 0.19435233
-0.012552453 0.026468191 0.19494066
-0.017499488 0.028847061 0.19423008
-0.022419436 0.029920138 0.19363087
-0.026136467 0.031897716 0.19218558
0.035750322 0.01192506 0.19237921
0.031675763 0.013099317 0.19392383
-0.02556866 0.036231712 0.18705204
0.038497888 0.014510112 0.18720725
-0.024611661 0.037620388 0.18480337
0.03755118 0.016096177 0.18279123
-0.019871034 0.039171442 0.1785638
-0.022929713 0.039836392 0.17901149
0.03640594 0.018969048 0.1787039
0.035212979 0.020922724 0.17807412
-0.018227197 0.040172979 0.17506796
-0.021751188 0.040416285 0.17513311
0.036592778 0.018911593 0.17506781
0.033873912 0.022743762 0.17330787
0.032606713 0.025293346 0.17229521
-0.013040198 0.041579261 0.17099112
-0.016568553 0.040162843 0.17059833
-0.020714954 0.040708218 0.17194784
0.033439603 0.022734499 0.16913989
0.031393275 0.025903968 0.1686509
-0.010418462 0.04201955 0.16624939
-0.013458489 0.041589301 0.16537556
0.030415354 0.027072644 0.16448337
-0.0058324635 0.043521486 0.16232827
-0.0090673594 0.04250022 0.16229156
-0.01324216 0.041889172 0.16193625
0.025387218 0.034507386 0.1585542
0.00094356015 0.044367123 0.15699583
-0.0038409103 0.043957904 0.15764332
-0.0074713668 0.04338906 0.15900034
0.021861712 0.038956065 0.15433872
0.0069284737 0.043550529 0.15407673
-0.0023295768 0.044572975 0.15322456
0.017107338 0.041755833 0.1503807
0.007484681 0.04318814 0.14967018
0.01713473 0.041431457 0.14644793
0.026837304 0.0049100081 0.1952312
0.022589855 0.006786779 0.19514334
0.018527903 0.0091612898 0.19538298
0.013276452 0.01058142 0.19537508
0.003915505 0.014223048 0.19565782
-0.00097264303 0.015466049 0.19504488
-0.005475448 0.016576532 0.19355726
-0.010575786 0.018710775 0.19353604
-0.015110714 0.020533398 0.19364223
-0.019428162 0.022183359 0.19340909
-0.02391272 0.02396486 0.19388267
-0.027297663 0.024951406 0.19339263
0.037126321 0.0040379353 0.19267413
0.033259392 0.0054970272 0.1941812
0.029361594 0.0072230296 0.19539374
-0.02662673 0.028611399 0.19236618
0.037981451 0.0064474503 0.18967998
0.036149397 0.0071800528 0.19177333
0.039349385 0.010324409 0.18537521
0.039576896 0.010017269 0.17977965
0.038003989 0.011583685 0.17904314
0.03769765 0.013767718 0.17597264
0.03706345 0.015983881 0.17160296
0.03497792 0.019916227 0.17154542
-0.018156262 0.038759284 0.16828912
-0.021300815 0.03796614 0.16706967
0.036506586 0.017425112 0.16677874
0.034859814 0.020822497 0.16673917
0.032482509 0.02409545 0.16601279
-0.01730011 0.038801555 0.1630933
-0.019804038 0.038621824 0.16358575
0.034604382 0.021617198 0.16165698
0.031872056 0.025080172 0.1624825
-0.010887877 0.042019472 0.15961811
-0.015164744 0.040561553 0.15870655
0.034089189 0.022886202 0.1583122
0.031716056 0.025794137 0.15781018
0.029309718 0.028984856 0.15763795
-0.0099308668 0.041877128 0.15524623
-0.013536518 0.040843304 0.15470704
0.031086227 0.027225591 0.15269873
0.025529452 0.033162933 0.15296656
-0.004232035 0.043925852 0.15131861
-0.007794315 0.042152259 0.15068981
0.024920274 0.033570617 0.14797097
0.010714497 0.042036947 0.14678115
0.0018748781 0.043993682 0.1461435
-0.0035275277 0.043926932 0.14623111
-0.0072219754 0.043217566 0.14686054
0.02139766 0.037268229 0.1431416
0.011897599 0.041835729 0.14262873
0.002288552 0.043433625 0.14139605
-0.0024577742 0.044190079 0.14234087
0.017030956 0.040364385 0.13819432
0.0079626087 0.042725727 0.13840771
0.016842525 0.041640297 0.13519961
-0.0090787113 0.011144659 0.19457084
-0.02264878 0.016868018 0.19413224
-0.026545905 0.018425163 0.19468459
-0.028608561 0.020620823 0.19462276
0.030262254 -0.00066410378 0.19381499
0.025116852 0.00036165398 0.19496265
0.020634443 0.0027474216 0.19463897
0.016652564 0.0043274155 0.19491053
0.012151208 0.0056755552 0.19536805
0.0072992938 0.0067761303 0.19529286
-0.0025430459 0.010674254 0.19468439
-0.0065123271 0.012500963 0.1938858
-0.010757743 0.013710058 0.19342741
-0.01697799 0.015471672 0.19341421
-0.020891123 0.017947635 0.19383585
-0.023749227 0.020083558 0.1938045
0.034745295 -0.00097834133 0.19223854
0.034087304 0.0019513452 0.19370511
0.038304836 0.0035492638 0.18847448
0.03981895 0.0085890191 0.17394853
0.038526952 0.010766879 0.17441979
0.039690524 0.0086813746 0.16980481
0.038529951 0.011690402 0.16906098
0.037432879 0.013915002 0.16614115
0.036526855 0.016708272 0.16170314
0.035868522 0.018978301 0.15918964
-0.017982332 0.038529821 0.15569639
0.034758121 0.020565331 0.15518564
0.032804161 0.023322221 0.15447593
-0.015194501 0.039841689 0.1521925
0.034477819 0.020990338 0.15011507
0.032572396 0.024444923 0.15136987
-0.010925718 0.040688965 0.14883375
-0.014718778 0.039691798 0.14707944
0.03177027 0.02504001 0.14613622
0.02931942 0.028246328 0.14625734
-0.0095112491 0.041708093 0.14426804
-0.013683721 0.039928157 0.14376819
0.03111726 0.025942298 0.14247406
0.027319461 0.033123869 0.14127949
-0.0037908256 0.043455612 0.13984337
-0.0083281528 0.041584611 0.14013767
0.026157293 0.033842415 0.13666463
0.010804006 0.041294135 0.1359624
0.0026263706 0.043580595 0.13571587
-0.0028834371 0.043190919 0.1347003
-0.007334427 0.042294152 0.13584551
0.022002898 0.037570689 0.13216698
0.012675688 0.041945368 0.13167977
0.0033263117 0.043040868 0.13007575
-0.00055888481 0.043201856 0.1302619
0.017353289 0.040001839 0.12663531
0.0066428352 0.042651236 0.12701732
-0.026732713 0.0097226789 0.19641948
-0.029405778 0.011419377 0.19709489
0.031849358 -0.0080739642 0.19663876
0.028411474 -0.0083532864 0.19648999
0.024887411 -0.0074515669 0.19575167
0.016801225 -0.0038466118 0.19498718
0.01220521 -0.0027732598 0.19436318
0.0097499704 -0.00039537437 0.19502029
0.0054521859 0.0014808901 0.19491574
-0.0048843119 0.0042341626 0.19442919
-0.009745541 0.0063653626 0.19431525
-0.013550446 0.0075465054 0.19368562
-0.01871977 0.0094970018 0.19371784
-0.023922335 0.011663911 0.19437277
-0.027999908 0.01391586 0.19525144
0.033457838 -0.0051336666 0.19358572
0.029629553 -0.004834638 0.19464824
0.024057155 -0.0046522645 0.1946376
0.019634083 -0.0018284977 0.19429564
0.014758602 -0.00055203307 0.19443551
0.011433747 0.0016969664 0.1947948
0.00029286684 0.0052458728 0.19380084
-0.0036224145 0.0080554327 0.19431275
-0.0065425299 0.0091236308 0.1941283
-0.01373998 0.0099944137 0.19270232
-0.016784802 0.012809284 0.19344777
0.040429346 0.006458004 0.17146379
0.041148577 0.0071290508 0.16719323
0.041141167 0.0070817973 0.16366673
0.037954569 0.010238682 0.16218579
0.037351567 0.011665928 0.15789691
0.042558268 0.013682563 0.15314937
0.037304211 0.013023791 0.15308392
0.035949126 0.015657328 0.15320718
-0.019896964 0.033979189 0.14949048
0.037751377 0.013715788 0.14987403
0.03624592 0.017095475 0.14832738
-0.018402137 0.037041791 0.14430758
0.034249 0.019886224 0.14455718
0.032980569 0.022248447 0.14348662
-0.012075539 0.039577637 0.14118567
-0.015413592 0.039082449 0.14081761
0.032102842 0.024546903 0.13996771
-0.010623981 0.040030114 0.13653931
-0.013883743 0.039093014 0.13653308
0.031774431 0.025597055 0.13531548
0.030261792 0.028489336 0.13501406
-0.0058479458 0.041572817 0.13201374
-0.009345049 0.041413315 0.1327517
0.030024406 0.029688109 0.13103998
-0.0032092528 0.043115623 0.12868899
-0.0074299416 0.04270184 0.12790763
0.026428219 0.03371929 0.1254437
0.011676276 0.040998571 0.1242674
0.0035106121 0.043041818 0.12439054
-0.0010938309 0.043628924 0.12359726
-0.0055885045 0.043591142 0.12386078
0.022379776 0.037351742 0.12159812
0.013078079 0.04074502 0.12059045
0.0037037823 0.043136831 0.1197027
-0.00023367722 0.043887533 0.11994815
0.025436278 -0.013020033 0.19834256
0.020969382 -0.012433321 0.19688296
0.015578181 -0.011184076 0.19615084
0.011145903 -0.0095627438 0.19587088
0.0065674204 -0.0082222056 0.19631669
0.0022813687 -0.0063200267 0.19531092
-0.0071173245 -0.0022871546 0.19503948
-0.012143497 -4.6988484e-05 0.19493952
-0.016889179 0.00079429476 0.19415507
-0.021357367 0.0023271465 0.19381776
-0.025582338 0.0044939574 0.19480363
-0.028714143 0.0071893111 0.19635445
0.025446216 -0.011777515 0.19658121
0.021649899 -0.0091181332 0.19561291
0.017232958 -0.0075977356 0.19510403
0.012789224 -0.0060561746 0.19477782
0.0081045786 -0.0045134043 0.19507396
0.0036847305 -0.0029067704 0.1947892
-0.0014472133 -0.0009685962 0.1944983
-0.0069133393 0.0012303223 0.19471794
-0.010464347 0.0028951322 0.19469264
-0.015547274 0.0047077131 0.19407266
-0.020101676 0.0052180905 0.19388583
-0.023381451 0.0075151273 0.19427568
0.04055804 0.0057199951 0.16048458
0.040398754 0.0065017743 0.15596482
0.038880005 0.0086685261 0.1555444
0.041162811 0.0099253263 0.1532169
0.038873196 0.010303073 0.15184116
-0.020823311 0.031750336 0.14593321
-0.023890441 0.031316474 0.14602831
0.041603625 0.010408211 0.14892077
0.039055366 0.012344888 0.14749825
-0.019743538 0.034142092 0.14586055
-0.022931661 0.034568403 0.14329731
-0.026795801 0.033575844 0.14152977
0.038847387 0.013214966 0.14228383
0.035768695 0.016740378 0.14219925
-0.01872601 0.036007758 0.13785213
-0.022173686 0.036032747 0.13874558
0.039607324 0.015234883 0.13744462
0.035096712 0.017146721 0.13732836
0.032987408 0.021393687 0.13722607
-0.016838528 0.037290696 0.13406438
-0.022006625 0.036192834 0.13412344
0.034305736 0.018341638 0.13275412
0.033005744 0.022576403 0.1328395
-0.011519026 0.040166985 0.12935376
-0.015463212 0.038512941 0.13007909
0.032437071 0.024407879 0.12877434
-0.010843577 0.041532673 0.12662756
-0.013070155 0.040302519 0.12512183
0.032126535 0.02490986 0.12343121
0.029909004 0.028431017 0.1240837
-0.0085050995 0.042700026 0.12235469
-0.011468408 0.041732259 0.12078416
0.032370649 0.026166733 0.11999673
0.029979831 0.029193025 0.11961198
0.021940168 0.035826556 0.11751431
0.011725264 0.039792743 0.11702698
0.0042857081 0.042255994 0.11637944
-0.0021022605 0.042988572 0.11797529
-0.0065774582 0.042393699 0.11718482
-0.01047462 0.041839715 0.11729038
0.026540361 0.032176204 0.11450469
0.017864661 0.037908815 0.11377984
0.0078301718 0.040892791 0.11322719
-0.0012151664 0.041977968 0.11278754
0.022904115 0.035673723 0.10870403
0.013171545 0.040482763 0.10888302
0.0039196108 0.042119376 0.10837889
0.022395611 0.0377235 0.10532767
0.015231978 0.041384771 0.10389328
0.016759355 -0.016497489 0.19909576
0.014640747 -0.015385998 0.19914186
0.0092729256 -0.013995018 0.19849664
0.0060824822 -0.013524906 0.19792247
-0.019527467 -0.004156454 0.19676328
-0.023363067 -0.0020404756 0.19736031
-0.025822477 0.00018062349 0.19699493
0.019666499 -0.014756337 0.19790572
0.014734101 -0.013164492 0.19761062
0.010455755 -0.011097441 0.19761029
0.0057911463 -0.0099801943 0.19791368
0.0012266622 -0.0088011939 0.19644681
-0.00876325 -0.0062161274 0.19524014
-0.014154308 -0.0038010138 0.1946786
-0.017948046 -0.0015828912 0.19534469
-0.022182692 0.00053644367 0.19538385
-0.026672931 0.0020916555 0.19596848
-0.029408867 0.0036907839 0.19611698
-0.025876574 0.030118465 0.14628083
-0.02858156 0.031032521 0.14384586
0.04002035 0.0099248113 0.14434633
-0.028039526 0.032753989 0.1415976
-0.025799304 0.035583511 0.13738087
0.039041169 0.012965863 0.1374014
0.037405435 0.015198425 0.13643864
-0.022162175 0.035707336 0.13088268
-0.02533425 0.036395453 0.13229626
0.039251082 0.013488714 0.13235486
0.036491912 0.015960751 0.13161218
-0.021034861 0.036796309 0.1280843
-0.024755094 0.036471751 0.12625951
0.034629144 0.017186848 0.12707412
0.033010334 0.019836847 0.12562889
-0.016015695 0.037475929 0.12330306
-0.018517844 0.037317265 0.12378645
0.033063352 0.021669066 0.1220268
-0.014172123 0.040380392 0.11855024
-0.017769184 0.038501211 0.11924732
0.032645982 0.025073789 0.11739326
0.03152189 0.027943902 0.11705673
-0.0085637895 0.042090345 0.11417031
-0.012518864 0.041435964 0.11418724
0.032216251 0.024865087 0.11320943
0.030281562 0.027820246 0.11267853
-0.0034199348 0.041843738 0.11074424
-0.0068002287 0.041983783 0.11074948
-0.01080081 0.041655991 0.10974997
0.029460963 0.029097049 0.1079126
0.024667703 0.035253674 0.10823888
0.0032214299 0.042337798 0.1063506
-0.0015100706 0.042502314 0.10667074
-0.0058213398 0.042627856 0.10628343
0.023820352 0.035435431 0.10351241
0.01312265 0.040767334 0.10203826
0.0038163494 0.042604599 0.10255361
-0.00038501993 0.042982809 0.10237193
0.019395962 0.03803736 0.098669291
0.0092095118 0.042260792 0.097392917
0.013243854 0.041456673 0.095159352
0.0024394467 -0.01425744 0.19658816
-0.0055195945 -0.012694038 0.19720671
-0.01540759 -0.010256346 0.19595352
-0.019160278 -0.0083473548 0.19646189
-0.014177147 -0.0069242381 0.19437084
0.03850922 0.012368339 0.12817281
0.038474593 0.011760622 0.12484592
0.036081698 0.013639977 0.12383163
-0.021291438 0.036245819 0.12135351
-0.023615513 0.035977397 0.12289238
0.034528017 0.015605717 0.1200242
0.033076912 0.019134052 0.1193465
-0.020073615 0.037123948 0.1166364
0.0342291 0.017141907 0.11542231
0.033218507 0.020715773 0.11538106
-0.018249821 0.038223397 0.11216342
0.032505512 0.020857174 0.11054385
0.031097062 0.025891116 0.10964185
-0.013308051 0.040787123 0.10786885
-0.016587965 0.039229989 0.1067431
0.03193137 0.023178846 0.1060521
0.03094713 0.026760567 0.1058681
-0.0080078943 0.041376539 0.10274363
-0.011816385 0.040388092 0.10333848
0.029982358 0.028499663 0.10124707
-0.0022072671 0.042565234 0.099517643
-0.0061974479 0.041520558 0.099094033
0.029269498 0.028323587 0.096923947
0.0234318 0.034548383 0.096918762
0.0039365515 0.041845202 0.095380187
-0.0011839466 0.041394398 0.094955087
0.023476211 0.034680955 0.091625631
0.015503198 0.039947987 0.092574
0.0049697822 0.041017227 0.090714753
0.01955767 0.037865024 0.08722353
0.012216495 0.041387126 0.08729887
0.038756803 0.008552786 0.12134022
0.038433485 0.0092648966 0.11681044
0.036349405 0.01249826 0.11719328
0.036201026 0.013524873 0.1128428
0.034297552 0.016878009 0.11231643
-0.021151224 0.036991477 0.10968143
0.035163693 0.014145323 0.10874504
0.033804882 0.0180002 0.10832834
-0.020052936 0.037290931 0.10530233
-0.023069879 0.036366671 0.10371745
0.033300102 0.0198185 0.10414767
-0.014069753 0.039395675 0.10140294
-0.017914753 0.037924029 0.10047477
0.032413661 0.022549205 0.1003145
0.031233598 0.02500676 0.10017669
-0.0088224299 0.040460132 0.096224904
-0.01300689 0.038929164 0.096782386
-0.016978897 0.037874833 0.0967623
0.030371398 0.02563783 0.094968081
-0.0024600457 0.040793434 0.091549873
-0.0066764178 0.040600445 0.092607617
-0.011225367 0.03880994 0.093284249
0.029168937 0.027357573 0.091206729
0.0032836096 0.040767737 0.087910354
-0.0012590997 0.040831272 0.088217199
-0.0065348223 0.040432699 0.08836019
0.02373834 0.034067869 0.085003853
0.016784964 0.038615197 0.084275723
0.0052848672 0.040915489 0.084361851
0.022374893 0.035120942 0.081548572
0.015097637 0.038951855 0.080508113
0.0062512066 0.041009083 0.080017924
0.040830735 0.0035823463 0.12014705
0.039505467 0.0046880618 0.12047553
0.042041831 0.0039921058 0.11685443
0.039787263 0.0065146126 0.11567926
0.039445739 0.0082993526 0.11118948
0.037626989 0.011749712 0.10985786
0.039100483 0.0083681699 0.10701734
0.035876572 0.011985862 0.1058991
-0.023244157 0.035971317 0.10339063
0.035178687 0.013063896 0.10104424
0.034667164 0.016401492 0.10220397
-0.021136176 0.036528602 0.098479927
-0.023233317 0.036711272 0.097441673
0.034059465 0.017986812 0.096883237
-0.015201152 0.03775188 0.093252897
-0.018969558 0.037209213 0.093658984
-0.023688838 0.036522992 0.093669057
0.033106722 0.020554595 0.09288311
0.031260666 0.024081428 0.092545211
-0.013228492 0.038572311 0.090215981
-0.016962398 0.037507486 0.088499784
0.032796454 0.021588977 0.088578403
0.030792862 0.024521004 0.088187575
-0.0081754215 0.039993688 0.085766673
-0.012518503 0.039406218 0.085264444
0.030059338 0.025787668 0.083989263
-0.00097319391 0.040245563 0.082274914
-0.0059353365 0.040211029 0.081956744
-0.01107092 0.040136661 0.080499172
0.023759674 0.034012642 0.079170287
0.015845791 0.037768483 0.077283263
0.0056055728 0.040285233 0.07707572
-0.0045769168 0.040483639 0.076785505
-0.0082334802 0.040698439 0.07750535
0.024270169 0.034184411 0.074830651
0.015440982 0.038543638 0.073663235
0.0053872149 0.039977491 0.073132575
-0.0026518088 0.041166801 0.073613524
0.020383658 0.037468567 0.069431126
0.010855308 0.039647806 0.068866313
0.01965595 0.037481606 0.066123903
0.012953536 0.040226098 0.065922856
0.038295176 0.0055687968 0.10285127
0.036696501 0.0082776826 0.10320985
0.037785333 0.006082301 0.10003769
0.036354773 0.00912813 0.099685788
0.036047101 0.011257748 0.095335364
-0.021017518 0.036434032 0.090450525
-0.023270246 0.035393871 0.091003001
0.036111455 0.012857595 0.090651512
0.034697458 0.016261654 0.090089679
-0.019474635 0.035805017 0.087482393
-0.022572715 0.034846365 0.087820053
0.033941351 0.017560193 0.08551842
-0.01755257 0.036904015 0.082832098
0.033363111 0.018970665 0.080455959
0.031308498 0.021725181 0.080360353
-0.012498829 0.038997233 0.076877356
-0.015512414 0.038215969 0.07734561
0.030405639 0.023757532 0.076526225
-0.0067454381 0.039832655 0.073293686
-0.010543543 0.039245833 0.073634028
-0.014404347 0.03853447 0.073869228
0.030159201 0.025638564 0.071429372
0.028192705 0.027951811 0.071571052
-0.00085750595 0.039644871 0.069680393
-0.0051546339 0.039702233 0.069385827
-0.0086278226 0.039325215 0.069220364
0.025362631 0.032226492 0.066135943
0.0051117139 0.039652385 0.066238284
-0.0039540734 0.039705068 0.065947354
0.023973357 0.033254139 0.062581837
0.016173825 0.038146794 0.061842799
0.0062796827 0.03927853 0.061553001
0.019851524 0.036122542 0.058457315
0.012900549 0.039307795 0.056959987
0.039490692 0.0038410267 0.10103774
0.039383709 0.0047081737 0.097329617
0.0390145 0.0064070905 0.092999578
0.037659895 0.0093059754 0.093186319
0.038921792 0.0074310983 0.089235127
0.037696231 0.010548205 0.088613808
-0.024677301 0.033336841 0.084383905
0.036937486 0.011867316 0.083621025
0.035096526 0.014960494 0.084226489
-0.02005709 0.034172419 0.08005023
-0.023019999 0.033108361 0.079337597
0.036403947 0.013100953 0.079234838
0.034944344 0.016233649 0.080005825
-0.019606363 0.034964167 0.07567203
-0.02284814 0.035101607 0.07529074
0.034336783 0.017498463 0.074886084
0.032462917 0.020417528 0.075092733
-0.017359076 0.03692393 0.071413159
0.034368746 0.018733792 0.070722222
0.03244628 0.022097051 0.071202397
-0.011781358 0.038551018 0.068202853
-0.015182999 0.037449073 0.067171216
0.031863742 0.023456853 0.066141546
0.028943041 0.026891531 0.065380335
-0.00060737785 0.039046817 0.062467873
-0.0048346212 0.039532326 0.063117862
-0.0098176533 0.039191805 0.063874602
0.031095188 0.02415623 0.061978221
0.028829537 0.027229577 0.061465025
0.0045206277 0.039064966 0.058722436
-0.0047461772 0.040063556 0.059172332
-0.0084385229 0.04016602 0.059100628
0.024678418 0.032569319 0.056720376
0.015774999 0.037553549 0.054525018
0.0063051563 0.039652489 0.055542767
-0.0037667584 0.040681344 0.055595279
0.020323936 0.034760941 0.052689373
0.011226721 0.038991962 0.050940037
0.0021980908 0.04064215 0.051171482
0.012994605 0.038662262 0.047119737
0.038902089 0.0068401024 0.085759997
0.039265428 0.007236178 0.082079411
0.038121026 0.0087983916 0.081802666
-0.025888374 0.032039981 0.077637613
0.039379325 0.0068686167 0.077752948
0.037563521 0.010290465 0.076964676
-0.023779403 0.035463739 0.072614789
0.037380498 0.010888079 0.072813749
0.035730544 0.014888067 0.072110116
-0.022130053 0.034606557 0.06883353
0.037265964 0.012338091 0.069023252
0.035061374 0.015911821 0.067486882
-0.017905282 0.036242571 0.064848304
-0.022345178 0.034365278 0.065077007
0.03430286 0.017232774 0.063243687
0.033163052 0.020620616 0.063120008
-0.012752326 0.037542891 0.06031388
-0.016735202 0.035661846 0.060670376
0.034872554 0.017729437 0.059441745
0.032202363 0.022076214 0.058701098
0.029837471 0.024915963 0.0579741
-0.011254996 0.038695242 0.056506693
-0.014914356 0.036465291 0.055650175
0.031994577 0.022391312 0.053653419
0.029554911 0.025450677 0.053699195
-0.0047139982 0.040122163 0.05202955
-0.0098638618 0.039051138 0.051782131
0.029081922 0.026914459 0.049065053
0.020167997 0.032604326 0.048032403
0.00038758852 0.039933905 0.04811132
-0.0041914647 0.039436564 0.047571361
-0.0085615693 0.039522156 0.046922684
0.028314099 0.028308168 0.04436481
0.020471875 0.032957159 0.044212341
0.010761186 0.038570158 0.044917107
0.0013858732 0.039032795 0.042595983
-0.0026312387 0.039216358 0.043141127
0.016730364 0.036278542 0.039190233
0.0066895997 0.038827445 0.039250493
0.013483461 0.038729444 0.0346995
0.039307423 0.0061099539 0.074092031
0.039890815 0.0069899727 0.069757164
0.038721897 0.0086906618 0.070616484
0.038568132 0.010714014 0.066184044
-0.022317111 0.034335654 0.062993228
0.037572704 0.011728651 0.061472535
0.0357426 0.014641527 0.06209904
-0.018662281 0.034907434 0.058068693
-0.021652961 0.033623073 0.058529019
0.037839357 0.013683926 0.057392538
0.035747062 0.016507275 0.057352841
-0.017950054 0.035625767 0.053982019
0.034667924 0.017065752 0.052941442
0.0336519 0.020497095 0.052770019
-0.012278899 0.038016334 0.049372375
-0.015519992 0.036409508 0.049545169
0.032863177 0.021802818 0.047989964
-0.0046151169 0.038841926 0.04426229
-0.011283794 0.038727559 0.046065509
-0.013924298 0.038221113 0.046863616
0.031668272 0.023438852 0.044893503
0.030179139 0.025793657 0.043678164
-0.00066173635 0.039483007 0.040876865
-0.0052056909 0.038660165 0.041102231
-0.0082186311 0.038650498 0.041802108
0.028527794 0.026763279 0.039348662
0.021817733 0.033401098 0.037647247
0.0055713924 0.039207336 0.037570715
-0.0032511996 0.039431222 0.036750078
0.021481641 0.033123929 0.034547865
0.013310364 0.038140893 0.03267926
0.0029160306 0.038969878 0.033611774
-0.00081431307 0.038575053 0.032682955
0.017867748 0.03598097 0.029799044
0.038375594 0.010596606 0.058389187
0.038294196 0.011399864 0.054772854
0.036373585 0.013982101 0.053976595
-0.020994345 0.034748577 0.051236212
0.037745669 0.012371324 0.050060213
0.035630941 0.015175321 0.050004125
-0.017855611 0.035531808 0.047652423
-0.020008285 0.035100259 0.046161652
0.038367391 0.013374627 0.045758724
0.03593497 0.016292023 0.045759082
-0.014904617 0.036632221 0.042767167
-0.019351203 0.035295568 0.042028606
0.036465518 0.017037096 0.041219831
0.032866206 0.020891767 0.040939331
-0.010108862 0.037240442 0.038452089
-0.014998988 0.035370357 0.037939131
0.036145914 0.018071279 0.038016081
0.032518331 0.021127924 0.036483347
0.029477492 0.024918813 0.036384463
-0.0081201075 0.037863564 0.034403205
-0.012441576 0.036806054 0.033570349
0.031819582 0.022370897 0.033484578
0.029324839 0.02491379 0.032129467
0.022155527 0.030611651 0.030928493
0.0021334775 0.03769784 0.029614866
-0.0026351912 0.038325619 0.029701054
-0.0079084327 0.037964854 0.02968049
0.028850969 0.026563736 0.027746141
0.02170657 0.032005284 0.026893854
0.01236598 0.03671686 0.025923014
0.0026159668 0.037701663 0.025721133
-0.0024697389 0.038408823 0.025185406
-0.0060360311 0.038605396 0.026573658
0.021865362 0.031946152 0.022603869
0.01340301 0.036853623 0.021662414
0.0033395234 0.03855085 0.021562755
-0.00019628275 0.039245628 0.02166003
0.014716978 0.037897989 0.016251922
0.015972668 0.038442958 0.012828231
0.038684115 0.013456917 0.040620685
0.037799273 0.015528773 0.038733363
-0.015889701 0.035278983 0.035428464
-0.018709734 0.035117671 0.036449671
0.036628347 0.016575135 0.034872115
0.033411995 0.019675635 0.034049273
-0.015274476 0.036491167 0.032326877
-0.018771909 0.03762579 0.031686187
0.032431763 0.01959902 0.029353261
0.030691942 0.023569264 0.029756308
-0.010296521 0.0371994 0.027149916
-0.013864619 0.036771629 0.027229548
-0.019073199 0.037894972 0.026954055
0.031930853 0.021625973 0.025412083
0.030523863 0.024445524 0.025670052
-0.0042526443 0.038304497 0.022669554
-0.0081825145 0.038153544 0.023023963
-0.012320736 0.036490645 0.022633433
0.028874811 0.025776319 0.020648718
0.022512192 0.031055719 0.01995343
-0.0025570132 0.039003164 0.019223392
-0.0070509557 0.038728181 0.017994642
0.021555832 0.031119214 0.015943527
0.011560028 0.036815792 0.016371965
0.003589551 0.038667865 0.015262246
-0.0013800915 0.039414175 0.015099704
-0.0054101311 0.039285488 0.014397383
0.013458304 0.037992258 0.010802627
0.018121842 0.036536165 0.0065778494
0.036228038 0.015051996 0.03138423
0.035252772 0.014263134 0.027180552
0.033576712 0.016955236 0.027651548
-0.014591331 0.03552356 0.023208201
-0.019394506 0.037101492 0.024918497
0.03520041 0.01605526 0.02426821
0.033343956 0.018908147 0.023731709
-0.014955643 0.035934139 0.020525157
-0.019303303 0.035479661 0.020196378
0.033578001 0.019827776 0.018866539
0.030323779 0.023551185 0.018820226
-0.0097179813 0.037877947 0.016030073
-0.012875222 0.036556643 0.016424
0.033428151 0.020649323 0.014854312
0.030113254 0.024073286 0.014197588
0.02146912 0.0298774 0.012091219
-0.0037871199 0.038713019 0.012342453
-0.0081049465 0.038550183 0.012088537
-0.011405576 0.037981946 0.012240291
0.029492367 0.02531736 0.0095034838
0.022115987 0.030625835 0.010141313
0.0029332535 0.037147336 0.008048892
-0.0022564828 0.037754945 0.007743001
-0.0058321645 0.037989859 0.0088175535
0.035603821 0.013594568 0.02135253
-0.02066027 0.033946268 0.016526282
0.034828451 0.013956125 0.015916228
-0.015873848 0.035226673 0.013284504
-0.018465968 0.034585796 0.013468504
0.033442348 0.0190561 0.011184633
-0.014141086 0.036480147 0.0089244246
-0.018468764 0.034420572 0.010053515
0.032690912 0.019787351 0.007853508
0.031073313 0.02285504 0.0070536137
-0.021105774 0.032722294 0.011009872
0.034709275 0.012761757 0.0094128847
-0.0025595911 0.042381108 0.19388017
0.0068308935 0.044175863 0.19001299
-0.0024280923 0.045015335 0.19026446
0.0059452634 0.045133471 0.1870454
-0.0022986124 0.046013176 0.1867668
0.010231619 0.035466492 0.1952002
0.0022642002 0.037569821 0.19583562
-0.007890231 0.036833644 0.19570318
-0.016522232 0.034686804 0.19427645
0.01713514 0.038297832 0.19188532
0.0072140433 0.040347219 0.19377691
-0.0083257742 0.03948462 0.1941987
-0.017525624 0.038905978 0.19204909
-0.0224309 0.037222203 0.1901134
0.0083462633 0.043762088 0.18979174
-0.012117904 0.042901814 0.1885767
-0.017357226 0.041750431 0.1876581
-0.022190701 0.03956854 0.18633723
0.0076920814 0.045807719 0.18553427
-0.0021917226 0.045319021 0.18392962
-0.011961877 0.044081688 0.18399599
-0.021498363 0.040704664 0.18266505
0.0074271411 0.044610083 0.18064961
-0.0020344856 0.043946683 0.17973122
-0.011816423 0.043756664 0.17929766
-0.0056486302 0.028522849 0.19564071
-0.022319024 0.027836202 0.19465986
0.020942651 0.033091068 0.19403803
0.017904311 0.032397866 0.19439358
0.0072269766 0.032195568 0.19570264
-0.0021066209 0.031958044 0.1955432
-0.012436773 0.030672489 0.19498584
-0.017255655 0.030860959 0.19423416
-0.022212567 0.031569954 0.19344997
-0.027510578 0.030420123 0.19254738
-0.030557225 0.028852521 0.19145325
0.021647796 0.034216288 0.19155651
0.018670529 0.036240518 0.19239908
-0.023854062 0.034193214 0.1909
-0.027194686 0.033509251 0.18880355
0.021152508 0.036487818 0.18815792
0.018167209 0.038078249 0.18639851
-0.024105377 0.037839767 0.18399554
-0.026770491 0.035026725 0.18425968
0.017441869 0.039205372 0.1820707
-0.022967834 0.038956817 0.17966694
-0.025564857 0.0360738 0.18009058
0.0082588308 0.043421209 0.17744654
-0.0020021871 0.043555498 0.17598936
-0.01208635 0.043034196 0.17564812
-0.021003913 0.040125251 0.17608649
0.0080622677 0.043280005 0.17326629
-0.0012667963 0.043933809 0.17209834
-0.011587486 0.042410493 0.17161483
-0.01997181 0.040605903 0.17241079
-0.001228288 0.045020103 0.16824687
0.02111041 0.025565805 0.1946637
0.018038133 0.025871219 0.19475445
0.013439639 0.025402607 0.19520685
0.0027367207 0.02618134 0.1953432
-0.0072658793 0.025108159 0.1949802
-0.012467233 0.025438128 0.1943751
-0.017258598 0.025220273 0.19446468
-0.022070466 0.024699269 0.19525781
-0.027115116 0.025289951 0.19447115
-0.032027781 0.024696644 0.19364893
-0.036027327 0.024354454 0.19201961
0.027004523 0.028094949 0.19177756
0.02280614 0.028834166 0.1934146
0.017987782 0.028420987 0.19456404
0.012636011 0.028960468 0.19472879
-0.032838196 0.028369959 0.19107291
-0.035570897 0.025194522 0.18942052
0.026934458 0.030480625 0.18923014
0.023849126 0.032454137 0.18968886
-0.031931221 0.030656813 0.18717748
-0.036293276 0.027326461 0.18429762
0.026529556 0.031436685 0.18535894
0.023090016 0.034096424 0.1850909
-0.028316226 0.033497807 0.18147552
-0.03164044 0.030495165 0.18189868
-0.036466945 0.028435525 0.18199363
0.02238448 0.034815554 0.17987776
0.019603271 0.037916243 0.18047431
-0.027232721 0.03520691 0.17743096
-0.030565226 0.031535622 0.17740354
0.018533695 0.037465453 0.17537248
-0.023076911 0.038675662 0.17374396
-0.025648948 0.035930332 0.1727373
0.01735026 0.038108766 0.17188954
0.0082218144 0.043199122 0.16957444
-0.010997713 0.042170644 0.16889146
-0.020658255 0.040288806 0.16944408
-0.023754179 0.037270483 0.16913316
0.0093338676 0.04252547 0.16576844
-0.00044434163 0.044717312 0.16559696
-0.011376962 0.042867959 0.16508949
-0.020089094 0.040303946 0.16437572
0.004010424 0.043987095 0.16081935
-0.005901739 0.044368029 0.16078514
-0.015495509 0.041970849 0.15993759
-0.00040370628 0.045807719 0.15642387
-0.0018553004 0.017845213 0.19628316
0.027006974 0.021279158 0.1944221
0.022538735 0.021842422 0.19537944
0.018075166 0.021912636 0.19587463
0.013462069 0.02138585 0.19629195
0.0027745813 0.02050072 0.19538635
-0.0067338217 0.020940483 0.19552296
-0.011758452 0.019759474 0.19444218
-0.016812811 0.019595383 0.19435233
-0.021725895 0.019649802 0.19494066
-0.027206713 0.019954441 0.19423008
-0.0321628 0.019063052 0.19363087
-0.036353678 0.019467648 0.19218558
0.028465463 0.024698379 0.19237921
0.024251694 0.024223985 0.19392383
-0.037487641 0.023689028 0.18705204
0.030014629 0.028138103 0.18720725
-0.037134916 0.025338229 0.18480337
0.028533025 0.029241147 0.18279123
-0.033348709 0.028585371 0.1785638
-0.036429025 0.0280292 0.17901149
0.02637556 0.03145707 0.1787039
0.024525765 0.032805506 0.17807412
-0.032213274 0.030139741 0.17506796
-0.035562124 0.029015955 0.17513311
0.026570162 0.031475488 0.17506781
0.022591747 0.033975486 0.17330787
0.020445324 0.035846055 0.17229521
-0.027959272 0.033423956 0.17099112
-0.030677004 0.030765114 0.17059833
-0.034716487 0.029682215 0.17194784
0.022194043 0.033800725 0.16913989
0.019090578 0.035945833 0.1686509
-0.025705595 0.034834024 0.16624939
-0.028349563 0.033273157 0.16537556
0.017739866 0.036651313 0.16448337
-0.022043452 0.037976619 0.16232827
-0.024641283 0.035795148 0.16229156
-0.028264459 0.03363299 0.16193625
0.01024932 0.041595936 0.1585542
-0.016106833 0.041350961 0.15699583
-0.020370506 0.039141953 0.15764332
-0.023506925 0.03722709 0.15900034
0.0052897409 0.044356823 0.15433872
-0.010264996 0.042886853 0.15407673
-0.019209594 0.040288568 0.15322456
-0.00017415381 0.045124054 0.1503807
-0.0096124485 0.042764902 0.14967018
-2.471377e-05 0.044834852 0.14644793
0.022915455 0.014806451 0.1952312
0.018273113 0.014914932 0.19514334
0.013611673 0.01555425 0.19538298
0.0082165068 0.014856637 0.19537508
-0.0018254718 0.014638782 0.19565782
-0.0068172081 0.013916551 0.19504488
-0.01140222 0.013219356 0.19355726
-0.016931059 0.013239322 0.19353604
-0.021818275 0.013187764 0.19364223
-0.026438488 0.013059912 0.19340909
-0.03126343 0.012989637 0.19388267
-0.034768242 0.012605724 0.19339263
0.032754999 0.0179382 0.19267413
0.028624048 0.017806413 0.1941812
0.024362439 0.017909409 0.19539374
-0.035549 0.016243871 0.19236618
0.032622952 0.020491544 0.18967998
0.030649999 0.020467283 0.19177333
0.032403108 0.024596874 0.18537521
0.032730836 0.024400178 0.17977965
0.030678218 0.02524543 0.17904314
0.029559406 0.027145984 0.17597264
0.028125392 0.028950753 0.17160296
0.02469377 0.031785671 0.17154542
-0.031606741 0.028860806 0.16828912
-0.034208406 0.026924666 0.16706967
0.027059382 0.030069174 0.16677874
0.024237838 0.032577757 0.16673917
0.02078899 0.034691811 0.16601279
-0.030831935 0.029227493 0.1630933
-0.033076484 0.028103229 0.16358575
0.02369773 0.033214215 0.16165698
0.019848168 0.035367966 0.1624825
-0.026139248 0.034654316 0.15961811
-0.029532636 0.031670686 0.15870655
0.022736128 0.034189466 0.1583122
0.01943082 0.035967886 0.15781018
0.015986618 0.037994862 0.15763795
-0.025200613 0.034889039 0.15524623
-0.028136175 0.032554086 0.15470704
0.018301141 0.037049353 0.15269873
0.010895226 0.040408254 0.15296656
-0.020719592 0.038962662 0.15131861
-0.023331985 0.035960849 0.15068981
0.010176407 0.040551782 0.14797097
-0.0061879456 0.042937338 0.14678115
-0.015103497 0.041362345 0.1461435
-0.020069126 0.039233267 0.14623111
-0.023210887 0.037164088 0.14686054
0.0055069197 0.042619884 0.1431416
-0.005017899 0.043204188 0.14262873
-0.014506988 0.041003227 0.14139605
-0.019181505 0.039885759 0.14234087
0.00028776366 0.043809295 0.13819432
-0.0089939423 0.042520583 0.13840771
-0.00037459304 0.044915974 0.13519961
-0.012652514 0.0068220487 0.19457084
-0.027379856 0.0069166995 0.19413224
-0.031576224 0.0068639489 0.19468459
-0.034322113 0.0081031295 0.19462276
0.028212817 0.010967317 0.19381499
0.023066547 0.0099459309 0.19496265
0.018012345 0.010434749 0.19463897
0.013728931 0.010370673 0.19491053
0.0090543097 0.0098935971 0.19536805
0.0041505536 0.0090536475 0.19529286
-0.0064343298 0.0088885417 0.19468439
-0.010800519 0.0090572229 0.1938858
-0.015185473 0.0085496297 0.19342741
-0.021606371 0.0077967625 0.19341421
-0.026169144 0.0085867625 0.19383585
-0.02962707 0.0094663473 0.1938045
0.032474861 0.012392583 0.19223854
0.030745814 0.01484746 0.19370511
0.034030806 0.017937724 0.18847448
0.033501033 0.023173276 0.17394853
0.03147395 0.024690928 0.17441979
0.03334704 0.023209456 0.16980481
0.031123305 0.025545301 0.16906098
0.029258428 0.027180733 0.16614115
0.027352432 0.029414656 0.16170314
0.025875507 0.031259958 0.15918964
-0.031358238 0.02871537 0.15569639
0.024242301 0.032301251 0.15518564
0.02138206 0.034100536 0.15447593
-0.029284647 0.030994235 0.1521925
0.023820691 0.032586638 0.15011507
0.0207383 0.035049081 0.15136987
-0.025665045 0.033410605 0.14883375
-0.028787775 0.031037806 0.14707944
0.019769501 0.03529191 0.14613622
0.016278204 0.037316263 0.14625734
-0.024748251 0.034893449 0.14426804
-0.027921958 0.031652268 0.14376819
0.018820908 0.035875618 0.14247406
0.012563929 0.041057169 0.14127949
-0.020132016 0.038697064 0.13984337
-0.023607958 0.035232123 0.14013767
0.011215251 0.041276276 0.13666463
-0.0058209896 0.042285323 0.1359624
-0.014251128 0.041268289 0.13571587
-0.019192405 0.038799763 0.1347003
-0.022961404 0.036267933 0.13584551
0.005950341 0.043130934 0.13216698
-0.0043409951 0.043603241 0.13167977
-0.013397921 0.0410375 0.13007575
-0.017048985 0.039699435 0.1302619
0.00072430068 0.043597698 0.12663531
-0.01018475 0.041946709 0.12701732
-0.028418515 -0.0012475873 0.19641948
-0.031537402 -0.00070297992 0.19709489
0.032514744 0.0047288565 0.19663876
0.029445443 0.0031551744 0.19648999
0.025844559 0.0026396536 0.19575167
0.016994342 0.0028757467 0.19498718
0.012337424 0.0021085751 0.19436318
0.0091591012 0.003365875 0.19502029
0.0044704503 0.0034546261 0.19491574
-0.0061328597 0.0020427103 0.19442919
-0.011439625 0.0021513691 0.19431525
-0.015406903 0.0017865286 0.19368562
-0.020929158 0.0016103368 0.19371784
-0.026564941 0.0016213632 0.19437277
-0.031193912 0.0021414729 0.19525144
0.032875579 0.0080608753 0.19358572
0.029224273 0.0068721198 0.19464824
0.024006259 0.0049081468 0.1946376
0.018839262 0.0058243293 0.19429564
0.013846423 0.0051378622 0.19443551
0.0099140024 0.0059432993 0.1947948
-0.0017369357 0.0049586296 0.19380084
-0.0064293561 0.0060560103 0.19431275
-0.009535973 0.005925416 0.1941283
-0.016518783 0.0039755688 0.19270232
-0.020409036 0.0054109674 0.19344777
0.03488047 0.021438066 0.17146379
0.035288151 0.022333268 0.16719323
0.035299391 0.022286776 0.16366673
0.031147273 0.023983898 0.16218579
0.030043988 0.025071742 0.15789691
0.034082618 0.02892739 0.15314937
0.029480604 0.026308121 0.15308392
0.027220858 0.028222622 0.15320718
-0.031385675 0.023778437 0.14949048
0.029628916 0.027118566 0.14987403
0.026944706 0.029664876 0.14832738
-0.03117664 0.027179955 0.14430758
0.024031816 0.031479005 0.14455718
0.021955956 0.033176009 0.14348662
-0.026302053 0.031943854 0.14118567
-0.02919651 0.030208943 0.14081761
0.02026546 0.034963608 0.13996771
-0.025134146 0.032917377 0.13653931
-0.027787158 0.030804155 0.13653308
0.019560169 0.035808146 0.13531548
0.017055847 0.037901402 0.13501406
-0.021312032 0.03617036 0.13201374
-0.024481896 0.034684714 0.1327517
0.016377781 0.038918078 0.13103998
-0.019464605 0.038605511 0.12868899
-0.023205664 0.036608037 0.12790763
0.011512671 0.041266203 0.1254437
-0.0049020089 0.04234606 0.1242674
-0.013228014 0.041108906 0.12439054
-0.01770664 0.039889276 0.12359726
-0.021844719 0.038134333 0.12386078
0.0063823201 0.043072879 0.12159812
-0.0035098828 0.042648256 0.12059045
-0.013085909 0.041270614 0.1197027
-0.017010927 0.040457368 0.11994815
0.028482608 -0.0022948955 0.19834256
0.024131209 -0.0034622529 0.19688296
0.018672325 -0.004371224 0.19615084
0.013956975 -0.0045694695 0.19587088
0.0092140082 -0.0050830832 0.19631669
0.0045262803 -0.0049659009 0.19531092
-0.0057002935 -0.0048367386 0.19503948
-0.011201147 -0.0046905288 0.19493952
-0.01590753 -0.0057293787 0.19415507
-0.020622194 -0.0060231108 0.19381776
-0.025354762 -0.0056380653 0.19480363
-0.029279638 -0.004346373 0.19635445
0.028016299 -0.001143155 0.19658121
0.023491256 -0.00013899598 0.19561291
0.018828705 -0.00042462183 0.19510403
0.014133301 -0.0007009494 0.19477782
0.0092148595 -0.0010683528 0.19507396
0.0045166202 -0.0012754198 0.1947892
-0.00096638489 -0.001448691 0.1944983
-0.0068579167 -0.0015089518 0.19471794
-0.010775715 -0.0013297806 0.19469264
-0.016165372 -0.0016003265 0.19407266
-0.020568404 -0.002871694 0.19388583
-0.02447756 -0.0020046255 0.19427568
0.035281792 0.020805482 0.16048458
0.034835454 0.021466795 0.15596482
0.032603133 0.022887412 0.1555444
0.034231212 0.024922136 0.1532169
0.031971332 0.024394933 0.15184116
-0.031388562 0.021364747 0.14593321
-0.034056187 0.019790169 0.14602831
0.034453683 0.025536958 0.14892077
0.031358264 0.026351037 0.14749825
-0.031306267 0.023987649 0.14586055
-0.034414854 0.023161467 0.14329731
-0.037605014 0.020765718 0.14152977
0.030833153 0.027075293 0.14228383
0.026639698 0.029154183 0.14219925
-0.031080155 0.026100693 0.13785213
-0.034274954 0.02480441 0.13874558
0.030762253 0.029232265 0.13744462
0.025863366 0.029272439 0.13732836
0.022289377 0.032388929 0.13722607
-0.029827306 0.02800828 0.13406438
-0.034181874 0.025016245 0.13412344
0.024675326 0.030073704 0.13275412
0.021853711 0.033488635 0.1328395
-0.026013438 0.03270131 0.12935376
-0.029024413 0.029663799 0.13007909
0.02062745 0.034963071 0.12877434
-0.025912032 0.034221526 0.12662756
-0.027498361 0.032232936 0.12512183
0.020148452 0.035308003 0.12343121
0.016752232 0.037712514 0.1240837
-0.024198286 0.036194917 0.12235469
-0.026565678 0.034166809 0.12078416
0.019892998 0.036562622 0.11999673
0.016526058 0.038443625 0.11961198
0.0065598357 0.041495562 0.11751431
-0.0043952987 0.041250765 0.11702698
-0.012211196 0.040679514 0.11637944
-0.018393256 0.03891176 0.11797529
-0.02230015 0.036649581 0.11718482
-0.025688659 0.034646388 0.11729038
0.012206789 0.039883494 0.11450469
0.001997713 0.041859686 0.11377984
-0.0084148645 0.040776491 0.11322719
-0.017186947 0.038317561 0.11278754
0.0075088926 0.041723251 0.10870403
-0.0033231676 0.042441726 0.10888302
-0.012497146 0.040413201 0.10837889
0.0062546805 0.043422401 0.10532767
-0.0017647595 0.044063568 0.10389328
0.021796942 -0.0088281613 0.19909576
0.019414254 -0.0086120348 0.19914186
0.01392273 -0.0093811145 0.19849664
0.01079524 -0.010167717 0.19792247
-0.016450418 -0.011312904 0.19676328
-0.0208038 -0.010825815 0.19736031
-0.023925979 -0.0097149629 0.19699493
0.023816481 -0.0061070304 0.19790572
0.018650368 -0.0065239053 0.19761062
0.013906666 -0.006251453 0.19761029
0.0091695776 -0.0070043197 0.19791368
0.00450136 -0.007661819 0.19644681
-0.0057173772 -0.0090965042 0.19524014
-0.01162229 -0.0089282999 0.1946786
-0.015976086 -0.0083308229 0.19534469
-0.020699423 -0.0079933424 0.19538385
-0.025443017 -0.0082748551 0.19596848
-0.028582651 -0.0078444509 0.19611698
-0.035432674 0.017923292 0.14628083
-0.038281552 0.017732617 0.14384586
0.033175915 0.024484459 0.14434633
-0.038439553 0.019530471 0.1415976
-0.037452675 0.023001906 0.13738087
0.031107513 0.026919307 0.1374014
0.028741928 0.028355958 0.13643864
-0.03413979 0.024508175 0.13088268
-0.037333738 0.023930009 0.13229626
0.031101363 0.02748269 0.13235486
0.027606213 0.028710665 0.13161218
-0.033515021 0.02594566 0.1280843
-0.036827866 0.024222132 0.12625951
0.02541603 0.02913058 0.12707412
0.022906335 0.03095937 0.12562889
-0.029137993 0.028494297 0.12330306
-0.031388961 0.02739018 0.12378645
0.022254158 0.032672409 0.1220268
-0.028546246 0.031883176 0.11855024
-0.031150365 0.028770505 0.11924732
0.020565625 0.03565824 0.11739326
0.018428754 0.037879705 0.11705673
-0.024019193 0.035609182 0.11417031
-0.027422786 0.033491071 0.11418724
0.020248473 0.03530097 0.11320943
0.017330162 0.037290812 0.11267853
-0.019172519 0.03734982 0.11074424
-0.022349097 0.036185618 0.11074948
-0.025919709 0.034351822 0.10974997
0.016083416 0.03815639 0.1079126
0.009298984 0.042010069 0.10823888
-0.013225768 0.040347815 0.1063506
-0.017660059 0.038689137 0.10667074
-0.021691196 0.037155267 0.10628343
0.0084465779 0.041853726 0.10351241
-0.0034772418 0.042685926 0.10203826
-0.012778234 0.04082197 0.10255361
-0.016804527 0.039563596 0.10237193
0.0033632591 0.042564452 0.098669291
-0.0076640323 0.042568207 0.097392917
-0.0036290623 0.043369174 0.095159352
0.0077098431 -0.012238621 0.19658816
-0.00024163975 -0.01384002 0.19720671
-0.010309822 -0.01537186 0.19595352
-0.014507393 -0.015044273 0.19646189
-0.010448183 -0.011822523 0.19437084
0.030844716 0.026163699 0.12817281
0.03104529 0.025588991 0.12484592
0.028115345 0.026409568 0.12383163
-0.033541404 0.025338884 0.12135351
-0.035585847 0.024201509 0.12289238
0.025927676 0.027631106 0.1200242
0.023236794 0.030335547 0.1193465
-0.032752328 0.026616212 0.1166364
