# .PCD v0.7 - Point Cloud Data file format
VERSION 0.7
FIELDS x y z
SIZE 4 4 4
TYPE F F F
COUNT 1 1 1
WIDTH 815
HEIGHT 1
VIEWPOINT 0 0 0 1 0 0 0
POINTS 815
DATA ascii
-0.03817552 -0.018583305 0.19388017
-0.043427244 -0.010594454 0.19001299
-0.040659554 -0.019469891 0.19026446
-0.043973044 -0.01177913 0.1870454
-0.041630991 -0.019732125 0.1867668
-0.036682237 -0.0041196607 0.1952002
-0.035576459 -0.012285504 0.19583562
-0.031010384 -0.021385251 0.19570318
-0.02572364 -0.028538618 0.19427645
-0.041939918 0.001174855 0.19188532
-0.040036663 -0.0087753087 0.19377691
-0.033292893 -0.022802126 0.1941987
-0.029237665 -0.03108024 0.19204909
-0.025804896 -0.034967773 0.1901134
-0.04362487 -0.0090360884 0.18979174
-0.034998782 -0.027613299 0.1885767
-0.031930041 -0.032013185 0.1876581
-0.028064549 -0.035643764 0.18633723
-0.045264445 -0.010423305 0.18553427
-0.041030578 -0.01936773 0.18392962
-0.036148552 -0.027920669 0.18399599
-0.029379137 -0.035438903 0.18266505
-0.044056587 -0.010209761 0.18064961
-0.039822873 -0.018697292 0.17973122
-0.035903931 -0.027661905 0.17929766
-0.024190037 -0.016133878 0.19564071
-0.017176172 -0.031272545 0.19465986
-0.038586568 0.0066850781 0.19403803
-0.036783412 0.0041432967 0.19439358
-0.032510471 -0.0056438581 0.19570264
-0.028719211 -0.014176081 0.1955432
-0.023578335 -0.023227934 0.19498584
-0.021908352 -0.027752127 0.19423416
-0.02066645 -0.032603037 0.19344997
-0.01757668 -0.037057739 0.19254738
-0.014962506 -0.039272577 0.19145325
-0.039895982 0.0069059459 0.19155651
-0.040626775 0.0033806693 0.19239908
-0.022461854 -0.035123456 0.1909
-0.020551551 -0.03794805 0.18880355
-0.041805066 0.0055790804 0.18815792
-0.042132005 0.0022123931 0.18639851
-0.025734656 -0.036751121 0.18399554
-0.022115849 -0.038136858 0.18425968
-0.042895757 0.0011109356 0.1820707
-0.027201995 -0.036127642 0.17966694
-0.023544598 -0.037423693 0.18009058
-0.043276485 -0.0089864172 0.17744654
-0.039473828 -0.018517751 0.17598936
-0.035133164 -0.027634811 0.17564812
-0.029033041 -0.034760356 0.17608649
-0.043070808 -0.0091139823 0.17326629
-0.040104762 -0.017983112 0.17209834
-0.034747843 -0.026935238 0.17161483
-0.029872075 -0.033990756 0.17241079
-0.041123103 -0.018363243 0.16824687
-0.031698331 0.0097198626 0.1946637
-0.030804783 0.0067645712 0.19475445
-0.028612075 0.0026954468 0.19520685
-0.025235699 -0.0074907681 0.1953432
-0.020416379 -0.016321275 0.1949802
-0.01873076 -0.021252975 0.1943751
-0.016695911 -0.025596246 0.19446468
-0.014373144 -0.029842453 0.19525781
-0.012988359 -0.034729145 0.19447115
-0.01056022 -0.039040808 0.19364893
-0.0087135183 -0.042604953 0.19201961
-0.036290534 0.014197449 0.19177756
-0.035366829 0.010035763 0.1934146
-0.033141192 0.0057422994 0.19456404
-0.031591576 0.00059145689 0.19472879
-0.013643788 -0.041195251 0.19107291
-0.0096643073 -0.04250475 0.18942052
-0.038467798 0.01321976 0.18923014
-0.039110377 0.0096140569 0.18968886
-0.016103648 -0.041232456 0.18717748
-0.011357519 -0.043987997 0.18429762
-0.03919613 0.012479811 0.18535894
-0.040337153 0.0082842531 0.1850909
-0.020111784 -0.038979836 0.18147552
-0.016065583 -0.040901948 0.18189868
-0.0123157 -0.044572867 0.18199363
-0.040731546 0.007357223 0.17987776
-0.042531889 0.0036011385 0.18047431
-0.022105429 -0.038632855 0.17743096
-0.017438306 -0.040306751 0.17740354
-0.041706104 0.002785489 0.17537248
-0.026900496 -0.036120825 0.17374396
-0.023379868 -0.037446484 0.1727373
-0.041847568 0.0014459519 0.17188954
-0.043057136 -0.0089356266 0.16957444
-0.034751948 -0.026298571 0.16889146
-0.029316425 -0.034503598 0.16944408
-0.025343101 -0.036208797 0.16913316
-0.042860329 -0.0076504285 0.16576844
-0.041143365 -0.017523097 0.16559696
-0.035251047 -0.026915804 0.16508949
-0.02954822 -0.033983558 0.16437572
-0.042173501 -0.013127988 0.16081935
-0.038732212 -0.022431409 0.16078514
-0.03284613 -0.030377533 0.15993759
-0.042166319 -0.017902836 0.15642387
-0.015776834 -0.008543143 0.19628316
-0.029994503 0.016808007 0.1944221
-0.028804969 0.012464338 0.19537944
-0.027161703 0.0083136708 0.19587463
-0.024909658 0.0042533167 0.19629195
-0.020001981 -0.0052819084 0.19538635
-0.016769558 -0.014234817 0.19552296
-0.013755607 -0.018425018 0.19444218
-0.011669787 -0.023031842 0.19435233
-0.0098399064 -0.027591765 0.19494066
-0.0080239382 -0.03277196 0.19423008
-0.0053037889 -0.037009671 0.19363087
-0.004073807 -0.041036367 0.19218558
-0.03371159 0.016846992 0.19237921
-0.031660765 0.013135522 0.19392383
-0.0075399047 -0.043699462 0.18705204
-0.037482321 0.01696191 0.18720725
-0.0091985511 -0.044004709 0.18480337
-0.037934415 0.015170969 0.18279123
-0.013647437 -0.041749336 0.1785638
-0.011954815 -0.044382341 0.17901149
-0.039156035 0.012329736 0.1787039
-0.039693937 0.010104727 0.17807412
-0.015518 -0.041295163 0.17506796
-0.013198206 -0.043959044 0.17513311
-0.03924752 0.012502476 0.17506781
-0.040034741 0.0078701945 0.17330787
-0.040941525 0.0051713223 0.17229521
-0.020180156 -0.038621794 0.17099112
-0.016683673 -0.040115159 0.17059833
-0.014137362 -0.043432742 0.17194784
-0.03972109 0.0075696418 0.16913989
-0.040515266 0.003881515 0.1686509
-0.022345332 -0.037079278 0.16624939
-0.019891478 -0.038924668 0.16537556
-0.040650152 0.0023636436 0.16448337
-0.026650153 -0.03489852 0.16232827
-0.023640592 -0.03646379 0.16229156
-0.020256486 -0.038983744 0.16193625
-0.042351879 -0.0064489432 0.1585542
-0.032039482 -0.030705102 0.15699583
-0.02836699 -0.03379887 0.15764332
-0.025397636 -0.035963759 0.15900034
-0.043004654 -0.012087543 0.15433872
-0.035694037 -0.025895711 0.15407673
-0.029870583 -0.03316512 0.15322456
-0.041622542 -0.017429128 0.1503807
-0.035831086 -0.025246168 0.14967018
-0.041412544 -0.017180391 0.14644793
-0.022448745 0.015504934 0.1952312
-0.02077242 0.011174455 0.19514334
-0.019579217 0.0066231899 0.19538298
-0.016870063 0.0019056713 0.19537508
-0.012825891 -0.0072885365 0.19565782
-0.010248384 -0.011623913 0.19504488
-0.0078496486 -0.015593108 0.19355726
-0.0057523013 -0.020708729 0.19353604
-0.0038344106 -0.025204197 0.19364223
-0.0019482104 -0.029423788 0.19340909
-3.6859885e-05 -0.033854563 0.19388267
0.0016590646 -0.036945671 0.19339263
-0.029107532 0.023397015 0.19267413
-0.02740493 0.01963095 0.1941812
-0.025869241 0.015654322 0.19539374
-0.0014033625 -0.039059255 0.19236618
-0.031415984 0.0222979 0.18967998
-0.030638553 0.020484414 0.19177333
-0.035124682 0.020523749 0.18537521
-0.035068374 0.020901803 0.17977965
-0.035063785 0.018681966 0.17904314
-0.036391515 0.016921006 0.17597264
-0.037510131 0.014905496 0.17160296
-0.038816027 0.010650216 0.17154542
-0.014568526 -0.040245373 0.16828912
-0.011784155 -0.04190807 0.16706967
-0.038135473 0.01349263 0.16677874
-0.039373342 0.0099258712 0.16673917
-0.040006656 0.0059305364 0.16601279
-0.015203808 -0.039669871 0.1630933
-0.013306173 -0.041313328 0.16358575
-0.039754663 0.0091833156 0.16165698
-0.040271305 0.0048025781 0.1624825
-0.022013351 -0.03741115 0.15961811
-0.017958246 -0.039404444 0.15870655
-0.040287688 0.0079216976 0.1583122
-0.04066585 0.0041874172 0.15781018
-0.04122049 0.00022969954 0.15763795
-0.022589408 -0.03663379 0.15524623
-0.019308804 -0.03845235 0.15470704
-0.041232683 0.0027298713 0.15269873
-0.041501783 -0.005397697 0.15296656
-0.028067756 -0.034052774 0.15131861
-0.024294725 -0.035317566 0.15068981
-0.041359302 -0.0061167255 0.14797097
-0.0373009 -0.022148328 0.14678115
-0.032433961 -0.029782498 0.1461435
-0.028566686 -0.033555377 0.14623111
-0.025452714 -0.035666145 0.14686054
-0.041483041 -0.011222197 0.1431416
-0.037995193 -0.021169465 0.14262873
-0.032330453 -0.02909397 0.14139605
-0.029509187 -0.03298502 0.14234087
-0.040584631 -0.016499236 0.13819432
-0.035842061 -0.024581246 0.13840771
-0.041353595 -0.017534683 0.13519961
-0.0014608423 -0.014300083 0.19457084
0.0040876237 -0.027942594 0.19413224
0.0057422388 -0.031799346 0.19468459
0.0056481929 -0.034810431 0.19462276
-0.020929059 0.021868233 0.19381499
-0.018016029 0.017504564 0.19496265
-0.016533477 0.012648028 0.19463897
-0.014835088 0.0087151919 0.19491053
-0.012605427 0.004578975 0.19536805
-0.0099528283 0.00036992948 0.19529286
-0.0057496293 -0.0093460437 0.19468439
-0.0042346013 -0.013444427 0.1938858
-0.0020875968 -0.017301349 0.19342741
0.0010651336 -0.022945374 0.19341421
0.0020813672 -0.027463147 0.19383585
0.0025920272 -0.030994458 0.1938045
-0.023876846 0.025260419 0.19223854
-0.02548318 0.022723548 0.19370511
-0.029595323 0.024575891 0.18847448
-0.034229606 0.022082888 0.17394853
-0.034856007 0.019629326 0.17441979
-0.034204103 0.021926772 0.16980481
-0.035511158 0.018978417 0.16906098
-0.036308438 0.01662964 0.16614115
-0.037642922 0.014013846 0.16170314
-0.038782559 0.011943179 0.15918964
-0.014529259 -0.039960131 0.15569639
-0.03911959 0.010035809 0.15518564
-0.039687343 0.0067047346 0.15447593
-0.017428184 -0.038916469 0.1521925
-0.039221913 0.0095370794 0.15011507
-0.040317334 0.0057469849 0.15136987
-0.021045785 -0.036497094 0.14883375
-0.017658584 -0.03847409 0.14707944
-0.040170934 0.0047590025 0.14613622
-0.040705133 0.00075877924 0.14625734
-0.022766594 -0.036217548 0.14426804
-0.018557608 -0.037909329 0.14376819
-0.0403472 0.0036592418 0.14247406
-0.042739887 -0.004104346 0.14127949
-0.02804723 -0.033408284 0.13984337
-0.023515861 -0.035293661 0.14013767
-0.042426199 -0.0054342113 0.13666463
-0.036838945 -0.021559788 0.1359624
-0.032673251 -0.028959017 0.13571587
-0.028501686 -0.032579497 0.1347003
-0.024720252 -0.035092711 0.13584551
-0.042124882 -0.011008101 0.13216698
-0.038622912 -0.020696798 0.13167977
-0.032786541 -0.028082438 0.13007575
-0.030153126 -0.030943528 0.1302619
-0.040556196 -0.016014954 0.12663531
-0.034856167 -0.025461797 0.12701732
0.012027917 -0.025777852 0.19641948
0.012718313 -0.02886774 0.19709489
-0.016811749 0.028230049 0.19663876
-0.014183288 0.025996609 0.19648999
-0.012329008 0.022867106 0.19575167
-0.0091602979 0.014600223 0.19498718
-0.0066693984 0.010591376 0.19436318
-0.0066147 0.0071738409 0.19502029
-0.0049024257 0.0028081289 0.19491574
0.00045972632 -0.0064477352 0.19442919
0.0023901507 -0.011392129 0.19431525
0.0042454307 -0.014917796 0.19368562
0.0065214867 -0.019952269 0.19371784
0.0086680204 -0.025163272 0.19437277
0.0099589331 -0.029638922 0.19525144
-0.020028219 0.027288308 0.19358572
-0.017532658 0.024369858 0.19464824
-0.013721336 0.020300621 0.1946376
-0.012590453 0.015176333 0.19429564
-0.010045564 0.010826251 0.19443551
-0.0092848176 0.0068849414 0.1947948
-0.0039164792 -0.0035023051 0.19380084
-0.0031346148 -0.008257485 0.19431275
-0.0018251108 -0.011077649 0.1941283
0.0026485198 -0.016782749 0.19270232
0.0028111204 -0.020926179 0.19344777
-0.033154372 0.024021357 0.17146379
-0.034137443 0.024055427 0.16719323
-0.034098789 0.024083599 0.16366673
-0.034077778 0.019598084 0.16218579
-0.034660608 0.018162481 0.15789691
-0.039768279 0.020418197 0.15314937
-0.035587274 0.017168842 0.15308392
-0.036491275 0.01434846 0.15320718
-0.0099576293 -0.038096197 0.14949048
-0.036392786 0.016995719 0.14987403
-0.037718065 0.013541401 0.14832738
-0.013180215 -0.039204776 0.14430758
-0.038279384 0.010156006 0.14455718
-0.039052814 0.007588747 0.14348662
-0.019446909 -0.036524314 0.14118567
-0.016736399 -0.038534522 0.14081761
-0.040057421 0.0053428458 0.13996771
-0.020793267 -0.035817858 0.13653931
-0.017825637 -0.03746023 0.13653308
-0.040567767 0.004368051 0.13531548
-0.04154332 0.001253305 0.13501406
-0.02526129 -0.03353155 0.13201374
-0.022675678 -0.035891593 0.1327517
-0.042223122 0.00023778807 0.13103998
-0.028218055 -0.032756642 0.12868899
-0.02494099 -0.035448529 0.12790763
-0.042530708 -0.0051555755 0.1254437
-0.037246738 -0.020734005 0.1242674
-0.032917529 -0.027952792 0.12439054
-0.030076843 -0.03162377 0.12359726
-0.026871916 -0.034775268 0.12386078
-0.042236559 -0.010586787 0.12159812
-0.038058676 -0.019563492 0.12059045
-0.03312131 -0.027883388 0.1197027
-0.030867929 -0.031198414 0.11994815
-0.008779618 0.027192717 0.19834256
-0.0060359109 0.023619276 0.19688296
-0.0031071068 0.018923774 0.19615084
-0.0011194656 0.014643224 0.19587088
0.0011701069 0.010457845 0.19631669
0.0028557612 0.0060821064 0.19531092
0.0066499719 -0.0034154439 0.19503948
0.0086199772 -0.0085535208 0.19493952
0.011380805 -0.012504101 0.19415507
0.013456402 -0.016747477 0.19381776
0.014911743 -0.021267148 0.19480363
0.015220361 -0.025387572 0.19635445
-0.0096652387 0.02632115 0.19658121
-0.0088613015 0.02175628 0.19561291
-0.0068131355 0.017557951 0.19510403
-0.0047609885 0.013325708 0.19477782
-0.0025393455 0.0089222603 0.19507396
-0.00055010198 0.0046608951 0.1947892
0.0017082355 -0.00033843302 0.1944983
0.0040185014 -0.0057584373 0.19471794
0.0053522456 -0.0094465772 0.19469264
0.0076647298 -0.014322436 0.19407266
0.010524288 -0.017903777 0.19388583
0.01121919 -0.021847179 0.19427568
-0.032723516 0.024634207 0.16048458
-0.033163689 0.023968775 0.15596482
-0.033621892 0.021362731 0.1555444
-0.03612477 0.022088226 0.1532169
-0.03477288 0.020202119 0.15184116
-0.0077265659 -0.037175186 0.14593321
-0.0052509895 -0.039037183 0.14602831
-0.036777928 0.022058479 0.14892077
-0.036345474 0.018887149 0.14749825
-0.010181304 -0.038102895 0.14586055
-0.0082284072 -0.04065869 0.14329731
-0.0047942009 -0.042689204 0.14152977
-0.036813647 0.018124849 0.14228383
-0.037129525 0.013455044 0.14219925
-0.012220031 -0.038702622 0.13785213
-0.009799826 -0.041158162 0.13874558
-0.0387793 0.017233908 0.13744462
-0.036941692 0.012692552 0.13732836
-0.038453244 0.0081979902 0.13722607
-0.014461856 -0.038275145 0.13406438
-0.010031155 -0.041153233 0.13412344
-0.037227318 0.011288317 0.13275412
-0.039302517 0.007374648 0.1328395
-0.020257156 -0.036547534 0.12935376
-0.016298611 -0.038166907 0.13007909
-0.040195454 0.0056774868 0.12877434
-0.02170046 -0.037035607 0.12662756
-0.01925618 -0.037740186 0.12512183
-0.04033082 0.0051029511 0.12343121
-0.041252624 0.0010450855 0.1240837
-0.024179459 -0.036207497 0.12235469
-0.021399768 -0.037618559 0.12078416
-0.041392177 0.004386819 0.11999673
-0.041841529 0.00055634417 0.11961198
-0.040847238 -0.0098191714 0.11751431
-0.036428727 -0.019846715 0.11702698
-0.032909945 -0.026849054 0.11637944
-0.028910978 -0.031884041 0.11797529
-0.025325896 -0.034627844 0.11718482
-0.02217846 -0.036991827 0.11729038
-0.041518878 -0.0039851544 0.11450469
-0.039437797 -0.014173367 0.11377984
-0.03445233 -0.023378812 0.11322719
-0.028823646 -0.030542167 0.11278754
-0.041420788 -0.0090294899 0.10870403
-0.037939318 -0.019311957 0.10888302
-0.032554477 -0.027011322 0.10837889
-0.042510629 -0.010838468 0.10532767
-0.040034082 -0.018492827 0.10389328
-0.00018517394 0.023516139 0.19909576
0.00052696699 0.021232113 0.19914186
0.0033390201 0.016452922 0.19849664
0.0052625849 0.013864519 0.19792247
0.016747063 -0.010868942 0.19676328
0.01796302 -0.015077344 0.19736031
0.018131532 -0.018386964 0.19699493
-0.0034720153 0.024340618 0.19790572
-0.0011098864 0.019727284 0.19761062
0.0004537371 0.015240411 0.19761029
0.002962101 0.011152022 0.19791368
0.0053560007 0.007090766 0.19644681
0.010592019 -0.0018010857 0.19524014
0.012696332 -0.0073208828 0.1946786
0.013810461 -0.011571908 0.19534469
0.015306212 -0.016064852 0.19538385
0.017381592 -0.020339629 0.19596848
0.018185437 -0.023404982 0.19611698
-0.0029994603 -0.039594471 0.14628083
-0.0017330814 -0.042153522 0.14384586
-0.035316564 0.021280751 0.14434633
-0.0033336179 -0.042987507 0.1415976
-0.0069184676 -0.043404207 0.13738087
-0.036774527 0.018438017 0.1374014
-0.037196551 0.015702717 0.13643864
-0.0095778648 -0.040919922 0.13088268
-0.0078214388 -0.043649495 0.13229626
-0.037292674 0.018216737 0.13235486
-0.037089638 0.014517714 0.13161218
-0.011145018 -0.040892817 0.1280843
-0.0082849134 -0.043293916 0.12625951
-0.036639441 0.012333554 0.12707412
-0.037368603 0.0093150521 0.12562889
-0.015174665 -0.037824292 0.12330306
-0.013293187 -0.039481387 0.12378645
-0.038701668 0.0080569685 0.1220268
-0.018532036 -0.038574457 0.11855024
-0.014659746 -0.039789181 0.11924732
-0.040814046 0.0053543374 0.11739326
-0.042048667 0.0025300095 0.11705673
-0.023706844 -0.035817888 0.11417031
-0.020447467 -0.03815183 0.11418724
-0.0403626 0.0051980484 0.11320943
-0.041084185 0.0017404025 0.11267853
-0.027169723 -0.032006256 0.11074424
-0.024878522 -0.034495514 0.11074948
-0.021817897 -0.037092566 0.10974997
-0.041406766 0.00025731605 0.1079126
-0.042370807 -0.0074854214 0.10823888
-0.032215234 -0.027659459 0.1063506
-0.028985884 -0.031121459 0.10667074
-0.026026126 -0.034258761 0.10628343
-0.041900165 -0.0082131121 0.10351241
-0.038105968 -0.019547753 0.10203826
-0.032824561 -0.027427442 0.10255361
-0.030121177 -0.030665694 0.10237193
-0.040611487 -0.013181468 0.098669291
-0.036394991 -0.023370793 0.097392917
-0.038679108 -0.019949485 0.095159352
0.0083565814 0.011806484 0.19658816
0.012878981 0.0050731013 0.19720671
0.018147144 -0.0036424752 0.19595352
0.019450836 -0.0076458869 0.19646189
0.014920933 -0.0051285769 0.19437084
-0.03597587 0.018484384 0.12817281
-0.035521664 0.018889621 0.12484592
-0.035158537 0.015868684 0.12383163
-0.010574334 -0.040684987 0.12135351
-0.0087411609 -0.04213855 0.12289238
-0.035449907 0.013380079 0.1200242
-0.03691873 0.0098590823 0.1193465
-0.012056396 -0.040444788 0.1166364
-0.036324792 0.012082461 0.11542231
-0.038137298 0.0088407584 0.11538106
-0.014123442 -0.039932601 0.11216342
-0.037733115 0.0082366094 0.11054385
-0.040296726 0.0036811503 0.10964185
-0.019430626 -0.038251068 0.10786885
-0.016010318 -0.039469257 0.1067431
-0.038968809 0.0061889589 0.1060521
-0.040805504 0.0029603383 0.1058681
-0.023595188 -0.034920074 0.10274363
-0.020203236 -0.036914144 0.10333848
-0.041353032 0.0010484131 0.10124707
-0.028537381 -0.031658947 0.099517643
-0.0249772 -0.033741731 0.099094033
-0.040724464 0.0006688498 0.096923947
-0.040998179 -0.0078606214 0.096918762
-0.032372579 -0.026805472 0.095380187
-0.028433073 -0.03010744 0.094955087
-0.041123323 -0.0079229614 0.091625631
-0.039209906 -0.017285084 0.092574
-0.03251772 -0.025489401 0.090714753
-0.040603973 -0.012945265 0.08722353
-0.037903477 -0.020626761 0.08729887
-0.033452936 0.021357454 0.12134022
-0.033727854 0.020625299 0.11681044
-0.034540519 0.016865298 0.11719328
-0.035161525 0.016034452 0.1128428
-0.036186591 0.012317469 0.11231643
-0.011200739 -0.041113101 0.10968143
-0.034866743 0.014862223 0.10874504
-0.036631726 0.01117559 0.10832834
-0.012189092 -0.040548239 0.10530233
-0.0094022416 -0.042027991 0.10371745
-0.037560523 0.0095329229 0.10414767
-0.017908122 -0.03780577 0.10140294
-0.014148684 -0.039483987 0.10047477
-0.038864616 0.0069752149 0.1003145
-0.03976794 0.0044030268 0.10017669
-0.022371229 -0.034848042 0.096224904
-0.018329807 -0.03672434 0.096782386
-0.014775647 -0.038787447 0.0967623
-0.039604504 0.0033471286 0.094968081
-0.027105793 -0.030584835 0.091549873
-0.0239879 -0.033429794 0.092607617
-0.019505229 -0.035380308 0.093284249
-0.039970275 0.0012808172 0.091206729
-0.031148996 -0.026505288 0.087910354
-0.027981745 -0.029762395 0.088217199
-0.023969412 -0.03321106 0.08836019
-0.040875159 -0.0073040873 0.085003853
-0.039173827 -0.015436316 0.084275723
-0.032668579 -0.02519466 0.084361851
-0.040655695 -0.0090128295 0.081548572
-0.038218759 -0.01686749 0.080508113
-0.033418067 -0.024577539 0.080017924
-0.031404797 0.026338581 0.12014705
-0.031249547 0.024619613 0.12047553
-0.032550916 0.026905213 0.11685443
-0.032740377 0.023527309 0.11567926
-0.033760883 0.022023812 0.11118948
-0.034914605 0.018297989 0.10985786
-0.033565409 0.021731015 0.10701734
-0.033843853 0.016893271 0.1058991
-0.0089994501 -0.041871667 0.10339063
-0.034112662 0.01563751 0.10104424
-0.036110997 0.012915771 0.10220397
-0.010884078 -0.040775158 0.098479927
-0.0095303413 -0.042387228 0.097441673
-0.036802277 0.011365077 0.096883237
-0.015945762 -0.037443452 0.093252897
-0.012897372 -0.039724391 0.093658984
-0.0090751043 -0.042576198 0.093669057
-0.037944283 0.008875683 0.09288311
-0.03913277 0.0050764792 0.092545211
-0.017920777 -0.036628705 0.090215981
-0.014527561 -0.038516026 0.088499784
-0.038456306 0.0079248725 0.088578403
-0.03911281 0.004434865 0.088187575
-0.022498902 -0.034060709 0.085766673
-0.019012475 -0.036716327 0.085264444
-0.039489798 0.0030205147 0.083989263
-0.027769748 -0.029146068 0.082274914
-0.024236567 -0.032630414 0.081956744
-0.020552574 -0.036209233 0.080499172
-0.040851194 -0.0072499551 0.079170287
-0.037911013 -0.015501694 0.077283263
-0.032449692 -0.02452223 0.07707572
-0.025389876 -0.031862628 0.076785505
-0.022956185 -0.034600098 0.07750535
-0.041333627 -0.0070104375 0.074830651
-0.03817289 -0.016336055 0.073663235
-0.032077681 -0.024459025 0.073132575
-0.027234202 -0.030984443 0.073613524
-0.0409077 -0.012080865 0.069431126
-0.035711087 -0.020359378 0.068866313
-0.040402353 -0.012604652 0.066123903
-0.037603673 -0.019284623 0.065922856
-0.031016517 0.023141038 0.10285127
-0.031801555 0.020095132 0.10320985
-0.031019107 0.022417419 0.10003769
-0.032161273 0.019252134 0.099685788
-0.033449583 0.017528709 0.095335364
-0.010901112 -0.040624384 0.090450525
-0.0085726855 -0.041481793 0.091003001
-0.03462635 0.016442955 0.090651512
-0.036033537 0.013036073 0.090089679
-0.011547312 -0.039088618 0.087482393
-0.0086787706 -0.040601421 0.087820053
-0.036417093 0.011583216 0.08551842
-0.013683529 -0.038506623 0.082832098
-0.03700557 0.010176987 0.080455959
-0.037500475 0.0067764195 0.080360353
-0.018737193 -0.036413219 0.076877356
-0.016053827 -0.03799171 0.07734561
-0.038299147 0.0047009122 0.076526225
-0.023396187 -0.03293569 0.073293686
-0.020295575 -0.035206411 0.073634028
-0.017062563 -0.037433401 0.073869228
-0.039454978 0.0031965626 0.071429372
-0.039700165 0.00017032772 0.071571052
-0.0274268 -0.028639512 0.069680393
-0.024428833 -0.031718601 0.069385827
-0.021706324 -0.03390792 0.069220364
-0.040721655 -0.0048534926 0.066135943
-0.031652991 -0.024423949 0.066238284
-0.025279764 -0.030871682 0.065947354
-0.040465947 -0.0065625133 0.062581837
-0.038410477 -0.015537248 0.061842799
-0.032214515 -0.023333717 0.061553001
-0.039579641 -0.011505358 0.058457315
-0.036916871 -0.018672751 0.056959987
-0.030640159 0.025208114 0.10103774
-0.031177673 0.024519296 0.097329617
-0.032117922 0.023056913 0.092999578
-0.03320989 0.02004924 0.093186319
-0.032776445 0.022267275 0.089235127
-0.03411397 0.019196544 0.088613808
-0.0061232084 -0.041022196 0.084383905
-0.03451021 0.017727278 0.083621025
-0.03539566 0.014238316 0.084226489
-0.0099810353 -0.038346052 0.08005023
-0.0071335388 -0.039688744 0.079337597
-0.035005253 0.016477697 0.079234838
-0.036188308 0.01323045 0.080005825
-0.010859597 -0.03858719 0.07567203
-0.0086645009 -0.040976662 0.07529074
-0.036653057 0.011906479 0.074886084
-0.037392125 0.0085173668 0.075092733
-0.01383443 -0.038383886 0.071413159
-0.037549168 0.011055572 0.070722222
-0.03856796 0.0073180031 0.071202397
-0.018928997 -0.035590366 0.068202853
-0.015744483 -0.037216499 0.067171216
-0.039117567 0.0059445575 0.066141546
-0.039481007 0.0014506252 0.065380335
-0.027180782 -0.028039757 0.062467873
-0.024534972 -0.031372175 0.063117862
-0.02077065 -0.034654923 0.063874602
-0.03906865 0.0049065743 0.061978221
-0.039639782 0.0011313334 0.061465025
-0.030819662 -0.024426546 0.058722436
-0.02497315 -0.03168527 0.059172332
-0.022434719 -0.034368608 0.059100628
-0.040480264 -0.0055797212 0.056720376
-0.037708975 -0.015399773 0.054525018
-0.032496959 -0.023580134 0.055542767
-0.026102547 -0.031429563 0.055595279
-0.038950883 -0.010208514 0.052689373
-0.03550997 -0.019633001 0.050940037
-0.030292617 -0.027184062 0.051171482
-0.036526915 -0.018149782 0.047119737
-0.032344621 0.022671241 0.085759997
-0.032881606 0.022648092 0.082079411
-0.033177041 0.020734224 0.081802666
-0.0043498334 -0.040961538 0.077637613
-0.032702237 0.022988535 0.077752948
-0.033837885 0.019284954 0.076964676
-0.0082620615 -0.041891232 0.072614789
-0.034131043 0.018732961 0.072813749
-0.035792764 0.014737847 0.072110116
-0.0088222083 -0.040118843 0.06883353
-0.035075366 0.01762666 0.069023252
-0.036043495 0.013540768 0.067486882
-0.012966411 -0.038288318 0.064848304
-0.0084994854 -0.040100347 0.065077007
-0.036441199 0.012070366 0.063243687
-0.038030799 0.0088688312 0.063120008
-0.017529568 -0.035564095 0.06031388
-0.013383147 -0.037050311 0.060670376
-0.037195228 0.012122005 0.059441745
-0.03838075 0.0071602585 0.058701098
-0.038716525 0.003480019 0.0579741
-0.019403176 -0.035320155 0.056506693
-0.015238802 -0.036330901 0.055650175
-0.038456634 0.0067905234 0.053653419
-0.038894825 0.0029021213 0.053699195
-0.025037345 -0.03170396 0.05202955
-0.020638512 -0.034588136 0.051782131
-0.039595421 0.0015326198 0.049065053
-0.037315663 -0.0087938206 0.048032403
-0.028511593 -0.027963474 0.04811132
-0.024922041 -0.030849682 0.047571361
-0.021892432 -0.034000333 0.046922684
-0.04003799 4.183501e-06 0.04436481
-0.037780028 -0.0088284388 0.044212341
-0.034882519 -0.019663921 0.044917107
-0.028580304 -0.026620397 0.042595983
-0.02586958 -0.029590726 0.043141127
-0.037482955 -0.01382266 0.039190233
-0.032185409 -0.022724897 0.039250493
-0.036920097 -0.017851615 0.0346995
-0.032114942 0.023474149 0.074092031
-0.03314973 0.023264401 0.069757164
-0.033525746 0.02123528 0.070616484
-0.034847744 0.019695828 0.066184044
-0.0084983828 -0.040059555 0.062993228
-0.03486133 0.018274497 0.061472535
-0.035626963 0.014920702 0.06209904
-0.011487047 -0.037879512 0.058068693
-0.0084641362 -0.039086062 0.058529019
-0.036432467 0.01708046 0.057392538
-0.0369494 0.013604573 0.057352841
-0.012498605 -0.037883829 0.053982019
-0.036581237 0.012446606 0.052941442
-0.038289122 0.0093018403 0.052770019
-0.018199105 -0.035564106 0.049372375
-0.014771109 -0.036719706 0.049545169
-0.0386547 0.0078208447 0.047989964
-0.024201998 -0.030728776 0.04426229
-0.019405663 -0.035363372 0.046065509
-0.017180432 -0.036872376 0.046863616
-0.038966622 0.0058190683 0.044893503
-0.039578747 0.003100994 0.043678164
-0.027450776 -0.028386626 0.040876865
-0.023655877 -0.031017849 0.041102231
-0.021518571 -0.033141486 0.041802108
-0.039096691 0.0012476919 0.039348662
-0.03904561 -0.0081906859 0.037647247
-0.031663336 -0.023784211 0.037570715
-0.025583129 -0.030181034 0.036750078
-0.038611963 -0.0082323495 0.034547865
-0.036381524 -0.017557843 0.03267926
-0.029617805 -0.025493927 0.033611774
-0.026700869 -0.027852494 0.032682955
-0.038076792 -0.012807991 0.029799044
-0.034628581 0.019642701 0.058389187
-0.035139013 0.019017156 0.054772854
-0.035606854 0.015833162 0.053976595
-0.0097257011 -0.039416201 0.051236212
-0.035438068 0.017942363 0.050060213
-0.035925455 0.014464298 0.050004125
-0.012498951 -0.037750609 0.047652423
-0.010671628 -0.038967628 0.046161652
-0.036587134 0.017672544 0.045758724
-0.036930066 0.013889652 0.045759082
-0.015363728 -0.036442053 0.042767167
-0.011274357 -0.038641106 0.042028606
-0.037832063 0.013737958 0.041219831
-0.038012631 0.0084671983 0.040939331
-0.019184917 -0.033481017 0.038452089
-0.014404722 -0.035616506 0.037939131
-0.03833735 0.01278069 0.038016081
-0.037933633 0.008054222 0.036483347
-0.038463999 0.0032234611 0.036384463
-0.021031791 -0.032515373 0.034403205
-0.017228276 -0.034823336 0.033570349
-0.038318455 0.0066812197 0.033484578
-0.038352501 0.0031190729 0.032129467
-0.037312027 -0.0059793927 0.030928493
-0.028164987 -0.025147811 0.029614866
-0.025236934 -0.028963672 0.029701054
-0.02125309 -0.032437317 0.02968049
-0.039184116 0.0016173068 0.027746141
-0.037980013 -0.007282299 0.026893854
-0.034706801 -0.017218677 0.025923014
-0.028508862 -0.024809342 0.025721133
-0.025412761 -0.028905515 0.025185406
-0.023030011 -0.031566262 0.026573658
-0.038050488 -0.007128207 0.022603869
-0.0355368 -0.016582096 0.021662414
-0.029620962 -0.024898175 0.021562755
-0.027612051 -0.02788965 0.02166003
-0.0372044 -0.016391462 0.016251922
-0.038477652 -0.015888903 0.012828231
-0.036869284 0.017838314 0.040620685
-0.037708625 0.015747612 0.038733363
-0.013710283 -0.036181726 0.035428464
-0.011602152 -0.038061723 0.036449671
-0.037620544 0.014179752 0.034872115
-0.037538625 0.0097130602 0.034049273
-0.015002456 -0.036603842 0.032326877
-0.013331695 -0.039879195 0.031686187
-0.036791321 0.0090741087 0.029353261
-0.038368467 0.0050364854 0.029756308
-0.0190232 -0.033584695 0.027149916
-0.016197694 -0.035805237 0.027229548
-0.013308994 -0.040282585 0.026954055
-0.037870396 0.0072866399 0.025412083
-0.038869224 0.0042980248 0.025670052
-0.024078287 -0.030092448 0.022669554
-0.021192707 -0.032764547 0.023023963
-0.017090697 -0.034514863 0.022633433
-0.038644183 0.002190955 0.020648718
-0.03787823 -0.0060411952 0.01995343
-0.025771312 -0.029387489 0.019223392
-0.022399172 -0.032370742 0.017994642
-0.037246879 -0.0067623416 0.015943527
-0.034206863 -0.017858531 0.016371965
-0.029880498 -0.024804119 0.015262246
-0.026894152 -0.02884591 0.015099704
-0.023953484 -0.031604581 0.014397383
-0.036381036 -0.017348133 0.010802627
-0.038649045 -0.013020903 0.0065778494
-0.036260463 0.014973714 0.03138423
-0.035013035 0.014841908 0.027180552
-0.035731487 0.01175315 0.027651548
-0.014801311 -0.035436582 0.023208201
-0.012520719 -0.039948702 0.024918497
-0.036243234 0.013537655 0.02426821
-0.03694782 0.010207649 0.023731709
-0.014834028 -0.035984512 0.020525157
-0.011438402 -0.038737409 0.020196378
-0.037763588 0.0097228661 0.018866539
-0.038095351 0.004788938 0.018820226
-0.019912096 -0.033655409 0.016030073
-0.016745284 -0.034953609 0.016424
-0.038238551 0.009035985 0.014854312
-0.038315672 0.0042708935 0.014197588
-0.036307469 -0.005945561 0.012091219
-0.024696331 -0.030052144 0.012342453
-0.021528024 -0.032990165 0.012088537
-0.018792324 -0.034922257 0.012240291
-0.038756333 0.0029521659 0.0095034838
-0.037294101 -0.0060173804 0.010141313
-0.028341252 -0.024193019 0.008048892
-0.025101198 -0.028292358 0.007743001
-0.022738917 -0.030986857 0.0088175535
-0.034788519 0.015562881 0.02135253
-0.0093946094 -0.038612656 0.016526282
-0.034495909 0.014758957 0.015916228
-0.013684506 -0.036133528 0.013284504
-0.011398431 -0.037513267 0.013468504
-0.037122011 0.010172606 0.011184633
-0.015796093 -0.035794623 0.0089244246
-0.01127962 -0.037398409 0.010053515
-0.03710774 0.0091241887 0.007853508
-0.038133107 0.0058111874 0.0070536137
-0.0082141142 -0.038062192 0.011009872
-0.03356709 0.015519229 0.0094128847
