# .PCD v0.7 - Point Cloud Data file format
VERSION 0.7
FIELDS x y z
SIZE 4 4 4
TYPE F F F
COUNT 1 1 1
WIDTH 815
HEIGHT 1
VIEWPOINT 0 0 0 1 0 0 0
POINTS 815
DATA ascii
-0.013853796 -0.040134553 0.19388017
-0.023216298 -0.038199108 0.19001299
-0.014983363 -0.042517938 0.19026446
-0.022764543 -0.039422739 0.1870454
-0.015484843 -0.04339027 0.1867668
-0.023025226 -0.028851295 0.1952002
-0.016469199 -0.033843517 0.19583562
-0.0068060043 -0.037049312 0.19570318
0.0019904841 -0.038369212 0.19427645
-0.030486755 -0.02882525 0.19188532
-0.022105122 -0.034515273 0.19377691
-0.0074181007 -0.039665166 0.1941987
0.0013028895 -0.042651203 0.19204909
0.0064791255 -0.04297277 0.1901134
-0.024457971 -0.037236921 0.18979174
-0.0052223327 -0.044273429 0.1885767
5.8785081e-05 -0.045214694 0.1876581
0.005359306 -0.04504858 0.18633723
-0.024636416 -0.039377179 0.18553427
-0.015317953 -0.04270805 0.18392962
-0.0058180001 -0.045303781 0.18399599
0.0042848941 -0.045833275 0.18266505
-0.023933327 -0.038372099 0.18064961
-0.014938051 -0.041380007 0.17973122
-0.0058280025 -0.044947837 0.17929766
-0.0056965696 -0.028513314 0.19564071
0.0099676354 -0.034258418 0.19465986
-0.032011896 -0.022557754 0.19403803
-0.028939556 -0.023080042 0.19439358
-0.018997569 -0.026979182 0.19570264
-0.010283552 -0.03033155 0.1955432
-0.00024777651 -0.033097032 0.19498584
0.0041321674 -0.035115264 0.19423416
0.008440434 -0.037667219 0.19344997
0.01377518 -0.038632371 0.19254738
0.017189812 -0.038349997 0.19145325
-0.033093967 -0.023327472 0.19155651
-0.031117968 -0.02633697 0.19239908
0.0089530991 -0.040718965 0.1909
0.012301175 -0.041365467 0.18880355
-0.033505656 -0.025615633 0.18815792
-0.03135623 -0.028227424 0.18639851
0.0077898083 -0.044184119 0.18399554
0.011328558 -0.042605102 0.18425968
-0.031117436 -0.029546328 0.1820707
0.0063113794 -0.044780821 0.17966694
0.0098139988 -0.043111097 0.18009058
-0.024246745 -0.03695545 0.17744654
-0.014818192 -0.041006237 0.17598936
-0.0053021442 -0.04438366 0.17564812
0.0040498134 -0.04510875 0.17608649
-0.024011109 -0.036900215 0.17326629
-0.015642377 -0.041074328 0.17209834
-0.0055243559 -0.043616522 0.17161483
0.0029123379 -0.045157842 0.17241079
-0.01609366 -0.042063195 0.16824687
-0.029287087 -0.015541118 0.1946637
-0.02656555 -0.016998993 0.19475445
-0.022137765 -0.018325821 0.19520685
-0.012547567 -0.023141107 0.1953432
-0.0028956812 -0.025977446 0.1949802
0.0017834697 -0.028272772 0.1943751
0.0062934831 -0.029905075 0.19446468
0.01093845 -0.031265154 0.19525781
0.015373054 -0.033741374 0.19447115
0.020138811 -0.035073228 0.19364893
0.02396486 -0.036287643 0.19201961
-0.035700399 -0.015622163 0.19177756
-0.032104485 -0.017911762 0.1934146
-0.027494786 -0.01937394 0.19456404
-0.022756845 -0.02192039 0.19472879
0.019481819 -0.038777061 0.19107291
0.023221694 -0.036889099 0.18942052
-0.036548629 -0.017853053 0.18923014
-0.034453381 -0.020857044 0.18968886
0.017768744 -0.040542752 0.18717748
0.023073226 -0.039135195 0.18429762
-0.036540415 -0.018891286 0.18535894
-0.034380533 -0.022664815 0.1850909
0.013341722 -0.041784093 0.18147552
0.017561957 -0.040282134 0.18189868
0.022809258 -0.040226299 0.18199363
-0.034003902 -0.023599204 0.17987776
-0.032620981 -0.027528193 0.18047431
0.011686649 -0.042948458 0.17743096
0.016170427 -0.040831923 0.17740354
-0.031460315 -0.027521029 0.17537248
0.006519747 -0.044562809 0.17374396
0.0099465922 -0.043010727 0.1727373
-0.030613147 -0.028568249 0.17188954
-0.024127558 -0.036764432 0.16957444
-0.0059774471 -0.043169238 0.16889146
0.0036678771 -0.045127574 0.16944408
0.0076832008 -0.04352377 0.16913316
-0.024897166 -0.035716496 0.16576844
-0.01670206 -0.041483451 0.16559696
-0.0058939187 -0.043958604 0.16508949
0.0031362474 -0.044923753 0.16437572
-0.020538285 -0.039104056 0.16081935
-0.011526415 -0.043249212 0.16078514
-0.0017455677 -0.044705883 0.15993759
-0.017156882 -0.042475305 0.15642387
-0.0051149949 -0.017196819 0.19628316
-0.033094373 -0.0093242554 0.1944221
-0.02918181 -0.011554564 0.19537944
-0.025084881 -0.013327569 0.19587463
-0.020621341 -0.014606237 0.19629195
-0.010408666 -0.017878408 0.19538635
-0.0017923368 -0.021923404 0.19552296
0.0033017676 -0.022755139 0.19444218
0.0080341818 -0.024537757 0.19435233
0.012552454 -0.026468191 0.19494066
0.01749949 -0.028847061 0.19423008
0.02241944 -0.029920138 0.19363087
0.026136473 -0.031897716 0.19218558
-0.035750322 -0.011925063 0.19237921
-0.031675763 -0.013099321 0.19392383
0.02556866 -0.036231712 0.18705204
-0.038497888 -0.014510114 0.18720725
0.024611667 -0.037620388 0.18480337
-0.03755118 -0.01609618 0.18279123
0.019871039 -0.039171442 0.1785638
0.022929717 -0.039836392 0.17901149
-0.03640594 -0.018969052 0.1787039
-0.035212979 -0.020922728 0.17807412
0.018227201 -0.040172979 0.17506796
0.02175119 -0.040416285 0.17513311
-0.036592778 -0.018911596 0.17506781
-0.033873908 -0.022743765 0.17330787
-0.032606713 -0.025293346 0.17229521
0.013040202 -0.041579261 0.17099112
0.016568556 -0.040162843 0.17059833
0.020714954 -0.040708218 0.17194784
-0.033439599 -0.0227345 0.16913989
-0.031393275 -0.025903974 0.1686509
0.010418466 -0.042019553 0.16624939
0.013458492 -0.041589301 0.16537556
-0.030415352 -0.027072646 0.16448337
0.0058324672 -0.04352149 0.16232827
0.0090673631 -0.042500217 0.16229156
0.013242164 -0.041889176 0.16193625
-0.025387216 -0.03450739 0.1585542
-0.00094355736 -0.044367123 0.15699583
0.003840914 -0.043957904 0.15764332
0.0074713714 -0.04338906 0.15900034
-0.021861708 -0.038956065 0.15433872
-0.0069284718 -0.043550532 0.15407673
0.0023295814 -0.044572979 0.15322456
-0.017107334 -0.041755836 0.1503807
-0.0074846791 -0.043188144 0.14967018
-0.017134726 -0.041431457 0.14644793
-0.026837306 -0.0049100108 0.1952312
-0.022589853 -0.0067867809 0.19514334
-0.018527903 -0.0091612916 0.19538298
-0.013276452 -0.010581422 0.19537508
-0.0039155041 -0.014223048 0.19565782
0.00097264396 -0.01546605 0.19504488
0.0054754484 -0.016576534 0.19355726
0.010575788 -0.018710775 0.19353604
0.015110716 -0.020533398 0.19364223
0.019428164 -0.022183359 0.19340909
0.023912724 -0.02396486 0.19388267
0.027297666 -0.024951402 0.19339263
-0.037126325 -0.0040379371 0.19267413
-0.033259392 -0.0054970291 0.1941812
-0.029361594 -0.0072230333 0.19539374
0.026626732 -0.028611397 0.19236618
-0.037981451 -0.0064474521 0.18967998
-0.036149397 -0.0071800565 0.19177333
-0.039349388 -0.010324411 0.18537521
-0.039576896 -0.010017273 0.17977965
-0.038003989 -0.011583689 0.17904314
-0.03769765 -0.013767722 0.17597264
-0.03706345 -0.015983885 0.17160296
-0.03497792 -0.019916231 0.17154542
0.018156266 -0.038759284 0.16828912
0.021300819 -0.03796614 0.16706967
-0.036506586 -0.017425116 0.16677874
-0.034859814 -0.020822499 0.16673917
-0.032482505 -0.024095453 0.16601279
0.017300114 -0.038801555 0.1630933
0.019804044 -0.038621821 0.16358575
-0.034604378 -0.0216172 0.16165698
-0.031872056 -0.025080174 0.1624825
0.010887879 -0.042019475 0.15961811
0.015164748 -0.040561553 0.15870655
-0.034089189 -0.022886205 0.1583122
-0.031716056 -0.025794141 0.15781018
-0.029309716 -0.028984861 0.15763795
0.0099308705 -0.041877128 0.15524623
0.013536522 -0.040843304 0.15470704
-0.031086227 -0.027225597 0.15269873
-0.02552945 -0.033162937 0.15296656
0.0042320387 -0.043925848 0.15131861
0.0077943169 -0.042152263 0.15068981
-0.024920274 -0.033570617 0.14797097
-0.010714496 -0.042036951 0.14678115
-0.0018748753 -0.043993682 0.1461435
0.0035275305 -0.043926936 0.14623111
0.0072219782 -0.043217562 0.14686054
-0.021397658 -0.037268233 0.1431416
-0.011897597 -0.041835733 0.14262873
-0.0022885492 -0.043433629 0.14139605
0.0024577789 -0.044190079 0.14234087
-0.017030954 -0.040364388 0.13819432
-0.0079626068 -0.042725731 0.13840771
-0.016842524 -0.0416403 0.13519961
0.0090787122 -0.011144659 0.19457084
0.022648782 -0.016868016 0.19413224
0.026545906 -0.018425163 0.19468459
0.028608564 -0.020620823 0.19462276
-0.030262256 0.00066410098 0.19381499
-0.025116853 -0.00036165491 0.19496265
-0.020634443 -0.0027474239 0.19463897
-0.016652564 -0.0043274174 0.19491053
-0.012151208 -0.0056755571 0.19536805
-0.0072992933 -0.0067761317 0.19529286
0.0025430471 -0.010674254 0.19468439
0.006512329 -0.012500964 0.1938858
0.010757744 -0.013710057 0.19342741
0.016977992 -0.015471671 0.19341421
0.020891126 -0.017947633 0.19383585
0.023749229 -0.020083556 0.1938045
-0.034745295 0.00097833853 0.19223854
-0.034087308 -0.001951348 0.19370511
-0.038304836 -0.0035492675 0.18847448
-0.03981895 -0.0085890209 0.17394853
-0.038526952 -0.010766882 0.17441979
-0.039690524 -0.0086813783 0.16980481
-0.038529951 -0.011690406 0.16906098
-0.037432879 -0.013915005 0.16614115
-0.036526855 -0.016708273 0.16170314
-0.035868522 -0.018978305 0.15918964
0.017982336 -0.038529821 0.15569639
-0.034758121 -0.020565335 0.15518564
-0.032804161 -0.023322223 0.15447593
0.015194505 -0.039841689 0.1521925
-0.034477815 -0.02099034 0.15011507
-0.032572396 -0.024444923 0.15136987
0.010925721 -0.040688965 0.14883375
0.01471878 -0.039691798 0.14707944
-0.03177027 -0.025040012 0.14613622
-0.029319419 -0.028246332 0.14625734
0.0095112529 -0.041708089 0.14426804
0.013683725 -0.039928157 0.14376819
-0.03111726 -0.0259423 0.14247406
-0.027319457 -0.033123869 0.14127949
0.0037908303 -0.043455612 0.13984337
0.0083281547 -0.041584615 0.14013767
-0.026157292 -0.033842415 0.13666463
-0.010804001 -0.041294139 0.1359624
-0.0026263678 -0.043580599 0.13571587
0.0028834408 -0.043190923 0.1347003
0.0073344307 -0.042294152 0.13584551
-0.022002894 -0.037570689 0.13216698
-0.012675686 -0.041945368 0.13167977
-0.0033263089 -0.043040868 0.13007575
0.00055888947 -0.04320186 0.1302619
-0.017353287 -0.040001843 0.12663531
-0.0066428324 -0.04265124 0.12701732
0.026732715 -0.0097226771 0.19641948
0.02940578 -0.011419375 0.19709489
-0.031849362 0.0080739614 0.19663876
-0.028411476 0.0083532846 0.19648999
-0.024887411 0.0074515645 0.19575167
-0.016801227 0.0038466107 0.19498718
-0.012205211 0.0027732593 0.19436318
-0.0097499713 0.00039537367 0.19502029
-0.0054521859 -0.0014808907 0.19491574
0.0048843119 -0.0042341626 0.19442919
0.009745542 -0.0063653616 0.19431525
0.013550447 -0.007546505 0.19368562
0.01871977 -0.0094970008 0.19371784
0.023922337 -0.011663909 0.19437277
0.02799991 -0.013915858 0.19525144
-0.033457838 0.0051336642 0.19358572
-0.029629555 0.0048346356 0.19464824
-0.024057157 0.0046522636 0.1946376
-0.019634083 0.0018284963 0.19429564
-0.014758602 0.00055203214 0.19443551
-0.011433747 -0.0016969673 0.1947948
-0.00029286637 -0.0052458728 0.19380084
0.0036224152 -0.0080554327 0.19431275
0.0065425308 -0.0091236308 0.1941283
0.013739981 -0.0099944118 0.19270232
0.016784804 -0.012809284 0.19344777
-0.040429346 -0.0064580087 0.17146379
-0.041148573 -0.0071290545 0.16719323
-0.041141167 -0.0070818011 0.16366673
-0.037954569 -0.010238686 0.16218579
-0.037351567 -0.011665932 0.15789691
-0.042558268 -0.013682567 0.15314937
-0.037304211 -0.013023795 0.15308392
-0.035949126 -0.015657328 0.15320718
0.019896967 -0.033979189 0.14949048
-0.037751377 -0.013715792 0.14987403
-0.03624592 -0.017095476 0.14832738
0.018402141 -0.037041791 0.14430758
-0.034248997 -0.019886225 0.14455718
-0.032980569 -0.022248451 0.14348662
0.012075542 -0.039577637 0.14118567
0.015413595 -0.039082449 0.14081761
-0.032102838 -0.024546906 0.13996771
0.010623985 -0.040030114 0.13653931
0.013883746 -0.039093014 0.13653308
-0.031774428 -0.02559706 0.13531548
-0.030261789 -0.02848934 0.13501406
0.0058479495 -0.04157282 0.13201374
0.0093450537 -0.041413315 0.1327517
-0.030024404 -0.029688109 0.13103998
0.0032092575 -0.043115623 0.12868899
0.0074299453 -0.04270184 0.12790763
-0.026428215 -0.03371929 0.1254437
-0.011676273 -0.040998574 0.1242674
-0.0035106093 -0.043041818 0.12439054
0.0010938356 -0.043628924 0.12359726
0.0055885063 -0.043591145 0.12386078
-0.022379775 -0.037351746 0.12159812
-0.013078075 -0.040745024 0.12059045
-0.0037037795 -0.043136835 0.1197027
0.00023368001 -0.043887533 0.11994815
-0.025436282 0.013020031 0.19834256
-0.020969383 0.01243332 0.19688296
-0.015578183 0.011184076 0.19615084
-0.011145904 0.0095627438 0.19587088
-0.0065674218 0.0082222056 0.19631669
-0.0022813694 0.0063200272 0.19531092
0.0071173245 0.0022871555 0.19503948
0.012143498 4.6989881e-05 0.19493952
0.016889179 -0.00079429336 0.19415507
0.021357367 -0.0023271441 0.19381776
0.02558234 -0.004493956 0.19480363
0.028714143 -0.0071893092 0.19635445
-0.025446218 0.011777513 0.19658121
-0.021649899 0.0091181314 0.19561291
-0.017232958 0.0075977342 0.19510403
-0.012789225 0.0060561737 0.19477782
-0.0081045786 0.0045134043 0.19507396
-0.003684731 0.0029067704 0.1947892
0.0014472133 0.00096859637 0.1944983
0.0069133397 -0.0012303219 0.19471794
0.010464348 -0.0028951315 0.19469264
0.015547275 -0.0047077122 0.19407266
0.020101678 -0.0052180896 0.19388583
0.023381453 -0.0075151259 0.19427568
-0.04055804 -0.0057199998 0.16048458
-0.04039875 -0.006501778 0.15596482
-0.038880005 -0.0086685298 0.1555444
-0.041162807 -0.0099253301 0.1532169
-0.038873199 -0.010303076 0.15184116
0.020823313 -0.031750336 0.14593321
0.023890443 -0.031316474 0.14602831
-0.041603625 -0.010408215 0.14892077
-0.039055366 -0.012344892 0.14749825
0.019743539 -0.034142088 0.14586055
0.022931665 -0.034568403 0.14329731
0.026795806 -0.03357584 0.14152977
-0.038847387 -0.01321497 0.14228383
-0.035768695 -0.01674038 0.14219925
0.018726014 -0.036007758 0.13785213
0.022173688 -0.036032747 0.13874558
-0.039607324 -0.015234887 0.13744462
-0.035096712 -0.017146725 0.13732836
-0.032987408 -0.02139369 0.13722607
0.016838532 -0.037290696 0.13406438
0.022006627 -0.036192834 0.13412344
-0.03430574 -0.018341642 0.13275412
-0.033005744 -0.022576407 0.1328395
0.01151903 -0.040166985 0.12935376
0.015463215 -0.038512941 0.13007909
-0.032437071 -0.024407882 0.12877434
0.010843581 -0.041532677 0.12662756
0.013070159 -0.040302519 0.12512183
-0.032126535 -0.024909865 0.12343121
-0.029909004 -0.028431017 0.1240837
0.0085051013 -0.04270003 0.12235469
0.011468411 -0.041732263 0.12078416
-0.032370649 -0.026166735 0.11999673
-0.029979829 -0.029193029 0.11961198
-0.021940166 -0.03582656 0.11751431
-0.011725262 -0.039792746 0.11702698
-0.0042857053 -0.04225599 0.11637944
0.0021022642 -0.042988576 0.11797529
0.0065774601 -0.042393699 0.11718482
0.010474625 -0.041839719 0.11729038
-0.026540358 -0.032176211 0.11450469
-0.017864659 -0.037908815 0.11377984
-0.0078301691 -0.040892795 0.11322719
0.0012151711 -0.041977972 0.11278754
-0.022904113 -0.03567373 0.10870403
-0.013171541 -0.040482763 0.10888302
-0.0039196089 -0.04211938 0.10837889
-0.022395609 -0.037723508 0.10532767
-0.015231976 -0.041384771 0.10389328
-0.016759358 0.016497489 0.19909576
-0.014640749 0.015385997 0.19914186
-0.0092729274 0.013995018 0.19849664
-0.0060824836 0.013524907 0.19792247
0.019527467 0.0041564563 0.19676328
0.023363065 0.0020404765 0.19736031
0.025822477 -0.00018062163 0.19699493
-0.0196665 0.014756335 0.19790572
-0.014734102 0.013164491 0.19761062
-0.010455756 0.01109744 0.19761029
-0.0057911472 0.0099801943 0.19791368
-0.0012266624 0.0088011939 0.19644681
0.00876325 0.0062161274 0.19524014
0.014154309 0.0038010147 0.1946786
0.017948046 0.0015828926 0.19534469
0.022182694 -0.00053644227 0.19538385
0.026672933 -0.0020916532 0.19596848
0.029408867 -0.0036907815 0.19611698
0.025876574 -0.030118462 0.14628083
0.028581565 -0.031032521 0.14384586
-0.04002035 -0.0099248132 0.14434633
0.028039528 -0.032753985 0.1415976
0.02579931 -0.035583511 0.13738087
-0.039041169 -0.012965866 0.1374014
-0.037405435 -0.015198427 0.13643864
0.022162177 -0.035707336 0.13088268
0.025334254 -0.036395453 0.13229626
-0.039251085 -0.013488717 0.13235486
-0.036491912 -0.015960755 0.13161218
0.021034865 -0.036796309 0.1280843
0.024755102 -0.036471747 0.12625951
-0.034629144 -0.01718685 0.12707412
-0.033010334 -0.01983685 0.12562889
0.016015699 -0.037475929 0.12330306
0.018517848 -0.037317265 0.12378645
-0.033063352 -0.021669069 0.1220268
0.014172127 -0.040380392 0.11855024
0.017769188 -0.038501211 0.11924732
-0.032645982 -0.025073793 0.11739326
-0.031521887 -0.027943905 0.11705673
0.0085637923 -0.042090341 0.11417031
0.012518868 -0.041435964 0.11418724
-0.032216251 -0.024865087 0.11320943
-0.030281562 -0.027820252 0.11267853
0.0034199385 -0.041843738 0.11074424
0.0068002325 -0.041983783 0.11074948
0.010800811 -0.041655995 0.10974997
-0.029460961 -0.02909705 0.1079126
-0.024667703 -0.035253674 0.10823888
-0.0032214271 -0.042337801 0.1063506
0.0015100725 -0.04250231 0.10667074
0.0058213416 -0.042627856 0.10628343
-0.023820352 -0.035435434 0.10351241
-0.013122648 -0.040767334 0.10203826
-0.0038163457 -0.042604599 0.10255361
0.00038502365 -0.042982809 0.10237193
-0.01939596 -0.038037363 0.098669291
-0.0092095081 -0.042260792 0.097392917
-0.01324385 -0.041456673 0.095159352
-0.0024394477 0.014257441 0.19658816
0.0055195936 0.012694039 0.19720671
0.01540759 0.010256348 0.19595352
0.019160278 0.0083473567 0.19646189
0.014177146 0.0069242399 0.19437084
-0.03850922 -0.012368343 0.12817281
-0.038474593 -0.011760626 0.12484592
-0.036081698 -0.013639981 0.12383163
0.021291442 -0.036245819 0.12135351
0.023615513 -0.035977393 0.12289238
-0.034528017 -0.01560572 0.1200242
-0.033076912 -0.019134054 0.1193465
0.020073619 -0.037123948 0.1166364
-0.0342291 -0.01714191 0.11542231
-0.033218507 -0.020715777 0.11538106
0.018249825 -0.038223397 0.11216342
-0.032505509 -0.020857176 0.11054385
-0.031097062 -0.025891118 0.10964185
0.013308055 -0.040787123 0.10786885
0.016587969 -0.039229989 0.1067431
-0.031931367 -0.023178848 0.1060521
-0.03094713 -0.026760569 0.1058681
0.008007898 -0.041376542 0.10274363
0.011816389 -0.040388092 0.10333848
-0.029982356 -0.028499667 0.10124707
0.0022072718 -0.04256523 0.099517643
0.0061974525 -0.041520558 0.099094033
-0.029269498 -0.028323591 0.096923947
-0.0234318 -0.034548387 0.096918762
-0.0039365478 -0.041845202 0.095380187
0.0011839485 -0.041394398 0.094955087
-0.023476208 -0.034680959 0.091625631
-0.015503196 -0.039947987 0.092574
-0.0049697794 -0.041017231 0.090714753
-0.019557666 -0.037865024 0.08722353
-0.012216491 -0.04138713 0.08729887
-0.038756803 -0.0085527878 0.12134022
-0.038433485 -0.0092648985 0.11681044
-0.036349405 -0.012498262 0.11719328
-0.036201026 -0.013524877 0.1128428
-0.034297552 -0.016878009 0.11231643
0.021151228 -0.036991477 0.10968143
-0.035163693 -0.014145327 0.10874504
-0.033804882 -0.018000204 0.10832834
0.02005294 -0.037290931 0.10530233
0.023069885 -0.036366671 0.10371745
-0.033300102 -0.019818502 0.10414767
0.014069756 -0.039395675 0.10140294
0.017914757 -0.037924029 0.10047477
-0.032413661 -0.022549208 0.1003145
-0.031233594 -0.025006765 0.10017669
0.0088224337 -0.040460136 0.096224904
0.013006892 -0.038929164 0.096782386
0.016978901 -0.037874833 0.0967623
-0.030371398 -0.025637832 0.094968081
0.0024600476 -0.040793434 0.091549873
0.0066764215 -0.040600445 0.092607617
0.011225369 -0.03880994 0.093284249
-0.029168935 -0.027357576 0.091206729
-0.0032836068 -0.040767737 0.087910354
0.0012591025 -0.040831275 0.088217199
0.0065348251 -0.040432699 0.08836019
-0.02373834 -0.034067869 0.085003853
-0.01678496 -0.038615201 0.084275723
-0.0052848654 -0.040915489 0.084361851
-0.022374891 -0.035120945 0.081548572
-0.015097634 -0.038951859 0.080508113
-0.0062512029 -0.041009087 0.080017924
-0.040830735 -0.0035823509 0.12014705
-0.039505463 -0.0046880655 0.12047553
-0.042041834 -0.0039921096 0.11685443
-0.039787263 -0.0065146144 0.11567926
-0.039445739 -0.0082993573 0.11118948
-0.037626989 -0.011749716 0.10985786
-0.039100483 -0.0083681736 0.10701734
-0.035876568 -0.011985865 0.1058991
0.023244161 -0.035971314 0.10339063
-0.035178687 -0.013063899 0.10104424
-0.034667164 -0.016401496 0.10220397
0.02113618 -0.036528602 0.098479927
0.023233321 -0.036711272 0.097441673
-0.034059469 -0.017986814 0.096883237
0.015201154 -0.03775188 0.093252897
0.01896956 -0.037209213 0.093658984
0.023688843 -0.036522992 0.093669057
-0.033106722 -0.020554598 0.09288311
-0.031260666 -0.024081428 0.092545211
0.013228494 -0.038572311 0.090215981
0.016962402 -0.037507486 0.088499784
-0.03279645 -0.021588981 0.088578403
-0.030792862 -0.024521004 0.088187575
0.0081754234 -0.039993688 0.085766673
0.012518506 -0.039406218 0.085264444
-0.030059336 -0.025787674 0.083989263
0.0009731967 -0.040245559 0.082274914
0.0059353383 -0.040211029 0.081956744
0.011070924 -0.040136661 0.080499172
-0.023759672 -0.034012645 0.079170287
-0.015845789 -0.037768487 0.077283263
-0.0056055691 -0.040285237 0.07707572
0.0045769187 -0.040483635 0.076785505
0.0082334839 -0.040698439 0.07750535
-0.024270166 -0.034184415 0.074830651
-0.01544098 -0.038543642 0.073663235
-0.0053872112 -0.039977491 0.073132575
0.0026518125 -0.041166797 0.073613524
-0.020383654 -0.037468571 0.069431126
-0.010855304 -0.039647806 0.068866313
-0.019655949 -0.03748161 0.066123903
-0.012953532 -0.040226098 0.065922856
-0.038295176 -0.0055687986 0.10285127
-0.036696501 -0.0082776845 0.10320985
-0.037785333 -0.0060823048 0.10003769
-0.036354773 -0.0091281319 0.099685788
-0.036047101 -0.011257752 0.095335364
0.021017522 -0.036434032 0.090450525
0.023270249 -0.035393868 0.091003001
-0.036111455 -0.012857598 0.090651512
-0.034697458 -0.016261658 0.090089679
0.019474639 -0.035805013 0.087482393
0.022572717 -0.034846362 0.087820053
-0.033941351 -0.017560195 0.08551842
0.017552573 -0.036904015 0.082832098
-0.033363111 -0.018970668 0.080455959
-0.031308498 -0.021725185 0.080360353
0.01249883 -0.038997233 0.076877356
0.015512418 -0.038215969 0.07734561
-0.030405637 -0.023757536 0.076526225
0.00674544 -0.039832652 0.073293686
0.010543545 -0.039245836 0.073634028
0.014404351 -0.03853447 0.073869228
-0.030159198 -0.025638567 0.071429372
-0.028192703 -0.027951812 0.071571052
0.00085750874 -0.039644875 0.069680393
0.0051546367 -0.039702233 0.069385827
0.0086278263 -0.039325215 0.069220364
-0.025362629 -0.032226495 0.066135943
-0.0051117111 -0.039652385 0.066238284
0.0039540781 -0.039705072 0.065947354
-0.023973355 -0.033254139 0.062581837
-0.016173821 -0.038146798 0.061842799
-0.0062796799 -0.03927853 0.061553001
-0.019851521 -0.036122546 0.058457315
-0.012900547 -0.039307795 0.056959987
-0.039490692 -0.0038410285 0.10103774
-0.039383709 -0.0047081774 0.097329617
-0.0390145 -0.0064070942 0.092999578
-0.037659895 -0.0093059791 0.093186319
-0.038921792 -0.007431102 0.089235127
-0.037696231 -0.010548209 0.088613808
0.024677306 -0.033336841 0.084383905
-0.036937483 -0.01186732 0.083621025
-0.035096526 -0.014960498 0.084226489
0.020057091 -0.034172419 0.08005023
0.023019999 -0.033108361 0.079337597
-0.036403947 -0.013100957 0.079234838
-0.034944344 -0.016233653 0.080005825
0.019606367 -0.034964167 0.07567203
0.022848142 -0.035101607 0.07529074
-0.034336783 -0.017498467 0.074886084
-0.032462917 -0.02041753 0.075092733
0.01735908 -0.03692393 0.071413159
-0.034368746 -0.018733796 0.070722222
-0.03244628 -0.022097053 0.071202397
0.011781362 -0.038551018 0.068202853
0.015183001 -0.037449073 0.067171216
-0.031863742 -0.023456857 0.066141546
-0.028943039 -0.026891537 0.065380335
0.00060738064 -0.03904682 0.062467873
0.0048346231 -0.039532326 0.063117862
0.0098176571 -0.039191805 0.063874602
-0.031095188 -0.024156231 0.061978221
-0.028829537 -0.027229581 0.061465025
-0.0045206239 -0.039064966 0.058722436
0.0047461791 -0.040063556 0.059172332
0.0084385267 -0.04016602 0.059100628
-0.024678417 -0.032569323 0.056720376
-0.015774995 -0.037553553 0.054525018
-0.0063051526 -0.039652493 0.055542767
0.0037667621 -0.040681344 0.055595279
-0.020323932 -0.034760945 0.052689373
-0.011226718 -0.038991965 0.050940037
-0.002198088 -0.040642153 0.051171482
-0.012994602 -0.038662262 0.047119737
-0.038902093 -0.0068401042 0.085759997
-0.039265428 -0.0072361818 0.082079411
-0.038121026 -0.0087983934 0.081802666
0.02588838 -0.032039981 0.077637613
-0.039379325 -0.0068686185 0.077752948
-0.037563525 -0.010290469 0.076964676
0.023779409 -0.035463735 0.072614789
-0.037380498 -0.010888083 0.072813749
-0.035730544 -0.014888071 0.072110116
0.022130057 -0.034606557 0.06883353
-0.037265964 -0.012338094 0.069023252
-0.035061371 -0.015911825 0.067486882
0.017905286 -0.036242571 0.064848304
0.02234518 -0.034365278 0.065077007
-0.03430286 -0.017232776 0.063243687
-0.033163052 -0.02062062 0.063120008
0.01275233 -0.037542891 0.06031388
0.016735205 -0.035661846 0.060670376
-0.034872554 -0.017729441 0.059441745
-0.032202363 -0.022076219 0.058701098
-0.029837471 -0.024915969 0.0579741
0.011254998 -0.038695242 0.056506693
0.01491436 -0.036465291 0.055650175
-0.031994577 -0.022391316 0.053653419
-0.029554911 -0.025450682 0.053699195
0.0047140019 -0.040122163 0.05202955
0.0098638656 -0.039051138 0.051782131
-0.029081922 -0.026914459 0.049065053
-0.020167995 -0.032604329 0.048032403
-0.00038758572 -0.039933905 0.04811132
0.0041914685 -0.039436564 0.047571361
0.0085615711 -0.039522156 0.046922684
-0.028314099 -0.028308174 0.04436481
-0.020471873 -0.032957163 0.044212341
-0.010761183 -0.038570158 0.044917107
-0.0013858704 -0.039032791 0.042595983
0.0026312424 -0.039216362 0.043141127
-0.016730361 -0.036278542 0.039190233
-0.0066895979 -0.038827449 0.039250493
-0.013483459 -0.038729444 0.0346995
-0.039307423 -0.0061099576 0.074092031
-0.039890818 -0.0069899764 0.069757164
-0.038721897 -0.0086906655 0.070616484
-0.038568132 -0.010714018 0.066184044
0.022317115 -0.034335654 0.062993228
-0.037572704 -0.011728653 0.061472535
-0.0357426 -0.014641531 0.06209904
0.018662283 -0.034907434 0.058068693
0.021652965 -0.033623073 0.058529019
-0.037839357 -0.01368393 0.057392538
-0.035747062 -0.016507279 0.057352841
0.017950058 -0.035625767 0.053982019
-0.034667924 -0.017065756 0.052941442
-0.0336519 -0.020497099 0.052770019
0.012278902 -0.038016334 0.049372375
0.015519996 -0.036409508 0.049545169
-0.032863177 -0.021802822 0.047989964
0.0046151215 -0.038841926 0.04426229
0.011283798 -0.038727559 0.046065509
0.013924302 -0.038221113 0.046863616
-0.031668272 -0.023438856 0.044893503
-0.030179139 -0.02579366 0.043678164
0.00066173915 -0.039483007 0.040876865
0.0052056955 -0.038660165 0.041102231
0.0082186339 -0.038650498 0.041802108
-0.028527793 -0.026763281 0.039348662
-0.021817731 -0.033401102 0.037647247
-0.0055713896 -0.039207336 0.037570715
0.0032512015 -0.039431218 0.036750078
-0.021481639 -0.033123929 0.034547865
-0.013310362 -0.038140893 0.03267926
-0.0029160287 -0.038969882 0.033611774
0.00081431586 -0.038575053 0.032682955
-0.017867746 -0.035980973 0.029799044
-0.038375594 -0.01059661 0.058389187
-0.038294196 -0.011399868 0.054772854
-0.036373585 -0.013982105 0.053976595
0.020994348 -0.034748577 0.051236212
-0.037745669 -0.012371328 0.050060213
-0.035630941 -0.015175325 0.050004125
0.017855611 -0.035531808 0.047652423
0.020008288 -0.035100259 0.046161652
-0.038367391 -0.01337463 0.045758724
-0.03593497 -0.016292026 0.045759082
0.01490462 -0.036632225 0.042767167
0.019351207 -0.035295568 0.042028606
-0.036465518 -0.017037099 0.041219831
-0.032866206 -0.020891769 0.040939331
0.010108866 -0.037240442 0.038452089
0.014998991 -0.035370357 0.037939131
-0.036145914 -0.018071283 0.038016081
-0.032518331 -0.021127928 0.036483347
-0.029477492 -0.024918819 0.036384463
0.0081201112 -0.037863567 0.034403205
0.01244158 -0.036806054 0.033570349
-0.031819582 -0.022370901 0.033484578
-0.029324839 -0.024913792 0.032129467
-0.022155525 -0.030611655 0.030928493
-0.0021334738 -0.037697844 0.029614866
0.0026351949 -0.038325615 0.029701054
0.0079084365 -0.037964854 0.02968049
-0.028850969 -0.026563741 0.027746141
-0.02170657 -0.032005284 0.026893854
-0.012365978 -0.03671686 0.025923014
-0.002615965 -0.037701666 0.025721133
0.0024697408 -0.038408827 0.025185406
0.0060360348 -0.038605399 0.026573658
-0.02186536 -0.03194616 0.022603869
-0.013403007 -0.036853623 0.021662414
-0.0033395207 -0.038550854 0.021562755
0.00019628648 -0.039245632 0.02166003
-0.014716975 -0.037897993 0.016251922
-0.015972666 -0.038442958 0.012828231
-0.038684115 -0.013456921 0.040620685
-0.037799273 -0.015528777 0.038733363
0.015889704 -0.03527898 0.035428464
0.018709738 -0.035117671 0.036449671
-0.036628347 -0.016575139 0.034872115
-0.033411995 -0.019675639 0.034049273
0.015274479 -0.036491167 0.032326877
0.018771913 -0.03762579 0.031686187
-0.032431759 -0.019599024 0.029353261
-0.030691942 -0.023569267 0.029756308
0.010296525 -0.0371994 0.027149916
0.013864622 -0.036771629 0.027229548
0.019073203 -0.037894972 0.026954055
-0.031930849 -0.021625977 0.025412083
-0.030523863 -0.024445526 0.025670052
0.004252647 -0.038304497 0.022669554
0.0081825182 -0.038153544 0.023023963
0.01232074 -0.036490645 0.022633433
-0.028874811 -0.025776321 0.020648718
-0.02251219 -0.031055722 0.01995343
0.002557015 -0.039003164 0.019223392
0.0070509575 -0.038728181 0.017994642
-0.02155583 -0.031119214 0.015943527
-0.011560025 -0.036815796 0.016371965
-0.0035895482 -0.038667869 0.015262246
0.0013800943 -0.039414175 0.015099704
0.0054101329 -0.039285485 0.014397383
-0.013458302 -0.037992261 0.010802627
-0.01812184 -0.036536168 0.0065778494
-0.036228038 -0.015051997 0.03138423
-0.035252772 -0.014263137 0.027180552
-0.033576712 -0.01695524 0.027651548
0.014591334 -0.03552356 0.023208201
0.019394509 -0.037101492 0.024918497
-0.03520041 -0.016055264 0.02426821
-0.033343956 -0.01890815 0.023731709
0.014955645 -0.035934135 0.020525157
0.019303307 -0.035479661 0.020196378
-0.033578001 -0.019827779 0.018866539
-0.030323779 -0.023551187 0.018820226
0.0097179851 -0.037877947 0.016030073
0.012875224 -0.036556646 0.016424
-0.033428147 -0.020649327 0.014854312
-0.030113254 -0.024073288 0.014197588
-0.021469116 -0.0298774 0.012091219
0.0037871236 -0.038713019 0.012342453
0.0081049483 -0.038550183 0.012088537
0.011405578 -0.037981946 0.012240291
-0.029492367 -0.025317363 0.0095034838
-0.022115987 -0.030625839 0.010141313
-0.0029332498 -0.037147339 0.008048892
0.0022564856 -0.037754949 0.007743001
0.0058321683 -0.037989862 0.0088175535
-0.035603821 -0.013594572 0.02135253
0.020660274 -0.033946268 0.016526282
-0.034828451 -0.013956126 0.015916228
0.015873851 -0.035226673 0.013284504
0.018465972 -0.034585796 0.013468504
-0.033442348 -0.019056104 0.011184633
0.014141089 -0.036480147 0.0089244246
0.018468767 -0.034420572 0.010053515
-0.032690912 -0.019787353 0.007853508
-0.031073313 -0.022855043 0.0070536137
0.021105776 -0.032722294 0.011009872
-0.034709275 -0.012761761 0.0094128847
