# .PCD v0.7 - Point Cloud Data file format
VERSION 0.7
FIELDS x y z
SIZE 4 4 4
TYPE F F F
COUNT 1 1 1
WIDTH 1177
HEIGHT 1
VIEWPOINT 0 0 0 1 0 0 0
POINTS 1177
DATA ascii
-0.043295536 0.022403695 -0.001146391
-0.038484208 0.04174079 -0.00096233189
-0.041286875 0.039859843 -0.00048677623
-0.027717747 0.043236356 -0.00046748668
-0.043464571 0.037043631 -0.00027923286
0.0023118928 0.047888402 -9.7282231e-05
-0.041932277 0.0025775386 0.00045271218
-0.042203255 0.014038423 0.0009739846
-0.044789162 0.029043302 0.0014460534
-0.042920198 0.0096097458 0.0015119463
-0.030014602 0.04303233 0.0015657768
-0.015977558 0.044939019 0.001591377
-0.011410853 0.045048386 0.0016487762
0.0094608013 0.045095868 0.0018566772
-0.044069462 0.024811501 0.0019263476
-0.032742504 0.042049058 0.0020075366
-0.0042632287 0.046518419 0.0025023744
-0.043288916 0.0075694541 0.0027938932
-0.0079465052 0.045307312 0.0029162988
-0.0012516109 0.047625322 0.0030701682
-0.04335358 0.019601483 0.0034670085
-0.036609795 0.041936222 0.0034903735
-0.018379819 0.04411386 0.0035094544
-0.021796145 0.042890415 0.0036384389
-0.041927807 0.011374509 0.0036551505
0.0049787425 0.046768703 0.0041617677
-0.045300528 0.032144982 0.0041994005
-0.044119291 0.035913419 0.0042060763
-0.040785044 0.039515197 0.0042338222
-0.013651304 0.044703662 0.0048954114
-0.024973828 0.043110941 0.0049553141
0.010211319 0.04453975 0.0051738545
-0.043966584 0.0089243464 0.0054258853
-0.043127716 -0.00049378257 0.0054681748
-0.0063480036 0.046254832 0.0054685995
-0.045656573 0.0057845553 0.0058738738
-0.045174956 0.026901517 0.0059271604
-0.010169629 0.045441493 0.0059343502
0.00048927963 0.047145002 0.0060035214
-0.029187704 0.042394295 0.0061620995
-0.044720557 0.023692302 0.0064299032
-0.020954683 0.042363994 0.0077899992
-0.017037217 0.044023402 0.0078195333
-0.013836234 0.045299895 0.0079904497
-0.0022843797 0.0461726 0.0081192553
0.0060280971 0.045931667 0.0081887245
-0.035625953 0.041336678 0.0082147047
-0.044193927 0.015165571 0.008241795
-0.045150734 0.011041239 0.0085179433
-0.031327829 0.041139498 0.0085586309
-0.045225482 0.030815016 0.008577548
-0.040193915 0.038687199 0.0089855716
-0.043427791 0.036111746 0.009034209
-0.044679791 0.018690968 0.0092421398
0.0094561931 0.046728253 0.0093860626
-0.027576787 0.042458888 0.009909153
-0.0049302503 0.046073608 0.0099288523
-0.045032822 0.021974545 0.0099503621
-0.044181902 0.0063604815 0.010203414
-0.0085527794 0.045034517 0.01028648
-0.04467402 0.0030058213 0.010311089
-0.039223634 0.041053638 0.010662906
-0.023440389 0.043512058 0.010834426
-0.03620822 0.042456482 0.010930233
-0.043594215 0.034930222 0.011036597
0.0066055823 0.046841357 0.011119246
0.002424988 0.045838442 0.011491358
-0.045115776 0.014221471 0.01151263
-0.011663202 0.044116594 0.011775702
-0.045247518 0.01104063 0.011814438
-0.045053657 0.029691461 0.011992209
0.011624333 0.04788385 0.012126118
-0.00051747076 0.045137752 0.012241274
-0.039473049 0.037668377 0.012286149
-0.029582091 0.041675504 0.01231125
-0.015978435 0.043625973 0.012628227
-0.033774205 0.04219991 0.012660861
-0.045818888 0.024825655 0.012826912
-0.026212281 0.043081395 0.012850434
-0.042517938 -0.0028169099 0.012866221
-0.042506941 0.0014215568 0.013422571
-0.041763052 0.0046962863 0.014299832
-0.0032395888 0.045352578 0.014535189
-0.021559965 0.043430105 0.014639318
0.0083058476 0.047445744 0.014687389
-0.043567307 0.035013158 0.014731966
-0.0067752004 0.044198416 0.01480931
-0.045331664 0.030294258 0.014925145
-0.046324976 0.017317519 0.01493343
-0.036770828 0.042016536 0.015071832
-0.041802801 -0.003384375 0.015208296
0.0048223361 0.046170317 0.015294582
-0.040372979 0.038721729 0.015376084
-0.01809698 0.043683954 0.015534937
-0.042775318 0.0091322716 0.016242795
-0.024775708 0.042759433 0.016248405
-0.046202336 0.023487706 0.016359799
-0.01017127 0.043661855 0.016524851
-0.013723374 0.04359667 0.016637087
-0.046502247 0.019655719 0.016758703
-0.028279699 0.042337377 0.017054111
-0.041370422 0.0047756834 0.017902695
-0.045659374 0.016013566 0.017908894
-0.041889302 -1.4332123e-05 0.017969124
-0.0053336155 0.043870624 0.018247962
0.00278203 0.046158768 0.018531144
-0.040560238 0.038681675 0.018571161
-0.016129546 0.043487128 0.018685997
-0.046555277 0.025429938 0.018839739
-0.001704067 0.045043956 0.01894176
0.0087889917 0.047632787 0.019013196
-0.035108425 0.042626861 0.019134663
-0.019831136 0.042657211 0.019143105
-0.045769963 0.029766008 0.019177251
-0.032249466 0.04312177 0.019294024
-0.0083000772 0.042913921 0.020629793
-0.022954324 0.041860975 0.020659238
-0.046505801 0.022989757 0.020699941
-0.038014606 0.042013377 0.020988367
-0.04447189 0.036267042 0.021010868
-0.041980777 0.0066731558 0.021013521
-0.0045387065 0.044092949 0.0211218
-0.046076506 0.018471221 0.021231048
-0.040863849 0.039476685 0.021314256
-0.043451257 0.0027535241 0.021669947
-0.027098412 0.041476175 0.021807879
-0.045742452 0.032832548 0.022086047
-0.04708143 0.021316912 0.022152625
-0.046441659 0.02855004 0.022647373
-0.018561663 0.042557269 0.022681534
-0.034606293 0.042088334 0.023008905
-0.014835867 0.043506958 0.023243397
0.0036494285 0.046482235 0.02327624
0.0081297532 0.04885821 0.023394197
0.00029186066 0.044737697 0.023434699
-0.046319891 0.024789613 0.023458652
-0.04359486 0.013267042 0.02353432
-0.031745426 0.042676844 0.023602217
-0.010751018 0.043379102 0.02376765
-0.02103119 0.042207796 0.024780452
-0.0062832725 0.043197278 0.024834603
-0.042615637 0.0058246735 0.024884723
-0.0027903747 0.043796867 0.024923563
-0.025718533 0.041446079 0.024940133
-0.044607416 0.0035601649 0.025136881
-0.044464853 0.016952742 0.025139473
-0.045839801 0.031163007 0.025390677
-0.044023037 0.036345545 0.02540984
-0.04024091 0.039661925 0.025556557
-0.036456779 0.042220715 0.025564395
-0.017113961 0.042437077 0.025773019
0.013248399 0.048182376 0.025956511
-0.032726552 0.042720966 0.026165366
-0.013153397 0.044111498 0.026734918
0.0046753231 0.046904542 0.026749015
-0.043082044 0.011397043 0.027279012
0.0079382956 0.049488608 0.027377337
-0.045765862 0.022078503 0.027762674
-0.0099037606 0.04466594 0.027834684
-0.027860016 0.041625701 0.02784121
-0.024055813 0.043206833 0.027977377
-0.045389291 0.0038024993 0.02825769
-0.038595747 0.042772237 0.028364442
-0.043680482 0.0076594423 0.028501116
-0.044939868 0.036721971 0.028596036
-0.042199686 0.03967483 0.028615348
-0.045909006 0.02971762 0.028908513
0.011919862 0.050040498 0.028908819
-0.0017254259 0.045004006 0.029016584
-0.038273342 0.039851952 0.029026501
-0.020522263 0.043231033 0.029119045
-0.016143132 0.043831237 0.029348701
-0.032035563 0.042281281 0.029379159
0.002358079 0.046407621 0.029456735
-0.04391953 0.014720568 0.029641263
-0.046812177 0.027511057 0.029675625
-0.034692638 0.042525373 0.029992424
0.0073475428 0.04920448 0.030256063
-0.045333885 0.0032017464 0.030472301
-0.013286274 0.044749118 0.030655473
-0.0088300444 0.045768332 0.031219959
-0.043661263 0.0068781786 0.031243347
0.012342399 0.049789388 0.031438261
-0.0039439211 0.045764573 0.031656623
-0.02226356 0.042832863 0.031658888
-0.025749253 0.041141905 0.032115668
-0.018547572 0.043737791 0.032211006
-0.045556422 0.020950295 0.03237363
-0.044624615 0.017044086 0.032508425
-0.045305807 0.036231831 0.032516263
-0.041174784 0.039698113 0.032741867
-0.037098691 0.042119082 0.032761358
-0.046436306 0.032152213 0.032952927
-0.043002386 0.012251578 0.033013158
0.0026075076 0.047505196 0.033203721
-0.045397513 0.023538463 0.033204846
-0.046527747 0.027705647 0.033248268
-0.033450574 0.042060595 0.033431053
0.0068348497 0.04924389 0.033596098
-0.01570588 0.045528628 0.033611506
-0.011373971 0.045667641 0.034119815
-0.045442529 0.0049029416 0.034127764
-0.030015731 0.042107102 0.034295678
0.0093464218 0.051723182 0.034517974
-0.0072533698 0.046804521 0.034649163
-0.044145726 0.0093525052 0.034711443
-0.044336673 0.003562185 0.035103105
-0.043773569 0.015782693 0.035846494
-0.017173041 0.044741739 0.035907269
-0.044215064 0.019746449 0.035993658
-0.044749539 0.037603132 0.036014609
-0.0025917646 0.047076099 0.036268204
0.00089231879 0.048270155 0.036412477
-0.021764029 0.042629279 0.036428332
0.0054664146 0.049538396 0.036527812
-0.046388227 0.030085526 0.036932133
-0.035966285 0.041648667 0.037627906
0.01291549 0.04972066 0.037638247
-0.027313158 0.042574085 0.037678748
-0.043097302 0.0077942568 0.037896574
-0.0059362934 0.04653687 0.03794983
-0.044395596 0.0041582035 0.038047075
-0.039880872 0.040023778 0.038203806
-0.032496326 0.043235555 0.038273364
-0.010757549 0.046828076 0.038318485
-0.044477466 0.021855555 0.038603842
-0.044837736 0.036930908 0.039383322
0.015350617 0.047035113 0.039571553
-0.042055793 0.039565187 0.039635509
-0.019528892 0.043329868 0.039652377
-0.023622504 0.042298347 0.039680302
0.0089856461 0.052037768 0.039767474
-0.046437472 0.033888243 0.039812982
-0.042777948 0.014464412 0.040012121
0.0063793287 0.050085854 0.040031284
-0.011838793 0.045819517 0.040168732
0.0026756041 0.048448224 0.040417314
-0.016419552 0.044293296 0.041000426
-0.030457344 0.042911828 0.041766524
-0.046538416 0.029089473 0.041782588
-0.0040001664 0.04686578 0.041903466
-0.045591325 0.025211656 0.041920573
-0.043473683 0.0025126217 0.04206717
8.8056549e-05 0.047674928 0.042149395
-0.03538961 0.040985789 0.04220292
-0.042278238 0.0061159073 0.042475164
-0.044079348 0.020637657 0.042534053
-0.046580099 0.032073002 0.043693364
0.010643993 0.050509404 0.04414168
0.003524594 0.048853084 0.044239938
-0.018669069 0.043696683 0.044257671
-0.022295654 0.043543074 0.044284165
-0.04281215 0.016565792 0.044315487
-0.040944792 0.039429788 0.044326872
-0.044809792 0.035925914 0.044361353
-0.036090713 0.040573262 0.044600368
-0.042032924 0.011355566 0.04462871
0.0074092522 0.049355607 0.044875413
-0.01026364 0.045326106 0.045150489
-0.025223486 0.043518793 0.045305997
-0.046826061 0.027489498 0.045792401
-0.013835214 0.044195272 0.045839548
-0.0063350038 0.047407124 0.045968652
-0.042874116 0.00074429531 0.045970649
-0.02900935 0.042360086 0.046089113
-0.045046486 0.022532333 0.046180606
-0.042364202 0.0055793216 0.046531171
0.0016167266 0.047858883 0.046735138
-0.042572066 0.015425398 0.047433913
-0.034937378 0.040838026 0.047826856
-0.045187864 0.034404643 0.04811272
-0.017305136 0.044189878 0.048114449
-0.042999536 0.017470963 0.04825142
-0.039705362 0.039384648 0.048577517
-0.031461015 0.041632488 0.048642963
0.013077378 0.049089771 0.048647135
-0.046622258 0.030646108 0.048763335
-0.027166396 0.042660963 0.049256653
0.0094678942 0.048630044 0.049358636
-0.042207159 0.011269531 0.049522042
-0.0020709438 0.048569307 0.049663395
-0.042271271 0.0063849608 0.049970925
-0.0049513322 0.047046661 0.050155133
0.0036780126 0.048037987 0.05022794
-0.023669012 0.043856733 0.050368875
-0.04470228 0.036727432 0.050476342
-0.042103115 0.038941141 0.050593108
-0.0089096883 0.045036279 0.050601095
-0.043633632 0.018722916 0.050658405
-0.04365804 0.002676622 0.050814152
-0.019687582 0.044970691 0.050971717
0.0059479903 0.048238784 0.051498532
-0.04586504 0.02451048 0.051550657
-0.042281583 0.013115404 0.051927269
-0.030057384 0.042581916 0.05222261
-0.012383458 0.044718489 0.052294284
-0.015722936 0.044696603 0.052627534
-0.045557756 0.028810807 0.052855104
-0.034635276 0.040667292 0.052959591
-0.036790028 0.038841814 0.05310744
0.013753179 0.049017824 0.053446442
-0.043692283 0.0032309638 0.053681314
-0.045352291 0.032054897 0.053846806
-0.044278119 0.020143472 0.05399695
0.011247568 0.048254345 0.054038852
-0.042713985 0.0060461983 0.054251015
-0.018262884 0.04462909 0.054270387
0.00032066181 0.048415609 0.054390103
-0.040667191 0.038941275 0.054482579
-0.0068193302 0.044747874 0.054510862
-0.02152494 0.044160783 0.054525465
-0.043220814 0.016238842 0.055028528
-0.0040981025 0.046566006 0.055064261
0.0074734706 0.048557162 0.055391282
-0.044910226 0.026487868 0.055391401
-0.044308972 0.036115676 0.055452317
-0.035733834 0.037886914 0.055946559
-0.042469289 0.0080597065 0.056144029
0.01776013 0.050882027 0.056296229
-0.025333658 0.044416338 0.056511939
-0.044934127 0.023434088 0.056608051
-0.010299664 0.044721913 0.056740254
-0.042477109 0.011534272 0.056811363
-0.034556903 0.038205933 0.056816787
-0.044685286 0.003805906 0.056866765
-0.029204195 0.044015717 0.057101607
-0.019826978 0.043444198 0.057599485
-0.043924317 0.0015514484 0.057674795
0.015191469 0.049368687 0.058237016
-0.042035602 0.038740028 0.058384717
-0.038736895 0.037868269 0.058426619
0.0014864504 0.048136141 0.058522433
-0.0022352487 0.046380617 0.058529764
0.011375755 0.048560616 0.058569282
-0.044579599 0.03697608 0.05868423
-0.016885132 0.044077322 0.058731973
-0.043251213 0.015848866 0.058797747
-0.045336764 0.029897336 0.058831155
-0.03119548 0.042758215 0.059157491
0.0055444315 0.049949106 0.059588015
-0.034518592 0.040078316 0.059740633
-0.0081952205 0.044521309 0.059778184
-0.042885631 0.0059335539 0.05997473
-0.041612171 0.0096270461 0.060336381
-0.045124911 0.0024496978 0.061011702
-0.044193998 0.022074761 0.06103766
-0.0046583805 0.046039287 0.061070561
0.013568763 0.048772752 0.061485469
-0.00015324075 0.048826832 0.061561167
-0.023867659 0.044196658 0.061594188
-0.043963246 0.03569242 0.061696321
0.0030515101 0.048817288 0.062273324
-0.040114142 0.038873214 0.062297672
-0.045826152 0.031474311 0.062554032
-0.042831503 0.013485992 0.06283465
-0.011109697 0.045101322 0.06283766
-0.014767939 0.043621104 0.06299746
0.0065138843 0.050512768 0.063183039
-0.044033039 0.0080828965 0.063296646
0.010838874 0.051368225 0.063471168
-0.044805437 0.027681299 0.063607782
0.014449952 0.047941178 0.063614726
-0.020744994 0.045396518 0.063792229
-0.029685626 0.042806625 0.064213216
-0.044589043 0.024908036 0.064395696
-0.034128271 0.040376365 0.064682096
-0.0438786 0.018772157 0.064842254
0.00034375675 0.048591305 0.064856082
0.0042860862 0.050132796 0.064928889
-0.025613416 0.044085018 0.0649997
-0.0038686115 0.046816736 0.065241277
-0.046255436 0.0007242728 0.065254807
-0.021809611 0.044432636 0.065587699
-0.017871264 0.044579715 0.065727413
-0.039859302 0.038845304 0.066016853
-0.044157367 0.016708881 0.066031426
-0.044637226 0.03476987 0.066092819
-0.045467958 0.030928064 0.066161364
-0.036067918 0.039831199 0.066273302
-0.045923993 0.0039404295 0.066392303
-0.0062177368 0.046449415 0.066686004
-0.043839686 0.0079744989 0.067234516
0.0078293495 0.049658872 0.067340195
-0.0024845824 0.048539355 0.067519695
0.011709232 0.051585067 0.067605495
-0.0131749 0.043397024 0.067661852
-0.02905472 0.042751156 0.067806929
-0.0097125489 0.044825014 0.06784755
-0.033561654 0.039377403 0.067894697
-0.020510299 0.045665126 0.068155915
-0.045298185 0.022568777 0.068239927
-0.045639593 0.00046139117 0.068486273
-0.024499146 0.044421274 0.068558604
-0.044509165 0.037576109 0.0686647
0.0028112847 0.047314413 0.068944693
-0.042173509 0.039250392 0.068989128
0.0066215843 0.049031146 0.069123268
-0.045847319 0.029031519 0.069751948
-0.043937821 0.012661958 0.069937021
-0.03948316 0.039709978 0.069961578
-0.034826659 0.040349927 0.070345312
-0.015907226 0.043774758 0.070759743
-0.030692261 0.043247268 0.070923775
-0.045964848 0.025236279 0.071022898
-0.0014933795 0.047764316 0.071341217
-0.046238549 0.020426694 0.071347862
-0.045241762 0.0031275088 0.071357816
-0.013185769 0.044519477 0.071499765
-0.0040551666 0.045886125 0.071591556
-0.019395232 0.044740871 0.071843714
0.012331493 0.050563261 0.071911275
0.0097707529 0.048319712 0.07194826
-0.044496864 0.0063346722 0.072532505
-0.022906272 0.044538941 0.072706431
-0.045843713 0.017529648 0.072917879
0.0078399256 0.047358345 0.073061109
-0.046005614 0.032129247 0.073179573
-0.0077912724 0.044360183 0.073197156
-0.045040458 0.037060823 0.073307306
0.0041383449 0.046502948 0.073318928
-0.046259247 0.028709151 0.073918313
-0.041890755 0.040271658 0.073933572
-0.037735187 0.040575489 0.07395035
-0.026196249 0.044179853 0.07431078
-0.033556655 0.040310308 0.074391991
-0.011779125 0.04440482 0.074486613
-0.044436391 0.013269268 0.074623436
-0.044399392 0.0088071758 0.074699402
-0.029982958 0.042867448 0.07470569
-0.046481445 0.024259083 0.074906081
-0.014245363 0.043760385 0.075080067
-0.047690995 0.003189601 0.075207934
0.013837211 0.049290255 0.076136053
-0.0066400939 0.04458059 0.076375544
0.0060678329 0.046716355 0.076491416
-0.01841162 0.044112977 0.076521039
0.0013837498 0.046550579 0.076750726
-0.0028317962 0.0450202 0.077040404
-0.04508476 0.015945122 0.077370852
-0.045945309 0.030740544 0.07762149
0.012732781 0.048881523 0.077672184
-0.031874374 0.042031042 0.077919841
-0.039368808 0.040758424 0.077958941
0.0096427687 0.04810426 0.078052938
-0.036151238 0.040942825 0.078071326
-0.01373443 0.043528836 0.078307122
-0.046093736 0.026627611 0.078365326
-0.044995211 0.033781711 0.078491509
-0.046817403 0.0039439457 0.078622103
-0.045907237 0.018611109 0.078724742
-0.010000233 0.044727966 0.078965932
-0.044257425 0.0085171778 0.079182088
-0.0067971824 0.045108322 0.079183191
-0.042126805 0.039491311 0.079314053
-0.024372475 0.04444357 0.07938531
-0.046118967 0.022152338 0.079407424
-0.04452024 0.036561161 0.079529881
-0.027902208 0.042843614 0.07966128
-0.043362103 0.012766758 0.080171227
-0.039336238 0.041113112 0.080610186
0.0061997958 0.048006922 0.08066383
-0.012297751 0.044562884 0.080749959
0.0027415445 0.046198122 0.080856681
-0.016229071 0.044482745 0.081103116
0.01294492 0.049513046 0.081455559
-0.00097461417 0.044521306 0.081516087
-0.046266854 0.025660899 0.081540525
-0.033788547 0.041046519 0.08178857
-0.030887971 0.042293683 0.081910461
-0.045649733 0.028836928 0.08230418
-0.044710226 0.0070415549 0.082332969
-0.004861129 0.044399079 0.082686454
-0.045527641 0.0040388079 0.083076924
-0.008232153 0.04384746 0.083226979
-0.044742756 0.035597309 0.083572745
-0.037573345 0.041503739 0.08376953
-0.041508153 0.03972701 0.083790749
-0.018708209 0.045136087 0.084004223
-0.044965237 0.01824013 0.084023148
-0.045563389 0.032016762 0.084084481
-0.023052495 0.04427135 0.084328532
-0.045039922 0.021101817 0.084897399
-0.042973317 0.012200968 0.085032374
0.0077777021 0.048078045 0.085052431
-0.044755846 0.0049520587 0.085169345
-0.044095173 0.009070036 0.085218549
-0.045820802 0.02741567 0.085327595
0.011377435 0.050779805 0.085429996
-0.033239096 0.041516159 0.085578322
0.0035752635 0.046428982 0.085612297
-0.014000245 0.044781961 0.085637391
-0.01078871 0.044161025 0.085885227
-0.028701121 0.042575579 0.085919946
-0.024957744 0.043079387 0.086160064
-0.045981206 0.024544612 0.086217254
-0.042835515 0.039914232 0.08700183
-0.0029466795 0.045078382 0.087116748
-0.044976596 0.038156848 0.087432057
-0.045187447 0.00062857661 0.087473869
-0.032343164 0.043154687 0.087477714
-0.040216468 0.040778182 0.087557048
-0.045694683 0.035327148 0.087653697
-0.021333218 0.044224989 0.08774972
0.00049456209 0.04638356 0.087933809
-0.046050142 0.030750018 0.088085741
-0.043661918 0.015077971 0.088141143
-0.035833135 0.041623596 0.088423282
-0.017765131 0.044849548 0.088527918
-0.014595445 0.04591107 0.088712156
0.011904387 0.049336672 0.088769466
0.0083791222 0.050252542 0.088949353
-0.04442751 0.0067871241 0.089027643
-0.023303969 0.042892549 0.08981958
-0.045624722 0.0034532361 0.089848846
-0.008288403 0.044893783 0.089892298
-0.044895336 0.021794979 0.090148807
-0.027298735 0.042160757 0.090684444
-0.0019967919 0.04558374 0.090746909
-0.0048738741 0.044964951 0.090869576
-0.032389138 0.041220874 0.091138989
-0.042350434 0.040448811 0.091228515
-0.037834205 0.041631609 0.091548592
-0.045948394 0.036629103 0.091688097
0.0066202022 0.049185652 0.091748029
-0.046097789 0.028853431 0.091748267
0.0023136511 0.047676418 0.09175691
-0.043411762 0.013304256 0.091966867
-0.016161596 0.044955768 0.09202981
-0.046637099 0.032192346 0.092059821
-0.044618078 0.0092645846 0.092527658
-0.012804341 0.045960933 0.0926705
-0.030200843 0.042418469 0.092834264
0.0081425123 0.053465456 0.093368739
-0.044316329 0.018961031 0.093371153
-0.045474458 0.025067858 0.093392164
-0.022289805 0.042622849 0.09378621
6.9166534e-05 0.046954572 0.094275087
-0.0036772043 0.045609545 0.094672412
-0.041469835 0.040989473 0.094718128
-0.047170881 0.035935111 0.094997227
-0.018354097 0.044484835 0.095002115
-0.045984436 0.0031744475 0.095272571
-0.037250683 0.042193614 0.095288008
-0.046998054 0.0319544 0.095449626
-0.04563253 0.0047405483 0.095612377
-0.044857822 0.01228895 0.095839411
-0.032880422 0.042540628 0.095874369
0.0038196929 0.046582989 0.096123844
-0.044542082 0.0079703648 0.096204132
-0.044506542 0.017114637 0.096270025
-0.0083537018 0.046586167 0.096350402
0.0074821711 0.048803333 0.096882045
-0.045770932 0.026700901 0.096893042
-0.011017999 0.046497364 0.097122729
-0.045573138 0.022640061 0.09733817
0.0098606553 0.051843826 0.09752062
-0.028193664 0.042474251 0.097537905
-0.043433264 0.041034043 0.097830921
-0.040214229 0.042368077 0.098065883
-0.02439571 0.043987229 0.098070383
-0.046341047 0.038092639 0.098092794
-0.0030170828 0.046443969 0.098109931
-0.047722377 0.034641199 0.098118633
-0.013151275 0.045805477 0.098239124
0.001811713 0.046801146 0.098480135
-0.03151536 0.04223834 0.099048734
-0.044527527 0.014368115 0.099069864
-0.016688243 0.044698652 0.099429637
-0.044260088 0.0035543432 0.099525273
-0.046606589 0.029568881 0.099640906
-0.035757408 0.041632198 0.10015641
-0.043674167 0.0072795614 0.10048102
-0.046963196 0.026348904 0.10049121
-0.0095057972 0.046062533 0.10076682
-0.020172428 0.044509944 0.10097377
-0.0052469531 0.046487153 0.1010852
-0.00087863486 0.047913894 0.10127603
-0.026332183 0.04241379 0.10138144
0.011939505 0.049768731 0.10144322
-0.044473745 0.017983854 0.10154425
-0.039027993 0.041343674 0.10156016
-0.023263779 0.043529883 0.10161711
0.0096841827 0.048803769 0.101831
-0.045119356 0.02151276 0.10189663
-0.047628447 0.033171292 0.10231082
0.0067176726 0.047479324 0.10232584
-0.042268198 0.04057464 0.10299249
-0.015166979 0.044096828 0.10314502
0.0026464853 0.047808118 0.10325928
-0.046289381 0.037392713 0.10344367
-0.011262665 0.045370243 0.10360973
-0.044034861 0.013229541 0.10384579
-0.03003658 0.042300195 0.10388948
-0.046875093 0.02681068 0.10391872
-0.026350472 0.042801369 0.10399668
-0.044407219 0.0085902885 0.10433905
-0.007268433 0.046211425 0.10435514
-0.033685431 0.041268013 0.10455491
0.011245046 0.04846742 0.10468094
-0.0037474893 0.046290644 0.10503303
-0.00094258599 0.047656287 0.10552977
-0.043835919 0.015219877 0.10559498
-0.022233445 0.04361457 0.10578291
-0.017929189 0.044447519 0.10578422
-0.044744756 0.019145668 0.1061206
-0.04607816 0.036321275 0.10637261
0.0038237348 0.047740888 0.1066118
-0.045588892 0.002080217 0.10665859
-0.047308259 0.031432208 0.10667534
-0.036904551 0.041162606 0.10689677
-0.041354828 0.039984442 0.10728253
0.0076288842 0.048158471 0.1073208
-0.046910949 0.027453043 0.10741995
-0.045401383 0.0039667571 0.10754143
-0.0053884783 0.045938786 0.10764723
0.011324639 0.049512982 0.10775976
-0.010061183 0.045497615 0.10783844
-0.044103485 0.0081555601 0.10789607
-0.032211453 0.041010469 0.10853688
-0.043242995 0.017521873 0.10855664
-0.024522705 0.043604385 0.10866188
-0.045162249 0.023841731 0.10873152
-0.029044366 0.042257704 0.10878159
-0.043335587 0.038973805 0.10904469
-0.047539238 0.033713233 0.10935785
-0.04624442 0.036756869 0.10962109
0.0024747457 0.047536232 0.10974155
-0.04346111 0.013953553 0.10977434
-0.047087274 0.030678369 0.11001919
-0.016813774 0.045028478 0.11013375
-0.013266837 0.045747768 0.11041622
-0.035794392 0.041374333 0.11112575
-0.0081552062 0.045659069 0.11114745
0.0058634505 0.048243407 0.11120798
0.0097163189 0.047917828 0.11129345
-0.030790925 0.042068712 0.11130019
-0.00081618223 0.047164347 0.11155204
-0.044556603 0.0028812019 0.1115946
-0.045181792 0.038492978 0.11163722
0.011428326 0.049971208 0.11178081
-0.0045373351 0.046227753 0.11193667
-0.043918584 0.0068856617 0.11194016
-0.01952393 0.044943057 0.11275332
-0.041734647 0.040488411 0.11281611
-0.045031004 0.020774309 0.11327054
-0.024101207 0.043735795 0.11353086
-0.047490649 0.033278115 0.1136647
-0.044523209 0.017616197 0.11391591
0.010804042 0.051186703 0.11395787
0.014110096 0.048471268 0.11399324
-0.043917604 0.0085783899 0.11405744
0.0036025979 0.047621451 0.11418624
-0.038175967 0.04092079 0.11435364
-0.045669824 0.024411149 0.1144463
0.007033648 0.048442636 0.11469786
-0.011516845 0.045576878 0.114796
-0.0078657065 0.046388112 0.11499931
-0.045654774 0.027066071 0.11516558
-0.043803055 0.012313969 0.11516769
-0.046955276 0.03861957 0.11524491
-0.029953742 0.041957103 0.11535339
-0.044834826 0.0013970798 0.11571164
-0.014890013 0.04480252 0.11614217
-0.02783902 0.043947916 0.11629932
-0.044422343 0.020470973 0.11630543
-0.033431794 0.041250769 0.11634634
-0.044291086 0.040579025 0.11643444
0.0003429018 0.047237113 0.11645024
-0.018070841 0.044467725 0.11694925
-0.043921717 0.016302461 0.1170138
-0.0031441916 0.047094006 0.11709543
-0.022526948 0.043225504 0.11721779
-0.03683681 0.041184552 0.11779083
-0.0463278 0.030409731 0.11830924
-0.010016561 0.044552546 0.11842011
0.0083574951 0.048838008 0.1185445
-0.044500872 0.0071989596 0.11881287
0.012030289 0.051142704 0.11882122
-0.006262755 0.046761855 0.11919685
-0.045721535 0.0025478015 0.11946385
-0.044444606 0.022546455 0.11967604
-0.043298699 0.040805068 0.12010621
-0.024594935 0.043321945 0.1202821
-0.046557046 0.036949188 0.12032841
-0.04388104 0.017869389 0.1203749
-0.028850783 0.041618161 0.12062575
0.0059782602 0.048116058 0.1209061
0.0022342429 0.047188267 0.12100469
-0.044798352 0.010194357 0.1210591
-0.016722329 0.044382956 0.12126859
0.012797579 0.050822925 0.12164764
-0.044672731 0.014025126 0.12168156
-0.045221146 0.02758839 0.12170811
-0.030447189 0.040671967 0.12186794
0.010086747 0.049219772 0.12196933
-0.034224004 0.040949017 0.12198512
-0.046336148 0.0033884328 0.12216075
-0.012961809 0.045916583 0.122292
-0.0041102823 0.04704605 0.12321036
-0.00033412036 0.047340326 0.12348987
-0.045093194 0.020961748 0.12370579
-0.027413663 0.041989695 0.12381046
-0.018709753 0.044228029 0.12394445
-0.046667453 0.031837318 0.12405472
-0.022651345 0.044170238 0.12414889
-0.044490069 0.015979875 0.12440144
-0.042120792 0.040814094 0.12466107
-0.045931481 0.036240235 0.12467702
0.0029518967 0.047178742 0.12502863
-0.046192832 0.026938248 0.12504818
0.0077260975 0.048487358 0.12506495
0.010918746 0.051730651 0.12520255
-0.037795726 0.041769445 0.12522374
-0.044884037 0.0077761193 0.12569122
-0.015053534 0.043791432 0.12576337
0.011949804 0.055300195 0.12592365
-0.047531374 0.0040267911 0.1259314
-0.033994883 0.043414846 0.12601434
-0.025627948 0.044126499 0.12604134
-0.011125622 0.046281531 0.12607889
-0.0022025052 0.046275482 0.12618823
-0.007325707 0.047711901 0.12630744
-0.028886732 0.042133696 0.12633936
-0.044239454 0.011806004 0.12704937
-0.045607418 0.023330729 0.12717198
-0.043693021 0.04070681 0.12745686
-0.047756378 0.034510173 0.12748282
0.0013011796 0.047343135 0.12757014
-0.044593357 0.016059577 0.12792061
-0.046557099 0.037993953 0.12807016
0.0048058964 0.048952609 0.12827359
-0.017932113 0.04449119 0.12835582
-0.013608609 0.045614153 0.12855659
-0.032529429 0.043150086 0.1287619
-0.047169603 0.029951464 0.12901054
-0.03707473 0.042138446 0.12959938
0.011542303 0.051087793 0.1298397
-0.0094415909 0.047119327 0.1299877
0.0083148591 0.049771622 0.13000987
-0.0016852999 0.047358796 0.13041838
-0.046914682 0.0031412812 0.13043238
-0.047869507 -0.00074774306 0.13051409
-0.044187877 0.0072188778 0.13074146
-0.0058144652 0.047606595 0.13076632
-0.04518446 0.022329513 0.13083251
-0.024567144 0.044268258 0.13090478
-0.021270234 0.044985138 0.13100491
-0.027271405 0.042020306 0.13105802
-0.04680337 0.037713099 0.13108204
0.012156408 0.054977041 0.13112523
-0.044644456 0.018262818 0.13125427
-0.042910609 0.04138552 0.1313277
-0.039222293 0.041237157 0.13169961
-0.048185918 0.034143284 0.13176908
0.0030035181 0.047588281 0.13188617
0.0067238938 0.049011786 0.13220344
-0.043717571 0.012898079 0.13233037
-0.01647573 0.044816099 0.13236554
-0.012326776 0.045889191 0.13239171
-0.047205232 0.029581923 0.13245098
-0.0094059166 0.047384471 0.13248061
0.0098155476 0.051528919 0.133058
-0.030924715 0.042237494 0.13313545
0.012998257 0.051790252 0.13338234
-0.045287732 0.024694253 0.13387917
-0.045352429 0.041094281 0.13413079
-0.035090778 0.040921327 0.13427411
-0.047654316 0.038015105 0.13435654
-0.00018396601 0.047728326 0.13442002
0.013559807 0.053652547 0.1345164
-0.047247443 -0.0014837189 0.13463894
-0.025980122 0.041689578 0.13464741
-0.0041175168 0.047827333 0.13484029
-0.040071376 0.040384542 0.13489963
-0.045993909 0.0027089268 0.13495265
-0.044062227 0.019152965 0.13503005
-0.043999922 0.0051535307 0.13504098
-0.043817528 0.015249269 0.1351053
-0.038299244 0.040573314 0.13526718
-0.049180273 0.032769822 0.13540213
-0.018764168 0.045143403 0.13556577
-0.043131933 0.0076662679 0.13584535
-0.0227452 0.043863591 0.13594197
0.0071984585 0.049998704 0.13648658
0.01117322 0.051912218 0.13682501
-0.0070637297 0.047238264 0.13689922
-0.042596668 0.011341025 0.1370268
-0.045734301 0.024609638 0.13717727
-0.011321304 0.046398804 0.137181
-0.048909109 0.034279838 0.13761948
-0.03245949 0.040688328 0.13771723
-0.025832135 0.043348245 0.13777171
-0.042978987 0.0042413468 0.13778363
-0.043797325 0.041359898 0.13789879
-0.002908201 0.047327559 0.13804241
-0.029573996 0.041908998 0.13805668
-0.047347974 0.038052421 0.13842081
-0.04455537 0.0009196857 0.13844912
0.00045047887 0.048464872 0.13886763
0.0053243712 0.049512878 0.13897036
-0.046196252 -0.0031936178 0.13911697
-0.048252296 0.029640574 0.13911749
-0.017661678 0.044282187 0.1393175
-0.044201661 0.015680553 0.13933004
-0.01381851 0.045647405 0.13938977
-0.03511706 0.040427916 0.14012264
0.011693818 0.050873842 0.14055781
-0.042300042 0.0064983303 0.14106564
-0.03846493 0.041704699 0.14115207
-0.0097716637 0.046495415 0.1412238
-0.047500744 0.02647955 0.14129446
-0.044366356 0.0020815777 0.14137428
-0.045703195 0.020681538 0.14149533
-0.0056007253 0.047127493 0.14176415
-0.023877168 0.043892048 0.14183716
-0.046962451 0.038358919 0.14202927
-0.028708741 0.042009722 0.142233
-0.00082768686 0.048678059 0.14235412
-0.049659986 0.033787038 0.14237739
-0.045490235 0.017605338 0.14253883
-0.042037174 0.040508348 0.14258189
-0.020668603 0.045059592 0.14315154
0.0061904415 0.050155267 0.1433429
-0.012085441 0.045431796 0.14355902
0.0092567652 0.051730245 0.1438093
-0.034374416 0.040609479 0.14386933
0.01445071 0.048790444 0.14449538
-0.015950948 0.043726284 0.14453204
-0.048070624 0.038639866 0.14465941
-0.025092985 0.044422131 0.14466734
-0.046437144 0.02314239 0.14493836
-0.050113354 0.035693608 0.14506893
-0.048308179 0.02825046 0.14510573
-0.030312004 0.041734017 0.14517562
-0.047187004 -0.0018682955 0.14541802
-0.045096938 0.0015072394 0.14550237
-6.4950436e-05 0.048367545 0.14561938
0.003782792 0.049725007 0.14578001
-0.04604461 0.040236168 0.14592005
-0.043337632 0.0045455252 0.14598976
-0.0044485456 0.047154177 0.14603268
-0.04574737 0.016517958 0.14631115
-0.024102546 0.043414135 0.14654128
-0.020388613 0.044783913 0.14671747
-0.040773764 0.039551981 0.14712252
-0.036478676 0.040649805 0.14726652
-0.043840591 0.0077740517 0.14753129
-0.048363812 0.030650575 0.14767782
-0.028675716 0.042611789 0.14803986
-0.014436165 0.043499738 0.14807244
-0.010285768 0.045215555 0.1481726
-0.0062234499 0.046893667 0.14821307
-0.048775017 0.034433652 0.14832126
0.010981057 0.051185373 0.14834724
0.0075457785 0.04910427 0.1487069
-0.045045193 0.0031365808 0.14874364
-0.047031451 0.022117205 0.14878519
-0.046122432 0.00034686644 0.1488805
0.0050165914 0.048611861 0.14921696
-0.024771556 0.044117425 0.14925055
-0.047140878 0.03735498 0.14939873
-0.046510171 0.01899234 0.14947639
-0.044002756 0.0396658 0.14974241
-0.046361648 -0.0021781595 0.15025494
-0.045501556 0.013497797 0.15027319
0.0012999186 0.047851782 0.15035616
0.016397394 0.051887661 0.15039472
-0.013158122 0.044626079 0.15040193
-0.047099479 0.025652986 0.15044807
-0.035225436 0.041117337 0.150829
-0.045181558 0.0097524058 0.15088211
-0.031159319 0.042614665 0.15103017
-0.017079988 0.044092238 0.15109579
0.016182059 0.048634708 0.15129791
-0.046615038 0.029546857 0.15146218
-0.028200025 0.044571891 0.15180017
0.018050797 0.050083667 0.15198414
0.013455834 0.049092259 0.15206783
-0.045498922 0.0023784591 0.15219049
-0.0020448063 0.047974616 0.15240537
-0.0083404453 0.044910111 0.15244399
-0.044778962 0.0069193961 0.15248741
-0.020166364 0.044692475 0.15256174
-0.04616392 0.017569458 0.15267073
-0.0052402597 0.046265773 0.15279119
0.0090523623 0.047734998 0.15282337
-0.04144416 0.040502429 0.15346853
-0.046198398 0.035803508 0.15360637
0.0043176413 0.046970591 0.15379785
-0.023334529 0.043860413 0.15380912
-0.033019938 0.041392457 0.15381403
-0.037910499 0.042184293 0.15419255
-0.045286935 -0.0023651021 0.15440527
-0.015504496 0.044890951 0.15446983
-0.044903167 0.012623273 0.15464936
-0.047193155 0.033374015 0.15467156
-0.025987025 0.044287294 0.15489618
0.0065851901 0.047348998 0.15492754
-0.011264868 0.045047492 0.15499161
0.016317647 0.051262643 0.15508066
-0.045985464 0.026832875 0.15514247
-0.046621837 0.023570996 0.15539263
-0.045780025 0.0092375474 0.15542163
-0.043840483 0.040069737 0.15543555
0.014121339 0.047475804 0.15569918
-0.03039664 0.042441443 0.15574928
-0.045382347 0.001518487 0.15585773
-0.045929588 0.038304269 0.15600096
0.0003669858 0.047625378 0.15669475
-0.039405562 0.040491197 0.15675102
0.016624285 0.045067232 0.15679525
-0.003840385 0.045731958 0.15722068
-0.015373557 0.045942131 0.1575651
-0.045371458 0.011267429 0.15759261
-0.045035642 0.016320858 0.15764277
0.011860561 0.05087148 0.15765427
-0.04717407 0.030596271 0.15788351
-0.018439565 0.044568721 0.15799277
-0.036784299 0.042416029 0.15827669
-0.032888819 0.041943572 0.15858306
0.0091502145 0.047587741 0.15861104
-0.021475159 0.043238819 0.15889229
-0.048310652 0.034413163 0.15906708
-0.024324885 0.043082759 0.15934341
-0.045203228 0.020489339 0.15938215
-0.0099996272 0.04521285 0.15938927
-0.04724649 0.037352949 0.15949856
0.0058064945 0.046426121 0.1596723
-0.0060213404 0.045599729 0.1597793
-0.043003149 0.040548127 0.16003208
-0.04720613 0.0056152409 0.16018192
-0.038916931 0.041372165 0.16024183
-0.028227199 0.041675229 0.16026334
-0.047836479 0.027813248 0.16049074
-0.045818947 0.017546844 0.16071926
-0.0462972 0.0098181441 0.16113572
-0.0013020616 0.045702297 0.16119613
0.0018680226 0.046840206 0.16127424
-0.046044797 0.013775386 0.16146265
0.0056227483 0.047832042 0.16161467
-0.016810911 0.045292649 0.16167252
-0.013274571 0.045752838 0.16196911
-0.034423772 0.042057749 0.16208129
-0.031609919 0.041899178 0.16246389
0.0098471269 0.04903261 0.16247247
-0.0090341605 0.045920454 0.16308154
-0.050865572 0.036140796 0.16317783
-0.046407882 0.041133381 0.16325338
-0.047449496 0.027812231 0.1634848
-0.026703559 0.041112557 0.16360782
-0.048479412 0.039486893 0.16381194
-0.04521846 0.020454027 0.16396074
-0.046336275 0.017071383 0.16406487
-0.047778036 0.0030686073 0.16412292
-0.0052703684 0.047138333 0.16418575
-0.019629903 0.045040619 0.16446604
-0.03720345 0.04147099 0.16457914
-0.023384433 0.042674322 0.16497664
0.0034706052 0.047514036 0.16520022
-0.0020782426 0.04798856 0.16555588
-0.040523708 0.040951893 0.16560958
-0.010340583 0.046173409 0.16567652
0.0070545394 0.04900755 0.16587551
-0.046472654 0.0083189439 0.16597031
-0.049642436 0.035203505 0.16637532
-0.048657879 0.032453325 0.16638009
-0.044028521 0.040902697 0.16644372
-0.048000254 0.0047309399 0.16662662
-0.028846759 0.041962147 0.16688912
0.010083126 0.05083314 0.16702117
-0.045899697 0.02320385 0.16706555
-0.0073708221 0.047567975 0.16722091
-0.047541756 0.038493305 0.16749741
-0.046357106 0.019530233 0.16750042
-0.046031419 0.011582866 0.16795783
-0.045264404 0.01439777 0.16840725
0.0005634306 0.048484188 0.16856758
-0.049302574 0.00098006986 0.16868742
-0.032897495 0.04227804 0.1686881
-0.013945207 0.047124244 0.1687852
-0.023091916 0.042845879 0.16881151
-0.0179842 0.045592401 0.16894098
-0.046226893 0.01962968 0.16903301
-0.047393158 0.028719667 0.16905008
-0.035950981 0.04153838 0.16924314
-0.046352044 -0.0030768076 0.16944753
0.010012072 0.050835773 0.16991238
-0.046832066 0.0028964197 0.17009465
-0.045948699 0.021536175 0.17062478
-0.04525359 0.0071867667 0.1706747
-0.024079513 0.04308527 0.17077444
-0.0027438905 0.048642337 0.17079209
-0.006592392 0.047132228 0.17101113
-0.048430741 0.032954931 0.17101817
-0.02071188 0.044921592 0.17102908
-0.027962318 0.041482281 0.17143799
-0.039255187 0.041048635 0.17169304
-0.04635461 -0.0025851037 0.1718909
-0.042642083 0.040313169 0.17189427
-0.047692027 0.037463382 0.17199855
0.0062101558 0.049736269 0.17209895
-0.044649988 0.0099760266 0.17238514
-0.044176612 0.01308153 0.17288063
-0.013225496 0.046792891 0.17332397
0.0095190667 0.051802836 0.17335714
-0.035135392 0.041505653 0.17336856
0.0018608905 0.048066352 0.17350076
-0.031497966 0.042116307 0.17350401
-0.046364728 0.023980618 0.17361097
-0.017368741 0.044875938 0.17378311
-0.046534624 0.028441068 0.17412935
-0.047518749 0.038776163 0.17413257
-0.046136416 -0.0024345918 0.17420249
-0.045859363 0.039790653 0.17422332
-0.018986858 0.043813478 0.17461137
-0.044844855 0.016274197 0.17488454
-0.045339014 0.0017245682 0.17491819
-0.0014739484 0.04757186 0.17492171
-0.02267926 0.041954119 0.17527865
-0.0043493677 0.045578465 0.17547114
-0.037323199 0.040949922 0.17577745
-0.043186992 0.0048515406 0.17587976
-0.046852879 0.031182252 0.17602275
-0.043636665 0.0075945524 0.17613153
-0.025901558 0.040367663 0.17658482
-0.04437948 0.018487319 0.17679082
0.0086246505 0.05680443 0.17695855
-0.041738145 0.039565366 0.17699467
-0.045946255 0.033681385 0.17704587
-0.036550753 0.010234151 0.17709135
-0.041569926 0.0114194 0.17714988
-0.045741126 0.023656342 0.17724316
-0.046218485 0.037381746 0.17724429
-0.011425882 0.045089971 0.17725746
0.0026450846 0.0466015 0.17735295
-0.044718668 0.038803536 0.17751361
-0.029792473 0.040765185 0.17755635
-0.017341744 0.042326786 0.1776204
0.0093897302 0.052425798 0.17766084
0.0063312724 0.048871242 0.17776917
-0.04541878 -0.002730527 0.17784618
0.0009270804 0.00056518987 0.17785339
-0.041961469 0.015333503 0.17785774
-0.037345655 0.014029087 0.17807911
-0.035374813 0.039761614 0.17822729
-0.020363497 0.039259885 0.17845626
-0.04449052 0.030124132 0.1785823
-0.015200215 0.042330079 0.17887683
-0.040029265 0.0077876924 0.17888431
-0.043698877 0.027252696 0.17891578
-0.033075865 0.038652062 0.17898016
-0.018186027 0.038463648 0.17902292
0.0086770188 0.052259475 0.17907344
-0.0076006651 0.035343494 0.1790906
-0.0028311731 0.010722985 0.17915975
-0.035345279 0.013987293 0.17916186
-0.0093665924 0.041213688 0.17918168
-0.020825446 0.03657832 0.17920916
-0.04354205 0.020279191 0.17927532
-0.041952807 0.033423644 0.17932902
-0.0018767081 0.043360397 0.17936738
-0.03540688 0.036349803 0.17938809
-0.005293421 0.040230326 0.17939423
-0.043249596 -0.00035439618 0.17941321
-0.036158577 0.0070768776 0.17941992
-0.042827621 0.021815557 0.17944507
-0.039238285 0.036633894 0.17956094
-0.033026323 0.018406659 0.1795858
-0.0043325415 0.026371757 0.17959534
-0.040042326 0.0033681868 0.17964675
0.0019422323 0.045515541 0.17964976
-0.038313031 0.028085571 0.17977874
-0.032805055 0.010250797 0.17979006
-0.028585404 0.03831242 0.17979227
-0.034349781 0.032579791 0.17985468
-0.039415114 0.030821312 0.17985745
-0.0041164495 0.032735329 0.17994545
-0.0074030515 0.027493633 0.17998035
-0.032782339 0.020637363 0.18000518
-0.0098777534 0.0075198524 0.18001314
0.0023242505 0.0048606391 0.18001594
-0.041127883 0.02455043 0.18003152
-0.0047383271 0.020800781 0.180084
-0.0027521402 0.023195561 0.18015061
-0.010446168 0.030629013 0.18026857
-0.00046280958 0.00064086448 0.1802768
-0.024014547 0.036854398 0.18031885
-0.029943679 0.01435269 0.18035506
0.0082179308 0.05059424 0.18036906
-0.018060477 0.0083859796 0.18039204
-0.034083433 0.025434598 0.18039803
-0.0013639554 0.028221905 0.1805024
-0.038085118 0.021976124 0.18055223
-0.030740708 0.02910329 0.18058838
-0.013189694 0.029325351 0.18059574
-0.016107555 0.035529945 0.18062107
-0.029880416 0.035816085 0.1806332
-0.0014922861 0.035820905 0.1806374
-0.022196379 0.020204047 0.18065481
-0.025798116 0.023757713 0.1806549
-0.0090076933 0.0039410978 0.18066122
-0.020201892 0.0075240312 0.18067609
0.0019734912 0.030745227 0.18069245
-0.023933329 0.018806506 0.18074201
-0.013317944 0.0400365 0.18082909
-0.00013476703 0.020773744 0.18091016
0.0020710127 0.0096573578 0.18104385
-0.0013164878 0.017774686 0.18106829
-0.0078710783 0.022523612 0.18111728
-0.013258493 0.004622553 0.18118738
-0.020567866 0.013775967 0.18127744
-0.019324537 0.026393643 0.18132369
-0.005496813 0.0032013757 0.18133549
-0.029353794 0.0086890645 0.18135218
-0.025231395 0.010146955 0.18137954
-0.02885383 0.020542316 0.18141763
-0.033714905 0.0045670569 0.1814418
-0.018571116 0.016763303 0.18146466
0.0078616105 0.048190445 0.18148838
-0.028584057 0.006159733 0.18158691
0.01049003 0.05152823 0.18161254
-0.014184278 0.010967641 0.18164639
-0.0016817674 0.03908575 0.18166719
-0.031969979 0.0030636461 0.18178053
-0.028478974 0.033626724 0.18180792
-0.016099852 0.0097733801 0.18181179
-0.029309394 0.01124022 0.18187393
-0.015339953 0.0037338724 0.18196885
-0.020088144 0.021334387 0.18197162
0.00067696348 0.041596189 0.18206309
0.00082277786 0.026885126 0.18208869
0.003007995 0.023505516 0.18209796
-0.024612948 0.017456291 0.18214761
-0.035343278 -0.00067412201 0.18225004
-0.025903242 0.031523868 0.18231611
-0.01765988 0.023747213 0.18233113
-0.008051401 0.0012500165 0.18235342
-0.038440399 0.0011296747 0.18236928
-0.041849539 -0.0011087423 0.18241261
0.0036993977 0.0027112132 0.18245427
-0.018488802 0.03280871 0.18248634
-0.032765366 -0.0042321747 0.1825075
-0.01652173 0.020431191 0.18255265
-0.02228554 0.034730114 0.18257676
-0.023878414 0.027671378 0.182588
-0.025580576 0.0037510493 0.18260764
-0.02020834 0.004698677 0.1826226
0.0038451813 0.044672869 0.18273093
-0.014967264 0.027060576 0.18281959
0.0011038743 -0.00093278289 0.1828988
0.0021746382 0.034423653 0.18296008
0.0037893206 0.029976804 0.18299489
-0.028699096 0.0011261022 0.18312444
-0.029292205 -0.0060662488 0.18313645
0.0020350888 0.038981762 0.18331032
0.0029088948 -0.0017117104 0.18331675
-0.032385096 -0.0071801012 0.18337221
0.0050944518 0.0010370938 0.18340991
0.0064834636 0.047981683 0.1835048
-0.02316284 0.0012799501 0.18371896
-0.011794718 -0.0015758071 0.18379034
-0.03753059 -0.0024227537 0.18390231
-0.026609831 -0.0027545122 0.18397801
-0.015148565 -3.0100346e-06 0.18397911
-0.0037236065 -0.0020309612 0.18400066
0.0043049827 0.034315713 0.18403073
-0.016879138 0.03094672 0.18404056
0.0043432508 0.042699914 0.1841969
-0.0067248922 -0.0023105089 0.18441211
-0.027078856 -0.0077923359 0.18522875
-0.02141962 -0.0014607823 0.18531559
-0.017914191 -0.0011132807 0.1854272
0.0048885532 0.042185325 0.18551455
-0.025227604 -0.0038511399 0.18563448
-0.0096209459 -0.0039409474 0.18586485
-0.0052630343 -0.0053027915 0.18587072
0.0030773999 0.038490638 0.18591563
