# .PCD v0.7 - Point Cloud Data file format
VERSION 0.7
FIELDS x y z
SIZE 4 4 4
TYPE F F F
COUNT 1 1 1
WIDTH 1042
HEIGHT 1
VIEWPOINT 0 0 0 1 0 0 0
POINTS 1042
DATA ascii
-0.027544767 -0.037458114 0.00038879365
-0.030014509 -0.034709409 0.00046472996
-0.024231378 -0.040672973 0.0011608228
-0.02051742 -0.044028297 0.0012209937
-0.037673675 -0.02373543 0.0012291297
-0.040431339 0.00640631 0.0020575747
-0.015448535 -0.044866186 0.0020704195
-0.041752949 0.010238479 0.0020783469
-0.0082419794 -0.044862323 0.0022043809
-0.039095383 -0.011273305 0.002351813
-0.040250137 -0.0043963701 0.0025458857
-0.0026015202 -0.043661565 0.0026047751
-0.039546371 -0.0078533879 0.0026095435
-0.025553972 -0.040190887 0.0032768473
-0.011378137 -0.044454958 0.0033621415
-0.036313284 -0.029779162 0.0034568235
-0.02889837 -0.03763685 0.0036851689
-0.032944337 -0.033786573 0.0037031099
-0.037464738 -0.025498427 0.0038301572
-0.040242694 0.00010346528 0.0041326508
-0.022038955 -0.043256588 0.0042569563
-0.041019641 0.0036310703 0.004292272
-0.039054733 -0.013580123 0.0045181736
-0.041055467 0.0084126284 0.0047731027
-0.037819654 -0.017766751 0.0051031038
-0.015891099 -0.04477508 0.0053392276
-0.018084232 -0.043897893 0.0059442744
-0.039859064 -0.0067592394 0.0059744343
-0.039942946 0.012557712 0.0060610995
-0.010862319 -0.043862615 0.0060683116
-0.040950928 -0.0027144812 0.0064259097
-0.041366134 0.0018040081 0.0071422979
-0.0077045867 -0.044714015 0.007143341
-0.030084208 -0.037208553 0.0075737163
-0.033235125 -0.033835214 0.0077149794
-0.038204674 -0.022045225 0.0077704713
-0.023400955 -0.044032011 0.0078465566
-0.040535729 0.0060768509 0.0081371292
-0.025244575 -0.041181847 0.0081764385
-0.041533019 0.0090972604 0.0082172975
-0.037636075 -0.025611714 0.0085045621
-0.039925512 -0.0087339375 0.0087511465
-0.013092613 -0.044131171 0.009149693
-0.038662434 -0.013639751 0.0092146918
-0.037174091 -0.016952144 0.009735547
-0.042096961 -0.0049887942 0.0097452626
-0.0099248243 -0.044967577 0.010210924
-0.036481947 -0.030738275 0.010341935
-0.033711549 -0.034207698 0.010440551
-0.042500734 -0.00083793607 0.010575674
-0.030145019 -0.038289003 0.010616533
-0.0060656844 -0.044781283 0.01065179
-0.022895455 -0.044089921 0.011090986
-0.036978602 -0.027345862 0.011145405
-0.0188029 -0.043745942 0.011350773
-0.025670886 -0.041526433 0.011353813
-0.042227209 0.0033414951 0.011543982
-0.016267367 -0.044330779 0.011546604
-0.038351759 -0.020488469 0.011833154
-0.044734616 0.0077065686 0.012748413
-0.037746388 -0.023391586 0.013192229
-0.043978456 0.011537111 0.013239674
-0.04216877 -0.0028350428 0.013441019
-0.038889252 -0.011974257 0.013561092
-0.012178009 -0.043791682 0.013825707
-0.040202964 -0.0077432483 0.014040016
-0.037430435 -0.026294086 0.014050268
-0.0428975 0.0013659289 0.014133684
-0.023147905 -0.043910496 0.014212392
-0.035018738 -0.03006402 0.01434838
-0.025831876 -0.041304972 0.014421783
-0.03224279 -0.033628426 0.014427535
-0.0083904816 -0.045703642 0.014486305
-0.029797487 -0.037370153 0.014701508
-0.038225081 -0.017827149 0.015266918
-0.044991594 0.0077793831 0.015930615
-0.043419857 0.0055374326 0.016048841
-0.038925275 -0.013904771 0.016282104
-0.014432291 -0.044451859 0.016672961
-0.034758233 -0.029633898 0.017165892
-0.018749451 -0.043086644 0.017271243
-0.032997787 -0.033749737 0.017842881
-0.042908885 0.0032148715 0.017943524
-0.030374428 -0.03738391 0.018007211
-0.021719731 -0.04263794 0.018319629
-0.037441082 -0.024579972 0.018333845
-0.038957328 -0.020131938 0.018386953
-0.040389448 -0.0053360867 0.018457286
-0.025302609 -0.040859967 0.018584393
-0.042127278 -0.0018341742 0.018756978
-0.04423685 0.0074032648 0.018850528
-0.011966451 -0.048166867 0.020341806
-0.035627831 -0.029832251 0.020642661
-0.04075554 -0.0081355628 0.020850472
-0.041155662 -0.012050785 0.020996265
-0.030073993 -0.037933804 0.021124505
-0.037181716 -0.026528731 0.021178387
-0.033358563 -0.034668591 0.021350794
-0.041599222 -0.0037039351 0.02147501
-0.026753061 -0.040077683 0.021526031
-0.043544151 0.0069917729 0.021798305
-0.039710075 -0.019017633 0.022227697
-0.042719368 0.0038677314 0.022293471
-0.038633712 -0.023072075 0.022639923
-0.040346455 -0.01413738 0.022678815
-0.019237198 -0.043823417 0.022818647
-0.041761059 0.00065270253 0.023177318
-0.015893728 -0.045979641 0.023219727
-0.011952888 -0.04883429 0.023619674
-0.034932818 -0.033219889 0.02454289
-0.029805601 -0.039502151 0.024586938
-0.040996961 -0.007326379 0.024984919
-0.026489671 -0.041641288 0.024986647
-0.037703611 -0.024642341 0.025074862
-0.036285549 -0.029449362 0.025177322
-0.039825741 -0.019769307 0.025268458
-0.042529356 -0.0033279154 0.025804691
-0.02251883 -0.043559827 0.025866233
-0.042442985 0.0040544691 0.026085041
-0.043654323 0.0069029843 0.026311893
-0.0053139403 -0.050880443 0.026765008
-0.035204135 -0.035421103 0.027656037
-0.040123139 -0.012685198 0.027671862
-0.031845607 -0.039055675 0.027849842
-0.010892771 -0.049295526 0.027929086
-0.037382055 -0.030883834 0.028111119
-0.040844116 -0.008389717 0.028157044
-0.0073863678 -0.051045951 0.028444905
-0.027654409 -0.041956957 0.028587837
-0.042427298 -0.0057935659 0.028607178
-0.043742619 0.0015775226 0.029161651
-0.038945939 -0.018821038 0.029673535
-0.038369652 -0.023939567 0.029711116
0.00090495963 -0.049060471 0.029859889
-0.016903568 -0.046864349 0.029998738
-0.020909866 -0.044212237 0.030300785
-0.039971005 -0.014728844 0.030559648
-0.014155344 -0.049314469 0.030733723
-0.0055857683 -0.050021935 0.031163473
-0.04320981 -0.0039240196 0.031348187
-0.039836228 -0.011378816 0.031441052
-0.0033095335 -0.04919773 0.031535942
-0.044251673 -0.00028100051 0.031588007
-0.00935061 -0.048512846 0.031631459
-0.035230823 -0.03477579 0.031731356
-0.040968351 -0.0078087533 0.031735767
-0.027020963 -0.042213451 0.032448817
-0.036712386 -0.030746803 0.03249817
0.0032501146 -0.047427252 0.032505143
-0.037794311 -0.026245814 0.032658655
-0.031081637 -0.038993701 0.032702316
-0.022424515 -0.043563455 0.033100981
-0.040900826 -0.010795482 0.033686746
-0.00017010188 -0.047160283 0.033732224
-0.034072507 -0.038009923 0.033841629
-0.039553609 -0.014728775 0.034434158
-0.044408839 0.0085175382 0.034911025
-0.039040841 -0.018511543 0.034954626
-0.046953518 0.0047024367 0.035076458
-0.0086642243 -0.04772592 0.035154242
-0.035039037 -0.036388785 0.035191823
-0.016534593 -0.04676896 0.035200793
-0.013254414 -0.048809912 0.03526004
-0.04514198 0.0015964648 0.035376597
-0.0048076166 -0.047526069 0.035626967
-0.043287177 -0.003312381 0.035659481
-0.041701883 -0.0068692751 0.035758246
-0.028783664 -0.038760453 0.036026169
0.0074043181 -0.045455907 0.036402214
-0.025937779 -0.04113093 0.036690373
-0.036516346 -0.029530689 0.036706287
-0.02156787 -0.043696184 0.036826719
-0.039369397 -0.021375421 0.036911506
-0.040609904 -0.0087862294 0.037248272
-0.037918922 -0.025470518 0.03727122
-0.039970517 -0.012722655 0.037304509
-0.018454481 -0.045570962 0.037566055
-0.0087836804 -0.04746158 0.038138617
-0.04286734 -0.0041948017 0.038372476
0.0016595395 -0.044900633 0.038396049
0.0051965229 -0.04354405 0.038663913
-0.03069167 -0.038352359 0.039033402
-0.034339108 -0.035574619 0.039148349
-0.036632612 -0.031421319 0.03936081
-0.0027294317 -0.04591668 0.03937145
-0.026564484 -0.041162327 0.039942104
-0.0071380045 -0.046292145 0.040156413
-0.013737743 -0.048025016 0.04021408
-0.015762255 -0.04609951 0.04037394
-0.046552513 0.0064552082 0.040421356
-0.040896147 -0.014956221 0.040548135
0.0081693521 -0.043705504 0.040641118
-0.044097692 0.0026951162 0.040679205
-0.039058812 -0.019566763 0.040816475
0.0065189283 -0.042538013 0.040893484
-0.020577259 -0.043652903 0.041435111
-0.037404124 -0.024338812 0.041507889
-0.042307112 -0.0024976996 0.041641433
-0.041649979 -0.0080803065 0.042582739
-0.00037739612 -0.044166785 0.042973626
-0.0092069181 -0.046478327 0.043008555
0.0058566201 -0.046761934 0.043468583
-0.026302997 -0.041217994 0.043558527
-0.019675551 -0.042868759 0.043834854
-0.036036842 -0.029921532 0.043959964
-0.037216615 -0.02489968 0.044304419
-0.03405882 -0.035185348 0.044315327
-0.030606318 -0.0389839 0.044443268
-0.043843597 0.0031589456 0.044456143
-0.040848795 -0.014030765 0.044729758
0.011748519 -0.045340657 0.044880796
-0.015520403 -0.045446787 0.045067001
-0.038917053 -0.018489426 0.045122404
-0.012501125 -0.04674628 0.045334209
-0.045215845 0.0077245859 0.045549501
0.0026572077 -0.04417374 0.04586928
0.0082809795 -0.044423908 0.045878608
-0.042661201 -0.0097850887 0.046070863
-0.042635757 -0.0018918235 0.046382595
-0.043556996 0.003507006 0.046494056
-0.0088655679 -0.046531845 0.046893198
-0.031853888 -0.038434066 0.047056127
-0.035336968 -0.034355577 0.047086198
-0.039023057 -0.021049563 0.047248948
-0.037486602 -0.024227366 0.047670145
-0.025548734 -0.041801952 0.047710884
-0.021903532 -0.043732651 0.047931809
-0.040672902 -0.013586646 0.048505533
-0.036902275 -0.028631754 0.048506696
-0.042750407 -0.0089875236 0.048640121
-0.043043055 0.0094288243 0.049226154
-0.01264824 -0.047276963 0.050528038
-0.042784825 0.0039090952 0.050629307
-0.045619339 -0.0017605517 0.050641883
-0.0445044 -0.0057074735 0.050656755
-0.013500492 -0.04673085 0.050676752
-0.042349029 0.0067752218 0.05078556
-0.036558852 -0.030260555 0.050864477
-0.028124075 -0.041745286 0.051033724
-0.035103444 -0.034844346 0.051097799
-0.031845056 -0.039031509 0.051187325
-0.037644714 -0.023570202 0.051284213
-0.039235905 -0.018976104 0.051383305
-0.024244525 -0.042684909 0.051451582
-0.017536648 -0.046499245 0.051712859
-0.022321384 -0.044234913 0.051873792
-0.043127194 -0.011139853 0.052128572
-0.040910169 -0.015083699 0.052231301
-0.042254832 0.010536742 0.052262504
-0.044376254 0.0056963293 0.053851683
-0.044274937 -0.0032665031 0.054080624
-0.021941146 -0.044418972 0.054417063
-0.038966637 -0.022418182 0.054574121
-0.034809187 -0.034302961 0.054752905
-0.019374091 -0.046614785 0.054801155
-0.045559816 -0.00010555144 0.054869283
-0.026814248 -0.041774347 0.055080403
-0.038802478 -0.026820552 0.055091251
-0.037203766 -0.03091253 0.055244494
-0.030986754 -0.038495596 0.055418123
-0.039430719 -0.019475244 0.055804748
-0.04442884 -0.0060671875 0.055886883
-0.016444042 -0.047830518 0.056060631
-0.04281896 -0.010073762 0.056128938
-0.041108713 -0.014954185 0.05643611
-0.044970799 0.0076514101 0.056450654
-0.012025941 -0.048613153 0.056641985
-0.034745175 -0.035967056 0.058183361
-0.037961785 -0.031760931 0.05826937
-0.039564382 -0.028593618 0.058666337
-0.019043781 -0.047007326 0.058727849
-0.02401381 -0.041755043 0.058942009
-0.03157695 -0.03909453 0.058955122
-0.040002789 -0.02087244 0.058970261
-0.046095092 0.0055137919 0.0589916
-0.021733515 -0.043896936 0.059041638
-0.044528496 0.0017483411 0.059069533
-0.045979045 0.009349986 0.059274573
-0.016067898 -0.049279694 0.05931269
-0.039193135 -0.025204118 0.059442151
-0.04143187 -0.016226448 0.059472818
-0.043250978 -0.0039612893 0.060088772
-0.028554736 -0.041217778 0.060447086
-0.038528252 -0.027742181 0.060952891
-0.030689094 -0.038324393 0.061319876
-0.042931039 -0.0012740428 0.061376084
-0.037259616 -0.03102066 0.061492283
-0.042193361 -0.009210933 0.061540712
-0.0098940143 -0.048839431 0.061833549
-0.034517087 -0.035462223 0.061846334
-0.038289133 -0.023334567 0.062449951
-0.023550419 -0.041106977 0.06248923
-0.040393926 -0.020035829 0.062994286
-0.046019427 0.0070583364 0.063134238
-0.04173195 -0.01504422 0.063138112
-0.044557158 0.0034725815 0.063158527
-0.011910913 -0.048460834 0.063428447
-0.020473186 -0.043551538 0.063507512
-0.0079881437 -0.05025981 0.063534722
-0.017259121 -0.047414191 0.06407012
-0.029699124 -0.038418848 0.064558163
-0.034421019 -0.035124961 0.064627334
-0.026529316 -0.040958755 0.065085605
-0.0090167532 -0.048613358 0.065367863
-0.038502768 -0.025505994 0.065378532
-0.04403732 0.0018698778 0.065415964
-0.04170737 -0.0064723752 0.065440819
-0.042468827 -0.0027396875 0.0655763
0.0094363391 -0.045252498 0.065681204
-0.03689044 -0.030129272 0.065707132
-0.040606264 -0.020825217 0.065941498
-0.0055839363 -0.048602976 0.06609349
-0.049075618 0.0099723516 0.066107079
-0.045707587 0.0057940232 0.066151276
-0.022174509 -0.042924214 0.066439465
-0.046249557 0.0086571826 0.06647487
0.0051411781 -0.044461012 0.066959515
-0.041913006 -0.009112386 0.067557886
-0.010034651 -0.047705155 0.067804769
-0.04159005 -0.013838029 0.067926183
-0.036843739 -0.032126475 0.068475291
-0.029133026 -0.041717578 0.068584636
-0.014706145 -0.046441115 0.068705156
0.01436894 -0.045178913 0.068876579
-0.036040578 -0.035900675 0.069079056
-0.04567077 0.0067585716 0.069118574
-0.025805889 -0.041705757 0.069320396
-0.032890841 -0.039546583 0.069524243
0.0090801232 -0.044988278 0.069674894
-0.018551743 -0.045508817 0.069799438
-0.021254454 -0.043602541 0.069918081
-0.038885742 -0.025046322 0.069986388
-0.040869016 -0.020081937 0.070180073
-0.044427533 0.0024574781 0.07035251
-0.042064816 -0.015963886 0.070672169
-0.043087989 -0.0011339504 0.070695356
0.0032974835 -0.044959854 0.071679935
-0.012910552 -0.046069808 0.071844086
-0.026795389 -0.042386174 0.072198674
-0.043086026 -0.0038273484 0.072363183
0.014791911 -0.044517044 0.072485611
-0.038103577 -0.031134598 0.072490022
-0.036779039 -0.035067163 0.072550401
-0.0090329545 -0.046791755 0.072630331
-0.042376671 -0.0081005543 0.072739199
-0.033215716 -0.039604668 0.073273793
-0.0030826512 -0.046355665 0.073336348
-0.039504405 -0.026119009 0.073424354
-0.044934843 0.0077240271 0.073525742
-0.044944216 0.0042736959 0.074143812
-0.030996891 -0.042222016 0.074223384
-0.04105458 -0.018449232 0.074274912
-0.035805054 -0.035657138 0.074302301
-0.041632291 -0.013975129 0.074447557
0.011472896 -0.044100419 0.074488685
-0.016223591 -0.04595444 0.074914828
-0.032793593 -0.039183959 0.074919984
-0.042169321 -0.010079755 0.075427219
0.0030801501 -0.044634379 0.075573489
0.0079794265 -0.04389507 0.075628892
-0.025673827 -0.042275701 0.075875923
-0.019521762 -0.045398947 0.075912192
-0.04431672 0.0018360615 0.075930342
-0.042510375 -0.001891579 0.076062456
-0.03846962 -0.030315358 0.076224223
0.012807483 -0.045176789 0.076302335
-0.041093778 -0.021916989 0.076833829
-0.039878666 -0.02636515 0.076834813
-0.022495404 -0.044425853 0.076945797
-0.0086493539 -0.047038335 0.07741563
-0.041624133 -0.017822705 0.077502802
-0.043290768 0.010388481 0.077640548
-0.041724883 -0.0054312255 0.077785179
0.013991285 -0.045343835 0.077905431
0.011483978 -0.043651208 0.078276142
-0.037429273 -0.031751074 0.07843627
-0.028695058 -0.042023093 0.078530118
-0.042472038 -0.00061158184 0.078584388
-0.035111394 -0.035877533 0.07883428
-0.03275333 -0.039753839 0.078904763
-0.041037194 -0.01319482 0.079027697
-0.041650843 -0.0091734044 0.079085156
-0.039543558 -0.027978294 0.079109028
-0.043295152 -0.0041651325 0.079893485
-0.046194181 0.0055120382 0.080035493
-0.012096509 -0.047194231 0.080104455
-0.044574033 0.002064649 0.080790326
-0.03990205 -0.024642702 0.080811635
0.010290062 -0.043669071 0.080963328
-0.041210454 -0.016408632 0.081173316
-0.017192846 -0.046484847 0.081183091
0.013351096 -0.046310183 0.081325993
-0.041584473 -0.020904686 0.081948891
-0.021945933 -0.044698972 0.082039192
-0.035090979 -0.035757467 0.082373574
-0.033161491 -0.040562596 0.083101109
-0.045123048 0.00015522726 0.083131686
-0.040158305 -0.022539485 0.083157733
-0.026815446 -0.041832455 0.083169356
-0.037646279 -0.030869972 0.083200917
-0.039302886 -0.026332844 0.083243504
-0.023726935 -0.043010164 0.083396301
-0.042791553 -0.0076870807 0.083618566
-0.043387707 -0.0039025266 0.083699599
-0.010341167 -0.047272976 0.083846882
0.014869079 -0.04634688 0.084136918
0.011634421 -0.042849217 0.084406152
-0.045884311 0.00662426 0.084919497
-0.044851933 0.003618259 0.084940866
-0.012862592 -0.047496941 0.085731432
-0.044249911 -0.014577034 0.086091027
-0.04385021 -0.010797167 0.08609955
-0.016462225 -0.046884008 0.086403355
-0.04574104 0.0052809324 0.086692974
-0.040454444 -0.025413699 0.086945787
-0.037167851 -0.036519021 0.087111488
-0.033878207 -0.040565234 0.087144896
-0.023240017 -0.04470088 0.087335274
-0.044275526 0.0016773827 0.087407872
-0.038953289 -0.032528646 0.087524518
-0.042409834 -0.020797953 0.08755888
-0.043506611 -0.016608456 0.087642208
0.013674028 -0.045366604 0.087757275
0.011860702 -0.043339483 0.08779572
-0.043031614 -0.0025936905 0.088320211
-0.019346368 -0.046529382 0.088935599
-0.044712115 0.0082602473 0.089350685
-0.027700193 -0.042415328 0.089581534
-0.042375207 -0.022587646 0.089956209
0.011607669 -0.044226356 0.090059593
-0.044044755 -0.009256389 0.090540454
-0.040343788 -0.032046683 0.090699956
-0.023772553 -0.04523864 0.090706572
-0.041454993 -0.027560297 0.090846881
-0.010500213 -0.048552517 0.090953335
-0.038796034 -0.035093561 0.09104307
-0.043909084 -0.0049848072 0.091197297
-0.0435098 0.0029139696 0.091398224
-0.04534797 0.0071836011 0.091586843
-0.04291803 -0.019367918 0.091751382
-0.042500485 -0.014979947 0.092266664
-0.033630658 -0.040123582 0.092366144
-0.017302707 -0.047473993 0.092559472
-0.043648493 -0.010870919 0.092761502
-0.013481788 -0.048051111 0.092764691
-0.03729343 -0.037000429 0.092957243
-0.03950581 -0.033243939 0.093770966
-0.020593543 -0.047024209 0.09391813
-0.034313776 -0.038100459 0.094142124
-0.041219179 -0.030221172 0.094247535
-0.042538647 0.01216575 0.094259396
-0.042217989 -0.021729328 0.094448164
-0.043956656 -0.0074902689 0.094448373
-0.041768163 -0.025987294 0.094646797
-0.023555649 -0.045421422 0.094699368
-0.027299399 -0.041880205 0.094725236
-0.044634309 -0.0034554033 0.094906256
-0.044027358 0.003924028 0.095106885
-0.044603806 0.0088400031 0.095847145
-0.044791926 0.015052418 0.096117333
-0.04467421 0.00047986023 0.096270606
-0.042909812 -0.0089537259 0.096638337
-0.041735094 -0.013809108 0.097122595
-0.042010862 0.014846387 0.097179964
-0.041140441 -0.029073924 0.097278103
-0.04640948 0.005689688 0.097304687
-0.012841899 -0.049391095 0.097421095
-0.032658566 -0.039341722 0.097422823
-0.045267418 -0.0049302848 0.097959265
-0.040554296 0.013748287 0.097962931
-0.045317207 0.014867601 0.098247215
-0.039893162 -0.033022236 0.09834145
-0.044379327 0.0029195594 0.098349229
-0.041024674 -0.025665633 0.098538414
-0.037019663 -0.036997154 0.098727778
-0.041673694 -0.020972792 0.098950222
-0.005837569 -0.048965469 0.099011317
-0.023688739 -0.045256693 0.099165723
-0.01901586 -0.047515064 0.099180862
-0.027331499 -0.041409034 0.099305972
0.0078070415 -0.047206338 0.099790916
-0.041250627 -0.016573375 0.099848732
-0.015222085 -0.048221719 0.10000469
-0.044477407 -0.0016656471 0.10011019
-0.043882001 0.0097198347 0.10108016
-0.04364698 -0.0038245022 0.10127829
-0.042600933 -0.0078284983 0.10141812
-0.034571946 -0.037488081 0.10155438
-0.0098046008 -0.048431057 0.10157911
-0.040928073 -0.023299977 0.10159878
-0.040724207 -0.027190257 0.10166983
-0.031835683 -0.039162725 0.10173564
0.0053387815 -0.047013991 0.10180311
-0.0063273283 -0.048896044 0.10198627
-0.039832354 -0.032096416 0.10226773
-0.045263659 0.0068297992 0.10230865
-0.027598366 -0.041211013 0.10261492
-0.024376228 -0.045268409 0.10267304
0.010407865 -0.047397446 0.10281678
-0.0015244023 -0.048056908 0.10303546
-0.044652473 0.0031309044 0.10311063
-0.013469521 -0.048182368 0.10317723
-0.043051619 -0.011779146 0.10334916
-0.041718643 -0.015516793 0.10346575
-0.016137954 -0.047324479 0.10381286
-0.041009314 -0.019601166 0.10388331
-0.029388897 -0.040097654 0.10429846
-0.037790287 -0.036860611 0.1045381
-0.0048328605 -0.048386294 0.10481869
-0.034132391 -0.039507013 0.10507153
-0.040190287 -0.032923784 0.10512643
-0.024731865 -0.045685656 0.10523699
-0.041578159 -0.029354919 0.10534517
-0.040947694 -0.02214554 0.10540019
-0.043489028 -0.0024720151 0.10550465
0.0064535048 -0.046946369 0.10553823
-0.026924333 -0.043138471 0.10556702
-0.020584583 -0.047191087 0.105693
-0.039981171 -0.025126584 0.10589854
-0.044268239 0.0046775471 0.10634233
-0.0011527892 -0.047440406 0.10652195
-0.043877508 -0.00022544432 0.10659139
-0.043717332 0.0085308971 0.10670622
0.0092575513 -0.048892777 0.10674496
-0.0083871111 -0.047502037 0.10697709
-0.040837973 0.012167024 0.10703109
-0.040408835 -0.01838363 0.10756107
-0.044313613 -0.0060505057 0.10782693
-0.01226574 -0.047578745 0.10824324
-0.04043952 -0.028364856 0.1084172
0.0037694257 -0.046440933 0.10846107
-0.044122759 -0.010465691 0.10848562
-0.042293895 -0.015117148 0.10861842
-0.028484445 -0.042739827 0.10897534
-0.003233646 -0.047091268 0.10934649
-0.033674099 -0.040101316 0.10941173
-0.040362261 -0.032199208 0.10943429
-0.025095345 -0.046510376 0.10948373
-0.039516546 -0.024362829 0.10950916
-0.044081453 0.0061027119 0.10966389
-0.03776614 -0.036558159 0.10977657
-0.043885652 -0.0020139795 0.10988437
0.0045436705 -0.045833565 0.10994156
-0.017830528 -0.047589526 0.11003183
-0.044012714 0.0022663064 0.11003239
-0.040199161 -0.020285752 0.11010073
-0.043392893 0.0097258491 0.11036785
0.0080893459 -0.04543246 0.11061023
0.011132717 -0.048296347 0.11064528
-0.041894119 -0.015942786 0.11110522
0.006563806 -0.042553008 0.11127613
-0.0099236015 -0.04716704 0.1117412
-0.0030597877 -0.045853585 0.11233826
-0.044105101 -0.0039961925 0.11234619
-0.043671232 -0.0094202366 0.1125332
0.00041176379 -0.044509161 0.11276992
-0.035824645 -0.037051253 0.11297609
-0.047639959 0.01031734 0.11341976
-0.031833272 -0.03938305 0.11342968
-0.040339738 -0.031126272 0.1134461
-0.027671192 -0.04205291 0.11355151
-0.024608696 -0.046159707 0.11367176
-0.040553831 -0.026583642 0.11373024
-0.045482583 -0.00065431558 0.1137623
-0.040297724 -0.019244092 0.11379753
-0.046246648 0.0071079126 0.11382584
-0.017958624 -0.048199866 0.11394782
0.012409247 -0.047573835 0.1142226
-0.041605156 -0.01445749 0.11432935
0.0097673647 -0.044386245 0.11433892
-0.021156929 -0.047958676 0.1149001
0.0084143728 -0.041075252 0.11502884
-0.044884823 -0.0063004084 0.11506306
-0.043435067 -0.0099596269 0.11510806
-0.033657029 -0.03882264 0.11521314
-0.03688702 -0.036322013 0.11522372
-0.03929098 -0.03325941 0.11552261
-0.013494503 -0.048091456 0.11559172
0.0014912048 -0.042892534 0.1157596
-0.040292092 -0.029515337 0.11606868
0.01052637 -0.041722953 0.11642934
-0.046373125 -0.0030390192 0.11652724
-0.045801852 0.0014663907 0.11702435
-0.04489252 0.010328346 0.11723287
-0.040374037 -0.02480112 0.11729528
0.0084997024 -0.04539454 0.11736803
-0.028187549 -0.041941825 0.11737262
-0.030804075 -0.039521456 0.11755838
-0.048379757 0.0050106682 0.11783139
-0.025426742 -0.045668256 0.11794688
0.010158384 -0.047691192 0.11807565
-0.02042257 -0.048353504 0.11808799
-0.041350141 -0.021323059 0.11811517
-0.036165468 -0.036683019 0.11850126
-0.042343859 -0.013188542 0.11854441
-0.045466229 -0.004570486 0.11872812
-0.015967894 -0.048458714 0.11893003
-0.043391973 -0.0090790959 0.11902742
-0.039522037 -0.032364037 0.11972509
-0.040765185 -0.028021351 0.11975612
-0.02876346 -0.04196037 0.1203119
0.0042064032 -0.042796351 0.1205086
-0.02536816 -0.046225622 0.12055211
-0.033538997 -0.039623313 0.1206464
-0.02276694 -0.048194624 0.12098791
-0.042342693 -0.020325176 0.12102406
0.012066297 -0.047022298 0.12144016
0.0078332778 -0.044345569 0.12166642
-0.046816327 0.002228884 0.121774
-0.04896016 0.0059896968 0.1219254
-0.043318402 -0.01639092 0.12193267
-0.038070854 -0.037446581 0.12204419
-0.017302129 -0.048841912 0.12220381
0.0075048525 -0.046670787 0.12235866
-0.039744146 -0.03349134 0.12244208
0.0036391709 -0.042874295 0.12256448
-0.044317972 -0.0031955764 0.12332629
-0.043102905 -0.0077038305 0.12337615
-0.045858487 0.0011364287 0.12342261
-0.048434101 0.0051010614 0.1236857
-0.033058546 -0.040168375 0.12392651
-0.020920672 -0.048409447 0.12412952
-0.041779596 -0.021958776 0.12424047
0.013020108 -0.046342887 0.12434123
-0.040279243 -0.026697461 0.12448372
-0.029400546 -0.043416467 0.12472983
-0.013875275 -0.048559338 0.12474208
-0.047434323 0.0092659323 0.12478082
-0.025461048 -0.046368554 0.12500383
-0.043046705 -0.018389065 0.12501447
0.0090251425 -0.044512998 0.12507807
-0.0394454 -0.030569166 0.12523179
-0.04313232 -0.01439186 0.12547229
-0.038832247 -0.032820679 0.12562738
-0.033097602 -0.039948113 0.1262209
-0.043363549 -0.010726568 0.1262769
-0.038523633 -0.036989331 0.12635405
0.010650059 -0.046353962 0.12691347
-0.029588401 -0.043626558 0.12738933
-0.019658178 -0.048610438 0.12744354
-0.043792155 -0.0020851865 0.12766455
-0.047842581 0.0057250205 0.12790744
-0.038972832 -0.038341518 0.12800916
-0.046245411 0.0014085118 0.12805019
0.0066785943 -0.046440296 0.12811892
-0.04941722 0.0082590384 0.12839787
-0.040460736 -0.025926802 0.12844057
-0.041636847 -0.020920133 0.12865292
-0.043557327 -0.016996771 0.12907077
-0.037289638 -0.034289949 0.12916367
-0.015926413 -0.049801748 0.12964641
-0.043976974 -0.0090576448 0.12995635
-0.039673287 -0.030907732 0.13011061
-0.044163872 -0.0049317591 0.13032942
-0.025269005 -0.04662269 0.13046442
-0.033003196 -0.039412171 0.13075052
-0.029247083 -0.043060891 0.13076578
-0.021565191 -0.04929781 0.13092767
-0.040709306 -0.026700951 0.13116385
-0.041945886 -0.023085684 0.13134415
-0.046287313 0.0023605833 0.13169344
-0.043099917 -0.011734445 0.13245298
-0.046247769 0.0065372577 0.13246934
-0.018226955 -0.050087672 0.13283794
-0.038248647 -0.037399065 0.1329615
-0.040355954 -0.033762556 0.13306175
-0.043021794 -0.015376559 0.13311876
-0.01468812 -0.050637878 0.13312201
-0.042504147 -0.019951466 0.13313507
-0.034060672 -0.039772984 0.13319837
-0.041030705 -0.025801115 0.13428931
-0.043756954 -0.0086335437 0.13429697
-0.046488978 0.00016444828 0.13435422
-0.045045931 -0.0044626659 0.13462307
-0.028740803 -0.043602731 0.13496684
-0.012106031 -0.052172743 0.1351531
-0.020742115 -0.049049668 0.13536654
-0.04281095 -0.021894591 0.13552447
-0.04326101 -0.017521966 0.13576753
-0.025452089 -0.046130527 0.13581751
-0.016097412 -0.051400241 0.13614957
-0.032874115 -0.038759902 0.13618837
-0.029712886 -0.042041972 0.136667
-0.045486685 0.0080535328 0.13674591
-0.044239674 -0.006032682 0.13681994
-0.042709827 -0.0096261175 0.13725834
-0.041297093 -0.028021496 0.13736041
-0.039989661 -0.032616865 0.13737173
-0.04288071 -0.025034156 0.13753442
-0.041988753 -0.013538192 0.1380146
-0.012847301 -0.052239604 0.13810377
-0.037613615 -0.036416426 0.13881235
-0.025398359 -0.044771712 0.13906221
-0.042836174 -0.016949225 0.139109
0.0027845986 -0.049230341 0.13913752
-0.019932911 -0.048783164 0.13915972
-0.042578451 -0.01954608 0.13931678
-0.046555828 0.00079934672 0.13944285
-0.04680546 0.0053899381 0.13960306
-0.015312224 -0.050961107 0.13967426
-0.045011964 -0.0022372473 0.13973753
0.0097437706 -0.049202364 0.13986091
-0.044362083 -0.0048109936 0.1401775
-0.04232984 -0.022985905 0.14071138
-0.040537365 -0.027206652 0.14097087
0.0053389445 -0.049043998 0.14108588
-0.024515811 -0.045265455 0.14123182
-0.0069510173 -0.050491646 0.14136563
-0.042636842 -0.012618458 0.14158811
-0.042526111 -0.0081007127 0.14165159
-0.021008726 -0.04822908 0.14176612
-0.028218234 -0.042212315 0.14194773
-0.031597313 -0.038837634 0.14210923
-0.035092801 -0.036272317 0.14268394
-0.038976863 -0.031729914 0.14306135
-0.042661905 -0.015467299 0.14319198
0.0010082577 -0.049071863 0.14324741
-0.047657069 0.0071773464 0.14334296
0.011680711 -0.047692504 0.14351217
-0.0025928221 -0.049080625 0.14368029
-0.013661323 -0.050326582 0.14395039
-0.0041110194 -0.048526995 0.14458473
-0.046215769 0.0014470508 0.14461218
-0.047870774 0.0051239859 0.1448033
-0.039755262 -0.026337363 0.1450022
0.0068000127 -0.047448307 0.14520119
-0.038338732 -0.036180746 0.14521818
-0.044503491 -0.012412166 0.1456726
-0.020301465 -0.048068456 0.14574622
-0.044358749 -0.0034883004 0.14592247
-0.024552448 -0.046026036 0.14592622
-0.043952368 -0.0070530605 0.14601277
-0.04357481 -0.017246235 0.14612935
-0.042563066 -0.021854147 0.14626442
-0.038760804 -0.029511608 0.14638041
-0.016524106 -0.049464412 0.14658393
-0.030553462 -0.040166315 0.14659663
0.011028066 -0.047585767 0.14731406
-0.047220074 0.0084641771 0.14742719
0.0028351946 -0.0472003 0.14771558
-0.010940759 -0.049512554 0.14812516
-0.044799443 -0.0089901285 0.148156
0.0082698986 -0.046027806 0.14862572
-0.037104048 -0.03631952 0.14882509
-0.00020020036 -0.047098503 0.14914618
-0.0029344186 -0.04730399 0.14936332
-0.030866919 -0.043896511 0.14936878
-0.040197827 -0.032248531 0.14945827
-0.046891116 0.006814477 0.14952581
-0.034325905 -0.039873462 0.14961313
-0.042474888 -0.027522534 0.14963658
-0.018773029 -0.049390677 0.14988752
-0.04515072 -0.012097744 0.14995293
-0.044051278 -0.001251393 0.15003695
-0.045081168 0.0024465024 0.15010314
-0.044023398 -0.024500243 0.15023892
-0.027441548 -0.047195412 0.15024556
-0.044040434 -0.016827274 0.15053032
-0.015954372 -0.050064471 0.15102218
-0.04292367 -0.019793928 0.15145706
-0.010068527 -0.049071811 0.15179594
-0.039794378 -0.036350232 0.1518826
-0.044650622 0.010511124 0.15222643
-0.044573698 -0.0039850604 0.15287621
0.0035329238 -0.047155276 0.15291928
-0.040231254 -0.031012934 0.15307941
-0.043557741 -0.022512328 0.15342475
-0.021778366 -0.04946189 0.15364264
-0.029899476 -0.043134779 0.15371235
-0.042802878 -0.027065121 0.15382324
-0.033182584 -0.038983926 0.15393732
-0.035122424 -0.036257263 0.15405796
-0.02648278 -0.046598613 0.1540734
-0.046036534 0.0077407239 0.15415411
-0.045470472 -0.017170906 0.15421365
-0.044733476 -0.010787472 0.15426956
-0.0062593017 -0.049519807 0.1544029
-0.045627821 -0.0073486846 0.15459897
-0.044988886 0.0051179864 0.15506972
-0.040437642 -0.033505853 0.15512876
0.002265607 -0.047585372 0.15516584
-0.043390848 -0.014585514 0.15549715
-0.038934283 -0.036372136 0.15604399
-0.031034568 -0.04229793 0.15610145
-0.034409501 -0.039440211 0.15637551
-0.042735945 -0.029914346 0.15646444
-0.014878418 -0.050054751 0.15657638
-0.044585206 0.009550008 0.15661766
-0.045051441 -0.0027965503 0.15692915
-0.045324344 0.0010408526 0.15700249
-0.0015550009 -0.047542885 0.1571018
-0.043537062 -0.025458109 0.1573946
-0.025045473 -0.045872603 0.1574647
-0.0055588698 -0.048750706 0.15758909
-0.0091214608 -0.049735535 0.15791611
-0.044899389 -0.017255433 0.15795918
-0.043281887 -0.021335831 0.15811323
-0.047204632 0.0059638508 0.15816264
-0.021274481 -0.048863534 0.15843467
-0.044481114 -0.0095768487 0.15864383
-0.014776356 -0.050871838 0.15886147
-0.041456882 -0.024029173 0.15911724
-0.045399386 -0.0055548036 0.1592171
0.0021084808 -0.04795219 0.15922688
-0.042582255 -0.028539587 0.15960811
-0.040650323 -0.032906175 0.15987413
-0.026458172 -0.045909971 0.1600648
-0.035758767 -0.0370824 0.16020916
-0.033705994 -0.040338062 0.16024984
-0.029964924 -0.043421555 0.1605535
-0.047629979 0.0019063121 0.16098817
-0.040637255 -0.023313254 0.16136073
-0.0033139875 -0.047505487 0.16157959
-0.014913178 -0.049466748 0.1617469
-0.047636423 0.0059845904 0.16182755
-0.045897756 -0.011438224 0.16240393
-0.043022741 -0.019304626 0.16240565
-0.01916367 -0.04861385 0.16262783
-0.045027055 -0.016111897 0.16265719
-0.045906238 0.00090290606 0.16274069
-0.039402392 -0.036428638 0.16275458
0.0004488714 -0.047667537 0.1628191
-0.044759668 -0.0030734846 0.16311549
-0.010748648 -0.048097264 0.16329066
-0.041063175 -0.033510849 0.16340743
-0.043094441 -0.029430319 0.16345678
-0.034097455 -0.041333843 0.163738
-0.0065028891 -0.047579259 0.16378753
-0.028374113 -0.0446846 0.1638114
0.00386474 -0.046809863 0.1638435
-0.026116196 -0.0468092 0.16385619
-0.022515113 -0.048300013 0.16391043
-0.043014206 -0.022545919 0.1640894
-0.041585173 -0.025495294 0.16475125
-0.00034658937 -0.045891792 0.1652941
-0.047892798 0.0061100945 0.16540949
-0.043973248 -0.015182443 0.16566475
-0.04226891 -0.01802762 0.16585205
-0.0060133329 -0.047022432 0.16617881
-0.046244048 -0.01036315 0.16671373
-0.046958193 -0.0066227363 0.16671444
-0.013608729 -0.04833892 0.16675733
-0.043352269 -0.02923343 0.16696374
0.0015898868 -0.044595171 0.167147
-0.038283102 -0.03672687 0.1673011
-0.035086855 -0.040570822 0.16731133
-0.031524986 -0.043967966 0.16733752
-0.026656846 -0.047097106 0.16738336
-0.045203079 -0.0019900016 0.16739516
-0.048083253 0.0061526541 0.1674348
-0.042044107 -0.033193428 0.16751565
0.005771718 -0.044133961 0.16771345
-0.046246506 0.0013626935 0.16779916
-0.008084815 -0.04787907 0.1686845
-0.046014614 -0.013549965 0.16875802
-0.020621549 -0.048883449 0.16876929
-0.044262469 -0.017023534 0.16878258
-0.042198539 -0.021789141 0.16878296
-0.041114435 -0.024809036 0.16882832
-0.050469253 0.0087498156 0.16902851
-0.044620808 0.010580237 0.16972505
-0.046247214 -0.0083519556 0.16997884
-0.034837976 -0.040071342 0.17059927
-0.031657148 -0.043918218 0.17061509
-0.012405497 -0.049067248 0.17097495
0.0078147762 -0.045489881 0.17102666
-0.047285277 -0.0049510635 0.17124014
-0.041798145 -0.020125907 0.17143475
-0.037752364 -0.035972863 0.17149319
-0.041256204 -0.031671669 0.17157643
-0.04632723 0.0021288889 0.171602
-0.026762547 -0.046674151 0.1716537
-0.04662291 0.0062413644 0.17173563
-0.04268451 -0.027623527 0.17183881
-0.022378091 -0.048547424 0.17206083
-0.0021528332 -0.047023118 0.17219959
-0.044180725 -0.016350117 0.17246287
-0.046309978 -0.012080332 0.17257099
-0.018444266 -0.049411055 0.1726533
-0.047836643 -0.0083958171 0.17331426
-0.037135877 -0.038263369 0.17339881
-0.040283103 -0.033833835 0.17341571
-0.031879351 -0.044678651 0.1734383
-0.034620024 -0.041531432 0.17346208
-0.036118999 -0.034651887 0.17490794
-0.016270109 -0.050443769 0.17491065
-0.041003179 -0.029882651 0.17513703
0.0043046661 -0.046431463 0.17522611
-0.017465957 -0.050447013 0.17522721
-0.042440422 -0.026494298 0.17545222
-0.0069177421 -0.048321083 0.17547737
-0.047762569 0.00080212299 0.1755452
-0.046376724 0.0059172651 0.17559727
-0.043823861 -0.021902598 0.17583068
-0.045055795 -0.017207116 0.1761537
-0.025707439 -0.046686564 0.1762162
-0.022115484 -0.048928201 0.17632936
-0.047248151 -0.013275292 0.17655177
-0.04933355 -0.0037970757 0.17674427
-0.012284955 -0.048303243 0.17686729
-0.04752858 -0.0065777125 0.17688505
0.0040450953 -0.047799375 0.17690705
0.00021821773 -0.0448213 0.17695154
-0.039376181 -0.032542549 0.17702128
-0.044951696 0.0049675396 0.17718373
-0.036440007 -0.036718179 0.17738934
-0.034165986 -0.040830318 0.17748745
-0.0090948427 -0.047385521 0.17757763
-0.030976245 -0.044614468 0.17783086
-0.042126354 -0.02804305 0.17789452
-0.026457641 -0.045749143 0.17827298
-0.046443298 -0.012916459 0.17856736
-0.045605984 -0.010437107 0.17867266
-0.0084140347 -0.044473391 0.17894439
-0.044221368 -0.01604189 0.17896251
-0.015886553 -0.046585206 0.17915817
-0.0052998788 -0.043178029 0.17917384
0.0016358579 -0.042444725 0.17958243
0.0055705141 -0.047265667 0.1796162
-0.046175133 0.0012222659 0.17969941
-0.043029763 -0.021040838 0.17974602
-0.034450177 -0.035994899 0.17993174
-0.0017381776 -0.040450372 0.18001156
0.0060362425 -0.044412561 0.18005703
-0.0023760586 -0.03471671 0.1801158
-0.048207629 0.003133337 0.18015437
-0.020915858 -0.046909515 0.18018441
-0.040965963 -0.027110402 0.18025099
-0.03715378 -0.019338116 0.18044583
-0.010962529 -0.042399831 0.18045174
-0.041624039 -0.014301588 0.18050294
-0.032148562 -0.032103136 0.18055014
-0.028873153 -0.029789437 0.18058296
-0.037722155 -0.031193353 0.18058865
0.0041027106 -0.041911718 0.18059681
0.00091651967 -0.032791883 0.1806335
-0.03606613 -0.021560896 0.18064795
0.0002591759 -0.037967768 0.18072663
-0.023700736 -0.0448361 0.18079619
-0.045466918 -0.0046815667 0.18092184
-0.047028754 -0.0019761007 0.1809545
-0.039568633 -0.024592862 0.18105899
-0.036265515 -0.016796205 0.18111043
-0.031885073 -0.039369851 0.18123089
-0.00054426352 -0.025792524 0.1812806
-0.0085196374 -0.025519311 0.18146013
-0.039830368 -0.013104873 0.18151261
-0.032643311 -0.019889958 0.18157212
-0.014621235 -0.025174949 0.18160997
-0.029814353 -0.035479918 0.18162827
-0.021028686 -0.027953189 0.18164705
-0.023226507 -0.025387611 0.18165551
-0.012436306 -0.021945715 0.18168585
-0.017423058 -0.021368161 0.18176745
-0.029514693 -0.01847247 0.18177061
-0.03390643 -0.013346322 0.18178745
-0.041538421 -0.0043516327 0.18179838
-0.036674604 -0.010158276 0.18180738
-0.027672293 -0.028952185 0.18182151
-0.016145632 -0.018268794 0.18183763
-0.042833995 -0.008797437 0.18184678
-0.028786873 -0.042903721 0.18190415
-0.033188656 -0.0070116031 0.18199022
0.0038423091 -0.035807416 0.18200131
0.001456867 -0.030003127 0.18201803
-0.016451627 -0.043413579 0.18207137
-0.0088440692 -0.019796167 0.18208633
-0.020688012 -0.017431999 0.18210267
-0.03615275 -0.02819423 0.18210702
-0.024825314 -0.01756518 0.1821271
-0.0063224551 -0.017653272 0.18218125
-0.030525135 -0.0053408761 0.18227212
-0.0080731055 -0.013432071 0.18231754
-0.012944777 -0.016314209 0.18237559
-0.032969795 -0.00092198793 0.1823846
-0.029458757 -0.023024105 0.18238623
-0.0050872159 -0.023904733 0.18245326
-0.037925385 -0.0039962139 0.18254308
0.0084924335 -0.042751104 0.18259536
-0.032516375 -0.026936863 0.18262415
-0.023639876 -0.032250542 0.18265505
-0.011814281 -0.010697592 0.18267198
-0.026609816 -0.034912489 0.18283384
-0.0039721471 -0.020775344 0.18283729
0.006421024 -0.039551925 0.18287663
0.0060668858 -0.033476654 0.1830072
-0.029260425 -0.0084283333 0.18304293
-0.044821411 0.0015795687 0.18309547
-0.00091487542 -0.013063952 0.18312256
-0.038417138 0.0016806452 0.18319936
-0.031110033 -0.011894636 0.18319987
-0.041911107 -0.00051792804 0.18324219
-0.012604197 -0.0041854964 0.18326913
0.00066871941 -0.019987537 0.18328719
-0.017201541 -0.012874408 0.18329744
-0.004859291 -0.0094429068 0.18334024
-0.010693183 -0.0069879023 0.1833813
-0.028173564 -0.015557746 0.18341295
0.008744467 -0.038675319 0.18343107
-0.0069853202 -0.005246778 0.18343358
0.010902232 -0.041319653 0.18344979
0.0016856939 -0.0170184 0.18347983
-0.026605323 -0.00042995438 0.18348871
-0.031942122 0.00081300084 0.18350606
-0.020535413 -0.041770462 0.18362145
-0.02279987 -0.035465702 0.18370475
-0.010194864 -0.00068794005 0.18371694
-0.024802294 -0.038877983 0.18391488
-0.022745186 -0.012227179 0.18395747
-0.027197773 -0.0044441465 0.1840115
-0.019657452 -0.0083770547 0.18412875
-0.029283296 0.0025390647 0.18422984
-0.025826253 -0.0077610356 0.18448393
-0.0044995882 -0.0031399401 0.18460093
-0.0079617016 0.0007602796 0.18464141
0.0014754878 -0.010503772 0.18466096
-0.0013997564 -0.0072457055 0.18469064
-0.025532996 0.0039327247 0.18476315
-0.035955444 0.0020514 0.18482493
0.0046044961 -0.0096248155 0.18490271
-0.017275646 -0.00090807956 0.18490995
0.0093846638 -0.038142387 0.18491544
0.0045031738 -0.015610927 0.18497376
0.0070353225 -0.012157153 0.18497996
0.0020920187 -0.022640746 0.18502842
-0.023591414 0.00018888246 0.18506353
-0.020949071 0.0033185752 0.18508132
0.0055604549 -0.034480285 0.1850953
0.0033361539 -0.028548371 0.18516253
-0.0012533776 -0.001129848 0.18517332
-0.0046502482 0.0028270567 0.18518607
0.0019433349 -0.0052005472 0.18523209
-0.021918798 -0.0027309582 0.18525876
-0.0130371 0.0027386602 0.18546848
0.0075539947 -0.030411348 0.18551694
0.0065406505 -0.037729647 0.18552949
0.0057145944 -0.0068229903 0.18642686
-0.0031964865 0.0028446503 0.18660419
0.0078816917 -0.010492602 0.18665121
0.00049268734 0.000494509 0.18690519
0.0034028245 -0.0025359541 0.18717657
0.0075702369 -0.0046378821 0.18731479
