# .PCD v0.7 - Point Cloud Data file format
VERSION 0.7
FIELDS x y z
SIZE 4 4 4
TYPE F F F
COUNT 1 1 1
WIDTH 1323
HEIGHT 1
VIEWPOINT 0 0 0 1 0 0 0
POINTS 1323
DATA ascii
0.033266842 0.028429747 0.17007732
0.029245198 0.029053032 0.16942343
0.036644578 0.025026917 0.1667029
0.033451736 0.028583467 0.16661724
0.016484737 0.022366285 0.18284535
0.014100432 0.024326503 0.18271115
0.035066783 0.0038233399 0.17943677
0.032996774 0.0078620911 0.17996445
0.030869901 0.012955487 0.18152657
0.028200626 0.01635921 0.18242577
0.021850884 0.018182993 0.18169937
0.020570278 0.023794174 0.18168667
0.016908884 0.027158737 0.18069473
0.01340735 0.028977334 0.17905957
0.036665857 0.0052865148 0.17562979
0.03568095 0.010322154 0.17626578
0.034439147 0.014438987 0.17788586
0.02220428 0.026904821 0.17920747
0.019938409 0.029128373 0.17670432
0.015406966 0.030245006 0.1753076
0.036101818 0.012360275 0.17162338
0.037087321 0.016862094 0.1715813
0.024758995 0.029391289 0.1721423
0.019890845 0.029603541 0.17173785
0.03597939 0.01358813 0.16676971
0.036992192 0.017593563 0.16778323
0.025484025 0.029237926 0.16776314
0.036165118 0.019411027 0.16337803
0.035011828 0.023016036 0.16267261
0.032612801 0.028153896 0.16317073
0.027509809 0.02939415 0.16339377
0.034722984 0.023730099 0.15826327
0.032450438 0.02788347 0.15902251
0.035186708 0.025562823 0.1537317
0.033189654 0.026910424 0.15475509
0.029320896 -0.00019782782 0.1839827
0.034489393 -0.003018856 0.18100563
0.032592833 0.00048339367 0.18244761
0.028870106 0.0043954849 0.18250296
0.025235593 0.0076324344 0.18246019
0.021662176 0.010682702 0.18153006
0.018093407 0.017633021 0.18219805
0.015768111 0.019179225 0.18289077
0.011870623 0.02350837 0.18321443
0.0081080794 0.026703119 0.18163475
0.036692858 -0.0017341971 0.17761573
0.035541058 0.0017451644 0.17834023
0.010178983 0.029169261 0.177827
0.0067002773 0.028324246 0.17807192
0.037781477 0.00093173981 0.17349681
0.03649056 0.00427109 0.17309347
0.012400091 0.030058682 0.1737808
0.037824988 0.00091022253 0.16962472
0.036891878 0.0051441789 0.16899344
0.03529036 0.0091072321 0.16952112
0.017592192 0.029679477 0.16916698
0.014162719 0.030013144 0.16889498
0.03661108 0.006888032 0.1656225
0.035837352 0.010747552 0.16448906
0.018737793 0.029222012 0.16472262
0.014742613 0.0297001 0.16592276
0.03523016 0.012998819 0.1618714
0.034732282 0.015904367 0.16044736
0.023667276 0.028589547 0.15992337
0.02142638 0.028946161 0.1628674
0.03468281 0.018580556 0.15541142
0.034944117 0.02112174 0.15610078
0.030516565 0.028505743 0.15596554
0.026103258 0.028814733 0.15563637
0.035180867 0.01936698 0.15189159
0.035577834 0.02340281 0.15157723
0.031790078 0.028285921 0.15220901
0.027658403 0.029928267 0.15138376
0.035958886 0.024401426 0.14753085
0.032992005 0.027669668 0.147392
0.029202461 0.029845297 0.1474829
0.035739779 0.02585119 0.14362594
0.034353316 0.02753824 0.14367226
0.031914055 -0.010901451 0.18077934
0.027397871 -0.0069959164 0.18208507
0.027474105 -0.0044849515 0.18263933
0.0044823289 0.021462142 0.18286756
-0.0010759234 0.025865197 0.18252316
0.034817636 -0.0099723339 0.17845747
0.03255254 -0.0074897408 0.18105674
0.018363714 0.0079352856 0.18167651
0.015092313 0.011978865 0.18102935
0.013277411 0.014951587 0.18200156
0.0020652413 0.027485013 0.18079248
-0.0014355779 0.028980315 0.17916986
0.035902619 -0.0082701445 0.17652264
0.035693944 -0.005494833 0.17425215
0.0042119622 0.029482782 0.17596528
6.955862e-05 0.02995038 0.17609218
0.036757588 -0.0030636191 0.17106876
0.010140598 0.029687405 0.17086807
0.0054752827 0.029663324 0.17124021
0.036803961 -0.00094377995 0.16619745
0.036587834 0.0022601485 0.16657689
0.010383606 0.029928923 0.16666201
0.0061604977 0.029785752 0.16685236
0.036799431 0.00030779839 0.16311541
0.036127448 0.0047661066 0.16258219
0.017130077 0.029976487 0.16200969
0.01255542 0.030437946 0.16267288
0.035707533 0.0053301454 0.15863845
0.034471929 0.0094137788 0.15775263
0.033091724 0.013190329 0.15753186
0.017457545 0.028639078 0.15851408
0.014626026 0.029920995 0.15766346
0.035368323 0.010907352 0.15333545
0.034344852 0.014944911 0.1541785
0.022182286 0.028743684 0.15612224
0.01996839 0.029275894 0.15379614
0.036609709 0.011993766 0.14952171
0.035617709 0.01637733 0.14958265
0.021799743 0.030358016 0.14946973
0.037296295 0.01383096 0.1464394
0.037037075 0.018058181 0.14510316
0.035754204 0.022214472 0.14471754
0.030440152 0.028523445 0.14438874
0.026691437 0.030113399 0.14453363
0.022459805 0.030340254 0.14654016
0.037427068 0.019979954 0.14069793
0.03589046 0.024048567 0.14069873
0.031897485 0.028055966 0.14078549
0.027950943 0.029803038 0.14117119
0.035155356 0.024919152 0.13620338
0.032910645 0.027559102 0.13645208
-0.0017001629 0.017135143 0.18355924
-0.0052673221 0.020894408 0.18404463
-0.0087922215 0.023878038 0.18437669
-0.013086379 0.028444052 0.18456301
0.034505367 -0.021134228 0.17918217
0.032521546 -0.019003659 0.17994186
0.03069514 -0.01455456 0.18058115
0.027424872 -0.010291934 0.18138689
0.0152964 0.00040233135 0.18086755
0.013297379 0.0034306049 0.18105248
0.0098025799 0.0075523257 0.18177828
0.0064011812 0.011579156 0.18185195
0.0024821758 0.014750361 0.1817331
0.00053691864 0.018475413 0.18283632
-0.0027060509 0.023252666 0.18310621
-0.0061956048 0.026823819 0.18197802
-0.011053383 0.028516531 0.18116412
0.035591781 -0.020140171 0.1765956
0.034593403 -0.016894698 0.17647907
0.033667922 -0.013880968 0.17902717
-0.0052884817 0.029216588 0.1780875
-0.0085856915 0.029543042 0.17700034
0.035565972 -0.015491664 0.17205909
0.034672558 -0.010925293 0.17252132
-0.0030187964 0.029694498 0.1734648
0.036392927 -0.013340294 0.16755852
0.035115004 -0.0098845363 0.16802844
0.034219682 -0.0062263012 0.16863748
0.002769649 0.029786527 0.16907704
-0.0010620952 0.030285656 0.16868636
0.036158979 -0.0082591176 0.16365519
0.036245406 -0.0045167804 0.16492733
0.0045819283 0.029779673 0.16492251
-0.00023573637 0.029860616 0.16527781
0.036853671 -0.0060907602 0.1600877
0.036088824 -0.0026502013 0.15967017
0.035537899 0.0012927055 0.15956235
0.010609269 0.030169308 0.15884233
0.007193923 0.030720711 0.1602543
0.035307825 -0.0015252233 0.15509009
0.035724938 0.0037089586 0.15562963
0.011312962 0.030385256 0.15567565
0.0077461004 0.030826151 0.15516058
0.036451638 0.00086945295 0.15078273
0.036516786 0.0048525333 0.15132892
0.016714156 0.029658854 0.15180975
0.012633264 0.029698968 0.15125111
0.036320031 0.0063860416 0.14716592
0.035887361 0.0096048713 0.1465531
0.017482281 0.0301525 0.14773411
0.015855193 0.030034184 0.1462242
0.037252784 0.0076694489 0.14174557
0.036577642 0.0114097 0.14250898
0.019512534 0.029925108 0.14281785
0.035683811 0.013090849 0.13876969
0.035773635 0.016895413 0.1376169
0.025419056 0.029563248 0.13841623
0.020775139 0.029569864 0.13805699
0.034010649 0.018768489 0.1334731
0.034644723 0.022245407 0.13409686
0.031671464 0.027944326 0.13325495
0.028582692 0.028692901 0.13610435
0.033305049 0.023344398 0.13000461
0.031447053 0.026852906 0.12878165
0.029221833 0.028633177 0.12759265
0.031491041 -0.028045714 0.1871967
-0.0083060265 0.013161182 0.18580365
-0.010369599 0.016526759 0.1866926
-0.012122393 0.020041883 0.18688175
-0.01611793 0.026157856 0.1867463
-0.01677537 0.029013395 0.18719068
0.038168192 -0.031397015 0.1824187
0.034918427 -0.029337913 0.18302849
0.031681776 -0.026655376 0.18327597
0.028880954 -0.023662895 0.18254259
0.025156498 -0.019479662 0.18196294
0.021511674 -0.015657842 0.18193737
0.020533741 -0.01285845 0.18230504
0.0078377128 0.00094497204 0.18231955
0.0053746104 0.0039876699 0.18301049
0.0024568439 0.0069720745 0.1834546
-0.0013727546 0.010742009 0.1830487
-0.0049794316 0.014356375 0.18451422
-0.0072065592 0.018513918 0.18498847
-0.010779858 0.023058891 0.18540189
-0.013546884 0.025667131 0.18468735
-0.018171608 0.029323697 0.18367955
-0.020023286 0.031819642 0.18298361
0.03871274 -0.03089872 0.18112221
0.03715086 -0.02784726 0.17942503
0.034456849 -0.024383336 0.17929587
0.03020221 -0.021458417 0.18117154
0.026735544 -0.0175502 0.181205
0.023779035 -0.013356566 0.18141636
0.021299243 -0.0097389221 0.18161494
0.015039504 -0.0021993518 0.1802521
0.010053158 0.0015056729 0.18141878
0.0088127255 0.0041245222 0.18169004
-0.012429833 0.027525604 0.18025157
-0.017090082 0.030204237 0.17891088
-0.019794464 0.033357203 0.17902923
0.040584445 -0.028915197 0.17432678
0.038424671 -0.026548684 0.17414036
0.036532521 -0.022437662 0.17463145
-0.010658622 0.03000319 0.17508045
-0.015981376 0.031777501 0.17535999
-0.018660307 0.034025013 0.17560196
0.042765379 -0.026919603 0.16913441
0.039548099 -0.025369942 0.16968265
0.037703276 -0.02156958 0.17064553
0.036111474 -0.018396616 0.17066103
-0.0047115088 0.029940546 0.17035255
-0.009648025 0.029913187 0.1712032
0.044430792 -0.025666714 0.16750923
0.041669667 -0.025687248 0.16760066
0.038215339 -0.020121574 0.16708502
0.036376655 -0.016494691 0.16627643
-0.0046489835 0.030345261 0.16544983
-0.007630825 0.030611038 0.16670582
0.037070692 -0.013575315 0.16200879
0.037050545 -0.010536969 0.16219291
0.0011078715 0.029388964 0.16241643
-0.0024391413 0.029610932 0.16196269
0.037603974 -0.01227057 0.15805024
0.036942422 -0.0088044405 0.15769899
0.036507666 -0.005064249 0.1571438
0.0025382042 0.029988289 0.15827268
-0.00051116943 0.029845655 0.15745738
0.037324071 -0.0071706176 0.15327114
0.036186993 -0.0033854842 0.15296909
0.0049071312 0.030910492 0.15319356
0.00052243471 0.030520499 0.15320402
0.036294162 -0.0058852434 0.14908916
0.036886156 -0.0014492273 0.14905095
0.035821438 0.00092065334 0.14750236
0.0095179677 0.029883862 0.14968824
0.0073271394 0.030300558 0.14907706
0.036638379 -0.00036138296 0.14465815
0.036119759 0.0029596686 0.14475876
0.011624455 0.029822528 0.14502263
0.03619051 0.0054014325 0.1400153
0.035836577 0.0097856522 0.13874891
0.016131699 0.029601753 0.13912892
0.013329923 0.029883444 0.14078808
0.03631258 0.0077736974 0.13678631
0.035719335 0.010175645 0.1353443
0.034462929 0.01460433 0.13487911
0.022668958 0.028825641 0.13524657
0.018187582 0.029240489 0.13526949
0.014826894 0.029418468 0.13555655
0.035168231 0.01223582 0.13160783
0.0343647 0.016017914 0.13139763
0.024052203 0.027936339 0.13145393
0.020585656 0.028700233 0.13105586
0.034082592 0.017481625 0.12680632
0.033314109 0.02132678 0.12718809
0.025612414 0.028807402 0.12678045
0.033385456 0.0229702 0.12266766
0.031226516 0.027084827 0.12299197
0.027092695 0.029621065 0.12265541
0.033861697 0.02492398 0.11919057
0.03213793 0.027900815 0.11802664
0.028554142 0.030032456 0.11927354
0.018305779 -0.025179267 0.18689197
-0.01315558 0.0080831051 0.18878192
-0.014801025 0.011944294 0.18900123
0.02706641 -0.030387521 0.18470457
0.023301601 -0.02655974 0.1842719
0.019910157 -0.023791045 0.18370223
0.00271523 -0.0046638846 0.18304452
0.00052326918 -0.00050383806 0.18380204
-0.0040658712 0.0026313066 0.18406162
-0.0070647597 0.0065678954 0.18410322
-0.009765327 0.010268629 0.18618992
-0.012756526 0.013719082 0.18798038
0.025922537 -0.025268555 0.18347105
0.02262938 -0.021953821 0.18239826
0.018321574 -0.019328147 0.18197152
0.014641106 -0.015399098 0.1811929
0.012093127 -0.010542333 0.18042836
0.0084098577 -0.0072177052 0.18058836
0.0060273409 -0.003518939 0.18162295
0.0043512583 0.00053840876 0.18296918
-0.00032347441 0.0028043389 0.18391654
-0.0047700405 0.0078701377 0.18397009
-0.0060005188 0.01049751 0.18424046
0.036508679 -0.030067712 0.17695919
-0.018734515 0.029297769 0.17917275
0.036885321 -0.030439287 0.17465863
-0.017729461 0.030534506 0.17197356
-0.020626009 0.032812476 0.17178401
0.040248454 -0.028680742 0.17044738
-0.0120067 0.029762447 0.16776571
-0.015338182 0.029537916 0.1684548
0.038864791 -0.026556849 0.16309166
0.037485182 -0.022316664 0.16408285
0.035922945 -0.018297762 0.16321799
-0.0097845793 0.03006649 0.16294882
0.037458658 -0.021203369 0.15903622
0.035753131 -0.017305136 0.15899491
-0.0061222315 0.0293383 0.15902323
-0.0090876222 0.030036628 0.15955192
0.037900388 -0.019636005 0.15560704
0.037132263 -0.01560396 0.15448534
0.036683619 -0.011573434 0.15486118
-0.0032730699 0.029821098 0.15518114
-0.00664258 0.029928207 0.15355194
0.036485434 -0.014096022 0.15080863
0.036848128 -0.010292172 0.15098521
-0.0023355484 0.030572236 0.15011483
0.036638916 -0.012435615 0.14757895
0.036898792 -0.0082318783 0.14657769
0.035596251 -0.0051960349 0.1448791
0.0035441518 0.029800832 0.14702883
-0.00020039082 0.030885577 0.14839685
0.036837935 -0.0070031881 0.14139327
0.035408258 -0.0033697486 0.1414417
0.035433054 0.0015069246 0.1412563
0.0099109411 0.029178262 0.14124572
0.0051998496 0.029058576 0.14150664
0.03608793 -0.0014314055 0.13768411
0.035159886 0.0017592907 0.13808313
0.010642886 0.029622138 0.13734317
0.0060194731 0.029121459 0.1385771
0.037103891 0.00026750565 0.1336773
0.036279321 0.0045102835 0.13336799
0.015121341 0.028527915 0.1314359
0.01130563 0.029482365 0.1333316
0.035250008 0.0051620603 0.12904817
0.034829736 0.0096226335 0.12919953
0.016913593 0.02816838 0.12930283
0.034436464 0.011735141 0.12456398
0.033999979 0.014365315 0.12491717
0.020618141 0.029168308 0.12521422
0.034415722 0.012144327 0.12145995
0.033865035 0.016625583 0.12033894
0.033838391 0.020397246 0.12113803
0.024811983 0.030552208 0.12042984
0.021278143 0.03029865 0.12010484
0.034468055 0.01839745 0.11568242
0.033907771 0.022194088 0.11632731
0.031710565 0.027631044 0.11527988
0.026391089 0.030097902 0.11622631
0.023153782 0.030298471 0.11583742
0.033294201 0.023076117 0.11194437
0.030842066 0.026822269 0.11155584
0.027657449 0.029603064 0.11159357
0.032826543 0.025010109 0.10841449
0.031660438 0.02802068 0.10647767
0.029660106 0.030272067 0.10649916
-0.013213098 0.0020753741 0.1854969
-0.014347672 0.0055095553 0.1878283
0.017436206 -0.025375694 0.18420279
0.01296407 -0.023744166 0.18189248
0.010155201 -0.019451141 0.18225724
0.007167697 -0.01478368 0.18193853
0.0037454367 -0.011370659 0.18276075
0.00030344725 -0.0078572035 0.18363509
-0.0025529861 -0.003998518 0.18441716
-0.0067833662 -0.00010585785 0.18455163
-0.0098971128 0.0032456517 0.1844193
-0.010863185 0.0059587955 0.18527624
0.012015462 -0.016113341 0.18121484
0.0099099874 -0.013913512 0.1811986
-0.019006491 0.02943939 0.16587523
-0.022310257 0.030317783 0.16553393
0.039409339 -0.030632138 0.15968764
0.038223982 -0.027883291 0.16002578
-0.016548753 0.02985549 0.16152948
-0.02060467 0.031613529 0.15903997
0.039625943 -0.031193167 0.15804315
0.038549185 -0.026837021 0.15737265
-0.013694942 0.029300928 0.15473676
-0.016312957 0.030664802 0.15832609
0.038396239 -0.025789857 0.15364873
0.03704685 -0.021874487 0.152183
-0.011221707 0.029650986 0.15245765
0.036064982 -0.020821184 0.14854848
0.035948396 -0.016682088 0.14833358
-0.0078145266 0.030092895 0.14855519
0.035508394 -0.014750063 0.14407188
0.035580635 -0.011963665 0.14319551
-0.00070929527 0.02801764 0.14360529
-0.0039171576 0.029084861 0.14402652
0.035733402 -0.01389277 0.14063707
0.036138296 -0.010419607 0.13942924
0.0011455417 0.028702378 0.14031172
-0.001136601 0.028929889 0.13894755
0.035503268 -0.0075069666 0.13612765
0.035429358 -0.0052434206 0.13445312
0.0038318634 0.029385984 0.13530892
0.035964429 -0.0025237799 0.13029823
0.0098137856 0.029151142 0.13008541
0.0052761436 0.02957058 0.13082731
0.034771264 -0.0010951161 0.12712273
0.034215331 0.0027976632 0.1258488
0.03377831 0.0059766769 0.12603652
0.011391461 0.028484106 0.12635115
0.0064125657 0.029345989 0.12755921
0.032555938 0.0040526986 0.12194296
0.032216311 0.0074474216 0.12217056
0.016060174 0.028642893 0.12293323
0.012145042 0.028801501 0.12142339
0.032635748 0.010574818 0.11889046
0.032546639 0.012509167 0.11696925
0.017463148 0.030147493 0.11811759
0.014036596 0.029851019 0.11863052
0.033610165 0.014433801 0.11377638
0.019026458 0.030263126 0.11376562
0.033372402 0.016794324 0.10969364
0.032516003 0.020842135 0.10838812
0.024173737 0.030213714 0.10883342
0.020932615 0.030584812 0.11119118
0.032515883 0.022181928 0.10444673
0.032333612 0.025201857 0.10505965
0.025640845 0.029889107 0.10512146
0.033009946 0.023635745 0.10072868
0.031299591 0.027291656 0.10059854
0.028193057 0.029400766 0.10088142
-0.0001758337 -0.021526575 0.18665329
-0.012201011 -0.0086271763 0.18663386
-0.018324673 -0.0024427176 0.18706271
-0.019096851 0.00051796436 0.1881347
0.0091220737 -0.025200933 0.18408379
0.0068790317 -0.022733122 0.18424669
0.0021414161 -0.019631565 0.1845935
-0.0012457967 -0.015442729 0.18456039
-0.0040529966 -0.01186049 0.18533522
-0.0077015758 -0.0080956817 0.18551978
-0.01113987 -0.0047718883 0.18494245
-0.014870763 -0.0013636351 0.18520108
-0.016270518 0.0011150241 0.18617034
0.010850668 -0.023507476 0.18249792
0.0075371265 -0.020822972 0.18334284
0.004965663 -0.017037094 0.18251994
0.001393795 -0.014138877 0.18386665
-0.0011542439 -0.011319876 0.18387988
-0.0118559 0.00052028894 0.18393543
-0.026838362 0.030333221 0.16317973
-0.023926079 0.031713247 0.15910661
-0.027587831 0.03107965 0.16033018
0.038208485 -0.031692535 0.15441674
0.037642241 -0.03029269 0.15460163
-0.01808548 0.030091882 0.15478867
-0.021748662 0.032198668 0.15434968
0.038193345 -0.031174541 0.14978534
0.037169814 -0.028846085 0.14972302
0.036535263 -0.024172336 0.14944693
-0.013243318 0.030247211 0.15033972
-0.017497003 0.030536115 0.15009639
-0.020933032 0.032957613 0.14978522
0.039301217 -0.029894948 0.14481419
0.03739953 -0.027998447 0.14572936
0.035675764 -0.022910744 0.14577335
0.034768641 -0.018624008 0.1455695
-0.011030078 0.03029561 0.14696708
-0.015286267 0.030819833 0.14597219
-0.019864321 0.033954442 0.14712119
0.042271852 -0.029247165 0.14017501
0.035574496 -0.021658331 0.14185208
0.034611225 -0.018552482 0.14124513
-0.010150433 0.029978573 0.14139032
0.034795463 -0.015996933 0.13701287
0.035584867 -0.011696637 0.13636291
-0.0047369003 0.02938807 0.13773343
-0.0086685419 0.030270338 0.13749146
0.035084844 -0.014356613 0.13394395
0.035359263 -0.010562658 0.13318595
-0.0027986765 0.029689133 0.13330933
0.034691453 -0.0090212822 0.12931052
0.034628451 -0.0060546994 0.12872446
0.0019894242 0.029396832 0.12791774
-0.00090432167 0.029734612 0.12825525
0.034807742 -0.0028758049 0.12451132
0.033930361 0.00038677454 0.12297504
0.0071176887 0.028419673 0.12509969
0.0050530434 0.028811276 0.12339398
0.03500092 -0.0020055175 0.1194038
0.034156799 0.0023927093 0.12019973
0.032586932 0.0061624646 0.1192885
0.0094486475 0.028875053 0.11943319
0.0058264136 0.028967261 0.11960717
0.034758031 -0.00088590384 0.11638384
0.033958316 0.0032688379 0.11552089
0.03241241 0.0079783201 0.11628764
0.011365473 0.029799521 0.11587178
0.0065747499 0.029458582 0.11630093
0.034730494 0.0057764053 0.11122753
0.033623219 0.009311676 0.11134329
0.033126354 0.012836695 0.11074068
0.016484618 0.030597091 0.11145838
0.012612522 0.030618846 0.11109807
0.032951772 0.01018697 0.10707625
0.032683611 0.013942122 0.10613193
0.018012643 0.029603601 0.10674643
0.014642358 0.030395567 0.10592597
0.032921195 0.016021252 0.10281985
0.03295362 0.01939106 0.10316246
0.019468546 0.02945739 0.10289335
0.032812059 0.017730713 0.098932587
0.033178389 0.021318853 0.098292999
0.02521652 0.029220879 0.097820334
0.020517886 0.029783905 0.097717009
0.032774925 0.02289772 0.094256155
0.030835509 0.026903689 0.09424483
0.026525617 0.029385984 0.093252711
0.033462524 0.024598598 0.089607947
0.03177011 0.027289391 0.089403503
0.028582633 0.029670894 0.088703267
-0.0060880184 -0.020950556 0.18610135
-0.0086078048 -0.015961766 0.1859366
-0.012099802 -0.011928499 0.18598899
-0.015894592 -0.0088926554 0.18577382
-0.018497944 -0.0052310824 0.18594518
-0.0037293434 -0.018185019 0.18500227
-0.01500839 -0.0065369606 0.18489191
-0.016216755 -0.0046625137 0.18500745
-0.026951015 0.032635689 0.15292996
-0.025820732 0.033662975 0.15028086
0.039213061 -0.031519204 0.14279571
0.037131965 -0.028301686 0.14223084
0.03519839 -0.025091797 0.14250413
-0.018393874 0.031107724 0.1436227
-0.021048009 0.033611119 0.14336932
-0.023758888 0.035881579 0.14336503
0.04056263 -0.031322032 0.14080226
0.038132548 -0.027890086 0.13955498
0.034437776 -0.024869621 0.13802147
-0.013269484 0.030215502 0.13996923
-0.016670704 0.03104502 0.13925722
-0.022579372 0.03370595 0.1399354
-0.023716569 0.034797668 0.13990012
0.037672639 -0.028005719 0.13487104
0.033684433 -0.022354603 0.13393706
0.034001708 -0.018961281 0.13461649
-0.011269867 0.030672252 0.13500315
-0.01480037 0.031768382 0.13419443
0.035159588 -0.020937264 0.129857
0.034082055 -0.017643213 0.13026738
0.033353984 -0.014002621 0.12952238
-0.0054788589 0.029383957 0.12902519
-0.0099502206 0.029658198 0.13038141
0.034185469 -0.016209245 0.12634727
0.032452285 -0.012309551 0.12565809
0.032028079 -0.0089187622 0.12480684
-0.0051373839 0.028947771 0.12576768
0.032716274 -0.010049462 0.1230812
0.031987309 -0.0078754425 0.12100618
0.00074309111 0.028697193 0.12251844
-0.0027726889 0.029239774 0.1219696
0.03275758 -0.0060582161 0.1162143
0.0016975403 0.029352307 0.11692189
-0.0016791821 0.029766023 0.11802348
0.033128679 -0.0037563443 0.11265423
0.032933533 -0.00053161383 0.11184814
0.0047959089 0.029891431 0.11261722
0.032839537 0.0012667775 0.10821589
0.010243654 0.031041265 0.10803514
0.0060449839 0.030397296 0.10820922
0.03295207 0.0041424632 0.10445078
0.032470584 0.0074569583 0.10409185
0.011285841 0.030388713 0.10488149
0.0086752176 0.030635536 0.10496705
0.031828761 0.0086787939 0.099615775
0.03143841 0.012681246 0.099703841
0.017183304 0.028955698 0.099304698
0.013676941 0.029928684 0.099717788
0.031585038 0.010477901 0.095582716
0.031353235 0.014276981 0.094964884
0.030715287 0.017182767 0.093959413
0.018327475 0.029308021 0.094884001
0.015024483 0.030359507 0.096127294
0.030422688 0.015680909 0.090918235
0.030750751 0.019023538 0.090860598
0.023476183 0.02912575 0.090182684
0.019855499 0.029095173 0.091070883
0.031721234 0.022226334 0.086921267
0.029362977 0.027816832 0.086731456
0.024152994 0.029571831 0.085810117
0.020840943 0.029815376 0.087017648
0.032336831 0.023668468 0.082266651
0.030405283 0.026616573 0.082361184
0.027109981 0.029219985 0.08239051
0.029694736 0.027468741 0.078352414
-0.02210629 0.032572806 0.13714233
-0.026002526 0.034682631 0.13845038
0.037512124 -0.027296275 0.1317158
0.034874499 -0.025050908 0.13277262
-0.018045008 0.032211065 0.13271886
-0.020808816 0.033938646 0.13259876
0.037537277 -0.027092963 0.12812054
0.0360654 -0.023448795 0.12810764
0.034536004 -0.020146906 0.12745145
-0.011932015 0.030574083 0.12805495
-0.015112162 0.032475948 0.12893948
-0.018635571 0.034064531 0.12978461
0.03523618 -0.022444487 0.12360876
0.034602642 -0.017888099 0.12390163
0.03208977 -0.014043331 0.12347194
-0.011232793 0.028595686 0.12346756
-0.015491009 0.029767513 0.12466549
0.033450186 -0.017418414 0.11897
0.031702161 -0.013065994 0.11937096
-0.0053288341 0.029407144 0.11849358
-0.0083110332 0.02912879 0.12082719
0.031956434 -0.011025071 0.11462503
-0.0044530034 0.029833317 0.11443707
0.033226252 -0.0083782077 0.11223199
0.032739103 -0.0063067079 0.11035218
-0.00087171793 0.030217886 0.11133119
0.032083929 -0.0035890937 0.10634293
0.032091379 -0.001334846 0.10725489
0.0007366538 0.029469788 0.10632464
-0.00057387352 0.02883625 0.10574829
0.032902062 0.00053912401 0.10180195
0.0096298456 0.030056 0.10096573
0.0059061646 0.030116677 0.10202756
0.034208119 0.0029737949 0.097549252
0.033147216 0.0065279603 0.097916059
0.0099377632 0.030333757 0.097408079
0.034791708 0.0044166446 0.09371426
0.033367574 0.0088919997 0.093870424
0.015399575 0.029368281 0.092625104
0.01248616 0.030175865 0.093593024
0.033894658 0.0055586696 0.089859627
0.032872379 0.0090310574 0.088700794
0.031138361 0.013169825 0.088659756
0.030147195 0.017547131 0.088882528
0.01700896 0.029809415 0.089938425
0.013943434 0.030496597 0.088807426
0.030554414 0.01567477 0.085094415
0.030390441 0.018498361 0.084408097
0.019544661 0.030590117 0.084588222
0.015182614 0.030448854 0.08449664
0.030737758 0.019183218 0.079496704
0.025083184 0.029785097 0.080033205
0.021851897 0.030381024 0.079967044
0.03170085 0.022216022 0.07591068
0.030883312 0.0264557 0.076542698
0.026518226 0.028918207 0.076272182
0.021277726 0.029901862 0.076240085
0.031380951 0.022320867 0.072229438
0.029965639 0.026225924 0.071435414
0.026979566 0.028571844 0.07184168
0.036183 -0.033237308 0.12451609
0.035004318 -0.029745698 0.12454607
-0.017575741 0.031241596 0.12445896
0.039562881 -0.031352073 0.1207182
0.035602987 -0.029494137 0.12040033
0.034156799 -0.025577396 0.12047233
-0.014215231 0.029229701 0.12161114
-0.017666221 0.030648172 0.12120094
0.040262938 -0.029721379 0.11674245
0.035774291 -0.028600514 0.11673074
0.034162521 -0.023388416 0.11681642
0.033299625 -0.019629389 0.11660018
-0.012100637 0.028513849 0.11709841
-0.015718639 0.029616773 0.11675229
0.040707946 -0.029096901 0.11374339
0.033817232 -0.02307868 0.11279159
0.033028185 -0.018532902 0.11202746
0.031766057 -0.014307857 0.11305561
-0.011980236 0.028367043 0.11296409
0.032521248 -0.016491652 0.10746103
0.031636 -0.012908816 0.10778423
0.031095922 -0.0084626675 0.1071619
-0.0054358244 0.029429555 0.10692313
-0.0072131753 0.029982269 0.10819744
0.033638179 -0.016047299 0.10359459
0.032490253 -0.011826515 0.10309687
0.031461239 -0.006827116 0.10365137
-0.0037472248 0.029356897 0.1040911
-0.0077797771 0.030331969 0.10396551
0.032928944 -0.0094140172 0.098907553
0.031908512 -0.0057809353 0.099296354
0.00055533648 0.028703928 0.099399202
-0.0022517443 0.028759122 0.10021397
0.031800389 -0.0050056577 0.095469587
0.03239733 -0.0014440417 0.095688038
0.0042331815 0.029087901 0.095089726
0.033098996 0.0017398 0.090423875
0.0097190142 0.029887021 0.090941809
0.0047159195 0.029107094 0.089092277
0.033120871 0.0034897327 0.086182468
0.032888174 0.0069323182 0.085571609
0.010690331 0.030469716 0.086051755
0.033427358 0.0044353008 0.082627706
0.032300472 0.008071363 0.081822418
0.030460894 0.012513518 0.081992559
0.01249963 0.031033456 0.082095943
0.030835867 0.0088287592 0.078018449
0.030653536 0.013215065 0.077615254
0.016950667 0.029663324 0.078935139
0.013555646 0.029654622 0.077785604
0.031460702 0.015364468 0.073119156
0.03132695 0.018944025 0.073520057
0.022484422 0.029072642 0.074695937
0.019069552 0.029459953 0.073646002
0.032179236 0.017398655 0.068663023
0.031581402 0.020860136 0.068576865
0.029694796 0.025023878 0.067818768
0.024850011 0.028370976 0.068762504
0.031547725 0.022031486 0.063863494
0.029299319 0.025758803 0.064064629
0.026595533 0.028591156 0.064026333
0.031600058 0.023533106 0.060144432
0.029804409 0.026591599 0.060218908
0.027062118 0.029091239 0.060344644
0.033964276 -0.034745783 0.12514281
0.031832933 -0.034058541 0.12307527
-0.022369742 0.030706882 0.11718031
0.035322547 -0.029131144 0.11333259
0.033726215 -0.026231378 0.1132917
-0.015768707 0.027968884 0.11339807
-0.019400597 0.030022025 0.11392405
-0.022788167 0.031150401 0.11302801
0.036136448 -0.029168487 0.10904884
0.033780098 -0.025074184 0.10931712
-0.013846219 0.02855581 0.11080494
-0.017196894 0.029194951 0.10948237
0.037005901 -0.027545273 0.10586067
0.034082115 -0.023882836 0.10503193
0.032711685 -0.019601136 0.10565629
-0.011346102 0.029790044 0.10606494
0.034336984 -0.022263676 0.10139015
0.033616304 -0.017818451 0.10120695
0.032240868 -0.013825297 0.10044923
-0.0049664378 0.028863728 0.10107493
-0.009770453 0.030014932 0.10125842
0.033598483 -0.016636729 0.096523039
0.032281995 -0.012742162 0.096238457
-0.005276978 0.028674483 0.096370332
-0.008581996 0.029288411 0.096716098
0.031379998 -0.011207283 0.091960572
0.030960083 -0.0072518587 0.092023961
0.029882789 -0.0041456819 0.090736918
0.00032025576 0.02837801 0.093082152
-0.0025085211 0.028557301 0.092095129
0.030847907 -0.0061680675 0.087631218
0.030146599 -0.0027197599 0.087863289
0.0018189549 0.028949082 0.088107996
-0.0017194152 0.029198825 0.087885402
0.031643271 -0.0039830804 0.083733343
0.031231284 -0.001098752 0.083374314
0.0031306744 0.029687822 0.084011488
0.031869054 0.0012081265 0.07942646
0.0058142543 0.030549288 0.079720668
0.031139553 0.0071675181 0.075048558
0.011271536 0.029299021 0.075027131
0.03108418 0.008826673 0.070127659
0.030714393 0.012420535 0.070564322
0.016839206 0.028292656 0.069945477
0.012852848 0.028718174 0.069562219
0.031109333 0.014143527 0.066102155
0.021130979 0.027901053 0.065308519
0.017167389 0.028211534 0.065738328
0.014633536 0.02935797 0.06608174
0.031270027 0.015876412 0.06189198
0.031603694 0.018965304 0.062239893
0.021819413 0.028717279 0.062372603
0.018737316 0.028865039 0.061326183
0.031772792 0.017314434 0.058737315
0.031777442 0.020765007 0.057927109
0.029773116 0.026077807 0.057450004
0.02479738 0.029616356 0.058208205
0.021325469 0.030024469 0.057438262
0.030398726 0.022508323 0.053888299
0.029611707 0.025728881 0.052938826
0.026792526 0.028908074 0.053650238
-0.026463866 0.031094313 0.1119368
-0.020096719 0.029485762 0.10724946
-0.023598254 0.03159672 0.10756367
0.036071539 -0.029029399 0.10279163
0.034962475 -0.026068538 0.10286286
-0.01933831 0.028988242 0.10323562
-0.022625983 0.030281067 0.10278928
0.036027968 -0.028074175 0.09954115
0.03447926 -0.024278104 0.098593436
0.033615291 -0.02086398 0.098033421
-0.012578547 0.029504955 0.098063461
-0.015651524 0.029007852 0.096123986
0.041023731 -0.029371768 0.093261741
0.037321985 -0.029112488 0.094294809
0.034104109 -0.022627771 0.093795262
0.03418535 -0.018808663 0.094020866
-0.01064074 0.029869139 0.094129227
-0.015545011 0.029311776 0.094550066
0.041976452 -0.02758804 0.091112964
0.033569515 -0.017859012 0.089795016
0.032045364 -0.013386428 0.090030424
-0.0059423447 0.029267132 0.090448551
-0.010253131 0.030329883 0.089724295
-0.013940394 0.030831635 0.090399854
0.032545269 -0.016478598 0.086259089
0.03187722 -0.012022555 0.085814171
0.031001329 -0.0076249242 0.085550569
-0.0040608644 0.029915035 0.086153023
-0.0072841644 0.030465901 0.086182378
0.031490862 -0.01146698 0.08100488
0.031454861 -0.0072665215 0.081364326
0.0011776686 0.030037999 0.081433229
-0.0039694309 0.029604018 0.081655644
-0.0063467622 0.030941486 0.082648121
0.032019198 -0.0045654178 0.077085815
0.030917466 -0.00024366379 0.075671636
0.0013568997 0.029781878 0.07799717
-0.0015189052 0.029232502 0.076872312
0.031098902 0.00039339066 0.072240226
0.030499876 0.0039117336 0.072961412
0.0087496042 0.02873683 0.07159584
0.0040529966 0.027634025 0.073094092
0.030970097 0.001116693 0.068804674
0.030496001 0.0053543448 0.067761309
0.009965241 0.028978348 0.068647228
0.030354977 0.0077225566 0.063776053
0.0305776 0.01091671 0.064448394
0.011351168 0.028986275 0.063954033
0.030478358 0.009090364 0.060794599
0.030847132 0.01249367 0.06004829
0.016004741 0.029195487 0.060463257
0.013949633 0.029624522 0.061608531
0.031212687 0.010139048 0.056178667
0.031275749 0.014252543 0.055618741
0.030686796 0.018312991 0.054508485
0.018081367 0.029913127 0.05499009
0.030173481 0.015659153 0.05064369
0.030244887 0.019998074 0.050216474
0.023781121 0.02926755 0.04995764
0.021945238 0.030206323 0.052508809
0.030145049 0.021609306 0.046329059
0.029652357 0.025965393 0.046770133
0.025522232 0.028718829 0.046330966
0.021771014 0.029146373 0.046839781
0.031621277 0.023150742 0.041431613
0.030026019 0.026067257 0.042013384
0.026897669 0.028421164 0.04147128
0.030210853 0.026368141 0.038043387
-0.027059317 0.032115757 0.10364636
0.034879148 -0.031300306 0.099687479
-0.02065748 0.029219091 0.099715702
-0.024740458 0.030898392 0.10038944
-0.027573824 0.032139003 0.10180923
0.038713932 -0.032063574 0.095578544
0.035414577 -0.029996455 0.095870577
0.033430278 -0.026217848 0.095605992
-0.019380569 0.029497147 0.096801244
-0.022348762 0.031441689 0.096436732
0.035891414 -0.028774887 0.092488401
0.03389442 -0.025804609 0.091909371
-0.017352164 0.03062439 0.092452429
-0.021058798 0.033212781 0.092004143
0.036791205 -0.027786911 0.087704562
0.034133494 -0.023965687 0.08797618
0.032177567 -0.020440847 0.086679243
-0.01602596 0.032044947 0.087818287
-0.018472433 0.034796655 0.088413857
0.036847293 -0.026387691 0.083857082
0.034820855 -0.023333043 0.083632134
0.032709479 -0.018716127 0.08271607
0.030931115 -0.015130639 0.081863575
-0.011752188 0.030504346 0.08332362
-0.015916586 0.032632709 0.083220117
-0.018059909 0.035549283 0.083980285
0.03284359 -0.016705036 0.078151338
0.032057345 -0.013358653 0.078093909
-0.0053655505 0.02984798 0.078071438
-0.0079277158 0.030692995 0.078626089
0.033280015 -0.01645577 0.074492835
0.032391429 -0.011804521 0.074067436
0.031505525 -0.0078999996 0.074368261
-0.00048339367 0.026864111 0.073048227
-0.0043721795 0.02940011 0.074032597
-0.0077645779 0.030970097 0.073595487
0.032226086 -0.0096350312 0.069756083
0.031538427 -0.0059962273 0.070223801
0.030981958 -0.0026860237 0.070204578
0.00082665682 0.027151287 0.070124827
-0.003836751 0.028864741 0.070807479
0.031901121 -0.0051732659 0.065406539
0.030497432 -0.00086581707 0.06579078
0.029490709 0.0024835467 0.065267362
0.0061623454 0.028203249 0.065359689
0.0025644898 0.027891934 0.065750547
0.032805204 -0.0029804707 0.060700901
0.031369567 0.0003027916 0.061401911
0.029755592 0.0039272904 0.06234891
0.0089434385 0.028609574 0.061251707
0.0057300925 0.028483331 0.061821796
0.031940579 0.0020653009 0.056511439
0.030678093 0.0065491199 0.057428218
0.010176957 0.029153824 0.057134785
0.0059141517 0.029188693 0.057754137
0.033100784 0.0038986802 0.05246792
0.031603932 0.00784266 0.052452303
0.030504882 0.011720777 0.051901884
0.011210322 0.030015528 0.051788963
0.030699909 0.0090082288 0.048609294
0.030570447 0.013284206 0.048077561
0.016109526 0.028617859 0.047736622
0.013234735 0.029405236 0.048179068
0.0303424 0.014750123 0.044686325
0.02991426 0.01821357 0.043879785
0.019084811 0.028900087 0.043999381
0.030591667 0.019643009 0.040083535
0.024148822 0.029227197 0.040272154
0.020343184 0.029396594 0.039336123
0.031163573 0.022074699 0.035797969
0.029725015 0.026437044 0.035490468
0.025520802 0.029294372 0.035946563
0.021238625 0.030323744 0.036448851
0.03152144 0.023185611 0.031953618
0.030127883 0.026603043 0.031275585
0.026394904 0.029150903 0.03208451
-0.027674794 0.031210721 0.096429728
-0.02710253 0.031867623 0.094237201
-0.025876403 0.032957613 0.091517352
0.035763562 -0.028926075 0.083615743
0.033628941 -0.02426514 0.079721116
-0.01661706 0.031399429 0.080290757
-0.019363344 0.034016728 0.07931798
0.031654894 -0.023358196 0.07704594
0.031440735 -0.020450354 0.07646855
-0.01290077 0.030012012 0.076777808
-0.016753614 0.030498981 0.076002382
0.030500174 -0.017848134 0.071404271
0.031633258 -0.01531297 0.071695887
-0.012084484 0.030808449 0.071665995
-0.015856326 0.032757878 0.071435235
0.030024707 -0.012748003 0.067603327
-0.0012604594 0.027229548 0.067704357
-0.0044413209 0.02895081 0.068026371
-0.0098250508 0.03067106 0.068181895
0.029816329 -0.011863887 0.06432081
0.030614495 -0.009327054 0.062773295
-0.0010334849 0.027712464 0.065325119
-0.0043498278 0.028620481 0.063846834
-0.0078278184 0.03037107 0.063827373
0.032427251 -0.0061314106 0.058805235
0.0010975599 0.028046072 0.059186526
0.032135487 -0.0036671162 0.054436542
0.03283757 -0.00044131279 0.054162242
0.0035153031 0.029461861 0.054009654
0.032358646 -0.0030381083 0.050495334
0.03240937 0.0010469556 0.050452031
0.030107796 0.004098177 0.048516758
0.0048084259 0.030191839 0.049782671
0.030289352 0.0066766143 0.045912184
0.010533452 0.029901326 0.046474285
0.0078418851 0.030411243 0.044773318
0.029182076 0.011293828 0.041529961
0.015428662 0.029072821 0.042696841
0.012230814 0.029770076 0.041744597
0.0079434514 0.030833662 0.042291351
0.02780658 0.013536155 0.037857749
0.02907151 0.016238391 0.036893643
0.017492294 0.029686868 0.038360812
0.013856053 0.029965103 0.037530757
0.03021121 0.019250035 0.033034608
0.019626439 0.029961526 0.032498702
0.014631987 0.030472159 0.033985034
0.030519366 0.021619558 0.028028533
0.029820025 0.025803208 0.027461007
0.025045097 0.028953075 0.027915105
0.020719647 0.029979169 0.028391644
0.028685331 0.025883675 0.02367641
0.025380731 0.027884543 0.024072483
0.031553209 -0.027222812 0.077581845
0.0323897 -0.029796183 0.071862303
0.030830562 -0.026682138 0.074227594
0.030524731 -0.022724301 0.073396735
-0.018535614 0.031696618 0.07456293
-0.02158761 0.032879949 0.074781828
-0.024185181 0.035094857 0.072855406
0.035252512 -0.029736847 0.071087264
0.030121386 -0.025380492 0.069836132
0.029804826 -0.021301031 0.069632344
-0.016311526 0.031870961 0.071009986
-0.019909084 0.034197688 0.070770048
0.028669894 -0.020099252 0.064850695
0.029064 -0.016309798 0.065052189
-0.011414051 0.030949354 0.064527489
-0.015337825 0.032224119 0.065335549
-0.018352449 0.0347718 0.066856511
0.029867172 -0.012734056 0.060810782
-0.0050131083 0.028475404 0.060258009
-0.0096365809 0.030985236 0.060548432
-0.013578296 0.032625437 0.060364313
0.030575275 -0.011307597 0.055984087
0.031688929 -0.0077978969 0.055750169
-0.0048642159 0.028691471 0.056422748
-0.0090897083 0.031119466 0.056308635
0.030909598 -0.01150161 0.051620759
0.031468213 -0.0077047348 0.051954277
-0.0027336478 0.029402673 0.052467145
0.031884015 -0.0056831837 0.047875293
0.0306229 -0.0012774467 0.047502793
0.0018118024 0.030016065 0.048638441
-0.00087839365 0.030294955 0.048646785
0.030347645 -0.00012606382 0.043823101
0.029964805 0.003685534 0.043899246
0.0042387247 0.030239582 0.044277348
0.00018942356 0.029736042 0.044406004
0.029955149 0.001960218 0.039303549
0.029563904 0.0057760477 0.040012039
0.028327644 0.0088513494 0.038819976
0.0087965131 0.029917598 0.039626516
0.0052272677 0.030332506 0.039329596
0.029478848 0.0070527792 0.034460947
0.028400421 0.011072338 0.034902528
0.027495444 0.014560103 0.033332154
0.010579646 0.030855 0.034878805
0.006552875 0.031158447 0.034742132
0.030010223 0.0092153549 0.029728517
0.028975427 0.012292922 0.029513881
0.027861238 0.016079187 0.030418202
0.016144335 0.029998243 0.030815586
0.013239563 0.031138599 0.030101016
0.0089704394 0.031373262 0.030345514
0.029746175 0.013887048 0.025571272
0.029025257 0.017779529 0.025819585
0.018044055 0.03001976 0.025716916
0.01405859 0.031303227 0.02597557
0.029288828 0.019967973 0.022326365
0.029090881 0.023181081 0.021432564
0.023592889 0.028686583 0.022094622
0.019284606 0.029588997 0.021080337
0.028759956 0.021124721 0.017230056
0.028448522 0.024878681 0.017752282
0.025540233 0.028516054 0.017513238
0.021647096 0.029650271 0.017506503
0.029023468 0.025322318 0.014333628
0.025206864 0.028585494 0.013998769
0.032269835 -0.029677659 0.070111297
0.029519022 -0.028927922 0.070007972
0.033655703 -0.028888851 0.066877909
0.029907942 -0.027238429 0.066344298
0.028352916 -0.023195952 0.065535314
0.03376621 -0.028760195 0.062119491
0.030694723 -0.025994271 0.061937667
0.029427767 -0.021476656 0.062701084
-0.017699003 0.03320092 0.062203921
-0.021511137 0.033509791 0.062168337
0.036880314 -0.027990073 0.056370534
0.032390118 -0.026325583 0.057821102
0.028944612 -0.020754427 0.057910033
0.028679967 -0.016723692 0.058526136
-0.016101182 0.033342361 0.059278019
-0.020604372 0.03294003 0.057589062
0.035824299 -0.027508885 0.054382779
0.034902453 -0.026218891 0.054474242
0.029826105 -0.019360483 0.053377785
0.029281199 -0.015633941 0.054134138
-0.01109308 0.031800032 0.054350801
-0.013692617 0.033515513 0.054621466
-0.018498719 0.034993529 0.053662397
0.031004906 -0.016757429 0.049049146
0.030650377 -0.013832152 0.049626
-0.0049718022 0.02965349 0.049623556
-0.0093052387 0.03074187 0.050206043
-0.012900054 0.033902586 0.050179429
-0.015417516 0.03636843 0.049866296
0.031165779 -0.012239397 0.045466729
0.030045807 -0.0083613992 0.044342287
-0.0045982599 0.029979646 0.045864232
-0.008842051 0.030423999 0.046112187
0.031116962 -0.011152089 0.042012312
0.029853404 -0.007153213 0.041099615
0.029674232 -0.0035657287 0.041347392
-0.00319314 0.030073225 0.041495539
0.0296157 -0.0049613714 0.037269451
0.029356241 -0.0014484525 0.036328182
0.029531837 0.0026634336 0.035357758
0.0020588636 0.030191362 0.03631033
-0.0013680458 0.030127227 0.035906985
0.029626071 0.00048136711 0.031039014
0.029607475 0.0040278435 0.032263353
0.0042190552 0.031422853 0.03215526
-0.00027817488 0.031288505 0.032210156
0.031046331 0.0020417571 0.027063921
0.030427337 0.0063909888 0.027813897
0.0067571998 0.031630516 0.027421102
0.031840682 0.0036662221 0.023956165
0.030738473 0.0073875785 0.02343972
0.029877186 0.011472404 0.023072496
0.012962699 0.031055987 0.02335076
0.007291019 0.03131181 0.024255589
0.030975938 0.0089172721 0.018678479
0.029360294 0.012631416 0.019330911
0.02810967 0.016501427 0.018741928
0.015347183 0.029487252 0.018578492
0.012116849 0.029909909 0.019581012
0.029573441 0.013161004 0.01510068
0.0278458 0.017643332 0.014497094
0.01778239 0.029520273 0.015461586
0.028166354 0.019393086 0.010421924
0.02757138 0.023737788 0.010724925
0.024166703 0.028427482 0.010780863
0.019683778 0.029408574 0.011156879
0.028834283 0.020703018 0.0070505962
0.027695954 0.024466932 0.0063243732
0.025075793 0.028283954 0.0062530264
0.021672964 0.029278219 0.0073319897
0.028366923 0.025911272 0.0018229112
0.026711822 0.028209984 0.0020098612
-0.024763584 0.033312738 0.059814401
0.032229185 -0.030109614 0.056742527
0.03020829 -0.026753575 0.055864699
0.029553831 -0.023506463 0.055843301
-0.022818029 0.033178806 0.056010135
-0.025566339 0.034132361 0.055656083
0.034767687 -0.02910468 0.05112461
0.030799687 -0.026334763 0.051216461
0.029972553 -0.022641689 0.051760741
-0.023213387 0.035229504 0.052970923
-0.023650289 0.036725163 0.053299673
0.030179203 -0.020668 0.04769934
-0.015644193 0.03483063 0.047499992
0.030469 -0.019019008 0.043940611
0.029627979 -0.016429245 0.042848028
-0.011898935 0.030118167 0.041917332
-0.015249133 0.032000303 0.044022657
-0.017926276 0.034690678 0.044245817
0.030430377 -0.012665749 0.0386867
0.029476523 -0.0092450976 0.037112571
-0.005223155 0.029610097 0.03699962
-0.009275496 0.030439019 0.038486011
0.030211806 -0.011737347 0.034281746
0.029737651 -0.0081753135 0.033513829
0.02863574 -0.0050768256 0.033260837
-0.0052130818 0.030129015 0.033569649
-0.0079362392 0.030291021 0.034419075
0.02993083 -0.006796062 0.029353335
0.029333889 -0.0032587647 0.029629156
-0.0026627183 0.03046602 0.028760836
0.030385554 -0.0049498081 0.025808558
0.03065455 -0.001290679 0.025378779
-0.00034499168 0.030927062 0.025260732
0.030798435 0.0011973381 0.021155648
0.030926943 0.0045011044 0.020260178
0.0046042204 0.030326068 0.020584427
0.030293345 0.0016952157 0.017176233
0.03063488 0.0054822564 0.016617022
0.029408336 0.010579586 0.016379438
0.0095089674 0.029542148 0.01598417
0.03014344 0.0080888271 0.012710415
0.029045165 0.011878073 0.011824332
0.015938103 0.028915167 0.012213401
0.011212349 0.029518068 0.012374096
0.029087245 0.012789845 0.0085756108
0.027607918 0.016453505 0.0080313906
0.016034007 0.029086471 0.0081812069
0.012518227 0.029337823 0.0082313642
0.028278351 0.018009841 0.003968738
0.018090546 0.029483199 0.0040971562
0.032593429 -0.029033452 0.049189009
0.030211985 -0.026745588 0.049088992
0.032525301 -0.029711127 0.046252377
0.030934215 -0.02675724 0.044852801
0.029715836 -0.023248225 0.043470837
0.03417474 -0.028893352 0.039905436
0.032744884 -0.026860446 0.039158382
0.02895087 -0.021387309 0.039602794
0.028427303 -0.017211556 0.039001442
-0.018022835 0.030367374 0.038871326
-0.021697104 0.033431947 0.039157785
0.032926261 -0.025340617 0.0352038
0.029425681 -0.018835694 0.0355656
0.029074132 -0.015926719 0.035603002
-0.012300551 0.030740738 0.035365537
-0.017034948 0.031266749 0.035367385
0.030293047 -0.017159343 0.032463089
0.029386818 -0.014401436 0.031048462
-0.010171533 0.030574322 0.031506583
-0.014021456 0.031480491 0.031195924
0.029545248 -0.012867928 0.026980892
0.029466271 -0.0090166926 0.026586458
-0.0066126585 0.030235052 0.027636454
-0.0089842677 0.030767679 0.027378187
0.030132651 -0.012354076 0.0231172
0.029865086 -0.0077426434 0.022803709
0.029254973 -0.0033406615 0.022293672
-0.0030890703 0.03109771 0.022898898
-0.0062760115 0.031044483 0.023484185
0.029586077 -0.0052816868 0.019292556
0.029259682 -0.0023034215 0.019002877
0.0013162494 0.030400336 0.019786827
-0.0022552013 0.030702353 0.018502437
0.029277146 0.0003246069 0.01407712
0.0034357905 0.029593706 0.014823936
-2.1934509e-05 0.030525625 0.013795786
0.02949661 0.0020326376 0.010543399
0.029679 0.0048015714 0.010338925
0.0077980161 0.029871821 0.011137716
0.0045952201 0.030341983 0.010028057
0.0010178685 0.031541049 0.010885946
0.029936731 0.0066409111 0.0059459135
0.028831184 0.010373771 0.0056519136
0.01112169 0.030144215 0.0065798089
0.0073838234 0.030430973 0.0056318864
0.029078066 0.01222533 0.0021206066
0.012198627 0.030350208 0.0020016357
0.028087199 -0.033360839 0.044388212
0.029451013 -0.031975627 0.039894648
0.031993866 -0.031017542 0.037500657
0.03003037 -0.025674045 0.038567431
0.029312432 -0.024145335 0.037910201
-0.020838976 0.031763256 0.037404992
0.031086922 -0.03023535 0.033790037
0.031883001 -0.025824487 0.033486649
0.029852211 -0.021987915 0.034034982
-0.018018544 0.032157183 0.033125296
-0.021750629 0.033347547 0.034196004
0.034339547 -0.027540416 0.02860032
0.032199442 -0.025333822 0.02878432
0.030156493 -0.020712316 0.02937521
0.029891551 -0.016979635 0.02873306
-0.017492533 0.032300293 0.029359803
-0.021829724 0.033279598 0.028804973
0.0345245 -0.026944906 0.024290994
0.032024801 -0.024783164 0.0250137
0.02886039 -0.019512743 0.02426438
0.029652417 -0.015930235 0.024982229
-0.012085736 0.03069061 0.024499074
-0.015511096 0.032405138 0.02527754
-0.01919347 0.033612072 0.023427829
0.029847801 -0.014140606 0.020545207
0.0301736 -0.01008594 0.020263247
-0.0095175505 0.030997932 0.020847134
-0.014264226 0.031496584 0.020027034
0.028806448 -0.01301527 0.016238473
0.028728545 -0.0086817145 0.016827516
0.027172446 -0.0047440529 0.015477799
-0.0044035316 0.031377137 0.016066782
-0.0091580749 0.03095758 0.016366355
0.026450396 -0.0076574087 0.012299083
0.026999712 -0.004404366 0.011834346
-0.0033937693 0.031014025 0.013103537
-0.0061231256 0.031079233 0.011587553
0.027819693 -0.0019040108 0.0077727363
0.028955519 0.002070725 0.007566981
0.0026937127 0.031126261 0.007703267
-0.001480639 0.031179845 0.0079018101
0.0287925 -0.00029093027 0.0029086396
0.029853165 0.0030007362 0.0045609698
0.0035706758 0.030323029 0.0040439591
0.00043195486 0.030293763 0.0046270713
0.030922949 -0.030138075 0.031936064
0.029894888 -0.030550152 0.029585138
0.030274212 -0.024142832 0.026411787
-0.023769617 0.033743083 0.02603589
0.035055578 -0.02633965 0.021943107
0.031920671 -0.02535066 0.022568956
0.029398859 -0.022334307 0.022502765
-0.019603968 0.034753203 0.022442564
0.028747737 -0.02167812 0.0187025
0.028940499 -0.017586112 0.017752044
-0.016554117 0.0328843 0.018805318
-0.019152284 0.033772826 0.018581085
0.028935969 -0.015545845 0.014524482
0.026911855 -0.011279643 0.01303374
-0.012540996 0.030856848 0.013624512
-0.015979111 0.031785309 0.014285885
0.026846826 -0.0095388293 0.010151915
-0.010015309 0.030906558 0.010454379
0.027786016 -0.0076848269 0.0056099221
0.02777499 -0.0041249394 0.0057446882
-0.0050310493 0.030773997 0.0054005906
-0.0078787804 0.030900419 0.0061733946
0.028795779 -0.0030178428 0.0018979833
0.033218145 -0.028904259 0.016643099
0.030907571 -0.026250452 0.016456239
0.028733075 -0.022016644 0.015952788
0.029866099 -0.02620098 0.012115441
0.028462589 -0.021740884 0.011990391
0.027903318 -0.017555803 0.011793457
-0.019046903 0.031286299 0.011237495
-0.021697164 0.032533228 0.011580817
0.028364182 -0.020823717 0.0068131313
0.027904987 -0.015833557 0.0080608055
0.026385903 -0.01223278 0.0075187311
-0.012002707 0.03029412 0.0071148798
-0.016686559 0.031318307 0.007502459
0.028437734 -0.018832922 0.0034343824
0.028560162 -0.014833152 0.0030658469
0.028030455 -0.010914385 0.0038224384
-0.011631966 0.03063035 0.0031709
-0.015288472 0.031028092 0.0023224875
0.02958566 -0.028534502 0.0094587132
0.027255177 -0.024078041 0.0085815117
-0.025080085 0.032111585 0.0082391128
0.029552281 -0.027046233 0.0046580657
0.028417826 -0.022969633 0.0054148957
-0.020168543 0.03170836 0.0043897554
-0.023372114 0.032069027 0.0056047365
