# .PCD v0.7 - Point Cloud Data file format
VERSION 0.7
FIELDS x y z
SIZE 4 4 4
TYPE F F F
COUNT 1 1 1
WIDTH 1177
HEIGHT 1
VIEWPOINT 0 0 0 1 0 0 0
POINTS 1177
DATA ascii
-0.028364241 0.031801939 0.17751361
-0.030054867 0.030613363 0.17724429
-0.029349267 0.032944441 0.17422332
-0.031138539 0.032182038 0.17413257
-0.018980384 0.031391084 0.17822729
-0.023257613 0.028858423 0.17956094
-0.026410103 0.026077032 0.17932902
-0.029400647 0.023181617 0.1785823
-0.020735264 0.032850087 0.17577745
-0.025304615 0.032122254 0.17699467
-0.030323625 0.026912749 0.17704587
-0.031584024 0.024572015 0.17602275
-0.02263236 0.033228695 0.17169304
-0.026090205 0.032993555 0.17189427
-0.031500876 0.030908406 0.17199855
-0.03288734 0.0265553 0.17101817
-0.027376175 0.033778429 0.16644372
-0.031202435 0.031905532 0.16749741
-0.033759177 0.028956175 0.16637532
-0.029696703 0.03435266 0.16325338
-0.031985641 0.033024907 0.16381194
-0.034833014 0.030061364 0.16317783
-0.012473881 0.028970003 0.17979227
-0.014118135 0.026688516 0.1806332
-0.019010603 0.024136543 0.17985468
-0.02358526 0.020266414 0.17977874
-0.026884258 0.017178178 0.18003152
-0.028963625 0.014719546 0.17944507
-0.013311446 0.031572223 0.17755635
-0.01686722 0.029959023 0.17898016
-0.019508243 0.028020203 0.17938809
-0.024277806 0.023133337 0.17985745
-0.029034972 0.020225585 0.17891578
-0.031578481 0.016964436 0.17724316
-0.014802337 0.033156991 0.17350401
-0.018489897 0.03308177 0.17336856
-0.031667769 0.021813691 0.17412935
-0.032148302 0.017375946 0.17361097
-0.016163468 0.03352052 0.1686881
-0.019292057 0.033232749 0.16924314
-0.032476664 0.022214174 0.16905008
-0.020541012 0.033348203 0.16457914
-0.023901463 0.033317447 0.16560958
-0.033185005 0.026092052 0.16638009
-0.022250652 0.033499599 0.16024183
-0.026413262 0.033278525 0.16003208
-0.031076133 0.03073436 0.15949856
-0.032556474 0.027980566 0.15906708
-0.027311265 0.032926977 0.15543555
-0.029634893 0.031484067 0.15600096
-0.0067619085 0.024509668 0.18257676
-0.010807395 0.02186358 0.18231611
-0.00076597929 0.031306684 0.1776204
-0.004201591 0.028711796 0.17845626
-0.008163631 0.0268628 0.18031885
-0.01304996 0.024318635 0.18180792
-0.015945435 0.020172179 0.18058838
-0.019786119 0.01702857 0.18039803
-0.024248183 0.014188766 0.18055223
-0.029893875 0.013303399 0.17927532
-0.029049277 0.0081804395 0.17785774
-0.0021774173 0.033016801 0.17461137
-0.0061009526 0.031714141 0.17527865
-0.0095196962 0.030613124 0.17658482
-0.030982971 0.01165235 0.17679082
-0.031765223 0.0095304251 0.17488454
-0.0037229657 0.034363985 0.17102908
-0.0073218346 0.033036888 0.17077444
-0.011396468 0.032015562 0.17143799
-0.032092154 0.014896989 0.17062478
-0.032644629 0.013051212 0.16903301
-0.012201726 0.03261894 0.16688912
-0.031801164 0.016539812 0.16706555
-0.032787919 0.012971759 0.16750042
-0.014944673 0.032958448 0.16246389
-0.01770556 0.033524513 0.16208129
-0.032664359 0.021324575 0.1634848
-0.03304708 0.021381855 0.16049074
-0.016203523 0.033188343 0.15858306
-0.019988894 0.034222245 0.15827669
-0.022862196 0.032699049 0.15675102
-0.031987011 0.02403897 0.15788351
-0.02113682 0.03415674 0.15419255
-0.024877489 0.033006608 0.15346853
-0.030264497 0.029048979 0.15360637
-0.031601965 0.026789963 0.15467156
-0.027530551 0.032550931 0.14974241
-0.030971348 0.030721009 0.14939873
-0.033012927 0.028068364 0.14832126
-0.029467762 0.033412158 0.14592005
-0.031704366 0.03212744 0.14465941
-0.034153819 0.029509544 0.14506893
-0.0019631386 0.019980311 0.18404056
0.0069625378 0.029045701 0.17918168
0.0028820038 0.028455615 0.18082909
-0.00053328276 0.024402618 0.18062107
-0.0032849312 0.02205658 0.18248634
-0.0093643069 0.017757595 0.182588
-0.011832714 0.014164686 0.1806549
-0.01532352 0.01142782 0.18141763
-0.019762218 0.0099216104 0.1795858
-0.022699177 0.0058864355 0.17916186
-0.028234899 0.00043386221 0.17888431
0.0054888129 0.033180237 0.17725746
0.0013532639 0.030998528 0.17887683
-0.0021630526 0.027607381 0.17902292
-0.005048573 0.026125908 0.17920916
-0.019196451 0.012093127 0.18000518
-0.02467221 0.0062186718 0.17807911
-0.029231071 0.0042510033 0.17714988
-0.031832039 0.0007673502 0.17613153
0.0039559603 0.035126746 0.17332397
-0.00042200089 0.033832669 0.17378311
-0.031568348 0.0062745214 0.17288063
-0.032488286 0.0032708645 0.17238514
0.0032920837 0.035559237 0.1687852
-0.00092673302 0.034631014 0.16894098
-0.0063795447 0.032656431 0.16881151
-0.032453179 0.0077349544 0.16840725
-0.033621371 0.0050615072 0.16795783
-0.002635181 0.034324408 0.16446604
-0.0066938996 0.032529235 0.16497664
-0.010204852 0.031466722 0.16360782
-0.031527042 0.013720155 0.16396074
-0.033124864 0.010536015 0.16406487
-0.0075649619 0.033070087 0.15934341
-0.011630476 0.03224498 0.16026334
-0.031506836 0.013752878 0.15938215
-0.032543898 0.010931194 0.16071926
-0.009034276 0.03450352 0.15489618
-0.013665438 0.03331852 0.15574928
-0.016413391 0.032662153 0.15381403
-0.031358302 0.020142734 0.15514247
-0.032462239 0.017008066 0.15539263
-0.011182368 0.035106897 0.15180017
-0.01439482 0.033600807 0.15103017
-0.018635452 0.032710671 0.150829
-0.031586528 0.022919416 0.15146218
-0.032632053 0.019137383 0.15044807
-0.019943357 0.032430351 0.14726652
-0.024352431 0.031968772 0.14712252
-0.033156216 0.024265707 0.14767782
-0.033450186 0.021883011 0.14510573
-0.021755099 0.033762872 0.14115207
-0.025463343 0.033098698 0.14258189
-0.030648828 0.031688333 0.14202927
-0.033982515 0.027557313 0.14237739
-0.027080953 0.034197152 0.13789879
-0.031074822 0.031441152 0.13842081
-0.033167958 0.027935684 0.13761948
-0.028658152 0.034160495 0.13413079
-0.031383336 0.031448781 0.13435654
0.023628294 0.033436894 0.1835048
0.0205369 0.030546904 0.18273093
0.016954958 0.027963638 0.18206309
0.014256239 0.025822878 0.18166719
-0.00063669682 0.015857458 0.18281959
-0.0037825108 0.012970865 0.18233113
-0.0065358281 0.010936797 0.18197162
-0.011576474 0.0077579021 0.18214761
-0.017126918 0.0022908449 0.18187393
-0.017541826 -0.00022673607 0.18135218
-0.02245599 -0.003670752 0.1814418
-0.027631104 -0.0063844323 0.18236928
-0.031329513 -0.0081033111 0.18241261
0.026420593 0.037350237 0.17907344
0.025724232 0.035769463 0.18036906
0.018776715 0.031657338 0.17964976
0.014684975 0.030080438 0.17936738
0.010849416 0.027480483 0.17939423
0.007856071 0.022981107 0.1790906
0.0043552518 0.018730521 0.18026857
0.0014513135 0.01783967 0.18059574
-0.0050446391 0.015831232 0.18132369
-0.0087860227 0.010125041 0.18065481
-0.010707736 0.0089949369 0.18074201
-0.017301857 0.0054624677 0.18035506
-0.020729303 0.0018202662 0.17979006
-0.024508715 -0.00083225965 0.17941992
-0.028890491 -0.0039367676 0.17964675
-0.032604992 -0.0071533918 0.17941321
-0.035096645 -0.0091888309 0.17784618
0.027029693 0.041854501 0.17695855
0.01569587 0.034188569 0.17492171
0.012561142 0.032634497 0.17547114
-0.024437606 0.0023484826 0.17709135
-0.031786025 -0.0020118952 0.17587976
-0.034369886 -0.0047926903 0.17491819
-0.035763621 -0.0087916851 0.17420249
0.014595091 0.035432339 0.17079209
0.010567904 0.034497917 0.17101113
-0.033491075 0.00059902668 0.1706747
-0.035676658 -0.0034161806 0.17009465
-0.038399577 -0.0049529076 0.16868742
0.0098611116 0.035042226 0.16722091
0.0067201257 0.034094334 0.16567652
-0.034532547 0.001896441 0.16597031
-0.036565661 -0.0014312863 0.16662662
0.0037561655 0.034104884 0.16196911
0.00019049644 0.034163833 0.16167252
-0.033315778 0.007232666 0.16146265
-0.034140944 0.0033541918 0.16113572
0.0017070174 0.034597397 0.1575651
-0.0015261173 0.033684433 0.15799277
-0.0047228336 0.032810092 0.15889229
-0.031947196 0.0096043348 0.15764277
-0.033014297 0.0046534538 0.15759261
-0.0032165647 0.034057975 0.15256174
-0.0064720511 0.033695459 0.15380912
-0.032881916 0.011003733 0.15267073
-0.0078564286 0.034158707 0.14925055
-0.011938035 0.033236802 0.14803986
-0.033078909 0.015629292 0.14878519
-0.033017576 0.012461841 0.14947639
-0.0081301332 0.034506917 0.14466734
-0.013684571 0.032606304 0.14517562
-0.017867327 0.032084465 0.14386933
-0.032341838 0.016557157 0.14493836
-0.018628478 0.03201282 0.14012264
-0.033192754 0.023250222 0.13911749
-0.032908857 0.020013511 0.14129446
-0.021755695 0.032619417 0.13526718
-0.023536444 0.032690346 0.13489963
-0.033655822 0.026481152 0.13540213
-0.022572398 0.03341043 0.13169961
-0.026199937 0.034093559 0.1313277
-0.030585349 0.031026244 0.13108204
-0.032472312 0.027695417 0.13176908
-0.027072728 0.033535838 0.12745686
-0.030300856 0.031268299 0.12807016
-0.031993985 0.027995944 0.12748282
0.021207452 0.027934074 0.18551455
0.018878281 0.024542034 0.18591563
0.017393708 0.020649552 0.18296008
-0.014526784 -0.0056609511 0.18260764
-0.017993867 -0.007804513 0.18312444
-0.022796094 -0.012514532 0.1825075
0.028108001 0.036363125 0.18161254
0.025022149 0.033443034 0.18148838
0.020742774 0.028522491 0.1841969
0.017918468 0.025179505 0.18331032
0.013968945 0.022565186 0.1806374
0.010923982 0.019894004 0.17994545
0.0069100857 0.015185952 0.17998035
-0.0031386614 0.0095245838 0.18255265
-0.0056996346 0.0061936975 0.18146466
-0.0081095695 0.0035284758 0.18127744
-0.013251245 0.00061619282 0.18137954
-0.017148077 -0.002841115 0.18158691
-0.020948231 -0.0054119229 0.18178053
-0.024829209 -0.0086194277 0.18225004
-0.027247548 -0.010031402 0.18390231
0.027149916 0.037411153 0.17766084
0.023607075 0.03433913 0.17776917
0.019630015 0.03262955 0.17735295
0.027187288 0.036776006 0.17335714
0.023613036 0.035212576 0.17209895
0.019067168 0.03419286 0.17350076
-0.036001384 -0.0089088678 0.1718909
0.01784426 0.034794927 0.16856758
-0.036070347 -0.0093957186 0.16944753
0.015158594 0.034688711 0.16555588
0.011876762 0.034311712 0.16418575
0.0079758763 0.033654094 0.16308154
-0.036587536 -0.003108263 0.16412292
0.010910034 0.032898664 0.1597793
0.0069177747 0.033094406 0.15938927
-0.035651386 -0.00067186356 0.16018192
0.0056419373 0.033114791 0.15499161
0.0014246106 0.033576429 0.15446983
-0.032353818 0.0059267879 0.15464936
-0.033713698 0.0027045608 0.15542163
0.0037075281 0.03297317 0.15040193
-0.0002502799 0.033015311 0.15109579
-0.032818675 0.0068790317 0.15027319
-0.033046722 0.0031269193 0.15088211
-0.0034231544 0.03418076 0.14671747
-0.0072968006 0.033365607 0.14654128
-0.032622695 0.0099028349 0.14631115
-0.0036600828 0.034494221 0.14315154
-0.0070043206 0.033805668 0.14183716
-0.012058258 0.032645941 0.142233
-0.031973541 0.014015734 0.14149533
-0.032210171 0.010941267 0.14253883
-0.0090175867 0.033551931 0.13777171
-0.012928963 0.032672107 0.13805668
-0.015961289 0.031884015 0.13771723
-0.031433105 0.017906606 0.13717727
-0.014217556 0.033193529 0.13313545
-0.018530726 0.032497168 0.13427411
-0.032165349 0.023039937 0.13245098
-0.030978978 0.017925382 0.13387917
-0.015672505 0.034329772 0.1287619
-0.020316601 0.033989847 0.12959938
-0.032076359 0.023400366 0.12901054
-0.017083883 0.034804821 0.12601434
-0.021083593 0.033729613 0.12522374
-0.025501609 0.033413351 0.12466107
-0.02993691 0.029442251 0.12467702
-0.031305313 0.025193155 0.12405472
-0.02666831 0.033575714 0.12010621
-0.030452728 0.030234635 0.12032841
-0.02768302 0.03349638 0.11643444
-0.030603826 0.031945169 0.11524491
-0.011167943 -0.011422455 0.18531559
-0.015283048 -0.013233662 0.18563448
-0.017687738 -0.016863763 0.18522875
0.019485712 0.020232975 0.18403073
0.018344581 0.016015172 0.18299489
0.014959991 0.01338774 0.18208869
0.01088655 0.010257244 0.18015061
0.0085732341 0.008176744 0.180084
-0.0022022128 -0.00017827749 0.18164639
-0.00427109 -0.0010812879 0.18181179
-0.0090738535 -0.0055046082 0.1826226
-0.012494087 -0.0084573627 0.18371896
-0.016491115 -0.011947691 0.18397801
-0.019626558 -0.014834166 0.18313645
-0.022848547 -0.015486419 0.18337221
0.016659796 0.017039478 0.18069245
0.012990892 0.015028298 0.1805024
0.0097848177 0.013629496 0.17959534
0.0057243109 0.010336816 0.18111728
-0.0064126253 -0.0021688342 0.18039204
-0.008656621 -0.0027102232 0.18067609
0.027534425 0.035747528 0.16991238
0.027604342 0.035734594 0.16702117
0.024342477 0.034368813 0.16587551
0.020579457 0.033412337 0.16520022
0.022754967 0.033414006 0.16161467
0.018895924 0.032978714 0.16127424
0.015594065 0.032313883 0.16119613
0.017525017 0.033973813 0.15669475
0.013087034 0.03271234 0.15722068
-0.034442723 -0.0049902797 0.15585773
-0.034913063 -0.0088464618 0.15440527
0.015189648 0.034670055 0.15240537
0.011779666 0.033444047 0.15279119
0.0085152984 0.032553613 0.15244399
-0.033060372 0.00026547909 0.15248741
-0.034433007 -0.0041224957 0.15219049
0.010898232 0.034208238 0.14821307
0.0066350698 0.033138692 0.1481726
0.0022792816 0.032044649 0.14807244
-0.032007694 0.00097459555 0.14753129
-0.033873856 -0.0034384131 0.14874364
0.0048859715 0.033614337 0.14355902
0.0008135438 0.032489061 0.14453204
0.0032026768 0.034079671 0.13938977
-0.0007981658 0.033287823 0.1393175
-0.031215191 0.0088495612 0.13933004
-0.0017637014 0.034300208 0.13556577
-0.0058885217 0.033612907 0.13594197
-0.0094051957 0.031932414 0.13464741
-0.030572295 0.012264788 0.13503005
-0.030897856 0.008367002 0.1351053
-0.0042661428 0.034508049 0.13100491
-0.0076322556 0.034278214 0.13090478
-0.010634661 0.032447398 0.13105802
-0.031220675 0.01557076 0.13083251
-0.031277776 0.011468768 0.13125427
-0.0087023973 0.034292221 0.12604134
-0.01221633 0.032794476 0.12633936
-0.031548142 0.020277143 0.12504818
-0.031493545 0.016622841 0.12717198
-0.013972759 0.031575203 0.12186794
-0.017669141 0.032398522 0.12198512
-0.030492246 0.020779073 0.12170811
-0.020219922 0.033011496 0.11779083
-0.031176865 0.023731351 0.11830924
-0.0215832 0.032945275 0.11435364
-0.025166929 0.03303498 0.11281611
-0.028867602 0.03156203 0.11163722
-0.031910241 0.026738346 0.1136647
-0.026971102 0.031769276 0.10904469
-0.030171394 0.029998899 0.10962109
-0.031895041 0.027175903 0.10935785
-0.0047515631 -0.010892093 0.18397911
-0.0076492429 -0.011588395 0.1854272
0.01663053 0.0097262859 0.18209796
0.01312393 0.0074805617 0.18091016
0.011518657 0.0046852231 0.18106829
0.0015571713 -0.0042156577 0.18001314
-0.0022089481 -0.0065905452 0.18118738
-0.0043975115 -0.0071671009 0.18196885
0.027109027 0.033987522 0.16247247
0.02936846 0.035514057 0.15765427
0.026209414 0.032659352 0.15861104
0.022732317 0.03199631 0.1596723
0.023636937 0.032796144 0.15492754
0.021338463 0.032751501 0.15379785
0.022268653 0.034273684 0.14921696
0.018480957 0.034062147 0.15035616
-0.035345316 -0.0060418248 0.1488805
-0.035949171 -0.0085052252 0.15025494
0.021209836 0.035554409 0.14578001
0.017205596 0.034770906 0.14561938
0.012692153 0.03420788 0.14603268
-0.031979561 -0.0022927523 0.14598976
-0.034161985 -0.0050429106 0.14550237
-0.036720693 -0.0080786347 0.14541802
0.016496122 0.035189033 0.14235412
0.01154834 0.034349024 0.14176415
0.0073298216 0.034330189 0.1412238
-0.030669034 -0.00051158667 0.14106564
-0.033355653 -0.004580915 0.14137428
0.010116994 0.034671366 0.13689922
0.0057826042 0.034459949 0.137181
-0.030258298 0.0043227673 0.1370268
-0.031322241 0.00076490641 0.13584535
0.0078209639 0.035156608 0.13248061
0.0047137141 0.034101963 0.13239171
0.00045281649 0.033643603 0.13236554
-0.031140864 0.006026268 0.13233037
0.0034055114 0.034016252 0.12855659
-0.0010353327 0.033533931 0.12835582
-0.031547606 0.0092815161 0.12792061
-0.0018429756 0.033386648 0.12394445
-0.0057510734 0.033902645 0.12414889
-0.010779858 0.032437801 0.12381046
-0.031329274 0.014204264 0.12370579
-0.031457007 0.0091876388 0.12440144
-0.0077973604 0.033345997 0.1202821
-0.012255728 0.032279193 0.12062575
-0.030457139 0.01567781 0.11967604
-0.010915935 0.03443706 0.11629932
-0.013297677 0.032774925 0.11535339
-0.016841471 0.032581866 0.11634634
-0.030997217 0.020325363 0.11516558
-0.031398177 0.017700851 0.1144463
-0.014109731 0.033007085 0.11130019
-0.019160986 0.033047676 0.11112575
-0.0318892 0.024107575 0.11001919
-0.020290136 0.032999635 0.10689677
-0.024864435 0.032481134 0.10728253
-0.030070245 0.029543757 0.10637261
-0.031998217 0.024885535 0.10667534
-0.032183766 0.020890892 0.10741995
-0.022364676 0.033487558 0.10156016
-0.025682271 0.03319788 0.10299249
-0.030123413 0.030634522 0.10344367
-0.032062113 0.026652694 0.10231082
-0.023389339 0.034673572 0.098065883
-0.026768148 0.033821821 0.097830921
-0.030072749 0.031334519 0.098092794
-0.031941295 0.028120637 0.098118633
0.0032470226 -0.014400005 0.18441211
0.00014466047 -0.015591979 0.18586485
0.013689756 -0.0038384199 0.18104385
0.005263567 -0.0091252923 0.18133549
0.0024523735 -0.010684431 0.18235342
-0.0016620755 -0.012935877 0.18379034
0.0089946389 -0.0020712614 0.17915975
0.0018975735 -0.0078828931 0.18066122
0.033835053 0.035252929 0.15508066
0.031111419 0.031825721 0.15569918
0.034004837 0.035859704 0.15039472
0.030688047 0.033521771 0.15206783
0.026134014 0.032819271 0.15282337
0.028543949 0.035952508 0.14834724
0.02484256 0.034393072 0.1487069
0.026917219 0.03674233 0.1438093
0.023654461 0.035629988 0.1433429
0.022704184 0.035120368 0.13897036
0.0177297 0.034792244 0.13886763
0.014241338 0.034155428 0.13804241
-0.031668961 -0.0026458502 0.13778363
-0.033711612 -0.0057029724 0.13844912
-0.035933197 -0.0095339417 0.13911697
0.016994894 0.034155786 0.13442002
0.013117552 0.034825742 0.13484029
-0.032546401 -0.0015949011 0.13504098
-0.034874678 -0.0037235618 0.13495265
-0.036724567 -0.0076893568 0.13463894
0.015455782 0.034008503 0.13041838
0.011406541 0.034854114 0.13076632
0.0077471137 0.034899473 0.1299877
-0.03243202 0.00047582388 0.13074146
-0.035722792 -0.0031619072 0.13043238
-0.037232995 -0.0068707466 0.13051409
0.0099266768 0.035178065 0.12630744
0.0059591532 0.034315467 0.12607889
0.0017108917 0.032423019 0.12576337
-0.031816006 0.0050216913 0.12704937
-0.033039749 0.0011283755 0.12569122
-0.036204159 -0.0021961331 0.1259314
0.0040894151 0.034221411 0.122292
0.00014585257 0.033250928 0.12126859
-0.030579686 0.010968506 0.1203749
-0.031921983 0.0072802305 0.12168156
-0.032603323 0.0035084486 0.1210591
-0.0011759996 0.033530891 0.11694925
-0.0057653785 0.032949865 0.11721779
-0.030736923 0.013621151 0.11630543
-0.030847788 0.00942415 0.1170138
-0.0025445223 0.03421247 0.11275332
-0.0072486997 0.033683658 0.11353086
-0.031295002 0.014009774 0.11327054
-0.031251848 0.010811388 0.11391591
-0.0076848269 0.033614933 0.10866188
-0.012354255 0.03294009 0.10878159
-0.015669048 0.03216666 0.10853688
-0.030978799 0.017063677 0.10873152
-0.0096099377 0.03308624 0.10399668
-0.013329744 0.033126414 0.10388948
-0.017089903 0.032635808 0.10455491
-0.032241702 0.020250142 0.10391872
-0.0148018 0.033280253 0.099048734
-0.019086897 0.03329742 0.10015641
-0.031574965 0.02293998 0.099640906
-0.032396019 0.019806087 0.10049121
-0.016108394 0.033777833 0.095874369
-0.020482659 0.034070015 0.095288008
-0.02483207 0.033492208 0.094718128
-0.031207502 0.029320598 0.094997227
-0.031615376 0.025357068 0.095449626
-0.021141708 0.03359884 0.091548592
-0.025781929 0.033085346 0.091228515
-0.029897094 0.029829443 0.091688097
-0.031223655 0.025539994 0.092059821
-0.026339591 0.032626987 0.08700183
-0.028713465 0.031199634 0.087432057
0.01429075 -0.010947526 0.18245427
0.011192918 -0.014175355 0.1828988
0.0062570572 -0.014559865 0.18400066
0.0042582154 -0.017573059 0.18587072
0.013242781 -0.0086209774 0.18001594
0.0098717213 -0.012390614 0.1802768
0.033237517 0.029078782 0.15679525
0.035378337 0.033834457 0.15198414
0.033318758 0.032672644 0.15129791
0.03162846 0.033078492 0.14449538
0.029203832 0.03554064 0.14055781
0.031454057 0.038018465 0.1345164
0.028839767 0.036643684 0.13682501
0.024628997 0.035328507 0.13648658
0.030258179 0.039532959 0.13112523
0.027440786 0.03646189 0.133058
0.024015963 0.034421086 0.13220344
0.020128131 0.03355372 0.13188617
0.022109747 0.034641445 0.12827359
0.018408239 0.033558726 0.12757014
0.014786541 0.033011913 0.12618823
0.016789913 0.033793747 0.12348987
0.013011098 0.034051716 0.12321036
-0.035114467 -0.0030015111 0.12216075
0.010840178 0.034083545 0.11919685
0.0068050027 0.032443583 0.11842011
-0.032744586 0.00050163269 0.11881287
-0.03462863 -0.0039225817 0.11946385
0.0091999173 0.033946872 0.11499931
0.0054696202 0.033675194 0.114796
0.0020197034 0.033399582 0.11614217
-0.03131038 0.0054607987 0.11516769
-0.031966925 0.0017815828 0.11405744
0.0037630796 0.034098744 0.11041622
0.00014925003 0.033902884 0.11013375
-0.029998958 0.010531902 0.10855664
-0.030733645 0.0070332289 0.10977434
-0.0010387897 0.0334903 0.10578422
-0.0054184198 0.033292115 0.10578291
-0.031248629 0.012356818 0.1061206
-0.030920327 0.0083405972 0.10559498
-0.0032491088 0.033878267 0.10097377
-0.0064501166 0.033358157 0.10161711
-0.0096482038 0.032700121 0.10138144
-0.031275034 0.014753222 0.10189663
-0.031149447 0.011167943 0.10154425
-0.0075035095 0.033975244 0.098070383
-0.011481106 0.033030629 0.097537905
-0.031165242 0.019980967 0.096893042
-0.031560063 0.015934527 0.09733817
-0.01347506 0.033267319 0.092834264
-0.015814245 0.032400668 0.091138989
-0.031175613 0.022158146 0.091748267
-0.031109393 0.01832217 0.093392164
-0.015487552 0.034307241 0.087477714
-0.019163072 0.033299923 0.088423282
-0.023622751 0.033100903 0.087557048
-0.029835403 0.028504431 0.087653697
-0.030852675 0.024027646 0.088085741
-0.020902216 0.033434391 0.08376953
-0.025053561 0.032248735 0.083790749
-0.028854311 0.028633296 0.083572745
-0.030186892 0.025210142 0.084084481
-0.022703171 0.033304274 0.080610186
-0.025699914 0.032105505 0.079314053
-0.028494 0.029554546 0.079529881
0.01542753 -0.012806714 0.18340991
0.012865484 -0.015208483 0.18331675
0.011235833 -0.012667596 0.17785339
0.030627668 0.036257625 0.13338234
0.02908504 0.03577435 0.1298397
0.02570051 0.034941494 0.13000987
0.030100763 0.03988272 0.12592365
0.028561592 0.03650105 0.12520255
0.024931252 0.033756495 0.12506495
0.020017505 0.033156037 0.12502863
0.023148 0.033643305 0.1209061
0.019308865 0.033269823 0.12100469
0.01744473 0.033593178 0.11645024
0.013973892 0.033958673 0.11709543
-0.033918679 -0.0051900148 0.11571164
0.016287386 0.033689737 0.11155204
0.01246959 0.033304214 0.11193667
0.0088074803 0.033267677 0.11114745
-0.032214046 0.00010699034 0.11194016
-0.033427596 -0.003762126 0.1115946
0.011585474 0.03314209 0.10764723
0.006898284 0.033385098 0.10783844
-0.032212317 0.0013902783 0.10789607
-0.034105539 -0.0025652647 0.10754143
0.0097651482 0.033685207 0.10435514
0.0056910515 0.033433795 0.10360973
0.0016430616 0.032741666 0.10314502
-0.031406581 0.0064003468 0.10384579
-0.032449603 0.0018645525 0.10433905
0.0038858056 0.034139037 0.098239124
0.00022548437 0.033558309 0.099429637
-0.031728446 0.0075984597 0.099069864
-0.0014537573 0.033589005 0.095002115
-0.0056183934 0.032319129 0.09378621
-0.030851603 0.012111843 0.093371153
-0.031308293 0.010312736 0.096270025
-0.0065825582 0.03273344 0.08981958
-0.010641277 0.03259033 0.090684444
-0.031012356 0.014999866 0.090148807
-0.0081915855 0.033158779 0.086160064
-0.011968434 0.033204675 0.085919946
-0.016612232 0.03281641 0.085578322
-0.031110644 0.020695388 0.085327595
-0.031686842 0.017878175 0.086217254
-0.014173031 0.033243775 0.081910461
-0.017224133 0.032431662 0.08178857
-0.030734718 0.022076666 0.08230418
-0.031807125 0.019024134 0.081540525
-0.015187144 0.033127367 0.077919841
-0.019576788 0.032672644 0.078071326
-0.022786975 0.03295809 0.077958941
-0.029368103 0.026873708 0.078491509
-0.030750334 0.024003029 0.07762149
-0.031495273 0.019955397 0.078365326
-0.021197319 0.032539546 0.07395035
-0.025352895 0.032843232 0.073933572
-0.028936028 0.030124545 0.073307306
-0.030608058 0.025385737 0.073179573
-0.025781155 0.031873941 0.068989128
-0.028335452 0.030557096 0.0686647
0.030288458 0.035329759 0.12164764
0.027373314 0.034137845 0.12196933
0.029575825 0.03575772 0.11882122
0.02560693 0.034011602 0.1185445
0.028369009 0.035979569 0.11395787
0.024239659 0.03381294 0.11469786
0.020725667 0.03349942 0.11418624
0.023052931 0.033785999 0.11120798
0.019597411 0.033579111 0.10974155
0.016233861 0.034194827 0.10552977
0.013260186 0.033251584 0.10503303
-0.034565389 -0.0044044852 0.10665859
0.016334593 0.034440398 0.10127603
0.011805236 0.033664048 0.1010852
0.0075299144 0.033863246 0.10076682
-0.031914949 0.00046116114 0.10048102
-0.033036351 -0.0031392574 0.099525273
0.0087459087 0.034213781 0.096350402
0.0060970187 0.034513354 0.097122729
-0.032357574 0.0055894256 0.095839411
-0.03267318 0.0012708306 0.096204132
-0.034221709 -0.0017660856 0.095612377
0.0042516589 0.034242392 0.0926705
0.00078392029 0.03373611 0.09202981
-0.030779243 0.0063836575 0.091966867
-0.03256017 0.0025623441 0.092527658
0.0024723411 0.034453511 0.088712156
-0.00081801414 0.0338642 0.088527918
-0.0044389963 0.033765137 0.08774972
-0.030768812 0.0081748962 0.088141143
-0.0017094016 0.03428483 0.084004223
-0.0061332583 0.034061015 0.084328532
-0.031256199 0.014335096 0.084897399
-0.031598449 0.011492968 0.084023148
-0.0074141622 0.034423351 0.07938531
-0.011139035 0.033353686 0.07966128
-0.032171011 0.015531361 0.079407424
-0.032476485 0.011996984 0.078724742
-0.0092568994 0.034427643 0.07431078
-0.013194203 0.033679843 0.07470569
-0.017101765 0.031669557 0.074391991
-0.031356335 0.022038877 0.073918313
-0.032223284 0.017668426 0.074906081
-0.013840735 0.034158766 0.070923775
-0.018352509 0.031893432 0.070345312
-0.023052573 0.03193742 0.069961578
-0.030901909 0.022297919 0.069751948
-0.031570077 0.018560112 0.071022898
-0.019656003 0.031560719 0.066273302
-0.023550451 0.031136632 0.066016853
-0.028870225 0.027799308 0.066092819
-0.030250788 0.024119139 0.066161364
-0.023798525 0.031201303 0.062297672
-0.028069258 0.028614044 0.061696321
-0.030525744 0.024711668 0.062554032
-0.025718927 0.031348944 0.058384717
-0.028492391 0.029973686 0.05868423
0.031245053 0.032812238 0.11399324
0.028809905 0.034686208 0.11178081
0.026817501 0.032903612 0.11129345
0.028640687 0.034247935 0.10775976
0.024787247 0.033445239 0.1073208
0.020961821 0.033585429 0.1066118
0.023786962 0.032905817 0.10232584
0.019806862 0.033823133 0.10325928
0.018834531 0.032948256 0.098480135
0.014005125 0.033297062 0.098109931
0.017132819 0.033353448 0.094275087
0.013230681 0.032567501 0.094672412
-0.034797609 -0.0032643676 0.095272571
0.011952996 0.032103777 0.090869576
0.0085644126 0.032529891 0.089892298
-0.032731891 8.3506107e-05 0.089027643
-0.034401178 -0.0030408502 0.089848846
0.0059841275 0.032168508 0.085885227
0.0028970242 0.033249855 0.085637391
-0.030505896 0.0052283406 0.085032374
-0.032071114 0.0022938251 0.085218549
-0.033323586 -0.0016843081 0.085169345
0.0045495629 0.032785535 0.080749959
0.00064837933 0.033277929 0.081103116
-0.03080827 0.0058446527 0.080171227
-0.0015647411 0.03322947 0.076521039
-0.032050431 0.0092397332 0.077370852
-0.0024465919 0.033993721 0.071843714
-0.005949676 0.0343045 0.072706431
-0.032540262 0.01384145 0.071347862
-0.032570899 0.010917783 0.072917879
-0.0034154058 0.0350703 0.068155915
-0.0075427294 0.034419715 0.068558604
-0.012292743 0.033429801 0.067806929
-0.017242372 0.030747294 0.067894697
-0.031298399 0.01582402 0.068239927
-0.0086940527 0.034249067 0.0649997
-0.012908876 0.033576429 0.064213216
-0.017657697 0.031818032 0.064682096
-0.030067444 0.020810544 0.063607782
-0.030256629 0.018035293 0.064395696
-0.014409721 0.03374809 0.059157491
-0.018087208 0.031579912 0.059740633
-0.022582054 0.030006766 0.058426619
-0.030270875 0.023080289 0.058831155
-0.024335802 0.031349063 0.054482579
-0.028349757 0.029083073 0.055452317
-0.029972494 0.025217175 0.053846806
-0.025756478 0.031557739 0.050593108
-0.028649926 0.029745519 0.050476342
0.028409898 0.03322506 0.10468094
0.029286206 0.03441155 0.10144322
0.026914537 0.033784807 0.101831
0.027531207 0.036766887 0.09752062
0.024735868 0.034104586 0.096882045
0.020789444 0.032440424 0.096123844
0.026067138 0.038621128 0.093368739
0.023938656 0.034608185 0.091748029
0.019458413 0.033741236 0.09175691
0.014889479 0.032297611 0.090746909
0.017470658 0.032726645 0.087933809
0.0138762 0.031935751 0.087116748
-0.034379303 -0.0058990717 0.087473869
0.011883318 0.031542063 0.082686454
0.0084679127 0.031486511 0.083226979
-0.032974601 0.00037634373 0.082332969
-0.03421998 -0.0024756193 0.083076924
0.01007098 0.032525301 0.079183191
0.0068466663 0.032614768 0.078965932
0.0029777884 0.031971395 0.078307122
-0.032312036 0.0017704368 0.079182088
-0.035509825 -0.0023819208 0.078622103
0.0050396919 0.032553732 0.074486613
0.0025059581 0.032274783 0.075080067
-0.031798065 0.0064980388 0.074623436
-0.032410324 0.0020779967 0.074699402
-0.036483824 -0.0030012131 0.075207934
0.0036646724 0.032871723 0.071499765
0.00086385012 0.032530665 0.070759743
-0.031393111 0.0058246851 0.069937021
-0.00096225739 0.033612669 0.065727413
-0.0048801303 0.034039855 0.065587699
-0.030445993 0.011861324 0.064842254
-0.031021833 0.0098605156 0.066031426
-0.0036866665 0.034838676 0.063792229
-0.0069506168 0.034105659 0.061594188
-0.030277789 0.015174687 0.06103766
-0.0083690882 0.034536183 0.056511939
-0.012256742 0.034702659 0.057101607
-0.018397391 0.029733002 0.056816787
-0.0196082 0.029588521 0.055946559
-0.030344665 0.019645035 0.055391401
-0.030812383 0.016627192 0.056608051
-0.01330936 0.033408165 0.05222261
-0.018117011 0.032179594 0.052959591
-0.020514309 0.030686855 0.05310744
-0.030647516 0.022037446 0.052855104
-0.031576872 0.017827511 0.051550657
-0.014836133 0.032672942 0.048642963
-0.018391073 0.032392442 0.047826856
-0.023319721 0.031647861 0.048577517
-0.029468119 0.027518034 0.04811272
-0.031433821 0.024008036 0.048763335
-0.032094479 0.020914614 0.045792401
-0.019570649 0.032298207 0.044600368
-0.024539411 0.031872749 0.044326872
-0.028872848 0.028968155 0.044361353
-0.031184614 0.025413632 0.043693364
-0.025618911 0.032168269 0.039635509
-0.028754354 0.029966533 0.039383322
-0.030779541 0.027188838 0.039812982
-0.028569341 0.030618787 0.036014609
0.029188633 0.033989191 0.088769466
0.025834024 0.03540796 0.088949353
0.028877139 0.035493612 0.085429996
0.024922788 0.03334403 0.085052431
0.020525217 0.032323599 0.085612297
0.023351312 0.033503115 0.08066383
0.019666791 0.03221643 0.080856681
0.015746295 0.031097829 0.081516087
0.018374681 0.032762587 0.076750726
0.013981402 0.031861484 0.077040404
0.010149658 0.031980336 0.076375544
0.015704632 0.034381807 0.071341217
0.012896955 0.032896101 0.071591556
0.0089786649 0.031929672 0.073197156
-0.032866299 -0.00035405159 0.072532505
-0.034069657 -0.0034188032 0.071357816
0.014836669 0.035292745 0.067519695
0.010839283 0.033767879 0.066686004
0.0071454048 0.032668948 0.06784755
0.0035122037 0.03175962 0.067661852
-0.031977654 0.001172781 0.067234516
-0.034626424 -0.002515316 0.066392303
0.005803287 0.033145487 0.06283766
0.0019686818 0.032212973 0.06299746
-0.030178726 0.0064790845 0.06283465
-0.032153189 0.0013081431 0.063296646
-5.9664249e-05 0.032972217 0.058731973
-0.0030623078 0.032773614 0.057599485
-0.030250371 0.0088778734 0.058797747
-0.001342535 0.033718467 0.054270387
-0.0046380162 0.033729494 0.054525465
-0.030641854 0.01327616 0.05399695
-0.030163586 0.0092592835 0.055028528
-0.002702415 0.034263611 0.050971717
-0.0068035126 0.033740461 0.050368875
-0.010437608 0.033065975 0.049256653
-0.030210793 0.011776984 0.050658405
-0.0083906054 0.033632159 0.045305997
-0.012304723 0.033036292 0.046089113
-0.031054676 0.015751362 0.046180606
-0.013657093 0.033792734 0.041766524
-0.018817008 0.032604396 0.04220292
-0.031577229 0.022455752 0.041782588
-0.031204104 0.018481433 0.041920573
-0.015627325 0.034409523 0.038273364
-0.019291162 0.03334409 0.037627906
-0.023400426 0.032305717 0.038203806
-0.031283796 0.02341938 0.036932133
-0.020343125 0.033974171 0.032761358
-0.024727941 0.032171667 0.032741867
-0.029319108 0.029342949 0.032516263
-0.031030834 0.025471091 0.032952927
-0.02172929 0.03483808 0.028364442
-0.025745332 0.032297671 0.028615348
-0.028885782 0.029774666 0.028596036
0.030243754 0.034012377 0.081455559
0.029942036 0.033418417 0.077672184
0.026771843 0.033098757 0.078052938
0.023033082 0.032245457 0.076491416
0.024879694 0.032622933 0.073061109
0.021093071 0.032314897 0.073318928
0.023917556 0.034455121 0.069123268
0.019898117 0.033310711 0.068944693
-0.034850955 -0.0059987307 0.068486273
0.02176708 0.035884678 0.064928889
0.017642498 0.034932852 0.064856082
0.013216853 0.033789694 0.065241277
-0.035422027 -0.0056490898 0.065254807
0.017185032 0.035238147 0.061561167
0.012322426 0.033135355 0.061070561
0.0086024404 0.032147825 0.059778184
-0.029533505 0.0024838448 0.060336381
-0.031330526 -0.00098520517 0.05997473
-0.03405261 -0.0041064024 0.061011702
0.0065495372 0.032652318 0.056740254
-0.030111909 0.0044965744 0.056811363
-0.030609429 0.0010578036 0.056144029
-0.033420444 -0.0028285384 0.056866765
0.0044873953 0.032951951 0.052294284
0.0011802316 0.033415914 0.052627534
-0.029688537 0.0060324669 0.051927269
-0.00045883656 0.033144653 0.048114449
-0.029765487 0.010446131 0.04825142
-0.029640019 0.0083601475 0.047433913
-0.0018799901 0.032855034 0.044257671
-0.0054903626 0.033230424 0.044284165
-0.030373335 0.013736188 0.042534053
-0.029711723 0.0095233321 0.044315487
-0.0069841146 0.032191873 0.039680302
-0.010595441 0.033001363 0.037678748
-0.030590117 0.014999032 0.038603842
-0.013337195 0.032932341 0.034295678
-0.016742289 0.033385813 0.033431053
-0.031767905 0.021085083 0.033248268
-0.031255662 0.016797841 0.033204846
-0.015310228 0.03339839 0.029379159
-0.017903566 0.034026265 0.029992424
-0.02183497 0.031901956 0.029026501
-0.030863166 0.022985697 0.028908513
-0.03207761 0.020933926 0.029675625
-0.015929937 0.033933878 0.026165366
-0.019693255 0.033981383 0.025564395
-0.023809254 0.032000065 0.025556557
-0.028033435 0.02926892 0.02540984
-0.030584514 0.024405658 0.025390677
-0.021264672 0.034002781 0.020988367
-0.024452507 0.03190738 0.021314256
-0.028488934 0.029256523 0.021010868
-0.030245423 0.026043296 0.022086047
0.031094164 0.0336622 0.076136053
0.029789567 0.035140634 0.071911275
0.026929796 0.033293307 0.07194826
0.029322505 0.036242068 0.067605495
0.025203764 0.034900546 0.067340195
0.028429866 0.036154091 0.063471168
0.024026453 0.035936654 0.063183039
0.020354331 0.034762681 0.062273324
0.022985339 0.035519958 0.059588015
0.018706858 0.034316361 0.058522433
0.014769435 0.033120692 0.058529764
-0.032995403 -0.0051696897 0.057674795
0.017594099 0.034762383 0.054390103
0.012953341 0.033574998 0.055064261
0.0099966526 0.032171905 0.054510862
-0.031144321 -0.00089871883 0.054251015
-0.032521605 -0.0035417676 0.053681314
0.015250266 0.035262227 0.049663395
0.012179077 0.034174621 0.050155133
0.0079704523 0.032761216 0.050601095
-0.029883325 0.0041953921 0.049522042
-0.030657053 -0.00062793493 0.049970925
-0.032568336 -0.0040951967 0.050814152
0.010862529 0.034732461 0.045968652
0.006673038 0.033244848 0.045150489
0.002974987 0.032645404 0.045839548
-0.029698431 0.0042551756 0.04462871
0.005186379 0.033962071 0.040168732
0.00043237209 0.033118188 0.041000426
-0.0027840137 0.032617152 0.039652377
-0.029983461 0.0074393153 0.040012121
-0.00024789572 0.033671439 0.035907269
-0.00509727 0.032249033 0.036428332
-0.030637205 0.012874186 0.035993658
-0.030776799 0.0088883638 0.035846494
-0.0017538071 0.032878041 0.032211006
-0.0055618882 0.032523096 0.031658888
-0.0092564225 0.03135699 0.032115668
-0.031789243 0.014260292 0.03237363
-0.03143537 0.010260105 0.032508425
-0.0072807074 0.033153713 0.027977377
-0.011274397 0.03214258 0.02784121
-0.031832397 0.015406966 0.027762674
-0.014965653 0.033747554 0.023602217
-0.017881691 0.033581316 0.023008905
-0.031559944 0.021907985 0.022647373
-0.031986296 0.01816982 0.023458652
-0.033244729 0.014844775 0.022152625
-0.015399635 0.034261048 0.019294024
-0.018300176 0.034187138 0.019134663
-0.024267733 0.03107667 0.018571161
-0.030718565 0.023013353 0.019177251
-0.032126069 0.018837571 0.018839739
-0.020033658 0.03382504 0.015071832
-0.024076641 0.031089067 0.015376084
-0.027776301 0.027884424 0.014731966
-0.030208111 0.02347225 0.014925145
-0.019413054 0.034178495 0.010930233
-0.022600412 0.033229053 0.010662906
-0.027814984 0.027806282 0.011036597
0.031504214 0.032238364 0.063614726
0.030753314 0.033189237 0.061485469
0.028552771 0.033298254 0.058569282
0.024691463 0.033862293 0.055391282
0.0231359 0.033769131 0.051498532
0.020860851 0.033900559 0.05022794
0.018795431 0.034023106 0.046735138
-0.030866146 -0.0014114976 0.046531171
-0.032073736 -0.0061209798 0.045970649
0.01725626 0.034063399 0.042149395
0.013093829 0.033857346 0.041903466
-0.030703068 -0.000893116 0.042475164
-0.032409787 -0.0042842627 0.04206717
0.011130452 0.033813477 0.03794983
0.0064027905 0.034802675 0.038318485
-0.031269372 0.00088649988 0.037896574
-0.033082604 -0.0025221109 0.038047075
0.0098662972 0.03426981 0.034649163
0.0056241751 0.033744216 0.034119815
0.0013180971 0.03423661 0.033611506
-0.030527294 0.0052826405 0.033013158
-0.032080054 0.0025806427 0.034711443
-0.034010112 -0.0016330481 0.034127764
0.0035986304 0.033113539 0.030655473
0.00063866377 0.032620847 0.029348701
-0.0037811995 0.032663822 0.029119045
-0.031075656 0.0078587532 0.029641263
-0.00052458048 0.03138268 0.025773019
-0.0044335127 0.031725466 0.024780452
-0.0091817975 0.031653464 0.024940133
-0.031290591 0.010146499 0.025139473
-0.0063866377 0.031661987 0.020659238
-0.010542631 0.031883895 0.021807879
-0.03243196 0.016416132 0.020699941
-0.032664299 0.011883199 0.021231048
-0.0080580115 0.032815754 0.016248405
-0.01158613 0.032907724 0.017054111
-0.032059312 0.016864657 0.016359799
-0.032913268 0.013117015 0.016758703
-0.0094324946 0.033343196 0.012850434
-0.012970924 0.032442272 0.01231125
-0.01704222 0.033570707 0.012660861
-0.02333945 0.029916048 0.012286149
-0.030020714 0.022835433 0.011992209
-0.031485379 0.018132627 0.012826912
-0.014776051 0.032165825 0.0085586309
-0.018999815 0.032985926 0.0082147047
-0.023904502 0.031028867 0.0089855716
-0.027478516 0.028951049 0.009034209
-0.03002733 0.023972034 0.008577548
-0.019886017 0.033722162 0.0034903735
-0.024368942 0.031934023 0.0042338222
-0.028191507 0.028855383 0.0042060763
-0.02990818 0.025298774 0.0041994005
-0.021768928 0.033801377 -0.00096233189
-0.024815321 0.032347977 -0.00048677623
-0.027379394 0.029878378 -0.00027923286
0.035206854 0.034666598 0.056296229
0.032445431 0.033542871 0.058237016
0.030971408 0.033404887 0.053446442
0.028381407 0.03301388 0.054038852
0.030313253 0.033574343 0.048647135
0.026675284 0.033644378 0.049358636
0.028112173 0.035332739 0.04414168
0.024744034 0.034661591 0.044875413
0.020827591 0.034729302 0.044239938
0.026693702 0.03708601 0.039767474
0.023831248 0.035533845 0.040031284
0.019928753 0.0344522 0.040417314
0.022848427 0.035124958 0.036527812
0.018138528 0.034535348 0.036412477
0.014517844 0.033860624 0.036268204
-0.033110976 -0.0031203628 0.035103105
0.012989342 0.032759666 0.031656623
0.0081557035 0.033473909 0.031219959
-0.031960547 6.2167645e-05 0.031243347
-0.034150004 -0.0033319592 0.030472301
0.0069330931 0.032539368 0.027834684
0.0036373734 0.032463372 0.026734918
-0.030730367 0.0044487715 0.027279012
-0.031865954 0.0008379221 0.028501116
-0.03411746 -0.0027295351 0.02825769
0.0059077144 0.031389415 0.02376765
0.0018848777 0.032109916 0.023243397
-0.0019394159 0.031712115 0.022681534
-0.030965805 0.0063734651 0.02353432
0.00060206652 0.032278419 0.018685997
-0.0031808615 0.031995595 0.019143105
-0.032608986 0.0093910098 0.017908894
-0.0013158321 0.032759249 0.015534937
-0.0047789216 0.033011675 0.014639318
-0.033077896 0.010777891 0.01493343
-0.0066274405 0.033366203 0.010834426
-0.01087302 0.032925725 0.009909153
-0.031122267 0.015197515 0.0099503621
-0.031250477 0.011897504 0.0092421398
-0.0082029104 0.033192337 0.0049553141
-0.012476206 0.033096075 0.0061620995
-0.030546427 0.020092785 0.0059271604
-0.030563533 0.016851604 0.0064299032
-0.013201535 0.03384757 0.0015657768
-0.016043425 0.033271432 0.0020075366
-0.029853284 0.022155702 0.0014460534
-0.029756606 0.017864227 0.0019263476
0.030244827 0.034222066 0.037638247
0.027004898 0.036722302 0.034517974
0.024159491 0.03463459 0.033596098
0.01972425 0.033529103 0.033203721
0.024661005 0.034521043 0.030256063
0.019317865 0.032479465 0.029456735
0.015073657 0.031684577 0.029016584
0.01384449 0.030645132 0.024923563
0.01030153 0.030559838 0.024834603
-0.031079233 -0.0011321902 0.024884723
-0.033379138 -0.0030829906 0.025136881
0.012157798 0.031192303 0.0211218
0.0082649589 0.030572772 0.020629793
-0.030327737 -0.00038504601 0.021013521
-0.032352567 -0.0040491819 0.021669947
0.0065224171 0.031584859 0.016524851
0.0029985905 0.032036901 0.016637087
-0.030756235 0.0021634698 0.016242795
0.0051124692 0.032251716 0.011775702
0.00077176094 0.032393813 0.012628227
-0.032331765 0.0075389147 0.01151263
-0.032924652 0.0044110417 0.011814438
0.0031346083 0.033738434 0.0079904497
-0.00021797419 0.032940984 0.0078195333
-0.0043351054 0.031868875 0.0077899992
-0.031282425 0.0083389282 0.008241795
-0.032828808 0.0043975711 0.0085179433
-0.0015331507 0.033225715 0.0035094544
-0.0050910711 0.032512069 0.0036384389
-0.029805958 0.012605488 0.0034670085
-0.010899425 0.033715427 -0.00046748668
-0.029341042 0.015369475 -0.001146391
0.032263547 0.031210959 0.039571553
0.029687822 0.034373403 0.031438261
0.029306293 0.034683287 0.028908819
0.025286794 0.034716249 0.027377337
0.021682739 0.032634139 0.026749015
0.025384545 0.03406471 0.023394197
0.020606339 0.032365501 0.02327624
0.017030776 0.031127751 0.023434699
0.019701123 0.032171607 0.018531144
0.015100598 0.031720996 0.01894176
0.011339009 0.031087935 0.018247962
-0.029999793 -0.0023511052 0.017902695
-0.031209707 -0.0070147514 0.017969124
0.013626277 0.032249629 0.014535189
0.009960413 0.031621873 0.01480931
-0.030399799 -0.0023725629 0.014299832
-0.031611979 -0.0055043101 0.013422571
0.012058437 0.033208847 0.0099288523
0.0083233118 0.032707572 0.01028648
-0.032550931 -0.00037431717 0.010203414
-0.033525646 -0.003621757 0.010311089
0.010682106 0.03359431 0.0054685995
0.0067828298 0.033345342 0.0059343502
0.0032308698 0.033121645 0.0048954114
-0.02959168 0.0042586327 0.0036551505
-0.031965077 0.0021309853 0.0054258853
-0.034093678 -0.00072968006 0.0058738738
0.0054976344 0.033136904 0.0016487762
0.00096356869 0.033692777 0.001591377
-0.029476821 0.0069342852 0.0009739846
-0.030830145 0.0026569366 0.0015119463
0.030350506 0.032651722 0.025956511
0.025858581 0.032756448 0.019013196
0.025353372 0.032641649 0.014687389
0.021721423 0.031886339 0.015294582
-0.031614184 -0.010361552 0.015208296
0.023583293 0.032290936 0.011119246
0.019301295 0.031906605 0.011491358
0.016288221 0.031641245 0.012241274
-0.032239199 -0.009696126 0.012866221
0.017576158 0.033480763 0.0060035214
0.014690578 0.032922029 0.0081192553
-0.032504678 -0.0073090196 0.0054681748
0.015923619 0.034209132 0.0030701682
0.012783051 0.033551931 0.0025023744
0.00896281 0.032889307 0.0029162988
-0.031491637 0.00069195032 0.0027938932
-0.030875325 -0.0044441819 0.00045271218
0.028700292 0.032592535 0.012126118
0.026387155 0.031764507 0.0093860626
0.02287966 0.031474888 0.0081887245
0.021963179 0.032455623 0.0041617677
0.0194875 0.033951223 -9.7282231e-05
0.02681601 0.029489458 0.0051738545
0.026154339 0.030148804 0.0018566772
