# .PCD v0.7 - Point Cloud Data file format
VERSION 0.7
FIELDS x y z
SIZE 4 4 4
TYPE F F F
COUNT 1 1 1
WIDTH 1151
HEIGHT 1
VIEWPOINT 0 0 0 1 0 0 0
POINTS 1151
DATA ascii
-0.022366107 0.030835271 0.18267873
-0.02586329 0.028117597 0.18277583
-0.029269159 0.024859846 0.1831969
-0.026904285 0.028861463 0.17937663
-0.029981136 0.027571797 0.17964825
-0.032035708 0.029381514 0.17562088
-0.012125313 0.031540513 0.18399182
-0.014381886 0.029017746 0.1849983
-0.018653631 0.026589274 0.18572533
-0.022871614 0.023389995 0.186452
-0.026567996 0.021027327 0.1863085
-0.029150307 0.017461777 0.18468341
-0.013288379 0.032431662 0.18242404
-0.016276956 0.031318367 0.1815109
-0.019766748 0.029601097 0.18286994
-0.023881435 0.026427448 0.18463185
-0.02910471 0.022062063 0.18450481
-0.03116709 0.020503342 0.18186542
-0.01747787 0.031940579 0.17743096
-0.02210331 0.030999482 0.1777111
-0.026845634 0.029748619 0.17750075
-0.030718207 0.025277555 0.17756754
-0.032321692 0.021617413 0.1771892
-0.019322455 0.032238841 0.17264548
-0.022920251 0.03232044 0.17314968
-0.027535379 0.030277669 0.17361736
-0.031029701 0.027508795 0.17352095
-0.032569408 0.023126662 0.17454061
-0.02445215 0.032922387 0.16878614
-0.027486086 0.031170011 0.16920704
-0.030550718 0.027620852 0.16909823
-0.0033371449 0.029472947 0.18556377
-0.0069230199 0.027483106 0.18631455
-0.010672748 0.024569511 0.18655702
-0.013940871 0.021857083 0.18664366
-0.018220842 0.018031657 0.1874198
-0.02134347 0.015004039 0.1875374
-0.026201308 0.01261127 0.18649435
-0.02849561 0.010242879 0.18550596
-0.0043170452 0.031259 0.1829491
-0.0083389878 0.030464113 0.18419287
-0.011279643 0.029064894 0.18568039
-0.017114282 0.022789359 0.18670043
-0.019768298 0.021625578 0.186957
-0.025103569 0.017451227 0.18691552
-0.029693604 0.014212251 0.18381137
-0.02992779 0.0105142 0.18379402
-0.005079627 0.03228575 0.17981017
-0.0094305873 0.031615674 0.17952266
-0.013201356 0.03151226 0.17973074
-0.031230569 0.014774084 0.18036169
-0.031182826 0.012349784 0.17879635
-0.011071563 0.031884491 0.17486122
-0.014910579 0.031982541 0.17538214
-0.032050133 0.017784953 0.17270306
-0.012687981 0.032534599 0.17058533
-0.016988277 0.032872856 0.17107555
-0.021368086 0.03241241 0.16999656
-0.029198349 0.020757616 0.16813377
-0.030314624 0.020187676 0.16983607
-0.017660975 0.032838106 0.16622654
-0.021879137 0.032118499 0.1664528
-0.027963579 0.02981025 0.165959
-0.029552102 0.026232958 0.16597998
-0.01929605 0.03301394 0.16322932
-0.022970796 0.031804204 0.16186345
-0.027356029 0.029952526 0.16158488
-0.029392719 0.026170313 0.1610671
-0.027732193 0.03030473 0.15743372
-0.0033417344 0.019675255 0.1874021
-0.0053027868 0.018647969 0.1875385
-0.0096455216 0.015713215 0.18764338
-0.013891637 0.012553692 0.18765932
-0.018450499 0.01017648 0.18797964
-0.020775735 0.0081262589 0.18789274
0.0043526292 0.028387487 0.1834664
0.00026357174 0.027142107 0.18562952
-0.0038609505 0.024737477 0.18680254
-0.008276701 0.021457314 0.18745798
-0.012536228 0.018380225 0.18750185
-0.015592456 0.016220212 0.18754771
-0.021541297 0.011495233 0.18748054
-0.024412215 0.0088675022 0.18734369
-0.028133988 0.0058442354 0.18568689
-0.030675352 0.0021239519 0.1846098
-0.035878181 -0.0027197003 0.18406779
-0.037885427 -0.0035632253 0.18427193
0.0018418431 0.030042112 0.18080935
-0.00029748678 0.03051281 0.18230584
-0.030645788 0.0074737072 0.18156296
-0.032106876 0.0034427643 0.18202886
-0.0027449131 0.031478584 0.17692235
-0.030447543 0.0098568201 0.17623657
-0.0043905973 0.031111002 0.17284837
-0.0080001354 0.031383276 0.1731042
-0.0098297596 0.03109622 0.16834435
-0.013175726 0.031643689 0.16772649
-0.029541135 0.015913427 0.16744864
-0.011957943 0.031572461 0.16415763
-0.014941692 0.032115281 0.16366193
-0.029397488 0.02187407 0.16450366
-0.029121697 0.018889666 0.16263762
-0.016934037 0.032000065 0.15958542
-0.02015841 0.031219959 0.15851462
-0.030107498 0.023741126 0.15962231
-0.030124366 0.019778848 0.15829611
-0.022664011 0.02989167 0.15544339
-0.026784897 0.030121624 0.15481772
-0.030355632 0.026129067 0.15539844
-0.027049303 0.029856861 0.15064429
-0.03068012 0.027988672 0.15095071
-0.029444456 0.029634178 0.14550139
-0.031136096 0.029086709 0.14617287
-0.031725407 -0.008403182 0.19024575
0.012877405 0.026702225 0.18503031
0.0051481128 0.020518303 0.18573484
-0.00017279387 0.019199371 0.1871866
-0.0040999651 0.01616019 0.18772671
-0.0073435307 0.012580097 0.18779173
-0.011791289 0.0090110898 0.18813246
-0.015436947 0.0062302351 0.18841237
-0.020006955 0.0038872361 0.18805698
-0.023846209 0.00021660328 0.18702707
-0.027341545 -0.0029175878 0.18688118
-0.031821132 -0.0058295131 0.18767941
-0.035289228 -0.0063157082 0.18845895
0.013974786 0.031282246 0.18245512
0.010212839 0.02958858 0.1831277
0.0060920119 0.027349293 0.18481779
0.0042776465 0.023913503 0.18534204
-0.030668855 -0.00032812357 0.18560299
-0.033815861 -0.0025105476 0.18469021
-0.037094891 -0.0061072707 0.18412256
0.012923241 0.031799912 0.17849872
0.0092096925 0.030871451 0.17859331
0.0044071674 0.030261457 0.17964318
-0.032114804 0.0026922226 0.17876819
-0.035121739 -0.0018713474 0.17914122
-0.038340271 -0.0040647388 0.17905751
0.0082753301 0.030229092 0.17505378
0.0035415888 0.030269444 0.17472848
0.00017899275 0.029569268 0.1743376
-0.029963255 0.0065577626 0.17508668
-0.031022251 0.0023084879 0.17497665
-0.034837127 -0.0017760396 0.17484626
-0.038489878 -0.0036178231 0.17472953
0.0027669072 0.030280948 0.17110634
-0.0008739233 0.029819787 0.16971582
-0.0055132508 0.030013323 0.17018154
-0.029300272 0.0083283186 0.1700857
-0.0033832788 0.030654311 0.16580448
-0.0073564053 0.030661762 0.16617492
-0.02929455 0.012685359 0.16471508
-0.029672921 0.0098876953 0.1647118
-0.0053007603 0.030748308 0.16141045
-0.0092113614 0.031358659 0.16161081
-0.02921164 0.015093744 0.16140655
-0.029473841 0.011713326 0.16035482
-0.010367811 0.032150745 0.15757141
-0.014631033 0.031749308 0.15673718
-0.030430794 0.016530454 0.15728286
-0.030462563 0.013122797 0.15779084
-0.010898471 0.031894445 0.15418808
-0.015842676 0.030503511 0.15319343
-0.019817412 0.029611707 0.15260668
-0.030629337 0.022285044 0.15107943
-0.031116784 0.018612385 0.1532364
-0.017571688 0.03119874 0.14785196
-0.021224201 0.030326605 0.14823528
-0.025798738 0.030311942 0.14765431
-0.030944824 0.023981392 0.1484562
-0.031086147 0.022047937 0.14699502
-0.022856295 0.030729949 0.14394931
-0.026931286 0.030534446 0.14452709
-0.031324148 0.026620686 0.14452867
-0.024447083 0.031893134 0.13990654
-0.027418911 0.030441582 0.13902824
-0.030469954 0.028594673 0.140442
-0.026803792 -0.013448954 0.19250092
0.027075827 0.030334949 0.18748334
0.024592161 0.027705669 0.18865952
0.02199626 0.024677098 0.18802539
0.018511832 0.022530258 0.1865539
0.012383103 0.017905951 0.18655744
0.0086170435 0.015334666 0.18663952
0.0042182207 0.012357533 0.18674311
0.00069004297 0.011138797 0.1871717
-0.0023752451 0.0069378614 0.18661559
-0.0076415539 0.0041326284 0.18696392
-0.012061298 -0.00020503998 0.1882838
-0.014684737 -0.0016062856 0.18845519
-0.019257665 -0.0045009255 0.18741331
-0.023138762 -0.0085253716 0.18776423
-0.026610672 -0.011840105 0.18971059
-0.028396964 -0.013993919 0.19108516
0.026978016 0.031108499 0.18504271
0.023385406 0.028035164 0.18439755
0.019416511 0.026958644 0.18443429
0.015278101 0.024417102 0.18553323
0.010493159 0.02151376 0.18563181
0.0073341727 0.017821014 0.18604943
0.0039330721 0.016313314 0.18636599
-0.0099774599 0.0059301853 0.18801731
-0.018523455 -0.00046950579 0.18803659
-0.025554836 -0.0067170858 0.18776226
-0.028046787 -0.0084170103 0.18781701
0.020502508 0.030216455 0.1786865
0.018068194 0.029219151 0.18076867
0.015705466 0.030902505 0.17676267
0.011657715 0.030381322 0.1759266
0.01330173 0.031843543 0.17219931
0.010027826 0.030667126 0.17202392
0.006541729 0.029836893 0.17290682
-0.029835701 0.00017958879 0.17096022
-0.033524454 -0.0026088357 0.17124629
-0.037303567 -0.004799962 0.17066199
0.013019502 0.032401919 0.16726908
0.009172678 0.031626761 0.16713437
0.004383564 0.030410886 0.16808823
0.0010725856 0.029248476 0.16670674
-0.028336108 0.0037695169 0.16649202
-0.029603779 -0.00027394295 0.16796163
-0.034090042 -0.0038741231 0.16735092
-0.03764528 -0.0050072074 0.16696224
0.0069488287 0.03189683 0.16366756
0.003562808 0.030810475 0.16316327
-0.00020384789 0.030251503 0.16366613
-0.028743982 0.0036585331 0.16327795
0.0019049048 0.030397892 0.15976989
-0.0016387701 0.029707253 0.15873131
-0.005284369 0.030022919 0.15870759
-0.029783249 0.0084278584 0.15934476
-0.0032359958 0.030000806 0.15394126
-0.0062165856 0.030154169 0.15437759
-0.030469179 0.010217965 0.15434845
-0.0085818172 0.030020118 0.15001507
-0.012524486 0.029554188 0.14995997
-0.030453384 0.015749753 0.14878313
-0.030747831 0.011537731 0.15073062
-0.010920525 0.031468034 0.14577897
-0.013847351 0.030778766 0.1463107
-0.030137002 0.016112864 0.14633669
-0.030545712 0.01336807 0.14632456
-0.011384904 0.031610787 0.14262198
-0.015639901 0.031540811 0.14159013
-0.019808352 0.030433297 0.14245887
-0.030385137 0.022313297 0.14109294
-0.030511975 0.020898521 0.14145322
-0.017923892 0.031345189 0.13816278
-0.020896316 0.030846357 0.13684039
-0.029312968 0.024817646 0.13627227
-0.022300184 0.031529486 0.13233571
-0.02681309 0.030014753 0.13286458
-0.029272139 0.026206553 0.13215534
-0.023880422 0.032589078 0.12816013
-0.026948392 0.030244172 0.1285051
-0.029527783 0.027761042 0.129434
0.02478528 0.024424016 0.19056082
0.023364067 0.022132993 0.19020742
0.022978902 0.017582059 0.18896955
0.0081686974 0.0064694285 0.18899527
0.0063279867 0.0050566792 0.18898928
-0.012641191 -0.0096624494 0.18888095
-0.015072107 -0.011466324 0.18929619
-0.0199247 -0.013746858 0.18961871
-0.022434413 -0.015587926 0.19157439
0.028758109 0.029367566 0.18790047
0.020858049 0.022307456 0.18758276
0.01847297 0.018995941 0.18734303
0.014155746 0.01720947 0.186766
0.011354327 0.013268113 0.18703806
0.0069363713 0.010288954 0.18714592
0.0039187074 0.0061799288 0.18741935
-0.00058275461 0.0030318499 0.18627945
-0.0051541924 0.0021612644 0.18636602
-0.0087840557 -0.002558291 0.18751237
-0.012538493 -0.0064462423 0.18817601
-0.017064393 -0.0081284642 0.18803903
-0.020994067 -0.010089815 0.18844217
0.032892704 0.031556427 0.18113331
0.02756542 0.031218946 0.18256724
0.024242759 0.029374838 0.18298465
0.03116715 0.034269273 0.17827286
0.027914822 0.032320023 0.17842877
0.023644865 0.030063272 0.17916414
0.033217311 0.037516057 0.17307554
0.030474007 0.034142852 0.17376624
0.026389241 0.031720996 0.17329082
0.022067547 0.030670583 0.17403671
0.017689168 0.030580223 0.17416361
0.020660222 0.031264424 0.16958371
0.016137958 0.031981349 0.17047861
0.017914951 0.032734215 0.1670126
0.014656126 0.032833993 0.16619053
-0.029588461 -0.0010890961 0.16558811
-0.032723784 -0.0039481521 0.16535431
-0.036271393 -0.0046773553 0.16488966
-0.039545953 -0.0079022646 0.16629156
0.012767076 0.031753898 0.16219056
0.0098474026 0.031932354 0.16152385
-0.02902025 0.003494978 0.16082534
-0.029683292 -0.00035369396 0.16067365
-0.032327175 -0.0042011738 0.16210246
-0.03649354 -0.0068435073 0.162599
0.0082256794 0.030866265 0.15676844
0.0038729906 0.030633211 0.15698475
-0.029590786 0.0043960214 0.15961489
-0.029849708 0.0023408532 0.15602507
0.0065413117 0.031491458 0.15123539
0.0032922029 0.030944586 0.15188156
-0.00082588196 0.030783772 0.15260468
-0.030822992 0.0082005262 0.15127377
-0.031199932 0.0034048557 0.15099336
0.0024060607 0.031509638 0.14855571
-0.0024589896 0.030233502 0.14846216
-0.00563097 0.029488146 0.14703448
-0.030122757 0.0079446435 0.14767836
-0.0069102645 0.029173195 0.14373656
-0.029534757 0.01340127 0.14189549
-0.030535817 0.010874391 0.1431189
-0.037074745 0.0056191087 0.14535587
-0.010246754 0.030283689 0.13898118
-0.013698995 0.031826258 0.13830592
-0.029589474 0.015027881 0.13787229
-0.029419661 0.012232065 0.13893904
-0.011587918 0.030161381 0.13545965
-0.014730215 0.031289876 0.13470177
-0.028254569 0.018658042 0.13249795
-0.016093314 0.031779528 0.13091432
-0.019861758 0.032305717 0.13093425
-0.030149937 0.022656679 0.13194437
-0.018263042 0.032592356 0.12588637
-0.021202087 0.033206105 0.12641005
-0.02809453 0.028579116 0.12652309
-0.02957201 0.024603546 0.12538011
-0.023675144 0.032741308 0.12230759
-0.0274387 0.030584097 0.12221145
-0.030115843 0.02703923 0.1210823
-0.024764657 0.032036126 0.11781805
-0.027594745 0.030077696 0.11720761
-0.030531526 0.028386712 0.11673047
0.023328185 0.01292336 0.18889603
0.019521713 0.010595918 0.18769917
0.016070604 0.0072004795 0.18747097
0.012367547 0.0043715239 0.18746278
0.0049507618 0.0025597215 0.18856639
0.0036085248 -0.0017231703 0.18843183
-0.00025910139 -0.0043996572 0.18768898
-0.004345417 -0.0085594058 0.18770441
-0.00922364 -0.011158168 0.18878171
-0.012783706 -0.01319015 0.19032356
-0.016695142 -0.01672101 0.19042858
0.01672709 0.012711585 0.18730578
0.013209045 0.0095052719 0.1871464
0.010087907 0.0072563291 0.18717906
0.0015736818 0.00044178963 0.18706962
-0.0026512146 -0.0024673343 0.18650341
-0.0058021545 -0.0052192807 0.1870456
0.032174885 0.03465718 0.172199
0.028441727 0.032001257 0.17215721
0.030841172 0.034434319 0.16773982
0.027111769 0.032021105 0.16698053
0.02314657 0.031009436 0.16767493
0.030386984 0.034326792 0.16285191
0.02749002 0.033327043 0.16323373
0.022294819 0.030243635 0.16281471
0.01786226 0.029543579 0.16215324
0.034167111 0.045889914 0.15820532
0.032091558 0.044010699 0.15860246
0.017487884 0.02991575 0.15794188
0.013266563 0.029848516 0.15813729
-0.029787302 -0.0028116107 0.15895206
-0.032188177 -0.0054551959 0.15847459
-0.034965694 -0.0084993839 0.15892649
0.033480048 0.046793699 0.15618348
0.031014681 0.043968022 0.1554504
0.015737832 0.030720294 0.15364583
0.011500835 0.030055285 0.15425421
-0.03074491 -0.0012096763 0.15432401
-0.032621324 -0.00426054 0.1544361
-0.03395009 -0.0065652728 0.15293266
0.029358685 0.045577943 0.15015396
0.014591992 0.030599475 0.15055217
0.0096670389 0.031157434 0.15032353
0.0055459738 0.030026555 0.15099598
-0.031608939 0.00099211931 0.15103392
-0.034162641 -0.0011854172 0.15061899
0.0076695681 0.032489359 0.14571221
0.0039178729 0.031613767 0.14545943
0.00013166666 0.029373705 0.14549087
-0.030014813 0.0048942566 0.14660533
-0.031916678 0.0027745962 0.14534076
-0.034873784 0.00025981665 0.14627798
0.0063537359 0.032858312 0.14086501
0.0025556087 0.031919777 0.14134695
-0.0017511249 0.029334784 0.14158364
-0.0050696731 0.028448701 0.14066918
-0.030709505 0.0081902146 0.14038242
-0.031465232 0.0040279627 0.14064197
-0.035680175 0.0024462342 0.14086844
0.0022366643 0.032073975 0.13634218
-0.0022448897 0.03024447 0.13633533
-0.006742239 0.02927947 0.13720329
-0.030827343 0.0099782944 0.13683589
-0.0033114552 0.031341076 0.13193895
-0.0086677074 0.030467629 0.1330867
-0.028668821 0.014147043 0.132672
-0.031313837 0.011249661 0.13256313
-0.0055937767 0.031900704 0.12937324
-0.0093042254 0.031397581 0.12766658
-0.013165832 0.0305112 0.12756728
-0.029494822 0.015843093 0.12794541
-0.031564355 0.012143552 0.1279922
-0.011154413 0.030723631 0.12310996
-0.014771223 0.030650496 0.12345286
-0.029686749 0.019187033 0.12376188
-0.016762078 0.030423045 0.11874684
-0.019862771 0.031793475 0.11929946
-0.031027377 0.02414912 0.11833274
-0.031085312 0.020766199 0.11877712
-0.018178642 0.031214178 0.11387909
-0.022286952 0.031852007 0.11516248
-0.027062714 0.029815376 0.11464355
-0.031529009 0.025170863 0.11501803
-0.031920135 0.021759152 0.11596938
-0.022646964 0.031708837 0.11002097
-0.026474774 0.02957052 0.10988385
-0.029003382 0.026892066 0.11056025
-0.023801386 0.032758474 0.10636271
-0.026348352 0.031055391 0.10645304
0.023838997 0.0044702888 0.1887964
0.0030204058 -0.011021256 0.18914032
8.1658363e-05 -0.011819065 0.1895484
-0.0051532388 -0.015199065 0.18889812
0.024061382 0.0087466836 0.18943089
0.021707296 0.0061644912 0.18756732
0.019338369 0.0021571517 0.18692702
0.012903988 0.0031431913 0.18698791
0.007624805 -0.0032292604 0.18793026
0.0011687279 -0.0073298216 0.18815631
-0.001717031 -0.010198772 0.18795788
-0.0056738853 -0.014263093 0.18819156
0.034059048 0.032967269 0.16451983
0.031932533 0.034237027 0.16054703
0.027980983 0.031223595 0.16022223
0.024545729 0.02992028 0.1595324
0.032144725 0.039640307 0.15665783
0.030753732 0.035680294 0.15653987
0.027282774 0.032314062 0.15629835
0.023020625 0.030626714 0.15680334
0.033433378 0.039303243 0.15036342
0.029645741 0.037074685 0.1515564
0.026198149 0.033371389 0.15128274
0.02216208 0.031134188 0.15132608
0.019004822 0.030885279 0.15287741
0.029684305 0.039320648 0.14795834
0.026492298 0.035357296 0.14743818
0.020515621 0.031169176 0.14699157
0.016443253 0.030549467 0.1473491
0.012630939 0.030026853 0.14582534
0.014565706 0.030472279 0.14210118
0.012273729 0.029992998 0.14253454
0.0094928741 0.031212091 0.13861586
-0.032275677 0.0018284321 0.13856964
-0.03401804 -0.00020742416 0.13747321
0.0076630712 0.031687856 0.13474791
0.0042262673 0.032095969 0.13397886
-0.03268528 0.0034882426 0.13503288
-0.033695042 -0.0017004609 0.13516475
0.0022137165 0.031412482 0.12983556
-0.03230834 0.0084814429 0.12992834
-0.03272146 0.0056620836 0.1298724
5.2452087e-05 0.031502843 0.12510695
-0.0029218197 0.031574965 0.12553026
-0.006370008 0.030389786 0.12392195
-0.030050397 0.013321221 0.12595983
-0.031589866 0.011672854 0.1245031
-0.032460332 0.0060563087 0.12510611
-0.0042421818 0.031053305 0.1207126
-0.00818187 0.030258834 0.12074255
-0.012643635 0.030211449 0.12049007
-0.029892504 0.015301824 0.12152087
-0.030782819 0.011662126 0.12127557
-0.0059690475 0.03141731 0.11732449
-0.009378314 0.030785978 0.11655384
-0.013658464 0.030120492 0.11709895
-0.030371249 0.01507479 0.11728131
-0.011283815 0.031465292 0.11240176
-0.014738202 0.030785441 0.11271397
-0.030996978 0.018795729 0.11284841
-0.017171502 0.031831384 0.10812397
-0.020537436 0.032660127 0.10736955
-0.029387832 0.02403152 0.10783429
-0.030613124 0.020785511 0.11004863
-0.018192589 0.032128155 0.10385893
-0.022503734 0.032351673 0.1033083
-0.027406633 0.029545367 0.10336868
-0.029120028 0.025575817 0.10324276
-0.023432314 0.031140804 0.098947026
-0.026361167 0.030071676 0.098537244
-0.028896093 0.027120709 0.098707445
-0.027199447 0.031071544 0.095701315
0.026239276 0.0015093088 0.19179809
0.024775863 0.0017208457 0.18999001
0.022154689 -0.0016361475 0.1876848
0.018571377 -0.0050867796 0.18664876
0.016466737 -0.0079045296 0.18629643
0.0086510777 -0.011454761 0.18752259
0.017051458 -0.0020805001 0.18620226
0.01508534 -0.0051916838 0.18573284
0.02609235 0.032995582 0.14843072
0.02941376 0.036000252 0.145217
0.026828647 0.034240603 0.14507355
0.022864401 0.031426787 0.14497431
0.029305995 0.037110806 0.14138848
0.026890874 0.034376025 0.14079486
0.022000074 0.030886769 0.14064254
0.01756084 0.030169189 0.14097218
0.016438603 0.030350685 0.1363308
0.012247026 0.030454636 0.13677098
0.014365792 0.031003237 0.13242014
0.010451853 0.030706882 0.13158818
0.0066234469 0.029903531 0.1304184
-0.033350587 -0.0017430782 0.13165064
0.0086436868 0.03014648 0.12652765
0.0053011179 0.030965149 0.12731345
-0.032646418 0.0012223125 0.12824969
-0.032921731 -0.0012054443 0.12658893
0.0073392987 0.030329347 0.12351411
0.0037950873 0.031098068 0.12305867
-0.03277421 0.0046521425 0.12238967
0.0019876361 0.030879378 0.11946519
-0.0016562343 0.031149805 0.11887016
-0.031179905 0.0091025233 0.1191464
-0.032059848 0.0050692558 0.11789038
-0.0029022098 0.031104028 0.114818
-0.0066648722 0.030969083 0.11447836
-0.030170143 0.0093513727 0.11454747
-0.004886508 0.031342268 0.11179785
-0.0086987615 0.031029344 0.11018194
-0.013235748 0.030109882 0.10855249
-0.03050828 0.016948402 0.11026744
-0.010128617 0.02982223 0.10491274
-0.013173103 0.0309304 0.1053744
-0.029503405 0.018313289 0.10493932
-0.015359581 0.031217873 0.10074491
-0.019960821 0.0314188 0.1006246
-0.029290557 0.022495747 0.10076622
-0.029336572 0.01904428 0.10116146
-0.016383231 0.031363189 0.096365161
-0.02081883 0.031622231 0.097294815
-0.02957046 0.024431705 0.096958674
-0.017728806 0.031893909 0.093119577
-0.022262871 0.031931162 0.092931852
-0.027314484 0.030532897 0.092887864
-0.029910803 0.026318014 0.093103454
-0.024217129 0.031877756 0.088952616
-0.027589798 0.030602753 0.088422433
-0.030630231 0.02724123 0.088165656
0.026658952 -0.0097655654 0.19182518
0.026139498 -0.0062844157 0.19027689
0.022685409 -0.0092786551 0.18950948
0.018871427 -0.013235688 0.18838069
0.014449537 -0.015812337 0.18777239
0.024112344 -0.0053687692 0.18866393
0.020287335 -0.0083143711 0.18782535
0.015951157 -0.011589468 0.1855869
0.012597322 -0.013557971 0.18645617
0.029020667 0.035394847 0.1383197
0.026150703 0.032019198 0.13756199
0.023948431 0.030245006 0.13672926
0.028556406 0.035645604 0.13511243
0.02641952 0.033817172 0.13430552
0.022625625 0.030697048 0.13338317
0.019209623 0.029581845 0.13290288
0.02557081 0.033441246 0.12912451
0.021506369 0.031482577 0.12904663
0.016718924 0.030724466 0.12919717
0.013208687 0.030186594 0.12873031
0.019252539 0.0320099 0.12472265
0.015737176 0.031243205 0.12497764
0.012061179 0.030030608 0.12554787
-0.033145785 -0.005125463 0.12465756
0.017736375 0.033278227 0.12084334
0.01462388 0.032457232 0.12054177
0.010214031 0.030995667 0.12123352
0.0067389011 0.030813217 0.12040891
-0.032817125 -0.0031769872 0.12124994
0.012721062 0.032712102 0.11639773
0.0095081925 0.031586051 0.11610343
0.00476861 0.030084133 0.11684623
-0.032576919 0.0012559891 0.11704784
-0.033444285 -0.00073367357 0.11655285
0.0075306296 0.032148361 0.11150587
0.0040710568 0.030636251 0.1115529
-7.9274178e-06 0.029882729 0.11157147
-0.029985785 0.0077857971 0.11077521
-0.032522678 0.0032097697 0.1116829
-0.034764767 0.00057345629 0.11133016
0.0022189021 0.031031847 0.10729162
-0.0019602776 0.029992163 0.10710312
-0.0060812235 0.028835893 0.10595814
-0.029141665 0.012827992 0.10653747
-0.029510498 0.0086053014 0.10711167
-0.031790972 0.0049232841 0.10732461
-0.035051644 0.001911521 0.10755635
-0.003284514 0.030233264 0.10260988
-0.0072613358 0.029815912 0.10301165
-0.029558957 0.013018608 0.10411287
-0.029725015 0.01034075 0.10224149
-0.008879602 0.030555069 0.098853596
-0.029681802 0.016360998 0.098888077
-0.029893219 0.012096107 0.098583348
-0.010824084 0.03106004 0.094784625
-0.014381707 0.031676531 0.095088311
-0.029998839 0.017141938 0.09480653
-0.01548171 0.031937599 0.09067823
-0.019793689 0.031875253 0.090221986
-0.030470252 0.022335827 0.091404215
-0.030407846 0.019387126 0.090186134
-0.017190456 0.032090306 0.086175874
-0.021142006 0.031128347 0.085342035
-0.026097119 0.029081106 0.083958045
-0.02960223 0.025546312 0.083594874
-0.030568898 0.021129072 0.086512879
-0.022783518 0.030908823 0.080361493
-0.026506245 0.028993726 0.080489494
-0.029222131 0.026043117 0.080474354
-0.024839878 0.031653047 0.076610453
-0.027383804 0.030269206 0.076460637
-0.029978573 0.02807951 0.076751567
0.020056486 -0.014761627 0.18852118
0.017043173 -0.017480433 0.1883975
0.031358361 0.032677412 0.1298863
0.028614044 0.033009171 0.13073811
0.031071186 0.032736242 0.12738991
0.028142393 0.032063901 0.12707658
0.023926079 0.031648576 0.1269177
0.031146348 0.035276473 0.12394557
0.027046621 0.032153189 0.12324574
0.022443652 0.031481266 0.12322208
0.028960586 0.038381875 0.11872054
0.020855904 0.031062841 0.11872935
0.017797828 0.032351911 0.11700954
-0.032548487 -0.0061865449 0.11775523
0.015011787 0.031995535 0.11395792
-0.033214569 -0.0056850314 0.11464176
0.014097691 0.031153023 0.10974533
0.01052016 0.032130003 0.10913906
0.0084070563 0.032087445 0.10572658
0.0042384267 0.030695915 0.10464979
-0.029896677 0.0063419342 0.10424963
-0.031803787 0.0031120181 0.1044376
-0.034583509 1.3709068e-05 0.10493696
0.0034832358 0.029521227 0.10165177
-0.00030052662 0.029875994 0.10064221
-0.030132055 0.0071573853 0.10111851
-0.03079772 0.0033528209 0.10027171
-0.0022301674 0.029421151 0.097129203
-0.0049576163 0.029197574 0.095207788
-0.029901385 0.0084808469 0.09583021
-0.0083225965 0.030112386 0.092610136
-0.029591978 0.012851655 0.090832338
-0.0300318 0.010651112 0.092745349
-0.0098850727 0.030055821 0.087670997
-0.013163328 0.031579971 0.087152317
-0.030354619 0.015853405 0.086947814
-0.030270398 0.013409436 0.08770825
-0.011454344 0.030479431 0.082596488
-0.014851451 0.031535387 0.08261276
-0.030275285 0.018086195 0.082490601
-0.01647681 0.03044188 0.078255244
-0.019828677 0.031115949 0.078891642
-0.030630112 0.02374208 0.07915283
-0.030783296 0.019023418 0.077665754
-0.021693468 0.030678749 0.074537344
-0.027214348 0.029911399 0.073947646
-0.030693054 0.025440216 0.074962445
-0.031525612 0.023377419 0.074354209
-0.023391128 0.030515671 0.070258327
-0.027049363 0.029681921 0.070357241
-0.030305982 0.026896417 0.070059754
-0.027206659 0.030123293 0.065917738
0.033230186 0.031674564 0.1255621
0.030511677 0.031559587 0.12452019
0.030382991 0.033087552 0.12249608
0.02800715 0.032159448 0.11961802
0.024438441 0.030315578 0.11964168
0.030674398 0.034107327 0.11316835
0.027911782 0.032299399 0.11520525
0.023119271 0.030859411 0.11545181
0.029994965 0.034796417 0.11009615
0.02683109 0.033730745 0.11109868
0.021670341 0.03226459 0.11151264
0.017398834 0.03071475 0.1109767
0.025124192 0.033337176 0.10740856
0.020594299 0.032867789 0.107159
0.016012788 0.031452596 0.10715906
0.021158636 0.033254623 0.1032168
0.015070915 0.032329082 0.1032199
0.01035428 0.030836582 0.1023464
-0.033139646 -0.0023165941 0.10185192
0.014674842 0.031163692 0.098987527
0.010123014 0.030667245 0.098719157
0.0051730275 0.029500246 0.098870642
-0.031488836 0.001732409 0.098221458
-0.033214867 -0.0027751327 0.098374166
0.0080545545 0.030503869 0.094769306
0.0041689277 0.030012786 0.094554164
0.00018364191 0.028873384 0.094591506
-0.031390786 0.0028874874 0.09450487
-0.03300029 -0.0015292764 0.093240127
0.0027353764 0.02968961 0.089867368
-0.001106143 0.028845906 0.089449301
-0.0048704147 0.027969897 0.089866325
-0.030170977 0.0073544383 0.089087352
-0.031832933 0.0038274527 0.090262398
-0.0025945306 0.029588938 0.084199682
-0.0063582659 0.028669834 0.084481493
-0.030258 0.0099292397 0.084496871
-0.0042138696 0.030673623 0.080701984
-0.0081512332 0.029923558 0.080654658
-0.011592209 0.030056477 0.079774953
-0.030308485 0.015051365 0.08034537
-0.030670583 0.01202929 0.080102779
-0.010361314 0.03011781 0.075806804
-0.013295293 0.030186415 0.076516308
-0.03095746 0.015226841 0.076125123
-0.031032085 0.011750877 0.076497354
-0.014973521 0.030191064 0.07206247
-0.018762648 0.029653609 0.071691759
-0.031039059 0.019305885 0.072462477
-0.016023874 0.030239522 0.068030663
-0.020435691 0.030276716 0.068100698
-0.030700386 0.023412645 0.067779757
-0.022675753 0.030944705 0.06386397
-0.026974738 0.02917999 0.064261742
-0.02976203 0.025866568 0.063997246
-0.022808075 0.031961143 0.059797138
-0.026541173 0.030637503 0.059553802
-0.029118419 0.027230024 0.059277534
-0.0268417 0.030266464 0.055832028
0.031582892 0.03367424 0.10922285
0.027882755 0.033389866 0.10840524
0.030393541 0.033878386 0.10477205
0.026957572 0.03317076 0.1048275
0.02335149 0.032849312 0.1050818
0.029613197 0.03722018 0.10139026
0.026270092 0.033633769 0.10054017
0.021492362 0.03210187 0.10067863
0.017521858 0.030998588 0.099862464
0.021282196 0.032122374 0.096389867
0.016636014 0.030653358 0.096204497
0.012111366 0.030302107 0.095852382
-0.034312248 -0.0054956675 0.09563569
0.014595926 0.029884398 0.092264786
0.010978401 0.029847443 0.091545954
0.0068516731 0.029624939 0.090617403
-0.034354925 -0.0026087165 0.092326984
-0.035175562 -0.0048080683 0.091701344
0.0092577338 0.030250549 0.085948601
0.0049336553 0.029819608 0.086701021
-0.032243371 0.0024721026 0.087008283
-0.034033179 -0.0011869669 0.086976841
-0.035645425 -0.005190134 0.087208256
0.0079835057 0.031437337 0.082617439
0.0044446588 0.030106187 0.081967957
0.00047242641 0.029733717 0.082689472
-0.030003726 0.0072232485 0.081511565
-0.031197667 0.0029416084 0.082154341
-0.033737659 -0.0012358427 0.082817681
0.0030135512 0.030848742 0.077901043
-0.0015401244 0.030173063 0.078049429
-0.0063545108 0.029606581 0.077930368
-0.030580878 0.0074983239 0.07819692
-0.0023533702 0.030022025 0.07381586
-0.006593287 0.029193521 0.074214615
-0.031085014 0.010969043 0.073470213
-0.0086474419 0.028763175 0.069971152
-0.010433972 0.028535962 0.068814047
-0.029846251 0.014205635 0.068084158
-0.030547857 0.0126459 0.070374198
-0.0094571114 0.029476881 0.066164292
-0.013363361 0.029673874 0.065296568
-0.029206038 0.015925407 0.065876193
-0.015743077 0.030356526 0.061301798
-0.019202828 0.03060627 0.062561572
-0.02913487 0.018215299 0.061360329
-0.01700443 0.030825794 0.057650357
-0.020430744 0.031193435 0.056956172
-0.030196309 0.024020076 0.057394058
-0.021595478 0.030832887 0.052643389
-0.025972188 0.028888941 0.051849455
-0.028663218 0.024887919 0.053432226
0.034289181 0.032794356 0.10635295
0.033195615 0.032523572 0.10300609
0.031219423 0.033712804 0.098680906
0.028066099 0.033189952 0.096896566
0.026657939 0.03216809 0.093147889
0.023280799 0.031489611 0.092733487
0.018887758 0.029331982 0.092107192
0.021442473 0.031068981 0.088336334
0.017904758 0.02960521 0.088461742
0.014102459 0.028796494 0.088089839
0.016078413 0.029608667 0.084052548
0.012974381 0.0296579 0.084570661
0.014704645 0.030723989 0.080849983
0.010670781 0.030549645 0.079989709
-0.032505691 0.00078135729 0.079645731
-0.033312917 -0.0025036931 0.07975585
0.0086528659 0.031125605 0.076545186
0.0054991245 0.029916227 0.074763425
-0.030121982 0.00091826916 0.076536037
0.0032444 0.030110002 0.071459867
-0.00071179867 0.029698431 0.07133574
-0.029782951 0.0038535595 0.071883626
0.0018426776 0.030424893 0.068388261
-0.0015732646 0.029349446 0.067036457
-0.0056316257 0.027759731 0.067474164
-0.02998364 0.0074757934 0.066623934
-0.0022890568 0.02981329 0.063355811
-0.0065982938 0.028753936 0.062918939
-0.028540254 0.013308823 0.061781913
-0.028655112 0.010211706 0.063236244
-0.0087972879 0.02993381 0.058808059
-0.011811435 0.029023945 0.059411943
-0.028768182 0.014117539 0.05853194
-0.01038307 0.031100452 0.054581016
-0.014127135 0.030053437 0.054850399
-0.029045522 0.016190112 0.054919958
-0.011645973 0.032146871 0.051508486
-0.015527129 0.030627429 0.04978916
-0.019741595 0.029951334 0.048654228
-0.028047264 0.022797704 0.048831314
-0.029419363 0.019934416 0.052089334
-0.017726362 0.030409873 0.045379817
-0.021582007 0.031044781 0.045144171
-0.025607705 0.028529882 0.045393795
-0.0276649 0.024368823 0.044673771
-0.023373008 0.031734109 0.040496878
-0.026345432 0.029270768 0.040636532
-0.02816695 0.025390744 0.041120373
0.030946672 0.032819867 0.091228917
0.02898097 0.032232463 0.09113358
0.031143188 0.033590019 0.08641012
0.027197063 0.032876253 0.086774722
0.023736298 0.031035721 0.08681716
0.031017184 0.034514904 0.082823403
0.026893377 0.033528864 0.081867166
0.021803856 0.031276107 0.08251787
0.018411517 0.029462397 0.082462944
0.026902318 0.034606874 0.078658976
0.021307886 0.032550573 0.077894993
0.016591311 0.03041482 0.078093298
0.013140678 0.029501021 0.077199854
0.019419909 0.032313347 0.073653348
0.015810072 0.029935062 0.073986895
0.011821687 0.029084861 0.073059417
-0.029827476 -0.0013256669 0.07338769
-0.031272173 -0.0051488876 0.072908618
-0.033488095 -0.0067487955 0.073205985
0.0095085502 0.029618263 0.069253631
0.0067027807 0.030079305 0.070342876
-0.030294001 0.00038141012 0.069309898
-0.031588733 -0.0037487745 0.069089003
0.0086279511 0.029908121 0.065368839
0.0046377182 0.029922009 0.065207101
-0.030594587 0.001591444 0.064773001
-0.031848907 -0.0013866425 0.064832844
0.0034578443 0.030793011 0.060667068
-0.00091207027 0.030119956 0.06119594
-0.029358923 0.0083325505 0.061276674
-0.030246675 0.0037317276 0.060412556
0.001730144 0.03102684 0.057022959
-0.0020510554 0.030160487 0.056664109
-0.0051502585 0.029385388 0.05735594
-0.029107332 0.012954414 0.056287348
-0.029455721 0.0085272789 0.056682914
-0.030423224 0.0045640469 0.056758255
-0.0032886267 0.031146228 0.052179515
-0.0071211457 0.030822635 0.052723497
-0.029147625 0.013695896 0.051997244
-0.029430628 0.010552764 0.052091897
-0.0045729876 0.031603575 0.048861951
-0.0088968277 0.030564189 0.047537953
-0.01297003 0.029968977 0.04633528
-0.028569937 0.016857922 0.047635198
-0.014950335 0.030282557 0.042759448
-0.017852604 0.02991569 0.042399406
-0.028272271 0.02228266 0.042532384
-0.028509915 0.018904209 0.042004704
-0.016216159 0.030492604 0.037780814
-0.019308627 0.030051827 0.038288675
-0.027552307 0.026914954 0.037866853
-0.028509736 0.022998333 0.037888192
-0.021144331 0.030399859 0.033997528
-0.025395095 0.028799236 0.034223281
-0.027903259 0.02505374 0.033740036
-0.024816275 0.028957903 0.028901534
0.033636868 0.033492148 0.085255936
0.03107506 0.033845782 0.079801865
0.030621767 0.033866644 0.07537315
0.027415812 0.032961488 0.075083144
0.023878634 0.032773018 0.075193055
0.030276358 0.034832418 0.070976801
0.027117789 0.032826364 0.071446456
0.022738934 0.031677008 0.071163751
0.017578483 0.030095518 0.0710207
0.014573991 0.028906882 0.071017243
-0.033324003 -0.0078555346 0.070861258
0.021475017 0.031140804 0.06633649
0.017357051 0.029644668 0.066758223
0.013237774 0.02907306 0.067833193
-0.032471061 -0.0059459209 0.06648279
-0.03368932 -0.0082068443 0.067147382
0.019728124 0.031316757 0.063003965
0.016092181 0.030719876 0.062599629
0.011528969 0.030055523 0.063032843
0.0077965856 0.029732466 0.062489182
-0.032783508 -0.0036687255 0.063241132
-0.033060551 -0.0074068308 0.061739504
0.010179996 0.030882061 0.058732986
0.0068320036 0.031001329 0.059650719
-0.031471729 0.00072777271 0.05868414
-0.032900572 -0.0025177002 0.058586866
0.0085915923 0.029852331 0.053924948
0.0042111874 0.031106174 0.054582834
-0.029919267 0.0063709021 0.053666383
-0.030340731 0.0015074611 0.053536445
-0.032026291 -0.0022699833 0.054312944
0.0025285482 0.031306267 0.050758153
-0.00098490715 0.031758726 0.049579173
-0.029960573 0.0066843033 0.050093025
-0.030304372 0.0039177537 0.048983037
0.001516223 0.03151387 0.046752453
-0.0023710132 0.030097425 0.045878649
-0.0063012838 0.029144049 0.043483526
-0.02863884 0.013343155 0.044673711
-0.029160678 0.009025991 0.044875294
-0.0089117885 0.029223859 0.03991162
-0.012624323 0.029630065 0.040448897
-0.028790951 0.01531142 0.040460013
-0.029107988 0.012090623 0.040042333
-0.0096257329 0.029381275 0.034571998
-0.013133347 0.030648768 0.036123954
-0.028791845 0.016891539 0.036010675
-0.014951169 0.030394495 0.03162726
-0.019303262 0.029948294 0.030701505
-0.028867424 0.021963894 0.032259457
-0.029199481 0.018497944 0.030753421
-0.016086936 0.029627323 0.026547482
-0.020627499 0.030014217 0.027416544
-0.026658893 0.027598083 0.028069483
-0.02836436 0.023910403 0.027313249
-0.029536068 0.020435512 0.026088251
-0.020137548 0.029800534 0.023331983
-0.024970174 0.028553486 0.022587521
-0.027851999 0.024939239 0.02266903
-0.02573806 0.028118789 0.018361701
0.027992666 0.032286704 0.068179227
0.028005123 0.031393647 0.064888932
0.024282932 0.031643629 0.064460702
0.021693647 0.031494737 0.060819656
0.01695627 0.030765593 0.059953332
-0.033773541 -0.0090352297 0.060811669
0.021314561 0.030498147 0.056554407
0.016578853 0.030755222 0.056346327
0.01226902 0.030126452 0.05562678
-0.033408463 -0.0046365857 0.055605978
-0.034624875 -0.0084277391 0.056230605
0.015114129 0.031182528 0.053278327
0.011186004 0.030265212 0.051894128
-0.030784726 -0.00017976761 0.051077724
-0.03293103 -0.0035802126 0.051638246
-0.034545898 -0.006755352 0.053193688
0.0095866323 0.030526817 0.04775244
0.0053063631 0.030119598 0.047346354
-0.031129599 0.001090169 0.047630936
-0.033554792 -0.0024216175 0.047501504
0.0091966391 0.029971182 0.04345271
0.0046952963 0.029655159 0.044087887
-0.00017744303 0.028633893 0.041741036
-0.029586613 0.0061246157 0.042211622
-0.030912936 0.0022958517 0.042617977
-0.0020906925 0.0283674 0.037422113
-0.0049262047 0.027966201 0.037952267
-0.029652238 0.0080772042 0.037456028
-0.0042641759 0.029479325 0.034629755
-0.0065935254 0.029218674 0.033429854
-0.028828621 0.013270855 0.032927625
-0.028516352 0.0090104342 0.033696167
-0.0088731647 0.029714048 0.029001882
-0.012331069 0.029655755 0.028068205
-0.029099226 0.014614284 0.028899508
-0.013652086 0.029712796 0.024756836
-0.029462159 0.015894294 0.023907287
-0.016099811 0.02952683 0.021091985
-0.019568026 0.0287413 0.019609524
-0.028151035 0.022105813 0.02001564
-0.029303133 0.020196438 0.020153416
-0.021225214 0.029042423 0.016343726
-0.025246143 0.028028131 0.015544454
-0.028262615 0.024398327 0.016046477
0.030107915 0.031209171 0.062102944
0.02891314 0.030321479 0.057750493
0.024465978 0.030637264 0.058079898
0.027085662 0.030818403 0.053303868
0.023126245 0.030455709 0.053834409
0.022184908 0.029695213 0.049033731
0.017115355 0.030203521 0.050076813
0.016595662 0.030123293 0.044794083
0.012280107 0.030237317 0.045042604
-0.034796238 -0.0049200058 0.044694185
0.015833735 0.030832291 0.041107945
0.010785699 0.029315293 0.040249787
0.006229043 0.028272331 0.039681993
0.0025325418 0.027794659 0.039080255
-0.031178474 0.00078886747 0.038457863
-0.033528626 -0.0019891858 0.040471606
-0.035496354 -0.0040431023 0.042491972
0.0086665154 0.029140472 0.034722172
0.0052873492 0.02858007 0.034686498
0.0011076331 0.028411508 0.035681389
-0.030720949 0.0020084381 0.035054944
-0.03295511 -0.0022215843 0.034852736
0.0040450096 0.029999197 0.030048033
-0.00076234341 0.028957844 0.031257354
-0.0043222308 0.02862978 0.030454746
-0.028979599 0.0068147182 0.03055911
-0.029704332 0.002935648 0.030357586
0.0024091005 0.03123343 0.025729345
-0.0016829967 0.029630125 0.026161479
-0.0057471991 0.02982223 0.027223906
-0.028752625 0.0078552365 0.025606347
-0.0034900308 0.028779149 0.022569941
-0.0076016188 0.029733956 0.022580938
-0.010933161 0.029144108 0.022546964
-0.029412329 0.011372089 0.021742625
-0.0085715055 0.02929467 0.017593073
-0.013057232 0.029228151 0.018316882
-0.029406667 0.015529513 0.017565472
-0.030030787 0.011723697 0.018282307
-0.010262907 0.029346943 0.013729824
-0.013978601 0.029398441 0.013191594
-0.018467665 0.028929949 0.01398308
-0.029283166 0.018748641 0.01367558
-0.015392959 0.02937758 0.00886227
-0.019337595 0.028184235 0.0087802801
-0.024047673 0.027072191 0.0099984799
-0.027608991 0.023115516 0.0093834791
-0.029057443 0.018701732 0.0096963737
-0.027561367 0.022738516 0.0048076864
0.029389799 0.030902386 0.051736265
0.029361844 0.030420959 0.046877652
0.024917185 0.029969215 0.046985298
0.022400618 0.029322684 0.043243945
0.01993084 0.030411005 0.042851388
0.021059453 0.03080827 0.037888221
0.017302871 0.031365156 0.037994497
0.013443828 0.028681815 0.03699597
0.016222954 0.032333314 0.032985203
0.01159054 0.029471457 0.032713048
-0.031185091 -0.0011526346 0.031862937
-0.033700883 -0.0034961104 0.031665437
0.01453197 0.033218384 0.028122058
0.010839283 0.030639648 0.027953854
0.0074906349 0.030188918 0.028923621
-0.030600011 0.0014518499 0.028550582
-0.032588661 -0.0032687783 0.027544456
-0.034559906 -0.0064302087 0.028699862
0.013009369 0.033996642 0.024257677
0.0093509555 0.032168925 0.023659663
0.0055112243 0.031583667 0.024128692
-0.029643953 0.0049976707 0.02458532
-0.030548632 0.0021487474 0.023571862
-0.03259474 -0.0023142695 0.024140878
0.0042970777 0.030113757 0.019627856
-0.00024074316 0.028900564 0.019528018
-0.0036414266 0.02838999 0.019550191
-0.029895067 0.0081974864 0.020409746
-0.030914545 0.0035193563 0.018879814
-0.0020200014 0.028614879 0.014713271
-0.0055258274 0.028648436 0.014880074
-0.029791951 0.008249402 0.014592985
-0.030984759 0.0052990317 0.015554735
-0.0074442625 0.029116929 0.01085241
-0.010832906 0.029661775 0.010215027
-0.02878958 0.014851272 0.011596749
-0.029185712 0.011452317 0.010088155
-0.0091181397 0.030465543 0.0064635407
-0.013145924 0.029843569 0.0067902636
-0.02939713 0.016761899 0.0069241915
-0.030026197 0.012373328 0.0069525931
0.034090817 0.026287735 0.050572932
0.033671856 0.026402354 0.046960264
0.033479452 0.0300138 0.0457398
0.030413091 0.030160606 0.043971568
0.029582262 0.029234409 0.040026061
0.025768161 0.028036356 0.040398262
0.031662762 0.031716168 0.03659787
0.027987301 0.030278802 0.035926722
0.024482965 0.029263318 0.03602659
0.025558531 0.03173846 0.03197702
0.022625446 0.030821323 0.031419359
0.021503389 0.031902671 0.027442446
0.017273545 0.032199383 0.026411643
0.016151786 0.032710791 0.022701042
-0.031415582 2.9563904e-05 0.020957006
-0.033514023 -0.0037776232 0.022335632
0.013813376 0.032536626 0.018772172
0.010032415 0.030126095 0.018021094
0.0046536922 0.029596567 0.017123627
-0.031444252 0.0010510683 0.017578019
-0.032835841 -0.0024718046 0.019641889
0.0056243539 0.028948903 0.01451893
0.00081717968 0.027884424 0.013488336
-0.031714022 0.0027141571 0.01458309
-0.00089943409 0.027986586 0.0096181165
-0.0053312778 0.029082656 0.0078863334
-0.029461503 0.0068586469 0.0099092517
-0.0036818981 0.028847158 0.0051991735
-0.0057948828 0.029410005 0.0052870605
-0.03024739 0.0094431043 0.0051066335
0.0302037 0.030388772 0.033618055
0.028560698 0.030956089 0.02962028
0.027354002 0.032320142 0.024859535
0.023691595 0.031116903 0.024137096
0.022571862 0.030577183 0.020188289
0.019471169 0.030504823 0.020977514
0.020592511 0.031155348 0.016989099
0.01768136 0.030183017 0.015623851
0.012116253 0.029105783 0.015165849
0.014487207 0.030929267 0.011265351
0.011564255 0.029434621 0.011613829
0.0071929693 0.027847469 0.010980202
0.003678441 0.026596248 0.011174543
0.014253616 0.030569851 0.0072523784
0.010416329 0.030193985 0.0070766639
0.0060462356 0.028377831 0.0072462093
0.0025470853 0.027083695 0.0074193608
-0.029470444 0.0012977123 0.0062360261
0.028045475 0.03015095 0.018158572
0.026080906 0.029058099 0.01665126
0.024033189 0.029067516 0.01337315
0.019650459 0.028438032 0.012129022
0.022739589 0.029006839 0.0083285999
0.019080281 0.028822184 0.0085845124
0.030160308 0.026378393 0.011316312
0.02679199 0.02763772 0.0098289084
0.030273139 0.025743902 0.0089984965
0.030560017 0.024741471 0.006436212
