# .PCD v0.7 - Point Cloud Data file format
VERSION 0.7
FIELDS x y z
SIZE 4 4 4
TYPE F F F
COUNT 1 1 1
WIDTH 1085
HEIGHT 1
VIEWPOINT 0 0 0 1 0 0 0
POINTS 1085
DATA ascii
-0.029802501 0.028765917 0.1781019
-0.032937884 0.024809301 0.17938888
-0.035572112 0.022102356 0.17736268
-0.039126456 0.017795444 0.17737651
-0.031136006 0.028781116 0.17596677
-0.035156012 0.02667737 0.17604834
-0.038604259 0.022724867 0.17500079
-0.041510135 0.019280612 0.17550671
-0.044443369 0.014959872 0.17632967
-0.046838939 0.012041926 0.17454168
-0.038166523 0.027252376 0.17172721
-0.040544897 0.024305701 0.17088595
-0.044119567 0.021318078 0.17204612
-0.047228038 0.017823577 0.17295772
-0.04944548 0.012995005 0.17080432
-0.050925136 0.010128021 0.17223892
-0.045746207 0.021633267 0.16734773
-0.048923284 0.019024372 0.16786072
-0.051136762 0.015487909 0.16683456
-0.047034025 0.021845341 0.16321626
-0.050169885 0.01944077 0.16264927
-0.052822649 0.016778529 0.16258329
-0.051067233 0.019755304 0.15872741
-0.054464579 0.018018186 0.15830317
-0.018915415 0.031988859 0.18114948
-0.02185601 0.029259443 0.18142298
-0.025807083 0.026049852 0.1805889
-0.028273672 0.021698534 0.18029851
-0.029493034 0.018324375 0.17988628
-0.017509311 0.035645247 0.17878443
-0.020766079 0.034291029 0.17769548
-0.02457124 0.031373203 0.17808682
-0.028576553 0.029050469 0.1789026
-0.030485094 0.026181698 0.17938215
-0.034104586 0.018706024 0.17787713
-0.036488891 0.015093803 0.17814332
-0.040015459 0.011649847 0.17854977
-0.042887777 0.0074174404 0.17752796
-0.022267997 0.033959985 0.17412058
-0.025712997 0.032094419 0.1735343
-0.029813826 0.02978003 0.17394161
-0.032765806 0.027949512 0.17372137
-0.045920014 0.0078469515 0.17409146
-0.046371758 0.0053033829 0.17322433
-0.027514458 0.032120705 0.16899836
-0.030649364 0.029891372 0.16937214
-0.034823507 0.028046548 0.16988873
-0.029115438 0.032565236 0.16618076
-0.032100976 0.030213594 0.16536221
-0.036052644 0.028199911 0.16546446
-0.038836092 0.023741364 0.16539195
-0.041760504 0.021435201 0.16468316
-0.03453052 0.030694246 0.1605359
-0.037105232 0.028530717 0.16043586
-0.039730489 0.024635673 0.16083047
-0.043966949 0.021605134 0.16092771
-0.048696637 0.020213246 0.1605038
-0.046764076 0.021472037 0.1571849
-0.04978466 0.019632936 0.15560353
-0.051913828 0.01585263 0.15362361
-0.013287604 0.027200043 0.18251583
-0.012509167 0.03404665 0.17875755
-0.01448679 0.031298041 0.1809276
-0.020947009 0.022161901 0.18010479
-0.023678541 0.018443584 0.18002525
-0.028061032 0.014445662 0.17920929
-0.03134346 0.010928273 0.17918143
-0.033984542 0.007860899 0.17879957
-0.037512541 0.0010341406 0.1782518
-0.03894347 -0.001360774 0.17811191
-0.014689207 0.035260379 0.17557755
-0.016568989 0.034430623 0.17574021
-0.041910589 0.00080996752 0.17603067
-0.045063943 -0.0032759905 0.17261201
-0.019213974 0.033993125 0.17123717
-0.045267999 0.001716435 0.17294848
-0.045301259 -0.00078910589 0.17154896
-0.02390641 0.031939447 0.16730165
-0.027554631 0.031989813 0.16254687
-0.029738158 0.030104399 0.16183099
-0.030829906 0.030426025 0.15768614
-0.035976052 0.028377175 0.15700907
-0.039051265 0.023522854 0.15718049
-0.04115966 0.020333171 0.15718102
-0.032281578 0.030073881 0.15461472
-0.035816252 0.027408719 0.1540454
-0.039302975 0.023464978 0.15425408
-0.042502046 0.02017653 0.15355879
-0.046998024 0.01865387 0.15282834
-0.044965208 0.019541383 0.1490059
-0.04789722 0.018055797 0.14953138
-0.050544977 0.014504075 0.14921664
-0.04601118 0.020105302 0.1443062
-0.048733383 0.018374383 0.14471351
-0.051466763 0.01486516 0.14571263
-0.0028426647 0.030569732 0.18385178
-0.0011397004 0.035412967 0.1802249
-0.0043999553 0.033041954 0.18142223
-0.0077556968 0.030716062 0.18181035
-0.0099224746 0.02655375 0.18249616
-0.013752103 0.022961676 0.18116164
-0.015724629 0.020255446 0.17997628
-0.019166678 0.01450932 0.17964593
-0.022699088 0.010040283 0.17961714
-0.02505523 0.0066644549 0.17951214
-0.02807349 0.0028214455 0.17948222
-0.03199172 -0.0024220943 0.17938805
-0.034395456 -0.0045353174 0.17956999
-0.035569042 -0.0080634356 0.17911655
-0.0028958023 0.036857367 0.17678094
-0.0062546432 0.035014808 0.17728251
-0.0094234943 0.03377378 0.17828655
-0.022715122 0.015819311 0.1791935
-0.026381135 0.011526287 0.17923909
-0.027659535 0.0093618631 0.17910916
-0.03093937 0.0045874715 0.17852512
-0.033914924 0.00069928169 0.1783334
-0.037760466 -0.0042745471 0.17771536
-0.039821386 -0.0076575279 0.17696691
-0.039842427 -0.010675132 0.17800003
-0.0078811347 0.035760522 0.1728096
-0.011620641 0.035192609 0.17337078
-0.042415023 -0.0060256124 0.17380422
-0.0090607107 0.036251068 0.1692808
-0.013135374 0.03495574 0.16898882
-0.016714543 0.033886611 0.168051
-0.041884631 -0.0025500059 0.16850373
-0.014910936 0.035185337 0.16443506
-0.018819213 0.033453703 0.16514641
-0.021518111 0.031552553 0.1646243
-0.019408643 0.033597767 0.16023022
-0.022977054 0.031520903 0.16077417
-0.021182179 0.033270597 0.15595677
-0.024921119 0.031920433 0.15630481
-0.028389335 0.030758142 0.15533671
-0.026146293 0.031629682 0.15230541
-0.030067474 0.029830933 0.15189426
-0.033385575 0.026180029 0.15056996
-0.03714028 0.023164272 0.15096386
-0.039705396 0.020038962 0.15097348
-0.031121433 0.02937603 0.14808373
-0.034355283 0.026779234 0.1467009
-0.037976354 0.023634851 0.14726321
-0.041004777 0.020040631 0.14729868
-0.049507797 0.010335088 0.14898084
-0.035113543 0.027146399 0.1427009
-0.039142072 0.024677157 0.14258502
-0.043488234 0.0206545 0.14271991
-0.050564349 0.014204383 0.14251097
-0.049930334 0.010044038 0.14300059
-0.040294647 0.025017023 0.13770185
-0.044382066 0.020798564 0.13820432
-0.04783693 0.018685222 0.13866057
-0.050165087 0.014523745 0.13900299
-0.046626061 0.019556582 0.13395406
0.0047395825 0.033183634 0.18157673
0.001028955 0.029904068 0.18337202
-0.0028715134 0.026774228 0.18361405
-0.0040014386 0.022444725 0.18242031
-0.0077819824 0.016848207 0.18051976
-0.010805935 0.012962759 0.18048215
0.0053326488 0.038157105 0.1799466
0.0023829341 0.035301626 0.17926365
-0.0005954504 0.033229887 0.18087816
-0.010539412 0.019693315 0.18101263
-0.014281869 0.016435206 0.17960939
-0.014206767 0.011691809 0.17940986
-0.017979652 0.0076404214 0.17919692
-0.02050966 0.00301826 0.17920732
-0.026640415 0.0012145638 0.17875099
-0.028748989 -0.0035779476 0.17912164
-0.032211334 -0.0068231225 0.18018347
-0.033997118 -0.012227833 0.17864215
-0.0364905 -0.014366984 0.17799309
0.00026324391 0.03646791 0.17499045
-0.0028861165 0.035589576 0.17522568
-0.039309323 -0.014121115 0.1745593
-8.7857246e-05 0.036631227 0.17029452
-0.0034527183 0.035587966 0.17033494
-0.0060409307 0.03631711 0.1656059
-0.041768551 -0.0073611736 0.16908282
-0.0088625848 0.036411643 0.16213822
-0.011065364 0.035576105 0.16220725
-0.0088496804 0.036616147 0.15788648
-0.013184339 0.035086393 0.15771991
-0.01560539 0.033972621 0.15578014
-0.013730466 0.035749316 0.15244627
-0.018699706 0.03414768 0.1534397
-0.023358703 0.032272577 0.15249181
-0.015675932 0.035772622 0.14931901
-0.017910898 0.033413112 0.14941533
-0.022743493 0.030218363 0.14816146
-0.02794075 0.029669523 0.14892049
-0.023941934 0.029776216 0.14426805
-0.028277934 0.028854668 0.14414717
-0.029679656 0.029087305 0.13992397
-0.03469336 0.026409209 0.13978
-0.039176404 0.023334444 0.14011209
-0.041056931 0.021356046 0.13962011
-0.030768752 0.029429317 0.13600199
-0.034629405 0.026726961 0.13532005
-0.039498001 0.024008632 0.13607211
-0.042847157 0.021284759 0.13610326
-0.04885155 0.012019694 0.13490473
-0.049467266 0.0086109042 0.13553821
-0.034823507 0.027553499 0.13155036
-0.038383186 0.02462709 0.13087885
-0.043167949 0.019995689 0.13121258
-0.047261477 0.017310798 0.1316091
-0.048873246 0.013673246 0.13175224
-0.04006058 0.025535166 0.12743954
-0.043976068 0.020745277 0.1277179
-0.047100186 0.017589331 0.12790377
0.0079031885 0.029226303 0.1849997
0.0064473748 0.024815917 0.18359727
0.0033556521 0.01979357 0.18333715
0.0079272687 0.031769693 0.18128607
0.0056280494 0.027845621 0.1827518
0.00076758862 0.024666488 0.18334228
-0.00049209595 0.020111263 0.18270308
-0.0044265389 0.015821517 0.1811175
-0.0075375736 0.012419581 0.18052712
-0.010591447 0.0085098147 0.18015084
-0.014415234 0.004922986 0.17970651
-0.026716709 -0.011681199 0.17938203
-0.030163527 -0.015102506 0.17955554
-0.032077134 -0.017822862 0.17947552
0.0060704947 0.037289083 0.17786443
0.0071222186 0.033920765 0.17685157
-0.020938933 -0.0025531054 0.17811763
-0.024202317 -0.0049683452 0.1784611
-0.033273876 -0.015421391 0.17860806
-0.035406172 -0.018116713 0.17688888
0.0066542029 0.036187291 0.17063114
0.0055072904 0.035152078 0.17242837
-0.038131893 -0.017282605 0.17268926
-0.037797511 -0.019873977 0.17116779
0.0048328638 0.037820995 0.16892111
0.0018237233 0.036590576 0.16827533
-0.036674052 -0.016814113 0.16725266
-0.00018379092 0.037507772 0.16444719
-0.037128866 -0.010542929 0.16535917
-0.03694123 -0.013477921 0.16291684
-0.0010947585 0.036103487 0.16072011
-0.0049812794 0.036431253 0.16017801
-0.035718888 -0.0056785345 0.15918893
-0.006853193 0.037031412 0.15546232
-0.0095265806 0.037899435 0.1514719
-0.011713833 0.036572576 0.15093346
-0.0093901753 0.037469387 0.14785098
-0.013572872 0.035989761 0.14642228
-0.017481416 0.032722712 0.14651345
-0.020931661 0.031559765 0.14640109
-0.015754968 0.035826981 0.14239256
-0.018916249 0.033831477 0.14286567
-0.022425532 0.031101227 0.14301316
-0.020598531 0.034387052 0.1388614
-0.024170041 0.031800687 0.13873656
-0.027284414 0.030206859 0.13755636
-0.025606036 0.032230556 0.13403715
-0.028965116 0.030166328 0.13386916
-0.045803249 0.0041447282 0.13148071
-0.026762784 0.031165302 0.12884812
-0.030699372 0.030071676 0.12963058
-0.034650505 0.028194666 0.12928878
-0.039914519 0.020894527 0.13040255
-0.048279315 0.0098427534 0.13021903
-0.047844589 0.0075488091 0.12830926
-0.031758279 0.028833628 0.12454732
-0.036030084 0.028128624 0.12555487
-0.039196014 0.025521994 0.12403788
-0.042206228 0.021168828 0.12475513
-0.045951962 0.016803145 0.12401728
-0.047258794 0.012065411 0.12488629
-0.040568739 0.024064541 0.1208574
-0.043362558 0.019688845 0.11990182
-0.044155806 0.017629743 0.11943768
0.011511981 0.02109617 0.18492073
0.0096924901 0.023360133 0.18373042
0.0069241226 0.019709349 0.18325084
0.004519701 0.016278267 0.18286383
0.001119256 0.010849953 0.18160117
-0.0018738508 0.0063034892 0.18184292
-0.0054319203 0.0022751093 0.18148625
-0.008341372 -0.00069129467 0.18075842
-0.0084728599 -0.0034354329 0.18149486
-0.01383096 -0.0090096593 0.18056437
-0.018199742 -0.014807224 0.17989981
-0.023565799 -0.021307528 0.18105799
-0.025305867 -0.023892939 0.18067706
0.00028520823 0.015761018 0.18157715
-0.00029528141 0.012813091 0.18110245
-0.0041253567 0.0085384846 0.1811921
-0.0075255632 0.0049452782 0.18074578
-0.010924101 0.0012912154 0.17971671
-0.013485759 -0.0033560991 0.17768359
-0.016208887 -0.0068249106 0.17863578
-0.019774139 -0.010881782 0.17858154
-0.021497846 -0.016206622 0.17874986
-0.025554955 -0.018974662 0.17922139
-0.028177798 -0.022477984 0.17972946
0.0078570545 0.035110056 0.17178115
0.0064352155 0.035886407 0.16373289
0.0060575604 0.035235405 0.16541851
-0.034753174 -0.015802205 0.16350061
-0.036180794 -0.021025598 0.16703153
0.005117178 0.037079692 0.16264468
0.0032102466 0.036472976 0.16044691
-0.034161478 -0.012428343 0.16098958
-0.034923077 -0.017208576 0.16063058
0.00081557035 0.035692155 0.15726376
-0.033415198 -0.0086767673 0.15522805
-0.034162253 -0.011178613 0.15572765
-0.0010472536 0.03536123 0.15185247
-0.034796357 -0.0076493025 0.15151678
-0.036069989 -0.0099063516 0.15135343
0.0032224059 0.044730842 0.14846705
-0.0048539639 0.037331045 0.1490811
-0.036252737 -0.0065355301 0.1478443
-0.0086508691 0.037316561 0.14431669
-0.01225841 0.036463737 0.14323328
-0.0096116662 0.036670625 0.14013924
-0.013167799 0.036032856 0.13914774
-0.010165572 0.03827244 0.13424914
-0.014007986 0.03634423 0.13496111
-0.019011796 0.034026384 0.13535158
-0.014856905 0.037210763 0.13073771
-0.018999159 0.0339818 0.13063212
-0.024092227 0.032147944 0.13089643
-0.044876575 0.00047254562 0.12935968
-0.046933621 -0.00045490265 0.13101302
-0.020522892 0.033949137 0.12623836
-0.025114477 0.031898618 0.12651803
-0.028855771 0.029933214 0.12625428
-0.045972049 0.0038839579 0.12793522
-0.04712224 -0.0022532344 0.12671299
-0.02115804 0.035443246 0.12283413
-0.025730103 0.031850219 0.12248789
-0.029322624 0.028698444 0.12171708
-0.033062279 0.026737571 0.12146269
-0.045701444 0.0091976523 0.12155341
-0.047583044 0.007542491 0.12409823
-0.030014277 0.028808177 0.11863373
-0.034592092 0.026083708 0.11786006
-0.038430989 0.024059653 0.11777677
-0.041722178 0.021099389 0.11831461
-0.045745552 0.016143382 0.11842395
-0.046837091 0.011969328 0.11792018
-0.036314577 0.025910735 0.11325155
-0.039703637 0.024136305 0.11346374
-0.043529779 0.021089613 0.11392586
-0.046718895 0.017337084 0.11398022
-0.048041999 0.013922811 0.11349706
-0.037957102 0.026678145 0.10998361
-0.039993703 0.024061501 0.10995828
-0.042875677 0.02111721 0.10968207
-0.04620707 0.016327918 0.10994975
-0.048181176 0.013641477 0.10988395
0.010853112 0.016509533 0.18456012
0.010979563 0.012272537 0.18407428
0.0039034486 0.0028879046 0.1830667
0.0014467239 -0.00051414967 0.18298495
-0.002250731 -0.0057475567 0.18341047
-0.0049725175 -0.0093328953 0.18278599
-0.0084968209 -0.01291275 0.18444067
-0.011947632 -0.015724778 0.18392131
-0.017031819 -0.019192696 0.18381172
-0.019663841 -0.022379398 0.18381965
0.0069542527 0.012660027 0.18261462
0.0050722659 0.008040905 0.18170166
0.001126945 0.0056717396 0.18264681
-0.0017569959 0.0015457869 0.18252274
-0.0053125024 -0.0025043488 0.18215948
-0.0081831515 -0.006855011 0.18094456
-0.011108637 -0.0093944669 0.1814909
-0.01478681 -0.013525724 0.1809994
-0.017913431 -0.017668545 0.18114787
-0.020430148 -0.020411193 0.18134832
-0.010603338 -0.0051250458 0.17826259
-0.033054858 -0.021309555 0.1635085
-0.032968521 -0.024432421 0.1622017
-0.032845616 -0.013739944 0.15823579
-0.033369422 -0.01870513 0.15767401
-0.034224272 -0.023521662 0.15869731
0.0052304864 0.03483808 0.15456316
-0.033865929 -0.013018668 0.15521389
-0.034536421 -0.016563296 0.15432972
0.0081270933 0.040038884 0.14852427
0.0031234324 0.035135388 0.1503288
-0.037274688 -0.014752865 0.150555
-0.037889302 -0.021344006 0.15092693
0.0048472881 0.039613545 0.1467552
0.0017240345 0.036535621 0.14656322
-0.0021547079 0.035929322 0.1453145
-0.036207587 -0.010445595 0.14601181
-0.036239445 -0.014848828 0.14613454
-0.00032782555 0.036146045 0.14129652
-0.0028417706 0.035723984 0.14151119
-0.036146164 -0.007576108 0.14053307
-0.0053588748 0.03455919 0.13713513
-0.0083169341 0.037790179 0.13355069
-0.040305614 -0.0017584562 0.13177367
-0.040327936 -0.0058220625 0.13134144
-0.0099858046 0.038274884 0.1293181
-0.013263345 0.037773132 0.128603
-0.043935746 -0.0030014515 0.12905483
-0.043923974 -0.0080386996 0.12775801
-0.014995515 0.037358522 0.12512238
-0.018496186 0.035268724 0.12459503
-0.042803735 -1.5377998e-05 0.12412651
-0.04481858 -0.0016879439 0.125526
-0.016040325 0.037226975 0.12163647
-0.019204021 0.034390688 0.11983411
-0.023844063 0.032064795 0.12014489
-0.042810559 0.0018027425 0.11924292
-0.020732164 0.033225775 0.11584486
-0.024162501 0.031980276 0.11575119
-0.028471589 0.029667616 0.11605303
-0.031550258 0.026950598 0.11566599
-0.025628984 0.030792415 0.11232756
-0.029223889 0.029371262 0.11157621
-0.033388317 0.027184725 0.11193801
-0.046002865 0.0092197657 0.11242609
-0.030121148 0.029047847 0.10796236
-0.033790022 0.026781678 0.10678442
-0.038727939 0.024802983 0.10703127
-0.042033613 0.020631194 0.10683088
-0.044543803 0.016279936 0.10705329
-0.046479881 0.012094319 0.10707371
-0.035302818 0.025620222 0.10336588
-0.039639473 0.025039911 0.10312329
-0.042829573 0.021519601 0.10302006
-0.044956207 0.01651901 0.10235707
-0.045903683 0.012745976 0.10253619
-0.040475845 0.023400784 0.099102214
-0.043618709 0.02178669 0.097933367
-0.045676231 0.017589629 0.098072335
0.012766957 0.005877018 0.18487161
0.011106014 0.002818644 0.18466035
0.0078167319 -0.00093358755 0.18471724
0.0059301257 -0.004973352 0.18436062
0.00046890974 -0.0088055134 0.1849494
-0.0010591149 -0.013248503 0.1844191
0.010733008 0.008957386 0.18344709
0.009152472 0.0046286583 0.18294987
0.0060268641 0.00079977512 0.18380913
0.0028886497 -0.0037471652 0.1832335
0.00036388636 -0.0069049597 0.18307656
-0.0031383634 -0.011205375 0.183218
-0.0053119361 -0.013464034 0.18544859
-0.031779498 -0.024315357 0.16073585
-0.033062994 -0.023535848 0.15603414
0.010895699 0.033525825 0.15101127
0.007620573 0.03383863 0.15159456
-0.03358987 -0.02075386 0.15420449
-0.035063297 -0.023816764 0.15274468
-0.034739077 -0.027378559 0.15035142
0.0082542598 0.036050856 0.14812328
0.0064383745 0.034828603 0.14953761
-0.036014676 -0.019238532 0.14560197
-0.036086798 -0.022259355 0.14807408
0.0053778291 0.038888454 0.14377977
0.0038928986 0.035614729 0.14254628
-0.03328988 -0.010422289 0.14250608
-0.035144985 -0.016240299 0.14217792
-0.035557985 -0.02014482 0.14259653
0.0020476282 0.034477472 0.13957603
-0.0007262826 0.033908367 0.13732617
-0.034608841 -0.011751056 0.13992466
-0.0012529492 0.036389112 0.13277315
-0.0024152398 0.034428954 0.13477747
-0.035816252 -0.0096843839 0.1331131
-0.0016633868 0.036596119 0.13027798
-0.0035332441 0.03613168 0.13074569
-0.035206497 -0.007424593 0.13052048
-0.038599908 -0.0091459751 0.13114367
-0.0068594813 0.03665781 0.12568013
-0.009660393 0.036866426 0.12305079
-0.011510372 0.036171138 0.1207798
-0.042299181 -0.0051086545 0.12173943
-0.013567984 0.034791231 0.11719407
-0.016766816 0.034010172 0.11653994
-0.04100728 0.0018826127 0.11597721
-0.016003758 0.03521049 0.11209984
-0.01883018 0.033660054 0.11282645
-0.02221334 0.031973004 0.11150013
-0.020400345 0.033042252 0.10876878
-0.023905486 0.031055689 0.10856704
-0.027092904 0.029595315 0.10888849
-0.025624096 0.030564308 0.10366909
-0.029112399 0.029089272 0.10436894
-0.045473993 0.0099855661 0.1034299
-0.03015703 0.029098272 0.099434331
-0.033725619 0.026246011 0.10001855
-0.036710292 0.024237931 0.098925516
-0.046470404 0.013062537 0.10009994
-0.03515321 0.025817156 0.095175996
-0.038883865 0.02348578 0.095527038
-0.043098569 0.020790339 0.093819275
-0.046419084 0.016420066 0.094965056
-0.047663093 0.012754679 0.095488504
-0.040683031 0.022723436 0.090764478
-0.043038189 0.020771325 0.091502711
-0.045693994 0.014817834 0.091195956
-0.047630727 0.013280153 0.091446444
-0.043715537 0.02302289 0.086438805
0.013717413 0.0014409423 0.18544242
0.011637688 -0.0024001598 0.18517691
0.0088213682 -0.0066808462 0.18500614
0.0052114725 -0.0094160438 0.18420213
0.013098776 0.03312093 0.15071981
0.011970699 0.033989787 0.14772086
-0.035465956 -0.023696899 0.14437054
-0.035388291 -0.027621448 0.1434065
-0.034450114 -0.019277453 0.13981436
-0.035313606 -0.023664296 0.14042877
0.0049191713 0.033546627 0.135958
-0.033170998 -0.012629807 0.13572191
-0.033450812 -0.018048704 0.13647379
-0.034707963 -0.021888137 0.13658123
0.0033347607 0.034560502 0.13290171
-0.033452362 -0.011432886 0.13313492
-0.035270751 -0.014689684 0.13049717
0.001668185 0.035519481 0.12806605
-0.002566278 0.034929752 0.12745564
-0.0021415353 0.035191715 0.12415718
-0.0065934956 0.035312951 0.11940788
-0.039254725 -0.0064291358 0.11815889
-0.0078090429 0.035827279 0.11533554
-0.011007547 0.035156846 0.11449344
-0.03935498 -0.0025351048 0.11425434
-0.03888607 -0.0070970058 0.11439602
-0.0077998638 0.0363729 0.11058216
-0.011844635 0.035680354 0.11083703
-0.039264679 -0.0012681484 0.11048599
-0.013296783 0.035522223 0.10582779
-0.017409921 0.034081042 0.10660259
-0.020157009 0.031703293 0.10529362
-0.018503219 0.034182072 0.10199432
-0.022579312 0.031796098 0.10227965
-0.020237893 0.034292936 0.09813042
-0.023966789 0.032010019 0.097751006
-0.027835935 0.029800832 0.09692882
-0.04387635 0.0075932741 0.097649023
-0.024469227 0.032114208 0.093372151
-0.028870791 0.02990222 0.09319739
-0.032365859 0.02702409 0.093354002
-0.035768092 0.023744166 0.092052117
-0.045718163 0.0067425966 0.094392791
-0.030645847 0.028918087 0.088949591
-0.03355363 0.026796758 0.088689864
-0.037461042 0.02398628 0.08905232
-0.041491866 0.020087898 0.088147461
-0.043900311 0.015818179 0.08838883
-0.046051055 0.011211157 0.088132858
-0.034857839 0.025662959 0.084908217
-0.038730919 0.024511695 0.084364116
-0.042420089 0.021440148 0.084314644
-0.044838846 0.01672101 0.084073782
-0.045873344 0.011741757 0.083913833
-0.039727926 0.02378273 0.079962075
-0.043836892 0.022148728 0.079992473
-0.04561919 0.018207908 0.079244882
-0.045257151 0.02226007 0.075680465
-0.045688391 0.019106686 0.075822264
-0.033911586 -0.027832091 0.13577743
0.0099455118 0.032469511 0.13191275
-0.033458322 -0.021178126 0.13369392
-0.033985287 -0.024212837 0.13310264
-0.033889949 -0.028112948 0.13390748
-0.03251189 -0.019155741 0.13067533
-0.034317493 -0.023470998 0.12799336
0.0095439851 0.036043406 0.12753157
0.0058864057 0.03442812 0.12646471
-0.034014612 -0.019072056 0.12630315
-0.035691261 -0.02305311 0.12446402
0.0032775998 0.033399224 0.12069835
0.0012535453 0.032992244 0.12033816
0.0020800829 0.034921885 0.1151271
-0.00086390972 0.033668399 0.11757253
0.00027900934 0.036599874 0.11215265
-0.0031803846 0.035600185 0.11339031
-0.039022952 -0.0092534423 0.11235557
-0.0016366541 0.037262022 0.10876639
-0.0050996542 0.036593258 0.10856818
-0.038159668 -0.0046136975 0.10784887
-0.038763255 -0.0069109797 0.10879718
-0.0069971383 0.036019504 0.1041926
-0.010143757 0.035862386 0.10485055
-0.038790703 -0.0019308329 0.10422428
-0.037857145 -0.0053140521 0.10481511
-0.0087926388 0.036423624 0.099041566
-0.01231873 0.035246372 0.099929377
-0.015651435 0.033726573 0.098822817
-0.039088011 -0.0010137558 0.099077746
-0.012849331 0.035328984 0.094614819
-0.016949356 0.033094764 0.09480615
-0.040604323 0.00034284592 0.094830021
-0.015142232 0.034897149 0.090678558
-0.018391013 0.03336221 0.090465918
-0.022562921 0.030947149 0.089871377
-0.019322515 0.032792866 0.086929202
-0.023541331 0.030990362 0.086067826
-0.02799949 0.029094458 0.08686015
-0.031510949 0.027124166 0.085970342
-0.044869125 0.0071455836 0.084983408
-0.024654925 0.031354189 0.081531882
-0.028959453 0.028909385 0.081853598
-0.032865167 0.026042938 0.082205683
-0.036081374 0.024146795 0.081201822
-0.045869917 0.0096206665 0.081433952
-0.044961214 0.0067935586 0.08119759
-0.026773691 0.031872034 0.077577531
-0.030399144 0.029915094 0.077091634
-0.033976912 0.026398897 0.077370107
-0.037870228 0.024006963 0.077480048
-0.041580856 0.022191882 0.077076435
-0.045154035 0.013917327 0.07779029
-0.045609832 0.010878325 0.078919083
-0.03196317 0.029531717 0.073196054
-0.035066783 0.02672869 0.072500318
-0.039140701 0.024049878 0.072988689
-0.043021619 0.021810234 0.073024839
-0.046055228 0.016796112 0.073395997
-0.037088662 0.026360691 0.069164872
-0.040009201 0.024744272 0.06813696
-0.044009537 0.021852493 0.068354219
-0.045294672 0.017102957 0.068829179
-0.043745279 0.021906674 0.064696223
-0.045470357 0.020079851 0.064795434
-0.032727897 -0.030008852 0.12947895
0.010224164 0.035233378 0.12530731
0.0085430741 0.032577157 0.12289418
-0.033224463 -0.020368218 0.12301333
-0.034212172 -0.023186088 0.12169705
0.0066101849 0.032352924 0.11845408
-0.034418613 -0.024611235 0.11866812
0.0053494871 0.034680188 0.1143647
0.0030190945 0.037548602 0.11003904
0.00053289533 0.036946535 0.10572837
-0.036372602 -0.011053145 0.10458796
-0.0032339692 0.035867333 0.10097136
-0.036730409 -0.0069710016 0.10122521
-0.005661577 0.036351442 0.097018167
-0.038860977 -0.0050910711 0.097866341
-0.008192718 0.037344098 0.092494264
-0.040421307 -0.0038715601 0.094133094
-0.0097678006 0.037808716 0.08960551
-0.012840271 0.036023855 0.088791221
-0.013026297 0.03570503 0.08426857
-0.018753171 0.034100175 0.084546477
-0.018539071 0.033642828 0.080237389
-0.022613883 0.03241837 0.079165936
-0.024258852 0.032530785 0.075359672
-0.043926001 0.0098803639 0.075195074
-0.045160174 0.0065624714 0.07747069
-0.025821149 0.031933427 0.07130155
-0.029633641 0.03069216 0.071001858
-0.034039587 0.028178096 0.070441484
-0.045100331 0.011236489 0.070883751
-0.030476391 0.029838681 0.06708473
-0.034762353 0.027781069 0.067039192
-0.037294686 0.026193976 0.065426052
-0.045325488 0.01600492 0.065994442
-0.045024812 0.012435615 0.066038728
-0.038256854 0.023980737 0.062465008
-0.042638689 0.022012413 0.061872121
-0.04509753 0.017340243 0.061911728
-0.045784116 0.012853384 0.062678009
-0.042845488 0.021525264 0.058551688
-0.045221388 0.019152701 0.058735725
0.014299691 0.031387091 0.1206194
0.013579696 0.030416548 0.11938141
0.011409521 0.030912042 0.11690967
0.0094550848 0.03539443 0.11162798
0.010312855 0.033089459 0.11288263
0.0043337345 0.035745144 0.10267939
0.0028717518 0.035670877 0.098528966
-0.00010451674 0.035137057 0.10032181
-0.032908261 -0.013852775 0.098963454
0.0013181567 0.036608696 0.09412156
-0.0020491481 0.035974383 0.094274387
-0.036058664 -0.011149526 0.093358681
-0.00095635653 0.037493706 0.08919999
-0.0036236644 0.037217557 0.090524688
-0.0057427287 0.037375629 0.085020214
-0.0069257617 0.03745997 0.081206083
-0.011545658 0.03645277 0.080520958
-0.012677193 0.035059929 0.076901853
-0.016347796 0.034191012 0.077545196
-0.014644086 0.03529793 0.072852314
-0.01786387 0.033765733 0.073588848
-0.02173534 0.032768607 0.072848082
-0.019270897 0.033516645 0.068373114
-0.023032129 0.032018483 0.069066107
-0.020525277 0.03327024 0.064979911
-0.023900628 0.031435013 0.064345896
-0.028159022 0.029632866 0.064243913
-0.032001555 0.027872086 0.063912302
-0.043704689 0.0086090565 0.066256255
-0.027903795 0.028225005 0.060545649
-0.03269431 0.025464058 0.059872117
-0.036875635 0.023309767 0.059158262
-0.045152068 0.014338195 0.06004962
-0.045704365 0.011378169 0.06124061
-0.03398174 0.024266124 0.055946369
-0.03765747 0.022791266 0.05555715
-0.042179704 0.020462215 0.055099178
-0.04409942 0.015681684 0.055681992
-0.044386685 0.012909174 0.054538328
-0.039089203 0.021749854 0.051418979
-0.041938066 0.020576119 0.050897289
-0.043509305 0.017729878 0.050933439
-0.042636931 0.021286488 0.046925861
0.015825331 0.032719254 0.11559492
0.013320327 0.030275464 0.11392771
-0.029962301 -0.028416514 0.11184938
0.010528445 0.035133064 0.10011627
0.0081733465 0.034293652 0.10099165
-0.030841202 -0.020708203 0.10197137
0.0084640682 0.036652088 0.096426949
0.0062715411 0.035865068 0.097423181
-0.032840312 -0.014292657 0.096031711
-0.032959461 -0.016619444 0.096361145
0.0069364309 0.037343621 0.093877122
0.0045778751 0.036520422 0.092126861
-0.033414692 -0.016822457 0.090858623
0.0029165149 0.036640286 0.088065624
-0.034224331 -0.013148606 0.086547405
-0.00084379315 0.037596881 0.084039927
0.0021261573 0.040954828 0.079708725
-0.002466321 0.038170993 0.078669727
-0.006090939 0.037500143 0.078377038
-0.0024455488 0.037862718 0.074792415
-0.0066436529 0.036835968 0.074370265
-0.011180222 0.035990059 0.074294299
-0.0082166493 0.035989404 0.070673496
-0.012294054 0.035434723 0.069888413
-0.016304821 0.034255803 0.069376886
-0.013269484 0.034918785 0.065268755
-0.016937852 0.034591198 0.065920591
-0.014776111 0.034469128 0.061250623
-0.018833667 0.033703566 0.061609533
-0.023243278 0.032100797 0.061855372
-0.020077378 0.032286525 0.058786239
-0.023114413 0.030706644 0.057793129
-0.027663022 0.028389931 0.057504226
-0.031089216 0.026309967 0.057368863
-0.043349415 0.0079885721 0.057051498
-0.02709505 0.027568996 0.053650398
-0.031926095 0.025913179 0.053569634
-0.036765069 0.023161054 0.052864213
-0.043534696 0.014268994 0.052718539
-0.04394272 0.01042825 0.053101499
-0.032499433 0.025418282 0.04843216
-0.037193567 0.023559332 0.049147654
-0.04244101 0.020012021 0.048359562
-0.043741792 0.015686154 0.048773933
-0.043717623 0.01088649 0.048351098
-0.03825894 0.023844063 0.04444604
-0.042995095 0.022110879 0.044255722
-0.044968337 0.017335653 0.044661362
-0.038384557 0.02352941 0.040137339
-0.042710662 0.021500468 0.039542157
-0.0453161 0.018648744 0.039817918
-0.044079274 0.021626115 0.036021668
-0.046065003 0.020034134 0.036314834
-0.027463704 -0.028385758 0.10994075
-0.027063787 -0.029720247 0.10551567
-0.028892398 -0.032446861 0.10562463
-0.028387487 -0.027603269 0.10178123
-0.029633194 -0.032085717 0.10223804
-0.028757364 -0.02351892 0.097716138
-0.030043781 -0.025466025 0.096216008
0.012046754 0.035052478 0.097097203
-0.031404912 -0.0210374 0.094615623
-0.031613082 -0.023404717 0.09403573
0.009670198 0.035237491 0.089848012
-0.032028079 -0.02092886 0.090171769
0.0088506341 0.034888804 0.085013837
0.0062230229 0.03502512 0.085033506
-0.03293997 -0.017994165 0.085665762
0.0040714741 0.035847008 0.080935717
-0.029996842 -0.011845589 0.07976234
-0.032718241 -0.016258955 0.081359595
0.0033823252 0.039423108 0.075021118
0.0020355582 0.037265778 0.076776147
0.0020457506 0.040492296 0.072022766
-8.4042549e-06 0.037715077 0.072274655
-0.0042612553 0.036979377 0.071403444
-0.0032051504 0.03805697 0.067523658
-0.0061349571 0.036439836 0.067893505
-0.035903215 -0.0048029423 0.064951837
-0.0065969527 0.037290752 0.063650995
-0.010457397 0.035628736 0.062638909
-0.036314011 -0.004565537 0.06326282
-0.008400619 0.037644267 0.058829989
-0.011516899 0.035856009 0.058512438
-0.015478969 0.034109294 0.058217127
-0.013348937 0.035830081 0.053825516
-0.016848713 0.033508599 0.054075677
-0.01996696 0.031162262 0.054074217
-0.014770448 0.035964727 0.050175924
-0.017539501 0.033816814 0.049619395
-0.021713585 0.030438304 0.05060773
-0.024810731 0.027428627 0.050783504
-0.041929305 0.0050815344 0.052067418
-0.042240739 0.0050907731 0.049299527
-0.022818625 0.03071779 0.046530593
-0.026233852 0.02763319 0.046258975
-0.030273736 0.026302218 0.046959866
-0.04323864 0.0082384944 0.045864452
-0.027644217 0.027665138 0.041788924
-0.031572491 0.02529788 0.041829992
-0.035462379 0.024305105 0.041142154
-0.043562502 0.010614634 0.041913528
-0.030217201 0.02829504 0.036415476
-0.033240795 0.025756598 0.03747033
-0.037128448 0.023509264 0.037117381
-0.041065872 0.022285342 0.036941756
-0.044612765 0.014990568 0.037943769
-0.043098658 0.011984348 0.036334176
-0.034913361 0.025437534 0.033496398
-0.038209379 0.023303151 0.033662338
-0.042139411 0.020816565 0.032441575
-0.044642031 0.017354608 0.032885153
-0.042126834 0.020069242 0.028829623
-0.043231606 0.018745422 0.028847981
-0.029160202 -0.034893692 0.10413371
-0.028725773 -0.030082822 0.099358663
-0.029893786 -0.033673048 0.099654123
-0.030061603 -0.028874993 0.096136913
-0.030904263 -0.032344639 0.094630167
-0.030796677 -0.026245832 0.090717092
-0.031370938 -0.030526042 0.090106979
-0.03168413 -0.021707654 0.087010622
-0.031294227 -0.026110172 0.085638881
-0.032357842 -0.028682947 0.086234242
-0.031835586 -0.020127058 0.083257139
-0.032403737 -0.0242486 0.080863833
0.0080605745 0.035409749 0.08165887
-0.030493319 -0.016603708 0.077619761
-0.031730264 -0.01896745 0.078332454
-0.030938238 -0.012467146 0.074600637
0.0026666522 0.039732218 0.06966278
0.0015513897 0.037192464 0.069320053
-0.032620788 -0.01095283 0.070824385
0.0036533773 0.040775895 0.063863158
0.00088000298 0.037589192 0.065859586
-0.034518778 -0.0087653399 0.065158963
7.3581934e-05 0.036748111 0.060142156
-0.0041909814 0.037708819 0.060767468
-0.035873741 -0.0041295886 0.060348865
-0.035495102 -0.008356154 0.059882101
-0.0017875433 0.038203299 0.055503745
-0.0059452951 0.037926137 0.057014216
-0.036031902 -0.0044195652 0.056467015
-0.037104249 -0.0070949793 0.056055058
-0.0080060959 0.037941873 0.052020241
-0.011504531 0.037183523 0.052662838
-0.0094153285 0.037771344 0.047670174
-0.013234317 0.036976993 0.047710408
-0.013529897 0.036114275 0.043130118
-0.018169641 0.034060001 0.045100141
-0.021633595 0.031780839 0.044459093
-0.017882466 0.033337653 0.039883424
-0.022843271 0.030988574 0.040147025
-0.026904404 0.028964698 0.040160317
-0.023028523 0.03015697 0.03555404
-0.028189003 0.028942406 0.035796423
-0.032043397 0.026783228 0.035365153
-0.041756988 0.0091640353 0.034858931
-0.028244138 0.028312564 0.031692702
-0.032804728 0.026702762 0.030690093
-0.037700891 0.023610055 0.03091215
-0.044129521 0.014946818 0.030893523
-0.042200148 0.010508716 0.031561513
-0.032761216 0.025810659 0.026175875
-0.037214458 0.023715198 0.026205231
-0.041704506 0.021446943 0.026495714
-0.04395467 0.016418457 0.026157368
-0.045388609 0.013000727 0.023881037
-0.037872314 0.023167074 0.02151062
-0.041268468 0.020879447 0.021420885
-0.044291884 0.017296672 0.022404987
-0.045762032 0.013197422 0.022129405
-0.029511392 -0.035663009 0.095610365
-0.030887157 -0.026040077 0.079817921
-0.026472092 -0.018528223 0.076583534
-0.030317366 -0.020400286 0.074075848
-0.031146079 -0.023855925 0.074804634
-0.030757844 -0.018343925 0.071483135
-0.030478835 -0.014624834 0.066393852
-0.030698121 -0.017713964 0.066844046
-0.031254262 -0.014119446 0.062337603
0.0027772784 0.036474645 0.059036817
-0.034599632 -0.012016535 0.058430631
-0.034544945 -0.014713705 0.057588536
0.00069931149 0.036952257 0.054647762
-0.0027276278 0.036547124 0.053416718
-0.033971936 -0.0058403611 0.052333463
-0.03614831 -0.0094698668 0.053211499
-0.036657184 -0.012868583 0.05410834
-0.0013133883 0.037287414 0.049210209
-0.0035487413 0.037088275 0.050017554
-0.035061717 -0.0050601959 0.049108524
-0.0063212812 0.036997914 0.045232046
-0.0087931752 0.037252605 0.040918399
-0.01189357 0.036370635 0.04008301
-0.01339668 0.035198569 0.037369002
-0.017069101 0.03222996 0.036257673
-0.013881743 0.034988165 0.033894915
-0.016472578 0.033055544 0.032349277
-0.020473361 0.030762613 0.032672692
-0.024346083 0.029357851 0.032396127
-0.039766818 0.0054786801 0.031846661
-0.039055228 0.002402544 0.033503015
-0.021722347 0.030466437 0.028393913
-0.025741279 0.028269768 0.028109003
-0.040913165 0.0074546337 0.027552176
-0.026918113 0.0283584 0.023825992
-0.030932039 0.026165962 0.023548145
-0.042779475 0.0089531541 0.023392934
-0.032147884 0.024547935 0.01954614
-0.035862148 0.023304224 0.01871698
-0.041033536 0.020341992 0.01859026
-0.04346782 0.014896095 0.018559206
-0.037540674 0.022966862 0.014675993
-0.040944934 0.019812107 0.014390189
-0.043227732 0.016209006 0.014528561
-0.044193208 0.013210773 0.014507551
-0.039023519 0.02240622 0.010460928
-0.041873187 0.020419598 0.011010155
-0.025109947 -0.020347655 0.073656976
-0.029994041 -0.027202129 0.073428124
-0.026634395 -0.019310832 0.06874001
-0.029186815 -0.024016798 0.070217222
-0.029830158 -0.025915384 0.069896698
-0.030189574 -0.018677592 0.06347537
-0.031386554 -0.018702388 0.059719261
-0.033882558 -0.018133998 0.056297529
0.0055336356 0.035743058 0.051935811
-0.035290182 -0.01591599 0.051673759
0.0013185441 0.03709507 0.048125524
-0.033832401 -0.010781646 0.047492672
0.00041872263 0.036481678 0.044371713
-0.0018093586 0.036040425 0.042166639
-0.0045956373 0.036851108 0.038620789
-0.035563529 -0.0035213232 0.036078233
-0.0075921714 0.03629452 0.03570791
-0.0092707276 0.035734415 0.033575345
-0.036783785 -0.0025935173 0.03292169
-0.012719065 0.03633672 0.03149553
-0.01507026 0.034646511 0.030324567
-0.038478762 0.0013893247 0.029973317
-0.013216257 0.035841703 0.02731492
-0.016911864 0.033435583 0.02697276
-0.02046451 0.03147912 0.026230443
-0.039993584 0.0051585436 0.026898671
-0.038874388 0.0014898777 0.027198691
-0.017354041 0.031330407 0.022232164
-0.021900177 0.0309062 0.022005279
-0.026130527 0.028903306 0.02112611
-0.040959477 0.0057976246 0.023549099
-0.02321291 0.029905796 0.016738374
-0.027121782 0.028325796 0.017365444
-0.031109512 0.025775075 0.017532308
-0.041302621 0.0070047379 0.016130913
-0.027163208 0.027993441 0.013270963
-0.032374352 0.025482357 0.012897003
-0.036227345 0.023880243 0.012426544
-0.043611854 0.014815152 0.011814851
-0.043159664 0.0098986626 0.011415854
-0.033394754 0.025111556 0.007944867
-0.037588388 0.023483694 0.0079534203
-0.042113125 0.020363688 0.0080910474
-0.043488085 0.015525997 0.0079980344
-0.044878006 0.013188243 0.0077868253
-0.040929317 0.023786664 0.004759714
-0.042678356 0.021858335 0.0048504025
-0.043765157 0.017287374 0.0042162389
-0.042504489 0.022049844 -0.00020174682
-0.043799937 0.018894255 0.001271829
-0.03414613 -0.018585086 0.050410915
0.0050726831 0.035644889 0.044248033
-0.030915707 -0.015375376 0.042299498
-0.033034414 -0.016526163 0.045718987
0.0039977133 0.035422683 0.040265817
-0.031403691 -0.011195958 0.040849108
0.0018476248 0.036356568 0.036377687
-0.0012176633 0.036237717 0.036083389
-0.033388317 -0.0084263086 0.035603214
-0.0028713048 0.034636021 0.031279732
-0.03554517 -0.0073258877 0.030878831
-0.0055493414 0.034904957 0.027488727
-0.0079738498 0.034889758 0.028478969
-0.036324203 -0.0038405657 0.026370484
-0.006334424 0.03547889 0.025012154
-0.0093683302 0.034205794 0.023185272
-0.01346311 0.032470942 0.022981424
-0.01158905 0.033663869 0.019933391
-0.014950335 0.031458259 0.019017536
-0.016536057 0.031528175 0.014616001
-0.020652652 0.030532897 0.014960039
-0.018691778 0.031700611 0.010902867
-0.021958768 0.0302338 0.010041639
-0.026037127 0.027777791 0.0096964687
-0.029013097 0.025770724 0.009284541
-0.042661667 0.0062220693 0.011434183
-0.022854239 0.030483305 0.0062291175
-0.025620401 0.028233767 0.0056393892
-0.029728413 0.025578856 0.0052070469
-0.03293997 0.023021579 0.0039874762
-0.0426566 0.008261621 0.0071074814
-0.030986607 0.02492404 0.0010974258
-0.034822732 0.022200108 0.0014924556
-0.042736232 0.01530683 0.001543507
-0.044162691 0.011912167 0.002994433
-0.029937983 -0.024037719 0.043164123
-0.030851513 -0.019816935 0.0415393
0.0088382959 0.034069479 0.038317133
-0.030156106 -0.014148295 0.037938286
-0.03095901 -0.018860519 0.037008394
-0.033692867 -0.020914078 0.035699029
0.0061281323 0.035123587 0.033774037
-0.031902015 -0.012800872 0.033603538
-0.032525986 -0.017421603 0.032368232
-0.034944177 -0.019829571 0.033559132
0.0022904873 0.034810305 0.029240418
0.00063341856 0.033910155 0.028623719
-0.034511566 -0.010514557 0.029420067
-0.033360898 -0.015248954 0.028747607
0.0013030767 0.035371304 0.023826379
-0.0017157793 0.034674108 0.024838526
-0.034713149 -0.0083545446 0.02421831
-0.0036174953 0.034980774 0.020718027
-0.0052943826 0.034458637 0.016719837
-0.0093225837 0.033676863 0.016977895
-0.0095998645 0.033166289 0.012219537
-0.013260126 0.031829953 0.01144062
-0.015150785 0.032192886 0.0078145117
-0.018469691 0.031203926 0.0076068491
-0.017685354 0.032492101 0.0026434511
-0.020704687 0.030872583 0.0031458288
-0.02507174 0.027362287 0.0020540804
-0.03921175 0.0038512945 -3.0249357e-06
-0.025898993 0.027969301 -0.00041551888
-0.029575557 0.025040865 -0.00016339123
-0.041088879 0.0094964504 -0.0012510568
-0.031731009 -0.022833943 0.037297893
0.0078987479 0.033198833 0.03044926
-0.030370295 -0.017002821 0.033635307
0.0080007315 0.036437869 0.025448132
0.0064181983 0.03412497 0.026943374
-0.033363461 -0.016477823 0.025677521
0.0077320039 0.036568224 0.023591001
0.0048907399 0.034922183 0.022705901
-0.033048689 -0.012956262 0.02201568
-0.031750798 -0.016902983 0.022199709
0.0027384162 0.035580814 0.018475045
-0.03262198 -0.0099279881 0.018817443
-0.0012388229 0.034270227 0.014445771
-0.0028140843 0.033385515 0.0097440332
-0.0059970021 0.03336525 0.009569779
-0.0080887079 0.032474816 0.0048611313
-0.01159367 0.03163892 0.0047788769
-0.01078403 0.032932758 -0.00022302568
-0.013237119 0.031658709 0.00040437281
0.010329604 0.031869829 0.027034629
-0.03222093 -0.017957389 0.020027447
0.0067403316 0.034481287 0.015226353
-0.031264782 -0.014306962 0.01578461
0.0020214915 0.033828557 0.011909861
-1.9729137e-05 0.033416629 0.007546261
-0.0025000572 0.033539832 0.0025232285
-0.0055074692 0.032981038 0.0026074201
0.0059832931 0.032351255 0.0097403079
0.005695343 0.032274306 0.004716292
0.0028767586 0.032436013 0.0039273053
0.010159791 0.03068161 0.0074143261
0.010378867 0.030098379 0.0019763261
0.015888453 0.027410269 0.0028571635
0.020794868 0.025351822 0.0042429119
0.019280732 0.026582658 0.0011423677
0.026085466 0.022657812 0.0011220425
