# .PCD v0.7 - Point Cloud Data file format
VERSION 0.7
FIELDS x y z
SIZE 4 4 4
TYPE F F F
COUNT 1 1 1
WIDTH 1042
HEIGHT 1
VIEWPOINT 0 0 0 1 0 0 0
POINTS 1042
DATA ascii
-0.037623405 -0.0092227459 0.18025099
-0.035426795 -0.013952196 0.18058865
-0.03337121 -0.019386828 0.17993174
-0.031668484 -0.023268938 0.18123089
-0.029484749 -0.027430475 0.18190415
-0.038970053 -0.0098574758 0.17789452
-0.037350953 -0.014876187 0.17702128
-0.035475135 -0.019623637 0.17738934
-0.034228146 -0.024154186 0.17748745
-0.032014072 -0.028580487 0.17783086
-0.027887225 -0.030742526 0.17827298
-0.038535237 -0.01591897 0.17341571
-0.036513746 -0.020962715 0.17339881
-0.034833848 -0.024729371 0.17346208
-0.032907069 -0.028431237 0.1734383
-0.02936846 -0.01103425 0.18262415
-0.025495529 -0.020172 0.18283384
-0.02466768 -0.02445066 0.18391488
-0.021197498 -0.028262556 0.18362145
-0.03962177 0.0058595538 0.17856736
-0.03819418 0.0023004413 0.17896251
-0.038207293 -0.002838552 0.17974602
-0.035674989 -0.0071027875 0.18105899
-0.033198237 -0.011404395 0.18210702
-0.030221641 -0.016142845 0.18055014
-0.028743804 -0.019972622 0.18162827
-0.024993122 -0.030501008 0.18079619
-0.022771716 -0.033169329 0.18018441
-0.040488303 0.0056993365 0.17655177
-0.039278448 0.0013632178 0.1761537
-0.039181232 -0.0034902096 0.17583068
-0.038912416 -0.0082782507 0.17545222
-0.038309276 -0.011909068 0.17513703
-0.034678817 -0.017690122 0.17490794
-0.027377605 -0.031829655 0.1762162
-0.024411023 -0.034850657 0.17632936
-0.020246923 -0.037416816 0.17522721
-0.039414346 -0.0093188286 0.17183881
-0.038974524 -0.013588965 0.17157643
-0.036576271 -0.018591523 0.17149319
-0.034703553 -0.023258865 0.17059927
-0.032512844 -0.027744055 0.17061509
-0.028400421 -0.031570315 0.1716537
-0.024577081 -0.034418941 0.17206083
-0.040440798 -0.010727406 0.16696374
-0.040097117 -0.014883697 0.16751565
-0.037268937 -0.019200146 0.1673011
-0.035062551 -0.023686111 0.16731133
-0.032396019 -0.027823389 0.16733752
-0.028396785 -0.032006264 0.16738336
-0.040236294 -0.010979235 0.16345678
-0.039217889 -0.015422165 0.16340743
-0.038287163 -0.018647909 0.16275458
-0.034279525 -0.024659753 0.163738
-0.037626982 0.016632438 0.1809545
-0.036742687 0.013636291 0.18092184
-0.035147667 0.0090180039 0.18184678
-0.033237159 0.0041266084 0.18151261
-0.030636668 -0.00029736757 0.18111043
-0.027840376 -0.0041538477 0.18157212
-0.025479019 -0.0079470277 0.18238623
-0.025131583 -0.014128685 0.18182151
-0.021984458 -0.018280208 0.18265505
-0.021921337 -0.02160269 0.18370475
-0.017612517 -0.030816972 0.18207137
-0.040294349 0.015402317 0.17674427
-0.039191306 0.012276113 0.17688505
-0.038226724 0.0080736279 0.17867266
-0.035261333 0.0033835769 0.18050294
-0.032095909 -0.0025603175 0.18044583
-0.031559467 -0.0049760938 0.18064795
-0.026495218 -0.014661193 0.18058296
-0.01780647 -0.034032702 0.17915817
-0.014707804 -0.036546946 0.17686729
-0.039916873 0.010580838 0.17331426
-0.03929621 0.0066411495 0.17257099
-0.038226902 0.001991272 0.17246287
-0.036795557 -0.0022377372 0.17143475
-0.020955205 -0.036180437 0.1726533
-0.019083619 -0.037693918 0.17491065
-0.03935349 0.0051432252 0.16875802
-0.038464189 0.0013557673 0.16878258
-0.037574589 -0.0037608147 0.16878296
-0.037228405 -0.0069506764 0.16882832
-0.022948205 -0.035157263 0.16876929
-0.038544893 -0.0043053627 0.1640894
-0.037846863 -0.007507503 0.16475125
-0.029500842 -0.02925849 0.1638114
-0.027803719 -0.03185308 0.16385619
-0.024652302 -0.034146309 0.16391043
-0.039735675 -0.007013917 0.1573946
-0.039529622 -0.010233343 0.15960811
-0.038674831 -0.014931083 0.15987413
-0.034898221 -0.02013737 0.16020916
-0.033665597 -0.023783445 0.16024984
-0.030751348 -0.027657807 0.1605535
-0.027925432 -0.03089875 0.1600648
-0.040001214 -0.011533797 0.15646444
-0.038608611 -0.015563905 0.15512876
-0.037818849 -0.018702686 0.15604399
-0.034139097 -0.022745728 0.15637551
-0.031527877 -0.026314795 0.15610145
-0.038649857 -0.018479824 0.1518826
-0.034647822 0.019571781 0.18309547
-0.032310128 0.01685065 0.18324219
-0.029250562 0.012535155 0.18254308
-0.025352418 0.0084936619 0.18199022
-0.024476051 0.00325948 0.18319987
-0.022479832 -0.00098979473 0.18341295
-0.019695282 -0.0037260056 0.1821271
-0.037575603 0.021875858 0.18015437
-0.036047578 0.019541681 0.17969941
-0.032846272 0.01303637 0.18179838
-0.029478729 0.0062515736 0.18180738
-0.027534783 0.0025035739 0.18178745
-0.024466693 -0.0035090446 0.18177061
-0.019974232 -0.011705279 0.18165551
-0.018438876 -0.014714479 0.18164705
-0.012038708 -0.031117857 0.18045174
-0.010047138 -0.033730924 0.17894439
-0.037689269 0.019505262 0.1755452
-0.011391461 -0.036402404 0.17757763
-0.0094942451 -0.037822127 0.17547737
-0.038573563 0.013800442 0.17124014
-0.03836143 0.010250986 0.16997884
-0.015004039 -0.037261426 0.17097495
-0.038647354 0.01209867 0.16671444
-0.038829684 0.0082950592 0.16671373
-0.037751555 0.003077805 0.16566475
-0.036761463 -8.7559223e-05 0.16585205
-0.016003072 -0.036271393 0.16675733
-0.038744986 0.0071687698 0.16240393
-0.038993835 0.0024212003 0.16265719
-0.037793577 -0.0011523366 0.16240565
-0.036413968 -0.0056083798 0.16136073
-0.021467745 -0.035236835 0.16262783
-0.017535508 -0.037062109 0.1617469
-0.039137721 0.0012795925 0.15795918
-0.038521528 -0.0030662417 0.15811323
-0.03737855 -0.0061122775 0.15911724
-0.026543319 -0.031193495 0.1574647
-0.023578286 -0.034984887 0.15843467
-0.017731786 -0.038460135 0.15886147
-0.03967309 0.0014955997 0.15421365
-0.039065421 -0.0041453242 0.15342475
-0.039398551 -0.0087482333 0.15382324
-0.037823737 -0.013188779 0.15307941
-0.034086227 -0.019484341 0.15405796
-0.032839417 -0.022589684 0.15393732
-0.030620515 -0.027394354 0.15371235
-0.028110743 -0.031562448 0.1540734
-0.024208367 -0.035448492 0.15364264
-0.039983988 -0.0059687495 0.15023892
-0.039186895 -0.009269774 0.14963658
-0.038080812 -0.0143978 0.14945827
-0.036027253 -0.01908046 0.14882509
-0.034159362 -0.023186505 0.14961313
-0.031739533 -0.027908146 0.14936878
-0.029182673 -0.03191793 0.15024556
-0.037195027 -0.018656194 0.14521818
-0.025918186 0.017952681 0.18482493
-0.022306859 0.015808225 0.18350606
-0.01892668 0.009585619 0.1840115
-0.018370688 0.0060396791 0.18448393
-0.016422093 0.00097584724 0.18395747
-0.028398216 0.018169165 0.18319936
-0.023712516 0.014362395 0.1823846
-0.022371531 0.009493649 0.18227212
-0.021865606 0.0061957836 0.18304293
-0.015641987 -0.004566133 0.18210267
-0.013390422 -0.0091578364 0.18176745
-0.011558771 -0.013515234 0.18160997
-0.0026143789 -0.031384468 0.18001156
0.00019830465 -0.034114003 0.17958243
0.0028935671 -0.0397228 0.1796162
-0.035143256 0.024153173 0.17559727
-0.033980489 0.022895932 0.17718373
-0.0067161322 -0.033201456 0.17917384
-0.0017368197 -0.036092162 0.17695154
0.001285553 -0.03988415 0.17690705
-0.035306633 0.02452594 0.17173563
-0.035982966 0.020458698 0.171602
-0.004557848 -0.03767699 0.17219959
-0.03845799 0.027865946 0.16902851
-0.036747098 0.024781942 0.1674348
-0.036084056 0.019694924 0.16779916
-0.035855412 0.016191065 0.16739516
-0.010525227 -0.037118912 0.1686845
-0.0083106756 -0.036771595 0.16617881
-0.035861015 0.019168198 0.16274069
-0.035678267 0.015033841 0.16311549
-0.01316601 -0.036706746 0.16329066
-0.0089170933 -0.037198186 0.16378753
-0.036881685 0.012771547 0.1592171
-0.036931574 0.0086463094 0.15864383
-0.011968076 -0.038680732 0.15791611
-0.037524164 0.011081159 0.15459897
-0.037460625 0.0075285435 0.15426956
-0.037045479 0.0035216212 0.15549715
-0.017639518 -0.037641883 0.15657638
-0.038173318 0.0063525438 0.14995293
-0.038202345 0.0014945269 0.15053032
-0.037811935 -0.0016512275 0.15145706
-0.021270037 -0.036083579 0.14988752
-0.018687785 -0.037399173 0.15102218
-0.037847877 0.00097811222 0.14612935
-0.037944198 -0.0037385821 0.14626442
-0.036265254 -0.0087549686 0.1450022
-0.036042392 -0.012073874 0.14638041
-0.030560613 -0.024355292 0.14659663
-0.02609998 -0.031458199 0.14592622
-0.022446036 -0.034439981 0.14574622
-0.019101024 -0.036682308 0.14658393
-0.037982702 -0.0048934817 0.14071138
-0.0372293 -0.009416759 0.14097087
-0.036772311 -0.014179766 0.14306135
-0.034060955 -0.019505918 0.14268394
-0.031264007 -0.022818983 0.14210923
-0.02876991 -0.026891589 0.14194773
-0.025886118 -0.030727386 0.14123182
-0.023171246 -0.034430385 0.14176612
-0.038998246 -0.0067555904 0.13753442
-0.038158834 -0.010030866 0.13736041
-0.037964761 -0.014804661 0.13737173
-0.036545336 -0.019055247 0.13881235
-0.032487035 -0.022444189 0.13618837
-0.030183017 -0.026375711 0.136667
-0.038589358 -0.015832603 0.13306175
-0.037392974 -0.019861698 0.1329615
-0.033877969 -0.02315098 0.13319837
-0.038317859 -0.020608187 0.12800916
-0.015345097 0.017339051 0.18476315
-0.014334977 0.01324445 0.18506353
-0.013393223 0.010013938 0.18525876
0.0058801174 -0.027291119 0.1850953
0.0060715079 -0.030679703 0.18552949
-0.019317567 0.016863108 0.18422984
-0.01740998 0.013349175 0.18348871
-0.012518048 0.0039951205 0.18412875
-0.011184514 -0.00095254183 0.18329744
-0.0078524351 -0.0052941442 0.18237559
-0.0046819448 -0.0096401572 0.18208633
-0.0019925833 -0.014514744 0.18245326
0.001761198 -0.024561405 0.1806335
0.0038987994 -0.028178632 0.18200131
0.005528152 -0.032423198 0.18287663
0.0067921281 -0.036018729 0.18259536
-0.011422217 -0.0064441562 0.18183763
-0.0086778998 -0.01088798 0.18168585
-0.0057078004 -0.015279949 0.18146013
-0.0018907785 -0.025660992 0.1801158
-9.0837479e-05 -0.029439092 0.18072663
0.0027213693 -0.034173965 0.18059681
0.0040149689 -0.037058294 0.18005703
0.0018584728 -0.038615167 0.17522611
-0.032343447 0.028274775 0.16972505
-0.0003503561 -0.036193788 0.167147
-0.03657192 0.024695933 0.16540949
-0.0025367737 -0.037000477 0.1652941
-0.036352098 0.024513841 0.16182755
-0.0373016 0.020547628 0.16098817
-0.0057997108 -0.037873805 0.16157959
-0.0021796227 -0.03891319 0.1628191
-0.03593719 0.024392486 0.15816264
-0.035263002 0.019165933 0.15700249
-0.035897017 0.015371442 0.15692915
-0.0082738996 -0.038558245 0.15758909
-0.03571111 0.014104068 0.15287621
-0.012733221 -0.037813544 0.15179594
-0.0091350675 -0.039141774 0.1544029
-0.037103534 0.0092912912 0.148156
-0.013684452 -0.038037598 0.14812516
-0.037617803 0.0058951974 0.1456726
-0.036543489 0.0024935603 0.14319198
-0.016520023 -0.038191378 0.14395039
-0.037060201 0.0010937452 0.139109
-0.037418246 -0.001491189 0.13931678
-0.026628375 -0.030040562 0.13906221
-0.022255242 -0.035221159 0.13915972
-0.018273652 -0.038421333 0.13967426
-0.037607431 0.000636518 0.13576753
-0.038194656 -0.0037198067 0.13552447
-0.037379503 -0.0079347491 0.13428931
-0.029603779 -0.028120816 0.13496684
-0.026999056 -0.031348944 0.13581751
-0.02310437 -0.035290599 0.13536654
-0.019139886 -0.038664222 0.13614957
-0.037632823 -0.0050804615 0.13134415
-0.037277937 -0.0088848472 0.13116385
-0.037256658 -0.01321727 0.13011061
-0.035732031 -0.017063916 0.12916367
-0.032765388 -0.023048043 0.13075052
-0.029968977 -0.027475417 0.13076578
-0.026936412 -0.031870306 0.13046442
-0.023962677 -0.035338938 0.13092767
-0.036887348 -0.015274048 0.12562738
-0.037564278 -0.019398928 0.12635405
-0.032982767 -0.023546934 0.1262209
-0.030433357 -0.02794534 0.12738933
-0.037931025 -0.015712321 0.12244208
-0.037231266 -0.019949555 0.12204419
-0.01103276 0.015667737 0.18508132
-0.008452177 0.010697901 0.18490995
-0.004678905 0.0064169765 0.18326913
-0.0034778714 0.0032447577 0.1833813
0.0045210719 -0.012055576 0.18328719
0.0052829385 -0.014968455 0.18502842
0.0051079392 -0.021003127 0.18516253
0.0087717175 -0.023802698 0.18551694
0.0087395906 -0.03174746 0.18491544
-0.0054371357 -9.8884106e-05 0.18267198
-0.002440989 -0.003633976 0.18231754
-0.0017283559 -0.0081478953 0.18218125
-0.00017517805 -0.01173383 0.18283729
0.0019814372 -0.017414629 0.1812806
0.0029400587 -0.021976948 0.18201803
0.0066076517 -0.026434124 0.1830072
0.0079923272 -0.032115519 0.18343107
0.009470284 -0.035191894 0.18344979
0.0054914951 -0.038522422 0.17102666
0.0038231015 -0.036725461 0.16771345
0.0013421178 -0.038879931 0.1638435
-0.032550275 0.027264893 0.15661766
-0.00063294172 -0.039578855 0.15922688
-0.034385204 0.025846124 0.15415411
-0.033981383 0.023050904 0.15506972
-0.004098475 -0.038322389 0.1571018
-0.00039422512 -0.039259076 0.15516584
-0.035433054 0.025145948 0.14952581
-0.034697175 0.020475447 0.15010314
-0.034562588 0.016639173 0.15003695
-0.0053834915 -0.037766874 0.14936332
-0.036781609 0.023732126 0.1448033
-0.036034405 0.019769728 0.14461218
-0.035385728 0.014536619 0.14592247
-0.035826087 0.010975897 0.14601277
-0.0068139434 -0.038680077 0.14458473
-0.03569895 0.013251543 0.1401775
-0.034685075 0.0096231699 0.14165159
-0.035851479 0.0052571893 0.14158811
-0.010035276 -0.039924443 0.14136563
-0.035866261 0.012035191 0.13681994
-0.035221159 0.0081833005 0.13725834
-0.035436988 0.0042111874 0.1380146
-0.016176999 -0.040241897 0.13810377
-0.036094487 0.0062251091 0.13245298
-0.036872089 0.0026661158 0.13311876
-0.037441015 -0.0019026995 0.13313507
-0.020902514 -0.036889136 0.13283794
-0.017591178 -0.038253367 0.13312201
-0.015440702 -0.040350616 0.1351531
-0.037772417 0.0012165308 0.12907077
-0.036824882 -0.0030476451 0.12865292
-0.036854863 -0.0081905127 0.12844057
-0.021947682 -0.035117626 0.12744354
-0.018599033 -0.037150323 0.12964641
-0.037602305 -0.0002566576 0.12501447
-0.037207067 -0.0040239096 0.12424047
-0.036859035 -0.0089822412 0.12448372
-0.036955774 -0.012941539 0.12523179
-0.032996416 -0.023770213 0.12392651
-0.030201495 -0.027785122 0.12472983
-0.027063549 -0.031578243 0.12500383
-0.023127913 -0.034626365 0.12412952
-0.037641704 -0.01015538 0.11975612
-0.03745091 -0.014668465 0.11972509
-0.0352 -0.019653797 0.11850126
-0.033335745 -0.023127735 0.1206464
-0.029240906 -0.026518881 0.1203119
-0.02693975 -0.03146106 0.12055211
-0.024872422 -0.03398484 0.12098791
-0.037531912 -0.011718631 0.11606868
-0.037436128 -0.015593052 0.11552261
-0.035816848 -0.019133747 0.11522372
-0.033262849 -0.022321701 0.11521314
-0.003477037 0.013249755 0.18546848
0.00099337101 0.010137022 0.18464141
0.0034450293 0.0055340528 0.18460093
0.0054963231 0.0008161664 0.18469064
0.0075279474 -0.0030249953 0.18466096
0.0092744231 -0.0086994767 0.18497376
-0.0015169978 0.0092524886 0.18371694
0.00053477287 0.0040684342 0.18343358
0.0016182065 -0.00050908327 0.18334024
0.0046041608 -0.0049536824 0.18312256
0.0062055588 -0.0094074607 0.18347983
-0.032388628 0.028214574 0.15222643
0.00093859434 -0.039137959 0.15291928
-0.035366237 0.026826799 0.14742719
-0.0026772618 -0.038207889 0.14914618
0.00024974346 -0.039018214 0.14771558
-0.036092639 0.025678217 0.14334296
-0.0054677725 -0.039574087 0.14368029
-0.0019649267 -0.040409505 0.14324741
-0.035683632 0.023741007 0.13960306
-0.036516786 0.019219756 0.13944285
-0.035727561 0.015905917 0.13973753
-0.03660059 0.018586874 0.13435422
-0.036282122 0.013750434 0.13462307
-0.03600651 0.0093936324 0.13429697
-0.035534561 0.01308769 0.13032942
-0.036319792 0.0090329051 0.12995635
-0.036114573 0.0072667003 0.1262769
-0.036748767 0.0036492944 0.12547229
-0.016313851 -0.036423206 0.12474208
-0.03739816 0.0017495155 0.12193267
-0.037371635 -0.0023038387 0.12102406
-0.019711494 -0.035894811 0.12220381
-0.018324614 -0.035834968 0.11893003
-0.036640584 -0.0035065413 0.11811517
-0.036506772 -0.0071164966 0.11729528
-0.030653119 -0.02366966 0.11755838
-0.028676689 -0.026635826 0.11737262
-0.026866078 -0.030905485 0.11794688
-0.022630572 -0.034688711 0.11808799
-0.037099302 -0.0088072419 0.11373024
-0.037955761 -0.013273537 0.1134461
-0.034954965 -0.020091653 0.11297609
-0.031621218 -0.023293912 0.11342968
-0.028200746 -0.026864827 0.11355151
-0.026185989 -0.031574965 0.11367176
-0.023251951 -0.034132779 0.1149001
-0.03740561 -0.010565639 0.1084172
-0.038229108 -0.014311314 0.10943429
-0.036726832 -0.01915729 0.10977657
-0.033579111 -0.023560762 0.10941173
-0.029152334 -0.027342021 0.10897534
-0.026741266 -0.03180182 0.10948373
-0.038744569 -0.011261284 0.10534517
-0.03823173 -0.015056014 0.10512643
-0.036821187 -0.019445658 0.1045381
-0.03388536 -0.022875607 0.10507153
0.0061143637 0.011046588 0.18660419
0.0091500282 0.0078973174 0.18690519
0.011268914 0.0042692423 0.18717657
0.012511611 -0.0004401803 0.18642686
0.013758361 -0.0045154691 0.18665121
0.0046969652 0.011370182 0.18518607
0.0070719123 0.0067273974 0.18517332
0.0092256069 0.0020208955 0.18523209
0.010775805 -0.0029038191 0.18490271
0.012545466 -0.0059353113 0.18497996
0.0058078766 -0.039152026 0.14862572
0.0081241131 -0.041312993 0.14731406
0.0040460229 -0.040188491 0.14520119
0.0022516847 -0.041397333 0.14108588
-0.033777356 0.026021361 0.13674591
-0.00027519464 -0.040979862 0.13913752
-0.034872591 0.024725676 0.13246934
-0.035889864 0.020674586 0.13169344
-0.037550271 0.027142286 0.12839787
-0.036613345 0.024309814 0.12790744
-0.036072254 0.019739211 0.12805019
-0.034506083 0.015767872 0.12766455
-0.037334621 0.023841858 0.1236857
-0.035759866 0.019384027 0.12342261
-0.035277486 0.014811635 0.12332629
-0.035152793 0.010144174 0.12337615
-0.036715984 0.013744116 0.11872812
-0.035756111 0.0088749528 0.11902742
-0.035700262 0.0046343207 0.11854441
-0.036556184 0.011926115 0.11506306
-0.036004364 0.0080290437 0.11510806
-0.035279512 0.0032275915 0.11432935
-0.035130262 -0.001732111 0.11379753
-0.020199239 -0.035116792 0.11394782
-0.015834033 -0.036057591 0.11559172
-0.03590852 0.0018513799 0.11110522
-0.035278559 -0.0027678609 0.11010073
-0.035570443 -0.0068913698 0.10950916
-0.019931674 -0.034553468 0.11003183
-0.036442101 -0.0044004321 0.10540019
-0.036201119 -0.0075249672 0.10589854
-0.029412389 -0.024561465 0.10429846
-0.027729094 -0.028095186 0.10556702
-0.026194632 -0.031085253 0.10523699
-0.022515655 -0.033520699 0.105693
-0.036693573 -0.0055273175 0.10159878
-0.0374071 -0.0093570352 0.10166983
-0.037689865 -0.014335573 0.10226773
-0.033839524 -0.020809889 0.10155438
-0.031571925 -0.023079157 0.10173564
-0.027932644 -0.026063442 0.10261492
-0.025751114 -0.03076297 0.10267304
-0.038253188 -0.011090696 0.097278103
-0.037965953 -0.015221357 0.09834145
-0.036104023 -0.019758999 0.098727778
-0.03241384 -0.023060322 0.097422823
-0.038598597 -0.012187541 0.094247535
-0.037641346 -0.015527666 0.093770966
-0.036370933 -0.019698024 0.092957243
-0.033732057 -0.021465719 0.094142124
0.014827669 0.0012491941 0.18731479
0.0087335706 -0.04156971 0.14351217
0.0064967275 -0.042583585 0.13986091
-0.035386622 0.027656436 0.12478082
-0.03763777 0.02482903 0.1219254
-0.036435008 0.020670533 0.121774
-0.037302971 0.023741245 0.11783139
-0.035627484 0.019691527 0.11702435
-0.037238717 0.015445471 0.11652724
-0.035814106 0.017555058 0.1137623
-0.035258174 0.013983428 0.11234619
-0.03610754 0.0086087584 0.1125332
-0.012145936 -0.035995781 0.1117412
-0.035942316 0.012035191 0.10782693
-0.036791503 0.0076982379 0.10848562
-0.036103666 0.0027477145 0.10861842
-0.035036623 -0.00086957216 0.10756107
-0.014519334 -0.035847127 0.10824324
-0.036058009 0.0061703324 0.10334916
-0.035638094 0.0022243857 0.10346575
-0.035905719 -0.0019124746 0.10388331
-0.01822412 -0.034692466 0.10381286
-0.015831053 -0.036151826 0.10317723
-0.035430729 0.0010875463 0.099848732
-0.036873043 -0.0030902028 0.098950222
-0.037341893 -0.0078044534 0.098538414
-0.027719617 -0.026318491 0.099305972
-0.025080025 -0.030912697 0.099165723
-0.021066546 -0.034203291 0.099180862
-0.017544031 -0.035779357 0.10000469
-0.037579477 -0.0036981106 0.094448164
-0.038140059 -0.007942915 0.094646797
-0.027798831 -0.026784062 0.094725236
-0.024989247 -0.031104028 0.094699368
-0.022485256 -0.033356369 0.09391813
-0.037933469 -0.0044956803 0.089956209
-0.038204253 -0.009545505 0.090846881
-0.038175404 -0.014167368 0.090699956
-0.037384808 -0.017492115 0.09104307
-0.033542097 -0.023592591 0.092366144
-0.028313875 -0.027210355 0.089581534
-0.025157273 -0.030875504 0.090706572
-0.036936581 -0.014961779 0.087524518
-0.036136031 -0.019259453 0.087111488
-0.033886254 -0.023963928 0.087144896
-0.033188879 -0.024129331 0.083101109
0.0041642189 -0.0391801 0.12811892
0.0080453157 -0.040026903 0.12691347
0.0020451546 -0.035001099 0.12256448
0.0049134493 -0.039597809 0.12235866
-0.032666624 0.028093576 0.11723287
-0.03534013 0.028726757 0.11341976
-0.034737766 0.025280178 0.11382584
-0.0051654577 -0.036327481 0.11233826
-0.032868445 0.023795545 0.10966389
-0.033700705 0.02004987 0.11003239
-0.03458029 0.015859008 0.10988437
-0.0056245327 -0.037489951 0.10934649
-0.034153223 0.017595828 0.10659139
-0.034302056 0.015320778 0.10550465
-0.010730743 -0.036681533 0.10697709
-0.0074827075 -0.038374126 0.10481869
-0.034772575 0.014042974 0.10127829
-0.034694016 0.0099053383 0.10141812
-0.012326479 -0.037252486 0.10157911
-0.0090550184 -0.038519442 0.10198627
-0.036607027 0.013347745 0.097959265
-0.035257995 0.0088838339 0.096638337
-0.035253882 0.0038883686 0.097122595
-0.015504181 -0.037473977 0.097421095
-0.036425412 0.0071931481 0.092761502
-0.036272347 0.0029295087 0.092266664
-0.037706614 -0.0012384057 0.091751382
-0.019391477 -0.034564853 0.092559472
-0.015812218 -0.036021352 0.092764691
-0.037632108 0.0015821457 0.087642208
-0.037547708 -0.0027477145 0.08755888
-0.036728501 -0.0076931715 0.086945787
-0.024513543 -0.030477524 0.087335274
-0.021156847 -0.033167601 0.088935599
-0.035767019 -0.0049684048 0.083157733
-0.035824418 -0.0088565946 0.083243504
-0.035277247 -0.013655603 0.083200917
-0.033938527 -0.019005835 0.082373574
-0.027317166 -0.026851058 0.083169356
-0.024590671 -0.028719783 0.083396301
-0.036444008 -0.010399818 0.079109028
-0.035272777 -0.014563024 0.07843627
-0.033986509 -0.019117773 0.07883428
-0.032602549 -0.023438752 0.078904763
-0.02918911 -0.026595891 0.078530118
-0.034609199 -0.018740952 0.074302301
-0.032508135 -0.022875309 0.074919984
-0.031473458 -0.026249826 0.074223384
0.0068970919 -0.0378564 0.12507807
0.010351956 -0.04057157 0.12434123
0.0026148558 -0.03505826 0.1205086
0.005777657 -0.037414312 0.12166642
0.0092654824 -0.041008532 0.12144016
-4.7266483e-05 -0.03451544 0.1157596
0.0061796904 -0.038590252 0.11736803
0.0072539449 -0.041211665 0.11807565
-0.031349957 0.027156413 0.11036785
-0.001475513 -0.035834074 0.11276992
0.0022309422 -0.038089931 0.10994156
-0.031945407 0.026070774 0.10670622
-0.033384025 0.022453845 0.10634233
-0.0036834478 -0.038317025 0.10652195
0.0013359189 -0.038498938 0.10846107
-0.033847332 0.024779439 0.10230865
-0.034120023 0.02104032 0.10311063
-0.0041891932 -0.038829267 0.10303546
-0.035228431 0.02393961 0.097304687
-0.033904016 0.020770848 0.098349229
-0.035073936 0.016336322 0.10011019
-0.0085951686 -0.038701713 0.099011317
-0.034762442 0.018468201 0.096270606
-0.035645902 0.014633179 0.094906256
-0.03593272 0.01055187 0.094448373
-0.035299301 0.012976408 0.091197297
-0.036432266 0.0088555813 0.090540454
-0.013031185 -0.037207544 0.090953335
-0.036604226 0.007312119 0.08609955
-0.037878633 0.0037311912 0.086091027
-0.018436134 -0.034188271 0.086403355
-0.015080392 -0.035627723 0.085731432
-0.035353065 0.0012382865 0.081173316
-0.036770344 -0.0030449033 0.081948891
-0.036010802 -0.0070731044 0.080811635
-0.02325505 -0.030778944 0.082039192
-0.019052863 -0.033629 0.081183091
-0.036086619 -3.9458275e-05 0.077502802
-0.036530554 -0.0041440129 0.076833829
-0.036391735 -0.0087530613 0.076834813
-0.03594768 -0.012923479 0.076224223
-0.026311219 -0.027549505 0.075875923
-0.023725212 -0.03038466 0.076945797
-0.021062434 -0.032027543 0.075912192
-0.035970211 -0.0086014867 0.073424354
-0.035783827 -0.013805687 0.072490022
-0.035417795 -0.01793915 0.072550401
-0.033017099 -0.023185372 0.073273793
-0.027427435 -0.027394056 0.072198674
-0.034791529 -0.015065193 0.068475291
-0.034895241 -0.018922508 0.069079056
-0.032687664 -0.023205042 0.069524243
-0.029543281 -0.026196241 0.068584636
0.0090103745 -0.035495877 0.11642934
0.0071089864 -0.034371257 0.11502884
0.0076483488 -0.037907124 0.11433892
0.0094696283 -0.041625082 0.1142226
0.0049636364 -0.035374165 0.11127613
0.0057718754 -0.038530946 0.11061023
0.0080593228 -0.042028308 0.11064528
-0.028294086 0.028930843 0.10703109
0.003826797 -0.039619327 0.10553823
0.0060966015 -0.042168677 0.10674496
-0.032015681 0.032605946 0.098247215
-0.031826854 0.027265191 0.10108016
0.0027272701 -0.039423823 0.10180311
-0.032734752 0.026579022 0.095847145
-0.033326447 0.021664858 0.095106885
-0.033846378 0.025143147 0.091586843
-0.033060014 0.020561635 0.091398224
-0.034674406 0.023385584 0.086692974
-0.034094214 0.019538939 0.087407872
-0.033885896 0.015095294 0.088320211
-0.035274863 0.018257797 0.083131686
-0.034538805 0.01390636 0.083699599
-0.034846187 0.01008749 0.083618566
-0.012576699 -0.036000907 0.083846882
-0.034510374 0.013629377 0.079893485
-0.034085572 0.0083752275 0.079085156
-0.034431458 0.0043219924 0.079027697
-0.014264703 -0.035512984 0.080104455
-0.03480202 0.0076156259 0.075427219
-0.035192847 0.003702879 0.074447557
-0.035679758 -0.00078201294 0.074274912
-0.017986298 -0.033340514 0.074914828
-0.036079407 0.0018708706 0.070672169
-0.035881996 -0.0024127364 0.070180073
-0.035117388 -0.0077036619 0.069986388
-0.026306033 -0.026964486 0.069320396
-0.022325873 -0.0298751 0.069918081
-0.020145178 -0.032361686 0.069799438
-0.035800755 -0.0031968951 0.065941498
-0.034852803 -0.0082402825 0.065378532
-0.034368873 -0.013112664 0.065707132
-0.03313899 -0.018547952 0.064627334
-0.029320538 -0.022856712 0.064558163
-0.026834249 -0.026068747 0.065085605
-0.023061335 -0.029000044 0.066439465
-0.035401642 -0.010408223 0.060952891
-0.034936666 -0.01389271 0.061492283
-0.033311427 -0.018853307 0.061846334
-0.030260801 -0.02253288 0.061319876
-0.028863966 -0.025845885 0.060447086
-0.036608458 -0.010993123 0.058666337
-0.035792768 -0.014447808 0.05826937
-0.033651471 -0.019290626 0.058183361
-0.031304419 -0.023073494 0.058955122
0.0075653195 -0.040984571 0.10281678
-0.028806388 0.031810462 0.097179964
-0.027647734 0.030401587 0.097962931
0.0050817132 -0.040189266 0.099790916
-0.031461716 0.032662511 0.096117333
-0.029947698 0.029328167 0.094259396
-0.032975912 0.026040792 0.089350685
-0.03449887 0.02472508 0.084919497
-0.034199715 0.021560848 0.084940866
-0.035060763 0.02371645 0.080035493
-0.034293652 0.019985378 0.080790326
-0.032877386 0.016891062 0.078584388
-0.034097075 0.019702852 0.075930342
-0.033214629 0.015655696 0.076062456
-0.033280551 0.012030542 0.077785179
-0.010877013 -0.036169291 0.07741563
-0.034227908 0.013908744 0.072363183
-0.034539759 0.0095883012 0.072739199
-0.014792562 -0.0342291 0.071844086
-0.011192143 -0.035839677 0.072630331
-0.034326136 0.0084959865 0.067557886
-0.035119653 0.0038262606 0.067926183
-0.016625166 -0.034169257 0.068705156
-0.012380004 -0.036492884 0.067804769
-0.035540283 0.0026869178 0.063138112
-0.035409331 -0.0024792552 0.062994286
-0.034136236 -0.0061793923 0.062449951
-0.023973048 -0.026910961 0.06248923
-0.02155441 -0.030008614 0.063507512
-0.019335091 -0.034516931 0.06407012
-0.014381111 -0.036787808 0.063428447
-0.03552562 0.0014672875 0.059472818
-0.035225153 -0.0033842325 0.058970261
-0.0354532 -0.0077850223 0.059442151
-0.024575412 -0.027432382 0.058942009
-0.022860587 -0.030049026 0.059041638
-0.020974696 -0.033703148 0.058727849
-0.018614233 -0.03660965 0.05931269
-0.034580112 -0.0051297545 0.054574121
-0.035452247 -0.0094479918 0.055091251
-0.034857035 -0.013800681 0.055244494
-0.033323705 -0.017657876 0.054752905
-0.030590296 -0.022629559 0.055418123
-0.027302384 -0.026794851 0.055080403
-0.023184776 -0.030507863 0.054417063
-0.021203816 -0.033244133 0.054801155
-0.034077287 -0.013318002 0.050864477
-0.033736646 -0.018115222 0.051097799
-0.031550288 -0.022949398 0.051187325
-0.028568923 -0.026459634 0.051033724
-0.03384912 -0.017585337 0.047086198
-0.03141886 -0.022366524 0.047056127
0.0094748735 -0.038182974 0.090059593
-0.031095386 0.027776659 0.077640548
-0.033318102 0.025571704 0.073525742
-0.034135818 0.022219658 0.074143812
-0.0053053498 -0.036810219 0.073336348
-0.034259796 0.024805605 0.069118574
-0.034059167 0.020332932 0.07035251
-0.033598602 0.016527593 0.070695356
-0.036816657 0.028727829 0.066107079
-0.034521639 0.023876548 0.066151276
-0.03381753 0.019670248 0.065415964
-0.033372998 0.01482147 0.0655763
-0.033507526 0.011014283 0.065440819
-0.011603296 -0.037614346 0.065367863
-0.0082636476 -0.038408756 0.06609349
-0.034419656 0.013817191 0.060088772
-0.034621775 0.0084658861 0.061540712
-0.012509108 -0.037628531 0.061833549
-0.010989189 -0.03945601 0.063534722
-0.036058247 0.012045979 0.055886883
-0.03543216 0.0077736974 0.056128938
-0.034913301 0.002628386 0.05643611
-0.034341574 -0.0021600127 0.055804748
-0.01864028 -0.035112679 0.056060631
-0.014528632 -0.036908925 0.056641985
-0.035981655 0.0068095326 0.052128572
-0.03475064 0.0024559498 0.052231301
-0.034035206 -0.0017204285 0.051383305
-0.033564985 -0.0065594912 0.051284213
-0.025017619 -0.028282285 0.051451582
-0.023511291 -0.03023982 0.051873792
-0.019390464 -0.033562422 0.051712859
-0.034314215 -0.0037860274 0.047248948
-0.033565283 -0.0072354078 0.047670145
-0.034029424 -0.011654079 0.048506696
-0.026078582 -0.027118266 0.047710884
-0.022987366 -0.02984947 0.047931809
-0.033460379 -0.0079522729 0.044304419
-0.03349036 -0.013110757 0.043959964
-0.032801032 -0.01869154 0.044315327
-0.03033489 -0.023193419 0.044443268
-0.026674986 -0.026373804 0.043558527
-0.034421027 -0.014429152 0.03936081
-0.03316474 -0.019004285 0.039148349
-0.030269861 -0.022559464 0.039033402
-0.026916146 -0.026258409 0.039942104
-0.034035981 -0.019631743 0.035191823
-0.033476293 -0.021434247 0.033841629
0.0099287033 -0.037380099 0.08779572
0.011216462 -0.039775729 0.087757275
0.0098236203 -0.036850452 0.084406152
0.012148499 -0.04100877 0.084136918
0.0083245635 -0.037332416 0.080963328
0.010681391 -0.040617347 0.081325993
0.0010892153 -0.036581159 0.075573489
0.0060253143 -0.03701061 0.075628892
0.0012242198 -0.036948502 0.071679935
-0.034377515 0.026786983 0.06647487
-0.034528494 0.02517873 0.063134238
-0.033947289 0.021350145 0.063158527
-0.034964025 0.023694932 0.0589916
-0.034323514 0.019667208 0.059069533
-0.033478856 0.01635462 0.061376084
-0.035760581 0.018106639 0.054869283
-0.035252273 0.014732599 0.054080624
-0.036206305 0.016511679 0.050641883
-0.036047399 0.012413383 0.050656755
-0.03511095 0.0088136196 0.048640121
-0.034169137 0.0038557053 0.048505533
-0.01552099 -0.034733474 0.050676752
-0.014820457 -0.035464108 0.050528038
-0.035211146 0.0080173612 0.046070863
-0.034444213 0.0034651756 0.044729758
-0.033611178 -0.001322031 0.045122404
-0.020618975 -0.029531777 0.043834854
-0.017183721 -0.033011794 0.045067001
-0.01455307 -0.034982681 0.045334209
-0.034707129 0.0025765896 0.040548135
-0.03400147 -0.0023361444 0.040816475
-0.033511221 -0.007363081 0.041507889
-0.021679342 -0.030082762 0.041435111
-0.017571807 -0.033589661 0.04037394
-0.016054928 -0.035935998 0.04021408
-0.034727275 -0.0040216446 0.036911506
-0.034276903 -0.0083426237 0.03727122
-0.033864915 -0.012618423 0.036706287
-0.02851063 -0.023403347 0.036026169
-0.026299536 -0.026374757 0.036690373
-0.022652507 -0.029892683 0.036826719
-0.020065188 -0.032444894 0.037566055
-0.034337461 -0.0091255307 0.032658655
-0.034340501 -0.013754725 0.03249817
-0.033844411 -0.018018723 0.031731356
-0.03079927 -0.023091555 0.032702316
-0.027606249 -0.027173281 0.032448817
-0.023454189 -0.029562891 0.033100981
-0.03502363 -0.013731003 0.028111119
-0.0339697 -0.01865232 0.027656037
-0.031556487 -0.022972763 0.027849842
-0.028161943 -0.026775479 0.028587837
0.0094894171 -0.037594855 0.078276142
0.011530221 -0.039827943 0.077905431
0.0093733668 -0.038028955 0.074488685
0.010418534 -0.03938812 0.076302335
0.0068391562 -0.03833133 0.069674894
0.0031334758 -0.036895633 0.066959515
0.0071235299 -0.038671672 0.065681204
-0.033952177 0.027397096 0.059274573
-0.033370078 0.025509536 0.056450654
-0.033250272 0.023469567 0.053851683
-0.032122016 0.021359146 0.050629307
-0.032966912 0.021149218 0.046494056
-0.03333658 0.015684843 0.046382595
-0.010968506 -0.035626233 0.046893198
-0.033159077 0.015018821 0.041641433
-0.033828557 0.0094376802 0.042582739
-0.011287808 -0.035494208 0.043008555
-0.034101427 0.013500273 0.038372476
-0.032982886 0.008507669 0.037248272
-0.03328383 0.0045310259 0.037304509
-0.011106789 -0.03654927 0.038138617
-0.033736587 0.0066225529 0.033686746
-0.03334868 0.0024830699 0.034434158
-0.033736706 -0.0013145208 0.034954626
-0.018479526 -0.034059465 0.035200793
-0.015769005 -0.036812305 0.03526004
-0.033754468 0.0025808215 0.030559648
-0.033716977 -0.0016376376 0.029673535
-0.034356296 -0.0067486763 0.029711116
-0.022133768 -0.030548573 0.030300785
-0.018860579 -0.034065723 0.029998738
-0.016763091 -0.037091672 0.030733723
-0.034794509 -0.0023533106 0.025268458
-0.033873498 -0.0075879693 0.025074862
-0.03362149 -0.012593448 0.025177322
-0.033190072 -0.016575992 0.02454289
-0.029677927 -0.023884892 0.024586938
-0.026955664 -0.026741564 0.024986647
-0.023545027 -0.029537261 0.025866233
-0.033808231 -0.0095441341 0.021178387
-0.033071816 -0.013119817 0.020642661
-0.031999171 -0.018353283 0.021350794
-0.029571295 -0.022297323 0.021124505
-0.026845276 -0.025159776 0.021526031
0.012502313 -0.03921181 0.072485611
0.011936009 -0.039756119 0.068876579
-0.030053556 0.027678013 0.052262504
-0.031079471 0.026785672 0.049226154
-0.031026661 0.024043322 0.05078556
-0.033591151 0.025638103 0.045549501
-0.033327103 0.020878017 0.044456143
-0.0021624565 -0.035316288 0.042973626
-0.035188079 0.024717331 0.040421356
-0.033682823 0.020486653 0.040679205
-0.0092328787 -0.035798073 0.040156413
-0.0048590899 -0.036466241 0.03937145
-0.035988688 0.02310735 0.035076458
-0.034955502 0.019663334 0.035376597
-0.034302771 0.014456511 0.035659481
-0.033595204 0.010627151 0.035758246
-0.011052608 -0.03683424 0.035154242
-0.0072565675 -0.037543774 0.035626967
-0.034529984 0.017629504 0.031588007
-0.034370899 0.013843775 0.031348187
-0.033102274 0.0095419288 0.031735767
-0.032838345 0.0058059692 0.031441052
-0.011904299 -0.037438393 0.031631459
-0.00859797 -0.039787769 0.031163473
-0.034048319 0.011842906 0.028607178
-0.033117652 0.0089480281 0.028157044
-0.033423424 0.0046032071 0.027671862
-0.013586938 -0.037837863 0.027929086
-0.010588408 -0.040361285 0.028444905
-0.033980846 0.003243804 0.022678815
-0.034505904 -0.0016496778 0.022227697
-0.034409702 -0.0058434606 0.022639923
-0.020416558 -0.03056258 0.022818647
-0.017671525 -0.033442318 0.023219727
-0.014509439 -0.037141025 0.023619674
-0.034035265 -0.0029093623 0.018386953
-0.033603668 -0.0075888634 0.018333845
-0.032179952 -0.013130784 0.017165892
-0.031433105 -0.017544568 0.017842881
-0.029734492 -0.021692336 0.018007211
-0.025618553 -0.026260197 0.018584393
-0.022552133 -0.028828323 0.018319629
-0.033995032 -0.0092577338 0.014050268
-0.032534003 -0.013487875 0.01434838
-0.030670702 -0.017603576 0.014427535
-0.029170394 -0.021814167 0.014701508
-0.026237369 -0.02656877 0.014421783
-0.024238765 -0.029730737 0.014212392
-0.033802271 -0.010386109 0.011145405
-0.03411448 -0.013800442 0.010341935
-0.032234311 -0.017822504 0.010440551
-0.029723585 -0.022625983 0.010616533
-0.026132762 -0.026821792 0.011353813
-0.024035394 -0.029964328 0.011090986
0.0061945319 -0.037595391 0.045878608
0.00078600645 -0.036034226 0.04586928
0.0032897592 -0.039300144 0.043468583
-0.0003542304 -0.03650707 0.038396049
-0.032620788 0.026219845 0.034911025
-0.0026624799 -0.038275003 0.033732224
-0.033599555 0.019316971 0.029161651
-0.0061919689 -0.039519966 0.031535942
-0.0020626783 -0.040374219 0.029859889
-0.033569694 0.014263809 0.025804691
-0.033017039 0.010017574 0.024984919
-0.0085349083 -0.040686071 0.026765008
-0.032753587 0.013680279 0.02147501
-0.032971978 0.0091743469 0.020850472
-0.034278512 0.0054619312 0.020996265
-0.01436621 -0.03648901 0.020341806
-0.032544732 0.0031368732 0.016282104
-0.03278327 -0.00084036589 0.015266918
-0.019769728 -0.029960632 0.017271243
-0.015892744 -0.032299578 0.016672961
-0.033530116 -0.003397882 0.011833154
-0.033621967 -0.006362021 0.013192229
-0.019976199 -0.030589044 0.011350773
-0.017648339 -0.031751812 0.011546604
-0.033751965 -0.004945755 0.0077704713
-0.034035027 -0.0085461736 0.0085045621
-0.031683862 -0.017572045 0.0077149794
-0.029411256 -0.021589875 0.0075737163
-0.025637567 -0.026586711 0.0081764385
-0.024513245 -0.029789567 0.0078465566
-0.033841908 -0.0084761977 0.0038301572
-0.033725739 -0.012907565 0.0034568235
-0.031389773 -0.017592907 0.0037031099
-0.028358817 -0.02228415 0.0036851689
-0.025706112 -0.025550842 0.0032768473
-0.023007452 -0.02935493 0.0042569563
0.0093506575 -0.03929925 0.044880796
0.0049235225 -0.035349071 0.040893484
0.006254375 -0.036870837 0.040641118
0.0034021735 -0.036017179 0.038663913
0.0051004291 -0.038393199 0.036402214
0.00059992075 -0.039336085 0.032505143
-0.032265663 0.024473429 0.026311893
-0.031755626 0.02142036 0.026085041
-0.032137752 0.024533927 0.021798305
-0.032068074 0.021303594 0.022293471
-0.031889915 0.017953515 0.023177318
-0.032714725 0.025096297 0.018850528
-0.032405317 0.020713329 0.017943524
-0.032828748 0.015621722 0.018756978
-0.031960011 0.011810064 0.018457286
-0.032827556 0.018913209 0.014133684
-0.033103645 0.014658451 0.013441019
-0.032342851 0.0094262362 0.014040016
-0.032057285 0.0050051808 0.013561092
-0.013546526 -0.032186091 0.013825707
-0.010312557 -0.034932435 0.014486305
-0.03353858 0.012547851 0.0097452626
-0.0323053 0.0083981156 0.0087511465
-0.032227099 0.0033329129 0.0092146918
-0.031556487 -0.00023603439 0.009735547
-0.014515221 -0.032301784 0.009149693
-0.011631668 -0.033857286 0.010210924
-0.032594502 0.0034828186 0.0045181736
-0.032374978 -0.00087666512 0.0051031038
-0.019313157 -0.030905187 0.0059442744
-0.017386675 -0.032271922 0.0053392276
-0.033631861 -0.0067133307 0.0012291297
-0.028757811 -0.019176662 0.00046472996
-0.027001023 -0.022427619 0.00038879365
-0.024533331 -0.026329458 0.0011608228
-0.021709144 -0.030461729 0.0012209937
-0.016977787 -0.032464206 0.0020704195
-0.033360302 0.025638819 0.015930615
-0.032357752 0.023090959 0.016048841
-0.033127546 0.025507808 0.012748413
-0.031712949 0.020676672 0.011543982
-0.032958329 0.016677737 0.010575674
-0.0078363419 -0.034580588 0.01065179
-0.031236172 0.018980205 0.0071422979
-0.031891465 0.014490247 0.0064259097
-0.031777918 0.010302246 0.0059744343
-0.0122841 -0.032563388 0.0060683116
-0.0094138384 -0.03413111 0.007143341
-0.03160435 0.012690961 0.0025458857
-0.031730354 0.009165287 0.0026095435
-0.032093406 0.0057349205 0.002351813
-0.012924373 -0.033018351 0.0033621415
-0.0099710226 -0.034149349 0.0022043809
-0.031494737 0.029054463 0.013239674
-0.029689193 0.026109457 0.0082172975
-0.029427528 0.022939444 0.0081371292
-0.029385388 0.025331974 0.0047731027
-0.030471146 0.020675182 0.004292272
-0.030542552 0.017063737 0.0041326508
-0.0042062402 -0.034303904 0.0026047751
-0.027332425 0.029100895 0.0060610995
-0.029635549 0.027270436 0.0020783469
-0.029248834 0.023235261 0.0020575747
