# .PCD v0.7 - Point Cloud Data file format
VERSION 0.7
FIELDS x y z
SIZE 4 4 4
TYPE F F F
COUNT 1 1 1
WIDTH 1048
HEIGHT 1
VIEWPOINT 0 0 0 1 0 0 0
POINTS 1048
DATA ascii
-0.01169461 0.029577911 0.18731026
-0.012896299 0.028344214 0.18716376
-0.0073474646 0.034478843 0.18483247
-0.011495352 0.032521665 0.18480198
-0.015631735 0.03007853 0.18483262
-0.019504786 0.027014852 0.18462871
-0.012937903 0.033709466 0.1809534
-0.016512036 0.031970441 0.18109424
-0.019974828 0.028405607 0.18135901
-0.016332567 0.034021437 0.17692201
-0.00049078465 0.031886458 0.18637262
-0.0040829778 0.030198574 0.18694763
-0.0079708099 0.027552843 0.18704088
-0.013048649 0.024006486 0.18691544
-0.016925395 0.021750033 0.1871454
-0.020366669 0.019402742 0.18587564
-0.0017656684 0.034130514 0.18348815
-0.0044594407 0.03386867 0.18138073
-0.021595538 0.021499634 0.18251793
-0.0071824789 0.033211172 0.17937021
-0.010680914 0.032644272 0.17739217
-0.016278267 0.029280007 0.17798172
-0.020385146 0.026573181 0.17792822
-0.022314429 0.023405433 0.17901166
-0.012576461 0.032545328 0.17396043
-0.017203629 0.030429542 0.17392056
-0.020499587 0.027571857 0.17374445
-0.015914202 0.031898022 0.17025171
-0.019751906 0.028665006 0.16997896
0.0065749884 0.028365076 0.18700565
0.0038982034 0.028431535 0.18750729
-0.00045454502 0.024358571 0.18709801
-0.0046266317 0.021856189 0.1871164
-0.0097726583 0.01960206 0.18738289
-0.012847602 0.018646955 0.18765689
-0.017052233 0.014162123 0.18710034
0.010466278 0.032800853 0.18337862
0.0062330961 0.031872749 0.18423973
0.003015697 0.030910134 0.18544547
-0.0076947808 0.024610996 0.18679427
-0.019470096 0.015479505 0.18623732
-0.020364106 0.01307565 0.18400054
0.009239018 0.03316319 0.18116827
0.005274713 0.033836067 0.18040715
0.00093460083 0.033187211 0.18034066
-0.023127258 0.018387139 0.17933036
-0.021899164 0.015922964 0.18089949
0.0036622286 0.034178436 0.17685227
-0.00012803078 0.03327173 0.17615481
-0.0046803355 0.032881498 0.17633028
-0.022113264 0.020562768 0.17528035
-0.023060501 0.017670155 0.17655413
-0.0024598241 0.033854187 0.17252348
-0.0056881309 0.033067405 0.17204545
-0.0098840594 0.032510161 0.17182846
-0.016186655 0.028930902 0.17192458
-0.020540297 0.026747823 0.17123131
-0.022860825 0.02224654 0.17197461
-0.024373889 0.01960516 0.17144163
-0.0068094134 0.033254802 0.16788225
-0.011402905 0.033237278 0.1680903
-0.015658379 0.030923605 0.1679761
-0.019901633 0.027756929 0.16801532
-0.022711158 0.023824513 0.16766183
-0.008428514 0.033682227 0.16336535
-0.012075782 0.034208477 0.16305716
-0.016553462 0.031617343 0.16311277
-0.020178735 0.028310835 0.16311274
-0.022312701 0.025438488 0.16432957
-0.013240457 0.034946442 0.15940711
-0.016920567 0.033438504 0.15853909
-0.018287778 0.0343858 0.15525186
0.022249699 0.032809019 0.18378347
0.019539058 0.031045854 0.18460631
0.015425384 0.028453767 0.18543749
0.010893464 0.025985956 0.18621068
0.006452024 0.022930622 0.18670984
-0.0039877295 0.020378172 0.18656822
-0.0070098042 0.015370667 0.18677719
-0.0096395612 0.011351526 0.18664055
-0.019614398 0.0075837374 0.18506782
-0.023519397 0.0041136146 0.18362187
-0.026286125 0.0015787482 0.18620838
0.022271693 0.034329295 0.18167403
0.018140018 0.033449829 0.18131566
0.014247894 0.031719327 0.18264823
0.0095891953 0.029274285 0.18503614
-0.020938158 0.0081256628 0.18142207
-0.024164677 0.0051806569 0.18167244
0.017315567 0.033727765 0.17771333
0.01176548 0.03289324 0.17783247
0.0091701746 0.032547355 0.17588668
-0.021415055 0.010094643 0.17735098
0.010879517 0.032455027 0.17382579
0.0064457059 0.033014774 0.17363615
0.0037537813 0.031940281 0.17159443
-0.022622764 0.013310373 0.17314546
0.0059978366 0.032474756 0.16875564
0.0010309815 0.032056808 0.16911803
-0.023656309 0.016413033 0.17030893
0.00030791759 0.031968892 0.16401945
-0.0040536523 0.032716691 0.16498469
-0.022932827 0.020469487 0.16423659
-0.024338305 0.018211246 0.16499542
-0.0014463663 0.0335567 0.16021214
-0.0062971115 0.034270704 0.16086127
-0.020379901 0.028101981 0.15964735
-0.022143066 0.023340702 0.1606103
-0.0080041885 0.034455419 0.15619826
-0.011456549 0.033055007 0.15514281
-0.018771231 0.031729758 0.15619892
-0.020778298 0.028361082 0.15636033
-0.022545457 0.024208784 0.15535387
-0.012077153 0.032666087 0.15184367
-0.016839921 0.032049417 0.15123022
-0.020541251 0.028057158 0.15231305
-0.017338812 0.032794833 0.14714736
-0.020556211 0.030112684 0.14734942
-0.020875096 -0.0041104555 0.19266294
0.034834981 0.032616198 0.18856919
0.032454729 0.030255616 0.18760043
0.026775837 0.027744114 0.18660355
0.020766556 0.025164187 0.18692577
0.018170476 0.023002744 0.18676177
0.013687193 0.021051168 0.18699436
0.010879457 0.019352734 0.18700211
-0.0021288991 0.0085020065 0.18617438
-0.015515625 0.00052589178 0.18624656
-0.01938802 -0.00069308281 0.18658264
-0.022764385 -0.0032532811 0.18780629
0.033594549 0.033358634 0.18417162
0.029854298 0.031805456 0.18403479
0.024928153 0.031689525 0.18488735
0.020979524 0.028323293 0.18610242
0.016463578 0.026451707 0.18636577
0.013920844 0.024197698 0.18616436
0.00039464235 0.014646232 0.18580382
-0.0036424994 0.01377207 0.18627201
-0.011906326 0.0062937737 0.18557303
-0.017374635 0.0046285391 0.18564217
-0.021954179 0.0020537376 0.1854084
0.027638316 0.034005463 0.18008232
0.02383399 0.034261942 0.1798315
-0.023623884 0.004776299 0.17929183
-0.025196254 0.0027808547 0.17841427
0.022550404 0.034087121 0.17684901
0.018129885 0.033401847 0.17515099
0.014175475 0.033314407 0.17518066
-0.021953166 0.0044825077 0.17558335
0.016936898 0.033173978 0.17186913
0.01269722 0.032600284 0.17159449
0.0092787147 0.031536818 0.17041348
-0.022666037 0.011485338 0.17030267
-0.023602068 0.0067757964 0.170745
0.011013091 0.032766998 0.16736268
0.0074253678 0.032631576 0.16697936
-0.023860753 0.013493001 0.16685794
-0.023406148 0.0086150765 0.16782956
0.0095314384 0.033874452 0.16419838
0.0059275031 0.033214152 0.16318153
0.0023869872 0.032561004 0.16302161
-0.024377882 0.014202833 0.1645963
0.0043363571 0.033937395 0.1594708
0.00085681677 0.033332944 0.15856534
-0.0034071803 0.033551753 0.15800685
-0.022434354 0.019358397 0.15894759
-0.024039567 0.017802179 0.1584177
-0.0010793209 0.033159733 0.15451086
-0.0039149523 0.03231144 0.15373057
-0.022506833 0.020921469 0.15426442
-0.024972916 0.018610239 0.15425438
-0.0065357089 0.032801211 0.15004849
-0.010225534 0.032962799 0.14981797
-0.020255923 0.0272246 0.1495105
-0.022890866 0.023959816 0.15012479
-0.025045872 0.018902183 0.15062892
-0.008449316 0.034897625 0.14730611
-0.011689305 0.033905745 0.14590034
-0.01486057 0.032916307 0.1453566
-0.019684374 0.028271198 0.14356291
-0.022483289 0.02631855 0.14646709
-0.013145149 0.034446478 0.14201179
-0.016936839 0.03319031 0.14115855
-0.01798892 0.033637404 0.13573137
-0.015728414 -0.010032356 0.19180249
0.039305329 0.028641939 0.18806359
0.033044666 0.02468574 0.18888748
0.031793654 0.023494005 0.18876684
0.028525412 0.020682871 0.18768021
0.022821426 0.017356932 0.18773079
0.020024896 0.015576184 0.18771261
-0.00085306168 0.0020155311 0.18750076
-0.0087563992 -0.0023602843 0.18763743
-0.013009012 -0.0054705739 0.18806542
-0.016431451 -0.0068783164 0.18940173
-0.020182431 -0.0062448382 0.19023798
0.04078418 0.032524765 0.18378043
0.037383258 0.0321697 0.18599769
0.031419635 0.027742088 0.18748683
0.028338611 0.024680316 0.18714947
0.024505973 0.021950424 0.18635827
0.020063579 0.019157052 0.18702266
0.015948117 0.016345739 0.18694101
0.011266887 0.014513373 0.18553154
0.0074996352 0.010810733 0.18455862
0.0033572316 0.0082921982 0.18599464
-0.00087356567 0.0057655573 0.18618719
-0.0030164719 0.0022652149 0.18452601
-0.0093511343 0.00067180395 0.18604796
-0.01318115 -0.00095611811 0.18711211
-0.018090963 -0.0042468905 0.1877154
-0.020136416 -0.006757915 0.18837897
0.043655723 0.037307024 0.17950991
0.038504481 0.034068406 0.18206537
0.035406619 0.034129202 0.18276626
0.031257808 0.032902837 0.18217856
0.0055542588 0.013002276 0.18440114
0.039744049 0.0360021 0.17708051
0.034704983 0.034704685 0.17779022
0.030400753 0.033526063 0.17737046
0.033557057 0.034688532 0.17368925
0.029275 0.033077359 0.17335129
0.024672925 0.032708049 0.17283127
-0.021974444 6.0081482e-05 0.17183132
0.023737669 0.03274709 0.16889018
0.019256353 0.032154977 0.16844884
-0.024176538 0.0033946633 0.16692735
0.022779524 0.033054531 0.16483223
0.017639577 0.032593131 0.16441792
0.013628304 0.032349169 0.16534083
-0.023718417 0.0060740709 0.16397648
0.016667068 0.033539116 0.15921347
0.012423992 0.032836616 0.1600946
0.0081163645 0.032529533 0.1605816
-0.022953391 0.010287106 0.16134094
-0.024161875 0.0093325973 0.16301055
0.015903652 0.034697592 0.15624489
0.011692703 0.033832014 0.15540892
0.0064995289 0.03293103 0.15580955
-0.024881423 0.013532519 0.15580881
-0.025907815 0.011538029 0.15449238
0.0064848661 0.032389402 0.15113789
0.0016083717 0.031634629 0.15129074
-0.025300443 0.013411582 0.15060949
-0.00024718046 0.032264531 0.14668053
-0.0045980811 0.032823682 0.147203
-0.022593439 0.020546019 0.14629373
-0.023849607 0.016163349 0.14712989
-0.0020296574 0.032930672 0.14221489
-0.0061434507 0.03307873 0.14269355
-0.0099983215 0.033459663 0.14188182
-0.020836949 0.025862455 0.14245802
-0.020828009 0.02157712 0.14098933
-0.0065088272 0.033528268 0.13802302
-0.011806726 0.03341192 0.13822365
-0.020280004 0.027873635 0.13862765
-0.02226001 0.024148107 0.13776249
-0.0088175535 0.033596098 0.13460821
-0.012722015 0.033609986 0.13391143
-0.017621994 0.033122599 0.13458824
-0.021145999 0.028901041 0.13387084
-0.023865759 0.025888503 0.13340285
-0.014172792 0.033956289 0.12998638
-0.01796484 0.033731878 0.12938124
-0.021322906 0.029798865 0.12949204
-0.023921072 0.02636385 0.1300295
-0.018842936 0.033352792 0.12534481
0.034525782 0.016492844 0.19116259
0.035455108 0.021898746 0.19024092
0.032436907 0.019150317 0.18884581
0.028608203 0.016426444 0.18838227
0.025115371 0.013707638 0.18843272
0.019725502 0.012372553 0.18742079
0.017283142 0.0097028613 0.18651314
0.011304438 0.0049214959 0.18619536
0.0068830252 0.0047624707 0.18692715
0.0030226707 0.00092434883 0.18773608
-0.00073826313 -0.0021622181 0.1877176
-0.0044225454 -0.0048203468 0.18789192
-0.0089245439 -0.0079214573 0.188224
-0.013456702 -0.0095126629 0.18984638
0.04286924 0.030925572 0.18408814
0.013911545 0.010899901 0.18573315
0.010579169 0.0089890957 0.18508606
0.0074668527 0.0072161555 0.18581228
-0.003282249 0.00031900406 0.18515532
-0.0054476261 -0.00021445751 0.18509923
0.042225301 0.032974958 0.18021214
0.043216079 0.037670195 0.17452174
0.041448236 0.035754621 0.17513692
0.039204389 0.035768449 0.17157418
0.035513371 0.034695387 0.17137659
0.031741083 0.033069253 0.17065141
0.038343966 0.035518765 0.16696495
0.03485474 0.034571052 0.16668278
0.02999723 0.033670306 0.16711432
0.025871575 0.032525539 0.1658102
-0.025008619 -0.00052422285 0.16528855
0.029500067 0.034080505 0.16210669
0.024499714 0.033500791 0.16267961
0.021154881 0.032301307 0.16229817
-0.024396002 0.0017450452 0.16326876
0.027849257 0.03463006 0.15770139
0.023663402 0.034146547 0.15802313
0.019570351 0.033157408 0.15851681
-0.021946192 0.0052166581 0.15777659
0.022977889 0.034283578 0.15399186
0.01805234 0.034207702 0.15368183
0.0143345 0.033688188 0.15272745
-0.023855209 0.0055983067 0.15345639
-0.025775254 0.002586782 0.15242442
0.017315149 0.032904804 0.15010579
0.012287319 0.033699393 0.14963123
0.0084472895 0.032693565 0.14891213
0.01134485 0.033899128 0.14484993
0.0067331195 0.033201933 0.14532298
0.0031890273 0.0319978 0.14521521
-0.021854818 0.014228642 0.14312482
0.0062455535 0.032838345 0.14105618
0.0016397238 0.032145083 0.14050713
-0.020845532 0.017504036 0.1404829
-0.021747708 0.015384853 0.13995013
-0.00026118755 0.03271997 0.13636166
-0.0036846995 0.033165395 0.13571361
-0.022109568 0.019480348 0.13611159
-0.022144914 0.015605748 0.13655627
-0.0012866855 0.032625914 0.13173932
-0.0054931641 0.033396065 0.13225746
-0.0093916655 0.033030212 0.13157168
-0.023929775 0.022817135 0.13233426
-0.0064198375 0.033179283 0.12769628
-0.010655999 0.032465875 0.12748513
-0.021512449 0.028362989 0.12664297
-0.023234308 0.025105894 0.12728733
-0.012623429 0.032079935 0.12330592
-0.016411901 0.033724725 0.12326282
-0.020859063 0.029070675 0.12291536
-0.018024564 0.03408879 0.11923355
-0.02092886 0.0315786 0.11871645
-0.018399954 0.03334415 0.11518317
-0.020586133 0.032188058 0.11525851
0.002071321 -0.011610985 0.19173805
0.00049638748 -0.012123764 0.19186388
0.034866095 0.014012814 0.19155484
0.031620741 0.011826336 0.19046879
0.027467966 0.0080920458 0.18944639
0.023705781 0.0080872774 0.18837333
0.014286399 -0.0012229681 0.18737464
0.01047498 -0.0028395057 0.18757911
0.0062600374 -0.0059592128 0.18915518
0.002263546 -0.0084524751 0.1894307
-0.0011257529 -0.010911107 0.18989776
-0.0084318519 -0.013168335 0.18793963
0.025445998 0.010237157 0.18867943
0.021545351 0.0065822005 0.18659827
0.017472029 0.0046403408 0.18606804
0.013648093 0.0029076934 0.18650158
0.0088476539 0.00057542324 0.18710719
-0.00059890747 -0.0063106418 0.18851985
-0.0048843026 -0.0088412166 0.18854786
-0.0061109662 -0.010171235 0.18838461
0.041259348 0.033655524 0.16845465
0.040600866 0.034705579 0.16628343
0.037251085 0.03361249 0.1630851
0.038262963 0.036534905 0.15766324
0.034696668 0.034284472 0.16028386
-0.021562278 -0.0019569397 0.15716559
-0.022807479 -0.0028642416 0.1588802
0.038293749 0.037351549 0.15439285
0.034143984 0.035142362 0.15485759
0.030229151 0.034870803 0.15590079
-0.022035539 3.528595e-05 0.15496194
0.03770116 0.038801908 0.15144499
0.03376922 0.035474837 0.15115266
0.028146029 0.034714103 0.15144588
0.023702323 0.033662498 0.15031777
0.022969663 0.033405185 0.14663924
0.018456578 0.032380104 0.14651506
0.017321289 0.033192158 0.14156194
0.013795972 0.032323062 0.14133841
-0.022577763 0.0098554492 0.14357275
0.014708936 0.034600735 0.13702017
0.011486292 0.033325434 0.13762367
0.0072423816 0.032608449 0.13792363
-0.022260725 0.012099147 0.13804516
0.013868511 0.035918891 0.13407961
0.010351598 0.034908831 0.13291952
0.0058970451 0.032901108 0.13360718
0.0023964643 0.031591177 0.13355514
-0.022738755 0.014635324 0.13313603
0.0085158944 0.034750462 0.12855408
0.0050436258 0.034242451 0.12823719
0.00048470497 0.032746017 0.12848431
-0.003080368 0.032165825 0.12928623
-0.02316165 0.01639694 0.12900928
-0.0006839633 0.03277576 0.12418386
-0.004760921 0.032015204 0.12421763
-0.0085633397 0.031292915 0.1239087
-0.022401035 0.019747198 0.12374458
-0.022576034 0.017996848 0.12315357
-0.006759882 0.032094657 0.12049001
-0.010345221 0.031589806 0.12036371
-0.021704257 0.023626804 0.12048256
-0.012604594 0.03245914 0.11584175
-0.015320241 0.032730281 0.11605051
-0.022061408 0.027893007 0.1176177
-0.02390933 0.026045978 0.11591423
-0.013442576 0.031868458 0.11167005
-0.017454147 0.03253901 0.11103863
-0.021222532 0.029980123 0.11186352
-0.022531092 0.025779605 0.11150539
-0.019021928 0.033276796 0.10713893
-0.020878792 0.031304538 0.10682747
0.018026888 -0.0070161223 0.1885628
0.014907539 -0.0099659562 0.19000776
0.010602653 -0.010492682 0.19059502
0.0055426359 -0.0113253 0.19122587
0.00020724535 -0.015704036 0.19091807
0.025931776 0.0013859272 0.18695676
0.022046328 -0.00025743246 0.18630058
0.018029094 -0.0025194883 0.1873989
0.013995171 -0.0062773824 0.18859629
0.010190845 -0.0079360008 0.18878503
0.0038380027 -0.011879027 0.18963625
-0.0032741427 -0.015656471 0.18876319
-0.022584617 -0.0066782832 0.15645128
-0.024380803 -0.0082528591 0.1557138
0.037155777 0.036336541 0.15252353
-0.022914112 -0.0051602125 0.1526224
-0.02554512 -0.0080219507 0.1521219
0.037877113 0.037678063 0.14876236
0.033651292 0.035494149 0.14918746
0.029819489 0.033663988 0.14781125
-0.021654487 0.00030738115 0.14730614
-0.024565637 -0.0051631927 0.14876682
-0.026808619 -0.0069063306 0.14894876
0.03437081 0.035909832 0.14472981
0.029052556 0.034292758 0.14445518
0.02400893 0.032658756 0.14377685
-0.020851433 -0.00027889013 0.14338768
-0.023794949 -0.0022338033 0.14155287
0.036485374 0.039772809 0.13776167
0.029430866 0.03454113 0.14060532
0.023710012 0.033756673 0.14019294
0.01932919 0.033045173 0.13908441
-0.021582842 0.004267931 0.1393435
-0.023606956 -0.00087475777 0.14017951
0.022381544 0.034021139 0.13590671
0.018449843 0.033928514 0.13577001
-0.022997379 0.0054106116 0.13479167
-0.026309013 0.0020567775 0.13456929
0.017035544 0.034819603 0.13144486
0.013306201 0.034661829 0.13017517
-0.022610128 0.011224806 0.1297642
-0.022928298 0.0081837177 0.13146877
0.012372613 0.034198046 0.12661159
0.0083816648 0.03465116 0.125848
-0.02230072 0.011151433 0.12606651
0.006039381 0.034144163 0.12283292
0.0022007823 0.032899201 0.12238103
0.0047909021 0.034833252 0.11802989
0.00062811375 0.033521056 0.118312
-0.0038725734 0.032089472 0.11811137
-0.0068926215 0.030499458 0.11692104
-0.022057056 0.019960761 0.11832476
-0.00051349401 0.033473551 0.1141336
-0.0044031143 0.032480717 0.11344504
-0.0085203648 0.031542182 0.11404586
-0.006190896 0.032614112 0.10889161
-0.010204434 0.032398343 0.10929158
-0.013646424 0.031850755 0.10897899
-0.022617996 0.025437593 0.10866416
-0.007383287 0.033611894 0.10542902
-0.011246741 0.033855259 0.10460243
-0.0158059 0.033025324 0.10510716
-0.020930409 0.029385567 0.10446393
-0.022188723 0.026015341 0.10604072
-0.012356818 0.033685982 0.10113257
-0.017042875 0.03327781 0.10049152
-0.021171689 0.030758739 0.10028222
-0.023105145 0.026765347 0.099202573
-0.021527469 0.030902684 0.096744068
0.027935684 -0.0031664968 0.18852043
0.025436223 -0.0074580908 0.18869436
0.021348953 -0.008754909 0.18895867
0.017592311 -0.012732685 0.19008653
0.026875615 -0.0025384426 0.18655869
0.023608208 -0.0034309626 0.18687147
0.040178239 0.033267319 0.14378212
-0.021572888 -0.0072181225 0.14540821
-0.024345756 -0.0084019899 0.14587969
0.036269277 0.035104692 0.14161302
-0.021158099 -0.001939714 0.14200127
-0.022902548 -0.0051774383 0.14325246
0.035041243 0.035586178 0.13778599
0.030369461 0.034048557 0.13782175
-0.022023201 -0.00078302622 0.13808596
-0.024951279 -0.0017777681 0.13776398
0.033912629 0.035968006 0.13250254
0.029994369 0.03382808 0.13284688
0.025776386 0.032984078 0.13375117
-0.022965848 0.00077056885 0.13521773
-0.025390744 0.000618577 0.13448045
0.028334141 0.034351468 0.12801047
0.024433076 0.033113003 0.12836669
0.020787418 0.032579064 0.12872408
-0.023418188 0.0039464235 0.12842047
0.0264498 0.035643458 0.12312339
0.023097336 0.03439796 0.12287255
0.018434167 0.033055425 0.12487639
-0.022034466 0.0045682788 0.12367696
0.022020519 0.035679638 0.11883159
0.017772436 0.033747017 0.11981396
0.01305306 0.031958401 0.12022379
0.009242177 0.03210628 0.12021926
-0.02079916 0.013256371 0.1192362
0.015873253 0.035220504 0.11621116
0.011734962 0.033582449 0.11586541
0.0077896118 0.033554375 0.11606532
-0.02088666 0.012705922 0.11541045
0.009441793 0.034247339 0.11091334
0.0060696602 0.033565283 0.11143678
0.0015325546 0.032690227 0.11154765
-0.022237837 0.01889652 0.11069208
-0.022373319 0.015208602 0.11118355
0.0047906637 0.034448922 0.1068199
0.00041675568 0.033057511 0.10705635
-0.0035998821 0.032168269 0.10729447
-0.022002995 0.017942548 0.10845032
0.0032346845 0.034390569 0.10321736
-0.00058180094 0.034431279 0.10229167
-0.0054644346 0.033558786 0.10288787
-0.021801829 0.023254395 0.1030643
-0.0020852089 0.035021544 0.09825933
-0.0064858794 0.03400445 0.098230332
-0.010901272 0.032591224 0.097988427
-0.014466941 0.031609356 0.097151078
-0.023047447 0.024343789 0.097789586
-0.0074276924 0.033778906 0.093508549
-0.01162523 0.032301247 0.093256839
-0.016403854 0.031232297 0.093773372
-0.021021724 0.02914691 0.093158133
-0.023708582 0.025111794 0.094084509
-0.013742566 0.03266108 0.089038827
-0.017249227 0.031708002 0.088829614
-0.021390617 0.029718161 0.089064188
-0.022988677 0.028259933 0.086784489
-0.017708421 0.032597065 0.085337646
-0.020320654 0.0311777 0.084954597
-0.02343446 0.028970897 0.08531452
0.039238989 0.034413159 0.13716711
0.038488358 0.036884785 0.12912299
0.034942299 0.036443174 0.129732
0.034083635 0.035393298 0.12643595
0.030254602 0.034005165 0.12535231
-0.024204016 0.0014300942 0.12486166
0.0333305 0.035102665 0.12233089
0.029002786 0.035205781 0.12123258
-0.019768 0.007070899 0.12042478
-0.022025585 0.0030098557 0.12020305
-0.024597645 0.00046300888 0.12095881
0.027412593 0.035700142 0.11679469
0.023200452 0.036310852 0.11647911
-0.02026248 0.0075122714 0.11703983
-0.020924687 0.0036685467 0.1162585
0.025853276 0.035688162 0.11320643
0.021895349 0.035446763 0.1137075
0.017409444 0.034155309 0.11298631
0.013780236 0.033244729 0.1123004
-0.02107954 0.0093729496 0.11194387
-0.023352504 0.0057441592 0.11185366
0.016235471 0.033586264 0.10910527
0.01307708 0.033271968 0.10807562
-0.021295428 0.0093327165 0.10752833
-0.023733497 0.009480238 0.10845435
0.010070026 0.033653259 0.10465357
0.0077250004 0.034253001 0.1039505
0.0054692626 0.033792019 0.10034531
0.0035202503 0.033193707 0.098993123
-0.021258295 0.018630564 0.099319935
0.0013827682 0.034161508 0.096536167
-0.0035780072 0.03380698 0.095369168
-0.022082686 0.020265639 0.098293513
-0.00074118376 0.033178747 0.09164191
-0.004907012 0.03406471 0.091609307
-0.010149419 0.033266664 0.091185041
-0.023363829 0.023704886 0.090659417
-0.0061136484 0.033382833 0.087748207
-0.010307968 0.032501936 0.087422915
-0.014528751 0.03186965 0.086119153
-0.023097277 0.023497701 0.087243654
-0.011489213 0.032141149 0.082969017
-0.015621781 0.032114327 0.08251179
-0.021113038 0.030639648 0.082410432
-0.023567319 0.026721656 0.08257056
-0.016655684 0.031218231 0.078886397
-0.020462155 0.029441118 0.079129733
-0.023150921 0.027166724 0.078885891
0.039874494 0.033154547 0.12448387
0.037040204 0.033520162 0.12278928
0.039180249 0.034655035 0.11996906
0.035432488 0.034619808 0.11925299
-0.024271846 -0.0041933656 0.11739513
0.035107821 0.035224497 0.11504512
0.031382382 0.034308553 0.11421908
-0.022428632 0.0011615157 0.11486423
-0.023462355 -0.0025146604 0.11413521
0.033885032 0.035916388 0.11085285
0.029834747 0.035055816 0.11045603
0.024754763 0.033706367 0.10977919
0.020233154 0.033260882 0.10991146
-0.022647202 0.0032789707 0.11052546
0.027814269 0.034764826 0.1059487
0.024147272 0.033972502 0.10580494
0.019342601 0.033158779 0.10614999
-0.018994033 0.0061129928 0.10332453
-0.021661937 0.0059776902 0.10389432
0.022417665 0.033657789 0.10214032
0.0182302 0.033230066 0.10136424
0.013860881 0.032788634 0.10169229
-0.018618941 0.0092697144 0.10256243
-0.023031712 0.00706774 0.10016298
0.016806781 0.034293115 0.096618779
0.012880862 0.033023715 0.096694566
0.0087146163 0.032303631 0.097039975
-0.019630194 0.010398567 0.096709616
-0.023796499 0.0074216127 0.097495735
0.011014938 0.032497525 0.093200453
0.0072169304 0.031902373 0.092246868
0.0029651523 0.031374812 0.0919028
0.0060985684 0.032242835 0.088667609
0.001506865 0.032327294 0.087713964
-0.00037223101 0.032743871 0.083313979
-0.0041373968 0.032762825 0.085136183
-0.0081953406 0.032017946 0.08459837
-0.022565424 0.018775344 0.084764071
-0.02327317 0.019739628 0.081560619
-0.0016619563 0.033325672 0.079719611
-0.0052590966 0.033098578 0.080533363
-0.0098827481 0.032339692 0.080763705
-0.02346164 0.023880839 0.079511292
-0.023399651 0.019662917 0.079674073
-0.0066619515 0.032763243 0.076343007
-0.010741711 0.032043397 0.07582701
-0.015737891 0.031383395 0.076294996
-0.020494282 0.02897495 0.076118536
-0.023291171 0.024399459 0.075524278
-0.013291776 0.032706976 0.071067847
-0.016563654 0.031775773 0.071530141
-0.020796537 0.028792322 0.071387328
-0.023668408 0.026921749 0.071354307
-0.017516434 0.031164169 0.067719914
-0.019642949 0.029683948 0.06765572
0.041726053 0.031916142 0.12303866
0.040373862 0.034072578 0.11857991
0.039247066 0.035869658 0.11486427
0.037424862 0.035420537 0.11233859
0.03493005 0.036136866 0.10853489
0.03001219 0.034450054 0.10811059
0.03427732 0.03646034 0.10392196
0.02958554 0.035994112 0.10480212
0.025777459 0.034744799 0.10362561
0.033212781 0.036696315 0.099824265
0.029028058 0.035423279 0.099389538
0.023822784 0.034904778 0.10018392
0.020326734 0.033749282 0.099870637
-0.018964231 0.00697124 0.099542707
-0.021137476 0.0042712092 0.10127166
0.026777565 0.035721183 0.096290745
0.023066521 0.034875154 0.095208384
0.018992424 0.034929752 0.095499612
-0.020263255 0.008300662 0.09465275
-0.022575378 0.006233871 0.094878949
0.021553576 0.034083247 0.091275133
0.017628491 0.034165561 0.090371646
0.012756407 0.032993436 0.090860851
0.0087491274 0.032836437 0.09013135
-0.020159304 0.010531962 0.091267534
0.016392231 0.034176052 0.085964687
0.012033761 0.033306956 0.085747279
0.0065923333 0.033442676 0.086601324
0.011169136 0.033576071 0.081813373
0.0060007572 0.033411801 0.081613399
0.0017173886 0.03354311 0.082264371
0.0045716166 0.03316319 0.077450432
0.00047659874 0.033728838 0.077027328
-0.0039551258 0.033720791 0.076676376
-0.023196101 0.018580914 0.076343782
0.00016987324 0.034163356 0.072637148
-0.0050696731 0.033840954 0.073214181
-0.024534166 0.020895183 0.072884619
-0.0057881474 0.03350234 0.069451459
-0.0099523067 0.032852292 0.069201089
-0.024169922 0.023699164 0.070145495
-0.01141125 0.031783819 0.0654241
-0.014918506 0.031692028 0.065110877
-0.019942939 0.029309511 0.06512253
-0.023203194 0.026258171 0.065877721
-0.016364455 0.030894935 0.060924485
-0.0194484 0.029141188 0.061157748
-0.022131443 0.02574259 0.060905173
0.038726568 0.035596728 0.10186823
0.038695455 0.035182953 0.097027697
0.035082877 0.03620851 0.097514048
0.038297772 0.039092004 0.091071166
0.033966899 0.035167277 0.093115337
0.029461443 0.034350395 0.093011923
0.025420845 0.034150779 0.092254587
-0.021103144 0.0044375062 0.09196014
-0.023690462 0.0017786622 0.091555953
0.035476953 0.040329576 0.086555548
0.029031098 0.034344256 0.089574434
0.023729265 0.033733666 0.088490672
-0.019168496 0.0056484342 0.088186629
-0.021987557 0.0039607286 0.090104111
-0.023955107 0.0020263791 0.089829266
0.022778332 0.034569144 0.083604939
0.017945468 0.034269691 0.083917744
-0.019016445 0.0065440536 0.083768196
0.022101641 0.035529971 0.080351509
0.017804444 0.03501159 0.079309203
0.012876987 0.03346616 0.078834601
-0.021389067 0.0068708658 0.079728521
0.017293751 0.034933984 0.075594075
0.012755036 0.033603549 0.075436272
0.0078377128 0.033147037 0.075111069
0.0067662001 0.033713877 0.070362099
0.0019544959 0.034187496 0.069644041
0.0046904683 0.033928216 0.065951183
0.0011793971 0.033245206 0.065618619
-0.0034742355 0.031917393 0.064838544
-0.00059390068 0.032424331 0.061890826
-0.0045205355 0.031876743 0.061923012
-0.0089879036 0.031194806 0.061657712
-0.010877728 0.031036735 0.057852492
-0.014305353 0.030046642 0.05808793
-0.019581258 0.026978791 0.057671413
-0.020979285 0.022569239 0.057317421
-0.011556089 0.031614721 0.054158166
-0.015770018 0.031121969 0.053792998
-0.019964397 0.028502584 0.054036185
-0.021287024 0.026275754 0.051247016
-0.016876817 0.03218466 0.048981205
-0.020438313 0.030159175 0.048825815
-0.021981835 0.027393341 0.049009159
0.042821646 0.030957222 0.096355565
0.04095611 0.034322083 0.094284602
0.03785792 0.036296308 0.091992088
0.035736501 0.035270691 0.090843417
0.037026197 0.037492573 0.087918647
0.034007877 0.035715342 0.087009139
0.028834164 0.03442502 0.086812772
-0.019912302 0.00046092272 0.085400946
-0.02339077 -0.0023322105 0.085156679
0.032972604 0.036631525 0.082547881
0.028223813 0.035920382 0.082608618
-0.019312739 0.0066803694 0.081042625
-0.020705342 0.0014689565 0.081502564
-0.023795426 -0.0021605492 0.081511468
0.032797605 0.037164867 0.07834769
0.02838856 0.036286712 0.078454442
0.024123847 0.034942567 0.076749302
-0.021621644 0.0027377009 0.077502914
0.023206472 0.034398019 0.07292778
0.018197477 0.03529799 0.073052295
0.013359964 0.033784926 0.072776236
0.016856074 0.034522295 0.068248518
0.012610555 0.033801913 0.068657167
0.0085625052 0.034111977 0.067907132
0.012073338 0.033665121 0.063508287
0.0071240067 0.033725917 0.063994601
0.0059802532 0.032964349 0.05909659
0.0011253357 0.032973051 0.059494838
-0.0038735271 0.031897128 0.059156343
-0.021326363 0.019692242 0.060050562
0.0003644228 0.032811046 0.054297432
-0.0046031475 0.031791806 0.054948017
-0.0079674125 0.031092942 0.056519821
-0.020619869 0.021126151 0.053693607
-0.0011570454 0.033197582 0.050086454
-0.0052499175 0.032481313 0.050560221
-0.010086238 0.032192945 0.05207105
-0.0045775175 0.032616556 0.047509149
-0.010725439 0.032254159 0.047274843
-0.015299857 0.032993257 0.04671441
-0.022056341 0.02700901 0.045938089
-0.010801911 0.03219372 0.042509601
-0.015807211 0.032658339 0.042995289
-0.019994378 0.029613733 0.042365536
-0.022274494 0.026780784 0.04198499
-0.015743196 0.032650709 0.03885828
-0.020001531 0.029496908 0.038638338
0.037667036 0.035715461 0.082310177
0.038775265 0.036809444 0.076722063
0.037058055 0.034699619 0.079188503
-0.020011544 -0.00051790476 0.079318441
-0.023622096 -0.002604425 0.077784777
-0.024797797 -0.0070570111 0.077910781
0.034953237 0.035756886 0.075714029
0.030377209 0.034851372 0.074669696
-0.021063268 0.0023328662 0.07464502
-0.023772001 -0.0022373796 0.074449092
-0.026173174 -0.0046479106 0.074403822
0.033730656 0.034644306 0.071335889
0.029649377 0.034403384 0.070578702
0.024982691 0.034083128 0.07061816
-0.019262075 0.004561305 0.070602901
-0.025378287 -0.0028523803 0.071072549
0.02770108 0.034474075 0.066996433
0.024021626 0.033888698 0.065762058
0.020057559 0.033081234 0.065963313
0.022621989 0.034940124 0.062035188
0.018034637 0.033660352 0.061399177
0.013406932 0.033088326 0.06042935
0.016974866 0.033377051 0.057669684
0.012145638 0.033230424 0.05693306
0.0077937841 0.032862842 0.056632951
0.010953069 0.034540117 0.052201465
0.0067669153 0.032921255 0.05266352
0.003744185 0.032586098 0.051751688
0.0068373084 0.034209251 0.048227206
0.0022028089 0.033019423 0.047547802
-0.0020038486 0.03318429 0.047054127
-0.020642459 0.020225048 0.048438326
0.00024217367 0.033396184 0.043916538
-0.0037772655 0.032470226 0.044287071
-0.0073421001 0.032018185 0.045069322
-0.021777272 0.022025287 0.04464303
-0.00020706654 0.033805728 0.040284798
-0.0046560764 0.033189595 0.040179536
-0.0090714693 0.032194495 0.040062711
-0.006541431 0.033050358 0.036452636
-0.010187685 0.031944454 0.035250798
-0.015497327 0.031545579 0.03533645
-0.019736111 0.028387606 0.035530433
-0.02235806 0.025840759 0.035682961
-0.016004384 0.031353533 0.030694673
-0.019575119 0.028329909 0.030369828
-0.017876625 0.031148314 0.026917258
0.036689639 0.034848154 0.073569991
-0.022665679 -0.0033348203 0.070838034
-0.026127338 -0.0052062273 0.072241366
0.037516952 0.038478196 0.069034375
0.034797251 0.036159337 0.06919501
0.031476021 0.034877121 0.068134315
-0.019393802 -0.0019152761 0.068488277
0.034024566 0.034846663 0.063976035
0.029674411 0.034646332 0.064378753
-0.019070864 -0.0013309717 0.064276561
0.032976568 0.034940541 0.059996679
0.0288831 0.035265803 0.060218826
0.023523271 0.034188569 0.059799686
-0.020409942 0.0045662522 0.057318524
0.021544874 0.033872545 0.056676075
0.018589675 0.033927321 0.054873392
-0.018623531 0.0081505775 0.052490041
0.016799927 0.035346985 0.050980136
0.013694584 0.035034537 0.049475566
-0.019208312 0.0089898109 0.050059989
0.016562045 0.035645902 0.045523182
0.012622595 0.034759998 0.04571496
0.0073655844 0.034555376 0.045584723
0.010875642 0.033854425 0.041853681
0.00655967 0.033344209 0.041497722
0.0028582215 0.03335923 0.041866884
0.0013220906 0.033692122 0.037306443
-0.0028489232 0.033560991 0.037622377
0.00013679266 0.032942832 0.034528211
-0.0044997931 0.032888412 0.03357546
-0.0085417628 0.032665014 0.032884754
-0.006012857 0.032213688 0.029310176
-0.010488331 0.03164047 0.029247561
-0.014447808 0.032261193 0.02843062
-0.021538734 0.024434149 0.028469542
-0.015900195 0.032036602 0.024762908
-0.020169258 0.029550493 0.024849275
-0.021566451 0.026152849 0.023679981
-0.016155064 0.031808674 0.020064512
-0.019094467 0.030543268 0.019999841
-0.01790154 -0.0034126043 0.067020454
-0.020427108 -0.0059084892 0.064696327
0.039325565 0.034354568 0.062023267
0.037104338 0.03488785 0.062813506
-0.017735839 -0.0031507611 0.059277102
-0.021381795 -0.0056197643 0.059687592
0.034526199 0.035552263 0.057891473
0.031800687 0.032929778 0.05554612
0.027698874 0.031343877 0.055954918
-0.019629598 0.00072437525 0.05746226
-0.02055043 -0.0039737225 0.055740252
0.034859329 0.03446269 0.053421512
0.03105408 0.033361495 0.053171471
0.026145577 0.032101929 0.052754328
-0.019140363 0.0019221902 0.051948264
0.024592519 0.033528447 0.048147723
0.02126056 0.033512354 0.048752174
-0.020035446 0.004110992 0.048191324
0.022804022 0.034710765 0.043421105
0.019452453 0.034927964 0.043536738
0.017522871 0.03458041 0.039023861
0.013197422 0.033209383 0.038701132
0.0086981654 0.032568395 0.038587108
0.012133896 0.033552468 0.034624562
0.0073434711 0.032226026 0.035170183
0.010275781 0.033807755 0.032068208
0.0065601468 0.032749236 0.030889941
0.0016973615 0.031804562 0.031016869
0.0017002225 0.032338858 0.026690317
-0.0032271147 0.031669557 0.026185317
-0.0081880689 0.030860066 0.025988111
-0.0039117932 0.032140017 0.022003902
-0.0086163282 0.031188548 0.022257129
-0.012219787 0.030589104 0.022023359
-0.021530986 0.021708608 0.022615293
-0.0058347583 0.032881021 0.018213464
-0.0096938014 0.032172561 0.017249895
-0.014190972 0.031273544 0.017227544
-0.019797623 0.027840853 0.017130805
-0.020941079 0.023680151 0.017327828
-0.011763155 0.032229722 0.012588186
-0.015418172 0.031224847 0.01243986
-0.019480228 0.028527975 0.012367768
-0.01965636 -0.008784771 0.063328996
0.037422985 0.030064821 0.058783069
-0.018061996 -0.0048781633 0.057665542
-0.020041585 -0.0061068535 0.057994768
0.039375901 0.032481551 0.053373054
-0.01906544 -0.0034226775 0.053614721
-0.021761 -0.0056346059 0.055362143
0.036354601 0.034511328 0.050746337
0.031836987 0.03326869 0.050264254
-0.020183384 -0.0014722943 0.050786391
0.035435587 0.034466743 0.045359477
0.030857325 0.033793926 0.046299294
0.027128458 0.033309221 0.046102449
-0.020702541 0.0012037754 0.045342967
0.029680789 0.034442604 0.041223243
0.025547504 0.034362674 0.041631147
-0.018119335 0.0051117539 0.042168483
-0.019533157 0.0018365383 0.042125091
0.023915529 0.033393085 0.036740407
0.019664407 0.033899963 0.036142722
0.022356868 0.033374548 0.032496795
0.018098176 0.033897281 0.031913087
0.013683379 0.033485472 0.031632885
0.016241014 0.03319943 0.028111918
0.012885094 0.033116937 0.027874513
0.0086733103 0.03254509 0.027949585
0.013157904 0.033040404 0.024890525
0.0081577301 0.032623947 0.024364932
0.0039668083 0.032254279 0.023805125
-0.020457566 0.013635218 0.023621747
0.0022121668 0.032621205 0.019779516
-0.0020440817 0.031921744 0.019348128
-0.020174623 0.017819524 0.017397715
-0.020841181 0.015428603 0.019514093
0.00042712688 0.032557905 0.014710264
-0.0036374331 0.032413006 0.015076803
-0.0076506138 0.032022238 0.014306499
-0.020246923 0.021417975 0.013028277
-0.0044012666 0.031840146 0.010723369
-0.0093489289 0.032088816 0.010498894
-0.013479531 0.031283796 0.0096105468
-0.020526826 0.022847474 0.0097283553
-0.010806143 0.031193256 0.0057117771
-0.015333652 0.030650496 0.0068153571
-0.01906395 0.028249979 0.0067855548
-0.020183682 0.024302185 0.0062463414
0.039758384 0.032109439 0.047173426
0.038988888 0.03326565 0.043892309
0.035129756 0.034471095 0.03946884
0.032279432 0.034149349 0.039107159
-0.015730262 0.0032783747 0.037731245
-0.017560005 -0.0013327599 0.037216678
-0.020505965 -0.0027782917 0.040389195
0.034645885 0.034431994 0.033574089
0.030473351 0.03327328 0.034211978
0.026184976 0.032502294 0.033720329
-0.016420305 0.0041680932 0.034308471
-0.018853843 0.00042033195 0.031315722
0.03272903 0.037907064 0.027601225
0.028849006 0.032961547 0.028994275
0.024648428 0.032922089 0.029395295
-0.01743108 0.005440712 0.029127548
-0.02087599 0.00032019615 0.02981917
0.023905039 0.03340143 0.025030119
0.019939899 0.033502758 0.026197178
-0.019068599 0.0084527135 0.025908658
-0.021371603 0.0045825839 0.023798833
0.019551992 0.033020437 0.022250546
0.014403045 0.032710135 0.021788342
0.010368407 0.032234788 0.021285726
-0.021132112 0.0099838376 0.021135041
-0.021041214 0.0056968331 0.022187481
0.013445497 0.032138228 0.016975867
0.0086190104 0.031261086 0.017290579
-0.021309674 0.01279676 0.016913427
-0.022039294 0.009065032 0.016919566
0.0069095492 0.031032383 0.012092041
0.003133297 0.032189667 0.012828367
-0.01999265 0.016587853 0.012710912
-0.021003842 0.014625847 0.013106359
0.0056854486 0.032013059 0.0083213616
0.0014340281 0.032054424 0.0078149606
-0.0033626556 0.031009436 0.0072681475
-0.020840168 0.018522561 0.0072533321
0.039357334 0.032123804 0.039304659
-0.018691719 -0.0034355521 0.035605475
-0.020248532 -0.0064365864 0.035724148
0.03599751 0.034099817 0.033055171
-0.017813981 -0.001534164 0.033184238
-0.022034526 -0.0048690438 0.031618752
-0.022513747 -0.0085474253 0.032399751
0.03471005 0.034758568 0.027652426
0.031123042 0.033671618 0.027768148
-0.019180834 0.00093430281 0.02734972
-0.022988915 -0.0030972958 0.028078327
0.033280253 0.036470294 0.023764683
0.030624926 0.034520447 0.022329671
0.026680708 0.033654988 0.023346467
-0.020942569 0.0025472045 0.023766736
-0.023012936 -0.00035369396 0.024055609
0.029054463 0.034315467 0.017889695
0.024936557 0.03411907 0.019415839
0.020363331 0.032833695 0.019195778
-0.021230459 0.0048242807 0.019137872
0.024223447 0.034004033 0.014853703
0.019646645 0.032752037 0.014783548
0.015314817 0.032054603 0.014359193
-0.021875978 0.0061010122 0.014480961
0.017374337 0.032640994 0.009259956
0.013604164 0.032312512 0.010214167
0.0094066858 0.031187594 0.010511713
-0.020970941 0.010740936 0.0097435545
0.037064582 0.031518281 0.027576583
-0.021486521 -0.0037566423 0.024122337
0.032858759 0.031974792 0.016067462
0.029680848 0.03256917 0.012814926
0.026262462 0.033251822 0.012072043
0.025187552 0.032838643 0.007055806
0.020566463 0.032138765 0.0080865789
-0.020829976 0.0048153996 0.008461399
0.037504256 0.029264987 0.01315262
0.034884781 0.030408859 0.01340081
0.036254704 0.031176746 0.0082048643
0.03282845 0.031228781 0.0099615026
0.040390164 0.027186871 0.0082670953
0.039081335 0.029584706 0.0071605947
