# .PCD v0.7 - Point Cloud Data file format
VERSION 0.7
FIELDS x y z
SIZE 4 4 4
TYPE F F F
COUNT 1 1 1
WIDTH 816
HEIGHT 1
VIEWPOINT 0 0 0 1 0 0 0
POINTS 816
DATA ascii
0.03396805 -0.0053629307 0.61491656
0.037629899 -0.0053599752 0.61457777
0.042064849 -0.0053571882 0.61425841
0.047630742 -0.0056507671 0.61485827
0.034554351 -0.0030567648 0.61499989
0.037839558 -0.0034401824 0.61482763
0.042400852 -0.0036940819 0.61444819
0.046159677 -0.0036311655 0.61463332
0.0027796759 -0.010057653 0.61994451
0.0072748698 -0.010057744 0.61995006
0.013130473 -0.010052203 0.6196084
0.017800463 -0.010041796 0.61896676
0.022365579 -0.010273756 0.61893338
0.0271593 -0.010620093 0.61880004
0.032387383 -0.010765522 0.61805761
0.037696533 -0.010620692 0.61882913
0.042372696 -0.011200145 0.61876011
0.047265965 -0.010529401 0.6172815
-0.011486202 -0.0065687019 0.61987227
-0.0073775249 -0.0065641236 0.61946005
-0.0022227871 -0.0070313611 0.61963338
0.002578398 -0.0071375743 0.61870849
0.0072496994 -0.0071274671 0.61779994
0.012507419 -0.0071270191 0.61778504
0.017747898 -0.0071192696 0.61713952
0.022405338 -0.0071158214 0.6168021
0.027635071 -0.0071108169 0.61636335
0.03269504 -0.0073538474 0.61598092
0.037470642 -0.0075046648 0.6158666
0.04231368 -0.0078607658 0.61593586
0.047333241 -0.0074636661 0.61572087
0.050906401 -0.0071039894 0.61579692
-0.0050381636 -0.0042442111 0.61996669
-0.0020225549 -0.0037454946 0.61990958
0.0025806711 -0.0033095055 0.61924678
0.0073950808 -0.0028952844 0.61869746
0.01257871 -0.0025829393 0.61826837
0.01775974 -0.0024887254 0.61756468
0.022404892 -0.0024864117 0.61679792
0.027629431 -0.0024843789 0.61623174
0.032721896 -0.0024432137 0.61554885
0.037265446 -0.0019045454 0.61557996
0.042171456 -0.00132822 0.61581248
0.047868002 -0.002058957 0.61566895
0.05089844 -0.0024829025 0.61570078
0.014310472 0.0004068095 0.61993337
0.018699206 0.00069727248 0.61965841
0.022482498 0.00098706526 0.6189459
0.027356012 0.0014773074 0.61817175
0.032575052 0.0021460813 0.6179167
0.037621688 0.0021453891 0.61761469
0.042272776 0.0021433197 0.6172896
0.047550522 0.0021441819 0.61760002
0.050985187 0.0021405157 0.61675006
0.034833398 0.0050578741 0.61996675
0.048496135 0.0055480064 0.61902797
0.023878282 -0.01599599 0.62481666
0.027408771 -0.015987668 0.62449163
0.032111365 -0.015975934 0.62403333
0.037760403 -0.015993642 0.62472504
0.042739883 -0.016368417 0.624111
-0.036980409 -0.011306231 0.62469238
-0.032834057 -0.010717183 0.62448329
-0.027530659 -0.01013578 0.62475997
-0.021942515 -0.010630065 0.62427616
-0.017223757 -0.010633051 0.62444752
-0.012500758 -0.011055368 0.62368995
-0.0074187522 -0.011275117 0.62289548
-0.0021140587 -0.011262488 0.62221384
0.002597718 -0.012153027 0.62293047
0.0073126671 -0.012449012 0.6231721
0.012450445 -0.012285087 0.62223542
0.018058168 -0.012761599 0.62206423
0.022638442 -0.013130244 0.62215996
0.027296538 -0.013590821 0.62192774
0.03257696 -0.013667757 0.62165946
0.037906863 -0.013597845 0.62228882
0.042403094 -0.013981617 0.62204808
0.047196664 -0.013714812 0.62272149
0.050447281 -0.014817405 0.6245333
-0.036363617 -0.0072004851 0.62423974
-0.032801557 -0.0071960194 0.62386453
-0.027488803 -0.0071956711 0.62381154
-0.022139648 -0.0071834773 0.62268955
-0.01742373 -0.0071814298 0.62252289
-0.01339559 -0.007517661 0.62139332
-0.0073912828 -0.0089040557 0.62058002
-0.00034741036 -0.0088957362 0.62000006
-0.031960506 -0.0039837514 0.62472498
-0.027517974 -0.0036890979 0.62446654
-0.021881571 -0.0030015586 0.62373883
-0.017337389 -0.0026305469 0.62365562
-0.012719757 -0.0025096368 0.6228416
-0.0075333337 -0.0024141613 0.62208587
-0.0021781141 -0.0015349746 0.62177396
0.0025897888 -0.0011451603 0.62127215
0.0066996687 -0.00075727073 0.62106663
0.01138137 -0.00075605122 0.6200667
-0.015714804 0.00041002489 0.62483329
-0.012759101 0.00040999756 0.62479168
-0.0069956318 0.00084920001 0.62452078
-0.0021189954 0.00099445332 0.62358332
0.0027170395 0.0020483136 0.62347323
0.0073103486 0.0021637194 0.6230166
0.012408748 0.0023562459 0.6226148
0.017585469 0.0026441186 0.62171102
0.022549171 0.0033186204 0.62079167
0.02721522 0.003895744 0.6200667
0.031316999 0.0038953254 0.62000006
0.0081611108 0.0055674128 0.62495339
0.012648172 0.0055362759 0.62473327
0.017896563 0.0060508819 0.62419087
0.022756709 0.0067230496 0.62324214
0.027454514 0.0070108362 0.62313718
0.032321326 0.0073683704 0.62293029
0.037638675 0.0075740339 0.62229544
0.042615674 0.0074150315 0.6223017
0.046588447 0.0075133028 0.62177879
-0.031278361 -0.016098822 0.62883323
-0.027111504 -0.016686045 0.62872505
-0.022102984 -0.017030217 0.62836009
-0.017591864 -0.016681448 0.62855005
-0.01283364 -0.016679471 0.62846673
-0.0073184748 -0.016436983 0.6288619
-0.0021371427 -0.016688963 0.62883747
0.0026186544 -0.01726344 0.62825
0.0073696859 -0.017255837 0.6279667
0.012252426 -0.017429987 0.62770259
0.017579332 -0.017741486 0.62758428
0.02259941 -0.018064534 0.62680954
0.027506687 -0.018397411 0.62671953
0.03226845 -0.018407768 0.62707508
0.037371472 -0.018174861 0.62715107
0.042640325 -0.018714489 0.62661219
0.047623649 -0.017796241 0.62624377
0.050522689 -0.017186224 0.62546676
-0.036722224 -0.012490877 0.62532812
-0.032705668 -0.013778236 0.6263876
-0.027482189 -0.013010379 0.62650353
-0.022398127 -0.013501354 0.62612832
-0.017664544 -0.01350439 0.62627447
-0.013021445 -0.013914801 0.62605339
-0.007462603 -0.01428034 0.62662679
-0.002129199 -0.014277596 0.62650418
0.0024906159 -0.014615421 0.62590677
0.0073451838 -0.014850419 0.62592512
0.012071188 -0.014838954 0.62544167
0.016208796 -0.014836383 0.62533337
-0.03883826 -0.0072202799 0.62605745
-0.037324183 -0.0025734524 0.62739539
-0.032999564 -0.0019380663 0.6267668
-0.027329184 -0.0014154305 0.62615186
-0.023129847 -0.0010558907 0.62558341
-0.019271797 -0.0007623104 0.62519997
-0.036681637 0.00041322049 0.62970293
-0.031730194 0.0010029655 0.62893325
-0.027088847 0.0021809298 0.62820631
-0.02230558 0.0021781197 0.6273542
-0.017657368 0.0022930806 0.62662894
-0.01278279 0.002759523 0.62593901
-0.0077494294 0.0030522104 0.62583065
-0.0021252567 0.0033436446 0.62548757
0.00083253428 0.0039292509 0.62540013
-0.025950685 0.0051351073 0.62943333
-0.021969192 0.0055255997 0.62906659
-0.017005635 0.0058047869 0.62885231
-0.012831743 0.0063057747 0.62832779
-0.0071513909 0.0067633162 0.6282112
-0.0021331031 0.0074768215 0.62761503
0.0026116134 0.0074644871 0.6265834
0.0070745065 0.0080885254 0.6264134
0.011947365 0.0084510064 0.62608975
0.017131563 0.0088075763 0.6257872
0.022365453 0.0095609222 0.62548673
0.026841203 0.0097879143 0.62501115
0.047559857 0.0097940061 0.62539995
0.0026222395 0.011425016 0.62907213
0.0073807761 0.011974076 0.62897998
0.012250815 0.012673976 0.62857777
0.017451899 0.012770183 0.6275267
0.022766363 0.012754364 0.62675631
0.027511172 0.012756421 0.62681258
0.032201465 0.012735413 0.62579793
0.037538253 0.012739016 0.62595671
0.042907909 0.012751567 0.62656057
0.047267824 0.012683164 0.62805009
0.017756538 0.016271885 0.6289385
0.023212612 0.015990146 0.62919742
0.027996985 0.016138578 0.62885767
0.032294583 0.016302815 0.62760288
0.037091538 0.016324425 0.62841129
0.042057183 0.015936229 0.62861675
0.046473552 0.016152009 0.62937766
0.053672452 -0.025773507 0.6347335
-0.011761403 -0.021011133 0.63471675
-0.0075531169 -0.020992707 0.63415998
-0.0017938964 -0.021220891 0.63386005
0.0026410231 -0.021570833 0.63365424
0.0076724379 -0.021918425 0.63338006
0.012225791 -0.022158608 0.633439
0.017244074 -0.022061376 0.63327187
0.022695206 -0.022770515 0.63395381
0.02779332 -0.022746455 0.63325423
0.032557435 -0.022727473 0.63270634
0.037345823 -0.022727907 0.63272721
0.042138368 -0.022730907 0.63280845
0.047152929 -0.022134814 0.63275909
0.052130837 -0.023374703 0.63423228
-0.030876704 -0.018576512 0.63278347
-0.02759699 -0.018777573 0.6316334
-0.023621846 -0.018516298 0.63083363
-0.017308678 -0.018765511 0.63124692
-0.012898372 -0.019132802 0.63163757
-0.0076117972 -0.018716531 0.63141036
-0.0021441465 -0.019110249 0.6309002
0.0026306191 -0.019705426 0.63102531
0.0074050985 -0.019705947 0.631042
0.011580749 -0.019702563 0.63093358
0.015149928 -0.01968799 0.63046688
-0.036968574 0.002571106 0.63185173
-0.032701023 0.0028999809 0.63102686
-0.036173098 0.0062118024 0.63383257
-0.031670205 0.0068648397 0.63326913
-0.027416475 0.0078019532 0.63273531
-0.02264568 0.0083763627 0.63211673
-0.017988369 0.0084290523 0.63122326
-0.012890737 0.0092932461 0.63121688
-0.0083668111 0.0093735829 0.63093364
-0.021974985 0.011134718 0.63496673
-0.017375579 0.011349136 0.63363308
-0.012759293 0.012630868 0.63313478
-0.0075380541 0.012882113 0.63296473
-0.0021503782 0.012876948 0.63267189
0.0026294128 0.013667817 0.63091117
0.0074017732 0.01421621 0.63077384
0.010378615 0.014601627 0.63040024
0.04911698 0.014596991 0.63020015
-0.0075561041 0.015886687 0.63450325
0.0040435609 0.016277233 0.63425666
0.0078101577 0.017041238 0.63312936
0.012205369 0.017616935 0.63242847
0.01600478 0.018614618 0.6327762
0.022915533 0.01727391 0.63081646
0.027494442 0.0184297 0.63188493
0.032484885 0.018766893 0.63128769
0.037301399 0.018786944 0.63197315
0.042487562 0.018199055 0.63208067
0.047924329 0.018031398 0.63177645
0.013445403 0.02064506 0.63445008
0.028661627 0.02110292 0.63389516
0.032824114 0.021423848 0.63400042
0.037231207 0.02142977 0.63417894
0.041997395 0.021158693 0.63455248
0.047277734 0.021606049 0.63352817
-0.0015690256 -0.025985114 0.63994449
0.0026642296 -0.025959618 0.63931668
0.0073689572 -0.02616097 0.6383667
0.012335725 -0.026551099 0.63910842
0.01745932 -0.027230054 0.63861394
0.022298882 -0.027566547 0.63788891
0.027771145 -0.027197102 0.63801026
0.032836992 -0.027111255 0.63815004
0.037632193 -0.027088152 0.6376
0.042436197 -0.027074156 0.6372723
0.047314238 -0.027105844 0.63803345
0.051849999 -0.02768846 0.63765252
-0.031465396 -0.02245078 0.6379897
-0.02753102 -0.022933055 0.63846469
-0.022678807 -0.022913149 0.63788122
-0.017719842 -0.022782406 0.63810003
-0.012799597 -0.023286354 0.63787091
-0.0072132032 -0.023379613 0.63680774
-0.002331048 -0.02361873 0.63786072
0.0026535094 -0.024076184 0.6370542
0.007059691 -0.02422479 0.63573337
0.012286434 -0.024655351 0.63659996
0.01708016 -0.024623396 0.63577503
0.020063382 -0.024593374 0.63500017
0.04709702 -0.02459757 0.63510847
0.051016271 -0.024307258 0.63530004
-0.035876174 0.0093725007 0.63653898
-0.033254907 0.0091701159 0.63629514
-0.035841003 0.012013786 0.63949484
-0.031967312 0.011894076 0.63919055
-0.027530838 0.012993767 0.63845837
-0.022698801 0.013089713 0.63728684
-0.017994812 0.013671857 0.63707542
-0.014195541 0.014735341 0.63617319
-0.02616746 0.016413748 0.6395821
-0.022478314 0.016959222 0.63903248
-0.017842731 0.017102586 0.63951117
-0.013123183 0.016494514 0.6382584
-0.0072279493 0.018281108 0.63812667
-0.0021658184 0.017756628 0.6374436
0.0023314569 0.018071648 0.63723212
0.0066209352 0.019026581 0.63602322
0.018915722 0.019527193 0.63679999
0.022539234 0.019536844 0.63711476
-0.007621713 0.020824492 0.63996428
0.0040771854 0.021210387 0.63953334
0.0074935611 0.021981413 0.63867229
0.012138649 0.022808073 0.63781434
0.017138969 0.022553463 0.63787627
0.022461619 0.022479532 0.63849974
0.027351832 0.023216382 0.63694555
0.032460645 0.023756888 0.63582861
0.037800703 0.02376565 0.63606203
0.042532098 0.023468712 0.63571107
0.046542089 0.023966074 0.63573337
0.023244755 0.025623661 0.63991672
0.027942589 0.025843212 0.63940668
0.033154462 0.026112223 0.63927615
0.037726399 0.026793675 0.63917786
0.042551745 0.026786916 0.63901395
0.046929937 0.026527515 0.63919258
-0.0052413275 -0.031027624 0.6449669
-0.0015813819 -0.031027624 0.6449669
0.0008584481 -0.031022815 0.64486694
0.0075556431 -0.030980721 0.64399195
0.012486231 -0.031760249 0.64344829
0.017043605 -0.031685904 0.64193708
0.021695683 -0.031060461 0.64064664
0.027281553 -0.031467568 0.64334303
0.032490388 -0.031548213 0.64323014
0.037949111 -0.031535435 0.64297104
0.04282048 -0.031539902 0.64305431
0.04772402 -0.031564787 0.64356267
0.051062312 -0.031297017 0.64218903
-0.030777203 -0.026722426 0.64321685
-0.027491368 -0.026883271 0.64224076
-0.02252852 -0.027384823 0.642214
-0.017993497 -0.027658772 0.64292395
-0.012522994 -0.027922804 0.64304346
-0.0070458683 -0.027906299 0.64264393
-0.0023224961 -0.028304707 0.64224625
0.0026761179 -0.028477095 0.64195573
0.0075884652 -0.028586976 0.64196682
0.012383353 -0.029063413 0.64164597
0.016294258 -0.02930213 0.64030004
0.02751182 -0.02961641 0.6406067
0.032978985 -0.029629972 0.64090002
0.037804529 -0.029612247 0.64051676
0.042651244 -0.029611861 0.64050841
0.047498643 -0.029612632 0.64052504
-0.031844694 -0.024795454 0.64021754
-0.017925311 -0.024805102 0.64046675
-0.036896057 0.0136503 0.64119142
-0.032827679 0.013913166 0.64101124
-0.036877569 0.016975103 0.6435132
-0.032407146 0.01741703 0.64335579
-0.027848138 0.017936757 0.64199042
-0.023214944 0.019273307 0.64157343
-0.018065149 0.019420387 0.64114678
-0.012479678 0.018882912 0.64072108
-0.025957361 0.020968152 0.64437944
-0.02270068 0.021768034 0.64418536
-0.018471565 0.021700477 0.6436668
-0.012141465 0.022352191 0.6428529
-0.0069961222 0.022810543 0.64174616
-0.0021799938 0.022691829 0.64180136
0.0023467035 0.023004035 0.64148957
0.0075160679 0.024447646 0.64055008
-0.0061520883 0.026110254 0.64451689
-0.0021892933 0.026405741 0.64435017
0.0029288221 0.026760712 0.64416015
0.0078151664 0.027418416 0.64377165
0.012420665 0.027581088 0.64354384
0.017267806 0.027547102 0.64274597
0.02189914 0.027730146 0.64102614
0.027356209 0.027982036 0.64076453
0.032760814 0.028454475 0.64058894
0.037828512 0.029269461 0.64090836
0.042651646 0.029251575 0.6405167
0.048118021 0.028573921 0.64070481
0.051117647 0.028350379 0.64184809
0.0087873414 0.030660503 0.64488363
0.01280841 0.030892696 0.6446802
0.017773394 0.031398781 0.64451271
0.022012869 0.031723652 0.64412749
0.026913324 0.031571724 0.64370686
0.032487664 0.031183815 0.64318687
0.037983056 0.031804882 0.64352793
0.042980608 0.031981971 0.6433515
0.047685213 0.032384016 0.64304179
0.051026314 0.03205698 0.64376527
0.048415918 0.035487156 0.64467794
0.050849456 0.035483267 0.64460725
0.011928965 -0.036140561 0.64989978
0.016843205 -0.036133148 0.6497665
0.022995539 -0.036144882 0.64997762
0.027268831 -0.036107201 0.64929986
0.032115933 -0.036032148 0.64794993
0.036843095 -0.03646718 0.64846665
0.042529359 -0.036231864 0.64788884
0.048034348 -0.036021017 0.6477499
-0.032259617 -0.031199487 0.64853889
-0.027700568 -0.032150798 0.64807999
-0.023019694 -0.032362696 0.64745271
-0.017514283 -0.032373883 0.64766431
-0.011946246 -0.032539032 0.64722306
-0.0072505982 -0.032407936 0.64615154
-0.002400755 -0.032743778 0.64697772
0.0030284098 -0.032832153 0.64747435
0.0075965221 -0.033576246 0.64742506
0.01186228 -0.034004461 0.64635342
0.019268207 -0.034855407 0.6486665
0.022681519 -0.034580477 0.64806664
0.027171385 -0.034157813 0.6469667
0.032042976 -0.034131832 0.64647496
0.037240095 -0.034034505 0.64590019
0.042668819 -0.034167726 0.64588153
0.047911391 -0.034111697 0.64609587
0.050896224 -0.033459023 0.64520019
-0.031935982 -0.029425228 0.64695853
-0.028121766 -0.029350832 0.64608574
-0.023874573 -0.029551286 0.64574164
-0.018059563 -0.029831856 0.64526683
-0.037002683 0.019315945 0.6456995
-0.033325434 0.019489378 0.64543343
-0.029040039 0.019783752 0.6451667
-0.036359828 0.022035968 0.64730662
-0.032839712 0.022908028 0.6478979
-0.028019637 0.022993986 0.64693332
-0.023224505 0.024131093 0.64584768
-0.017091626 0.023914088 0.6455968
-0.013174733 0.024622578 0.6451335
-0.026109915 0.025954003 0.64816672
-0.022546513 0.027174883 0.64826053
-0.017374115 0.027323224 0.64817506
-0.011988467 0.027726665 0.64693749
-0.0073908982 0.02820053 0.64622504
-0.002193762 0.028878119 0.64558756
0.0022826476 0.029063715 0.64523357
0.0057396949 0.028856043 0.64510024
-0.011422 0.030881574 0.64953321
-0.0067418413 0.031076536 0.64850664
-0.0019981086 0.032135777 0.6481722
0.0026988124 0.032609336 0.64751047
0.007413195 0.032826252 0.64667618
0.01229559 0.033232603 0.64570618
0.016876446 0.033548638 0.64517945
0.022589106 0.034073424 0.64538014
0.02732216 0.033928867 0.64569449
0.031991784 0.03371403 0.645446
0.03708972 0.034127239 0.6456334
0.042357463 0.034309361 0.64526683
0.052100506 0.034295179 0.64500004
0.0039387187 0.035777368 0.64994979
0.0076129436 0.035718661 0.64888322
0.012770511 0.036196802 0.64809036
0.017701695 0.036956798 0.64744443
0.022309497 0.037488971 0.64788955
0.027098291 0.037381064 0.64813107
0.03211014 0.037486114 0.6478374
0.037169162 0.037356377 0.64744902
0.042590033 0.037524708 0.64686137
0.047790818 0.03781949 0.64636797
0.050979685 0.037999168 0.64625794
0.042628013 0.040619772 0.64941323
0.047953624 0.040795181 0.64831996
0.0076709911 -0.040026907 0.65365005
0.01200745 -0.040058553 0.65416664
-0.017044971 -0.036320824 0.65314162
-0.011727259 -0.036553431 0.65290678
-0.0071509965 -0.036273099 0.65228349
-0.0019106098 -0.037100196 0.6533584
0.0027186389 -0.037505452 0.65241385
0.0076516359 -0.037482556 0.6520167
0.01239099 -0.037924886 0.652619
0.017637271 -0.037720345 0.65190339
0.022212557 -0.037833028 0.65104765
0.027336523 -0.038026728 0.65088433
0.032243539 -0.037395876 0.65053344
0.036522713 -0.037367128 0.65003318
0.041858118 -0.037373513 0.65014428
0.045751512 -0.037372876 0.65013313
-0.03113474 -0.033133887 0.65068889
-0.028180042 -0.034475304 0.65067327
-0.02292341 -0.034955706 0.65053338
-0.015751494 -0.034968242 0.65076673
-0.013898718 -0.034952123 0.6504665
-0.00098011724 -0.034967341 0.65075004
0.0014814943 -0.034959283 0.65060008
-0.036055055 0.024832608 0.65063637
-0.035905611 0.027702164 0.65352243
-0.032673717 0.027659731 0.6530726
-0.027901351 0.028058026 0.65181786
-0.023258362 0.029228633 0.65070009
-0.017594265 0.029712575 0.6506111
-0.026331773 0.031077029 0.65364438
-0.021714017 0.032704778 0.65289301
-0.016914075 0.032755677 0.65284443
-0.012226503 0.033265062 0.65213597
-0.0073071551 0.033512715 0.65114552
-0.002825699 0.0342815 0.65047491
-0.011922699 0.036027819 0.65450001
-0.0069607487 0.036799241 0.6536482
-0.0020411091 0.037493479 0.65250003
0.0025404964 0.03796405 0.65158093
0.0076497407 0.038331024 0.65189171
0.012374524 0.0387333 0.65181494
0.016553381 0.039161939 0.65048325
0.029145323 0.039439425 0.65003318
0.0027269335 0.040924389 0.65428334
0.0076769162 0.04092022 0.65421665
0.012983161 0.04111854 0.65346003
0.01753151 0.041430648 0.65257508
0.022460403 0.04141226 0.65227926
0.027556883 0.042242602 0.6527307
0.032322831 0.042626034 0.65212297
0.037276391 0.042649128 0.65246463
0.042220186 0.043267142 0.65258342
0.047035918 0.043317553 0.65166372
0.046418566 0.046327628 0.65433335
-0.025253722 -0.040281042 0.65780014
-0.022754027 -0.040260632 0.65746683
-0.011747316 -0.040599179 0.65628892
-0.0073677232 -0.041327313 0.6565969
-0.0031617759 -0.040505372 0.65643328
-0.02562792 -0.038575001 0.65675539
-0.022102322 -0.03835956 0.65658313
-0.0171267 -0.038341146 0.65626663
-0.012405528 -0.038363345 0.65514761
-0.0071850303 -0.038289808 0.65539175
-0.0028476953 -0.038609996 0.65560842
-0.035718475 0.029947268 0.6557501
-0.03258767 0.029919859 0.65515006
-0.035541017 0.032639939 0.65629697
-0.032030132 0.033057142 0.65642911
-0.027197834 0.033471879 0.65620512
-0.023931598 0.034247778 0.65566671
-0.018956242 0.034835741 0.6551668
-0.035194147 0.036195472 0.65754551
-0.031954978 0.037364781 0.65837455
-0.027122708 0.03744657 0.65784723
-0.022107862 0.037998799 0.65671653
-0.017131565 0.037983458 0.65645212
-0.012204574 0.038386635 0.65606409
-0.0074576926 0.039272327 0.65596187
-0.0034688213 0.039790303 0.65581667
-0.026583055 0.04003872 0.6599111
-0.022176931 0.041203775 0.65875006
-0.016808581 0.041431546 0.65843344
-0.012201942 0.041805446 0.65847909
-0.0070492895 0.042309489 0.65845448
-0.0020585065 0.042743135 0.65795714
0.0027381924 0.043569073 0.65713614
0.0076987599 0.043499935 0.65609998
0.01248883 0.043593362 0.65582424
0.017623153 0.044103354 0.65592915
0.022595886 0.044123456 0.65622908
0.026913321 0.044694006 0.65557784
0.0036825058 0.046485554 0.65918338
0.0078949267 0.047241315 0.6583516
0.012704622 0.047346327 0.65824449
0.017636914 0.047255781 0.65854853
0.022671355 0.04797725 0.65842927
0.027623985 0.047927652 0.65773958
0.032526232 0.047818355 0.65624171
0.037479453 0.047801565 0.65601873
0.042433903 0.047791228 0.65587705
0.047837302 0.04845253 0.6565091
0.029583244 0.051169191 0.65979987
0.033081084 0.051523212 0.65904444
0.037637051 0.051708583 0.6587792
0.042602818 0.051686443 0.65850008
0.047478754 0.05207587 0.65873343
0.050742164 0.051729329 0.65905011
-0.030815577 0.040546421 0.66145563
-0.0273118 0.042369023 0.66244447
-0.022273866 0.043246981 0.66165006
-0.017527882 0.043317921 0.66138107
-0.01224004 0.043793019 0.66053331
-0.0091096712 0.043762084 0.6600666
-0.0028668053 0.044997763 0.66003323
-0.025514785 0.0453091 0.66460019
-0.021706117 0.045942374 0.66344774
-0.017063182 0.046227328 0.6634534
-0.012280882 0.047048382 0.6627292
-0.0072526871 0.046958108 0.66146666
-0.0023915626 0.04737749 0.66133338
0.0022858616 0.048006382 0.66097081
0.005873451 0.04871887 0.66013324
0.018994695 0.049364224 0.66048336
-0.0072822757 0.05025778 0.66410851
-0.0018370842 0.050647784 0.66377234
0.0029363497 0.051338986 0.66343039
0.0077788513 0.051411942 0.66290563
0.012784953 0.051373065 0.66241121
0.017794911 0.051988635 0.66233337
0.022773936 0.052536149 0.66141385
0.027588241 0.052610859 0.6609394
0.032335054 0.053311259 0.66078329
0.037746385 0.05371663 0.66069174
0.042734839 0.053704433 0.66054165
0.04794969 0.054540101 0.66065556
0.019120548 0.05530306 0.66486681
0.023129797 0.055758569 0.66391915
0.02783706 0.055755623 0.66282922
0.033096369 0.056115579 0.6626634
0.037870962 0.056381349 0.66286117
0.042870667 0.056361523 0.66263062
0.047657579 0.05694475 0.66322386
-0.031210518 0.043493658 0.66542512
-0.029316986 0.044109054 0.66530019
-0.031832363 0.047227014 0.66766554
-0.027620552 0.047467086 0.66687328
-0.022916567 0.04819705 0.66621858
-0.017787479 0.04870123 0.66552788
-0.030786822 0.050696075 0.66990006
-0.027610928 0.050680939 0.66969997
-0.021885013 0.051339127 0.66891438
-0.017283851 0.051990137 0.66787434
-0.012352873 0.052327316 0.6666376
-0.0073134899 0.052982986 0.66703057
-0.0025172075 0.053187031 0.66646671
0.0023975964 0.053880244 0.66577351
0.0078136437 0.054134656 0.66583347
0.012844209 0.054108232 0.66550845
0.015979759 0.054066904 0.66500014
-0.013047466 0.055724476 0.66993338
-0.007340569 0.055687059 0.66948336
-0.0020014041 0.056152549 0.66861433
0.0029970522 0.056952659 0.66834712
0.0078408197 0.056832422 0.66816664
0.012889642 0.05680773 0.66787225
0.017877873 0.057523526 0.66722322
0.022752898 0.058390182 0.66688156
0.028001342 0.058584332 0.66672498
0.032597382 0.058740903 0.66613901
0.038040407 0.059130553 0.66584182
0.043037862 0.05907505 0.66521692
0.04844857 0.058825295 0.66521347
0.051246472 0.059109092 0.66560012
0.019888043 0.060714118 0.66953337
0.023466704 0.061107595 0.66925555
0.027840789 0.061236132 0.66935241
0.032155994 0.061367486 0.66882861
0.037409388 0.061335523 0.66807997
0.042370006 0.061824013 0.66793346
0.047170356 0.061929621 0.66784853
0.051289178 0.062004928 0.66820419
-0.027711799 0.053388033 0.67213327
-0.023083087 0.053581432 0.67105919
-0.018128179 0.054503236 0.67036653
-0.026528399 0.056094624 0.67438322
-0.022680109 0.056671917 0.67372084
-0.017349863 0.057346713 0.6729694
-0.012419249 0.057959359 0.67249763
-0.0073689409 0.058427032 0.67208892
-0.0024921452 0.058752164 0.67102212
0.002159521 0.059203465 0.67019999
0.0078622401 0.059499852 0.67000002
0.012939217 0.059534635 0.67039156
0.016099902 0.059499852 0.67000002
-0.010592553 0.061209831 0.67499995
-0.0073991152 0.061197732 0.67486668
-0.0020157665 0.061604951 0.67338085
0.0029755679 0.062114689 0.6723181
0.0078938995 0.062895849 0.67269152
0.012988532 0.062918589 0.67293751
0.017928682 0.062963597 0.67207551
0.022605089 0.063488789 0.67083335
0.027172675 0.064056791 0.67071903
0.031971019 0.063957065 0.67061651
0.036774267 0.064048871 0.67063797
0.042122185 0.064590432 0.67066658
0.047178861 0.064566359 0.67041653
0.051604223 0.064549759 0.67024446
0.0040902523 0.065002978 0.67495
0.017489785 0.066247545 0.67473322
0.021998717 0.067006245 0.67387027
0.02706301 0.067258149 0.67331821
0.032229125 0.067530498 0.67294872
0.036996808 0.067705415 0.6730333
0.042268336 0.06734094 0.67300004
0.047280464 0.067491718 0.67256141
0.051527977 0.0676772 0.67256665
0.032174185 0.070376001 0.67488325
0.037656937 0.070806943 0.67476654
0.042364486 0.070022374 0.6745249
0.047481336 0.070358768 0.67471659
0.05196251 0.071327098 0.67489994
-0.031101903 0.057562411 0.67675561
-0.028138798 0.057776414 0.67628998
-0.022358404 0.058980502 0.67556673
-0.018261185 0.059548233 0.67530006
-0.031192059 0.061547715 0.67871743
-0.027988382 0.061560418 0.67885488
-0.022839515 0.062163886 0.67848349
-0.017740268 0.062550485 0.67789757
-0.012709511 0.062728584 0.67646974
-0.0074155452 0.063240737 0.67640418
-0.002679613 0.063547045 0.67562008
0.00089860649 0.063744947 0.67503333
-0.012159467 0.065846227 0.67929459
-0.0074418224 0.066006206 0.67875433
-0.002091541 0.066200636 0.67856675
0.0027762519 0.067342944 0.67790002
0.0079425341 0.067731991 0.67690277
0.012878082 0.067555681 0.67629391
0.017175416 0.068439849 0.67673808
0.021770334 0.068864591 0.6755777
0.026435681 0.068809099 0.67503327
0.0041196588 0.07056997 0.67980009
0.008247924 0.07107386 0.67939061
0.012726882 0.07103435 0.67936015
0.01717031 0.071327686 0.6789149
0.022259191 0.072062157 0.67839295
0.027194256 0.07229884 0.67804796
0.032051966 0.072659187 0.67681479
0.037423186 0.073153943 0.67617774
0.04248175 0.072755001 0.67639166
0.047641657 0.072845884 0.67616975
0.051291585 0.072982498 0.67615336
0.039455891 0.07562165 0.67936683
0.043070875 0.075906396 0.6796335
0.048086315 0.076171689 0.67940015
0.051018003 0.076891206 0.6793223
-0.030040728 0.064376779 0.68172431
-0.027452031 0.064353511 0.68147773
-0.024862336 0.064324133 0.68116659
-0.027376501 0.066959925 0.68361253
-0.02299534 0.067711972 0.68310827
-0.017823024 0.067698099 0.68296248
-0.012896441 0.068499245 0.68202007
-0.0074708927 0.068819143 0.6813916
-0.0025900844 0.068887077 0.68116188
0.00090539531 0.069328994 0.68013346
-0.023042392 0.071056128 0.68448341
-0.017856171 0.07103537 0.68428338
-0.01228178 0.071232758 0.68371332
-0.0073162527 0.072107799 0.6833818
-0.0023208132 0.072193287 0.6830861
0.0026602861 0.073044144 0.68247384
0.0077859927 0.073760286 0.68178153
0.012330686 0.073702477 0.68180954
0.016741592 0.074021704 0.68139046
0.020844549 0.074425906 0.68008345
0.008681884 0.076211601 0.68466675
0.013210149 0.076185636 0.68443334
0.017465791 0.076373205 0.68381333
0.022488806 0.07706733 0.6831367
0.027389927 0.077297479 0.6829055
0.03231008 0.077580355 0.68314004
0.037895963 0.078454725 0.68284243
0.042659741 0.078594334 0.68203026
0.047763065 0.078874886 0.68177772
0.051151518 0.079646856 0.68109995
0.028751709 0.080052219 0.68456674
0.034596864 0.080095097 0.68493342
0.037796918 0.080975711 0.68423337
0.043344356 0.081519261 0.68394673
0.047857769 0.081820287 0.68400949
0.050475378 0.082503952 0.68358892
-0.030214457 0.067964584 0.6856668
-0.027956482 0.069600418 0.68595016
-0.030297443 0.070730105 0.68755019
-0.027245557 0.072840005 0.68809098
-0.022626214 0.072727285 0.68661678
-0.017914807 0.072811052 0.68649679
-0.01299638 0.07326901 0.68630952
-0.0094574559 0.073707938 0.68526667
-0.0016797585 0.074982211 0.68516684
-0.021229194 0.075368918 0.68869996
-0.017979689 0.075399019 0.68897498
-0.012622361 0.075569347 0.68816674
-0.007143829 0.076363072 0.68716669
-0.0022273527 0.077170379 0.68746954
0.0028633382 0.077767789 0.68705845
0.0075485162 0.077685349 0.68632978
0.011878857 0.078131236 0.6864816
0.016855668 0.078386463 0.6860382
0.021010086 0.078873798 0.68548346
0.0035272187 0.080652513 0.68970019
0.0077634263 0.08093787 0.68937504
0.011999699 0.081251428 0.68929166
0.017191248 0.081788965 0.68836403
0.022565192 0.082081333 0.68771207
0.027386561 0.08260306 0.68745482
0.032603215 0.082353272 0.68660903
0.037681263 0.083229735 0.68605942
0.042426046 0.083416522 0.68583345
0.046972759 0.084070474 0.68592507
0.029629279 0.08585576 0.68993342
0.033267453 0.08607392 0.68960679
0.038177855 0.085970916 0.68878001
0.042229109 0.086438239 0.6886763
0.047096197 0.086874254 0.68773896
0.050308958 0.086805016 0.68718904
-0.025982497 0.078538515 0.69387227
-0.022193504 0.078546569 0.69289708
-0.017673457 0.078233734 0.69231671
-0.013081749 0.07856869 0.69184005
-0.0079666106 0.079225056 0.69078684
-0.0036502723 0.07940691 0.69011694
-0.021142563 0.081724145 0.69440663
-0.017471241 0.081233315 0.69466656
-0.012867291 0.081852175 0.6943875
-0.0076044966 0.082397617 0.6934889
-0.0023524871 0.082233094 0.69210011
0.0026638876 0.082574748 0.6913445
0.0072924281 0.083573386 0.6911127
0.012022182 0.083991751 0.69056267
0.017250918 0.084656738 0.69070846
0.021161824 0.084623039 0.69043344
-0.0056476523 0.085178666 0.6949665
-0.0022294638 0.085415676 0.69477326
0.0028945713 0.0857675 0.69445413
0.022525102 0.087439395 0.69221395
0.027535332 0.087401271 0.6909849
-0.028005887 0.079995632 0.69523323
-0.027028844 0.082830198 0.69713008
-0.022778749 0.083280817 0.69621909
-0.017509131 0.083368607 0.69617242
-0.012894479 0.083979838 0.69583338
