# .PCD v0.7 - Point Cloud Data file format
VERSION 0.7
FIELDS x y z
SIZE 4 4 4
TYPE F F F
COUNT 1 1 1
WIDTH 1223
HEIGHT 1
VIEWPOINT 0 0 0 1 0 0 0
POINTS 1223
DATA ascii
0.03346581 0.059429638 0.81900018
0.037665501 0.059047557 0.81898355
0.041126918 0.059463494 0.81946671
0.029151961 0.063523464 0.81940007
0.032685686 0.062446553 0.81860757
0.037212089 0.062355611 0.81741482
0.0410643 0.062416445 0.81821114
0.032698635 0.067041285 0.8189261
0.037226401 0.066944472 0.8177408
0.040681344 0.066599816 0.81818336
0.033720385 0.070601933 0.81900018
0.036902569 0.070474982 0.81900018
0.038279586 0.053661242 0.82400006
0.040611871 0.053695966 0.82453352
0.018578032 0.059343815 0.82486677
0.022337677 0.05845524 0.8240667
0.027692903 0.057717413 0.82254285
0.032650765 0.056861978 0.82154655
0.037200157 0.056352757 0.8213582
0.042019304 0.057095785 0.82197022
0.045206878 0.058273319 0.82420015
0.019087013 0.062144406 0.82470012
0.022139316 0.062846601 0.823852
0.026830994 0.062300332 0.82114053
0.043468397 0.062583424 0.8204
0.045165438 0.062816478 0.82344443
0.023067296 0.067154504 0.82405347
0.027427956 0.067226194 0.82118315
0.04293235 0.067586318 0.82183999
0.027481252 0.071951903 0.82281661
0.032566816 0.072673224 0.82108545
0.037385035 0.073084839 0.82121104
0.041289002 0.071175493 0.82268339
0.028680826 0.075519122 0.82416672
0.032888595 0.076366775 0.82365561
0.037508015 0.075623497 0.82391119
0.014554094 0.054008581 0.8293336
0.017949481 0.05336982 0.82900035
0.022255307 0.053159337 0.82813334
0.027137265 0.053400069 0.82788873
0.033416301 0.053485096 0.82721674
0.037683755 0.052107695 0.82775563
0.042588551 0.052642182 0.828089
0.045426272 0.053934764 0.82820016
0.0088786101 0.057582933 0.82897788
0.013119313 0.057530738 0.82757574
0.017241905 0.057059653 0.82637781
0.021827942 0.055748772 0.82654989
0.026050245 0.055330239 0.82603323
0.043712128 0.05526102 0.82500017
0.046563894 0.056604918 0.82781672
0.0089389822 0.061861929 0.82860845
0.012827737 0.062837712 0.82775337
0.017132122 0.063216336 0.8258096
0.047016256 0.060155265 0.82900029
0.014033657 0.066841312 0.82904482
0.017614283 0.067769103 0.82780749
0.021045007 0.068012953 0.82609993
0.04541713 0.067788787 0.82803345
0.019185759 0.071718134 0.82896698
0.022224236 0.072320499 0.82702953
0.042879354 0.072908297 0.82672006
0.02329804 0.076054409 0.82860011
0.027295826 0.077382565 0.82710487
0.032182828 0.07830622 0.82526678
0.037912209 0.077761263 0.82600003
0.041884083 0.076801561 0.82795244
0.029220408 0.080160648 0.82856691
0.033209894 0.082228102 0.82820612
0.037713468 0.082458518 0.82841128
0.040858138 0.081797786 0.82953358
0.034661409 0.086405672 0.8293336
0.036990792 0.086426511 0.82953358
0.037978727 0.049674127 0.83426666
0.042584177 0.04960135 0.83304447
0.045780972 0.049697947 0.83466655
0.0025828546 0.053964309 0.83461642
0.0076287165 0.053488802 0.83326662
0.01285792 0.052452534 0.83220828
0.01731417 0.051468216 0.83191669
0.022354575 0.051073235 0.83177775
0.027424496 0.051515136 0.83268338
0.032122292 0.051765356 0.83225715
0.036260523 0.050996799 0.83053339
0.042459514 0.051000897 0.83060002
0.047438052 0.052502178 0.83297497
0.0021901494 0.057387728 0.83361477
0.0063186535 0.056701258 0.83112216
0.04882009 0.057374086 0.83340007
0.0021893468 0.062014818 0.83325189
0.0063922699 0.06296245 0.83115232
0.0037515436 0.066786319 0.83477753
0.007629212 0.067839846 0.83340549
0.012518321 0.068554871 0.83111101
0.0099816816 0.072240099 0.83499974
0.013079721 0.072931699 0.8340221
0.017248159 0.072925262 0.83141899
0.046015702 0.073129795 0.83184993
0.013094693 0.076115139 0.83491087
0.017967647 0.07713709 0.83395231
0.021864338 0.07799495 0.83285546
0.025438236 0.078869224 0.83119994
0.044003539 0.07803075 0.83050001
0.04607857 0.07710389 0.83299994
0.022954946 0.081804566 0.83485532
0.026847405 0.082321323 0.83287495
0.030068316 0.082678705 0.83063328
0.043170393 0.081765957 0.83234662
0.027291795 0.086757392 0.83456647
0.032253407 0.087584622 0.83253342
0.038093392 0.088663198 0.83189523
0.041413851 0.086392246 0.83291662
0.02789047 0.090102598 0.83499974
0.033138976 0.092024207 0.83481634
0.037990648 0.09315446 0.83450359
0.013148428 0.049917597 0.8383556
0.018224386 0.049508892 0.83805001
0.022120135 0.049486067 0.83766663
0.027210593 0.049118642 0.83804446
0.032334242 0.049213152 0.83776188
0.037844215 0.048036225 0.83818674
0.043017652 0.047174543 0.8371523
0.047671806 0.048090514 0.837125
0.051241506 0.049441773 0.83911109
-0.002261841 0.053442258 0.83774281
0.0018883198 0.052030731 0.83724004
0.0076601775 0.051373404 0.83666652
0.052200172 0.052997921 0.83774078
-0.0056045642 0.057621803 0.83700001
-0.0024815542 0.057587549 0.83651018
0.051724184 0.057203125 0.8384667
-0.0056045642 0.060735762 0.83700001
-0.0020363794 0.062041871 0.83660883
0.049070042 0.060784142 0.83766669
-0.0017049272 0.067047067 0.83804125
0.0014184084 0.066901147 0.83621103
0.00531025 0.069915779 0.83506638
-0.0014453052 0.070746832 0.83877784
0.0022023506 0.071514681 0.83785838
0.0071917819 0.073320173 0.83668661
0.047509663 0.072473168 0.83770001
0.0077863531 0.07731694 0.83830482
0.012342029 0.078617826 0.83674997
0.017010674 0.079330988 0.8360666
0.047432154 0.078579277 0.83633339
0.012970658 0.082301401 0.83815551
0.017809089 0.082529798 0.83695555
0.021422973 0.083456226 0.83584434
0.04425608 0.083916344 0.83526647
0.046351351 0.082236752 0.83793342
0.014728419 0.085879423 0.83926684
0.018362334 0.086836629 0.83845568
0.022484386 0.087171286 0.83667403
0.025560658 0.088570565 0.83519977
0.043329377 0.087248109 0.83742219
0.0230524 0.091512203 0.8384223
0.027167957 0.092625678 0.83674157
0.031295836 0.093822159 0.83584434
0.04191526 0.092362821 0.83738095
0.027541539 0.096419513 0.83860016
0.03285227 0.097964235 0.83701819
0.03804877 0.097959377 0.83577031
0.041661762 0.098599248 0.83790004
0.032702699 0.10102817 0.83866668
0.037813146 0.10283373 0.83747351
0.041324414 0.1022403 0.83900005
0.039012805 0.10623825 0.83976674
0.036891114 0.044024628 0.84497768
0.042880997 0.043448675 0.84397799
0.047548346 0.043341517 0.84393346
0.05105542 0.044008415 0.84466654
0.003268881 0.048172548 0.84422225
0.006933698 0.047849908 0.84314466
0.012424876 0.047802448 0.84231669
0.017669579 0.047298145 0.8426556
0.022852102 0.046861265 0.84303331
0.027358433 0.046251278 0.84261101
0.032092493 0.046277355 0.84308881
0.037209969 0.046106674 0.84200954
0.042203687 0.045378193 0.84093308
0.047688369 0.045373395 0.84084433
0.052193046 0.047353178 0.84267998
-0.0061724023 0.052831817 0.84339744
-0.0024974772 0.051211208 0.84255552
0.0022134597 0.050161067 0.84244448
0.0069150534 0.050065797 0.84084421
0.010046233 0.050039332 0.84039992
0.054056294 0.050154451 0.8423332
0.056245305 0.053591557 0.8421737
0.053497981 0.058994818 0.84177774
0.056126788 0.057707954 0.84394044
-0.0040628724 0.064154863 0.84100002
0.04936488 0.063501596 0.8427
0.052008063 0.062223315 0.84307784
-0.0040685008 0.067376651 0.84216517
0.048844505 0.068466485 0.84273332
0.051059447 0.067582622 0.84473324
-0.0019757038 0.073151082 0.84250498
0.0022087514 0.073465608 0.84013331
0.048990402 0.071756348 0.84299999
-0.00092966505 0.075409465 0.84439981
0.0027396157 0.076317541 0.84284443
0.0058781547 0.079386346 0.84215564
0.049262688 0.07666719 0.84095556
0.051031239 0.076183006 0.84426665
0.0037974806 0.080178641 0.84499991
0.0071310019 0.082960226 0.84330833
0.01058314 0.084028877 0.84157771
0.048308641 0.082554638 0.84253335
0.008523941 0.087238371 0.84486651
0.012217093 0.087953746 0.84281826
0.01684019 0.088612765 0.8405109
0.044528078 0.088340282 0.84039986
0.04687627 0.087845765 0.84314668
0.013468751 0.092242695 0.84442854
0.017929191 0.092492908 0.84261489
0.021566125 0.093404554 0.84142208
0.044548094 0.092290521 0.84077758
0.046261206 0.092581123 0.84342241
0.018768873 0.09589722 0.84499991
0.022867799 0.09711577 0.84362507
0.026281437 0.098128878 0.84166664
0.043819565 0.097102769 0.84182221
0.024284655 0.10139879 0.84499991
0.027581412 0.10180049 0.84343338
0.032041695 0.10336377 0.84180003
0.035129514 0.10477166 0.84053326
0.043367684 0.10247 0.84218675
0.029012445 0.1053284 0.84499991
0.032117091 0.10674618 0.84378111
0.037226234 0.10838808 0.84189999
0.042305108 0.1074247 0.84294462
0.032950968 0.11003967 0.84496659
0.037907269 0.11273629 0.84422964
0.041596364 0.11280958 0.84451997
0.038468074 0.11633151 0.84499991
0.040830389 0.11632692 0.84496653
0.044176213 0.039482325 0.84870011
0.0465452 0.039477672 0.84860021
0.0030246475 0.044248067 0.84926689
0.0069785262 0.043423209 0.84860021
0.01251558 0.043412291 0.84838361
0.01804992 0.04356271 0.84824026
0.022796318 0.043406714 0.84827799
0.027515786 0.043364409 0.8474558
0.032265361 0.043374747 0.84765577
0.037324715 0.041956268 0.84766686
0.041980382 0.041502956 0.84698892
0.048438497 0.041377231 0.84710014
0.053000025 0.042376783 0.84741682
0.0560719 0.044237647 0.84906703
-0.0020650043 0.047586881 0.8484574
0.0016999942 0.046736211 0.84666675
0.0069558159 0.045644417 0.84586668
0.012483098 0.045661502 0.8461833
0.017990731 0.045624636 0.84549987
0.053729031 0.046144675 0.84542227
0.056029338 0.047359511 0.84842253
-0.0075722253 0.051098924 0.84762841
-0.0033003595 0.050392628 0.84633327
0.057946514 0.052039921 0.84752506
0.058568332 0.058047939 0.8469975
0.053815242 0.064071156 0.84677798
0.056351744 0.062668473 0.8473208
0.049507435 0.066042259 0.84513324
0.052826542 0.067511007 0.84778678
0.056124736 0.066412158 0.84986675
-0.0040971455 0.072584905 0.84809446
0.051989887 0.072493397 0.84703332
-0.0025170033 0.076537162 0.8481952
0.0011742954 0.078336209 0.84773344
0.052298803 0.077286325 0.84777784
0.0022272705 0.082022868 0.84781927
0.049536727 0.082597889 0.84563333
0.051264945 0.082053386 0.84813362
0.0038118623 0.08679416 0.84820032
0.0063687237 0.087997966 0.8465001
0.049263321 0.087548837 0.84634668
0.051271997 0.087587841 0.84825027
0.003816955 0.090069368 0.84933352
0.007503754 0.092596553 0.84835577
0.011061787 0.093516856 0.84621334
0.048795909 0.092912495 0.84644443
0.051343523 0.092450067 0.84943348
0.0085750632 0.096457094 0.84993351
0.013121752 0.097452797 0.84788918
0.017789358 0.098107867 0.84662873
0.021146106 0.099103481 0.84553337
0.046863183 0.097327232 0.84718347
0.014914438 0.10119228 0.84986669
0.018370479 0.10165731 0.84846699
0.022314427 0.10267001 0.84714299
0.025880987 0.10383845 0.84566665
0.04478946 0.10379753 0.84533316
0.046511069 0.10254651 0.84797794
0.02325128 0.10710441 0.8483907
0.02729346 0.10731325 0.84670007
0.030595629 0.10849781 0.84519982
0.04480359 0.10697659 0.84559989
0.046597619 0.10747692 0.84955579
0.024405343 0.11059099 0.84920037
0.027776929 0.11163334 0.84854311
0.032012533 0.11232583 0.84696198
0.03533709 0.11404148 0.84549999
0.0440467 0.11255908 0.84618884
0.046611022 0.11066912 0.84980017
0.032742325 0.11656432 0.84832412
0.036962736 0.11813134 0.84662867
0.042284291 0.11810557 0.84644997
0.04501377 0.1177505 0.84956688
0.037281133 0.12226026 0.84874314
0.04158102 0.12288956 0.84821695
0.048457235 0.034184888 0.85440773
0.052239515 0.034242302 0.85300827
0.057948012 0.034143854 0.8533709
0.061197348 0.034975354 0.8543002
-0.005718396 0.039728884 0.85400003
-0.0030651304 0.039215345 0.85434389
0.0038391266 0.039741289 0.8542667
0.0070252633 0.039738186 0.85420001
0.012600178 0.039737411 0.85418338
0.018185455 0.039758343 0.85463345
0.022953952 0.039735083 0.85413343
0.027737398 0.039105348 0.85426676
0.032520775 0.038950954 0.85436684
0.037257012 0.038904902 0.85337228
0.041692086 0.038725052 0.85291338
0.047940683 0.038063552 0.85232079
0.052762449 0.037886076 0.85189331
0.058010146 0.038152911 0.85428536
0.062788852 0.03815252 0.85427517
0.065928295 0.038919073 0.85366672
-0.010490413 0.042880043 0.85350007
-0.0072967964 0.042823493 0.85235953
-0.0025281091 0.042820573 0.8523277
0.0020138272 0.042359423 0.85217136
0.0070072208 0.041223947 0.8520667
0.01255784 0.04118444 0.85124987
0.01812616 0.041608475 0.85184169
0.022872454 0.041177183 0.85109991
0.02762471 0.04116267 0.85079986
0.032392707 0.041172344 0.85099989
0.035550244 0.041152995 0.8506
0.058040019 0.042595904 0.85179168
0.062645257 0.042820573 0.85232604
0.065838188 0.042830598 0.85250002
-0.010459686 0.046712928 0.85100001
-0.0072915927 0.047541227 0.85166574
-0.004110218 0.04670183 0.85079998
0.058635626 0.047548831 0.85178894
0.062703729 0.047623888 0.85311484
0.065876804 0.04602934 0.85299999
0.058680475 0.050755829 0.8524335
0.062400945 0.052076828 0.85331309
0.061710969 0.058266733 0.85405564
0.058591977 0.062553957 0.85115802
0.054561149 0.068810649 0.85020006
0.057275511 0.067593329 0.85282004
-0.005712444 0.074600458 0.85311115
0.054631736 0.072859056 0.8513
0.056355875 0.073036678 0.85336679
-0.0057177874 0.076258659 0.85390908
-0.00252765 0.078701831 0.85170507
0.054303396 0.078103364 0.85236675
0.056459341 0.076350115 0.85493356
-0.0015729169 0.082045868 0.85131997
0.00064981263 0.083864704 0.85049993
0.053597778 0.082204655 0.85379183
0.0014442676 0.087189168 0.85206103
0.053211227 0.087384284 0.85398352
0.0028774492 0.092341185 0.85280007
0.0059402478 0.094462544 0.85095543
0.052742492 0.092817485 0.85282516
0.0038393261 0.096954644 0.85431123
0.0070036985 0.098245814 0.85173321
0.010697901 0.099180318 0.85068876
0.048793744 0.098162435 0.85101104
0.051089425 0.097979307 0.85401124
0.0070225745 0.10194337 0.85395008
0.012577561 0.10311329 0.85266668
0.017717956 0.10413864 0.85133326
0.048284743 0.10295542 0.85136652
0.05045072 0.10133868 0.85443354
0.01499282 0.10649183 0.85433346
0.018150061 0.10791665 0.85302597
0.021271158 0.10839184 0.85053337
0.048403937 0.1079723 0.85346788
0.018973064 0.11203679 0.85420007
0.022686813 0.11268638 0.85159576
0.026828025 0.1139513 0.85070002
0.047561139 0.1126193 0.85260421
0.023740171 0.1175389 0.85376674
0.027659543 0.11728374 0.85190737
0.030789899 0.11788936 0.85056663
0.046802994 0.11747543 0.85329992
0.024549039 0.12077603 0.85420012
0.028043846 0.12136904 0.85390007
0.032424662 0.12203239 0.8518703
0.035550248 0.12343156 0.85059994
0.045532838 0.12163101 0.85184312
0.032711204 0.12656333 0.85342389
0.036997393 0.12699865 0.85196245
0.042197842 0.1272732 0.85210007
0.037692949 0.13070984 0.85421681
0.041278627 0.13111098 0.85424173
0.042314716 0.03277472 0.85911673
0.046018716 0.033016175 0.85846663
-0.010521141 0.039821923 0.85600007
-0.0089246901 0.039025761 0.85600007
-0.00094189483 0.039003365 0.8555088
0.0019870566 0.038545445 0.85715872
0.0070537524 0.038698979 0.85760009
0.012249757 0.037896767 0.8575002
0.017534461 0.037761252 0.85745943
0.023025418 0.037466336 0.85677785
0.027836462 0.037091285 0.85731661
0.033068288 0.036332306 0.85821664
0.037477043 0.035940696 0.85840005
0.042249784 0.035915628 0.8577888
0.045895737 0.035583079 0.85617787
0.063220099 0.036946788 0.85579932
0.066079527 0.048558775 0.85562509
0.062974215 0.05261068 0.85678196
0.06139078 0.055810299 0.85700005
0.05810925 0.072443992 0.85575026
-0.0062726582 0.078165464 0.85737181
-0.0041410979 0.079740964 0.85719234
0.057563484 0.078459457 0.85712016
-0.0036121064 0.082993612 0.85786349
0.054931194 0.083608195 0.85596681
0.056664407 0.083013289 0.85803872
-0.00094321882 0.08766526 0.85671121
0.053291198 0.087516613 0.85526681
0.055023182 0.087735064 0.85740012
0.00065455801 0.092446715 0.85671139
0.002249765 0.097115964 0.85573357
0.05335005 0.097170711 0.85621119
0.0032103765 0.10168225 0.85665351
0.0054433658 0.10351491 0.8560003
0.05274 0.10231997 0.85666275
0.0075132055 0.10672683 0.85803807
0.011606341 0.10720998 0.85643828
0.015020899 0.10907963 0.85593367
0.05101563 0.10685387 0.85723329
0.012397288 0.11126924 0.8584888
0.016861005 0.1133999 0.85678107
0.048527509 0.11461394 0.85564703
0.050735146 0.11150014 0.85925144
0.018264916 0.11757681 0.85839164
0.021410659 0.11786192 0.85611135
0.048574876 0.11791322 0.85648221
0.05033876 0.1159059 0.85932493
0.023038702 0.12254693 0.85732228
0.027387641 0.12378837 0.85580021
0.047994558 0.123161 0.8575201
0.024664965 0.12693411 0.85823321
0.027837353 0.12760629 0.85737783
0.031794455 0.12903228 0.85626698
0.046248913 0.12765987 0.85774463
0.028704982 0.13110311 0.85940009
0.03327449 0.1317504 0.85736006
0.037089325 0.13326521 0.85685349
0.042782981 0.13276023 0.85565358
0.04658284 0.13265026 0.85759056
0.038008314 0.13680054 0.85836667
0.042223837 0.13715649 0.85725927
0.047051005 0.13724357 0.85780734
0.039128177 0.14151123 0.85950017
0.042131502 0.14210282 0.8594501
0.046817012 0.14133486 0.85940009
0.032480244 0.028228104 0.86176699
0.035957042 0.028820815 0.86033338
0.00065859896 0.033687104 0.86200005
0.018385205 0.03376526 0.8640002
0.022146715 0.033768732 0.86408901
0.02856073 0.03265794 0.86308342
0.032811802 0.032084152 0.86202222
0.03755971 0.032020204 0.86030382
0.042358756 0.031369273 0.86000025
0.047170483 0.032009177 0.86000001
0.0018625327 0.036057465 0.86118519
0.0070951097 0.036925465 0.86273342
0.011600872 0.035962909 0.86277342
0.017539993 0.035294689 0.86210001
0.023160964 0.035283316 0.86182213
0.027933532 0.035221443 0.86031121
0.031933337 0.035208706 0.86000019
0.061687618 0.064088367 0.86112684
0.060954992 0.067371003 0.86212778
0.060586095 0.071819827 0.86260015
0.060259901 0.077133067 0.86370009
-0.007055758 0.082084872 0.8617034
-0.0041591702 0.084893465 0.86093336
-0.0057873651 0.085225463 0.86430013
-0.0033635425 0.087461375 0.86255842
-0.00094926206 0.091433801 0.86219996
0.00065775664 0.097702138 0.86089772
0.055245649 0.098498307 0.86086667
0.0011927545 0.10254196 0.86120707
0.055339992 0.10267883 0.86233681
0.0030687635 0.10742623 0.86182219
0.0054692263 0.10800651 0.86006677
0.053729385 0.10748616 0.86229914
0.0038798726 0.11082558 0.86333346
0.0070876116 0.11226005 0.8620038
0.010818628 0.11310211 0.86028904
0.052647382 0.11227062 0.86211413
0.0079108654 0.11653207 0.86396694
0.011906757 0.11702573 0.86168146
0.015895978 0.11841029 0.86010021
0.051701952 0.11746985 0.86200595
0.012581701 0.12149978 0.86386013
0.017261721 0.1223662 0.86166674
0.02230987 0.12479562 0.86000019
0.051204585 0.12203366 0.86309338
0.018820461 0.12659118 0.86289054
0.022681281 0.12838587 0.86108577
0.048841197 0.12817037 0.86117786
0.051265366 0.12734635 0.86335242
0.019998897 0.13021268 0.86410022
0.023595911 0.13206308 0.86305845
0.027975149 0.13330838 0.86159444
0.031933337 0.13359429 0.86000019
0.048774395 0.1319945 0.86000019
0.052094568 0.13275667 0.86183673
0.055409651 0.13332145 0.86342239
0.028686974 0.13721976 0.86368686
0.032788709 0.13782217 0.86142224
0.036477741 0.13866025 0.86000019
0.052065108 0.13780914 0.86134827
0.057029732 0.13784102 0.86355686
0.061266106 0.13891797 0.8642602
0.033050068 0.14269044 0.86300427
0.037127864 0.14277531 0.86092383
0.043962672 0.14399284 0.86000019
0.047574293 0.14360127 0.86005014
0.052075144 0.1426449 0.86151862
0.057019923 0.14295729 0.86340761
0.06189223 0.14305525 0.86400026
0.066528767 0.14326432 0.86405027
0.034514893 0.14633746 0.86440015
0.038209382 0.14715438 0.86290002
0.042443104 0.14748806 0.8617186
0.047265194 0.14748895 0.86172599
0.051971063 0.14752886 0.86313343
0.056659326 0.14668185 0.86405855
0.061906554 0.14694685 0.86420023
0.066976279 0.14746185 0.86425734
0.070013836 0.14640519 0.8648001
0.043383621 0.15117005 0.86445022
0.047369033 0.15102528 0.86362237
0.050618466 0.15110883 0.86410022
0.018494437 0.029115612 0.86913323
0.021747537 0.028321221 0.86956662
0.028186863 0.028275291 0.86816829
0.0039046435 0.032338481 0.8688454
0.0071460721 0.032341525 0.8689332
0.012005971 0.032537796 0.86879158
0.016851466 0.032305181 0.86799043
0.022607476 0.031768128 0.8680222
0.027072942 0.0311957 0.8670333
0.0038879246 0.035418533 0.86512518
0.0071250089 0.035472546 0.86644465
0.065378733 0.064562671 0.86749989
0.063684896 0.067710929 0.86646682
0.065503508 0.067920059 0.86915559
0.062987261 0.07307525 0.86797851
0.0655571 0.071211286 0.86986673
0.061378311 0.077123016 0.86811328
-0.0074109957 0.083749913 0.86566663
-0.0074276351 0.087164924 0.86759073
0.058048159 0.08788532 0.86674994
-0.0058246404 0.090628728 0.86986661
-0.003035909 0.092206135 0.8673014
0.057386104 0.092152707 0.86896676
-0.0020379026 0.096466683 0.8690052
0.05741252 0.097045377 0.86936682
-0.00095722044 0.10028692 0.86942869
0.057339873 0.10015288 0.86826682
0.00066273741 0.10731533 0.86741686
0.056072727 0.10772347 0.86744398
0.0038960516 0.11370797 0.86693335
0.054007918 0.11368541 0.86676919
0.055805013 0.11324614 0.86958277
0.0039054891 0.11721554 0.86903328
0.0064833509 0.11841973 0.86720008
0.054039478 0.11778542 0.86727595
0.055810384 0.11649182 0.86966687
0.0081156865 0.12249881 0.86866653
0.011179061 0.12346634 0.86751664
0.053600337 0.12254319 0.86670071
0.055806108 0.12376215 0.86960018
0.012207899 0.12748776 0.8688041
0.015855368 0.12769684 0.86666012
0.054022301 0.12742414 0.86700004
0.055760488 0.12770103 0.86888891
0.013632654 0.13098128 0.86919993
0.017089305 0.13201067 0.86837137
0.021278434 0.13347755 0.86703348
0.05389984 0.13035353 0.8650347
0.057616193 0.13266829 0.86754668
0.061836727 0.13375938 0.86886668
0.023153128 0.13694519 0.86828154
0.027072296 0.13817613 0.8670001
0.05885281 0.13544117 0.86670011
0.062568806 0.13686803 0.86699057
0.0668713 0.13753797 0.86849165
0.070353873 0.13903362 0.8689999
0.024445752 0.1412576 0.8694222
0.027996089 0.14238882 0.86851245
0.067312166 0.14062488 0.86635852
0.071654223 0.14227197 0.86707336
0.07658422 0.14268745 0.86875242
0.029836474 0.14630795 0.8689999
0.032474257 0.14737144 0.86732787
0.03700988 0.149059 0.86620021
0.053953074 0.14981095 0.86588907
0.058011681 0.14825344 0.86620021
0.062060319 0.14948821 0.86635005
0.066049971 0.14977825 0.86570013
0.072250187 0.14781563 0.86647004
0.076995604 0.1472958 0.86746675
0.08196874 0.14765464 0.86900002
0.033399262 0.15098436 0.86893332
0.037679911 0.15231597 0.86836183
0.042472091 0.15368831 0.86699063
0.047211774 0.15381168 0.86664677
0.052736431 0.15260527 0.86712009
0.057110373 0.15138103 0.86829042
0.062210333 0.15267675 0.86844444
0.066982865 0.15248162 0.86733341
0.072458073 0.15211059 0.86751676
0.078143053 0.15206461 0.86751121
0.083365679 0.15207681 0.86779338
0.087260082 0.1523775 0.86950666
0.038486164 0.15630227 0.86914438
0.042794947 0.15759742 0.86885548
0.047658984 0.15679851 0.86890662
0.052210934 0.15587176 0.86914653
0.055806108 0.15530588 0.86960018
0.06768024 0.15580155 0.8693555
0.071183413 0.1552404 0.86923325
0.077422224 0.15666214 0.86896366
0.082704455 0.15703425 0.86822224
0.086627223 0.15612677 0.86966664
0.0079714078 0.02916318 0.87055349
0.012038195 0.028372081 0.87113357
0.016454395 0.027571704 0.87147629
0.021774951 0.028357979 0.87070018
0.025020368 0.028354876 0.87060022
0.012026318 0.03077244 0.8702668
0.0152701 0.030767722 0.87013346
0.067261785 0.068868816 0.87093353
0.063959293 0.072857335 0.8702001
0.066206932 0.072949223 0.87129992
0.063691378 0.078288011 0.87208104
0.065774404 0.07631778 0.87275004
0.062293645 0.082983881 0.8724305
-0.0090706535 0.089024246 0.87000006
0.059085969 0.089037895 0.87013352
0.062528633 0.087694347 0.87286657
-0.007188479 0.092397302 0.87128234
0.059187818 0.09243533 0.87163335
0.061374366 0.092261583 0.87383318
-0.006498456 0.097148456 0.87319261
-0.0036683094 0.098350219 0.87137431
0.058796883 0.097322762 0.87185007
-0.0022654808 0.1020553 0.87348831
0.059395537 0.10089406 0.8746925
0.05751583 0.10856073 0.87093103
0.001315503 0.11223819 0.87180889
0.057183079 0.11234785 0.8720358
0.001479947 0.11688904 0.8726272
0.057246745 0.11734511 0.8730095
0.0027615528 0.12167381 0.87368381
0.0060796798 0.12314189 0.87093353
0.056975693 0.12142911 0.87259561
0.0039318539 0.12533027 0.87489986
0.007633883 0.12768185 0.87190962
0.010411236 0.12962233 0.87093359
0.058355778 0.12785232 0.87307608
0.061487366 0.12946394 0.8735109
0.0082711019 0.13219945 0.87368876
0.012045704 0.13298222 0.87171441
0.016095638 0.13447748 0.87090027
0.058332603 0.13125251 0.87100023
0.063021258 0.13169889 0.87217778
0.067358509 0.13305041 0.87217784
0.072339572 0.13404962 0.87339431
0.013163399 0.13711707 0.87395549
0.016928159 0.13789362 0.87200743
0.020699507 0.13881005 0.87097806
0.068838641 0.13600899 0.87033349
0.072375476 0.13759077 0.87138343
0.076821476 0.13785465 0.87291837
0.081768207 0.13943766 0.87406659
0.017503904 0.14249064 0.87367219
0.021599885 0.14293407 0.87183332
0.025031863 0.14421433 0.87100023
0.07782571 0.14097384 0.87100023
0.081975132 0.14274508 0.87192589
0.086685285 0.14398122 0.87351978
0.022514215 0.14734417 0.87418664
0.027006134 0.14776213 0.87185347
0.082948782 0.14633723 0.8707779
0.08701881 0.14734563 0.87155843
0.090914302 0.14819419 0.87345326
0.028892128 0.15214977 0.87314439
0.032727614 0.15343675 0.87046683
0.058307763 0.15387091 0.87063348
0.089176267 0.15228063 0.87080014
0.091528378 0.15259022 0.87256664
0.095611811 0.15315832 0.87272733
0.03286548 0.15719727 0.87201339
0.036928151 0.1581877 0.8706224
0.048573188 0.15875378 0.87076682
0.053050067 0.15838228 0.87095022
0.057770964 0.15750888 0.8717168
0.062402382 0.15719946 0.87112606
0.066975527 0.15766831 0.8707335
0.072347626 0.15758593 0.87070495
0.087971628 0.15756959 0.87093353
0.091346033 0.15724817 0.87268096
0.095937118 0.1559518 0.87321657
0.03408841 0.16099674 0.87414992
0.038297351 0.16212101 0.87253332
0.042934086 0.16216494 0.87168163
0.047868058 0.16235511 0.87270367
0.052812092 0.16254564 0.87372947
0.057707112 0.16256355 0.87382579
0.06256409 0.16248114 0.87338489
0.067400932 0.16235988 0.87273312
0.072289191 0.16237211 0.87279975
0.077127777 0.16227762 0.87228882
0.081950776 0.16216592 0.8716889
0.086908862 0.16231292 0.87248135
0.043900065 0.1659857 0.87473327
0.046340134 0.1659604 0.87459987
0.064307198 0.16602366 0.87493336
0.067550488 0.16597305 0.87466663
0.072447456 0.16598149 0.8747111
0.077667475 0.16621225 0.87378323
0.082113743 0.16736241 0.87342209
0.087010652 0.16737838 0.87350726
0.083818026 0.17076305 0.87419993
0.086327851 0.17089003 0.87484998
0.06612736 0.088152669 0.87743312
0.063605331 0.092950687 0.87650007
0.061619442 0.09752351 0.87730664
-0.0058616912 0.10097571 0.87540007
-0.0036924134 0.10389155 0.87710267
-0.0021365802 0.10750834 0.87745535
-0.0021363462 0.11284188 0.87721932
0.059608281 0.11268765 0.87782544
-0.002135284 0.11722229 0.87686443
0.059700489 0.11858439 0.87918329
-0.0017873071 0.1226064 0.87870121
0.0006692445 0.1230344 0.87593335
0.059565056 0.12239268 0.87718898
0.06193183 0.12385312 0.87982196
-0.00096867577 0.12603699 0.87983328
0.0023093787 0.12747326 0.87844437
0.0055797682 0.12814409 0.87745011
0.059416417 0.12534456 0.87500006
0.063077852 0.12715542 0.87767917
0.067527711 0.12887895 0.87968314
0.071244448 0.12933475 0.87999976
0.0039547747 0.13097173 0.87999982
0.0059973998 0.13284017 0.87882495
0.067789845 0.13063939 0.87776685
0.07240627 0.13167623 0.87815332
0.077687196 0.13321543 0.87861109
0.082722656 0.13422871 0.87988871
0.0074618822 0.13689889 0.87901896
0.010885391 0.13737461 0.87645841
0.078545444 0.13580932 0.87601119
0.082772762 0.13703889 0.87824166
0.0873826 0.13792416 0.87959975
0.012129257 0.14208385 0.8778519
0.016182441 0.14416151 0.8756001
0.087524004 0.14136848 0.87632388
0.092573285 0.1432381 0.87993312
0.012698133 0.14669053 0.87936646
0.016802838 0.14740317 0.87758112
0.021092195 0.14831251 0.8760668
0.092963643 0.14683473 0.87698585
0.095426857 0.1472124 0.87600011
0.013802042 0.15061539 0.87999976
0.017072652 0.15168521 0.87941891
0.021762446 0.15217854 0.87838757
0.02641126 0.15325154 0.8763501
0.093737796 0.15228547 0.87548327
0.022412581 0.15589707 0.87978315
0.026670115 0.15704113 0.87817097
0.030074518 0.1588818 0.87593341
0.093700327 0.157922 0.87513328
0.095397815 0.15803027 0.87573326
0.027323753 0.16074312 0.87943316
0.032055601 0.16280572 0.87806112
0.035834864 0.16478443 0.87700015
0.091138095 0.16292223 0.87795836
0.03239153 0.16638511 0.87971085
0.037839707 0.16790937 0.87798339
0.04297667 0.16856846 0.87728107
0.048307471 0.16825335 0.87700433
0.053017322 0.16807388 0.87713343
0.057708338 0.16783431 0.87694591
0.062616058 0.1682449 0.87695855
0.06773603 0.16887648 0.87706679
0.072660774 0.16891806 0.87728339
0.077141896 0.16886349 0.87615335
0.091417179 0.16731378 0.87828666
0.037096649 0.17151958 0.87974644
0.042482048 0.17254791 0.87914997
0.048194405 0.17245285 0.87866682
0.053083282 0.17236458 0.87821692
0.058049336 0.17279053 0.87899989
0.063015081 0.17265153 0.87967759
0.067925401 0.17262115 0.87952209
0.072845392 0.17261897 0.87951094
0.077932529 0.17282052 0.87875241
0.082211815 0.17307495 0.87663764
0.087342769 0.17318445 0.87685013
0.090883859 0.17179181 0.87946647
0.042639524 0.17610157 0.87998068
0.048266228 0.17598401 0.87997746
0.053169001 0.17591536 0.87963319
0.058039911 0.17657918 0.87886649
0.063038386 0.17516993 0.87999976
0.073706232 0.17516993 0.87999976
0.077809274 0.17653407 0.8799997
0.082666837 0.17748474 0.87929994
0.087601595 0.17696829 0.8794443
0.082732908 0.18008088 0.87999976
0.064691849 0.094976395 0.88016665
0.064297877 0.097937882 0.88226146
-0.0058951713 0.10482788 0.8804
0.062786601 0.10176191 0.88221312
-0.005907224 0.10668325 0.88220006
-0.0042551123 0.10897073 0.88079298
0.062876076 0.10765827 0.8834753
-0.0064678802 0.11182205 0.88390404
-0.0042539714 0.11221775 0.88055682
0.062011346 0.11292496 0.88289165
-0.0059123524 0.11580935 0.88296598
-0.004252892 0.11873975 0.88033336
0.059796687 0.11631831 0.88059986
0.062403619 0.11822487 0.8826167
-0.004262554 0.12311247 0.88233334
0.063709892 0.12247781 0.88170552
0.067248717 0.12361147 0.88356006
-0.0022895127 0.12739521 0.88244581
0.00067282183 0.12942518 0.88061523
0.068643026 0.12657757 0.88171107
0.073082492 0.12804098 0.88237149
0.078096695 0.12898909 0.88324457
0.081349701 0.12892455 0.88280004
0.086210817 0.12962872 0.88200003
-0.0015238053 0.1321889 0.88449126
0.0021112442 0.13307561 0.88173449
0.074538112 0.13099156 0.88013303
0.077934138 0.13118012 0.88139993
0.082914077 0.13207786 0.88192219
0.087165758 0.13351727 0.88167942
0.003141965 0.13790548 0.88246107
0.0064185597 0.13920403 0.88029969
0.088510774 0.1359341 0.88033313
0.092269249 0.13798998 0.88151455
0.0074637732 0.14266226 0.88269585
0.092674844 0.14093755 0.88089991
0.095957011 0.14339052 0.88086647
0.0080922134 0.14634469 0.88386679
0.011075231 0.1485531 0.8807109
0.012469555 0.15269281 0.88254452
0.017091606 0.1539593 0.88039982
0.013309554 0.15672261 0.88366675
0.01732436 0.15728004 0.88179576
0.021691646 0.15823436 0.88049316
0.018827813 0.16131234 0.88480014
0.022480391 0.16129199 0.88243335
0.026653185 0.16336767 0.88167989
0.093425572 0.16211706 0.88023329
0.027343849 0.16652288 0.88275337
0.030825973 0.16843303 0.88186663
0.09262576 0.16870508 0.8804332
0.032362174 0.17118731 0.88267505
0.035765931 0.17338564 0.8820222
0.092245772 0.17244709 0.88072187
0.037877999 0.17701623 0.88266671
0.041743591 0.17780434 0.88088322
0.04749297 0.17861962 0.88086647
0.053212807 0.17851599 0.8803553
0.058445584 0.1775254 0.88085538
0.063151695 0.17759363 0.88158089
0.068072602 0.17709507 0.88142955
0.072705388 0.17740762 0.88065702
0.077037849 0.1785588 0.88056642
0.089500688 0.1788494 0.88200003
0.091978811 0.17640862 0.88209939
0.042318206 0.18212046 0.88308096
0.046779945 0.18231888 0.88290375
0.051930435 0.18172094 0.88299173
0.058022123 0.18174213 0.88276106
0.063059039 0.18212594 0.88285559
0.06816414 0.18225792 0.88261116
0.073126704 0.1823203 0.88291115
0.078023724 0.18222052 0.88242966
0.082909226 0.18231168 0.88187909
0.087673545 0.18197162 0.8822208
0.048536222 0.18602179 0.88490015
0.067495942 0.18596923 0.88465011
0.073274903 0.18597974 0.88470012
0.079847746 0.18591668 0.88440013
0.083108462 0.18583262 0.88400006
0.087206483 0.18578008 0.88375008
0.06508524 0.10214321 0.88551927
0.066548608 0.10703383 0.88850385
0.063443124 0.11204286 0.88565004
0.065923825 0.1126588 0.88790655
0.063434765 0.11532264 0.88553333
0.066904992 0.11725894 0.88772523
0.072028123 0.11806908 0.88967872
0.075326681 0.11914106 0.88944447
0.067254588 0.12086017 0.8868832
0.071675539 0.12243915 0.8878749
0.076584816 0.12333097 0.88863993
-0.0042838911 0.1278528 0.88675004
0.073341914 0.1257519 0.8855111
0.077058487 0.12599735 0.88646662
0.081134669 0.12698472 0.88645428
-0.0029622419 0.13232698 0.88689214
0.084028244 0.13006966 0.88500011
-0.0023004669 0.13661204 0.8868624
0.00067634915 0.13751411 0.88523215
-0.00097890582 0.1422535 0.88912499
0.0020940951 0.1423693 0.88689983
0.0056307483 0.14496246 0.88546675
0.0028874429 0.1465542 0.88845617
0.006877942 0.14806207 0.88676655
0.0077759661 0.1517636 0.88808554
0.010586562 0.15404528 0.88559997
0.0081382412 0.15708381 0.88881111
0.011912195 0.15856376 0.88599986
0.015531002 0.15970249 0.88500017
0.0081460727 0.16054064 0.88964486
0.012275057 0.16195878 0.88834655
0.016882049 0.1626332 0.88661319
0.0221464 0.16391999 0.88555002
0.094920911 0.16492656 0.8865332
0.01394215 0.16537304 0.8889333
0.017249934 0.16695899 0.88857025
0.022175485 0.16743512 0.88671643
0.026689099 0.16928034 0.88558334
0.094932817 0.16824615 0.88664418
0.097079501 0.16714601 0.887371
0.018921439 0.17121217 0.88920003
0.022220353 0.17190491 0.88850468
0.027151316 0.17247778 0.88719988
0.03175313 0.17412254 0.88633317
0.094938755 0.1732053 0.88669997
0.096707024 0.1709328 0.8877517
0.023346826 0.17592086 0.88931113
0.027205236 0.1769515 0.8889482
0.032356214 0.17780909 0.88733321
0.035810173 0.17852288 0.88648313
0.093113214 0.17837374 0.88506681
0.095062651 0.17838553 0.88785726
0.028878152 0.18034996 0.88940012
0.032180082 0.18164247 0.88897783
0.037333809 0.18282543 0.88764751
0.040322423 0.1837261 0.88573337
0.052682117 0.1844452 0.88523346
0.055740278 0.18400061 0.88573331
0.060966261 0.1845355 0.88566661
0.089805119 0.18439658 0.88500017
0.09226428 0.18271583 0.88642657
0.095731564 0.18080877 0.8889429
0.033859458 0.18534108 0.8895334
0.037147306 0.1860216 0.88883334
0.042226866 0.18784694 0.88671237
0.046750829 0.18816118 0.88624984
0.051939532 0.18803841 0.88664418
0.056940224 0.18817189 0.88727397
0.061928183 0.18742035 0.88762206
0.066548452 0.18840554 0.88615233
0.071950354 0.18773268 0.8861708
0.077658281 0.1877314 0.88630468
0.082502507 0.18880187 0.88635546
0.087437324 0.18847264 0.88609987
0.09179382 0.18714251 0.8882665
0.042544454 0.19184858 0.88901663
0.047056358 0.19248424 0.88813311
0.052038535 0.19252776 0.88833326
0.057070732 0.19273692 0.88930011
0.062025081 0.19019113 0.889
0.067422263 0.19228356 0.8891167
0.07198704 0.19235501 0.88917148
0.076944463 0.19156259 0.88896662
0.081926979 0.1926865 0.88906664
0.086887568 0.19265521 0.88892221
0.090784431 0.19078533 0.88919991
0.047113895 0.19602579 0.88921112
0.051757097 0.195858 0.88920003
0.055413865 0.19522545 0.88933343
0.067963079 0.11269063 0.89076674
0.071745478 0.11759847 0.89029348
0.07372494 0.12088918 0.8901335
0.077079557 0.12149511 0.89052981
0.0012353853 0.14877489 0.89186209
0.0028999923 0.15221801 0.89259464
0.0056623304 0.15322962 0.89043349
0.0040212777 0.15814169 0.89479822
0.0056696082 0.15757212 0.89157802
0.0073396093 0.16215305 0.8924458
0.011500778 0.16439173 0.89258349
0.013435 0.16759545 0.89195567
0.017038148 0.1725719 0.89195013
0.020601416 0.17387539 0.89013344
0.018347269 0.17753886 0.89356697
0.02173282 0.1779449 0.89116126
0.022679739 0.18185763 0.89355361
0.027086224 0.18271729 0.89186269
0.031409934 0.18391694 0.89065027
0.09653151 0.1834826 0.8912223
0.028476587 0.18685885 0.8941558
0.032305725 0.18761317 0.8924669
0.036825418 0.18856309 0.89107525
0.093730375 0.18811879 0.89093351
0.096161515 0.18756703 0.89422518
0.033210352 0.19134639 0.89440024
0.037736669 0.19145578 0.89296699
0.041159607 0.19359107 0.89196688
0.062150538 0.19306202 0.89080018
0.06629388 0.19386137 0.89066684
0.076215208 0.19374529 0.89013338
0.092631139 0.19283146 0.8910113
0.096085533 0.19323561 0.89352041
0.042746045 0.19723697 0.89201444
0.04721576 0.19893587 0.89113355
0.052647404 0.19863726 0.89165026
0.057449598 0.19767191 0.89196688
0.062312499 0.19772099 0.89312619
0.067166194 0.19729945 0.89122611
0.072118163 0.19720311 0.89079273
0.077103049 0.19720553 0.89080387
0.082104251 0.1972459 0.89098549
0.087089069 0.19724569 0.89098537
0.092198007 0.19750999 0.892178
0.096638955 0.19696458 0.89221817
0.043205623 0.20126894 0.89413351
0.047334608 0.20109637 0.89336699
0.0523859 0.20130147 0.89427805
0.057401732 0.20134023 0.89445013
0.064103343 0.20143403 0.89486682
0.067750312 0.20153084 0.89345038
0.072290957 0.20182784 0.89292258
0.077516071 0.20216072 0.89281929
0.082312793 0.20273358 0.89325207
0.087257266 0.20261024 0.89270759
0.092381716 0.20206194 0.89396143
0.095727488 0.20208627 0.89406687
0.084111787 0.20638174 0.89466679
0.086595148 0.20633557 0.89446688
0.0023601844 0.15699226 0.89773339
0.0040330994 0.16194531 0.89742863
0.0057054139 0.16357453 0.89720845
0.0090566473 0.16532795 0.89766675
0.011276682 0.16794483 0.89677781
0.013071528 0.17230645 0.89748019
0.01409533 0.17722084 0.89870024
0.016150804 0.1776236 0.89651674
0.017748438 0.18222985 0.89702672
0.022401825 0.18413372 0.89573336
0.019117216 0.18718974 0.89840025
0.022221293 0.18708476 0.89689589
0.026300892 0.18775328 0.89577776
0.030758927 0.18999369 0.89586663
0.097699933 0.18853745 0.8968668
0.022814663 0.19130148 0.8988803
0.027455948 0.19193681 0.89715564
0.032044519 0.19310781 0.89678341
0.037438083 0.1938628 0.89577788
0.098059304 0.19217445 0.89632612
0.028627733 0.19621098 0.89890033
0.032762598 0.19674937 0.89844793
0.03727242 0.19708064 0.89683348
0.040757939 0.19820067 0.89530021
0.099407554 0.1952794 0.89718187
0.038025349 0.20198883 0.89839071
0.042189356 0.20283799 0.89616674
0.047025621 0.20364001 0.89541662
0.05246738 0.20328015 0.8956666
0.057484616 0.20288283 0.89575005
0.062178276 0.20268635 0.89598674
0.067491367 0.20380525 0.89553332
0.072510168 0.20493861 0.89563334
0.076651856 0.2048471 0.89523333
0.090907842 0.20499198 0.89586663
0.097578309 0.20329909 0.89575005
0.039236639 0.20564033 0.89870006
0.042533956 0.20704977 0.89756209
0.047719672 0.2070584 0.89669174
0.052547414 0.20692788 0.89702976
0.057596002 0.20703399 0.89748913
0.062671468 0.20700404 0.89826685
0.067422882 0.20722173 0.89740008
0.072591953 0.20731585 0.89664763
0.077534579 0.20747411 0.89578891
0.082202479 0.20761552 0.89568007
0.087959304 0.2078505 0.89561665
0.092915632 0.20715252 0.89710009
0.096712828 0.2060497 0.89805478
0.044283777 0.21158238 0.89908355
0.047948126 0.21130601 0.89862013
0.052627504 0.21142112 0.89840025
0.057676949 0.2113355 0.89874685
0.067756809 0.21074165 0.89906693
0.072976194 0.21178766 0.89843363
0.077725373 0.21216191 0.89799649
0.082724981 0.21209794 0.89772618
0.087727815 0.21204941 0.89751881
0.092432335 0.21102661 0.89850026
0.0091024535 0.16952068 0.90220696
0.0091237407 0.17244084 0.90431672
0.01077384 0.17269807 0.90126681
0.011622059 0.1778608 0.90194464
0.013485943 0.18273732 0.90282667
0.015810609 0.18352729 0.90093356
0.017101932 0.18764162 0.90258342
0.01921723 0.1923676 0.90309995
0.022117987 0.1940607 0.90120858
0.023003766 0.19696751 0.90300834
0.027034312 0.19849409 0.90167242
0.031766787 0.19941083 0.90076697
0.028776618 0.2022745 0.90357774
0.032906443 0.20265277 0.90240955
0.035975628 0.20364931 0.90098351
0.032735009 0.20523964 0.90429997
0.037704799 0.20783734 0.90218908
0.041012868 0.20949551 0.90090024
0.062806495 0.20933273 0.90020025
0.097621858 0.20902763 0.90128917
0.038619153 0.21102265 0.90384996
0.042746671 0.21269752 0.90204179
0.04731591 0.21411437 0.90094185
0.052766468 0.21449125 0.90076703
0.057816435 0.21411037 0.90092522
0.062884144 0.21294574 0.90131503
0.067902289 0.21370631 0.90098923
0.072076127 0.21446344 0.90065032
0.093469709 0.21393208 0.90123367
0.09717866 0.21263492 0.90236688
0.043672346 0.21605009 0.90378332
0.048206575 0.2174865 0.90346003
0.052909628 0.21759449 0.90321112
0.057956684 0.21757145 0.9031167
0.063024186 0.21762216 0.90332776
0.067996405 0.21735996 0.90223891
0.073222481 0.21753316 0.90146697
0.077992119 0.21791822 0.9010781
0.083053298 0.21796848 0.90128547
0.088089056 0.21795128 0.90121514
0.092484005 0.21756521 0.90309173
0.095666818 0.21694349 0.90399998
0.007451707 0.16856359 0.90608352
0.0074696541 0.17234927 0.90826589
0.0074598547 0.17724074 0.90736318
0.0074674841 0.18246204 0.90814465
0.010829831 0.18286364 0.90595013
0.0080411136 0.18715554 0.90906149
0.01232003 0.18748568 0.90690863
0.015889 0.18864712 0.9054001
0.013035415 0.19239314 0.90831935
0.016578538 0.19251943 0.90618676
0.014263939 0.19710416 0.90945005
0.01761101 0.1974608 0.90720028
0.021807235 0.19882917 0.90575004
0.018763779 0.20164926 0.90833372
0.022689449 0.20254725 0.90730393
0.026591146 0.20330358 0.90566677
0.024423286 0.20710677 0.90880024
0.027780673 0.20771557 0.90776324
0.032577373 0.20793834 0.9066335
0.029535113 0.21152632 0.90963346
0.032893468 0.21215595 0.90870577
0.037339833 0.21314599 0.90692252
0.041222293 0.21393402 0.90550011
0.098625898 0.21221834 0.90536672
0.039247379 0.21763691 0.90865028
0.042400997 0.21814232 0.90665579
0.046288598 0.21898717 0.90550011
0.0057881698 0.16933355 0.91022229
0.0041020182 0.17320283 0.91276425
0.0057921731 0.17283905 0.91085172
0.0040993332 0.17733036 0.91216671
0.0041035274 0.18175875 0.91310012
0.0063574961 0.18919837 0.91075802
0.0086318152 0.19223095 0.91174549
0.010880232 0.19387284 0.91016674
0.0083600236 0.19535539 0.9131391
0.01205485 0.19769187 0.9134717
0.013907911 0.20190524 0.91395009
0.017262571 0.20339322 0.91109997
0.018017223 0.20731324 0.91343337
0.021957278 0.20783193 0.91198337
0.018608047 0.21097231 0.91456699
0.02305291 0.21217069 0.91331267
0.027536105 0.21283153 0.91087329
0.024584522 0.21613118 0.91480035
0.0075253961 0.19406071 0.91504353
0.0092558581 0.19882986 0.91741198
0.0109409 0.19921023 0.9152416
0.009265827 0.20160612 0.91839993
0.011821467 0.20308453 0.9173584
0.012685825 0.20695435 0.91812778
0.016061271 0.20856857 0.91521692
0.013981039 0.21151201 0.91875827
0.017788356 0.21308117 0.91632015
0.021176932 0.21447644 0.91500038
0.0093045039 0.20416313 0.9222334
0.0093181264 0.20703937 0.92358339
0.011010136 0.20903736 0.92103332
0.0076357904 0.20899735 0.92846674
