# .PCD v0.7 - Point Cloud Data file format
VERSION 0.7
FIELDS x y z
SIZE 4 4 4
TYPE F F F
COUNT 1 1 1
WIDTH 1232
HEIGHT 1
VIEWPOINT 0 0 0 1 0 0 0
POINTS 1232
DATA ascii
0.018961258 0.063258782 0.81926686
0.022223929 0.062899522 0.81884778
0.026400456 0.062663794 0.81896681
0.018579798 0.06669049 0.81930017
0.02198679 0.066978484 0.81815559
0.026379637 0.066799715 0.81830013
0.022229303 0.071186595 0.81904781
0.025724711 0.072067544 0.81916207
0.013949719 0.059287634 0.82408887
0.017712142 0.058402948 0.82334155
0.022295497 0.058343459 0.82249981
0.027451923 0.058108166 0.82187766
0.032866143 0.058195233 0.82309628
0.036003429 0.058304995 0.82464463
0.013678259 0.06279745 0.82319999
0.017028989 0.062397502 0.82082838
0.021292765 0.061087072 0.82079989
0.02932876 0.062230013 0.82076651
0.032847267 0.062752798 0.82261479
0.036003429 0.06290736 0.82464463
0.014445875 0.066622674 0.82316667
0.016554531 0.067529723 0.82115972
0.029329998 0.067575894 0.82079977
0.031979453 0.067149393 0.82398683
0.017834119 0.072063416 0.82214803
0.021746185 0.074198842 0.82058656
0.028592806 0.072610497 0.82160813
0.0175383 0.075138651 0.82419997
0.022633322 0.077597499 0.82316661
0.02673162 0.07724195 0.82326663
0.018030735 0.053612903 0.82918352
0.022270631 0.053581484 0.82870018
0.027663119 0.05393476 0.8282001
0.033444311 0.053530686 0.82791674
0.037707273 0.053169385 0.82828903
0.041589878 0.053967327 0.82870018
0.0099023879 0.057797216 0.82836682
0.012629862 0.05711117 0.82713342
0.017208405 0.055765361 0.82679999
0.021816168 0.055719554 0.8261168
0.027575811 0.055301212 0.82560015
0.032959923 0.055290792 0.82544452
0.038121473 0.057382889 0.82610363
0.042354982 0.057038266 0.82852608
0.0095863808 0.061916851 0.82781327
0.011413369 0.063004769 0.8259111
0.038381409 0.06302391 0.82616663
0.041324165 0.061920386 0.82853347
0.0099091614 0.067089356 0.82893366
0.012521465 0.067883328 0.8265239
0.034132861 0.067996919 0.82590002
0.037687339 0.067770995 0.8278296
0.013750345 0.072366484 0.82755566
0.01601669 0.073676929 0.82500017
0.033013001 0.072294384 0.82673335
0.036716755 0.071479514 0.82917809
0.014033161 0.076094635 0.82904464
0.017383641 0.077406578 0.827362
0.021165596 0.079381101 0.82580012
0.02866536 0.078676112 0.82591999
0.032137036 0.07672298 0.82804507
0.018665899 0.081980817 0.82877797
0.022225223 0.083090231 0.82703704
0.027190324 0.082865484 0.82786673
0.022475017 0.087733842 0.82912529
0.026407896 0.087418973 0.82918912
0.023845891 0.09107773 0.82973361
0.0387761 0.049697947 0.83466661
0.042661872 0.049691331 0.83455545
0.047356535 0.049717795 0.83499974
0.008097427 0.053974349 0.83357322
0.013252054 0.052861638 0.83256018
0.017401544 0.051727198 0.83235997
0.022372914 0.051734198 0.83247995
0.027044157 0.051915269 0.83289999
0.032123566 0.051768746 0.83231431
0.037802394 0.050987247 0.83037788
0.042686049 0.052109964 0.83069533
0.047266893 0.052721865 0.83339256
0.050990205 0.051788833 0.83499974
0.0037519431 0.057474684 0.83486646
0.0071539409 0.057147466 0.83236665
0.04724079 0.057341941 0.83292592
0.0037522428 0.061362434 0.8349331
0.0066539594 0.062182352 0.83290827
0.043641057 0.062230811 0.83096665
0.046142589 0.061694674 0.83416659
0.0081862686 0.067350976 0.83354276
0.042428985 0.067361973 0.83335549
0.0099681346 0.072142355 0.83386648
0.011483081 0.072663628 0.83095551
0.038183264 0.073057525 0.83191997
0.041897826 0.071449205 0.83483309
0.013046796 0.077774569 0.83190006
0.034383774 0.077782378 0.8319667
0.036794551 0.077182218 0.83384991
0.013844962 0.08216431 0.8332445
0.016527554 0.082365602 0.83136666
0.032231007 0.082147203 0.83308148
0.01463716 0.08534731 0.83406663
0.0179138 0.087152399 0.83278328
0.020794319 0.089721315 0.83146656
0.028003415 0.089117736 0.83064443
0.031290427 0.086636864 0.83367604
0.018279143 0.091099262 0.83464414
0.022382569 0.092973337 0.83287621
0.026844336 0.092763543 0.83272505
0.030210711 0.090832479 0.83456647
0.013151068 0.049929511 0.83855557
0.017834272 0.049903039 0.83811122
0.02252689 0.049130246 0.8382445
0.027393151 0.048510477 0.83764994
0.032185353 0.048453953 0.83735991
0.03724128 0.04809412 0.83766663
0.043047078 0.047207169 0.83772379
0.04751933 0.046769794 0.83787405
0.051961288 0.048475791 0.83704162
0.055953909 0.049457658 0.83937788
-0.0015502017 0.053398252 0.83914673
0.0021989099 0.052934468 0.83676291
0.0073235743 0.052019455 0.83634287
0.011549103 0.051316097 0.83573335
0.052640822 0.053434681 0.8364554
0.05580388 0.052692495 0.83908349
-0.0017058257 0.05773126 0.83858901
0.0014177855 0.057563633 0.83615541
0.051685911 0.057374772 0.83663797
0.055455562 0.056247924 0.83973342
-0.00092367042 0.062438607 0.8389557
0.0017534703 0.062507607 0.83689529
0.048370149 0.062556997 0.83635998
0.051316489 0.062102448 0.83862674
0.0027243271 0.066545703 0.83826667
0.0057070148 0.06728784 0.83618319
0.044323198 0.068482466 0.83653331
0.046575047 0.066712767 0.83774674
0.0037747121 0.070323244 0.83993322
0.0073546791 0.0726142 0.83752668
0.039576415 0.074581876 0.83513314
0.0431839 0.07320147 0.83710825
0.046036929 0.071834959 0.83933336
0.0092220977 0.076290391 0.83683318
0.010778432 0.078592665 0.83648336
0.039041203 0.078175656 0.83701336
0.042334724 0.077468701 0.83834457
0.046069853 0.07501056 0.83993328
0.010799274 0.082640775 0.83807778
0.034912199 0.083146155 0.83533305
0.038128126 0.082582906 0.83749634
0.013381295 0.087171584 0.83668882
0.016212119 0.088556424 0.83506638
0.034330521 0.087446332 0.83633327
0.037230067 0.087038875 0.83840007
0.01418791 0.090967678 0.83819991
0.017540002 0.092860691 0.8365221
0.020901019 0.094845571 0.83573306
0.028692003 0.094838008 0.83566642
0.032048568 0.092438735 0.83680832
0.035454579 0.091700032 0.8389501
0.018371405 0.097021051 0.83885556
0.022491381 0.098098405 0.83694804
0.027173014 0.098088354 0.83686656
0.031406697 0.097011454 0.83877784
0.023171632 0.10238961 0.83894682
0.027048316 0.10283293 0.8390584
0.02900329 0.044011891 0.84473342
0.030576317 0.044008419 0.84466678
0.037675545 0.044020571 0.84489995
0.043140676 0.043970212 0.8439334
0.047839519 0.043555539 0.84351623
0.052352622 0.042947423 0.84441108
0.056846458 0.043496042 0.84488875
0.062892549 0.044024047 0.84496653
0.065253831 0.044022311 0.84493321
0.0022191054 0.048704188 0.84435552
0.0069343713 0.047856554 0.84326679
0.012426107 0.047805987 0.84238333
0.017919004 0.047789652 0.84209996
0.022974951 0.046440482 0.84320003
0.026951876 0.045835666 0.84216666
0.032080013 0.045476526 0.84275562
0.037549708 0.04596163 0.842089
0.042218655 0.04539438 0.84123325
0.052809842 0.045785271 0.84123325
0.057414606 0.04683926 0.84262496
0.062007818 0.04709325 0.84365201
0.066313602 0.047342896 0.84409523
-0.006317473 0.05286818 0.84279287
-0.0031710623 0.051721968 0.84239042
0.0022153717 0.050180916 0.84277803
0.0069150385 0.05007109 0.84093326
0.010042249 0.050019484 0.84006661
0.058194622 0.052981194 0.84158891
0.061999545 0.051796164 0.84353346
0.066561304 0.05162945 0.844028
-0.0067668152 0.057790559 0.84270483
-0.0040605119 0.057864059 0.84051102
0.053947181 0.058654271 0.84063315
0.057243716 0.058033884 0.84298092
0.060531147 0.055028804 0.84499991
-0.0067757899 0.062583052 0.84391052
-0.0032815386 0.062628753 0.84151107
0.053673863 0.063093327 0.84248322
0.056142215 0.062434241 0.84416676
-0.0061792745 0.066510178 0.84441859
-0.0023026813 0.067177318 0.84210837
0.0011652458 0.068321526 0.84093314
0.048867662 0.067667484 0.84089988
0.05170444 0.067396797 0.84240013
-0.0014548035 0.071217448 0.84435552
0.0020190636 0.072364308 0.84322494
0.0053445902 0.073494762 0.8404665
0.048534427 0.072055303 0.84191114
0.051657408 0.071937211 0.84419996
0.0037932866 0.076165646 0.84406674
0.0067263287 0.077928089 0.8419084
0.044050451 0.079300724 0.84124446
0.047774963 0.076794796 0.84236205
0.051067512 0.075451143 0.84486651
0.0078791827 0.082850084 0.84338677
0.042895019 0.082923882 0.84293342
0.046291068 0.080866262 0.84396678
0.010698615 0.088089392 0.84248
0.039464209 0.088016301 0.84103334
0.04196056 0.087532662 0.84391671
0.012902987 0.092829138 0.84284008
0.038333766 0.092426307 0.84201914
0.040034518 0.094303057 0.84479994
0.014426012 0.097017348 0.84448326
0.016863856 0.098133802 0.84171104
0.033051029 0.098029852 0.84082204
0.036790811 0.097198509 0.84264445
0.017924208 0.10186858 0.84238094
0.021819554 0.10406233 0.84111655
0.028870534 0.1048132 0.84086651
0.032028075 0.10253222 0.84140003
0.036648206 0.10185438 0.84389174
0.018903036 0.10645808 0.84398681
0.022621917 0.10806327 0.84180743
0.027326997 0.10803771 0.84160739
0.032255474 0.10793507 0.84325349
0.035286468 0.10681114 0.844289
0.019550668 0.11000928 0.84473324
0.022873938 0.11303457 0.84385008
0.027196407 0.11281134 0.84365016
0.030569077 0.11154544 0.84446663
0.02323211 0.11684626 0.84493321
0.025860589 0.11633151 0.84499991
0.04783212 0.038926553 0.84806126
0.052933071 0.0382271 0.84589297
0.057456762 0.039362852 0.84613174
0.062163327 0.03934592 0.84576792
0.0030248733 0.044255003 0.84940016
0.0073722694 0.043806382 0.84836698
0.012518969 0.043423809 0.84860855
0.01806313 0.043436464 0.84885579
0.022798399 0.043410063 0.84834462
0.027189976 0.043190259 0.84713334
0.032554321 0.043181401 0.84695995
0.037002578 0.042577393 0.84749335
0.04228051 0.042062752 0.84771127
0.047976956 0.041556444 0.8459388
0.053214978 0.041435368 0.84559995
0.057692852 0.041966289 0.84574443
0.061910536 0.042024139 0.84539276
0.066573009 0.042802595 0.84566557
-0.0056679533 0.048825968 0.84646678
-0.0022892379 0.047776688 0.84783357
0.0022257001 0.046487693 0.84691125
0.0069545782 0.045636024 0.84571117
0.012476105 0.045635425 0.84570003
0.017998913 0.045643222 0.84584433
0.021134436 0.04560126 0.84506649
-0.010385939 0.053456962 0.84500003
-0.0082979714 0.051966965 0.84633344
-0.010385939 0.055814754 0.84500003
-0.0088192709 0.057709787 0.84588891
0.058987778 0.059777383 0.84546649
0.062233754 0.057505034 0.84672004
0.066778265 0.056523949 0.84677857
-0.010385939 0.061316274 0.84500003
0.058456004 0.063345432 0.84689343
0.06237784 0.061582856 0.84867346
0.065570466 0.060029592 0.84903347
-0.0067252852 0.068814039 0.84698892
-0.0040828623 0.069186881 0.84513789
0.054314408 0.067713313 0.84635562
0.056626506 0.067519367 0.84788018
-0.0056860321 0.071096301 0.84916663
-0.0030400269 0.073021062 0.84705883
0.054029144 0.072973922 0.84805012
0.056111526 0.071138181 0.84966683
-0.001461726 0.076295249 0.84842253
0.0019633051 0.077231541 0.84714454
0.049507435 0.078619167 0.84513319
0.052155584 0.077549495 0.84717351
0.0034180435 0.081714623 0.84870023
0.0053848638 0.081926577 0.84679991
0.044817723 0.084981292 0.84586662
0.048493113 0.08217527 0.84705722
0.051341508 0.081386447 0.84940016
0.0074176677 0.087146297 0.84725708
0.044092376 0.088252842 0.84706682
0.047188289 0.086537063 0.8487736
0.0085690096 0.092439666 0.84933358
0.01051774 0.093352817 0.84686673
0.04334094 0.09253516 0.8478002
0.045019072 0.094846331 0.84966671
0.01197246 0.097748347 0.84742236
0.041282348 0.097506486 0.84727639
0.01435829 0.10152546 0.84824473
0.016459323 0.1041004 0.8478002
0.038486287 0.10380571 0.84539986
0.040807344 0.10220148 0.84774685
0.017241508 0.10720913 0.84746683
0.037740957 0.10707265 0.84635544
0.040232506 0.10740436 0.84897804
0.018819025 0.11191972 0.84729993
0.021134438 0.1131967 0.84506649
0.029014735 0.11476869 0.84506649
0.032194532 0.1130299 0.84577769
0.03648866 0.11146163 0.84780556
0.019634502 0.11679465 0.84835583
0.02248065 0.11861602 0.84634441
0.027671043 0.1182579 0.84612501
0.032277592 0.11673818 0.84795249
0.0233387 0.12264665 0.84881139
0.027106803 0.12294158 0.84877163
0.030725939 0.12001244 0.84880042
0.026794635 0.12645224 0.84963346
0.047629051 0.034956928 0.85385001
-0.0083435168 0.039061647 0.85100001
0.0086241616 0.039766088 0.85480022
0.013396631 0.039736118 0.85415572
0.018182859 0.039751623 0.85448903
0.02374975 0.039733533 0.85410011
0.027732303 0.039734051 0.85411119
0.032511171 0.039734054 0.85411119
0.037262488 0.039705619 0.85350007
0.042018432 0.038892496 0.85310555
0.046720684 0.037250023 0.85181022
-0.0070298021 0.042819757 0.85225797
-0.0025322973 0.04288812 0.85367519
0.0020141918 0.042380691 0.8525905
0.0066871033 0.04184306 0.85177994
0.012565136 0.041211449 0.85180825
0.018124901 0.041209977 0.85177773
0.022873938 0.041179333 0.85114431
0.027622079 0.041158903 0.85072225
0.032380823 0.041157294 0.85068893
0.036327735 0.041135252 0.85023355
-0.0065031908 0.046782538 0.85227275
-0.0033160932 0.045895342 0.85051668
-0.0088725593 0.063334681 0.85100001
0.062542938 0.063856483 0.85092229
0.066773996 0.062161911 0.85226345
-0.0088725593 0.068083748 0.85100001
0.058999959 0.068506613 0.85132498
0.062205136 0.066965036 0.85355002
-0.0066628577 0.073265299 0.85235959
0.057881866 0.072950535 0.8523761
-0.0062417383 0.07722833 0.85291666
-0.0030558414 0.078171112 0.85165554
0.00065009278 0.079152495 0.85086656
0.054679509 0.077679016 0.8520444
0.057025157 0.077524826 0.8538534
-0.0015767969 0.082267165 0.85361338
0.0012859822 0.082742438 0.85196668
0.053082943 0.082416996 0.85189998
0.0026957563 0.08706969 0.85311431
0.0054089227 0.087828711 0.85058343
0.049446508 0.087462306 0.85086662
0.052363183 0.087298475 0.85312778
0.0038391268 0.090592518 0.8542667
0.0067407973 0.092200041 0.85198897
0.047825594 0.091630198 0.85125238
0.050829221 0.092163622 0.85409999
0.0078123314 0.096835248 0.85326672
0.010180721 0.099029467 0.85165
0.04347191 0.098882787 0.85039997
0.046552718 0.097124204 0.85232496
0.050042436 0.095359795 0.85426682
0.012455733 0.10328118 0.85219526
0.043093394 0.10327618 0.85074991
0.045854818 0.10225012 0.85341388
0.014580134 0.10758046 0.85350835
0.0165166 0.10841933 0.85074997
0.042785164 0.10784923 0.85249448
0.01498931 0.11123344 0.85413343
0.0165556 0.11296815 0.85283327
0.038212255 0.11346395 0.85100001
0.040812086 0.11225187 0.85280836
0.017760478 0.11708729 0.85336673
0.033965189 0.11868937 0.85063338
0.037212893 0.11733831 0.85230744
0.040505242 0.11687652 0.85473347
0.019730162 0.12212235 0.85248899
0.021281162 0.12347994 0.85093319
0.029190984 0.1241643 0.85019994
0.032601293 0.12214053 0.85124582
0.036322869 0.1219952 0.85383338
0.022880387 0.12671779 0.8514142
0.027635096 0.12852229 0.85112768
0.032259937 0.12671193 0.85270417
0.03570905 0.12557234 0.8544001
0.023739211 0.13023862 0.85373342
0.027730936 0.13214628 0.85408348
0.030929871 0.13114055 0.85443342
0.051854491 0.15242681 0.85459173
0.053266272 0.15585503 0.8548668
0.064386442 0.15814151 0.8543334
0.067249432 0.15828812 0.85426676
0.064371377 0.16207682 0.85413343
0.067552753 0.16206549 0.85407412
0.067586608 0.16572286 0.85450017
0.039147906 0.033606324 0.8599335
0.042310935 0.032429416 0.85904181
0.045892149 0.032925531 0.85610485
-0.005731788 0.039821923 0.85600001
-0.0023143028 0.038736787 0.85718745
0.0022543862 0.039087228 0.85738021
0.006735825 0.038945366 0.85777825
0.011449113 0.038692962 0.85746682
0.017784074 0.037599493 0.85721922
0.022793423 0.03780093 0.85662878
0.027831202 0.037482709 0.85715574
0.032619257 0.037474129 0.85695571
0.037625488 0.036886372 0.85721672
0.042215914 0.035887238 0.85711116
0.045328125 0.035820022 0.85550022
-0.0057250923 0.041365869 0.85500002
0.069301397 0.0637068 0.85600007
0.063941896 0.067912526 0.85548925
0.067759275 0.066945687 0.85667795
0.059708722 0.074835584 0.85580033
0.062956899 0.072245881 0.85654831
0.067681275 0.071429431 0.85858691
-0.0073225317 0.076385863 0.85533333
0.05934808 0.078468323 0.8563503
0.063100189 0.077202059 0.8585037
0.066358209 0.075934947 0.85923326
-0.0062845717 0.084148146 0.85877198
-0.0037401081 0.083293006 0.85681683
0.054907653 0.083572105 0.8556003
0.058218379 0.082943656 0.85732603
-0.0057568983 0.086376101 0.85975003
-0.0023189213 0.087400146 0.85858107
0.00065442245 0.088443466 0.85653353
0.05496328 0.086843118 0.85646677
0.056921292 0.08778403 0.85787779
0.0022541587 0.092574663 0.85790485
0.0054412461 0.093924396 0.855667
0.052929856 0.092752434 0.85586703
0.05567896 0.091658078 0.85928899
0.0038614469 0.096713483 0.85923344
0.0058470182 0.097627461 0.85673344
0.048540853 0.09872438 0.85588235
0.052026514 0.097506113 0.8574084
0.0072527295 0.10193632 0.85778749
0.010223953 0.10342625 0.85526681
0.048169993 0.10236564 0.85637522
0.050966609 0.10197158 0.85909337
0.008669897 0.10551658 0.85933322
0.011612347 0.10772879 0.85695255
0.047028974 0.10740364 0.85738522
0.050366599 0.10557388 0.85980016
0.012123148 0.11174682 0.85807794
0.015022069 0.11466121 0.8560003
0.043129586 0.11341222 0.85618675
0.046818879 0.111795 0.85844445
0.01347581 0.1158896 0.8592
0.015693599 0.11842079 0.85785353
0.042503286 0.11805192 0.85750002
0.046048697 0.11559898 0.85902232
0.017599005 0.12246878 0.85714662
0.038556457 0.12297808 0.85570025
0.04132203 0.12265315 0.85844004
0.019219998 0.12740231 0.85816014
0.021412881 0.12902223 0.85620022
0.034184795 0.12901218 0.85613364
0.037453085 0.12767272 0.85782862
0.040723249 0.12629741 0.8593334
0.019900912 0.13117427 0.85986686
0.023338024 0.13258168 0.85656011
0.029355789 0.13361278 0.85500014
0.033059936 0.13248391 0.85651439
0.037299961 0.13282546 0.85890836
0.041268334 0.13379151 0.85955566
0.024270244 0.13694696 0.85845006
0.027821686 0.13709372 0.85686684
0.032634418 0.13716757 0.85733336
0.037471697 0.13731721 0.85827404
0.042063724 0.1374833 0.85806662
0.047113061 0.1382232 0.85894448
0.050358787 0.13913956 0.85966682
0.024711898 0.14077143 0.8598668
0.028104065 0.1416928 0.85852379
0.032659024 0.14206403 0.85800749
0.037413552 0.14188915 0.85695583
0.042316768 0.14234264 0.85620022
0.047004264 0.14268613 0.85696679
0.051701117 0.14270425 0.85912383
0.034328543 0.14554738 0.85973346
0.037886769 0.14575808 0.85861659
0.04202532 0.1472872 0.85788572
0.04696257 0.14813882 0.85622251
0.051775187 0.14739977 0.85656685
0.057551205 0.14787568 0.85932499
0.061581805 0.14873439 0.85966676
0.043912683 0.15181892 0.8590222
0.046979476 0.15297386 0.85654092
0.053739339 0.15328045 0.85603356
0.057971284 0.1521339 0.85734373
0.063008316 0.1523028 0.85726118
0.067692898 0.15288934 0.85786664
0.072738715 0.15418933 0.85887784
0.08330863 0.1542563 0.85776907
0.085265905 0.15446933 0.85600007
0.043942221 0.15511897 0.85960007
0.047647487 0.15766855 0.85896677
0.05227375 0.15782174 0.85690689
0.057833046 0.15788743 0.85640031
0.062450271 0.15740366 0.85587651
0.068090707 0.15642916 0.85583365
0.072515309 0.15769866 0.8562448
0.077179454 0.15705767 0.8592751
0.081848383 0.15599941 0.85784996
0.05214021 0.16251387 0.85883808
0.057655338 0.16260172 0.85766065
0.062106729 0.16240376 0.85585594
0.072477154 0.16239153 0.85579294
0.075936742 0.16296744 0.85882229
0.059290111 0.1674722 0.85898674
0.062976278 0.16737358 0.8568446
0.067689382 0.1681243 0.85580033
0.072604083 0.16745955 0.85728157
0.059997104 0.17117554 0.8599335
0.063664541 0.17204231 0.85893339
0.067802377 0.17223459 0.85723704
0.071779683 0.17224991 0.85890663
0.069024615 0.17635299 0.85917783
0.033987824 0.027893519 0.86466485
0.03764566 0.028084293 0.8622908
0.04075484 0.028809648 0.86000001
0.0030748351 0.033728626 0.8630625
0.019178212 0.033743117 0.86343354
0.02278718 0.033320852 0.86291665
0.028344786 0.033084847 0.86304665
0.033047453 0.032317054 0.86291665
0.037388947 0.031845842 0.86100006
0.042358749 0.030409411 0.86000013
-0.0033527063 0.036808476 0.86000001
0.0022669879 0.036089316 0.86193818
0.0067795478 0.036316514 0.86353338
0.012241634 0.036277998 0.86262017
0.017047593 0.035592563 0.86155999
0.023136005 0.035245102 0.8608889
0.027951404 0.035244193 0.86086679
0.032741848 0.035215985 0.86017799
0.035943106 0.035208706 0.86000019
0.068916976 0.073702924 0.86116678
0.071394794 0.073774263 0.86200005
0.068642154 0.077212758 0.8620258
0.071560442 0.07635624 0.86400002
-0.0063112178 0.081854723 0.8626895
0.063121237 0.082147643 0.861525
0.066638097 0.081873164 0.86285555
-0.0067315586 0.088461131 0.86136067
-0.0033556777 0.089670241 0.86066687
0.058402404 0.089607723 0.86006671
0.061790161 0.087460898 0.86255842
0.065762304 0.086485431 0.86403447
-0.006584533 0.092340134 0.86317396
-0.0025578961 0.093039744 0.86221111
0.00065778405 0.094502479 0.8609333
0.057408858 0.093462341 0.86118889
0.061363641 0.091904819 0.86411685
-0.0073967273 0.099660732 0.86400002
-0.0022402382 0.097069576 0.8638221
0.0018048234 0.098001532 0.86151916
0.056768905 0.097701088 0.86265433
0.0032320668 0.102378 0.86252004
0.0054709218 0.10403896 0.8603335
0.053231873 0.10288876 0.86075014
0.056004327 0.10184029 0.86431128
0.0038822701 0.10607321 0.86386681
0.0068829204 0.1075871 0.86150837
0.052313562 0.10766514 0.86213338
0.0076326393 0.1118506 0.86297792
0.010288905 0.11288966 0.86070019
0.048789524 0.11283249 0.86026669
0.051367968 0.11240795 0.86314446
0.0087260623 0.11585339 0.86490017
0.011453082 0.11731104 0.8620953
0.047795903 0.11755104 0.86161661
0.013001573 0.12098283 0.86323339
0.015656918 0.12343728 0.86168891
0.043588951 0.12247195 0.86053348
0.046530765 0.12202112 0.86300009
0.016746398 0.12758736 0.86266667
0.039150942 0.12959486 0.86000019
0.042783637 0.1280185 0.86135554
0.045795579 0.12703101 0.86432242
0.018364683 0.13246875 0.86309439
0.021514583 0.13363597 0.86026686
0.039150942 0.13119461 0.86000019
0.042912621 0.13231884 0.86037785
0.047129463 0.13250494 0.86191505
0.051957052 0.13344234 0.86290014
0.021842569 0.13802803 0.86271685
0.043962672 0.13599396 0.86000019
0.047171742 0.13599747 0.86002237
0.052255396 0.13758312 0.86119175
0.056721717 0.13916223 0.86378014
0.060301762 0.13988943 0.86430013
0.077200241 0.13582286 0.86400002
0.023976449 0.14277129 0.86228341
0.027125681 0.14401516 0.86013353
0.052784167 0.14079328 0.86000019
0.056917563 0.14270136 0.86186665
0.06182266 0.14289218 0.86302227
0.066994704 0.14412484 0.86398906
0.02484123 0.14633182 0.86436683
0.028174821 0.14726171 0.86157084
0.032562315 0.1475174 0.8607251
0.03723697 0.148196 0.86025345
0.0568313 0.14568658 0.86055565
0.063107401 0.14701289 0.86103708
0.068214759 0.14760819 0.86243707
0.073136568 0.14780438 0.86358166
0.077997059 0.14866312 0.86390018
0.082295701 0.14795633 0.86312854
0.029260492 0.15229118 0.86396682
0.032826371 0.15241508 0.86239266
0.037630759 0.15233232 0.86192584
0.041565746 0.15202524 0.86018902
0.068858355 0.15046762 0.86043346
0.0729682 0.15147074 0.8615889
0.077804305 0.15230209 0.86176294
0.082393989 0.15204586 0.86144513
0.03288734 0.15671797 0.86400574
0.037871577 0.1571077 0.86283344
0.042223651 0.15723805 0.86135
0.04637029 0.15919665 0.86003351
0.078452766 0.15680295 0.86006683
0.081683785 0.15844721 0.8603071
0.043034818 0.16159046 0.86284447
0.047001746 0.16225789 0.86111432
0.051186115 0.16480887 0.86010015
0.055228554 0.16490467 0.86060017
0.078486443 0.16167216 0.8604334
0.08240474 0.16208261 0.86155075
0.047877431 0.16645692 0.8631112
0.052247025 0.16799954 0.86107504
0.056592211 0.16818656 0.86101121
0.077843517 0.16734713 0.86218524
0.082838126 0.16695912 0.86398077
0.086898342 0.16722143 0.86430007
0.049040955 0.17051582 0.8647002
0.052467447 0.17205106 0.86272001
0.056925125 0.17238905 0.86200011
0.061362546 0.17396982 0.8610934
0.074073419 0.17327613 0.86043346
0.077302516 0.17217326 0.8633334
0.053835385 0.17519946 0.8640002
0.057324991 0.1768024 0.86397797
0.062874325 0.17768332 0.86201346
0.06754563 0.17827816 0.86075568
0.072804585 0.17780617 0.86202508
0.076424032 0.17607129 0.86433351
0.062221564 0.18132773 0.86410028
0.067453772 0.18302631 0.86300832
0.072713718 0.1814878 0.86333346
0.071634963 0.18503518 0.86490017
0.022553258 0.029123427 0.86936653
0.029851353 0.027507745 0.8694334
0.031914067 0.028498242 0.86676687
0.0038929805 0.032241803 0.86625004
0.0069369907 0.032510653 0.86809534
0.011994209 0.032304641 0.86797786
0.016638855 0.032084122 0.86747783
0.02262835 0.031376712 0.867818
0.027784113 0.031102013 0.86818343
0.031381145 0.030653395 0.86690015
0.0087307701 0.035428423 0.86536688
0.010345886 0.035432518 0.86546689
0.071726091 0.078949384 0.866
0.068521053 0.083007812 0.86631823
0.070110999 0.080560304 0.866
0.068033077 0.088175632 0.8669607
-0.0065986705 0.09494888 0.86500001
0.063128166 0.092933357 0.86621124
0.0668265 0.091837861 0.86790377
-0.0066133719 0.097579159 0.86692047
-0.0029723742 0.099471115 0.86584646
0.058805276 0.099891447 0.86600018
0.062153015 0.096581005 0.86761683
0.065486766 0.095380634 0.86893332
-0.001496709 0.10236654 0.86877567
0.0012002924 0.10319975 0.86673355
0.057570029 0.10353534 0.86684
0.060652956 0.1002759 0.86933333
0.0022798954 0.1073938 0.86806113
0.05671658 0.10730394 0.86862671
0.0039052393 0.11316791 0.86897779
0.0060548908 0.11404438 0.86745566
0.053993542 0.11284982 0.86653847
0.055795848 0.11403511 0.86944002
0.007407641 0.11788929 0.86804444
0.052425873 0.1177917 0.86731863
0.05580185 0.116474 0.8695333
0.0087694442 0.12208878 0.86919999
0.011443005 0.12314227 0.86712784
0.049080025 0.12235835 0.86538905
0.052511547 0.12283295 0.86874819
0.055814687 0.12459011 0.86973327
0.012463766 0.12741758 0.8685239
0.015197268 0.12808044 0.86598349
0.048307616 0.12727733 0.86600018
0.052499428 0.12765144 0.86854815
0.055774752 0.1277342 0.86911106
0.013634745 0.13181013 0.86933327
0.015634576 0.13279881 0.86786675
0.049074993 0.13039355 0.86530024
0.052786369 0.13099565 0.86662513
0.057160314 0.13303629 0.86904758
0.060652968 0.13423561 0.86933333
0.07360132 0.1333869 0.86907142
0.075129405 0.13402972 0.86800003
0.017819675 0.13692014 0.8678934
0.020045185 0.13856965 0.86610007
0.057488255 0.1366408 0.86700964
0.062201362 0.13730659 0.86830735
0.066903822 0.13792546 0.86929524
0.072192848 0.13764948 0.86919165
0.076172039 0.13773288 0.86759442
0.0184916 0.14065021 0.8689999
0.02115236 0.14281061 0.86739451
0.062828988 0.14013225 0.86580014
0.067172602 0.14144213 0.86678571
0.071985282 0.14228995 0.86718005
0.077494435 0.14198792 0.86729616
0.081476383 0.14429662 0.86663496
0.023004664 0.14728829 0.8681134
0.026507339 0.14985323 0.86613345
0.073358133 0.14503083 0.86620015
0.078226045 0.14587715 0.86644453
0.024427561 0.15084969 0.86877775
0.026573297 0.15306213 0.86834168
0.028456701 0.15666245 0.86815554
0.033007026 0.15970854 0.86715561
0.036185522 0.15945891 0.8658002
0.029851735 0.16174795 0.86944443
0.033062179 0.16239859 0.86859989
0.038076106 0.16279887 0.86749583
0.041623812 0.16397679 0.86697787
0.037974887 0.16666761 0.86980003
0.042969652 0.16779764 0.86831677
0.046428602 0.16864634 0.86611128
0.083012648 0.16912223 0.8658002
0.086797334 0.16808121 0.86597508
0.044436373 0.17222515 0.86926663
0.047638606 0.1728899 0.86854285
0.050762974 0.1733028 0.86656678
0.07979852 0.17237772 0.86596686
0.083134376 0.17259893 0.86707789
0.086950816 0.17214696 0.86643088
0.048496418 0.17629442 0.86939996
0.052470654 0.17764564 0.86810005
0.055624291 0.17817932 0.86676675
0.077946872 0.1779936 0.86782503
0.081705756 0.17663094 0.86906666
0.086597025 0.17790456 0.86936337
0.054167673 0.18113227 0.86933333
0.057559036 0.18202934 0.86809987
0.061031926 0.18334384 0.86704451
0.074093431 0.18271661 0.86535013
0.07629054 0.18266569 0.86893338
0.062729873 0.18681146 0.86816663
0.066939615 0.18785506 0.86677235
0.071820743 0.18739541 0.86713344
0.075285204 0.18608348 0.86980003
0.067434356 0.19140285 0.86897337
0.071006775 0.19206747 0.86905336
0.0079788845 0.028377149 0.87130004
0.011222688 0.029174652 0.87089598
0.015269109 0.029147221 0.87007707
0.023403859 0.027553694 0.87086684
0.026672227 0.027573423 0.87152976
0.0087819537 0.03077857 0.87044024
0.068891361 0.093987264 0.87100005
0.063189536 0.098821446 0.87076676
0.067489833 0.097460292 0.87125844
-0.0058407844 0.10224105 0.87227792
-0.0036662824 0.10315717 0.87090206
0.06249712 0.10225425 0.872419
0.067133412 0.10128445 0.87455004
-0.0021224101 0.10682948 0.87190658
0.00066522061 0.10852776 0.87066674
0.058612984 0.10804585 0.87113333
0.061298467 0.1067569 0.87274158
-0.0017777999 0.11218972 0.87395698
0.0014778214 0.11184321 0.8712557
0.058093954 0.11201867 0.87261903
0.060977377 0.11138052 0.87398326
-0.0009629142 0.11633944 0.87459987
0.002090584 0.11712869 0.87289995
0.0055381167 0.11908754 0.87090015
0.056938868 0.11777972 0.87202656
0.0039288574 0.12116968 0.87423325
0.0071678245 0.12285095 0.87175018
0.057650927 0.122266 0.87294281
0.0079909237 0.127462 0.8727777
0.010411236 0.12881251 0.87093353
0.058443829 0.12744263 0.87265825
0.062203269 0.12818216 0.87339616
0.067472249 0.12921436 0.87365538
0.071364567 0.12869433 0.87343752
0.0088198874 0.1317347 0.87419999
0.011781986 0.13306797 0.8722778
0.058328137 0.13124247 0.87093353
0.06259279 0.13266081 0.87094188
0.06731391 0.13296421 0.87160754
0.071342029 0.13289796 0.87117249
0.01329584 0.13775995 0.87373328
0.015696943 0.13818952 0.87131673
0.068037659 0.13602982 0.87046689
0.07044021 0.13596731 0.87006682
0.01673634 0.14306894 0.87265831
0.01776877 0.14785312 0.87334996
0.020553844 0.14778368 0.87055022
0.018585231 0.15111044 0.87339973
0.021605765 0.15270832 0.87208331
0.022502864 0.15702215 0.87374657
0.025688713 0.15754659 0.87125337
0.027194573 0.16225593 0.8734237
0.029978385 0.16568206 0.87313312
0.032869659 0.1671152 0.8721301
0.03774422 0.16738461 0.87072235
0.034248967 0.17203984 0.87407321
0.038080752 0.17200446 0.87224442
0.042427171 0.17287806 0.87080973
0.046142321 0.17497191 0.87086689
0.038938858 0.17544731 0.87323314
0.042713232 0.17727208 0.87193328
0.0475352 0.17867868 0.87088591
0.050975803 0.17969412 0.87020016
0.082387418 0.17869048 0.87056684
0.085083507 0.17893973 0.87046683
0.043671388 0.18133841 0.87343991
0.047842573 0.18255526 0.87226659
0.052439854 0.18328847 0.87093359
0.056660421 0.1845645 0.8702668
0.078230336 0.18350196 0.87098354
0.081939504 0.18240617 0.87155563
0.085709669 0.18208957 0.87133354
0.04824701 0.18594274 0.87369984
0.052741379 0.18749015 0.87257773
0.05753747 0.18801887 0.87126678
0.061283763 0.18895857 0.8706224
0.073691249 0.1893921 0.8701334
0.077110618 0.18792523 0.87208891
0.081896089 0.18642676 0.87357134
0.08533112 0.18514419 0.87300014
0.053919565 0.19079252 0.87407762
0.057886757 0.19280659 0.87302834
0.062438395 0.19296294 0.87163717
0.066844508 0.19398832 0.87078351
0.073337555 0.19317089 0.87075025
0.076235019 0.19234177 0.87323982
0.058576815 0.19606948 0.87464994
0.062795058 0.19775547 0.87336653
0.067358829 0.19795376 0.87219262
0.072254285 0.19799398 0.87237024
0.076214768 0.19679423 0.87425548
0.062670663 0.20018676 0.87486666
0.067475617 0.20236067 0.87371087
0.071975067 0.20200151 0.87391663
0.075729534 0.20020203 0.87493336
0.064336605 0.10422457 0.87533349
0.068011761 0.10370131 0.87640971
0.071235918 0.10476769 0.87989473
-0.0058812774 0.10784926 0.87832505
-0.0042343815 0.1084404 0.87650192
0.063817516 0.10803249 0.87716007
0.067855358 0.1078859 0.87861848
0.07206504 0.10641719 0.87999976
-0.0058814385 0.11275318 0.8783493
-0.004237175 0.1125901 0.87707996
0.062893257 0.1127032 0.87796003
0.06711854 0.11129017 0.87969971
-0.0030683044 0.11766792 0.87670857
0.059429999 0.11723325 0.87520003
0.062145755 0.11773839 0.87897205
0.067958236 0.11786973 0.87995231
-0.0026030643 0.12247889 0.87778354
0.0018376309 0.1225784 0.87682873
0.0055686398 0.12381586 0.87570006
0.059423208 0.12047531 0.87510002
0.062899403 0.12251307 0.87804455
0.067873463 0.12262563 0.87885189
0.071911953 0.12252533 0.87813139
-0.0021993429 0.12726474 0.87983513
0.002721135 0.12636015 0.87923324
0.0055869408 0.12749209 0.87857789
0.063833416 0.12601613 0.87590003
0.067661852 0.12631881 0.87611669
0.072048359 0.12609737 0.87646121
0.0072191521 0.13230926 0.87801325
0.008861593 0.13562532 0.87833351
0.010897076 0.13752264 0.87740844
0.012132367 0.14212172 0.87809521
0.013130027 0.14684829 0.87900656
0.015380952 0.14756286 0.87645012
0.013800997 0.15060398 0.87993306
0.016796323 0.15271795 0.87730473
0.017869491 0.15685382 0.87826681
0.021365294 0.1586362 0.87607789
0.018725671 0.16043715 0.87999976
0.021968311 0.16260676 0.87845427
0.025180828 0.16381618 0.87618351
0.022823423 0.16694719 0.87979972
0.02705697 0.16792785 0.87743759
0.030114571 0.16969797 0.87710017
0.026906941 0.17256051 0.87921655
0.031290848 0.1732441 0.8773526
0.028025143 0.17680244 0.87997752
0.032413147 0.17752428 0.87848336
0.03736271 0.17830342 0.87662232
0.031855356 0.18062653 0.87999982
0.037778523 0.18299527 0.87898469
0.042333215 0.18335417 0.87608343
0.043098047 0.18763246 0.87873334
0.047688618 0.1888299 0.87691677
0.083300628 0.18932724 0.8773334
0.086611897 0.18859707 0.87772739
0.044985052 0.19153963 0.87999976
0.048406523 0.19271271 0.87881666
0.052420262 0.19290216 0.87627226
0.078709088 0.19277442 0.87630844
0.081940182 0.19219977 0.87852651
0.049076736 0.19640592 0.87979978
0.053310096 0.19756719 0.8785916
0.057355221 0.19790183 0.87675565
0.078605652 0.19793876 0.87788665
0.081030235 0.19630176 0.87933314
0.058049191 0.20179164 0.87901992
0.062611684 0.20284812 0.87732399
0.073346272 0.20363542 0.87570006
0.077366143 0.20254946 0.87805563
0.063534521 0.20719932 0.87929994
0.067736179 0.20722246 0.87708527
0.072516784 0.20723586 0.87800831
0.076110363 0.20693435 0.87933314
0.06794849 0.21179643 0.87982637
0.071228251 0.21113522 0.87979978
0.072065033 0.10396175 0.88000005
0.072142839 0.10899082 0.88094896
0.064713895 0.11384405 0.88046646
0.068219379 0.11347076 0.88029432
0.071813464 0.11280447 0.88194746
0.064699203 0.11791161 0.88026649
0.067989543 0.11792342 0.88035232
0.071772039 0.11847903 0.88143754
-0.0026159289 0.12791683 0.88150966
0.0019859048 0.1287396 0.8804065
-0.0015218795 0.1325991 0.88356876
0.0023194603 0.13301574 0.88269258
0.0055997996 0.13351853 0.88059986
-0.0009743644 0.13500842 0.88499993
0.0039742487 0.13655172 0.88433349
0.0072554224 0.13788907 0.88236189
0.0089258254 0.1415455 0.88470012
0.010524401 0.14413299 0.88039982
0.010956425 0.14811845 0.88218319
0.013018911 0.15270081 0.88259166
0.013860594 0.15783149 0.88373345
0.015869526 0.15773582 0.88090807
0.017463822 0.16222951 0.88262665
0.018793765 0.16594934 0.88320005
0.020815393 0.167706 0.88163316
0.022531394 0.17209136 0.88219994
0.023756212 0.1776077 0.88397789
0.025976107 0.17733721 0.88100654
0.027472582 0.18196903 0.88234758
0.031544019 0.18279979 0.88047981
0.028709309 0.18587467 0.88420016
0.032522198 0.18677072 0.88324451
0.036627155 0.18752278 0.88199997
0.040085707 0.18837984 0.88053304
0.041819222 0.192081 0.88248569
0.045829631 0.19409768 0.88046634
0.083601266 0.19328636 0.88049984
0.087742805 0.1925482 0.88086659
0.090938963 0.19481356 0.88000005
0.043127105 0.1969277 0.88397503
0.046729427 0.19759618 0.8819809
0.051596768 0.19990608 0.88079983
0.083061814 0.19735606 0.88130414
0.087827913 0.19683509 0.88172346
0.090938963 0.19645053 0.88000005
0.047943596 0.20120859 0.88412237
0.05222781 0.20242442 0.88225186
0.058150087 0.20421334 0.88053316
0.079507656 0.20396402 0.88063318
0.083193801 0.20218703 0.88270831
0.086975679 0.20174082 0.88308668
0.053725403 0.20608664 0.88341343
0.057859164 0.20744331 0.88236666
0.061978381 0.20911692 0.88048869
0.074532472 0.20956211 0.88006645
0.078196883 0.2082113 0.88127774
0.081431091 0.20631422 0.88368344
0.05832871 0.21032014 0.88325006
0.062982261 0.21289086 0.8818
0.068013497 0.21421041 0.88066655
0.072980568 0.21309575 0.88113803
0.077666633 0.21191339 0.88304174
0.0633443 0.21632308 0.88428348
0.0685497 0.21757388 0.88334674
0.072751455 0.21691972 0.88335842
0.076569073 0.21558639 0.88463342
-0.0018026021 0.136131 0.88694447
0.0019988494 0.13785268 0.88635188
0.0056296885 0.13999468 0.8853001
0.0025412764 0.14189708 0.88818282
0.0069567142 0.14277574 0.88620651
0.0039958186 0.14556275 0.88913333
0.0075081717 0.14681356 0.88794154
0.0089708883 0.15135746 0.88916665
0.011149677 0.15340483 0.88666654
0.011276635 0.15727052 0.88800001
0.013098548 0.16189542 0.88799989
0.016371775 0.16397533 0.88585007
0.013946072 0.16624695 0.88918328
0.016982773 0.167606 0.88699979
0.018357383 0.1719358 0.88866657
0.020518862 0.17400339 0.8865664
0.018933497 0.17545891 0.88976675
0.021524435 0.17791566 0.88715994
0.02221754 0.18208177 0.88843328
0.025465829 0.18380226 0.88609993
0.023898337 0.18611315 0.88926661
0.02715322 0.18817021 0.88726646
0.030950993 0.18887912 0.88543338
0.027627032 0.19188431 0.88918334
0.032133505 0.19239043 0.88769978
0.037065946 0.19303806 0.88688129
0.040296625 0.19431072 0.88516682
0.032515988 0.19583455 0.88909322
0.037133124 0.19752188 0.88849992
0.041016359 0.19822159 0.88645327
0.037578765 0.20057932 0.88923335
0.042293429 0.20260513 0.8874951
0.046412151 0.20336808 0.88636655
0.042462129 0.20640528 0.88903332
0.047270827 0.20760925 0.88771409
0.051363647 0.20828331 0.88623327
0.083557844 0.20764254 0.88584441
0.086344272 0.20846771 0.88759989
0.047534805 0.21135169 0.88931668
0.052265517 0.21267733 0.88819033
0.056883633 0.21292433 0.88639158
0.060122628 0.21412618 0.88540006
0.079082631 0.21322234 0.88506675
0.08203388 0.2129171 0.88722211
0.085128382 0.21141952 0.88786644
0.052933756 0.21593681 0.88946676
0.057021093 0.21695048 0.88853329
0.061956324 0.21806292 0.88801324
0.065903246 0.21907133 0.88541663
0.073341161 0.21909194 0.88549995
0.077021644 0.21831603 0.88712364
0.080733418 0.21697967 0.88808888
0.062880024 0.22087586 0.88936675
0.067072265 0.22261606 0.8872332
0.071746193 0.22256102 0.88619256
0.076408602 0.22283807 0.88823801
0.0026231408 0.1480902 0.89273125
0.005664662 0.14914975 0.89080018
0.0034619353 0.15192568 0.89413363
0.0068585165 0.15289386 0.89192396
0.0081701446 0.15771659 0.89238912
0.0090210009 0.16135065 0.89413375
0.011079089 0.16304874 0.89204192
0.012897844 0.16782624 0.89318913
0.016480207 0.17253251 0.89175016
0.017996121 0.17803423 0.89272022
0.019016847 0.18205011 0.89368361
0.020619931 0.18397544 0.89093357
0.02203431 0.18755133 0.89217252
0.023447616 0.19163911 0.89317799
0.026187113 0.1935842 0.8919335
0.028323356 0.19732578 0.89284027
0.031855412 0.19860528 0.89150846
0.029058902 0.20145653 0.8949669
0.032658402 0.20167895 0.8930003
0.036941119 0.20341507 0.89187354
0.038596891 0.20738159 0.89359194
0.041172419 0.20858921 0.89224464
0.088735633 0.20715456 0.89083314
0.043283813 0.21214509 0.89230025
0.046395853 0.21307866 0.89135015
0.086574771 0.21336417 0.89138907
0.047765747 0.21654113 0.89366686
0.051703393 0.21795885 0.89209461
0.057151951 0.21868891 0.89056683
0.083238184 0.21720313 0.89126682
0.085671693 0.21692526 0.89353359
0.053358026 0.22247663 0.89380014
0.057232004 0.22231452 0.89181495
0.061602991 0.22263665 0.89089459
0.078722931 0.22360025 0.89033353
0.081195638 0.22201446 0.89194691
0.00068575674 0.1474943 0.89754516
-0.00098691566 0.15092087 0.89640003
0.0019369971 0.15331955 0.89580005
-0.00099043851 0.15899031 0.89960015
0.0021487928 0.15713564 0.89736682
0.0056934906 0.1574038 0.89533353
0.0034777543 0.16097288 0.89821124
0.0070379465 0.16210806 0.89648008
0.0090682497 0.16637647 0.89881682
0.011275523 0.16847539 0.89664441
0.012738235 0.17233619 0.89764011
0.014092194 0.17550971 0.8985002
0.015747244 0.1769498 0.89732242
0.017416103 0.18276024 0.89718348
0.019076077 0.18761995 0.89646673
0.020714048 0.18980987 0.89500022
0.019113196 0.19216263 0.8982113
0.021994155 0.19339144 0.8961668
0.022879101 0.1967371 0.89812517
0.026300088 0.19830175 0.89575559
0.024165288 0.20157376 0.89920032
0.026901452 0.20253325 0.89727789
0.032427438 0.20414364 0.89579999
0.028748887 0.20680645 0.89831698
0.032262214 0.20713609 0.89702934
0.036320876 0.20772827 0.89568895
0.029215835 0.21091355 0.89980024
0.032765556 0.21181253 0.89853829
0.037280932 0.21214229 0.89702928
0.041337222 0.21330833 0.89580005
0.038396038 0.21565884 0.89865029
0.042517241 0.21726191 0.8972168
0.047459591 0.21884675 0.8957333
0.084187001 0.21989219 0.89546674
0.088307075 0.21766295 0.89772242
0.04382211 0.22182234 0.89822525
0.047290217 0.22201821 0.89648348
0.051341236 0.22321828 0.89544445
-0.00099164981 0.15415826 0.90070015
-0.00099251221 0.15680829 0.90148354
-0.00099352142 0.16200441 0.90240014
0.0020370882 0.16321844 0.90261334
0.0057314322 0.16432051 0.90130019
0.0079829106 0.16789848 0.90251112
0.0091086049 0.17215493 0.90281677
0.010775035 0.17355524 0.90136689
0.012465815 0.1779051 0.90217155
0.013615165 0.18217833 0.90394443
0.015836056 0.18382254 0.90238333
0.017100204 0.18762718 0.90251672
0.017553315 0.19259124 0.90415001
0.019219711 0.19743408 0.90321672
0.021698687 0.19867992 0.90125024
0.022570543 0.2027376 0.90252513
0.024288466 0.20764458 0.90378332
0.026742604 0.20791174 0.90130019
0.027291149 0.21195033 0.90279341
0.031786706 0.21462616 0.90133357
0.029338125 0.21515797 0.90356672
0.033009313 0.21727887 0.90260011
0.037671782 0.21799083 0.90138024
0.040980991 0.21937999 0.90020025
0.034425333 0.22040348 0.90439999
-0.00099816406 0.16613391 0.90661693
0.0021419909 0.16747439 0.90670025
0.0057610031 0.16769655 0.90595013
0.002871494 0.1720971 0.90820986
0.0066098794 0.17203735 0.90662247
0.0040857005 0.17674172 0.90913343
0.0074574244 0.17716053 0.90694839
0.0076825158 0.18231657 0.90847111
0.011258729 0.1825518 0.90649182
0.0091750287 0.18609717 0.90940005
0.0127497 0.18716778 0.90741271
0.015894268 0.18870965 0.90570009
0.013827105 0.19228017 0.90864193
0.01590967 0.19226582 0.906578
0.016940594 0.19719073 0.9075135
0.01889888 0.20229331 0.90805852
0.02101724 0.20441285 0.90810025
0.02226284 0.20757443 0.90715009
0.02437461 0.21260007 0.9069891
0.026044451 0.21410728 0.90623349
0.027746839 0.21758518 0.90667641
0.031082802 0.2189388 0.90530008
-0.0010029166 0.16946581 0.91093349
0.0029612996 0.17797752 0.91113335
0.0041020284 0.18169241 0.91276664
0.0057918443 0.18468943 0.91079992
0.0071589425 0.18765691 0.91204673
0.010881427 0.1896611 0.91026664
0.0086462116 0.19085543 0.91327792
0.011477617 0.19300054 0.9127112
0.013039237 0.19656651 0.91285008
0.015982009 0.19991586 0.9106999
0.014344711 0.20077191 0.91460025
0.016866408 0.20289296 0.91266674
0.018581707 0.20728007 0.91329181
0.021066606 0.20658627 0.91023332
0.019433564 0.21067238 0.91326678
0.021795321 0.21249516 0.91233337
0.006968582 0.19326656 0.91665554
0.0075468221 0.19634068 0.91774434
0.012107913 0.19856864 0.91752225
0.013543664 0.20240471 0.91814995
0.016057471 0.20426387 0.9150002
0.014415288 0.20603436 0.91909993
0.016654773 0.2080351 0.91662234
0.017555848 0.21250284 0.91698092
0.0084488513 0.19913523 0.92278326
0.0087501686 0.20175041 0.9242776
0.011452784 0.20285222 0.9221167
0.012750454 0.20771623 0.92278004
0.0058851102 0.19971432 0.92546648
0.0064751604 0.20305343 0.92761093
0.0084948 0.20712717 0.92782217
0.011058751 0.20823954 0.92509973
0.0059273979 0.20721807 0.93211675
