# .PCD v0.7 - Point Cloud Data file format
VERSION 0.7
FIELDS x y z
SIZE 4 4 4
TYPE F F F
COUNT 1 1 1
WIDTH 950
HEIGHT 1
VIEWPOINT 0 0 0 1 0 0 0
POINTS 950
DATA ascii
0.049051199 0.053676434 0.82423341
0.039083589 0.057544526 0.8247335
0.04253187 0.057718992 0.8244918
0.047798898 0.057438474 0.82405657
0.05133884 0.057488371 0.82393354
0.014563454 0.054043304 0.82986683
0.017645387 0.054002792 0.82924479
0.022286261 0.054004233 0.82926685
0.026940778 0.054034621 0.82973355
0.032792237 0.053680055 0.82902688
0.03769045 0.052815937 0.82793337
0.042529318 0.05279696 0.82763815
0.047127143 0.05235257 0.82756674
0.05308063 0.053094324 0.82712221
0.056252979 0.053176988 0.82841331
0.0021799162 0.058630452 0.82924467
0.0075922706 0.057856943 0.82921696
0.013189994 0.057241514 0.82868361
0.017612549 0.056980915 0.82770365
0.022243043 0.056978386 0.82766658
0.027647043 0.056982219 0.82772225
0.033175357 0.057240617 0.82699984
0.037287612 0.057622094 0.82585335
0.04142103 0.057201829 0.82533342
0.046281483 0.057824984 0.82508898
0.053735498 0.057586875 0.82534164
0.056117188 0.05766172 0.82641351
0.0021802422 0.062027145 0.8292802
0.0078112236 0.062138695 0.82900017
0.013137739 0.062236872 0.82870317
0.017628634 0.062428135 0.82844448
0.022261836 0.062423006 0.82837796
0.027505254 0.062248334 0.82810682
0.032665353 0.0627615 0.82776672
0.037637752 0.063069887 0.82677019
0.042234916 0.063027456 0.82620728
0.047626775 0.063025504 0.82618326
0.053054448 0.063066088 0.826711
0.056612745 0.063551039 0.82801944
0.023071203 0.066379637 0.82969999
0.026929909 0.066355646 0.8294003
0.032650787 0.067585424 0.82934028
0.037725672 0.067842133 0.828704
0.042334791 0.06779822 0.82816309
0.04727181 0.067636274 0.82806671
0.052388232 0.067813441 0.82836008
0.057249852 0.06759242 0.82942688
0.038540598 0.071001299 0.8296001
0.042716082 0.07161542 0.8295601
0.047556415 0.072015963 0.82943344
0.050884131 0.072496191 0.82904464
0.057892408 0.071787469 0.82976693
0.050936691 0.075658314 0.82990003
0.038763527 0.049682066 0.83440006
0.042613834 0.049635757 0.83362222
0.047300752 0.049659576 0.83402222
0.05198063 0.049671482 0.83422226
0.05668667 0.0497059 0.83480006
-0.00091902225 0.054360215 0.83473307
0.0025799298 0.053887434 0.83343327
0.0076283305 0.053484779 0.83320826
0.013052396 0.052644361 0.83218104
0.017695922 0.051836107 0.8316223
0.022055466 0.05202999 0.83225334
0.026749 0.052102752 0.8334133
0.032146405 0.051806264 0.83291423
0.037804741 0.050990656 0.83043349
0.041673161 0.050986566 0.83036679
0.047110774 0.051004995 0.83066672
0.052526619 0.050997831 0.83055007
0.056428634 0.051025461 0.83099997
-0.0062067858 0.057723306 0.83397591
-0.0024713331 0.057339881 0.83292586
0.0021843452 0.056431632 0.83094436
0.007605759 0.055642817 0.83069998
0.011470794 0.055600408 0.83006686
-0.0071348269 0.062012568 0.83324075
-0.0023114413 0.062181007 0.83134663
0.0021835607 0.064893551 0.83043325
0.0060544033 0.064888343 0.83036661
0.011473562 0.064880528 0.83026665
-0.0068264916 0.065763034 0.83361995
-0.0024710954 0.067170478 0.83311111
0.0021894313 0.068171158 0.83271098
0.0076223202 0.068153411 0.83249444
0.013054819 0.068143167 0.8323704
0.0176975 0.068087213 0.83168888
0.022118852 0.068497524 0.83131438
0.026973793 0.068781704 0.83074445
0.03084546 0.069550186 0.83070004
0.054817185 0.069497153 0.83006674
0.05640601 0.069547392 0.8306666
0.0021950975 0.071459673 0.83495528
0.0084238565 0.072346151 0.83494264
0.013095036 0.073010355 0.83492565
0.017757302 0.072973929 0.83450353
0.022398781 0.072885938 0.83349633
0.027035492 0.072811484 0.83264452
0.032455985 0.07278093 0.83228892
0.037658352 0.073205411 0.83208573
0.042111911 0.073860668 0.83138335
0.046069235 0.073654324 0.83051109
0.05410197 0.072664492 0.83096653
0.057738986 0.073206499 0.83127165
0.023215793 0.076114126 0.83489978
0.027091831 0.076066516 0.83437759
0.031770688 0.076090835 0.83464432
0.0380086 0.076115139 0.83491087
0.042918365 0.076607153 0.83349335
0.047421645 0.077274062 0.83273327
0.052346803 0.077490591 0.83299053
0.057659857 0.076810248 0.83282232
0.048906017 0.080770142 0.83486646
0.05124566 0.080776587 0.83493316
0.013930163 0.049916271 0.83833325
0.017828863 0.049888488 0.8378666
0.0221275 0.049502876 0.83794999
0.027206965 0.049112242 0.83793336
0.032327678 0.049202751 0.83758098
0.037614636 0.048318308 0.83768892
0.042782847 0.047496635 0.83693331
0.047685914 0.046935849 0.83736658
0.052165437 0.047511023 0.83718878
0.055619031 0.047682039 0.8374812
-0.011094566 0.054638084 0.83900005
-0.0067754225 0.054115288 0.83695138
-0.0026785666 0.052769836 0.83724225
0.001888992 0.052016217 0.83701336
0.0068882634 0.051432073 0.83762217
0.01077502 0.051342703 0.83616644
0.024004912 0.051287454 0.83526647
0.028671404 0.051275171 0.8350665
-0.010680938 0.057250235 0.83724999
-0.0083256476 0.057157978 0.83591467
-0.011059378 0.062239781 0.8363058
-0.010672767 0.06693735 0.8366611
-0.0071528358 0.068398543 0.83550483
-0.0032568658 0.069943696 0.83539981
-0.010300926 0.072509408 0.83808333
-0.007165981 0.072415344 0.83701622
-0.0024811437 0.073137999 0.83637774
0.0021969758 0.073853768 0.83567762
0.0065601715 0.073999837 0.8355732
-0.0061395932 0.077008747 0.83900166
-0.0022649779 0.077595688 0.83891439
0.0022035108 0.07797496 0.83819264
0.0072017042 0.077782057 0.83779347
0.012556315 0.077988356 0.8368181
0.017801657 0.077824749 0.83657765
0.02225944 0.078268237 0.83657134
0.027159343 0.078591555 0.83646655
0.032615975 0.078194924 0.83638322
0.037659116 0.078756109 0.8370381
0.042353615 0.07895036 0.83614993
0.045828503 0.079280399 0.83553332
0.053684078 0.079375252 0.83653331
0.056759853 0.079314113 0.83588886
0.00690802 0.081263527 0.83996654
0.01284424 0.081474587 0.83892012
0.017856065 0.081573524 0.8391335
0.022153532 0.081550792 0.83890009
0.027237706 0.081157111 0.83886677
0.031940121 0.081180751 0.83911127
0.038192049 0.081945449 0.83894444
0.042854149 0.082665093 0.83831859
0.047277644 0.082734942 0.83705837
0.052381124 0.082985468 0.83706665
0.056888297 0.082610451 0.83776832
0.060065538 0.083461761 0.83850002
0.048627764 0.08637505 0.83902234
0.051968127 0.086482212 0.83905345
0.056973424 0.085854411 0.8390224
0.060101356 0.085852124 0.83900005
0.043938406 0.043980628 0.84413338
0.047836404 0.043552965 0.84346676
0.052314669 0.042915832 0.84380084
0.055697698 0.043942422 0.84340012
0.0037965823 0.048729818 0.8448
0.0072531663 0.048039354 0.84372014
0.012430167 0.047823459 0.84269178
0.017918326 0.047788396 0.84207791
0.023154549 0.047266629 0.84210008
0.027347436 0.046232209 0.84226662
0.031746827 0.046389621 0.84227991
0.037255254 0.04616138 0.84301895
0.043011565 0.045404579 0.84142226
0.046106409 0.045360208 0.84059995
0.05237633 0.045359056 0.8405785
-0.0017174804 0.050283186 0.84449548
0.00221766 0.050236482 0.84371132
0.0069236942 0.050131958 0.84195548
0.010828866 0.050035361 0.84033346
-0.011898172 0.058644034 0.8405
-0.007519275 0.077977479 0.84159768
-0.0032779798 0.079780109 0.84079981
-0.0064361324 0.083187029 0.84362036
-0.0024994835 0.083092421 0.84265935
0.0022129742 0.083016224 0.84188151
0.0069227614 0.083449677 0.84174287
0.012072302 0.083842218 0.84119987
0.017891973 0.083849855 0.84082663
0.022903983 0.083827004 0.84059983
0.027302518 0.083697103 0.84086639
0.032011457 0.08370924 0.84098864
0.036703784 0.083679326 0.84068871
-0.0064433469 0.086426474 0.84461308
-0.0025052598 0.087216727 0.84465545
0.0024445858 0.087522529 0.8443523
0.0069407653 0.087932676 0.84397781
0.012441234 0.08787024 0.84338355
0.017943952 0.087859027 0.84327424
0.022652261 0.087820292 0.84290385
0.027359864 0.087792456 0.8426373
0.032080475 0.087809138 0.84280026
0.03755495 0.087747298 0.8422001
0.04303601 0.087713458 0.84187406
0.047174528 0.088144302 0.84101087
0.052806601 0.088813893 0.84118325
0.057134043 0.088444024 0.84138155
0.060280442 0.08845643 0.84150004
0.018768873 0.091181673 0.84499991
0.022704622 0.091951936 0.84485537
0.027410593 0.092217676 0.84419984
0.031916298 0.092239395 0.84439987
0.037425544 0.092514507 0.84411508
0.042807799 0.092754595 0.84357339
0.047797255 0.092510149 0.84277797
0.052497074 0.092481233 0.84251118
0.057231169 0.092513815 0.84281504
0.060365338 0.092499435 0.84268504
0.036892124 0.09589722 0.84499991
0.042398527 0.095876411 0.84481651
0.047889035 0.095829129 0.84439993
0.052286327 0.096433595 0.84418666
0.057537682 0.097208709 0.84443879
0.060448781 0.09655229 0.84385014
0.058412638 0.10110706 0.84475237
0.038074087 0.16152254 0.84499991
0.024284653 0.16820289 0.84499991
0.027261185 0.16802679 0.84499246
0.032306883 0.16762775 0.84498173
0.036888946 0.16740273 0.84492779
0.026911205 0.1718706 0.84499997
0.036892131 0.17213258 0.84499991
0.054536074 0.034791503 0.84980947
0.05602349 0.034731071 0.84833336
0.048174515 0.039515927 0.8494224
0.053028703 0.038062561 0.84787643
0.056550182 0.037500937 0.84674662
0.0073788781 0.043843284 0.84908354
0.01252155 0.043435317 0.84883356
0.018060159 0.043587323 0.84872019
0.022783833 0.044171657 0.84780002
0.027524145 0.043377277 0.84771103
0.032281343 0.043395549 0.84806681
0.03699654 0.043361519 0.84740013
0.042524565 0.042569425 0.84732521
0.048003905 0.04157947 0.84641343
0.053231377 0.041448008 0.84586477
0.055844925 0.041698623 0.84562957
-0.0056871478 0.048991326 0.84933335
-0.00212176 0.048556946 0.84865522
0.0022278014 0.047299203 0.84735245
0.0065654255 0.046059929 0.84628332
0.012485165 0.045671396 0.84636658
0.018002959 0.04565401 0.8460443
0.021930035 0.045617439 0.84536654
0.033742927 0.045601256 0.84506649
-0.0040850383 0.050348256 0.84558833
-0.0088189393 0.078686498 0.84585708
-0.0088318493 0.081954613 0.84709519
-0.0074736667 0.087976202 0.84657145
-0.0025103569 0.089748837 0.84631109
0.0014337933 0.089631043 0.84519982
-0.0060692551 0.092642479 0.84755963
-0.0025164203 0.093127489 0.84839272
0.0022274286 0.093026802 0.84747416
0.0069631934 0.09294574 0.84673333
0.01248291 0.092887901 0.84621114
0.017786594 0.093366385 0.84647626
0.022737781 0.094449431 0.84611112
0.027440719 0.094340272 0.8451333
0.032957494 0.09434028 0.84513324
-0.005688265 0.096407935 0.8495
0.0022333646 0.096409172 0.84951133
0.0069840457 0.096383959 0.84928912
0.012516097 0.096288748 0.84845018
0.018079689 0.096424304 0.84964466
0.023606177 0.096343607 0.84893334
0.027728263 0.097609207 0.8479085
0.032232959 0.097679868 0.84681493
0.036949903 0.097819641 0.8463251
0.042473093 0.098405614 0.84629166
0.047989611 0.098391056 0.84616661
0.053081594 0.098714203 0.84556651
0.055851761 0.099126928 0.84573328
0.060531165 0.099040985 0.84500003
0.032312918 0.10187092 0.84893352
0.037027292 0.10256108 0.84810394
0.042349871 0.10242217 0.84813952
0.04779743 0.10275029 0.84836024
0.052776091 0.10242793 0.84700012
0.056945294 0.102875 0.84636396
0.060531165 0.10061285 0.84500003
0.038689617 0.10593505 0.84986675
0.052929845 0.10588521 0.8494668
0.057651546 0.1058298 0.84902233
0.03709672 0.15491109 0.84968919
0.043427624 0.1548827 0.84953368
0.028632335 0.15905499 0.84931141
0.032304619 0.15833743 0.84869546
0.037010361 0.15770352 0.84771866
0.042559195 0.1580749 0.84801644
0.046530575 0.15939808 0.84833354
0.019644786 0.16422258 0.84880024
0.022805218 0.16260378 0.84860027
0.027519163 0.16240522 0.84756303
0.032208856 0.16214187 0.84618503
0.035956111 0.16227327 0.84522647
0.04246581 0.16213562 0.84614444
0.046429228 0.16141391 0.84648561
0.018996533 0.16757128 0.84816664
0.02257851 0.16744472 0.84550291
0.027974548 0.16565697 0.84537762
0.030593215 0.16508521 0.84513319
0.042300109 0.16715431 0.8464269
0.019613931 0.17184709 0.84746671
0.022729259 0.17307973 0.84578502
0.027705984 0.17348599 0.84521097
0.032175913 0.17298105 0.8453036
0.036918521 0.1732668 0.84559995
0.041719917 0.17175673 0.84701914
0.045015424 0.1714887 0.84959805
0.019637842 0.17600265 0.84850025
0.022782089 0.1774231 0.84774452
0.027507139 0.17730455 0.8471778
0.032255966 0.17735112 0.84740019
0.037014924 0.17743731 0.84781128
0.041015267 0.17606127 0.84878361
0.022827424 0.180934 0.84942251
0.027581858 0.18094583 0.84947807
0.031941503 0.18056606 0.84955025
0.052483857 0.0337984 0.85326391
-0.0041256757 0.036551673 0.85400003
0.034136891 0.039772298 0.85493338
0.037305992 0.039751623 0.85448891
0.042020429 0.0396896 0.85315555
0.047571048 0.037688483 0.85280001
0.051422097 0.036411859 0.85073322
-0.0017373851 0.044508599 0.8542667
0.0024685464 0.043297045 0.85279042
0.0066963555 0.041894555 0.85284007
0.012587002 0.041283205 0.85329169
0.018142736 0.041646484 0.85262501
0.022879295 0.041979864 0.85135013
0.02766872 0.04122825 0.85215575
0.032451283 0.041247066 0.85254449
0.037169877 0.041190624 0.85137773
0.041105665 0.041156225 0.85066664
-0.0057083522 0.04758817 0.85250002
-0.0028455809 0.046605464 0.85194111
0.0006494305 0.045867447 0.85000026
-0.0065066256 0.097572893 0.85278571
-0.0027515918 0.097730391 0.85117525
0.0025558115 0.098843649 0.85141993
0.0069982582 0.098949067 0.85096663
0.012548627 0.098914281 0.85066664
0.018105717 0.098937355 0.85086662
0.022633599 0.098571897 0.85063803
0.026013594 0.099627025 0.85000014
-0.0057226056 0.10175979 0.85462874
-0.0020025719 0.10144588 0.85421801
0.0020170992 0.10211913 0.85383815
0.0072179101 0.10301615 0.85350841
0.012576533 0.10310157 0.85256666
0.018137256 0.103076 0.85235554
0.022901438 0.10305431 0.85217774
0.027646333 0.10296825 0.85147029
0.032384399 0.10447013 0.85081106
-0.0072854338 0.10765935 0.85100001
0.014198828 0.1065126 0.85450017
0.018182611 0.10730624 0.85448909
0.022954119 0.10760214 0.85413349
0.027732244 0.10785518 0.85411263
0.032479957 0.10795221 0.85330367
0.036973573 0.10791188 0.85142499
0.041906409 0.1076363 0.8508147
0.047455039 0.1076247 0.85072213
0.053048674 0.10849663 0.85135549
0.057633854 0.10860242 0.85343105
-0.007293995 0.11254051 0.852
0.037686378 0.11162339 0.85407507
0.042041734 0.11195434 0.85356683
0.046795405 0.11269534 0.853163
0.052168027 0.11259453 0.85349709
0.057990432 0.1128047 0.85400003
0.052450716 0.11605886 0.85456687
0.032516804 0.14938919 0.8542667
0.037295114 0.14858846 0.85423344
0.042068951 0.14822736 0.85411435
0.046064824 0.14861178 0.85436678
0.01498931 0.15413253 0.85413343
0.01837853 0.15277612 0.85432512
0.022758899 0.15276873 0.85428345
0.027958542 0.15298638 0.8540715
0.032483511 0.15241109 0.8533963
0.037205681 0.15219474 0.85218513
0.041951679 0.15211432 0.85173702
0.046603359 0.15257403 0.85254002
0.050038543 0.15255514 0.85420001
0.013395171 0.15730231 0.85409176
0.018144259 0.15783285 0.85267782
0.022885012 0.15762725 0.85156375
0.027279308 0.15691304 0.85102588
0.032367639 0.15566358 0.85034674
0.040826425 0.15555976 0.85035563
0.046739284 0.15662341 0.85212529
0.013583347 0.16174388 0.85342503
0.017907878 0.16285406 0.8509292
0.014197579 0.1653157 0.85444999
0.016939607 0.16764095 0.85212505
0.04670395 0.16711777 0.85149443
0.017504368 0.1725616 0.85255337
0.043466803 0.17400309 0.85030001
0.047050834 0.17349114 0.85296243
0.018542819 0.1780777 0.8527751
0.042548317 0.17793439 0.85094661
0.045841813 0.17744631 0.8531667
0.018695682 0.18237126 0.85368329
0.022873476 0.18367322 0.85113329
0.027642338 0.1837164 0.85133332
0.032738708 0.18317126 0.85174
0.037178673 0.18218237 0.85155559
0.041827995 0.18234479 0.85324585
0.045783553 0.18218833 0.85406679
0.019786738 0.18608369 0.85493344
0.02317475 0.18698768 0.85387152
0.02773506 0.18751183 0.85419261
0.032189317 0.1865218 0.85402668
0.036978669 0.18657732 0.85428011
0.040492605 0.18598209 0.85446674
0.047152158 0.033595905 0.85966682
0.051011533 0.031904541 0.85717976
-0.0057432665 0.039901674 0.85771435
-0.0025465686 0.039149296 0.85871798
0.002255443 0.039918069 0.85806656
0.0070528761 0.039895326 0.85757786
0.012167392 0.039245356 0.85734683
0.017706443 0.038810119 0.85713345
0.022792276 0.03871147 0.85663825
0.027832899 0.038280729 0.85720754
0.032432135 0.038085274 0.85728353
0.037434474 0.037494745 0.85742229
0.042453136 0.037145872 0.85727626
0.046581317 0.035465509 0.8565501
-0.0063868389 0.043431062 0.85807908
-0.002770066 0.042590249 0.85678816
0.0014514403 0.041402966 0.85576689
-0.0068056011 0.046781957 0.85711116
-0.0073539219 0.09908399 0.85900009
-0.0069472445 0.10217085 0.85808611
-0.0033338126 0.10341055 0.85513687
0.0038424213 0.10498447 0.85500032
0.0054370072 0.10498447 0.85500032
-0.00605183 0.1070251 0.85605651
-0.0025410743 0.10680353 0.85682487
0.0020522038 0.10695391 0.85643345
0.0072698332 0.10787228 0.85627639
0.011600457 0.10828551 0.85594308
0.016933616 0.10954201 0.8558135
0.022981875 0.10977727 0.85516697
0.02776338 0.10976443 0.85506696
-0.006139535 0.11241344 0.85708058
-0.0027749601 0.11135955 0.85860634
0.0020571225 0.11163501 0.85874158
0.0070605087 0.11180129 0.8584857
0.011860167 0.11222768 0.85825711
0.017530523 0.11270437 0.85725915
0.023024904 0.113171 0.85676312
0.027628023 0.11301056 0.85705841
0.032617774 0.11273546 0.8569144
0.037096635 0.11415966 0.8570134
0.042155504 0.11464634 0.85588914
0.054907653 0.11460764 0.85560036
0.057140213 0.11301394 0.85557902
0.011081634 0.11518802 0.8599335
0.017488459 0.11633515 0.85954177
0.023327211 0.11787067 0.85949528
0.028132709 0.11717261 0.85940009
0.032706816 0.1168953 0.85924995
0.037489861 0.11821895 0.85870373
0.042252738 0.11810187 0.85785186
0.046985548 0.1179345 0.85663342
0.051971592 0.11811802 0.85652512
0.05687917 0.1183563 0.85825187
0.041548837 0.12157252 0.85983348
0.047550339 0.1219418 0.85961676
0.052134711 0.12256 0.85874277
0.057090033 0.12218304 0.85962689
0.043959264 0.13918273 0.8599335
0.046690051 0.13775627 0.85959047
0.024711898 0.14397049 0.8598668
0.028312473 0.1435315 0.85963333
0.032910544 0.14248314 0.85934168
0.037506104 0.14223745 0.85906661
0.04211206 0.14263105 0.85794544
0.046895385 0.1425779 0.85762441
0.050324235 0.14383826 0.85907686
0.013486264 0.14876899 0.8598668
0.017628843 0.14809524 0.85740018
0.023047239 0.14757781 0.85760564
0.027835324 0.14752358 0.8572889
0.032611791 0.14663708 0.85676312
0.037383344 0.14575423 0.85625571
0.042674672 0.14590813 0.85560018
0.047737911 0.1470013 0.85578912
0.05017557 0.14898896 0.85653919
0.0086624986 0.1549385 0.85860008
0.011991676 0.15253414 0.85733342
0.015542679 0.15170495 0.85537797
0.024583532 0.15117863 0.8554002
0.026970103 0.15114328 0.85520017
0.05008541 0.15269841 0.85500008
0.011018356 0.15747435 0.85502511
0.048525937 0.15758383 0.85561895
0.048660967 0.16281046 0.85800004
0.013438871 0.16816963 0.85684502
0.015007444 0.1678406 0.85516667
0.048623212 0.16826569 0.85733426
0.013471398 0.17257237 0.85891867
0.015038158 0.17217022 0.85691667
0.04865152 0.17235322 0.85783339
0.016306553 0.17716917 0.85643637
0.048000962 0.17829899 0.85573578
0.016633941 0.18330616 0.85681516
0.043724097 0.18457958 0.85533357
0.047350794 0.18273458 0.85600644
0.018251082 0.18749321 0.85774571
0.022195354 0.18941194 0.85560024
0.032962319 0.18898848 0.85548353
0.037755322 0.1890216 0.85563344
0.04219893 0.1880741 0.85675251
0.046782549 0.18659925 0.85876691
0.019885482 0.19180718 0.85919994
0.023268657 0.19253722 0.85736197
0.027824564 0.19290026 0.85694832
0.032450199 0.19288257 0.85775834
0.037451133 0.19309309 0.8578074
0.041986514 0.19207081 0.85894668
0.024706149 0.19670872 0.85966671
0.027914219 0.19671889 0.85971123
0.032724127 0.19618589 0.85971117
0.037851002 0.19733922 0.85962665
0.040739045 0.19510959 0.85966676
0.043913372 0.21414208 0.85903561
0.034516033 0.028958006 0.86442852
0.037682578 0.028914619 0.86313331
0.041658178 0.028880008 0.86210001
0.048095033 0.028883317 0.86219907
0.050495468 0.028876649 0.86200005
0.018389462 0.033773076 0.86420017
0.020810239 0.033778943 0.86435008
0.028046871 0.033758316 0.86382216
0.033400834 0.032669835 0.86338896
0.037634257 0.0320835 0.86199999
0.042440061 0.032070458 0.86165923
0.047254343 0.031264637 0.86153334
0.050430384 0.030440841 0.86088908
-0.001483794 0.036328427 0.86125761
0.0020665126 0.037106529 0.86232352
0.0074944422 0.038109127 0.86229998
0.01191851 0.036645483 0.86246109
0.017193288 0.035976384 0.86199051
0.023479536 0.035919588 0.86173344
0.027985008 0.035286047 0.86188895
0.032791246 0.035269666 0.861489
0.037551742 0.035213258 0.8601113
0.041556798 0.035208706 0.86000019
-0.0079040704 0.041641269 0.86066675
-0.0017492413 0.11361983 0.86017144
0.0038648921 0.11359721 0.86000019
0.0054688021 0.11359721 0.86000019
-0.0057719643 0.11706839 0.86200005
-0.0023570613 0.11692045 0.86237836
0.0022649886 0.11701388 0.86159259
0.0070802998 0.1169305 0.86097783
0.012121977 0.11734027 0.86062866
0.017233934 0.11842101 0.86017793
0.023111822 0.1199963 0.86000019
0.032735288 0.1199963 0.86000019
0.060103253 0.11859678 0.86145461
-0.0014891842 0.12112894 0.86427546
0.0022693507 0.12125694 0.86327791
0.0072988523 0.12181916 0.86298764
0.01192446 0.12201088 0.86292595
0.017533617 0.12184736 0.86177212
0.022906857 0.1221837 0.86091429
0.027956251 0.12173942 0.86100745
0.032777913 0.12255604 0.86112231
0.037768532 0.12306527 0.86048347
0.042598329 0.12368316 0.86020964
0.046865664 0.12419821 0.86029351
0.05118221 0.12480046 0.86003351
0.056426752 0.12447063 0.86051691
0.060354851 0.1229417 0.86046296
0.013563638 0.1254921 0.86480016
0.018204132 0.12661825 0.86394459
0.023334142 0.12705441 0.86229992
0.027992822 0.12751096 0.86213332
0.032808419 0.1274796 0.8619222
0.037461847 0.12793283 0.86173344
0.042430893 0.12821287 0.86145943
0.047252014 0.12821706 0.86148906
0.052046478 0.12815492 0.86106676
0.056930155 0.12750116 0.86206675
0.060679674 0.12722915 0.86203557
0.022395885 0.13250963 0.86335713
0.027990375 0.13311233 0.86205935
0.032802984 0.13306881 0.8617779
0.037626848 0.1330767 0.86182964
0.042416964 0.13297671 0.86118537
0.04720946 0.13290359 0.86071128
0.052102596 0.1330999 0.86197782
0.057059661 0.13100477 0.86402243
0.060304441 0.13105293 0.86433852
0.012476896 0.13877547 0.86403894
0.017613115 0.13743591 0.86303777
0.023161719 0.13789333 0.86187416
0.027958533 0.13776635 0.86108178
0.032760665 0.13769987 0.86066693
0.037558742 0.13763614 0.86026686
0.042160742 0.13740167 0.8600502
0.048781954 0.13681498 0.86013353
0.051653448 0.13770548 0.8621335
0.0087221386 0.14314014 0.86451125
0.011919089 0.14281625 0.86255926
0.017523037 0.14259703 0.8612389
0.022931701 0.14232181 0.86078346
0.027605753 0.14144847 0.86009347
0.031131383 0.14079328 0.86000019
0.051318001 0.14196908 0.86228335
0.0087171504 0.14868271 0.86401665
0.011703938 0.14725417 0.86153758
0.016696958 0.14560004 0.86004466
0.050423749 0.14652471 0.86077595
0.0078944927 0.15239604 0.8622945
0.010282928 0.15042682 0.86020011
0.0086809965 0.15686992 0.86043352
0.012890251 0.17723204 0.86293995
0.015105251 0.17854145 0.86074007
0.013539766 0.18468815 0.86327785
0.015136279 0.18211645 0.86250794
0.049005032 0.18164226 0.86406666
0.01594121 0.18773744 0.86252922
0.048419788 0.18895079 0.86318892
0.05064695 0.18979299 0.86458635
0.018732402 0.19271412 0.86146671
0.044006966 0.19298068 0.86086667
0.046523187 0.192626 0.86286116
0.019161614 0.19740678 0.86271673
0.022666801 0.19713391 0.86052388
0.027930981 0.19843604 0.86022234
0.033148628 0.19805786 0.86031687
0.035954252 0.19844629 0.86026686
0.042473402 0.19730881 0.8622905
0.019189842 0.20171076 0.86396682
0.023171 0.2021077 0.86222965
0.027982123 0.20200685 0.86180001
0.032798305 0.20197155 0.86164832
0.037614331 0.20194869 0.86154824
0.04142179 0.20115785 0.86274451
0.024292551 0.2062643 0.86396676
0.027726386 0.20634294 0.86384666
0.032890532 0.20575225 0.86406666
0.037762403 0.20595856 0.86493337
0.047393665 0.21218206 0.86406887
0.018390309 0.21543938 0.86423987
0.026382959 0.21810544 0.86206901
0.036096357 0.21850966 0.86366653
0.041669626 0.21657366 0.86235505
0.029025625 0.029111143 0.86899996
0.032168392 0.029022364 0.8663497
0.0026851103 0.033482917 0.86710346
0.0071403245 0.032316048 0.86824232
0.011785613 0.032488521 0.86748397
0.016847966 0.032568656 0.86782759
0.023148665 0.032128364 0.86806977
0.028188854 0.031506713 0.86821109
0.031890277 0.031161092 0.86608893
0.0038893768 0.035431765 0.86544853
0.006799967 0.03610187 0.86609352
0.010341501 0.035417512 0.86510015
-0.0066213724 0.11785844 0.86783338
-0.004187875 0.11934301 0.86687505
-0.0028975711 0.12298622 0.86755073
0.0022769684 0.12409514 0.86627787
0.005501233 0.12392641 0.86510015
-0.0017661111 0.12762466 0.86836267
0.0022825606 0.12761305 0.86828148
0.0071351165 0.1275073 0.86755931
0.011781128 0.12765235 0.86717504
0.015738478 0.12837581 0.86616677
-0.0014971234 0.13203627 0.86904889
0.0025163579 0.13212176 0.86910474
0.0071461275 0.13255745 0.8689332
0.0119941 0.13241442 0.86800009
0.016819451 0.1321684 0.86638522
0.057287116 0.13394569 0.86745566
0.060685508 0.13430764 0.86980003
0.0039075366 0.13749471 0.86948889
0.0071408506 0.13732503 0.86841851
0.011438326 0.13652481 0.86675572
0.016801011 0.13523807 0.86540008
0.054022305 0.13871366 0.86700016
0.0570543 0.13642229 0.86884004
0.0066760429 0.14191018 0.86822855
0.053621948 0.14275259 0.86705011
0.055794716 0.14233589 0.8694222
0.0074547627 0.14745334 0.86718684
0.052996319 0.14691992 0.86784458
0.052444197 0.1501144 0.867643
0.011979101 0.17255306 0.86684966
0.011180004 0.17756079 0.86770248
0.012626948 0.18257666 0.86697453
0.011180045 0.18562712 0.86766672
0.015192298 0.18842712 0.86569995
0.050774261 0.18785097 0.86675942
0.01588702 0.19257489 0.86842954
0.049163844 0.19271255 0.86686683
0.050802022 0.19279434 0.86723351
0.016837416 0.19764309 0.86727512
0.044230189 0.19959205 0.86523354
0.047344666 0.19754824 0.86736679
0.050928954 0.19570147 0.86940008
0.017378082 0.20331071 0.86736679
0.020025898 0.20442843 0.8652668
0.042993598 0.20338652 0.86631346
0.04681975 0.20192818 0.86835837
0.018510042 0.20713332 0.86986673
0.022083083 0.20823652 0.86687934
0.028534278 0.20912477 0.86638349
0.033001859 0.20887084 0.8670001
0.037825931 0.20727089 0.8663801
0.042796355 0.20716776 0.86887783
0.04604343 0.20531037 0.8689999
0.022537574 0.21132737 0.86881673
0.028615599 0.21214008 0.86883342
0.03307702 0.21177097 0.86897773
0.037933737 0.21093325 0.86885554
0.042800885 0.2128505 0.86898881
0.046760511 0.21135819 0.86728334
0.023275055 0.21911873 0.86607414
0.028097492 0.21893738 0.86535698
0.043621875 0.21586478 0.8691892
0.04911232 0.21586777 0.86595827
0.0234164 0.029189309 0.87133348
0.025830165 0.029162511 0.87053347
0.013645198 0.030763013 0.87
0.016102547 0.030809037 0.87130171
-0.0058322283 0.12963226 0.87100005
-0.0042137071 0.12764953 0.87222224
-0.002582456 0.13281399 0.87061578
0.0014767098 0.13442087 0.87053347
0.062365007 0.1344312 0.8706001
-0.0016125817 0.13769078 0.87277889
0.0014781934 0.1378385 0.87166125
0.057895526 0.1388744 0.87053347
0.062183615 0.13792101 0.87090397
-0.00096325448 0.14160655 0.87490922
0.0028367294 0.14235704 0.87285322
0.058388423 0.14273134 0.8718335
0.062427621 0.14267418 0.87148762
0.003927609 0.14795484 0.87395549
0.0055374801 0.14742078 0.8708002
0.054236222 0.1481685 0.87043339
0.057643704 0.14776795 0.87284434
0.06171732 0.14778139 0.87292641
0.0039305063 0.15131806 0.87459999
0.0055427798 0.15242718 0.87163347
0.053859115 0.15213919 0.87308413
0.056088485 0.15121423 0.87399983
0.0063537573 0.15642336 0.87131673
0.051167183 0.16087088 0.87346673
0.012036457 0.17337842 0.87100011
0.010406528 0.17895433 0.87053967
0.010407394 0.18301736 0.87061214
0.013133881 0.18872595 0.8720417
0.01326738 0.19261128 0.87188482
0.013154964 0.19659977 0.87339163
0.015290433 0.19774966 0.87129211
0.049368013 0.19918004 0.87046677
0.051149588 0.19817361 0.8731668
0.015287642 0.20257337 0.87113309
0.048992585 0.20294778 0.87100011
0.017456302 0.20746703 0.87126678
0.044507939 0.20894344 0.87066674
0.048007373 0.20773599 0.87154168
0.018567499 0.21183467 0.8725667
0.02139635 0.21368371 0.87183344
0.026630959 0.21368229 0.87017781
0.033118382 0.21365499 0.87006682
0.037992224 0.21368773 0.87020016
0.042898439 0.21225236 0.87095255
0.048276901 0.21147072 0.87274158
0.013714394 0.21960165 0.87441176
0.022639224 0.21755384 0.87271851
0.027471622 0.21715288 0.87111115
0.033136304 0.21701057 0.87054086
0.038006265 0.21700487 0.87051862
0.041284017 0.21635604 0.87116671
0.034780238 0.22037651 0.87104535
-0.0058590127 0.12208926 0.87500006
-0.0034142029 0.13927859 0.87562507
-0.0026020091 0.14246261 0.87766588
0.00148495 0.14414476 0.87550002
-0.0016241868 0.14687285 0.87915421
0.0013231111 0.14712915 0.87678671
0.0020352036 0.15191634 0.87805319
0.053785391 0.15487415 0.87631011
0.058271952 0.15278825 0.87743342
0.061105616 0.15234469 0.87582147
0.003950879 0.15619123 0.87913334
0.0055936533 0.15873402 0.87963325
0.054221775 0.15752496 0.87897205
0.057638485 0.15575707 0.8789916
0.061300643 0.15609989 0.87861663
0.051419787 0.16166142 0.87777889
0.01051404 0.1668967 0.87953329
0.051421575 0.16983521 0.87780964
0.010492219 0.17226458 0.87770808
0.010472299 0.17601161 0.87604159
0.0088625522 0.18466139 0.87842858
0.012106935 0.19232027 0.87610006
0.012126666 0.19834933 0.87752783
0.013742593 0.20212461 0.87620991
0.051345531 0.20137957 0.87651157
0.015376815 0.20783007 0.87621439
0.016363686 0.21232155 0.87658519
0.018147863 0.21682955 0.87855554
0.020266782 0.21747579 0.87567514
0.020296348 0.22023973 0.87695259
-0.00097327761 0.15212476 0.88401306
0.00067332643 0.15411246 0.88127571
-0.00097184116 0.15600497 0.88270825
0.0020455101 0.15763666 0.88264656
0.053207766 0.15884997 0.88027567
0.058505237 0.1583135 0.88093317
0.062335912 0.15910095 0.88166666
0.0056242831 0.16207159 0.88445008
0.054078255 0.16227378 0.88107759
0.058018368 0.16199109 0.88209051
0.062951505 0.16228181 0.88260555
0.065039724 0.16462275 0.88490009
0.010554284 0.16753538 0.88290006
0.052488584 0.16736209 0.88197976
0.056074422 0.16742612 0.88405341
0.05338484 0.1725233 0.88320518
0.053465117 0.17607231 0.88453335
0.008892701 0.18364994 0.88141674
0.010551495 0.19211912 0.88266677
0.012176489 0.2016208 0.88113338
0.013802039 0.20627235 0.88000005
0.0088805314 0.21287115 0.88021046
0.015479447 0.21167824 0.88206255
0.013873489 0.21885829 0.88455558
0.016005248 0.21684872 0.88084823
-0.00097511284 0.15488264 0.88567996
0.00067636278 0.15974762 0.88525009
-0.00097961526 0.16056314 0.88976926
0.0025661124 0.16279422 0.88646448
0.0075613488 0.1637186 0.88594437
0.058466963 0.16470334 0.8853333
0.060965441 0.16476223 0.88564992
0.065047078 0.16134879 0.88500005
0.0021265363 0.16706863 0.88805681
0.0072851512 0.16808909 0.8858186
0.057439644 0.16820721 0.88644433
0.061926793 0.16760014 0.88758868
0.065758169 0.16779356 0.88715559
0.0028870187 0.1713451 0.88846117
0.0070514968 0.1726176 0.88610297
0.056897506 0.17263123 0.88658148
0.062026553 0.17200512 0.88902217
0.066126108 0.17188461 0.8883999
0.0075047496 0.17685331 0.88742095
0.053531609 0.17793873 0.88563329
0.056974899 0.17699498 0.88778877
0.0073025073 0.18235092 0.88806921
0.053733099 0.18191619 0.88896656
0.056667827 0.18161 0.88949162
0.0072945394 0.18649869 0.88717633
0.008140211 0.19184484 0.88900006
0.013903986 0.20944503 0.88650006
0.013925551 0.21224754 0.88787508
0.01388133 0.21733564 0.88505554
-0.00098215905 0.16429906 0.89207983
-0.00098305102 0.16777004 0.8928901
0.0012361316 0.17392774 0.89323968
0.0031741448 0.17745988 0.89150017
0.058779556 0.17882946 0.89006668
0.06222735 0.17753646 0.89188164
0.066108957 0.17643619 0.89191121
0.0035904786 0.18204372 0.89162207
0.0073263953 0.18147212 0.89084601
0.057567734 0.18283698 0.89184684
0.061152272 0.1826165 0.89442068
0.0040061348 0.18573602 0.89142847
0.0062182681 0.18837744 0.89085007
0.053156223 0.18735141 0.89319438
0.056526888 0.18706727 0.89382517
0.0073311329 0.19074975 0.89161116
0.053827781 0.19714542 0.89053345
0.00068583689 0.17784725 0.89765024
0.0023550831 0.18331268 0.89579326
0.062464885 0.18404537 0.89530373
0.052446149 0.18820812 0.89530015
0.057914168 0.18875758 0.89593327
0.062611096 0.18781286 0.89738923
0.054213464 0.19271803 0.89691424
0.057560612 0.19216371 0.89692253
0.062892653 0.19199958 0.89842939
0.065894023 0.19179939 0.89652282
0.054153889 0.19667318 0.89592874
0.056601461 0.19744034 0.89942241
0.064468667 0.19588549 0.89996684
0.065959506 0.19532987 0.89741403
0.056021035 0.20238154 0.89907789
0.055966355 0.20552602 0.89820015
0.054197822 0.21017632 0.8966552
0.052588694 0.21877883 0.89773345
0.05947734 0.19435535 0.90063363
0.061114032 0.19421868 0.90000027
0.058413401 0.19789158 0.90147781
0.062719598 0.19821085 0.9019751
0.066214487 0.19859925 0.90088344
0.058545195 0.20265397 0.90178013
0.06304042 0.20255201 0.90356666
0.057956453 0.20748359 0.90308905
0.054508377 0.21305817 0.90179312
0.056881618 0.21186697 0.90386677
0.053735308 0.21667638 0.90290427
0.066811055 0.20292442 0.90900004
0.059891183 0.20920369 0.90690035
0.062289454 0.20728186 0.90734017
0.065063246 0.20613994 0.90826672
0.058209449 0.21345782 0.90705013
0.060005657 0.21129383 0.90863341
0.061964869 0.21262115 0.91251677
0.065598108 0.20953798 0.91573334
0.063878626 0.21290606 0.91556674
