# .PCD v0.7 - Point Cloud Data file format
VERSION 0.7
FIELDS x y z
SIZE 4 4 4
TYPE F F F
COUNT 1 1 1
WIDTH 1164
HEIGHT 1
VIEWPOINT 0 0 0 1 0 0 0
POINTS 1164
DATA ascii
0.028788853 0.030417439 0.18758282
0.030836612 0.020592321 0.18843305
0.025175763 0.027349157 0.19086149
0.017300796 0.033235468 0.18993306
0.031500556 0.025266442 0.18731275
0.02383773 0.033001594 0.18664157
0.032545265 0.026268551 0.18258011
0.024789417 0.033666741 0.18194795
0.03297472 0.027721712 0.17831856
0.026263146 0.033566415 0.17753172
0.030073037 0.032374009 0.17415112
0.026618754 0.014828118 0.19202784
0.02049524 0.021738682 0.19184536
0.012422736 0.028617419 0.19206119
0.0092683211 0.031511452 0.19066837
0.029648948 0.017293453 0.18976161
0.023150399 0.022882473 0.19115236
0.011504001 0.033739544 0.18792632
0.032370381 0.018469675 0.18517119
0.013203612 0.034268573 0.1829575
0.032846995 0.019838165 0.17998922
0.0329885 0.021328673 0.17566115
0.023314647 0.033453699 0.17520648
0.032006666 0.02542094 0.17134529
0.025440861 0.033080291 0.17131552
0.027125578 0.031836934 0.16674298
0.0073871175 0.023696013 0.19133937
0.0047608577 0.02766246 0.19171458
0.00043073297 0.029922668 0.19060752
-0.0018349048 0.032052591 0.19041023
0.029133456 0.0056100469 0.18871915
0.027822101 0.0089192446 0.19127595
0.020648569 0.014990634 0.19219553
0.013907528 0.021978239 0.19109431
0.0068603037 0.030201696 0.19145274
0.0029337211 0.03223462 0.18907428
-0.0012650434 0.033541523 0.18763354
0.030970305 0.0073390724 0.18664542
0.031355079 0.010134868 0.18889076
0.0049094101 0.033939362 0.1852372
0.00069903769 0.034182198 0.18425396
0.032655619 0.0088282609 0.18348941
0.033293426 0.012379171 0.18253848
0.010061909 0.033848532 0.18126962
0.0060140472 0.03348387 0.18045375
0.01144933 0.033307165 0.17590487
0.03282173 0.018018074 0.17332304
0.012750725 0.033249944 0.17129391
0.031236429 0.02252803 0.16809595
0.019195782 0.032285918 0.16805565
0.031209588 0.028109148 0.16437417
0.020293968 0.032519065 0.16267735
0.031300422 0.029890902 0.16001797
0.021251325 0.033292513 0.15978017
0.031450182 0.029949263 0.15508449
0.022639934 0.0041641966 0.19103131
0.019779455 0.0079675 0.19123134
0.013299323 0.014195257 0.19117892
0.0048285117 0.02076887 0.19116062
0.0014190814 0.024783108 0.19212797
-0.0022740252 0.027413271 0.19199109
-0.0051164748 0.031095877 0.19032294
-0.0085226018 0.033148497 0.18773472
0.029118389 0.0018589525 0.18880799
0.026486192 0.004147402 0.19053444
-0.0045911772 0.033555586 0.18607607
-0.007497387 0.033682548 0.18598688
0.031109743 0.0028530275 0.18485922
-0.0015715957 0.034461394 0.18237576
0.031949032 0.004155389 0.1808956
0.03137406 0.0071952781 0.17943534
0.0036555072 0.034061622 0.17873591
0.00039548613 0.034494177 0.17817885
0.031706624 0.005088672 0.17686281
0.031574443 0.0080180541 0.17581728
0.0099500567 0.033878449 0.17296028
0.0051705996 0.033687953 0.17424136
0.0012619104 0.034293674 0.17445213
0.032674745 0.01291803 0.1709567
0.011248921 0.033640593 0.16905677
0.006752776 0.034238324 0.16907734
0.03236863 0.013382362 0.16636026
0.016252747 0.032233663 0.16573173
0.012415824 0.033688612 0.16482633
0.0084562171 0.034936152 0.16464257
0.017010253 0.032502264 0.16101521
0.013562529 0.033145029 0.16081002
0.032356225 0.022277724 0.1586259
0.032154806 0.023985552 0.1541422
0.025592273 0.032763828 0.15240636
0.03095226 0.024699196 0.14960939
0.027390026 0.032047652 0.14736155
0.027554873 0.031991374 0.14363939
-0.020471424 0.030845787 0.1941385
-0.021934487 0.033781882 0.19462064
-0.0039237137 0.019320041 0.19166642
-0.0069433376 0.022553435 0.19229412
-0.010675485 0.025489427 0.19174254
-0.01517149 0.02856778 0.19089738
-0.018761922 0.031261414 0.19141659
-0.021413147 0.034619864 0.19152677
0.026309591 -0.0074264528 0.18945304
0.023609178 -0.0041073263 0.19084534
0.021160599 0.00050625205 0.19129506
0.017323073 0.0044728313 0.19115758
0.0092782853 0.010217161 0.19138092
0.0016153865 0.016488709 0.1904735
-0.00095811952 0.0210931 0.19190297
-0.0089132991 0.028069632 0.19055396
-0.012040428 0.030982148 0.18889871
-0.016423294 0.033297963 0.18779492
-0.020298354 0.036340117 0.18680817
0.030848727 -0.0087219691 0.18551743
0.029545633 -0.0053771976 0.18718979
0.026325518 -0.0023143757 0.18922067
0.024339003 0.00077647157 0.18999928
-0.0098352479 0.033759739 0.18369615
-0.014418242 0.034725182 0.18430752
-0.019395357 0.038002096 0.18319029
0.031402063 -0.0038562333 0.18222982
-0.0041174125 0.033715457 0.17901519
-0.0081487512 0.03363065 0.17917174
0.032270756 -0.0021809414 0.17778504
0.031783462 0.0014816113 0.17784983
-0.0035197595 0.033581253 0.17508483
-0.0070545236 0.03367734 0.1751284
0.031988505 -0.0016378863 0.17416102
0.031698603 0.0022741137 0.17358097
-0.0011866856 0.034006439 0.17129022
0.031264521 0.0034423936 0.16897446
0.030996615 0.0072008204 0.16999003
0.0041020736 0.034528632 0.16758892
0.0010354258 0.034846798 0.16714883
0.031951189 0.0044468287 0.16553664
0.03168042 0.0083289072 0.16451326
0.0063238004 0.034977499 0.16266507
0.0019887667 0.035337575 0.16259998
0.031980477 0.011094697 0.15978193
0.01144407 0.033137854 0.1578663
0.0070486227 0.033853881 0.15772289
0.032060973 0.012807128 0.15517023
0.012425319 0.032508783 0.15333372
0.031305112 0.021431889 0.1508148
0.014502635 0.033290289 0.14928362
0.019642672 0.033780478 0.14574212
0.031277124 0.023641989 0.14208478
0.027164785 0.031456172 0.14104605
0.018773658 0.03425416 0.14102659
0.03027669 0.027675815 0.13734189
0.024318403 0.032815862 0.13660032
0.027469225 0.031328917 0.13374829
-0.016904471 0.022481343 0.1979928
-0.018554553 0.024170876 0.19790274
-0.0098443497 0.015902201 0.19312847
-0.01249296 0.01830459 0.19332421
-0.015155353 0.021832172 0.19486925
-0.018284591 0.025384227 0.19483334
-0.021143034 0.028472792 0.19504699
-0.02275084 0.031993389 0.19538191
0.021493072 -0.011156389 0.19127136
0.019645315 -0.007858444 0.19218951
0.015601831 -0.0046420489 0.19206747
0.011599483 -0.00089940988 0.19078934
0.0084021669 0.0026168742 0.19071332
0.0016160354 0.0092854155 0.1911594
-0.0015122844 0.012854928 0.19113538
-0.0060836892 0.016154172 0.19172361
-0.009951856 0.020687753 0.19265777
-0.013098517 0.024216097 0.19260779
-0.016218394 0.026670981 0.19214892
-0.02342006 0.035451975 0.18910119
0.027203314 -0.013092212 0.18821052
0.025010495 -0.010200093 0.19011107
0.022470586 -0.0066827992 0.19165406
0.018072456 -0.0021621911 0.19142494
0.013507951 0.0010179593 0.19058603
0.011105213 0.0042115408 0.19074875
-0.022695564 0.037123609 0.1873413
-0.024281278 0.036746547 0.18737927
0.030025784 -0.012151306 0.18581939
-0.015425412 0.035077646 0.18160784
-0.019272514 0.037587173 0.18143791
0.031687431 -0.0091762925 0.18149567
-0.010846665 0.03378728 0.17676398
-0.014552638 0.034467109 0.17769581
-0.019035105 0.037237063 0.17731509
0.032599408 -0.0088554742 0.17608616
0.032691412 -0.0052583683 0.17670059
-0.0090683652 0.033846833 0.17237324
-0.01345327 0.034462377 0.17301229
0.032948092 -0.0076872939 0.17207298
0.032618683 -0.0037793638 0.17146033
-0.0036992664 0.033666097 0.16805956
-0.0076206112 0.033708584 0.16830534
0.031803079 -0.0031760121 0.16718248
0.031693157 0.00066972151 0.16715187
-0.0031620348 0.034036372 0.1647397
-0.0054593924 0.034000814 0.1635958
0.032037705 0.002424255 0.1628232
-0.0018174313 0.034383122 0.15992165
-0.0049319183 0.034363568 0.16025153
0.032375932 0.0043026973 0.1581583
0.032513082 0.0076554734 0.15857625
0.0047132866 0.033875439 0.15605557
0.0010594279 0.03418107 0.1559892
0.032380152 0.009340846 0.15354529
0.0095252851 0.032398101 0.15059048
0.0059450231 0.033115663 0.1514574
0.002149215 0.034144275 0.15141314
0.031943344 0.010417104 0.14891821
0.011249908 0.032985065 0.14661604
0.0077781873 0.033257838 0.14628509
0.013437567 0.033920906 0.14221141
0.010573464 0.033030063 0.14285773
0.031929728 0.021171592 0.14041698
0.015963409 0.033969816 0.13846132
0.012253018 0.034435235 0.13864428
0.021448573 0.033249773 0.13527897
0.032299973 0.02395528 0.13128293
0.027498001 0.031186258 0.1308136
0.030983757 0.027679767 0.12618625
0.031100456 0.028706089 0.12287492
-0.017129105 0.014514315 0.1948252
-0.017139919 0.017839808 0.19610047
0.025157053 -0.023264829 0.19372576
0.013176777 -0.012814821 0.19236732
0.010556566 -0.0097867958 0.19236007
-0.0017304191 0.001529463 0.19120055
-0.0037961535 0.0039703883 0.19121584
-0.0070245466 0.0074913655 0.19112495
-0.010316276 0.01153019 0.1916703
-0.014556427 0.014696945 0.19328922
0.029272787 -0.025032055 0.19027823
0.026146207 -0.022484068 0.19077966
0.023387564 -0.018487656 0.19016653
0.020195115 -0.014826365 0.19107705
0.017014014 -0.011628237 0.19199038
0.012788315 -0.0074959351 0.19242328
0.0087797837 -0.003727894 0.19115266
0.0053098537 -0.00047198543 0.19084841
-0.0012801341 0.0064584645 0.19148609
-0.004562628 0.0098985881 0.1913397
-0.0068843216 0.012055319 0.19112766
0.03437119 -0.025840836 0.18580526
0.031077553 -0.023946054 0.1866321
0.028392417 -0.020435682 0.18705919
0.026513202 -0.016101075 0.18853852
0.03126879 -0.022328433 0.18391263
0.030169757 -0.018530061 0.18360293
0.029652435 -0.017457414 0.1795336
0.031192781 -0.013453679 0.18003538
-0.018705197 0.035044014 0.17447719
-0.022498868 0.037989438 0.17389035
0.032042231 -0.012492417 0.17430189
-0.015887998 0.034068041 0.17056009
-0.020932393 0.035004552 0.16965702
-0.023256069 0.037178099 0.16944981
0.032800734 -0.0095008612 0.16898188
-0.010511258 0.033694301 0.16568935
-0.014691351 0.033534028 0.16587442
0.032123908 -0.0091371862 0.16541666
0.032027669 -0.005474396 0.16442379
-0.00931013 0.033577863 0.16152292
-0.012622689 0.033727471 0.16090572
0.031494014 -0.0040153665 0.16101229
0.030985259 -0.0015945761 0.15960386
-0.0033612456 0.033533163 0.15689585
-0.0074524693 0.034053706 0.15697861
0.030946504 -0.00021260232 0.15592352
-0.0029122895 0.03324369 0.15273094
-0.0053363824 0.033669855 0.15217513
0.031419959 0.0027746223 0.15130335
0.032054659 0.0056924792 0.15103102
0.0038385326 0.033463538 0.14911851
0.00036514923 0.033993803 0.14901489
0.031675234 0.0068584513 0.14659569
0.0050856574 0.033618804 0.14563704
0.0012243837 0.03385115 0.14452428
0.031321842 0.0088510988 0.14253345
0.0066042393 0.033168223 0.14086086
0.0032874933 0.03364975 0.14032283
0.030917101 0.010471695 0.13922769
0.013770706 0.033526909 0.13518062
0.0098816836 0.033476211 0.13535273
0.014880914 0.033328421 0.13182247
0.010867692 0.033479981 0.13105059
0.020872306 0.032645844 0.1276229
0.032474529 0.023489991 0.1249671
0.022555387 0.03261172 0.12399548
0.032790314 0.023689751 0.11978871
0.028081719 0.031448007 0.12006307
0.033342622 0.02485585 0.11539072
0.029111886 0.031878565 0.11554837
0.031809717 0.028709026 0.11155337
-0.017585393 0.0062843058 0.19330901
-0.018557338 0.0094121471 0.19481385
0.022630207 -0.023744822 0.19239143
0.018794369 -0.023109112 0.19275779
0.015445563 -0.019749261 0.19162095
0.012350755 -0.016484264 0.19167665
0.0092708021 -0.012269804 0.1920456
0.0052236263 -0.0084474385 0.19139165
0.0012000208 -0.0045753932 0.19107658
-0.0065060426 0.0013385022 0.19174495
-0.010303911 0.0046529463 0.19171381
-0.013897253 0.0072613168 0.19186532
-0.016210673 0.010543272 0.19309264
0.028657844 -0.027693102 0.18987542
0.021342913 -0.020554768 0.19119936
0.018946368 -0.018458813 0.19092941
0.031759381 -0.026170289 0.18725505
0.033668149 -0.026963176 0.18222696
0.031610318 -0.02456269 0.1812996
0.029651292 -0.020920992 0.17999062
0.030220227 -0.024111295 0.17708108
0.029670827 -0.020374667 0.17623812
0.029742252 -0.018070359 0.17181361
0.030510155 -0.017636569 0.16764227
0.031075146 -0.014644787 0.16822872
-0.017718283 0.033457689 0.16397089
-0.020605223 0.035139397 0.16422537
-0.023143422 0.037123952 0.16383398
0.031258162 -0.011505789 0.16208589
-0.015528643 0.033701774 0.15946957
-0.020176299 0.035101932 0.15897787
-0.023464993 0.036663868 0.15779999
0.031367563 -0.010601981 0.1577732
0.030958485 -0.0071856407 0.15746966
-0.0097054262 0.034013875 0.15394384
-0.014303876 0.034124441 0.15455964
-0.018311411 0.034783244 0.15476662
0.030426178 -0.0055818753 0.15329832
0.030276559 -0.0028720899 0.15298635
-0.0083833849 0.034041036 0.15080869
-0.012457778 0.034013446 0.14922944
0.030081075 -0.0022986308 0.1483593
-0.0034658303 0.033040863 0.14712062
-0.0064600864 0.033951212 0.1462808
0.03099994 0.00064163748 0.14438838
-0.0013701376 0.033739679 0.1427618
-0.0038745254 0.033521798 0.14137661
0.0314174 0.0018292153 0.13936335
0.031623252 0.0050005056 0.14044279
0.001527125 0.033707306 0.13783297
-0.0029694373 0.033131324 0.13781118
0.030916527 0.0070394902 0.13609248
0.030332614 0.0096121477 0.13562924
0.0062978221 0.032967698 0.13483945
0.0026613027 0.033855401 0.13334435
0.0298048 0.011426114 0.13135868
0.0089058094 0.033723116 0.12915576
0.0040932419 0.03357188 0.12944311
0.030749848 0.018410994 0.12546945
0.010208528 0.033733774 0.12443036
0.031607155 0.019061111 0.1223501
0.011637754 0.0340469 0.11973721
0.032040335 0.019667355 0.1165241
0.017727226 0.033911262 0.11638612
0.022694075 0.032823689 0.11180121
0.033081405 0.023559408 0.10820442
0.028012764 0.030670822 0.10787892
0.03351526 0.024310047 0.10437411
0.029116122 0.030440325 0.10367572
-0.016730038 -0.0016742256 0.19622815
-0.018990014 0.0017522899 0.19652382
0.014808651 -0.024701022 0.19591799
0.012172073 -0.025258586 0.19452581
-0.012099409 -0.0035502212 0.19245932
-0.015029932 -0.00014933944 0.19384727
-0.01764953 0.0037731021 0.19440842
-0.019986438 0.0063317865 0.19596392
0.020028021 -0.026549909 0.19197771
0.014244037 -0.025507191 0.19349739
0.011803077 -0.023504391 0.19224268
0.0078961067 -0.020722151 0.19062552
0.0054818746 -0.016215412 0.1912823
0.0011658925 -0.012542086 0.19169068
-0.0030259471 -0.0087978449 0.19125068
-0.0099417586 -0.0020416011 0.19167736
-0.011907782 0.0016823676 0.19222865
0.02872688 -0.03170995 0.18832421
0.033076502 -0.029093627 0.17921337
0.031496529 -0.027347339 0.17824206
0.032233603 -0.029346377 0.17399994
0.031123517 -0.026038753 0.17459822
0.030919082 -0.025635049 0.16986066
0.029876016 -0.021580081 0.17041609
0.03119533 -0.024205444 0.16520759
0.030594205 -0.020805178 0.16512692
0.030547336 -0.018796794 0.16099134
0.030370405 -0.015987961 0.16162768
-0.021766331 0.036009017 0.15644979
-0.023644201 0.036443021 0.15571389
0.030665051 -0.018458311 0.15689278
0.030918354 -0.014676055 0.15673792
-0.020536151 0.035475183 0.15273947
-0.024320949 0.037149437 0.15122613
0.031064194 -0.012949057 0.15245524
0.030703988 -0.0086015081 0.15124443
-0.015382254 0.034013607 0.14856136
-0.019565314 0.035324696 0.1479229
-0.023359085 0.037207276 0.14789402
0.030940976 -0.011872561 0.1483804
0.030548412 -0.0070853457 0.14673311
-0.01235572 0.033907343 0.14347675
-0.016708823 0.034794964 0.14311254
0.030766655 -0.0055508716 0.14243361
0.030680947 -0.0033147475 0.14243409
-0.0066900058 0.03355331 0.13946325
-0.011557242 0.033916228 0.13825762
0.031629145 -0.0015379805 0.13792902
-0.004776747 0.033798646 0.13500446
-0.0092795901 0.034431312 0.13449633
0.031634461 0.00039099157 0.13299525
0.031206317 0.004074554 0.13399643
-0.0037550787 0.034021236 0.13030043
0.030682616 0.0051801344 0.12912893
0.029956214 0.0087575195 0.12920976
0.0024380255 0.034101434 0.12686956
-0.002027344 0.033573754 0.12685871
0.031267855 0.0065149413 0.12435424
0.030537777 0.010211565 0.12533224
0.0077738967 0.033807255 0.12242508
0.003800841 0.033836544 0.12254161
0.031359401 0.0072378414 0.12043071
0.031378269 0.010956469 0.1206581
0.0093163941 0.033987887 0.11844999
0.0046141474 0.033927206 0.11783844
0.015123459 0.033714958 0.11264694
0.010257984 0.033562854 0.11384076
0.032927059 0.019519299 0.10955542
0.012108296 0.032950982 0.11060899
0.033556722 0.020836232 0.1062119
0.018892318 0.03339877 0.10509557
0.041116457 0.014211312 0.10089272
0.034557547 0.022630749 0.10187626
0.027725205 0.031180494 0.10128021
0.019121826 0.033248585 0.10077578
0.046446405 0.012455082 0.097039044
0.04381945 0.015995273 0.098025382
0.035534583 0.023583872 0.09718895
0.029214721 0.031190056 0.09723866
0.051324502 0.01085938 0.093277574
0.04903207 0.014119668 0.094052196
0.045876943 0.017810993 0.094151258
0.03617467 0.023371493 0.092942357
0.029557165 0.030517939 0.092537284
0.057049133 0.0084125903 0.089445412
0.054654472 0.012712037 0.090565383
0.05180417 0.016748436 0.091028929
0.047757935 0.019430798 0.090078115
0.06590011 0.0034614634 0.08500874
0.062723294 0.0067837723 0.086120665
0.060150936 0.011174424 0.086945832
0.056385159 0.014164366 0.086316705
0.052578837 0.017119152 0.085645258
0.04882643 0.019393299 0.085316718
0.067729868 0.0046528727 0.081879675
0.064942792 0.0088110697 0.082464337
0.061774366 0.012500262 0.082567096
0.057538062 0.014669513 0.081464469
0.053852245 0.016922513 0.0812428
0.06834688 0.0063121319 0.077468216
0.06629236 0.0098100044 0.077735066
0.062790692 0.013118062 0.077433228
0.059679642 0.014516512 0.077340007
0.06557177 0.011045713 0.073908687
0.063529395 0.013029343 0.072946131
-0.013747498 -0.011330888 0.1938985
0.0086791152 -0.025550921 0.19285247
0.0037350962 -0.024576545 0.19265392
-8.5020438e-05 -0.021851908 0.19222584
-0.0035139471 -0.018137394 0.19188267
-0.011582535 -0.010778392 0.19186398
0.0061896648 -0.022454133 0.1910584
0.0032734508 -0.019674305 0.19081989
0.031149413 -0.031800244 0.16724846
0.03082446 -0.028417118 0.16675547
0.032198191 -0.030586496 0.16204748
0.031347308 -0.027340576 0.16273242
0.031601671 -0.0259942 0.15859264
0.030593872 -0.022148572 0.15872064
0.03228794 -0.02417678 0.15329891
0.031449497 -0.020531779 0.15422356
0.030943923 -0.019572113 0.15013492
0.030609712 -0.016095519 0.14891994
-0.023684593 0.036644578 0.1447567
0.030233596 -0.014899645 0.14474642
0.029507427 -0.01141311 0.14399597
-0.019793607 0.034630563 0.14099497
-0.021170404 0.036115509 0.14144319
0.030126171 -0.013331158 0.14151156
0.02997661 -0.0096873706 0.14016232
-0.012593141 0.035058171 0.13565928
-0.017956184 0.034236751 0.13697475
-0.021165695 0.036516253 0.13629168
0.030722611 -0.0073224278 0.13578355
-0.011805642 0.034005821 0.1316967
-0.01707324 0.035215519 0.13244852
-0.019490685 0.037376627 0.13218555
0.031224772 -0.0060432935 0.13077229
0.031554926 -0.0033228593 0.13122874
-0.0060871905 0.034190118 0.12696022
-0.0094169602 0.033886492 0.12800545
0.031994008 -0.0054285135 0.12852216
0.030920139 -0.0013891067 0.12620091
0.031028785 0.0026909718 0.12594068
-0.0043148436 0.033137724 0.12348574
-0.0090267118 0.033518918 0.12313628
0.031078875 9.200722e-05 0.12178737
0.031262834 0.0031971894 0.12188733
0.00046270899 0.033393092 0.11927968
-0.0027677864 0.032607585 0.12012869
0.030935939 0.0046122298 0.11696625
0.031194231 0.0091463719 0.11732352
0.0022779629 0.033579648 0.11463255
-0.001382079 0.033680137 0.11447883
0.030841526 0.006130279 0.11269796
0.03080534 0.0089790095 0.11258149
0.0079267202 0.033411495 0.11051339
0.0036884435 0.033203028 0.11035293
0.031701799 0.010640103 0.10814786
0.009174129 0.03246586 0.10651731
0.0054751942 0.033157788 0.10705519
0.038701884 0.0064179171 0.10224479
0.03648901 0.0088740606 0.10323882
0.033466514 0.012442697 0.10553104
0.010894745 0.032275259 0.10204875
0.043881197 0.0045248792 0.099197268
0.041443735 0.0070168804 0.099836349
0.039160162 0.010695429 0.10132766
0.012967987 0.033132069 0.097240865
0.049185276 0.0025982764 0.094195366
0.04644157 0.00531088 0.095363975
0.044500962 0.0089221913 0.097448766
0.017760299 0.033082537 0.09391427
0.052378416 0.004238287 0.091341496
0.049492564 0.0064589791 0.092342019
0.03201808 0.02640116 0.08926785
0.022871703 0.031789217 0.089472175
0.060447142 -0.0015558582 0.086421013
0.058057792 0.0021614525 0.087393105
0.055420615 0.0040448774 0.08947283
0.036184624 0.022463137 0.086200118
0.028560316 0.029562717 0.08521378
0.068401858 -0.0065235458 0.082364798
0.066717446 -0.003524486 0.082633972
0.062766492 -0.0007567592 0.084729552
0.046435036 0.018975861 0.081657052
0.037406888 0.022725029 0.081965268
0.029175106 0.029962569 0.081731975
0.069022052 -0.0059893355 0.080981672
0.068298683 -0.0021160766 0.079579711
0.055118747 0.01444496 0.077613711
0.051799875 0.016632613 0.078033924
0.047713239 0.018416937 0.077372253
0.068918347 0.00040924922 0.074176729
0.068576351 0.0031023659 0.074932575
0.056714267 0.014140317 0.074036956
0.052622888 0.015860852 0.073058724
0.04861673 0.017888464 0.073545277
0.068154097 0.0046517141 0.070192873
0.066252612 0.0088247526 0.070795
0.06258364 0.012779728 0.069470525
0.057901271 0.014285235 0.068987012
0.054532871 0.015520083 0.069673896
0.068412125 0.0062071867 0.065784097
0.066563942 0.0089255255 0.06513834
0.063180849 0.012426212 0.065016866
0.059653945 0.014613941 0.065102696
0.066191368 0.01058569 0.061716139
0.063993044 0.012990614 0.06171155
-0.013350791 -0.014828422 0.19387677
-0.0042587491 -0.021461617 0.19239217
0.029650643 -0.035102002 0.16850787
0.032448068 -0.037922524 0.16612244
0.030711813 -0.035677303 0.16571575
0.031933434 -0.034818046 0.16269878
0.032983866 -0.030261602 0.15680254
0.032158125 -0.028029842 0.15607134
0.032743059 -0.031054489 0.15151417
0.032369118 -0.027537992 0.15227023
0.03200062 -0.026058 0.1469155
0.031407505 -0.021699315 0.14749849
0.031757042 -0.020970482 0.14281532
0.030787941 -0.017226096 0.14302051
0.030770293 -0.020002531 0.13884589
0.030732553 -0.015608662 0.13860542
-0.019422427 0.034198351 0.1337041
-0.022610439 0.036782824 0.13421285
0.031446349 -0.014670301 0.13402045
0.030287471 -0.011396662 0.13467127
-0.017295396 0.034910753 0.1292628
-0.021716874 0.036368467 0.12959564
0.031769238 -0.013755927 0.13043645
0.030728482 -0.010192935 0.12957072
-0.013407478 0.03310068 0.12613994
-0.01740752 0.034679048 0.12517196
0.030470401 -0.0081387246 0.12448394
0.031081833 -0.0043555051 0.12461185
-0.0074247774 0.03274256 0.12165219
-0.011740085 0.03315692 0.12153369
-0.01709225 0.034851078 0.12147689
0.031304769 -0.0032201353 0.12132204
-0.0056344904 0.032349776 0.11734694
-0.0097304368 0.033202861 0.11718762
0.031183446 -0.0014155488 0.11617774
0.031247983 0.0020611752 0.11491269
-0.0047123674 0.03271836 0.11281419
0.031374916 -0.00039057713 0.1118052
0.031039882 0.0034508212 0.1105054
0.0013989415 0.03381037 0.10811925
-0.0019760467 0.033991046 0.10835236
0.033887461 0.0016823728 0.10521114
0.032693833 0.0050042477 0.10659385
0.0036391588 0.033804439 0.10411763
-0.00090268254 0.034459412 0.10418248
0.040087707 0.0007341262 0.10116953
0.037684157 0.0027875211 0.10252863
0.034327272 0.0067118714 0.10394859
0.008447363 0.032872982 0.10008001
0.004688926 0.034031719 0.099310517
0.00042717904 0.034797218 0.10007656
0.045223996 -0.002187511 0.096211433
0.043053694 0.00091086514 0.098476708
0.041276135 0.004274575 0.10060835
0.0099401819 0.033535052 0.095734894
0.0062564835 0.033898335 0.094342649
0.051069692 -0.0044931229 0.092127502
0.048472553 -0.00080640614 0.094307363
0.045960754 0.00248098 0.09565109
0.012152555 0.034044012 0.091460347
0.062507391 -0.012386616 0.088026702
0.06136195 -0.01122288 0.087970734
0.056448448 -0.0063795932 0.088466287
0.053904559 -0.0022293217 0.090373099
0.051479355 0.00087984093 0.091935217
0.01346566 0.033875786 0.087155879
0.065937065 -0.011200698 0.086575925
0.062362436 -0.0078946315 0.086231649
0.059401505 -0.0041583646 0.087049246
0.056324624 -0.0010241643 0.088351071
0.018800948 0.032138914 0.082298458
0.070828989 -0.011231408 0.081283808
0.068295918 -0.0092787817 0.083123446
0.064447999 -0.0053831544 0.083897829
0.033363767 0.025498774 0.07964468
0.024154492 0.031698428 0.078683496
0.070885465 -0.011517838 0.078097463
0.069293521 -0.0084504168 0.077778339
0.037816349 0.022124898 0.075517654
0.029530125 0.02990477 0.074777842
0.069373876 -0.006468609 0.072746217
0.069312267 -0.0027048215 0.074760675
0.047561012 0.018406391 0.071656525
0.038483772 0.021711621 0.070910156
0.029964129 0.028931456 0.070411325
0.069711223 -0.0016119443 0.069442153
0.068652496 0.0019728914 0.06872189
0.052617274 0.016044833 0.067625225
0.048218086 0.017883176 0.067399502
0.069549546 -0.00089789554 0.063960791
0.068952411 0.0035611503 0.06419456
0.058328204 0.015143113 0.062727511
0.05340071 0.016164683 0.063162684
0.049603954 0.0169471 0.063340783
0.069198929 0.0045564547 0.059762537
0.067370698 0.0089338124 0.059185207
0.064023703 0.012735488 0.058482289
0.060092714 0.015425336 0.058857322
0.055407465 0.016479796 0.058776379
0.069368668 0.005491212 0.055964708
0.067443475 0.009372782 0.054754317
0.064436913 0.012830654 0.054639459
0.060238138 0.015479522 0.054218292
0.056542143 0.016396688 0.054861426
0.064434871 0.012535635 0.051342428
0.032182354 -0.025469709 0.14102876
0.031910568 -0.026281012 0.13562563
0.0313881 -0.02230731 0.13591954
0.03177486 -0.02175664 0.13095623
0.031796712 -0.017260011 0.13080794
0.030102279 -0.016471315 0.12634188
-0.023446284 0.034581058 0.12197143
0.029460868 -0.015703293 0.12239665
0.029876724 -0.011970044 0.12197828
-0.015471723 0.031797558 0.11793399
-0.018280361 0.033629823 0.11730796
-0.02254789 0.035307679 0.11881864
0.030084623 -0.010011597 0.11773235
0.030189117 -0.0058657508 0.11748666
-0.013574029 0.031935472 0.11404121
-0.017673193 0.032983795 0.11434382
0.03034416 -0.0092049036 0.11331725
0.029641559 -0.0068221595 0.11274832
-0.0070890738 0.032649029 0.11089742
-0.01094388 0.032150149 0.1099714
0.03058511 -0.0038087135 0.10871571
-0.0063855024 0.033139732 0.10652626
-0.0096249515 0.032276355 0.10434121
0.034280263 -0.0052513676 0.10199809
0.032578889 -0.0027500475 0.10459429
-0.0048182802 0.033505786 0.10115135
-0.0085164821 0.033198096 0.1013782
0.050310411 -0.017293157 0.098859191
0.039868295 -0.0077075511 0.099441051
0.03770224 -0.0044754352 0.10050327
0.035338465 -0.0017566979 0.10230237
-0.0021556821 0.033749968 0.097113609
0.052795209 -0.016009102 0.096851885
0.049525782 -0.013662947 0.095182776
0.045667436 -0.010238376 0.095500588
0.043088689 -0.0062965136 0.096545398
0.041274481 -0.0030270573 0.097931564
0.0022591073 0.033425361 0.092859387
-0.00071327202 0.033429846 0.092706501
0.058306485 -0.017325928 0.092544198
0.05541474 -0.014776919 0.092878044
0.051647194 -0.01165607 0.092331529
0.048686579 -0.0078655835 0.092838824
0.045928471 -0.005588036 0.09420681
0.0096619995 0.034027509 0.087753177
0.0048401142 0.033632118 0.088855088
0.06109244 -0.015198316 0.089237213
0.05791726 -0.012252584 0.088777184
0.054180518 -0.0095631052 0.089339852
0.010994161 0.033443198 0.0841555
0.0067822831 0.033412743 0.084768891
0.011249228 0.032925557 0.079952896
0.013764937 0.032838099 0.075227857
0.070773594 -0.012015156 0.074686348
0.069255129 -0.011309622 0.07416147
0.019028042 0.031652112 0.071532965
0.07117667 -0.013173841 0.071209192
0.069321521 -0.01040419 0.070570469
0.033411611 0.023819845 0.067381144
0.025793457 0.030348925 0.066619515
0.071419783 -0.012879161 0.067725658
0.069735274 -0.0085281841 0.065939724
0.069824189 -0.0042584427 0.065986335
0.046234082 0.018226232 0.064062119
0.03810757 0.021266717 0.063462794
0.030374857 0.027733425 0.062778294
0.071135633 -0.0073698983 0.061255872
0.06990914 -0.0040226541 0.061504602
0.051389378 0.01616789 0.05985707
0.047575738 0.016954798 0.060029507
0.038382985 0.021600157 0.059414625
0.031006245 0.028144581 0.059236348
0.071726188 -0.0077781267 0.058960617
0.06990692 -0.0020158514 0.056606054
0.069595993 0.0019203015 0.057894528
0.052008234 0.015866319 0.055389524
0.047816858 0.016428344 0.055023313
0.069991022 -0.0014237463 0.052414417
0.068909429 0.0025452375 0.052186966
0.0678697 0.0067254156 0.052255034
0.05790972 0.015125541 0.050816298
0.054201767 0.016023055 0.051097095
0.050528545 0.016890313 0.050343394
0.068378456 0.0036586821 0.048017859
0.067056678 0.0078718215 0.048212469
0.064178377 0.011940513 0.047695994
0.059952579 0.014624165 0.047622204
0.055989068 0.015135508 0.046465993
0.066834874 0.0083617624 0.043097138
0.064077072 0.011426894 0.043126762
0.060556803 0.01369701 0.043262601
0.029401993 -0.032888379 0.14516658
0.030023027 -0.03042924 0.13871539
0.030010028 -0.030846896 0.13457945
0.032374196 -0.026914999 0.13014868
0.032985151 -0.023387302 0.1286149
0.030286329 -0.023631932 0.12461877
0.029736646 -0.018855087 0.12405688
-0.026925996 0.034685906 0.1202026
0.02961817 -0.018112503 0.12036115
-0.024642739 0.03480443 0.11615521
0.030410858 -0.015875926 0.11584365
0.030818205 -0.012473874 0.1156745
-0.015400366 0.031659357 0.11193722
-0.018503927 0.033563755 0.11161095
-0.024256479 0.03465984 0.11163324
0.030812141 -0.016408119 0.11179465
0.030833647 -0.010951039 0.11100864
-0.013886066 0.032351866 0.1075812
-0.017078105 0.033687335 0.10766965
-0.022426017 0.034739301 0.10797238
0.031212818 -0.010164514 0.1064707
0.030890703 -0.0060099857 0.10680723
-0.012391529 0.033023927 0.10319573
-0.016526466 0.033303358 0.10309452
0.035868283 -0.01176349 0.10127681
0.033959191 -0.0084171044 0.10295057
-0.0093537876 0.033667799 0.098730445
-0.013659338 0.032804374 0.098360837
0.045871228 -0.016980745 0.097986698
0.042368852 -0.013806523 0.098198831
0.039674193 -0.011288628 0.099169075
-0.0053109517 0.033128038 0.094537735
-0.0085203722 0.033483613 0.0939399
0.048415683 -0.014672915 0.097088873
0.046041913 -0.012413954 0.096893251
-0.0034593204 0.032402068 0.089122057
0.001591431 0.033058926 0.085694373
-0.00088278204 0.032970525 0.085260272
0.0048167184 0.033123031 0.081958711
0.0015992168 0.032849342 0.080479264
0.0097288014 0.033620074 0.077385306
0.0071093384 0.03341528 0.077804565
0.011765799 0.033148579 0.074219644
0.0089177666 0.033222251 0.073103607
0.013516193 0.031834237 0.068776369
0.071568057 -0.013412319 0.065102458
0.070225023 -0.011292351 0.064417362
0.021270756 0.031120475 0.060583115
0.072201058 -0.011922553 0.06110841
0.071181722 -0.010461686 0.062339664
0.035139099 0.024739012 0.057579398
0.026453309 0.03118908 0.056409001
0.071745947 -0.0084314346 0.05591917
0.069978252 -0.0050974004 0.056255579
0.047125131 0.017181605 0.053626716
0.038630262 0.021404216 0.052843571
0.031466104 0.02819512 0.052499413
0.072384343 -0.0071320906 0.051656246
0.070752636 -0.0040130988 0.050715208
0.047657572 0.017446578 0.049916148
0.039886218 0.021258574 0.049343109
0.068615869 0.0011527613 0.046162486
0.053685494 0.015821317 0.045407653
0.0492182 0.017176911 0.044689655
0.045733679 0.018664848 0.045199513
0.06790226 0.0025105402 0.041424453
0.067342401 0.0067428201 0.041420043
0.064261258 0.011346225 0.040029883
0.059488636 0.014197629 0.041290402
0.054448456 0.015417447 0.040375888
0.051408909 0.017113937 0.041548312
0.06745106 0.0069565065 0.037111104
0.064501271 0.011330429 0.036995888
0.059930846 0.013659827 0.036489844
0.066796727 0.0073829871 0.032950699
0.064181104 0.010654328 0.03319937
0.029104142 -0.032218121 0.1305311
0.029278688 -0.032215226 0.12863356
0.031416759 -0.029229928 0.12312508
0.030006383 -0.025999736 0.12188494
0.03235719 -0.028514745 0.11754388
0.030344162 -0.024730455 0.11865014
0.029260291 -0.021126708 0.11776155
0.033967592 -0.027440311 0.11327004
0.031547204 -0.023912894 0.11364913
0.030043172 -0.019630203 0.11447144
0.032586332 -0.02286887 0.10922927
0.031170323 -0.018246666 0.10943031
-0.02293073 0.033995543 0.1044957
0.037372287 -0.023570374 0.10280389
0.034625549 -0.021201694 0.10423392
0.03230153 -0.016601831 0.1054529
0.030921951 -0.013165653 0.10636705
-0.017873373 0.03350269 0.10144973
-0.022117771 0.034061179 0.10042274
-0.025184873 0.035711978 0.099556148
0.03930264 -0.022388775 0.099866986
0.036843576 -0.019492222 0.10044575
0.034605674 -0.015281515 0.10195625
-0.016377408 0.033128843 0.09673661
-0.02101944 0.034913063 0.09535265
0.042931445 -0.020469284 0.098240912
0.038887676 -0.017493259 0.098491669
-0.01058678 0.03318651 0.092135429
-0.014642855 0.0332973 0.092261791
-0.019142853 0.034286469 0.092006326
-0.0093496041 0.032247819 0.087696493
-0.013512077 0.03333357 0.087856293
-0.0043157265 0.031954702 0.0838148
-0.0077781398 0.032587036 0.08349067
-0.0024578497 0.032627996 0.079680085
-0.0057398658 0.03271208 0.079284489
0.0039730044 0.032615855 0.075565159
-6.5159053e-05 0.032966591 0.075468779
0.0057469252 0.032943204 0.070580781
0.0011852086 0.032950196 0.070397675
0.011611775 0.031476885 0.066005945
0.0066327769 0.032460198 0.066353023
0.012234355 0.03108805 0.062452376
0.0081552966 0.032215398 0.06261456
0.01395042 0.030469071 0.057999372
0.015248477 0.030960485 0.054337919
0.026203081 0.030974682 0.05002749
0.038683295 0.021321421 0.045920491
0.031285826 0.027597368 0.045478463
0.023349768 0.031377576 0.044797182
0.071023315 -0.0088879056 0.044225276
0.06926553 -0.0046413466 0.044500768
0.047113612 0.017409422 0.041117072
0.039264068 0.021274991 0.041573167
0.031561173 0.027092068 0.040281951
0.069166332 -0.0052800514 0.039291978
0.067516647 -0.00096416473 0.039156675
0.052456565 0.015465783 0.037013054
0.049083725 0.017095422 0.037673056
0.039913215 0.02110699 0.038169324
0.067931406 0.001138851 0.035328805
0.054503649 0.014943227 0.033757091
0.049912304 0.016832538 0.033201575
0.0453813 0.01869767 0.034384072
0.068513319 0.0029081367 0.030334949
0.067414522 0.0062021073 0.029900551
0.064197131 0.010372529 0.029837906
0.060097091 0.0132815 0.029977202
0.055168405 0.015251473 0.029023886
0.051537164 0.016887993 0.029252052
0.068967283 0.0031273477 0.027543485
0.06775891 0.0067524165 0.024896979
0.064766936 0.010246107 0.025039196
0.060465492 0.013230881 0.024824977
0.056598529 0.014877386 0.02579546
0.068190299 0.0066015553 0.021587968
0.064905539 0.010399159 0.021723986
0.061556835 0.012942273 0.022137165
0.034023736 -0.027296003 0.10781169
0.033062328 -0.024202809 0.1062457
0.035722025 -0.025212791 0.10415548
0.034688979 -0.023770081 0.10530639
0.039434891 -0.02410448 0.099605441
-0.017415671 0.033546448 0.089533746
-0.020849409 0.035169728 0.089198947
-0.015973788 0.033206116 0.084362507
-0.019210268 0.034033734 0.085703969
-0.01042242 0.03294047 0.080850422
-0.013587935 0.033171639 0.080613911
-0.0086027831 0.032854501 0.076392889
-0.013010971 0.032646261 0.076129794
-0.0032985574 0.032456167 0.072295129
-0.0066052619 0.03253527 0.071873248
-0.0020826859 0.032278795 0.067722142
0.0035815332 0.031681471 0.062393427
0.00057352521 0.032084972 0.063335717
0.0057657771 0.031777706 0.059141755
0.0014718333 0.031841625 0.059132934
0.011239265 0.030860715 0.055635035
0.0074030273 0.030935515 0.054310203
0.017656326 0.030560847 0.046101451
0.019821506 0.031099558 0.042870998
0.026457269 0.02941015 0.038190365
0.069679096 -0.010554656 0.036553383
0.068843506 -0.0058486387 0.037157893
0.035139896 0.023728041 0.034452677
0.027248476 0.028404921 0.034198046
0.069969997 -0.0099529661 0.033341408
0.068589665 -0.0061837528 0.033130288
0.067219198 -0.0031817816 0.032330275
0.048035763 0.017608121 0.031169951
0.039524537 0.020227049 0.031001508
0.066552915 -0.0018329769 0.028399646
0.048848763 0.017153034 0.026703
0.045086987 0.018275658 0.025673151
0.068676829 0.0024474151 0.023715496
0.05462753 0.014958009 0.022401154
0.050896607 0.016702304 0.022449493
0.046695672 0.017933987 0.021888971
0.06914407 0.002680812 0.020923316
0.067755111 0.0058674198 0.018691301
0.064386949 0.010076929 0.018808186
0.060306087 0.012871882 0.018489361
0.055932026 0.014341433 0.017837107
0.052194856 0.01608683 0.017879725
0.066335887 0.0064378977 0.014842629
0.064050406 0.0088828579 0.014819503
0.060233057 0.012092704 0.014246285
0.028748253 -0.034070812 0.11547697
-0.022410473 0.033724122 0.08252275
-0.025272334 0.035161164 0.081847608
-0.017519178 0.033118568 0.078981757
-0.021395339 0.033797469 0.078428268
-0.024811825 0.035478938 0.078129292
-0.01597181 0.032771122 0.074206889
-0.019238349 0.03365729 0.074133515
-0.010558668 0.032437179 0.070161343
-0.013602043 0.032460816 0.069980919
-0.004092548 0.031472236 0.066117883
-0.0082394322 0.03216999 0.066153347
-0.012846812 0.032443073 0.065708101
-0.0041079987 0.031290188 0.061827421
-0.0063283788 0.032061391 0.061455667
0.0033603897 0.03118578 0.055702388
-0.00063597783 0.032105934 0.058023274
0.0046824217 0.031562012 0.053189337
0.0013656076 0.03264235 0.053188622
0.01075717 0.030932132 0.047368288
0.0063961018 0.03176365 0.049141765
0.0018319814 0.032503959 0.048458576
0.01281492 0.031029686 0.044443488
0.0078601772 0.031993885 0.04436636
0.010075795 0.032263242 0.040252864
0.014914168 0.03175512 0.035761595
0.068045191 -0.014507651 0.033762336
0.025726847 0.028793979 0.031602919
0.016769942 0.032195255 0.030906379
0.07073006 -0.011778252 0.031685174
0.068926089 -0.0077607315 0.029659092
0.034240138 0.023020569 0.028183162
0.026755814 0.029474065 0.028174102
0.070151336 -0.010209667 0.029004574
0.067321263 -0.0080487188 0.025756419
0.066330105 -0.003956398 0.025920033
0.039263375 0.020429373 0.024766028
0.031220332 0.026204076 0.023261845
0.024050293 0.031693298 0.023326516
0.066736937 -0.0037873313 0.021522105
0.04908745 0.016607597 0.019407332
0.040425982 0.020951796 0.01960814
0.032424089 0.025993044 0.019583702
0.067412302 -0.0011528172 0.017466247
0.067686357 0.0030842721 0.015866995
0.053430773 0.014791491 0.015736818
0.050146207 0.017065793 0.016399384
0.045836076 0.018687457 0.015540183
0.067098178 -0.00034599751 0.012293696
0.066970065 0.003954567 0.012435853
0.063800432 0.0083829537 0.01216805
0.060143027 0.011793043 0.011823416
0.055401675 0.014441721 0.012199342
0.051404558 0.016402895 0.01174444
0.06740012 0.0047959164 0.0079900026
0.064738058 0.0090783518 0.0088530183
0.061070882 0.012482276 0.0084976554
-0.023810755 0.034039121 0.07485044
-0.025700571 0.035738856 0.075684667
-0.02189002 0.034073494 0.071496129
-0.024284193 0.035774689 0.071299672
-0.016811494 0.032486331 0.067203104
-0.020592175 0.034151323 0.066905022
-0.010534965 0.032197013 0.06273365
-0.014755819 0.032864887 0.062721789
-0.018890398 0.033599984 0.061752081
-0.0094522769 0.03214414 0.058714271
-0.012984227 0.032845002 0.05883646
-0.003839408 0.031259306 0.05460453
-0.0076332558 0.031630658 0.053906024
-0.0027988013 0.032067344 0.050372422
-0.0057476414 0.032371383 0.050183654
4.9140304e-05 0.032235429 0.045283377
0.0046559507 0.031775363 0.040908098
0.0016216924 0.032026917 0.041680455
0.0069289831 0.031830773 0.03699255
0.012365532 0.03173634 0.03173995
0.0092861364 0.032093894 0.032595396
0.010327774 0.031965997 0.028434396
0.016540205 0.032385461 0.024276137
0.068968803 -0.011917908 0.025073469
0.066916779 -0.010708898 0.022292972
0.017859556 0.032546051 0.019845247
0.067950495 -0.013546502 0.020187736
0.067025684 -0.0092762411 0.01948458
0.030937472 0.025885245 0.016013741
0.022832051 0.031124596 0.016412795
0.067137867 -0.0087284856 0.014894485
0.066997498 -0.0042824037 0.015300333
0.040539898 0.020587446 0.01256907
0.030840175 0.02515916 0.01205641
0.066793598 -0.0033457354 0.010263503
0.049140058 0.016197329 0.0079244375
0.044947669 0.017094262 0.0084658861
-0.021463487 0.033578768 0.063405454
-0.017248556 0.032739293 0.059094369
-0.021257708 0.03367931 0.060416698
-0.024163306 0.034208756 0.05963701
-0.015934877 0.032726012 0.056688428
-0.019517532 0.033499159 0.055749297
-0.022997951 0.034237169 0.055462599
-0.011010155 0.031358737 0.051448464
-0.013914417 0.032149252 0.052271903
-0.017995531 0.03333538 0.051199198
-0.0095331743 0.031851195 0.048342228
-0.012315019 0.032294478 0.046915829
-0.0033390792 0.031283114 0.043231487
-0.0067739766 0.031548485 0.043432713
-0.0097119445 0.032228731 0.042029083
-0.002498853 0.031149015 0.039387345
-0.0054679541 0.031394586 0.037707508
0.00088781491 0.031456266 0.035191536
-0.0039245123 0.031551857 0.034434438
0.0046617202 0.031356554 0.03101027
0.0016851313 0.031753168 0.029813349
0.0069641313 0.031380311 0.025978625
0.012497977 0.031350844 0.020781636
0.009438999 0.031393625 0.021576345
0.066769436 -0.017078888 0.022785604
0.010278177 0.031409185 0.017214775
0.066885278 -0.016783632 0.016479313
0.016472574 0.03177486 0.012983918
0.067450464 -0.011735108 0.012739539
0.030680971 0.024819346 0.0090066791
0.021984285 0.030502027 0.0089207888
0.067347623 -0.010154605 0.0078501701
0.066180393 -0.0067365617 0.0077836514
-0.024678444 0.034358565 0.052947998
-0.020216662 0.033498738 0.047837496
-0.023323216 0.034884516 0.04816246
-0.01448715 0.032518413 0.044666708
-0.018538579 0.032950524 0.044831157
-0.022151886 0.034699507 0.044477701
-0.012989351 0.032380104 0.040559292
-0.017399449 0.032048598 0.041590095
-0.0075704772 0.031669959 0.03549695
-0.010961964 0.031628501 0.035920203
-0.0056098606 0.03162197 0.03181541
-0.010034043 0.0315683 0.031768203
0.00044579804 0.031847708 0.026492834
-0.0045894329 0.031071899 0.027980328
0.00094001647 0.031009063 0.023058414
-0.0031082053 0.03073361 0.023632526
0.0069821039 0.030701898 0.019067347
0.0033686263 0.030570459 0.019317567
0.0081378352 0.031036312 0.015076816
0.0047324114 0.030709211 0.014350355
0.064480647 -0.020179339 0.017295361
0.0093360003 0.031360239 0.0099947453
0.06568481 -0.017875532 0.010643005
-0.021482732 0.032932006 0.041772127
-0.022340383 0.034461733 0.042088687
-0.020283176 0.031877436 0.037333012
-0.02309335 0.033663191 0.037966788
-0.014625241 0.031455658 0.033770084
-0.017943796 0.031252421 0.03217721
-0.012966514 0.031737793 0.028663516
-0.00699839 0.031016108 0.024273515
-0.011395918 0.032039024 0.024197817
-0.0051323986 0.030590948 0.020533562
-0.010326427 0.032083474 0.020982504
0.00052604545 0.030945934 0.0167467
-0.0041972995 0.030200724 0.016069591
0.0022644904 0.031112527 0.012347758
0.0029720142 0.0314156 0.0078482628
0.064620286 -0.021008749 0.0080657005
-0.023288272 0.033388257 0.034452677
-0.021127993 0.031802103 0.031630754
-0.023135211 0.033439863 0.03131485
-0.019777942 0.032023035 0.02685529
-0.022682173 0.033711243 0.026287794
-0.018813521 0.032128975 0.021839678
-0.0077784946 0.030858867 0.018588006
-0.012123876 0.031962145 0.018250704
-0.016571075 0.032069482 0.018174231
-0.0068587093 0.030616887 0.014185548
-0.010283483 0.030696718 0.013613045
-0.0042645 0.030275933 0.0094491839
-0.019501612 0.032911897 0.01902914
-0.023427796 0.033783022 0.01972717
-0.027119229 0.034098495 0.017178118
-0.015167884 0.030885201 0.013962924
-0.018512202 0.031759463 0.01531446
-0.022535037 0.032946743 0.014953375
-0.013892365 0.030804209 0.011397958
-0.017367803 0.031096127 0.010483384
-0.0084404154 0.029843848 0.0076419115
-0.029189263 0.02991461 0.017970383
-0.024953831 0.031200923 0.010227919
-0.019552071 0.031404521 0.0092841387
-0.023249727 0.031132031 0.0082865953
-0.027529659 0.031227371 0.010860026
