# .PCD v0.7 - Point Cloud Data file format
VERSION 0.7
FIELDS x y z
SIZE 4 4 4
TYPE F F F
COUNT 1 1 1
WIDTH 1199
HEIGHT 1
VIEWPOINT 0 0 0 1 0 0 0
POINTS 1199
DATA ascii
-0.028426941 -0.022597633 0.18940815
-0.020681132 -0.030116189 0.19025257
-0.01413362 -0.035889551 0.1883603
-0.029906038 -0.023833971 0.18571603
-0.023685424 -0.032843702 0.1865015
-0.015829742 -0.037260536 0.18517399
-0.027059963 -0.028152406 0.18216485
-0.020606976 -0.035698097 0.18100113
-0.024332277 -0.032979768 0.17779011
-0.026464947 -0.014756354 0.19165421
-0.020272732 -0.022212639 0.19132918
-0.012737988 -0.028888095 0.19141319
-0.0092872549 -0.031976111 0.19104868
-0.0054649431 -0.034698565 0.19036004
-0.0031779446 -0.036735967 0.1892072
-0.03358775 -0.010147694 0.1881361
-0.029667078 -0.017074618 0.19026896
-0.022789333 -0.023617633 0.1912834
-0.011397913 -0.034774385 0.18939
-0.0083309365 -0.037095532 0.18780372
-0.0035552494 -0.038278118 0.18711272
-0.034503106 -0.010936841 0.18616819
-0.032595471 -0.019868247 0.18398345
-0.014079511 -0.037586376 0.18265063
-0.009109579 -0.037805937 0.18246984
-0.0053348988 -0.038537279 0.18369919
-0.032982152 -0.019985896 0.18011791
-0.027069746 -0.02838539 0.1797705
-0.0190497 -0.036466971 0.17851999
-0.015135186 -0.037242815 0.17853555
-0.011328673 -0.037621357 0.17890084
-0.031201795 -0.024464075 0.17567438
-0.023998201 -0.03251398 0.17536703
-0.015831355 -0.037021808 0.17461711
-0.031438187 -0.024865955 0.17155698
-0.024465807 -0.031632069 0.1708554
-0.0043051811 -0.027205069 0.19131774
0.00062776636 -0.03106083 0.19057307
-0.030226519 -0.0057313116 0.19019642
-0.028078541 -0.0089299306 0.19162908
-0.021084806 -0.015391434 0.19165546
-0.01333599 -0.021856375 0.1906471
-0.010131476 -0.026386579 0.1918909
-0.0067561129 -0.029572196 0.19160205
-0.0031238552 -0.032505322 0.19109067
0.00020809099 -0.036743008 0.18943366
0.0044996869 -0.037452627 0.18816224
-0.032382745 -0.0059455084 0.18700016
-0.031400096 -0.010255652 0.18987074
-0.0015418958 -0.038856369 0.18530318
0.0022679437 -0.039041582 0.18356746
-0.033778965 -0.0080668665 0.18279636
-0.03434116 -0.012620035 0.18131542
-0.0070088347 -0.037773795 0.17870167
-0.0030782912 -0.038412925 0.18073797
0.0010685083 -0.038777132 0.18073457
-0.033962399 -0.009827246 0.17903459
-0.034430765 -0.013749065 0.17743519
-0.0088710357 -0.0375356 0.1756053
-0.0039298758 -0.037616048 0.17653197
-0.034759082 -0.019097084 0.1732744
-0.014952578 -0.036998305 0.17169186
-0.0099640209 -0.037828907 0.17097035
-0.033653975 -0.019543774 0.16869932
-0.027653109 -0.026967013 0.16763544
-0.019009771 -0.034019314 0.16772899
-0.01094931 -0.037813839 0.16775405
-0.030640302 -0.023406625 0.16408676
-0.023311248 -0.030051887 0.16310453
-0.023279225 -0.0054017017 0.19137037
-0.020288117 -0.0079073645 0.19098645
-0.012907012 -0.014132299 0.19136289
-0.005602655 -0.021679256 0.19106606
-0.0013529807 -0.024381045 0.19154453
0.0014796862 -0.027852491 0.19093898
0.0042979848 -0.03156127 0.19036973
0.0086782547 -0.034133695 0.18936664
0.013679303 -0.037599586 0.18773645
0.017124671 -0.04090444 0.188454
-0.032420523 0.0019515622 0.18878263
-0.029591121 -0.0019537667 0.19008631
-0.023551514 -0.002233671 0.19021979
0.0068591582 -0.037857834 0.18676278
0.011418523 -0.038468208 0.18523619
0.01600557 -0.042383943 0.18483347
-0.033884015 0.00036749989 0.18511081
-0.033461411 -0.0031446386 0.18609622
0.0058901422 -0.038585059 0.18202361
0.0091542695 -0.038380675 0.18161708
-0.034649156 -0.00075924583 0.18052617
-0.034061413 -0.0042498987 0.18096691
-0.00085940957 -0.038336828 0.17780393
0.00324158 -0.03876809 0.17785084
-0.034042113 -0.0060860673 0.17679948
-0.0027315672 -0.038106963 0.17387724
0.0020322781 -0.038637243 0.17284083
-0.033945683 -0.0078393724 0.17294887
-0.034272462 -0.010661044 0.17123359
-0.0076577645 -0.038000681 0.16990873
-0.0037830658 -0.038596436 0.16918284
-0.03497728 -0.012153427 0.16665828
-0.013328942 -0.036718167 0.16475123
-0.0095379483 -0.037709516 0.16461855
-0.0045336429 -0.038588405 0.16490537
-0.033520821 -0.018683271 0.1618163
-0.027329762 -0.026268216 0.16159293
-0.014682109 -0.035688519 0.16125256
-0.010774874 -0.037087176 0.16027728
-0.033749491 -0.019196305 0.15795305
-0.027908489 -0.026637709 0.158317
-0.019716268 -0.033845462 0.15737811
-0.032952368 -0.020363308 0.15431863
-0.028486609 -0.026885161 0.1530993
-0.02069192 -0.033714097 0.15201885
-0.023101591 -0.032322358 0.14903229
0.014685301 -0.024487991 0.19611269
0.014879311 -0.026414655 0.194947
0.0048843184 -0.01947101 0.1912851
0.0073396857 -0.022570465 0.19138479
0.011546321 -0.02561461 0.19111732
0.014346239 -0.02868747 0.19219413
0.018240891 -0.032151803 0.19090676
0.019686025 -0.035727207 0.19092458
-0.029441182 0.0098165199 0.18994796
-0.027133357 0.0071470747 0.19068348
-0.024144068 0.0035139499 0.19133121
-0.020806342 -0.00060627609 0.19104025
-0.016805049 -0.0043613487 0.19068971
-0.009386423 -0.0098889321 0.19148317
-0.0054519423 -0.013491129 0.1911023
-0.0019977372 -0.016879248 0.19080567
0.0020897901 -0.021065822 0.19137058
0.0051587513 -0.024643665 0.19137907
0.0089364061 -0.027924497 0.19021156
0.012017236 -0.031045619 0.19003287
0.015424402 -0.034907378 0.18926704
0.018080253 -0.038253933 0.19083673
-0.032700405 0.0084367208 0.18742597
-0.02966468 0.005629519 0.18944031
-0.027267793 0.0018140525 0.19031993
-0.024415851 -0.00086095929 0.19006914
0.013063167 -0.039415911 0.18264595
0.015267554 -0.041631177 0.18251231
-0.034140352 0.0071382234 0.18270499
-0.034050129 0.0033084778 0.1827921
0.011610801 -0.038136184 0.17850646
0.015702302 -0.04036041 0.1786238
-0.034952361 0.0050705057 0.17786467
-0.034727044 0.0024057291 0.17840865
0.0061027966 -0.038107097 0.17435071
0.0097619165 -0.037718184 0.17464992
-0.035407029 0.0048910342 0.17444277
-0.034762658 0.0010451879 0.17389441
-0.034048781 -0.0038795862 0.17378238
0.0057535954 -0.038305216 0.17089218
0.0089524845 -0.037477646 0.17085245
-0.034622774 0.00034449622 0.17039931
-0.034040932 -0.00403756 0.16986045
0.0026585702 -0.038641445 0.1671977
-0.034502968 -0.0056394525 0.16521215
-0.035331905 -0.010074826 0.1640597
-0.0028178729 -0.037796352 0.16146493
0.0014002956 -0.038608804 0.16234082
-0.034809481 -0.0062220721 0.16022778
-0.03514538 -0.010470995 0.16001981
-0.0079843635 -0.037249409 0.15810058
-0.0038268026 -0.037519343 0.15713185
-0.034790948 -0.013007031 0.15570694
-0.013487199 -0.035618857 0.15374777
-0.0094119692 -0.036774576 0.15344283
-0.006202599 -0.038013749 0.15236387
-0.034130838 -0.014019743 0.15063182
-0.030876381 -0.022458261 0.15043285
-0.010300878 -0.037129756 0.14862806
-0.030615766 -0.021919772 0.14626294
-0.02468792 -0.029347289 0.14659724
-0.01589502 -0.035790756 0.14522463
-0.012008574 -0.036699701 0.14528477
-0.027943714 -0.025642127 0.14183539
-0.021689184 -0.03381316 0.14140141
-0.022151522 -0.033486702 0.13720116
0.012688527 -0.018110134 0.19315931
0.013817778 -0.022649825 0.19469246
-0.032589048 0.020870544 0.19399327
-0.029198047 0.019660983 0.19236538
-0.025904831 0.015709937 0.19149432
-0.022523545 0.011742134 0.19197395
-0.020008892 0.0080063157 0.1927585
-0.01576636 0.0044625793 0.19221351
-0.011235178 0.0012371051 0.19122672
-0.0077294521 -0.0019673568 0.19107044
-0.0018417989 -0.0095183793 0.19135499
0.0014056056 -0.012964213 0.19122756
0.0060482621 -0.016168566 0.19128641
0.010135684 -0.019931965 0.19181833
0.01246809 -0.02382979 0.19246843
0.017052611 -0.0286135 0.19298884
0.018628355 -0.030335492 0.19203004
0.021041352 -0.033430092 0.19122857
-0.033705775 0.020612696 0.18907571
-0.03086625 0.017304417 0.18922338
-0.028484078 0.013393407 0.19014636
-0.025426647 0.0099104587 0.19127291
-0.02281452 0.0063004624 0.19196469
-0.017927494 0.0023200135 0.19129533
-0.013637858 -0.0011572852 0.19070131
-0.011202953 -0.0043156836 0.19083521
-0.038286697 0.021612236 0.18562087
-0.034422129 0.019870518 0.18637368
-0.033078462 0.015176511 0.18632057
-0.031875588 0.011977224 0.18836957
-0.034351505 0.012231247 0.18203175
-0.034464434 0.0098811127 0.18119809
0.015879095 -0.03873492 0.17548767
-0.03451911 0.012481795 0.17735937
-0.034960825 0.0086395349 0.17637655
0.012568521 -0.03794346 0.1725606
0.01557815 -0.039982282 0.17243248
0.017776314 -0.042234223 0.17231822
-0.035540629 0.0068993242 0.17179236
0.010935876 -0.037958335 0.16799501
0.015444519 -0.039437465 0.16806954
-0.035027169 0.005917863 0.16727465
-0.034834929 0.0018406957 0.16745657
0.005086042 -0.038670599 0.16391551
0.0097315582 -0.037943739 0.16381764
-0.034615025 0.0013484396 0.1630882
-0.034209475 -0.0020156484 0.16278306
0.0044363718 -0.038593367 0.15998212
0.0079235146 -0.038060877 0.16037354
-0.034434762 -0.0036963271 0.15817297
-0.0011275671 -0.037720032 0.15626556
0.002109047 -0.038387965 0.15614605
-0.034113944 -0.0049812989 0.15366018
-0.034585744 -0.0090425601 0.15334967
-0.0029704031 -0.038187519 0.15174296
0.00064026192 -0.038903706 0.15155372
-0.03434296 -0.010511059 0.14867371
-0.0087663485 -0.038000304 0.14610028
-0.0047052801 -0.038260572 0.14673746
-0.00010428578 -0.038580373 0.14761218
-0.034387566 -0.012762026 0.14428321
-0.0141322 -0.036416709 0.14245611
-0.010057372 -0.036889162 0.14245337
-0.0062669721 -0.037662357 0.1427477
-0.034168571 -0.013884224 0.14059174
-0.030967277 -0.021599198 0.14034799
-0.026101919 -0.028090667 0.13914704
-0.014778262 -0.036296979 0.1384446
-0.011409936 -0.036542729 0.13854277
-0.030897975 -0.021740824 0.13510913
-0.025094511 -0.029082563 0.13524878
-0.01737725 -0.036154307 0.1343115
-0.022038821 -0.033050228 0.13117728
0.016279269 -0.012002126 0.19423947
-0.024817061 0.022446478 0.19389096
-0.02180535 0.020270623 0.19411287
-0.01780472 0.015991146 0.19322804
-0.014746063 0.013450136 0.19283164
-0.010597351 0.009948968 0.19268557
-0.0063383472 0.0061486047 0.19186565
-0.0029459377 0.0027883938 0.19163758
0.00080310286 -0.00025612128 0.19205004
0.0038493553 -0.0039156959 0.19117028
0.0072053815 -0.0073072109 0.19097096
0.010101391 -0.011158522 0.19115993
0.013568709 -0.014531769 0.19305733
-0.027676543 0.020167079 0.19313139
-0.024205191 0.017422842 0.19241479
-0.020640388 0.014707467 0.19243509
-0.017160619 0.010931741 0.19306794
-0.013136834 0.0071159913 0.19273114
-0.0089129135 0.003551499 0.19174382
-0.0050491681 0.00068520056 0.19156823
0.0014328852 -0.0063007632 0.1913546
0.0046092616 -0.0098507302 0.19129965
0.0073973881 -0.012662208 0.19113192
-0.033738069 0.022320246 0.18877763
-0.030855551 0.019828005 0.19029063
-0.038902812 0.023526303 0.18327561
-0.034601551 0.021467593 0.18342158
-0.032646857 0.017455373 0.18280789
-0.037512481 0.024619013 0.1796881
-0.033848319 0.020634029 0.17881051
-0.033086497 0.017310772 0.17934695
-0.032916248 0.016030965 0.17418268
-0.033692859 0.013969408 0.1707232
-0.035358239 0.0099946111 0.16945347
0.01648932 -0.039353825 0.16499639
0.019695815 -0.040259607 0.16400731
-0.035303317 0.0075310795 0.16530636
0.011930522 -0.037964638 0.16086474
0.016422192 -0.038550224 0.16070482
0.019591803 -0.040276982 0.16124034
-0.034942213 0.0077333935 0.16079107
-0.034331523 0.0042219069 0.15980828
0.010627221 -0.037599105 0.15694484
0.014577287 -0.038283888 0.15717795
-0.034082349 0.0024457499 0.15667287
-0.033757508 -0.00094873272 0.15547875
0.0052180588 -0.038158864 0.15326765
0.0088383919 -0.036912668 0.15184695
-0.033788454 0.0016475245 0.15148652
-0.033449944 -0.0012009125 0.15125266
0.0042808168 -0.038318701 0.14858934
-0.033650562 -0.003866788 0.14759105
-0.034118831 -0.0074421717 0.14620817
-0.0021583736 -0.038220756 0.14469442
0.0013532471 -0.038399912 0.14449599
-0.033807125 -0.0045690071 0.14282042
-0.034461539 -0.0086193653 0.14214242
-0.0078124302 -0.036797401 0.13933006
-0.0037837531 -0.037655961 0.14001995
0.00025947019 -0.03796076 0.14045745
-0.033886328 -0.010521023 0.13743824
-0.0096241292 -0.036619902 0.13597777
-0.0048635509 -0.037449952 0.13467139
-0.032961577 -0.012123831 0.13335994
-0.03174245 -0.019887606 0.13251752
-0.011036601 -0.036210779 0.13113895
-0.0070721749 -0.036836162 0.13126186
-0.031458896 -0.021638796 0.12933779
-0.024709361 -0.028276138 0.12791717
-0.017878406 -0.035330642 0.12742651
-0.013394248 -0.036543954 0.1270327
-0.031435654 -0.021521943 0.12369245
-0.024675146 -0.027948312 0.1228888
-0.018436931 -0.035206228 0.12301362
-0.01451145 -0.036572471 0.12284184
-0.028816339 -0.025136683 0.11988127
-0.022277482 -0.032354191 0.11843401
-0.012196941 0.021619296 0.1959312
0.017276943 -0.005530789 0.19454935
0.017357584 -0.0087709278 0.19436353
-0.022862498 0.02330235 0.19452134
-0.018092263 0.021408973 0.19402814
-0.015534659 0.019785173 0.19350469
-0.011652133 0.016658679 0.19277748
-0.0077225696 0.013431701 0.19336829
-0.0046026316 0.008981186 0.19275749
-0.00079295132 0.0048800167 0.192628
0.0062264353 -0.001627794 0.19198325
0.0098408405 -0.0047763931 0.19157246
0.013779972 -0.0076495465 0.19183642
0.015695825 -0.010291928 0.1929186
-0.034884367 0.025822215 0.1804539
-0.035363518 0.025748231 0.17602041
-0.034497336 0.023264365 0.17719454
-0.035816327 0.025707334 0.17154196
-0.03435611 0.022496503 0.17217904
-0.033183824 0.018400995 0.17285317
-0.040071856 0.023831423 0.16776541
-0.034948088 0.020862874 0.16785997
-0.033911485 0.016959947 0.16835707
-0.043869447 0.022499237 0.16355801
-0.035326261 0.019856101 0.1643005
-0.034283005 0.016358629 0.1633842
-0.033822607 0.012201115 0.1630441
0.017986428 -0.038405489 0.15744174
0.020153524 -0.039699644 0.1588271
-0.045385249 0.021097042 0.16111457
-0.034448881 0.014964824 0.15963039
-0.033977728 0.010783315 0.15756354
0.01332894 -0.037153296 0.15351024
0.016689386 -0.038684234 0.15416884
0.020947255 -0.039267406 0.15369001
-0.034147125 0.0086028548 0.15383375
-0.033853538 0.0052702269 0.15340829
0.011860687 -0.03732422 0.15051061
0.015951654 -0.038083985 0.14955676
-0.033850305 0.0044656126 0.14930484
0.010457884 -0.037366547 0.14550346
0.018201843 -0.041091219 0.14515895
-0.033450335 0.0033010161 0.14514571
-0.033245273 -0.00012195855 0.14482576
0.0055560451 -0.037443601 0.14228779
0.0088607417 -0.037050836 0.14089635
0.016443931 -0.046826005 0.13902572
-0.033738043 -0.0013159066 0.1400573
0.0031211916 -0.037734464 0.13791075
0.0054869093 -0.037223913 0.13451579
-0.033797793 -0.0034472002 0.13603228
-0.033614069 -0.0061095823 0.13572282
-0.0026060771 -0.038185418 0.13339865
0.0011902954 -0.03790088 0.13320345
-0.033299424 -0.0081509873 0.13167045
-0.032957196 -0.01189817 0.13034618
-0.0055492315 -0.037017319 0.12887925
-0.0013181604 -0.037511401 0.12852895
-0.033524349 -0.0099266013 0.12679535
-0.033549458 -0.013094288 0.12598467
-0.010441378 -0.036421202 0.12413698
-0.0059830248 -0.036609739 0.12442809
-0.032480385 -0.019865407 0.12126541
-0.012207158 -0.036425587 0.11956894
-0.0082979873 -0.03645042 0.12104464
-0.031896625 -0.020931244 0.11699456
-0.025843579 -0.028284101 0.1166634
-0.017420642 -0.035547413 0.11628544
-0.013616997 -0.036112916 0.11561757
-0.029066021 -0.024895007 0.11205554
-0.02234824 -0.031753227 0.11197823
-0.029981172 -0.024444234 0.10839593
0.016497994 0.0014118012 0.19689322
-0.0066299802 0.021271884 0.19432169
-0.0034956038 0.017986368 0.19476432
-0.00020454032 0.0140513 0.19384277
0.0074752821 0.0063045458 0.19300514
0.011537602 0.0029712799 0.1929318
0.014742854 -0.00014352566 0.19408676
0.016541896 -0.0034562312 0.19454837
-0.013011504 0.022070808 0.19426715
-0.0089785624 0.019409154 0.19301727
-0.0070371223 0.016742703 0.19363722
-0.0018354272 0.011753257 0.19322374
0.0024437455 0.0081180027 0.19270289
0.0093282014 0.001407864 0.19219664
0.012501195 -0.0022204849 0.19216955
-0.034588877 0.029241802 0.17327106
-0.036332753 0.027776197 0.16903418
-0.037616104 0.025413591 0.16685325
-0.036046479 0.02298552 0.16664338
-0.039156079 0.024187384 0.16242141
-0.036048178 0.022001991 0.16159657
-0.041292541 0.022535007 0.15973788
-0.035992641 0.020410538 0.15724158
-0.034870375 0.017110627 0.15700191
0.022441942 -0.03958999 0.15194494
-0.033401988 0.015938874 0.15263224
-0.033699691 0.012369685 0.15223777
0.017843787 -0.038224243 0.14694571
0.022251196 -0.039366871 0.14715552
-0.033472192 0.011323947 0.14715031
-0.033947065 0.0065380521 0.14650661
0.016318545 -0.038414292 0.14299673
0.019730836 -0.040936105 0.14277971
-0.033536717 0.0096993092 0.1419791
-0.033617675 0.0056990208 0.14221892
0.011373495 -0.037606291 0.13899091
0.015711477 -0.038808465 0.13769501
0.019011524 -0.04169387 0.13758436
-0.034024648 0.003671254 0.13819328
0.0092448285 -0.036806598 0.13469476
0.013683598 -0.038824119 0.13448417
-0.034355659 0.0025909375 0.13303629
-0.034232169 -0.00061871484 0.13407496
0.0061754473 -0.037323073 0.13071114
-0.033636928 -0.0016513579 0.12907034
-0.033547416 -0.0055671288 0.12961298
0.0016358346 -0.037448186 0.12654316
0.0050432775 -0.037326675 0.12604678
-0.033692572 -0.0030099088 0.12457222
-0.033746228 -0.006592093 0.12532604
-0.0040207468 -0.036850322 0.12186295
-0.00064910948 -0.036785811 0.12236983
-0.033683568 -0.0081023313 0.12079221
-0.0334705 -0.011644916 0.11977088
-0.0056299344 -0.036394946 0.11859548
-0.0012340415 -0.036282219 0.11812896
-0.033236712 -0.0088491887 0.11631906
-0.011848325 -0.036510214 0.11287493
-0.0078197801 -0.036796879 0.11408556
-0.032271076 -0.019864488 0.11094224
-0.016994286 -0.034583427 0.10885197
-0.013236088 -0.035873339 0.10928756
-0.0083941538 -0.036783732 0.10978997
-0.031869154 -0.020772595 0.10587633
-0.02547548 -0.027659643 0.10451388
-0.01822846 -0.034076791 0.10466695
-0.013267496 -0.035575479 0.10502499
-0.029023215 -0.024210362 0.10178655
-0.022300456 -0.031107441 0.10098714
-0.0024703229 0.025946543 0.19554389
-0.0049675237 0.023393119 0.1951308
-0.0020858385 0.021722902 0.19510725
0.0032398207 0.020359719 0.19326234
0.011292391 0.0095614484 0.19238982
-0.036926713 0.026194112 0.15472066
-0.03519899 0.024493955 0.15460253
-0.034471262 0.023158466 0.14942312
-0.033545602 0.019059908 0.15009695
-0.033847131 0.018540921 0.14495373
-0.033507854 0.014183616 0.14478874
-0.033460572 0.016887682 0.14161426
-0.033278894 0.013582668 0.14106372
-0.033357415 0.011574667 0.13617605
-0.033179812 0.0081905341 0.136657
0.010862973 -0.036509927 0.13138807
0.014086864 -0.037927829 0.13166136
0.018462127 -0.039748907 0.13152456
-0.033278923 0.01079207 0.13258734
-0.033090599 0.0075065447 0.13204935
0.010111148 -0.036351528 0.12780756
0.014520004 -0.037684679 0.12782645
0.018210437 -0.038434356 0.12844896
-0.033019368 0.0052532833 0.12718266
-0.033353709 0.0018813964 0.12599897
0.008717956 -0.036025327 0.12349421
0.013599469 -0.037047036 0.12433922
-0.03313385 0.0046502603 0.12359256
-0.033335045 0.00029554404 0.12182492
0.0031030923 -0.036127008 0.11916268
0.0059637921 -0.036182754 0.11814755
-0.033303734 -0.001444146 0.11721408
-0.033454102 -0.0052927565 0.11734259
-0.0030602086 -0.035655469 0.11487722
0.0014358014 -0.035849132 0.11450607
-0.03272704 -0.005724703 0.11253887
-0.032231878 -0.0099098245 0.11332297
-0.0035507437 -0.035970446 0.11134607
-0.0010129455 -0.036326975 0.11062711
-0.032960191 -0.007928486 0.10778612
-0.032538522 -0.010796442 0.10857445
-0.0059368908 -0.036531121 0.10632491
-0.0025449675 -0.036996789 0.1053409
-0.032940961 -0.01225605 0.10394698
-0.011313332 -0.035510305 0.1021744
-0.0069702072 -0.036290504 0.10171521
-0.031350043 -0.017498489 0.098946869
-0.024934443 -0.026793059 0.098789454
-0.017495658 -0.034169048 0.098327577
-0.012954073 -0.035413317 0.098388672
-0.0086858999 -0.035808954 0.09818542
-0.028053872 -0.022793179 0.094509125
-0.021809392 -0.030291785 0.094793081
-0.01407483 -0.035608467 0.093394995
-0.02230314 -0.030519927 0.090165973
-0.015949555 -0.035646364 0.090174377
-0.00027899444 0.025954606 0.1945726
0.015225776 0.015002196 0.19266421
0.012438904 0.013597649 0.19174823
-0.034899063 0.028802451 0.15065306
-0.034675758 0.026557524 0.15151924
-0.035558272 0.029132493 0.14825305
-0.035106454 0.025873439 0.14767757
-0.03534529 0.023924602 0.14356044
-0.035383672 0.022880059 0.13843876
-0.034466628 0.018721586 0.13911161
-0.034658946 0.01799586 0.13419726
-0.033799473 0.014763351 0.13494846
-0.034055419 0.017322371 0.12998447
-0.033430673 0.012853493 0.12975296
-0.033024505 0.0089801578 0.12937254
0.020065077 -0.03884387 0.12514836
-0.032829151 0.011844411 0.12596917
-0.032326292 0.0091798417 0.12458068
0.011635966 -0.035466142 0.1216855
0.015071809 -0.036691211 0.12109941
0.019049345 -0.039126847 0.12194777
-0.032313135 0.0069783321 0.12007809
0.010412455 -0.035133865 0.11764061
0.014438315 -0.036057804 0.1175167
-0.0326626 0.005783706 0.1158728
-0.033069737 0.0020815274 0.11568654
0.0035912767 -0.035928704 0.11139506
0.0083114393 -0.035652023 0.11267626
-0.033630863 -0.0009453129 0.1110968
-0.033284985 -0.0037681572 0.10989964
0.001970686 -0.036430966 0.10815179
0.0052098185 -0.036542635 0.10882342
-0.033594966 -0.00070472434 0.10656869
-0.033246029 -0.0048913844 0.10684156
0.001222387 -0.036503941 0.10341346
0.00483975 -0.036714744 0.10412216
-0.033275787 -0.0062737986 0.10214221
-0.033139884 -0.0099221366 0.10088718
-0.0047917906 -0.036600467 0.09840101
-0.001054626 -0.036848463 0.099443316
-0.032876454 -0.0070576798 0.097285688
-0.032944016 -0.011101122 0.097067893
-0.0069936197 -0.036324579 0.095485151
-0.0024136901 -0.036455907 0.09498179
-0.033519369 -0.012700126 0.092738152
-0.011909652 -0.03632253 0.091230989
-0.0085584829 -0.036255002 0.090695083
-0.032524049 -0.017674614 0.088379443
-0.025500063 -0.026718618 0.088015914
-0.018080572 -0.033593237 0.086801946
-0.013548497 -0.035707179 0.086548209
-0.0096985381 -0.036270697 0.086904943
-0.028902287 -0.021812003 0.08370626
-0.021278881 -0.029120151 0.082766473
-0.015115876 -0.034505296 0.083025217
0.016366828 0.017472202 0.19230366
-0.034266453 0.032077692 0.14891329
-0.034140602 0.031480219 0.1442422
-0.0345066 0.030293191 0.14005998
-0.03547731 0.026817914 0.14014322
-0.035875503 0.029078405 0.13737389
-0.035299942 0.026222618 0.13590974
-0.035272032 0.024855027 0.13082024
-0.03467365 0.021313783 0.1314255
-0.033471271 0.020153463 0.12679428
-0.032677565 0.016707458 0.12658936
0.023997489 -0.037464093 0.12498927
0.025394289 -0.038285252 0.12069058
-0.032018684 0.015024916 0.1220758
0.017385393 -0.036687903 0.11822844
0.021600973 -0.037668541 0.11724788
0.025119819 -0.03843756 0.11694056
-0.032695167 0.013681046 0.11750066
-0.032293186 0.010126565 0.11807656
0.012114635 -0.034768827 0.11418009
0.016103886 -0.035838481 0.11397326
0.02087687 -0.037133005 0.11289221
-0.033021532 0.012710805 0.11374587
-0.032356527 0.0090981321 0.11312068
0.011053724 -0.035612024 0.11018056
0.015187963 -0.035939563 0.10935217
0.020131733 -0.038348369 0.10959381
-0.032411389 0.0072493069 0.10853875
-0.031888638 0.0047983341 0.10894382
0.0094554015 -0.035841782 0.10616684
0.013555016 -0.036109235 0.10540026
-0.032094151 0.0034352271 0.10370207
0.0081443582 -0.035757124 0.10083008
-0.033019215 -0.00037929043 0.10005885
-0.03290388 -0.0026164679 0.10010624
0.0025344174 -0.036377586 0.097203672
0.0055069197 -0.035807896 0.096270561
-0.032735649 -0.0037439596 0.095244586
0.0011741631 -0.035869539 0.092377305
0.0049558999 -0.036190514 0.092727542
-0.033395752 -0.0059398115 0.090941906
-0.033857942 -0.0099448543 0.091229916
-0.0049382662 -0.035787482 0.088998437
-0.0010337681 -0.035785891 0.088196516
-0.033804078 -0.0072177816 0.086747408
-0.03371226 -0.010414304 0.086922407
-0.0061238958 -0.035462152 0.084025741
-0.0022034813 -0.035832454 0.084411561
-0.033860099 -0.011604122 0.081917405
-0.029574301 -0.020553388 0.080549598
-0.021502184 -0.029179571 0.079872847
-0.012552386 -0.034639612 0.080382824
-0.0088564828 -0.035155956 0.079729557
-0.033355046 -0.013100304 0.077290177
-0.029504878 -0.02083776 0.07708025
-0.021601839 -0.029111102 0.07682842
-0.013295108 -0.034039348 0.075881898
-0.029591089 -0.020907745 0.072289467
-0.022747505 -0.02813613 0.072057366
-0.014776375 -0.033658363 0.072150052
-0.035394438 0.02985787 0.1348111
0.02750621 -0.034252919 0.1236642
-0.035172854 0.026170716 0.12549806
-0.033849791 0.022058377 0.12439293
0.027506161 -0.036379769 0.12068284
-0.035800636 0.02593432 0.12096268
-0.033299647 0.021380357 0.12077212
-0.032329008 0.017671609 0.12000501
0.025178818 -0.038331766 0.11487079
-0.038731433 0.025626048 0.11666155
-0.033641819 0.020717245 0.11655927
-0.033504006 0.016203575 0.11583799
0.022522021 -0.038436346 0.11135024
0.024068652 -0.039258134 0.11191201
-0.033791248 0.019153994 0.11308622
-0.03332068 0.014513078 0.11144143
-0.032697968 0.010953995 0.11041081
0.017062696 -0.036624826 0.10641867
0.020087369 -0.038305353 0.1065945
0.0249191 -0.038340941 0.10601288
-0.032895211 0.014240854 0.10691851
-0.032855432 0.010174873 0.10645366
0.015202673 -0.036736347 0.102799
0.018784318 -0.038653787 0.10311913
-0.031874169 0.0085199336 0.10242391
-0.031942725 0.0053366898 0.10167271
0.010470403 -0.035754219 0.098537207
0.014002459 -0.036646452 0.09861517
0.018722454 -0.038231649 0.099254072
-0.031698246 0.0081825871 0.099120319
-0.032017037 0.00416354 0.097643137
0.0090987887 -0.035545353 0.094544828
0.013898908 -0.035817213 0.094650269
-0.031740703 0.002129849 0.092516422
0.006301879 -0.036169589 0.089525998
-0.033426188 -0.0023001721 0.089099467
0.0013161618 -0.036542416 0.086331069
0.0050676744 -0.03637065 0.085128665
-0.033682037 -0.004551556 0.084279895
-0.0043864343 -0.035512559 0.081418455
-0.00065501034 -0.036145095 0.081641614
0.0023816209 -0.035860382 0.079750419
-0.033667635 -0.0059345495 0.07935077
-0.0336743 -0.0088083697 0.078294337
-0.0053776363 -0.034951255 0.078012705
-0.0015989188 -0.034985818 0.077484846
-0.03343213 -0.010265127 0.07480526
-0.010949785 -0.034603797 0.073484778
-0.0087929321 -0.034814477 0.073357701
-0.033298325 -0.012660366 0.071875155
-0.030700974 -0.019240679 0.069733679
-0.014092832 -0.033609986 0.06896919
-0.010034401 -0.034287311 0.068995118
-0.029746106 -0.020414373 0.066693544
-0.022555159 -0.026813803 0.065081596
-0.015279321 -0.032268312 0.064812005
-0.0343256 0.026702089 0.11942619
-0.035982288 0.025059942 0.11546677
-0.034667339 0.022895737 0.11478674
-0.035804488 0.024503918 0.1106084
-0.034188133 0.021757605 0.10979176
-0.033059001 0.017865911 0.10928804
-0.033395007 0.021465354 0.10571754
-0.032811631 0.017562572 0.10485882
0.022624454 -0.038042877 0.10005772
-0.032882519 0.015234038 0.10035658
-0.032092869 0.011656968 0.10032779
0.019735266 -0.037588514 0.096018851
-0.033540275 0.013774676 0.095335245
-0.032532215 0.010244129 0.096275091
0.014225764 -0.035807572 0.092093408
0.018022593 -0.036914758 0.092181206
-0.034408171 0.013148466 0.092046618
-0.033071589 0.0090912208 0.091580331
-0.032036215 0.0054311901 0.092038333
0.012852754 -0.035443306 0.087921381
0.016609769 -0.036460776 0.087349772
-0.033033162 0.0078165419 0.086790323
-0.032128472 0.0042689908 0.086799681
0.0071973922 -0.036011174 0.083224416
0.011054156 -0.03559678 0.083282471
-0.03233283 0.002691973 0.082229257
-0.032363184 -0.00061595999 0.081485689
0.0059109041 -0.036173359 0.07952863
0.0098306453 -0.035697185 0.079510331
-0.032466434 0.0019196682 0.078169584
-0.032955524 -0.0015230365 0.077663243
-0.0009532515 -0.034844771 0.074978948
0.0038352832 -0.035946049 0.075134993
-0.033418424 -0.0034407591 0.073255301
-0.033407152 -0.0080408128 0.071544528
-0.0054429183 -0.033802461 0.070856452
-0.001222739 -0.034362607 0.070750952
0.0024041012 -0.035520654 0.071314871
-0.034244537 -0.005388245 0.068964601
-0.032979868 -0.0092821177 0.068637013
-0.031513736 -0.012922272 0.067852497
-0.0075602038 -0.033890042 0.065937519
-0.0029534902 -0.034431778 0.065994322
-0.034532987 -0.006341612 0.06506753
-0.03323501 -0.0096790753 0.064008474
-0.028964719 -0.019372657 0.062544703
-0.020741155 -0.027465399 0.062012434
-0.013401255 -0.032607008 0.061791897
-0.0084181326 -0.033974435 0.062330961
-0.033140421 -0.011647428 0.059798479
-0.029081067 -0.019290447 0.059440255
-0.021997072 -0.026467001 0.058311224
-0.013883401 -0.032090805 0.057276785
-0.010317351 -0.033293512 0.0578776
-0.029587962 -0.019487236 0.054619133
-0.023078995 -0.026664149 0.054027319
-0.015164214 -0.032470409 0.053320169
-0.027126217 -0.023782201 0.05024457
-0.020199124 -0.030340681 0.050181866
-0.033231325 0.028925868 0.10609996
-0.033364963 0.023393534 0.10215777
-0.032932349 0.022105424 0.097525835
-0.033157393 0.018708616 0.098803699
0.024430307 -0.036223087 0.093102634
-0.033377346 0.017762203 0.093263865
0.02104865 -0.036947377 0.089206755
0.024813624 -0.035783108 0.089610219
-0.033463243 0.016836826 0.08898592
-0.032928772 0.012603883 0.088415802
0.019283012 -0.036827408 0.084717214
0.0223104 -0.037923291 0.08489418
-0.032676369 0.010784461 0.084567308
0.014291821 -0.035564777 0.080506802
0.01719211 -0.035688598 0.079439342
-0.032476299 0.0089876158 0.079691172
-0.032540597 0.0059071677 0.079763114
0.011945887 -0.035515003 0.076144636
-0.032722581 0.0038864715 0.075224698
0.0067595784 -0.03602602 0.072154462
0.0098941978 -0.035385545 0.072079003
-0.033764288 0.0023953207 0.07037586
-0.034089625 -0.0015456956 0.070571065
0.0010910816 -0.034325816 0.067301631
0.0047312519 -0.035107672 0.067662954
-0.033877186 0.0013595521 0.066819787
-0.034182213 -0.0021435563 0.066778541
0.00021675229 -0.034414455 0.063174009
0.0029336922 -0.034724053 0.06330204
-0.033728492 -0.0044557871 0.061479986
-0.0061558792 -0.033962697 0.058883607
-0.0029955264 -0.034426749 0.059337854
-0.033420257 -0.0094135823 0.057697535
-0.0074249823 -0.033356398 0.054820061
-0.0038281437 -0.033858143 0.054279566
-0.033278927 -0.010679473 0.052520156
-0.013129008 -0.033374984 0.051228523
-0.0098646758 -0.033459168 0.050760806
-0.030692555 -0.019683801 0.047822177
-0.023354866 -0.026890667 0.047343075
-0.01475275 -0.032401569 0.046402156
-0.010893844 -0.033332534 0.046670437
-0.026619773 -0.022853376 0.043062091
-0.019811235 -0.030144077 0.042503893
-0.03344195 0.028798135 0.10084653
-0.034303073 0.02740356 0.097218752
-0.033668272 0.024494769 0.096247196
-0.034746408 0.027397189 0.092331946
-0.033826374 0.023854356 0.091958523
-0.033697534 0.022333153 0.088426411
-0.032223016 0.019680547 0.085489213
0.026889691 -0.03373671 0.083329797
-0.031830058 0.017276507 0.082859397
-0.032176476 0.012756312 0.081730723
0.021076139 -0.035490625 0.078174055
0.025268557 -0.035080943 0.078707278
-0.032556809 0.01226842 0.078052044
0.01497685 -0.035302345 0.074299335
0.019412922 -0.035758741 0.074072421
-0.033176363 0.011174874 0.073772311
-0.03286881 0.0067368448 0.072781205
0.013464292 -0.035041716 0.06983912
0.01687051 -0.03567341 0.069242716
0.023311108 -0.041135527 0.070451319
-0.033787947 0.0090755718 0.069481373
-0.033724032 0.0061221523 0.069430709
0.0082321614 -0.03441868 0.065252662
0.012278922 -0.034782901 0.065591633
-0.033935294 0.0043456862 0.064845383
-0.03311801 5.0185248e-05 0.062883973
0.0062159281 -0.034632519 0.061318099
0.010565374 -0.034415778 0.061790586
-0.032740939 -7.7962875e-05 0.059226274
0.0011321325 -0.033910334 0.057647467
0.0047945902 -0.03465328 0.056920052
-0.032553975 -0.0024011843 0.055453062
-0.032372959 -0.005778702 0.055078506
-0.0011897665 -0.034377374 0.052975118
0.0028502252 -0.034963682 0.052449048
-0.032429356 -0.0060989279 0.050531685
-0.0068580769 -0.033415433 0.048483729
-0.0024967175 -0.034666605 0.048639774
0.0016417 -0.035374358 0.04864037
-0.033171583 -0.0095894253 0.04708755
-0.033242162 -0.013071149 0.044832885
-0.0085471943 -0.033624187 0.044181228
-0.0037199315 -0.034100547 0.044118106
-0.033927564 -0.011191561 0.042068303
-0.029844459 -0.0188295 0.040303826
-0.01391671 -0.03285601 0.040481329
-0.0096856672 -0.033796735 0.039809823
-0.034642186 -0.011584642 0.037394643
-0.030392308 -0.018838495 0.037193179
-0.022816805 -0.025789974 0.037032306
-0.015464826 -0.032598007 0.036319315
-0.011493269 -0.033957221 0.035146534
-0.030285692 -0.019264922 0.032840133
-0.023308365 -0.025994007 0.032101989
-0.016480749 -0.033026878 0.031042695
-0.032139901 0.032665145 0.092432916
-0.033628259 0.030125612 0.089338839
-0.034902316 0.027942955 0.084912777
-0.033073138 0.025846312 0.084248483
-0.032095157 0.024810592 0.080063045
-0.031545315 0.021151828 0.079800129
0.026885258 -0.034245625 0.073907375
-0.032307155 0.019272832 0.075351894
0.021694252 -0.035846412 0.070732594
0.02476269 -0.036474552 0.07138747
-0.033081759 0.016979143 0.071226835
-0.033399455 0.013649028 0.070524335
0.020289261 -0.035897933 0.067388415
0.02331347 -0.038148582 0.066812992
-0.033019226 0.016841842 0.066536069
-0.033271652 0.012896272 0.066649497
0.014328345 -0.034769993 0.062573671
0.018583152 -0.035890169 0.062343419
0.023395872 -0.037470739 0.062214911
-0.032905854 0.0099506648 0.062729895
-0.032364551 0.0082953377 0.060129464
0.013044454 -0.034571975 0.058048844
0.017002486 -0.035192821 0.057369411
-0.031471618 0.0051796613 0.057570994
0.007682845 -0.034533177 0.054080486
0.011394047 -0.033928964 0.053133368
-0.03179333 0.0016326299 0.052267313
0.0062387763 -0.034790404 0.049365699
-0.031692456 -0.0012236359 0.04835093
9.8800287e-05 -0.03437414 0.044776678
0.0041278414 -0.035215024 0.044920385
-0.0320118 -0.0010430422 0.044820249
-0.031793617 -0.0049094539 0.04309684
-0.0015024468 -0.033877142 0.040787339
0.002131192 -0.03460905 0.040463567
-0.032301128 -0.0069054663 0.038641155
-0.0066096438 -0.033437371 0.036629915
-0.0024369694 -0.033578865 0.037343621
-0.033635162 -0.010238945 0.032772243
-0.0082521345 -0.033653133 0.03240943
-0.0037862808 -0.032955829 0.033530414
-0.033282317 -0.0096915327 0.030078411
-0.03010527 -0.017770344 0.028955877
-0.023045961 -0.025532834 0.028440893
-0.011473897 -0.033639669 0.028502822
-0.032010168 -0.012980746 0.026847184
-0.025991224 -0.021122629 0.024504364
-0.020202339 -0.029251676 0.024472773
-0.011663413 -0.033006683 0.023388326
-0.019780893 -0.028958313 0.020234823
-0.03244523 0.033046167 0.085157633
-0.034557763 0.028771428 0.080144048
-0.032907851 0.025789512 0.077939153
0.030087022 -0.032833826 0.072772622
-0.033580787 0.024210036 0.073895931
-0.033432096 0.024460899 0.068424344
-0.033018474 0.020685811 0.069441676
-0.033034805 0.019835433 0.064976692
0.02467915 -0.036220655 0.058703601
-0.032060158 0.018338837 0.060965061
-0.032212391 0.014785269 0.060391068
0.019162104 -0.035467297 0.056245804
0.023102652 -0.035772849 0.05545646
-0.031372581 0.012758012 0.055563807
-0.030788857 0.0095391832 0.054998636
0.013377631 -0.033757832 0.051332116
0.017666098 -0.034684751 0.051142216
0.02132114 -0.036195192 0.050584257
-0.031060461 0.0079512652 0.051051259
0.01210278 -0.033888325 0.047481775
0.016655203 -0.034630001 0.04718703
-0.03167795 0.0062193237 0.046384752
-0.031596541 0.0028725453 0.04667753
0.010968344 -0.034319393 0.042846262
-0.03225404 0.0050263377 0.041600585
-0.031948417 0.0012774896 0.04170692
0.0053882953 -0.035004891 0.039763153
0.0085520586 -0.03468623 0.03765285
-0.032182496 -0.00012187846 0.037205338
-0.03171064 -0.0038220137 0.037611961
-0.00031677447 -0.033596352 0.034609497
0.002858609 -0.034871168 0.034797728
0.0059224451 -0.03546638 0.034320474
-0.032743879 -0.0020285267 0.031843841
-0.032474976 -0.0052322038 0.033067703
-0.0020073876 -0.033478577 0.030563593
0.001826562 -0.034470819 0.029277921
-0.032980852 -0.0064251814 0.028009653
-0.0070854388 -0.032867163 0.026368201
-0.0032919804 -0.032952964 0.026016712
-0.033057682 -0.0082318112 0.024032652
-0.031840295 -0.012239317 0.023517072
-0.0088568283 -0.0325801 0.021353424
-0.029426241 -0.017043944 0.018874049
-0.023312528 -0.024456456 0.018583298
-0.015033886 -0.032072891 0.017747223
-0.0108779 -0.03253673 0.016621709
-0.030059066 -0.017363133 0.01400435
-0.023294866 -0.024624076 0.013113618
-0.01585296 -0.031528022 0.012394845
0.038962375 -0.025107371 0.083815932
0.042097829 -0.024517126 0.081815362
0.037398376 -0.02642419 0.080110371
0.040654562 -0.025721861 0.077969491
0.035844821 -0.027704338 0.075331986
0.038872134 -0.027239868 0.074466109
-0.031268556 0.032883719 0.07411325
-0.030727528 0.030688427 0.077020466
0.034458783 -0.028828904 0.070378482
-0.030150823 0.03058132 0.071491003
-0.033383138 0.028072983 0.065818965
-0.033492055 0.026330221 0.062106431
-0.0327182 0.022566719 0.061243296
-0.031771682 0.021435345 0.057388544
0.025823178 -0.036170576 0.052705288
0.027907968 -0.036573876 0.052760839
-0.031676281 0.020236876 0.053344309
-0.031593181 0.016068483 0.052960634
0.024084099 -0.036715437 0.048267066
0.02788475 -0.037243973 0.048150122
-0.031023037 0.014317971 0.048644841
-0.031276006 0.010443836 0.047687232
0.017054304 -0.034751356 0.044341385
0.022304012 -0.036396492 0.044447064
-0.031115117 0.014126488 0.0448668
-0.031491674 0.0097099347 0.043928742
0.012033576 -0.034616031 0.03979075
0.017118905 -0.034581363 0.040633857
0.020654079 -0.035984498 0.041778684
-0.031936456 0.0084445653 0.039730191
0.010947485 -0.034730792 0.03621316
0.015022397 -0.034036368 0.035498142
-0.032602049 0.0066537606 0.035080969
-0.032121789 0.0032401606 0.034970284
0.0097179674 -0.034945477 0.031689107
-0.032388773 0.0056772856 0.031594932
-0.032045547 0.0026905267 0.030463457
0.0029327981 -0.034512088 0.026986301
0.0078816153 -0.034560073 0.027187228
-0.032162737 -0.00019153953 0.026087642
-0.0024468964 -0.032407794 0.022635758
0.0023684241 -0.033260636 0.022925198
0.0065290704 -0.034528326 0.023658633
-0.032546028 -0.0053226557 0.021655917
-0.0028315326 -0.032223269 0.018770397
0.0014197156 -0.032895833 0.018653512
-0.032654498 -0.0066461684 0.016585171
-0.032354377 -0.010308935 0.017886639
-0.0089897541 -0.032415733 0.014791012
-0.0051938305 -0.032101329 0.014802098
-0.033064879 -0.0083275372 0.0138852
-0.032441564 -0.010985281 0.012415826
-0.010224925 -0.032474637 0.010792792
-0.0065283123 -0.032209955 0.0097865462
0.048322044 -0.019052759 0.087295353
0.047555018 -0.021981586 0.084934533
0.051101789 -0.023361165 0.083683074
0.045963611 -0.023700055 0.081050515
0.044483848 -0.024534157 0.076325715
0.041849643 -0.026232226 0.072312832
0.036571518 -0.026921755 0.070335269
0.03980165 -0.027635887 0.068460763
0.037106734 -0.028587181 0.064539313
-0.033634719 0.026532648 0.056279361
-0.033515684 0.026754245 0.051664352
-0.031955026 0.02326056 0.051463187
-0.033234529 0.025812225 0.046982169
-0.031765189 0.022042681 0.046598554
-0.031473503 0.017686097 0.047089875
0.026072824 -0.035634942 0.040490031
0.027724238 -0.036534205 0.044293642
-0.031097488 0.016052082 0.041829169
0.019745115 -0.034380451 0.037141383
0.023377694 -0.035316728 0.037620246
-0.031173492 0.014890318 0.03699106
-0.031764917 0.010808586 0.03701371
0.018494442 -0.034261841 0.033507884
0.022161014 -0.035275184 0.032270491
-0.031581216 0.013799299 0.033064365
-0.032078564 0.010822568 0.032856941
0.016419655 -0.034569614 0.028706312
0.020347036 -0.035905894 0.028946102
-0.03261786 0.0081783431 0.028144538
0.010798783 -0.034685012 0.024897814
0.014193453 -0.034442917 0.024288893
-0.032710385 0.0071459664 0.024417877
-0.031643655 0.0033766981 0.023715436
0.0048092501 -0.033705641 0.020991921
0.0090409303 -0.033821769 0.020041585
-0.03172509 0.00055927318 0.019362628
-0.032025184 -0.0027570892 0.018736839
0.0032269545 -0.03312096 0.01573801
0.0073674954 -0.033480257 0.015960455
-0.032021176 6.038323e-05 0.013787448
-0.032112762 -0.0026017353 0.015404344
-0.0024618683 -0.032584842 0.012345791
0.0020799674 -0.033117589 0.012065113
-0.033218328 -0.0008472763 0.0095623136
-0.0329489 -0.0051994715 0.010701299
0.05187019 -0.018462162 0.087730408
0.054605015 -0.020312751 0.087147951
0.053978257 -0.02252298 0.083827138
0.056406248 -0.023957064 0.081807911
0.051283285 -0.024265733 0.079828203
0.05567785 -0.025307771 0.078647375
0.047777612 -0.023855831 0.075232565
0.051410764 -0.024022155 0.073320031
0.046597172 -0.024796728 0.070014179
0.045125514 -0.02605062 0.067222297
0.045708552 -0.026246242 0.064872086
0.041890185 -0.026525902 0.061843038
0.044289373 -0.0266758 0.061629593
-0.031842381 0.031587481 0.05491817
-0.033032406 0.029704923 0.048008263
-0.033204693 0.029453212 0.044282794
-0.031563178 0.022910777 0.043232799
0.029795308 -0.034537598 0.038746178
-0.033084508 0.027733723 0.041526318
-0.031330593 0.023819949 0.039810896
-0.03042523 0.019384112 0.040139318
0.027144814 -0.034526169 0.03491652
0.029085906 -0.035088219 0.035138845
-0.030293252 0.022460354 0.035109222
-0.030001268 0.020266958 0.035048425
0.02585078 -0.035006348 0.03053093
0.029216724 -0.034860365 0.030584097
-0.030519158 0.016761422 0.030764103
0.021922871 -0.035951123 0.026549757
0.02648901 -0.034911901 0.026814282
-0.032255787 0.013597132 0.027040362
0.017765334 -0.034846026 0.022956967
0.021202451 -0.03494722 0.022419333
-0.03242182 0.013885726 0.021490037
-0.032115757 0.01023051 0.02140367
0.011792357 -0.032936007 0.017258286
0.016268477 -0.034121554 0.01898092
-0.031601787 0.009328533 0.016601324
-0.03108599 0.0050475057 0.017460048
0.010890609 -0.032859325 0.013375342
-0.031343773 0.0043069124 0.012420297
0.0050244182 -0.033085879 0.0095004439
0.0078702122 -0.03275473 0.008594811
-0.032824092 0.0011416376 0.0081318617
0.054867297 -0.015505185 0.088397086
0.057985868 -0.0218265 0.083439291
0.057642683 -0.025814328 0.075716794
0.056136966 -0.024887707 0.071451604
0.050730713 -0.024288887 0.067892373
0.054834962 -0.024321079 0.067337573
0.048781484 -0.024991706 0.06251663
0.046947222 -0.025411464 0.05949074
0.044260945 -0.02424508 0.055058002
0.045666669 -0.02529652 0.054795325
-0.032872923 0.029456511 0.039014578
-0.031782284 0.024253519 0.033620417
0.029634569 -0.03439296 0.026795328
-0.031359017 0.022943901 0.028265774
-0.030747054 0.019387899 0.028886497
0.027096311 -0.034290113 0.023905456
-0.032126494 0.022320028 0.024245024
-0.030695867 0.019232862 0.023996651
0.023567455 -0.033875823 0.019253969
0.027931582 -0.033455782 0.020727515
-0.031276502 0.017776789 0.019223988
0.016787626 -0.032945305 0.015230775
0.020451553 -0.03306704 0.014111042
-0.032423586 0.014463049 0.01452744
-0.03238656 0.010762706 0.014425218
0.012862485 -0.032873902 0.0099221468
0.017530169 -0.032359969 0.010665476
-0.032119919 0.010074932 0.010956466
-0.031784631 0.0055784015 0.0092952251
0.058847696 -0.025408823 0.06885314
0.058374599 -0.023441371 0.063875556
0.053780399 -0.022844374 0.061851978
0.056102999 -0.023078257 0.060672581
0.05011392 -0.024441022 0.055773318
0.044583935 -0.022723895 0.051939845
0.049396243 -0.024872435 0.051065743
0.052605767 -0.025979931 0.05011183
0.049159426 -0.02663701 0.04592979
0.05034405 -0.027904157 0.045905173
0.041247878 -0.026540579 0.037436128
0.039187163 -0.028337225 0.035247684
-0.029316774 0.029430158 0.025169313
-0.03219419 0.024116164 0.022172213
0.026572615 -0.032243062 0.016469479
0.029646022 -0.031802516 0.01653415
-0.031451471 0.022833882 0.016893506
-0.031634569 0.020064507 0.017476916
0.025083365 -0.031935863 0.012789309
-0.03150421 0.019086493 0.012842417
0.022329798 -0.031774156 0.0083046556
-0.031892866 0.016787615 0.008392036
0.062485702 -0.022069335 0.059841752
0.055428218 -0.021286501 0.056925774
0.059055105 -0.021956954 0.05738759
0.053972721 -0.022543749 0.055145025
0.057253979 -0.02309473 0.053575397
0.056476593 -0.024869589 0.049503326
0.046925195 -0.021642325 0.045709789
0.048313238 -0.023907274 0.046085417
0.054603238 -0.026442582 0.044867277
0.045001943 -0.022331331 0.041306615
0.048206277 -0.024767164 0.040883362
0.051251143 -0.02778649 0.040969551
0.044051837 -0.02403437 0.037737012
0.047525533 -0.025575379 0.036516309
0.049399246 -0.027774129 0.035485446
0.047568072 -0.030092904 0.031223059
0.041245263 -0.026338946 0.028562427
0.040183619 -0.027163206 0.023026705
-0.030471317 0.026548298 0.015285671
0.028216323 -0.030584734 0.010066152
0.031526253 -0.029936738 0.0098659992
-0.030547163 0.025192415 0.010522842
0.048565008 -0.02455809 0.032073617
0.050859701 -0.027197544 0.032126904
0.048450392 -0.023050521 0.029867649
0.049236424 -0.027025554 0.029322445
0.043324389 -0.024423145 0.026285708
0.048243556 -0.02861435 0.025616288
0.04164131 -0.025819648 0.021413267
0.041475967 -0.025868583 0.017093718
0.03704004 -0.027313991 0.0094450712
0.056130841 -0.024880733 0.032212555
0.049595494 -0.022334337 0.025858521
0.054304395 -0.026410529 0.027469158
0.049429316 -0.022999719 0.022429466
0.050246384 -0.026788391 0.022693396
0.047218703 -0.024071502 0.018881023
0.050368622 -0.026916442 0.018536925
0.04545087 -0.025000643 0.014202476
0.049488883 -0.025733672 0.014396787
0.038938787 -0.025636831 0.010695338
0.043117147 -0.025169428 0.0094414353
0.050603304 -0.020120271 0.019615471
0.058139332 -0.022882912 0.018852055
0.047666263 -0.024915829 0.010565519
0.051073797 -0.025047205 0.010814905
0.057268623 -0.023551241 0.013001502
0.053260617 -0.024658179 0.0092719793
