# .PCD v0.7 - Point Cloud Data file format
VERSION 0.7
FIELDS x y z
SIZE 4 4 4
TYPE F F F
COUNT 1 1 1
WIDTH 1280
HEIGHT 1
VIEWPOINT 0 0 0 1 0 0 0
POINTS 1280
DATA ascii
-0.040689945 0.002760611 -0.0014221668
-0.035199225 0.013742886 0.0063713789
-0.035818994 0.0084012914 0.0040912032
-0.034908414 -0.01326026 0.0028050542
-0.034316897 -0.018313676 0.0043424368
-0.034676433 0.017558858 0.0015034676
-0.035688579 0.013509009 0.0018966198
-0.036758006 0.0087125059 0.0021412969
-0.037055433 -0.008159738 0.00049376488
-0.035442173 -0.011505701 4.8875809e-05
-0.034017503 -0.016532913 -0.00025701523
-0.039845414 -0.014635778 0.18485561
-0.03817552 -0.018583305 0.18588015
-0.035925459 -0.023062836 0.1849758
-0.043427244 -0.010594454 0.18201298
-0.042548802 -0.014581289 0.18235028
-0.040659554 -0.019469891 0.18226445
-0.03780039 -0.023735594 0.18166783
-0.043973044 -0.01177913 0.17904538
-0.043425079 -0.014820936 0.17938188
-0.041630991 -0.019732125 0.17876679
-0.04041218 -0.023304308 0.17940071
-0.036682237 -0.0041196607 0.18720019
-0.036455788 -0.0073344354 0.18775013
-0.035576459 -0.012285504 0.1878356
-0.033672385 -0.017117679 0.18781424
-0.031010384 -0.021385251 0.18770316
-0.02820443 -0.025109602 0.18747884
-0.02572364 -0.028538618 0.18627644
-0.041939918 0.001174855 0.18388531
-0.04158074 -0.0039147781 0.18528122
-0.040036663 -0.0087753087 0.18577689
-0.038632333 -0.012483872 0.1861698
-0.033292893 -0.022802126 0.18619868
-0.032243978 -0.026650548 0.18491453
-0.029237665 -0.03108024 0.18404907
-0.044461351 -0.0052407412 0.1816498
-0.04362487 -0.0090360884 0.18179172
-0.036935773 -0.025121765 0.17943704
-0.034998782 -0.027613299 0.18057668
-0.031930041 -0.032013185 0.17965809
-0.045456454 -0.0062484359 0.17720056
-0.045264445 -0.010423305 0.17753425
-0.043510474 -0.01474218 0.17673761
-0.041030578 -0.01936773 0.17592961
-0.038434483 -0.024203241 0.17636412
-0.036148552 -0.027920669 0.17599598
-0.032863688 -0.032238156 0.1749182
-0.029379137 -0.035438903 0.17466503
-0.044906594 -0.0069874795 0.17317596
-0.044056587 -0.010209761 0.17264959
-0.042733323 -0.013907641 0.17265481
-0.039822873 -0.018697292 0.1717312
-0.037618149 -0.023492113 0.17161107
-0.035903931 -0.027661905 0.17129764
-0.03390868 -0.031326748 0.17132419
-0.024190037 -0.016133878 0.1876407
-0.035162851 -0.00059909839 0.18655953
-0.032510471 -0.0056438581 0.18770263
-0.030994635 -0.0099382605 0.18770701
-0.028719211 -0.014176081 0.18754318
-0.025904596 -0.019292749 0.18754047
-0.023578335 -0.023227934 0.18698582
-0.040626775 0.0033806693 0.18439907
-0.038336378 -0.00064005051 0.18566746
-0.042132005 0.0022123931 0.17839849
-0.042466987 -0.0012493655 0.1784696
-0.042895757 0.0011109356 0.17407069
-0.043223374 -0.0020229826 0.17425209
-0.043707248 -0.0042599123 0.17022783
-0.043276485 -0.0089864172 0.16944653
-0.041329816 -0.01390663 0.16933763
-0.039473828 -0.018517751 0.16798934
-0.036929611 -0.022754211 0.16812298
-0.035133164 -0.027634811 0.16764811
-0.0323397 -0.031326976 0.16790116
-0.029033041 -0.034760356 0.16808647
-0.044105709 -0.0063004214 0.16618636
-0.043070808 -0.0091139823 0.16526628
-0.041625287 -0.013405915 0.16442487
-0.040104762 -0.017983112 0.16409832
-0.037673939 -0.022326175 0.16406476
-0.034747843 -0.026935238 0.16361481
-0.032657698 -0.030467831 0.16415864
-0.029872075 -0.033990756 0.16441077
-0.041705757 -0.014906552 0.16027141
-0.041123103 -0.018363243 0.16024685
-0.039861884 -0.021476785 0.15879267
-0.028612075 0.0026954468 0.18720683
-0.026979867 -0.0024284679 0.18731457
-0.025235699 -0.0074907681 0.18734318
-0.023304993 -0.011881825 0.18750438
-0.020416379 -0.016321275 0.18698019
-0.01873076 -0.021252975 0.18637508
-0.031591576 0.00059145689 0.18672878
-0.042531889 0.0036011385 0.17247429
-0.041706104 0.002785489 0.16737247
-0.042928718 -0.0014451621 0.16766292
-0.041847568 0.0014459519 0.16388953
-0.04279406 -0.0026075868 0.16341007
-0.043057136 -0.0089356266 0.16157442
-0.036009915 -0.023272945 0.16129932
-0.034751948 -0.026298571 0.16089144
-0.032181233 -0.031267978 0.16100603
-0.029316425 -0.034503598 0.16144407
-0.042255875 -0.0029327972 0.15905491
-0.042860329 -0.0076504285 0.15776843
-0.042046614 -0.013095856 0.15800929
-0.041143365 -0.017523097 0.15759695
-0.036690012 -0.023400728 0.15719473
-0.035251047 -0.026915804 0.15708947
-0.032905411 -0.030872071 0.15650222
-0.02954822 -0.033983558 0.15637571
-0.042835061 -0.0087865982 0.15332615
-0.042173501 -0.013127988 0.15281934
-0.041580997 -0.017868813 0.15356076
-0.038732212 -0.022431409 0.15278512
-0.035093945 -0.026460247 0.15159777
-0.03284613 -0.030377533 0.15193757
-0.043175127 -0.013925863 0.14874801
-0.042166319 -0.017902836 0.14842385
-0.040476408 -0.021687947 0.14848521
-0.015776834 -0.008543143 0.18828315
-0.013588189 -0.011771193 0.18766919
-0.022024155 -0.00031381985 0.18754467
-0.020001981 -0.0052819084 0.18738633
-0.019395728 -0.0097123431 0.18812758
-0.016769558 -0.014234817 0.18752295
-0.040515266 0.003881515 0.16065088
-0.040650152 0.0023636436 0.15648335
-0.041900776 -0.0009802701 0.15653157
-0.041687753 -0.0017867507 0.1522744
-0.042351879 -0.0064489432 0.15055418
-0.033710573 -0.027665382 0.14890233
-0.032039482 -0.030705102 0.14899582
-0.02836699 -0.03379887 0.1496433
-0.042730838 -0.0086781103 0.14718893
-0.043004654 -0.012087543 0.1463387
-0.037980054 -0.022688491 0.14588681
-0.035694037 -0.025895711 0.14607671
-0.032688703 -0.030434087 0.14518645
-0.029870583 -0.03316512 0.14522454
-0.042341784 -0.013097858 0.14292082
-0.041622542 -0.017429128 0.14238068
-0.039365504 -0.021251548 0.14204246
-0.035831086 -0.025246168 0.14167017
-0.033174008 -0.030922798 0.14144024
-0.041412544 -0.017180391 0.13844791
-0.040118426 -0.020498104 0.13777244
-0.014564284 -0.0025060521 0.18736738
-0.012825891 -0.0072885365 0.1876578
-0.010248384 -0.011623913 0.18704486
-0.04122049 0.00022969954 0.14963794
-0.041232683 0.0027298713 0.14469871
-0.041116562 -0.0006309757 0.14542842
-0.041501783 -0.005397697 0.14496654
-0.028067756 -0.034052774 0.14331859
-0.041592814 -0.0014244011 0.1403217
-0.041359302 -0.0061167255 0.13997096
-0.041494772 -0.011840884 0.13952583
-0.0373009 -0.022148328 0.13878113
-0.034365308 -0.025642686 0.13829565
-0.032433961 -0.029782498 0.13814348
-0.028566686 -0.033555377 0.1382311
-0.042551454 -0.0062688217 0.13490337
-0.041483041 -0.011222197 0.13514158
-0.040645946 -0.016720967 0.13500282
-0.037995193 -0.021169465 0.13462871
-0.034931269 -0.024337392 0.13397139
-0.032330453 -0.02909397 0.13339603
-0.029509187 -0.03298502 0.13434085
-0.042152259 -0.012147387 0.13064259
-0.040584631 -0.016499236 0.13019431
-0.039012931 -0.020393487 0.13037056
-0.035842061 -0.024581246 0.13040769
-0.033818264 -0.028765758 0.13055152
-0.041353595 -0.017534683 0.12719959
-0.040127896 -0.020367783 0.12707615
-0.0099528283 0.00036992948 0.18729284
-0.0079001067 -0.0051949304 0.18663007
-0.040705133 0.00075877924 0.13825732
-0.0403472 0.0036592418 0.13447404
-0.041562855 -0.00023029 0.13372809
-0.042739887 -0.004104346 0.13327947
-0.02804723 -0.033408284 0.13184336
-0.041915927 -0.00069744699 0.1287097
-0.042426199 -0.0054342113 0.12866461
-0.042338703 -0.0096185841 0.12871262
-0.036838945 -0.021559788 0.12796238
-0.035540797 -0.024360798 0.12759134
-0.032673251 -0.028959017 0.12771586
-0.028501686 -0.032579497 0.12670028
-0.04251191 -0.0054705711 0.12356657
-0.042124882 -0.011008101 0.12416697
-0.040787742 -0.016090186 0.12399837
-0.038622912 -0.020696798 0.12367976
-0.035302408 -0.024096332 0.12279621
-0.032786541 -0.028082438 0.12207574
-0.030153126 -0.030943528 0.12226188
-0.042207032 -0.011645079 0.11865771
-0.040556196 -0.016014954 0.1186353
-0.038704619 -0.019750208 0.11894763
-0.034856167 -0.025461797 0.1190173
-0.0019335916 -0.0018449239 0.18614683
-0.0058252285 -9.1618393e-05 0.18621144
-0.0039164792 -0.0035023051 0.18580082
-0.04154332 0.001253305 0.12701404
-0.042223122 0.00023778807 0.12303996
-0.042692482 -0.0043309312 0.12094164
-0.028218055 -0.032756642 0.12068897
-0.042019863 -0.00056271721 0.11950809
-0.042530708 -0.0051555755 0.11744368
-0.04265973 -0.008428771 0.1181398
-0.037246738 -0.020734005 0.11626738
-0.035243999 -0.02364812 0.11666089
-0.032917529 -0.027952792 0.11639053
-0.030076843 -0.03162377 0.11559725
-0.042382795 -0.0063996967 0.11357009
-0.042236559 -0.010586787 0.11359811
-0.04024715 -0.015677944 0.11352909
-0.038058676 -0.019563492 0.11259043
-0.035284776 -0.02371571 0.11213601
-0.03312131 -0.027883388 0.11170268
-0.030867929 -0.031198414 0.11194813
0.0048433952 0.0018015738 0.18703094
-0.041252624 0.0010450855 0.11608368
-0.041841529 0.00055634417 0.11161196
-0.042135626 -0.0039489269 0.11210984
-0.040847238 -0.0098191714 0.1095143
-0.039286476 -0.014267991 0.10958135
-0.036428727 -0.019846715 0.10902697
-0.034575004 -0.023305856 0.10862523
-0.032909945 -0.026849054 0.10837942
-0.028910978 -0.031884041 0.10997528
-0.041882955 -0.00072798692 0.10687661
-0.041518878 -0.0039851544 0.10650468
-0.041149396 -0.0089493711 0.10626131
-0.039437797 -0.014173367 0.10577983
-0.037147168 -0.018955491 0.10566086
-0.03445233 -0.023378812 0.10522717
-0.032200608 -0.027303973 0.10508132
-0.028823646 -0.030542167 0.10478753
-0.041665692 -0.0056044376 0.10313928
-0.041420788 -0.0090294899 0.10070401
-0.04054128 -0.014427382 0.1007902
-0.037939318 -0.019311957 0.10088301
-0.035028335 -0.023027886 0.099843264
-0.032554477 -0.027011322 0.10037887
-0.030402536 -0.029860901 0.10155278
-0.042510629 -0.010838468 0.09732765
-0.041336309 -0.014072879 0.09656918
-0.040034082 -0.018492827 0.095893264
0.0078721382 0.0030348548 0.18782461
-0.042048667 0.0025300095 0.10905671
-0.041084185 0.0017404025 0.10467851
-0.027169723 -0.032006256 0.10274422
-0.041406766 0.00025731605 0.099912584
-0.041685186 -0.0035498617 0.1003989
-0.042370807 -0.0074854214 0.10023886
-0.036772594 -0.02041553 0.097726345
-0.032215234 -0.027659459 0.098350585
-0.028985884 -0.031121459 0.098670721
-0.041755609 -0.0039338581 0.096081436
-0.041900165 -0.0082131121 0.09551239
-0.041328624 -0.013619497 0.09394753
-0.038105968 -0.019547753 0.094038248
-0.03628144 -0.0234951 0.094276488
-0.032824561 -0.027427442 0.09455359
-0.030121177 -0.030665694 0.094371915
-0.041277699 -0.0092268046 0.092047632
-0.040611487 -0.013181468 0.090669274
-0.0392088 -0.018570863 0.090137482
-0.036394991 -0.023370793 0.0893929
-0.032980107 -0.027160009 0.090896249
-0.038679108 -0.019949485 0.087159336
-0.040296726 0.0036811503 0.10164183
-0.040805504 0.0029603383 0.097868085
-0.041353032 0.0010484131 0.093247056
-0.041501693 -0.0028983662 0.09294939
-0.028537381 -0.031658947 0.091517627
-0.040724464 0.0006688498 0.088923931
-0.040676177 -0.0033479678 0.088666677
-0.040998179 -0.0078606214 0.088918746
-0.040109932 -0.011999168 0.08799243
-0.032372579 -0.026805472 0.087380171
-0.028433073 -0.03010744 0.08695507
-0.041103803 -0.0044984752 0.084652901
-0.041123323 -0.0079229614 0.083625615
-0.040686943 -0.012962857 0.084710836
-0.039209906 -0.017285084 0.084573984
-0.03593063 -0.021839991 0.083658278
-0.03251772 -0.025489401 0.082714736
-0.041530926 -0.0096839378 0.080427527
-0.040603973 -0.012945265 0.079223514
-0.039021593 -0.017419016 0.078980148
-0.037903477 -0.020626761 0.079298854
-0.038845278 -0.020439541 0.075445235
-0.039604504 0.0033471286 0.086968064
-0.040463068 -0.0013918728 0.085978448
-0.027105793 -0.030584835 0.083549857
-0.039970275 0.0012808172 0.083206713
-0.040671326 -0.0024372973 0.08175689
-0.031148996 -0.026505288 0.079910338
-0.027981745 -0.029762395 0.080217183
-0.04087792 -0.0027822601 0.077992141
-0.040875159 -0.0073040873 0.077003837
-0.040658969 -0.011735607 0.076341987
-0.039173827 -0.015436316 0.076275706
-0.035368279 -0.021826517 0.076833844
-0.032668579 -0.02519466 0.076361835
-0.029080138 -0.028551526 0.075425565
-0.040655695 -0.0090128295 0.073548555
-0.039443858 -0.012289843 0.072760284
-0.038218759 -0.01686749 0.072508097
-0.036628302 -0.021143299 0.072289109
-0.033418067 -0.024577539 0.072017908
-0.039489798 0.0030205147 0.075989246
-0.041038755 -0.0019458663 0.075457931
-0.027769748 -0.029146068 0.074274898
-0.041198004 -0.0019162064 0.071350634
-0.040851194 -0.0072499551 0.07117027
-0.039585195 -0.011447559 0.06989634
-0.037911013 -0.015501694 0.069283247
-0.035213802 -0.021310411 0.068903327
-0.032449692 -0.02452223 0.069075704
-0.028827513 -0.028501324 0.069917679
-0.041575693 -0.0031678192 0.066890717
-0.041333627 -0.0070104375 0.066830635
-0.039996497 -0.011881304 0.065766931
-0.03817289 -0.016336055 0.065663218
-0.035389088 -0.020137427 0.065215468
-0.032077681 -0.024459025 0.065132558
-0.029492062 -0.027825255 0.065064847
-0.027234202 -0.030984443 0.065613508
-0.041707426 -0.0074183783 0.06195724
-0.0409077 -0.012080865 0.06143111
-0.039372966 -0.016672745 0.06159395
-0.035711087 -0.020359378 0.060866296
-0.033390172 -0.023487784 0.06135416
-0.040402353 -0.012604652 0.058123887
-0.03902683 -0.016717309 0.057450294
-0.037603673 -0.019284623 0.05792284
-0.039454978 0.0031965626 0.063429356
-0.039700165 0.00017032772 0.063571036
-0.0274268 -0.028639512 0.061680377
-0.040328901 -0.0018218514 0.059679985
-0.040721655 -0.0048534926 0.058135927
-0.033650085 -0.021140767 0.057451606
-0.031652991 -0.024423949 0.058238268
-0.028292524 -0.027460486 0.057803512
-0.040976837 -0.0030423393 0.054709733
-0.040465947 -0.0065625133 0.054581821
-0.039437801 -0.010914193 0.054224849
-0.038410477 -0.015537248 0.053842783
-0.034878079 -0.019980859 0.05369091
-0.032214515 -0.023333717 0.053552985
-0.029416395 -0.026285443 0.053623438
-0.039579641 -0.011505358 0.050457299
-0.038288478 -0.015781935 0.050207019
-0.036916871 -0.018672751 0.04895997
-0.039481007 0.0014506252 0.057380319
-0.027180782 -0.028039757 0.054467857
-0.039639782 0.0011313334 0.053465009
-0.040299401 -0.0043683294 0.051474392
-0.030819662 -0.024426546 0.05072242
-0.028560892 -0.027617995 0.051285803
-0.040072925 -0.00090348069 0.048876882
-0.040480264 -0.0055797212 0.04872036
-0.0392235 -0.010802471 0.047719836
-0.037708975 -0.015399773 0.046525002
-0.034660652 -0.020333033 0.047679424
-0.032496959 -0.023580134 0.047542751
-0.028806254 -0.027829796 0.046801746
-0.026102547 -0.031429563 0.047595263
-0.040076461 -0.0057217646 0.04443121
-0.038950883 -0.010208514 0.044689357
-0.037713673 -0.015278466 0.04336834
-0.03550997 -0.019633001 0.042940021
-0.032663185 -0.023744835 0.042967916
-0.030292617 -0.027184062 0.043171465
-0.036750928 -0.016507788 0.03984344
-0.036526915 -0.018149782 0.03911972
-0.033627644 -0.022248156 0.039101601
-0.038716525 0.003480019 0.049974084
-0.038894825 0.0029021213 0.045699179
-0.039595421 0.0015326198 0.041065037
-0.039465107 -0.0028311322 0.041184425
-0.037315663 -0.0087938206 0.040032387
-0.031474605 -0.024935599 0.040295839
-0.028511593 -0.027963474 0.040111303
-0.04003799 4.183501e-06 0.036364794
-0.039066497 -0.0033964412 0.036177456
-0.037780028 -0.0088284388 0.036212325
-0.036778152 -0.014418032 0.036863804
-0.034882519 -0.019663921 0.03691709
-0.032082729 -0.023499079 0.035885453
-0.028580304 -0.026620397 0.034595966
-0.02586958 -0.029590726 0.03514111
-0.038598109 -0.0084469486 0.03169173
-0.037482955 -0.01382266 0.031190217
-0.035310991 -0.018892411 0.031610548
-0.032185409 -0.022724897 0.031250477
-0.037539229 -0.015477662 0.027520299
-0.036920097 -0.017851615 0.026699483
-0.039578747 0.003100994 0.035678148
-0.039623637 -0.0032740543 0.033876419
-0.027450776 -0.028386626 0.032876849
-0.039096691 0.0012476919 0.031348646
-0.03893989 -0.0025663394 0.030382752
-0.03904561 -0.0081906859 0.029647231
-0.034542732 -0.019604079 0.028489113
-0.031663336 -0.023784211 0.029570699
-0.028544476 -0.026943486 0.029083014
-0.025583129 -0.030181034 0.028750062
-0.037989937 -0.0040304866 0.026426375
-0.038611963 -0.0082323495 0.026547849
-0.038536161 -0.013159321 0.025837541
-0.036381524 -0.017557843 0.024679244
-0.032509748 -0.021857917 0.026020527
-0.029617805 -0.025493927 0.025611758
-0.026700869 -0.027852494 0.024682939
-0.03813323 -0.0092608631 0.021789491
-0.038076792 -0.012807991 0.021799028
-0.035987101 -0.017238641 0.02041471
-0.038463999 0.0032234611 0.028384447
-0.038352501 0.0031190729 0.02412945
-0.038013846 -0.0018816087 0.023370326
-0.037312027 -0.0059793927 0.022928476
-0.031283014 -0.021617044 0.022203445
-0.028164987 -0.025147811 0.02161485
-0.025236934 -0.028963672 0.021701038
-0.039184116 0.0016173068 0.019746125
-0.038558368 -0.0021289233 0.01880759
-0.037980013 -0.007282299 0.018893838
-0.037446205 -0.011961325 0.018334508
-0.034706801 -0.017218677 0.017922997
-0.031868212 -0.020826969 0.01815325
-0.028508862 -0.024809342 0.017721117
-0.025412761 -0.028905515 0.01718539
-0.038901553 -0.0033280142 0.015529871
-0.038050488 -0.007128207 0.014603853
-0.037523534 -0.012253586 0.013656259
-0.0355368 -0.016582096 0.013662398
-0.032102481 -0.020743765 0.012947142
-0.029620962 -0.024898175 0.013562739
-0.027612051 -0.02788965 0.013660014
-0.038497347 -0.013069386 0.0089802742
-0.0372044 -0.016391462 0.0082519054
-0.039452124 -0.012780441 0.0068041086
-0.038477652 -0.015888903 0.0048282146
-0.038644183 0.002190955 0.012648702
-0.03854527 -0.001227106 0.012401581
-0.03787823 -0.0060411952 0.011953413
-0.028460601 -0.026353501 0.010636687
-0.025771312 -0.029387489 0.011223376
-0.037742283 -0.0022126278 0.0084378123
-0.037246879 -0.0067623416 0.007943511
-0.038383152 -0.010561282 0.0073451996
-0.034206863 -0.017858531 0.0083719492
-0.032401431 -0.02068897 0.0077741146
-0.029880498 -0.024804119 0.0072622299
-0.026894152 -0.02884591 0.0070996881
-0.038352635 -0.012176151 0.0031404495
-0.036381036 -0.017348133 0.0028026104
-0.03308408 -0.020254396 0.0019958615
-0.038649045 -0.013020903 -0.0014221668
-0.037779018 -0.00077339634 0.0063713789
-0.036307469 -0.005945561 0.0040912032
-0.02717668 -0.02560976 0.0028050542
-0.024696331 -0.030052144 0.0043424368
-0.038756333 0.0029521659 0.0015034676
-0.038141619 -0.0011767382 0.0018966198
-0.037294101 -0.0060173804 0.0021412969
-0.031112153 -0.02171912 0.00049376488
-0.028341252 -0.024193019 4.8875809e-05
-0.025101198 -0.028292358 -0.00025701523
-0.031211505 -0.028769866 0.18485561
-0.028158072 -0.031777866 0.18588015
-0.024365045 -0.035055351 0.1849758
-0.036067229 -0.026406873 0.18201298
-0.033729959 -0.029754063 0.18235028
-0.030113736 -0.033547562 0.18226445
-0.025839802 -0.036394402 0.18166783
-0.036118127 -0.027710238 0.17904538
-0.034447826 -0.030310806 0.17938188
-0.030910874 -0.034161586 0.17876679
-0.028417824 -0.036995433 0.17940071
-0.032313447 -0.017843742 0.18720019
-0.030873995 -0.020727146 0.18775013
-0.028166912 -0.024964835 0.1878356
-0.024558589 -0.028700529 0.18781424
-0.020466089 -0.031624548 0.18770316
-0.016448477 -0.033991609 0.18747884
-0.0128443 -0.036210254 0.18627644
-0.039197035 -0.014964273 0.18388531
-0.036917478 -0.01952903 0.18528122
-0.033630896 -0.023428686 0.18577689
-0.030914258 -0.026317535 0.1861698
-0.022032641 -0.033807047 0.18619868
-0.019590843 -0.036961123 0.18491453
-0.015118203 -0.039903164 0.18404907
-0.039071396 -0.02185642 0.1816498
-0.036846176 -0.025042759 0.18179172
-0.024510533 -0.037344184 0.17943704
-0.021767519 -0.038904808 0.18057668
-0.017248608 -0.041795418 0.17965809
-0.039605122 -0.023168221 0.17720056
-0.037830077 -0.026951818 0.17753425
-0.034556858 -0.030270725 0.17673761
-0.030495612 -0.03359516 0.17592961
-0.026246669 -0.037069108 0.17636412
-0.022712145 -0.039628778 0.17599598
-0.018025093 -0.042360552 0.1749182
-0.013580917 -0.043984178 0.17466503
-0.038814299 -0.023640584 0.17317596
-0.036795881 -0.0262923 0.17264959
-0.03415823 -0.029202309 0.17265481
-0.029636407 -0.032513589 0.1717312
-0.025764609 -0.036099717 0.17161107
-0.02258517 -0.039296098 0.17129764
-0.019339327 -0.041918423 0.17132419
-0.016174521 -0.024162879 0.1876407
-0.032256976 -0.014009723 0.18655953
-0.027875952 -0.017655453 0.18770263
-0.024832111 -0.02104288 0.18770701
-0.021108149 -0.024087349 0.18754318
-0.016549721 -0.027737431 0.18754047
-0.012894607 -0.030482847 0.18698582
-0.038827978 -0.012423848 0.18439907
-0.03517326 -0.015262013 0.18566746
-0.039771549 -0.014079222 0.17839849
-0.038756274 -0.017405663 0.1784696
-0.040055651 -0.015389111 0.17407069
-0.039159037 -0.018409846 0.17425209
-0.038750038 -0.020661671 0.17022783
-0.036543313 -0.024863547 0.16944653
-0.032861944 -0.028664274 0.16933763
-0.029382635 -0.032214142 0.16798934
-0.025410868 -0.035154492 0.16812298
-0.021883439 -0.038976103 0.16764811
-0.017889684 -0.041318212 0.16790116
-0.013520837 -0.043224841 0.16808647
-0.038337301 -0.022699339 0.16618636
-0.036304474 -0.024902692 0.16526628
-0.033326536 -0.028314745 0.16442487
-0.030170141 -0.031961646 0.16409832
-0.026262335 -0.03504388 0.16406476
-0.021795165 -0.038182329 0.16361481
-0.01851226 -0.040646154 0.16415864
-0.014590517 -0.042834904 0.16441077
-0.032826617 -0.029731948 0.16027141
-0.030965498 -0.032702543 0.16024685
-0.028608778 -0.035096437 0.15879267
-0.027465615 -0.0084590893 0.18720683
-0.023996819 -0.012568352 0.18731457
-0.020448159 -0.016577844 0.18734318
-0.016984036 -0.019895803 0.18750438
-0.012616402 -0.022891898 0.18698019
-0.0091718147 -0.026803136 0.18637508
-0.029413156 -0.011543127 0.18672878
-0.040672444 -0.012949216 0.17247429
-0.039597381 -0.013386764 0.16737247
-0.03910793 -0.01776325 0.16766292
-0.03921546 -0.014678471 0.16388953
-0.038538687 -0.018785659 0.16341007
-0.0363601 -0.024732681 0.16157442
-0.024362665 -0.035281785 0.16129932
-0.0220426 -0.037595697 0.16089144
-0.017765859 -0.041203063 0.16100603
-0.013880906 -0.043096073 0.16144407
-0.03791701 -0.018880161 0.15905491
-0.036670096 -0.023469998 0.15776843
-0.03383445 -0.028189523 0.15800929
-0.031305723 -0.031934105 0.15759695
-0.024942091 -0.035660103 0.15719473
-0.022267506 -0.038356945 0.15708947
-0.018586421 -0.041114423 0.15650222
-0.014294068 -0.042704321 0.15637571
-0.03621196 -0.024510013 0.15332615
-0.033939376 -0.028267767 0.15281934
-0.031577747 -0.032420978 0.15356076
-0.027199782 -0.035546087 0.15278512
-0.022296693 -0.037875943 0.15159777
-0.018720903 -0.040634844 0.15193757
-0.034559429 -0.029388214 0.14874801
-0.032105491 -0.032676406 0.14842385
-0.029095722 -0.035526693 0.14848521
-0.011306579 -0.013930364 0.18828315
-0.0080492161 -0.016075136 0.18766919
-0.020227574 -0.0087182038 0.18754467
-0.016458126 -0.012534268 0.18738633
-0.014202568 -0.016395453 0.18812758
-0.010045631 -0.019568685 0.18752295
-0.038916625 -0.011918454 0.16065088
-0.038460374 -0.013372405 0.15648335
-0.038336143 -0.01694037 0.15653157
-0.03783071 -0.017603941 0.1522744
-0.036660139 -0.022165395 0.15055418
-0.020557441 -0.038459953 0.14890233
-0.017850302 -0.040628791 0.14899582
-0.013273428 -0.042081658 0.1496433
-0.036157187 -0.024369899 0.14718893
-0.03510543 -0.027624588 0.1463387
-0.026406497 -0.035495758 0.14588681
-0.023067145 -0.037584025 0.14607671
-0.018553818 -0.04062685 0.14518645
-0.014905094 -0.042071547 0.14522454
-0.034106385 -0.028304331 0.14292082
-0.031784385 -0.032030661 0.14238068
-0.028236384 -0.034698386 0.14204246
-0.023442334 -0.037036374 0.14167017
-0.01881516 -0.04126408 0.14144024
-0.031685561 -0.031720493 0.13844791
-0.029220324 -0.034290425 0.13777244
-0.012496622 -0.0078887958 0.18736738
-0.009060381 -0.011641983 0.1876578
-0.0050199972 -0.014660981 0.18704486
-0.038170673 -0.015562169 0.14963794
-0.039138712 -0.013256978 0.14469871
-0.037745293 -0.016317558 0.14542842
-0.036277045 -0.020868853 0.14496654
-0.012899808 -0.04220172 0.14331859
-0.037881661 -0.017232843 0.1403217
-0.035870254 -0.021478625 0.13997096
-0.033804871 -0.026818899 0.13952583
-0.025985751 -0.034736816 0.13878113
-0.021936387 -0.036841776 0.13829565
-0.018567819 -0.039927375 0.13814348
-0.013551104 -0.041933119 0.1382311
-0.036913451 -0.022075359 0.13490337
-0.034030795 -0.026242819 0.13514158
-0.031153131 -0.03100268 0.13500282
-0.027001791 -0.03409816 0.13462871
-0.022958778 -0.035852429 0.13397139
-0.018735679 -0.039251644 0.13339603
-0.014640128 -0.041766856 0.13434085
-0.034295015 -0.027353683 0.13064259
-0.031181337 -0.030774361 0.13019431
-0.028239014 -0.033770718 0.13037056
-0.023706922 -0.036426261 0.13040769
-0.020235837 -0.039517775 0.13055152
-0.031495519 -0.032025259 0.12719959
-0.029278938 -0.034173645 0.12707615
-0.0093367808 -0.0034670085 0.18729284
-0.0053107357 -0.0078227278 0.18663007
-0.037897017 -0.014876145 0.13825732
-0.038676288 -0.012059491 0.13447404
-0.038310945 -0.016118161 0.13372809
-0.037915848 -0.020147756 0.13327947
-0.013127482 -0.041598435 0.13184336
-0.038458373 -0.016684875 0.1287097
-0.03711712 -0.021256346 0.12866461
-0.035434995 -0.02508872 0.12871262
-0.025784185 -0.034016293 0.12796238
-0.023512952 -0.036107305 0.12759134
-0.019104026 -0.039258149 0.12771586
-0.013864506 -0.041006651 0.12670028
-0.037182394 -0.021322738 0.12356657
-0.03470571 -0.026290642 0.12416697
-0.031525522 -0.030474177 0.12399837
-0.027762609 -0.033901688 0.12367976
-0.023393918 -0.035771746 0.12279621
-0.019544143 -0.038491651 0.12207574
-0.016016297 -0.040127188 0.12226188
-0.034537844 -0.02691057 0.11865771
-0.031340394 -0.030316062 0.1186353
-0.02820034 -0.03305842 0.11894763
-0.022459105 -0.0368625 0.1190173
-0.0010803847 -0.0024444405 0.18614683
-0.0053467494 -0.0023138612 0.18621144
-0.0022780828 -0.0047344789 0.18580082
-0.038860649 -0.014740023 0.12701404
-0.039100081 -0.015938386 0.12303996
-0.037785344 -0.020338949 0.12094164
-0.013534674 -0.041061766 0.12068897
-0.038605954 -0.016600175 0.11950809
-0.037320305 -0.021038916 0.11744368
-0.036186911 -0.024112329 0.1181398
-0.026476949 -0.033409424 0.11626738
-0.023511481 -0.035335299 0.11666089
-0.019714776 -0.038421996 0.11639053
-0.015685502 -0.040726457 0.11559725
-0.036707543 -0.022131728 0.11357009
-0.034970112 -0.025944132 0.11359811
-0.031183839 -0.029886438 0.11352909
-0.027675016 -0.032638725 0.11259043
-0.023523286 -0.035413351 0.11213601
-0.019929605 -0.038435858 0.11170268
-0.016579147 -0.040636215 0.11194813
0.0037852828 0.0035179229 0.18703094
-0.038512398 -0.014821148 0.11608368
-0.038869441 -0.01549805 0.11161196
-0.037417058 -0.019772924 0.11210984
-0.033980303 -0.024703279 0.1095143
-0.030835856 -0.028216178 0.10958135
-0.026060758 -0.032276634 0.10902697
-0.023024386 -0.034763075 0.10862523
-0.02013015 -0.037399374 0.10837942
-0.014508784 -0.040520761 0.10997528
-0.038416222 -0.016700471 0.10687661
-0.036833398 -0.019570377 0.10650468
-0.034592316 -0.024015319 0.10626131
-0.03101187 -0.028186664 0.10577983
-0.027065571 -0.031728186 0.10566086
-0.022883132 -0.034783535 0.10522717
-0.019300722 -0.037548214 0.10508132
-0.014941609 -0.03924761 0.10478753
-0.036349364 -0.021122582 0.10313928
-0.034812387 -0.024193196 0.10070401
-0.03193415 -0.028843628 0.1007902
-0.027661005 -0.032360658 0.10088301
-0.023549579 -0.034679748 0.099843264
-0.019739639 -0.037413258 0.10037887
-0.016661022 -0.039222416 0.10155278
-0.035127006 -0.026281539 0.09732765
-0.032804321 -0.028820354 0.09656918
-0.029909782 -0.032405514 0.095893264
0.0061115203 0.0058163749 0.18782461
-0.039816096 -0.01375389 0.10905671
-0.038622864 -0.014114301 0.10467851
-0.012853302 -0.039967325 0.10274422
-0.038353339 -0.01560794 0.099912584
-0.03715362 -0.019231861 0.1003989
-0.036280986 -0.023130221 0.10023886
-0.026160775 -0.032933742 0.097726345
-0.019178193 -0.037882239 0.098350585
-0.014869812 -0.039844893 0.098670721
-0.037071738 -0.019613579 0.096081436
-0.035567693 -0.023622412 0.09551239
-0.032970723 -0.028398544 0.09394753
-0.027724735 -0.032642283 0.094038248
-0.024528507 -0.035590939 0.094276488
-0.019829925 -0.037901059 0.09455359
-0.016093101 -0.039858278 0.094371915
-0.034604687 -0.024320735 0.092047632
-0.032475803 -0.027719421 0.090669274
-0.029117456 -0.032161787 0.090137482
-0.024680987 -0.035519548 0.0893929
-0.020075977 -0.037713509 0.090896249
-0.028100511 -0.033232763 0.087159336
-0.03863804 -0.012019937 0.10164183
-0.038832247 -0.012880581 0.097868085
-0.038606435 -0.014856499 0.093247056
-0.037233412 -0.018559737 0.09294939
-0.014249763 -0.040169828 0.091517627
-0.037880458 -0.014966626 0.088923931
-0.036298681 -0.018659204 0.088666677
-0.034869257 -0.022951581 0.088918746
-0.032464869 -0.02643518 0.08799243
-0.019650368 -0.037153471 0.087380171
-0.01474713 -0.038696509 0.08695507
-0.036253478 -0.01988578 0.084652901
-0.034961019 -0.023057066 0.083625615
-0.032629173 -0.027546326 0.084710836
-0.029610524 -0.030974306 0.084573984
-0.024837783 -0.033927567 0.083658278
-0.020288097 -0.035993122 0.082714736
-0.0346637 -0.024839975 0.080427527
-0.032559253 -0.02749832 0.079223514
-0.029385291 -0.03102598 0.078980148
-0.02712474 -0.033561666 0.079298854
-0.028066495 -0.033749107 0.075445235
-0.037870687 -0.012063631 0.086968064
-0.036850363 -0.016770456 0.085978448
-0.01333819 -0.038629636 0.083549857
-0.037417874 -0.014112629 0.083206713
-0.0366427 -0.017816 0.08175689
-0.0186348 -0.036407888 0.079910338
-0.014462199 -0.038205013 0.080217183
-0.036701553 -0.01821376 0.077992141
-0.034968577 -0.02239033 0.077003837
-0.033072978 -0.026401788 0.076341987
-0.030284684 -0.029252458 0.076275706
-0.024323396 -0.033699919 0.076833844
-0.020540264 -0.035778549 0.076361835
-0.015940361 -0.037506651 0.075425565
-0.034111913 -0.023885015 0.073548555
-0.031738263 -0.026448833 0.072760284
-0.028854631 -0.030209202 0.072508097
-0.025748963 -0.033550896 0.072289109
-0.021468863 -0.035495218 0.072017908
-0.037639722 -0.012321485 0.075989246
-0.03717022 -0.017502584 0.075457931
-0.0145022 -0.037554473 0.074274898
-0.037328701 -0.017536126 0.071350634
-0.034967154 -0.022331147 0.07117027
-0.032191169 -0.025724752 0.06989634
-0.029092979 -0.028829603 0.069283247
-0.024378182 -0.033163983 0.068903327
-0.020595368 -0.035073537 0.069075704
-0.015726177 -0.037363596 0.069917679
-0.037198666 -0.018836997 0.066890717
-0.035504524 -0.022294482 0.066830635
-0.032405175 -0.026282877 0.065766931
-0.029015623 -0.029700669 0.065663218
-0.024989009 -0.032147367 0.065215468
-0.020275865 -0.034872781 0.065132558
-0.016598864 -0.036993302 0.065064847
-0.013303904 -0.039047964 0.065613508
-0.035693754 -0.022814415 0.06195724
-0.033170644 -0.026815951 0.06143111
-0.029995503 -0.030470978 0.06159395
-0.025201559 -0.032475647 0.060866296
-0.021860123 -0.034477741 0.06135416
-0.032503325 -0.027106479 0.058123887
-0.029658662 -0.03037969 0.057450294
-0.027361371 -0.032206964 0.05792284
-0.037674922 -0.012145514 0.063429356
-0.036743358 -0.01503522 0.063571036
-0.014379207 -0.036955237 0.061680377
-0.036561862 -0.01711636 0.059679985
-0.03576456 -0.020067533 0.058135927
-0.022998415 -0.032408845 0.057451606
-0.019896923 -0.034677856 0.058238268
-0.015630223 -0.036197253 0.057803512
-0.036693413 -0.018491898 0.054709733
-0.034874305 -0.021548606 0.054581821
-0.032259107 -0.025175581 0.054224849
-0.029540814 -0.029053587 0.053842783
-0.024576809 -0.031807162 0.05369091
-0.020832917 -0.033885498 0.053552985
-0.017118216 -0.035541743 0.053623438
-0.032163918 -0.025776027 0.050457299
-0.029334467 -0.029232962 0.050207019
-0.026960999 -0.031378839 0.04895997
-0.037030827 -0.013768509 0.057380319
-0.014381429 -0.036306985 0.054467857
-0.037055328 -0.014124259 0.053465009
-0.035560109 -0.019457709 0.051474392
-0.019126035 -0.034361351 0.05072242
-0.015817886 -0.036445472 0.051285803
-0.036676809 -0.016169939 0.048876882
-0.035263628 -0.020646103 0.04872036
-0.032103874 -0.024990354 0.047719836
-0.028945323 -0.028658124 0.046525002
-0.024241164 -0.032049324 0.047679424
-0.020999558 -0.034221243 0.047542751
-0.015963519 -0.03673505 0.046801746
-0.012088048 -0.039026134 0.047595263
-0.034836203 -0.020622807 0.04443121
-0.032079305 -0.024337284 0.044689357
-0.028996086 -0.02854785 0.04336834
-0.025293719 -0.031727597 0.042940021
-0.021090107 -0.034437019 0.042967916
-0.017583853 -0.036707275 0.043171465
-0.027636183 -0.029315166 0.03984344
-0.02680086 -0.030746449 0.03911972
-0.022553904 -0.033423349 0.039101601
-0.037101157 -0.01160104 0.049974084
-0.03704473 -0.012203182 0.045699179
-0.03716791 -0.013736542 0.041065037
-0.035377581 -0.017718256 0.041184425
-0.031109935 -0.022404505 0.040032387
-0.019536316 -0.035082292 0.040295839
-0.015640132 -0.03674579 0.040111303
-0.036991883 -0.015317998 0.036364794
-0.034792982 -0.018087991 0.036177456
-0.031525709 -0.022614194 0.036212325
-0.02846105 -0.027394904 0.036863804
-0.024702201 -0.031516045 0.03691709
-0.02064788 -0.033987839 0.035885453
-0.016217586 -0.035531245 0.034595966
-0.012576508 -0.037238121 0.03514111
-0.032427501 -0.022574808 0.03169173
-0.02934004 -0.027114566 0.031190217
-0.025393302 -0.030967234 0.031610548
-0.021039009 -0.033311881 0.031250477
-0.028758692 -0.028665125 0.027520299
-0.027278215 -0.030621439 0.026699483
-0.037752695 -0.012281172 0.035678148
-0.035354547 -0.01818813 0.033876419
-0.014498131 -0.036730774 0.032876849
-0.036598109 -0.013808926 0.031348646
-0.034993678 -0.017272625 0.030382752
-0.032939006 -0.022509303 0.029647231
-0.024411175 -0.031330731 0.028489113
-0.020151295 -0.034090772 0.029570699
-0.016060844 -0.035816029 0.029083014
-0.012085963 -0.037673876 0.028750062
-0.033555731 -0.018261792 0.026426375
-0.032522429 -0.022381848 0.026547849
-0.030566927 -0.026904767 0.025837541
-0.026893064 -0.030143928 0.024679244
-0.02167044 -0.032635018 0.026020527
-0.01760719 -0.034887552 0.025611758
-0.01400971 -0.035950325 0.024682939
-0.031686541 -0.023148868 0.021789491
-0.030276969 -0.026404386 0.021799028
-0.026650816 -0.029698087 0.02041471
-0.03676967 -0.011741431 0.028384447
-0.036626711 -0.011795206 0.02412945
-0.034400161 -0.016285636 0.023370326
-0.032183614 -0.019802921 0.022928476
-0.020629264 -0.031943031 0.022203445
-0.016397418 -0.034011818 0.02161485
-0.012231983 -0.036416695 0.021701038
-0.036820322 -0.013500902 0.019746125
-0.034808591 -0.016722504 0.01880759
-0.032302149 -0.021262277 0.018893838
-0.030018393 -0.025380855 0.018334508
-0.02547561 -0.029189693 0.017922997
-0.021472262 -0.031437039 0.01815325
-0.016844645 -0.033830706 0.017721117
-0.012416684 -0.036430251 0.01718539
-0.034666777 -0.017961651 0.015529871
-0.032426227 -0.021146882 0.014603853
-0.02997799 -0.025680462 0.013656259
-0.026486041 -0.028919196 0.013662398
-0.021720538 -0.031449817 0.012947142
-0.017838093 -0.034338359 0.013562739
-0.014837314 -0.036333345 0.013660014
-0.030565485 -0.026806826 0.0089802742
-0.028099652 -0.02938123 0.0082519054
-0.03155816 -0.02690525 0.0068041086
-0.029468307 -0.02940418 0.0048282146
-0.036541019 -0.012764298 0.012648702
-0.035141602 -0.015884321 0.012401581
-0.032683063 -0.020076696 0.011953413
-0.016209129 -0.035238855 0.010636687
-0.012563497 -0.037012748 0.011223376
-0.034022592 -0.016487535 0.0084378123
-0.031823799 -0.02050134 0.007943511
-0.031419791 -0.024445938 0.0073451996
-0.02476887 -0.029589523 0.0083719492
-0.022017706 -0.031513598 0.0077741146
-0.018113866 -0.034350786 0.0072622299
-0.013808116 -0.036942087 0.0070996881
-0.030773612 -0.025926204 0.0031404495
-0.026972864 -0.029949997 0.0028026104
-0.022814691 -0.031373344 0.0019958615
-0.030724186 -0.026820084 -0.0014221668
-0.034607299 -0.015171915 0.0063713789
-0.031268466 -0.019387238 0.0040912032
-0.015307562 -0.034060393 0.0028050542
-0.011315992 -0.037215434 0.0043424368
-0.036935929 -0.012103946 0.0015034676
-0.034787949 -0.015683319 0.0018966198
-0.032152511 -0.019831158 0.0021412969
-0.020432346 -0.03197195 0.00049376488
-0.016925648 -0.033197157 4.8875809e-05
-0.012363479 -0.03574454 -0.00025701523
-0.017825915 -0.03852402 0.18485561
-0.013853796 -0.040134553 0.18588015
-0.0090952581 -0.041711025 0.1849758
-0.023216298 -0.038199108 0.18201298
-0.019776028 -0.040397074 0.18235028
-0.014983363 -0.042517938 0.18226445
-0.00994532 -0.043512512 0.18166783
-0.022764543 -0.039422739 0.17904538
-0.020226192 -0.04118615 0.17938188
-0.015484843 -0.04339027 0.17876679
-0.012097099 -0.045054357 0.17940071
-0.023025226 -0.028851295 0.18720019
-0.020591911 -0.03096436 0.18775013
-0.016469199 -0.033843517 0.1878356
-0.011705955 -0.035914 0.18781424
-0.0068060043 -0.037049312 0.18770316
-0.002188378 -0.037698716 0.18747884
0.0019904841 -0.038369212 0.18627644
-0.030486755 -0.02882525 0.18388531
-0.026633864 -0.032170184 0.18528122
-0.022105122 -0.034515273 0.18577689
-0.018489761 -0.03614461 0.1861698
-0.0074181007 -0.039665166 0.18619868
-0.0039551612 -0.041644722 0.18491453
0.0013028895 -0.042651203 0.18404907
-0.027733169 -0.035144687 0.1816498
-0.024457971 -0.037236921 0.18179172
-0.0083537698 -0.043881305 0.17943704
-0.0052223327 -0.044273429 0.18057668
5.8785081e-05 -0.045214694 0.17965809
-0.027724266 -0.036560874 0.17720056
-0.024636416 -0.039377179 0.17753425
-0.020342264 -0.041190844 0.17673761
-0.015317953 -0.04270805 0.17592961
-0.010063019 -0.04429156 0.17636412
-0.0058180001 -0.045303781 0.17599598
-0.00044232607 -0.046033956 0.1749182
0.0042848941 -0.045833275 0.17466503
-0.02681287 -0.03669465 0.17317596
-0.023933327 -0.038372099 0.17264959
-0.020382842 -0.040051207 0.17265481
-0.014938051 -0.041380007 0.1717312
-0.0099886227 -0.043211482 0.17161107
-0.0058280025 -0.044947837 0.17129764
-0.0018257117 -0.046128418 0.17132419
-0.0056965696 -0.028513314 0.1876407
-0.024440266 -0.025287513 0.18655953
-0.018997569 -0.026979182 0.18770263
-0.014889112 -0.028943926 0.18770701
-0.010283552 -0.03033155 0.18754318
-0.0046752868 -0.031959351 0.18754047
-0.00024777651 -0.033097032 0.18698582
-0.031117968 -0.02633697 0.18439907
-0.026655333 -0.027560491 0.18566746
-0.03135623 -0.028227424 0.17839849
-0.029145267 -0.030912125 0.1784696
-0.031117436 -0.029546328 0.17407069
-0.029133081 -0.031994 0.17425209
-0.027893484 -0.0339179 0.17022783
-0.024246745 -0.03695545 0.16944653
-0.019391129 -0.039058063 0.16933763
-0.014818192 -0.041006237 0.16798934
-0.010023531 -0.042202838 0.16812298
-0.0053021442 -0.04438366 0.16764811
-0.00071610976 -0.045019139 0.16790116
0.0040498134 -0.04510875 0.16808647
-0.026732381 -0.035642512 0.16618636
-0.024011109 -0.036900215 0.16526628
-0.019954115 -0.038912933 0.16442487
-0.015642377 -0.041074328 0.16409832
-0.010852515 -0.042426489 0.16406476
-0.0055243559 -0.043616522 0.16361481
-0.0015484793 -0.044636488 0.16415864
0.0029123379 -0.045157842 0.16441077
-0.018949907 -0.040030945 0.16027141
-0.01609366 -0.042063195 0.16024685
-0.013000236 -0.043372989 0.15879267
-0.022137765 -0.018325821 0.18720683
-0.017360466 -0.020794831 0.18731457
-0.012547567 -0.023141107 0.18734318
-0.0080774054 -0.024880838 0.18750438
-0.0028956812 -0.025977446 0.18698019
0.0017834697 -0.028272772 0.18637508
-0.022756845 -0.02192039 0.18672878
-0.032620981 -0.027528193 0.17247429
-0.031460315 -0.027521029 0.16737247
-0.02933331 -0.03137707 0.16766292
-0.030613147 -0.028568249 0.16388953
-0.028416138 -0.03210381 0.16341007
-0.024127558 -0.036764432 0.16157442
-0.0090064043 -0.04191931 0.16129932
-0.0059774471 -0.043169238 0.16089144
-0.00064577628 -0.04486537 0.16100603
0.0036678771 -0.045127574 0.16144407
-0.027805621 -0.031953216 0.15905491
-0.024897166 -0.035716496 0.15776843
-0.020471286 -0.038991615 0.15800929
-0.01670206 -0.041483451 0.15759695
-0.0093969498 -0.042490568 0.15719473
-0.0058939187 -0.043958604 0.15708947
-0.0014377981 -0.045097493 0.15650222
0.0031362474 -0.044923753 0.15637571
-0.024075907 -0.036502026 0.15332615
-0.020538285 -0.039104056 0.15281934
-0.016767055 -0.042037364 0.15356076
-0.011526415 -0.043249212 0.15278512
-0.0061049545 -0.043525387 0.15159777
-0.0017455677 -0.044705883 0.15193757
-0.020682361 -0.040376492 0.14874801
-0.017156882 -0.042475305 0.14842385
-0.013285457 -0.043956839 0.14848521
-0.0051149949 -0.017196819 0.18828315
-0.0012848144 -0.017931791 0.18766919
-0.015351528 -0.015795331 0.18754467
-0.010408666 -0.017878408 0.18738633
-0.0068471907 -0.020582514 0.18812758
-0.0017923368 -0.021923404 0.18752295
-0.031393275 -0.025903974 0.16065088
-0.030415352 -0.027072646 0.15648335
-0.028935175 -0.030321475 0.15653157
-0.028214276 -0.030741112 0.1522744
-0.025387216 -0.03450739 0.15055418
-0.004274603 -0.043399356 0.14890233
-0.00094355736 -0.044367123 0.14899582
0.003840914 -0.043957904 0.1496433
-0.024078924 -0.036351614 0.14718893
-0.021861708 -0.038956065 0.1463387
-0.010812776 -0.042899139 0.14588681
-0.0069284718 -0.043550532 0.14607671
-0.0015942613 -0.044634555 0.14518645
0.0023295814 -0.044572979 0.14522454
-0.020678585 -0.039201748 0.14292082
-0.017107334 -0.041755836 0.14238068
-0.012808511 -0.042862728 0.14204246
-0.0074846791 -0.043188144 0.14167017
-0.0015918538 -0.04532329 0.14144024
-0.017134726 -0.041431457 0.13844791
-0.013873672 -0.042862359 0.13777244
-0.0085264593 -0.01207055 0.18736738
-0.0039155041 -0.014223048 0.1876578
0.00097264396 -0.01546605 0.18704486
-0.029309716 -0.028984861 0.14963794
-0.031086227 -0.027225597 0.14469871
-0.028627641 -0.029519966 0.14542842
-0.02552945 -0.033162937 0.14496654
0.0042320387 -0.043925848 0.14331859
-0.028403364 -0.030417761 0.1403217
-0.024920274 -0.033570617 0.13997096
-0.020968474 -0.037714005 0.13952583
-0.010714496 -0.042036951 0.13878113
-0.0061678318 -0.042432059 0.13829565
-0.0018748753 -0.043993682 0.13814348
0.0035275305 -0.043926936 0.1382311
-0.025655702 -0.034521144 0.13490337
-0.021397658 -0.037268233 0.13514158
-0.016917523 -0.040564533 0.13500282
-0.011897597 -0.041835733 0.13462871
-0.0074910093 -0.041909274 0.13397139
-0.0022885492 -0.043433629 0.13339603
0.0024577789 -0.044190079 0.13434085
-0.021216655 -0.038395647 0.13064259
-0.017030954 -0.040364388 0.13019431
-0.013165943 -0.042006679 0.13037056
-0.0079626068 -0.042725731 0.13040769
-0.0035726689 -0.044253588 0.13055152
-0.016842524 -0.0416403 0.12719959
-0.013972517 -0.042776901 0.12707615
-0.0072992933 -0.0067761317 0.18729284
-0.0019128503 -0.0092595899 0.18663007
-0.029319419 -0.028246332 0.13825732
-0.03111726 -0.0259423 0.13447404
-0.029226542 -0.029552214 0.13372809
-0.027319457 -0.033123869 0.13327947
0.0037908303 -0.043455612 0.13184336
-0.029145874 -0.030132204 0.1287097
-0.026157292 -0.033842415 0.12866461
-0.023136623 -0.036739346 0.12871262
-0.010804001 -0.041294139 0.12796238
-0.0079054609 -0.042356823 0.12759134
-0.0026263678 -0.043580599 0.12771586
0.0028834408 -0.043190923 0.12670028
-0.026192188 -0.033928733 0.12356657
-0.022002894 -0.037570689 0.12416697
-0.017463816 -0.040218767 0.12399837
-0.012675686 -0.041945368 0.12367976
-0.0079238992 -0.042001251 0.12279621
-0.0033263089 -0.043040868 0.12207574
0.00055888947 -0.04320186 0.12226188
-0.021610573 -0.038079195 0.11865771
-0.017353287 -0.040001843 0.1186353
-0.013402801 -0.041333802 0.11894763
-0.0066428324 -0.04265124 0.1190173
-6.2697974e-05 -0.0026718143 0.18614683
-0.0040542753 -0.0041838419 0.18621144
-0.00029286637 -0.0052458728 0.18580082
-0.030261789 -0.02848934 0.12701404
-0.030024404 -0.029688109 0.12303996
-0.02712572 -0.033250574 0.12094164
0.0032092575 -0.043115623 0.12068897
-0.029314635 -0.030110428 0.11950809
-0.026428215 -0.03371929 0.11744368
-0.024204951 -0.036125027 0.1181398
-0.011676273 -0.040998574 0.11626738
-0.0081995353 -0.04164302 0.11666089
-0.0035106093 -0.043041818 0.11639053
0.0010938356 -0.043628924 0.11559725
-0.0254439 -0.034494426 0.11357009
-0.022379775 -0.037351746 0.11359811
-0.017373059 -0.039545011 0.11352909
-0.013078075 -0.040745024 0.11259043
-0.0081805736 -0.041719645 0.11213601
-0.0037037795 -0.043136835 0.11170268
0.00023368001 -0.043887533 0.11194813
0.0021508937 0.0046987026 0.18703094
-0.029909004 -0.028431017 0.11608368
-0.029979829 -0.029193029 0.11161196
-0.027002078 -0.032586694 0.11210984
-0.021940166 -0.03582656 0.1095143
-0.017690746 -0.037868723 0.10958135
-0.011725262 -0.039792746 0.10902697
-0.0079685003 -0.040927947 0.10862523
-0.0042857053 -0.04225599 0.10837942
0.0021022642 -0.042988576 0.10997528
-0.029100964 -0.030130481 0.10687661
-0.026540358 -0.032176211 0.10650468
-0.022768863 -0.035425175 0.10626131
-0.017864659 -0.037908815 0.10577983
-0.012863468 -0.039670572 0.10566086
-0.0078301691 -0.040892795 0.10522717
-0.0034624524 -0.042076096 0.10508132
0.0012151711 -0.041977972 0.10478753
-0.025499165 -0.033425026 0.10313928
-0.022904113 -0.03567373 0.10070401
-0.018465323 -0.03886871 0.1007902
-0.013171541 -0.040482763 0.10088301
-0.0084856041 -0.041051947 0.099843264
-0.0039196089 -0.04211938 0.10037887
-0.00038300082 -0.042612687 0.10155278
-0.022395609 -0.037723508 0.09732765
-0.019278163 -0.039180212 0.09656918
-0.015231976 -0.041384771 0.095893264
0.003420477 0.007712408 0.18782461
-0.031521887 -0.027943905 0.10905671
-0.030281562 -0.027820252 0.10467851
0.0034199385 -0.041843738 0.10274422
-0.029460961 -0.02909705 0.099912584
-0.026965752 -0.031986006 0.1003989
-0.024667703 -0.035253674 0.10023886
-0.011566199 -0.040438108 0.097726345
-0.0032214271 -0.042337801 0.098350585
0.0015100725 -0.04250231 0.098670721
-0.026744025 -0.032307331 0.096081436
-0.023820352 -0.035435434 0.09551239
-0.019593317 -0.038854185 0.09394753
-0.013122648 -0.040767334 0.094038248
-0.0090413168 -0.042268395 0.094276488
-0.0038163457 -0.042604599 0.09455359
0.00038502365 -0.042982809 0.094371915
-0.022663414 -0.035712074 0.092047632
-0.01939596 -0.038037363 0.090669274
-0.014593232 -0.040856387 0.090137482
-0.0092095081 -0.042260792 0.0893929
-0.00411544 -0.042525485 0.090896249
-0.01324385 -0.041456673 0.087159336
-0.031097062 -0.025891118 0.10164183
-0.03094713 -0.026760569 0.097868085
-0.029982356 -0.028499667 0.093247056
-0.027296681 -0.031395577 0.09294939
0.0022072718 -0.04256523 0.091517627
-0.029269498 -0.028323591 0.088923931
-0.026395036 -0.031129768 0.088666677
-0.0234318 -0.034548387 0.088918746
-0.019877318 -0.036846694 0.08799243
-0.0039365478 -0.041845202 0.087380171
0.0011839485 -0.041394398 0.08695507
-0.025883883 -0.032245681 0.084652901
-0.023476208 -0.034680959 0.083625615
-0.019603895 -0.037936136 0.084710836
-0.015503196 -0.039947987 0.084573984
-0.0099635944 -0.040849999 0.083658278
-0.0049697794 -0.041017231 0.082714736
-0.022519231 -0.036214374 0.080427527
-0.019557666 -0.037865024 0.079223514
-0.015275334 -0.039909534 0.078980148
-0.012216491 -0.04138713 0.079298854
-0.013014829 -0.041920695 0.075445235
-0.030371398 -0.025637832 0.086968064
-0.027627515 -0.029595912 0.085978448
0.0024600476 -0.040793434 0.083549857
-0.029168935 -0.027357576 0.083206713
-0.027035549 -0.030482396 0.08175689
-0.0032836068 -0.040767737 0.079910338
0.0012591025 -0.040831275 0.080217183
-0.026937705 -0.030872406 0.077992141
-0.02373834 -0.034067869 0.077003837
-0.020451911 -0.037048556 0.076341987
-0.01678496 -0.038615201 0.076275706
-0.0095754825 -0.040442828 0.076833844
-0.0052848654 -0.040915489 0.076361835
-0.00037379097 -0.04075174 0.075425565
-0.022374891 -0.035120945 0.073548555
-0.019200794 -0.036581248 0.072760284
-0.015097634 -0.038951859 0.072508097
-0.010949559 -0.040850691 0.072289109
-0.0062512029 -0.041009087 0.072017908
-0.030059336 -0.025787674 0.075989246
-0.027642852 -0.030394714 0.075457931
0.0009731967 -0.040245559 0.074274898
-0.027776433 -0.030486347 0.071350634
-0.023759672 -0.034012645 0.07117027
-0.019896319 -0.036085602 0.06989634
-0.015845789 -0.037768487 0.069283247
-0.0098311892 -0.039968658 0.068903327
-0.0056055691 -0.040285237 0.069075704
-0.00023065694 -0.040537611 0.069917679
-0.027158475 -0.031638436 0.066890717
-0.024270166 -0.034184415 0.066830635
-0.019880451 -0.036683142 0.065766931
-0.01544098 -0.038543642 0.065663218
-0.010784562 -0.039263178 0.065215468
-0.0053872112 -0.039977491 0.065132558
-0.0011786185 -0.040529467 0.065064847
0.0026518125 -0.041166797 0.065613508
-0.024246024 -0.034737185 0.06195724
-0.020383654 -0.037468571 0.06143111
-0.016051486 -0.039630298 0.06159395
-0.010855304 -0.039647806 0.060866296
-0.0070020519 -0.040218789 0.06135416
-0.019655949 -0.03748161 0.058123887
-0.01577522 -0.039417058 0.057450294
-0.012953532 -0.040226098 0.05792284
-0.030159198 -0.025638567 0.063429356
-0.028192703 -0.027951812 0.063571036
0.00085750874 -0.039644875 0.061680377
-0.027228603 -0.029805079 0.059679985
-0.025362629 -0.032226495 0.058135927
-0.0088454308 -0.038742982 0.057451606
-0.0051117111 -0.039652385 0.058238268
-0.00058834627 -0.039423332 0.057803512
