# .PCD v0.7 - Point Cloud Data file format
VERSION 0.7
FIELDS x y z
SIZE 4 4 4
TYPE F F F
COUNT 1 1 1
WIDTH 465
HEIGHT 1
VIEWPOINT 0 0 0 1 0 0 0
POINTS 465
DATA ascii
0.024659889 -0.026752716 0.18485561
0.027238175 -0.024135485 0.18588015
0.030047446 -0.02088432 0.1849758
0.022634469 -0.030914765 0.18201298
0.025503488 -0.028911391 0.18235028
0.028755058 -0.025811769 0.18226445
0.031195208 -0.022148397 0.18166783
0.023751637 -0.03095839 0.17904538
0.025980694 -0.029526705 0.17938188
0.029281363 -0.026495028 0.17876679
0.031710375 -0.024358129 0.17940071
0.015294641 -0.027697239 0.18720019
0.017766133 -0.026463423 0.18775013
0.021398436 -0.024143066 0.1878356
0.024600457 -0.021050215 0.18781424
0.027106758 -0.017542358 0.18770316
0.029135669 -0.014098691 0.18747884
0.03103736 -0.011009395 0.18627644
0.012826526 -0.033597458 0.18388531
0.016739175 -0.031643551 0.18528122
0.020081734 -0.028826481 0.18577689
0.02255789 -0.026497932 0.1861698
0.028977472 -0.018885113 0.18619868
0.031680968 -0.016792146 0.18491453
0.034202717 -0.012958454 0.18404907
0.018734083 -0.033489767 0.1816498
0.021465229 -0.03158243 0.18179172
0.032009304 -0.021009022 0.17943704
0.033346981 -0.018657869 0.18057668
0.035824649 -0.014784517 0.17965809
0.019858479 -0.033947244 0.17720056
0.023101563 -0.032425776 0.17753425
0.025946338 -0.029620159 0.17673761
0.028795857 -0.026139092 0.17592961
0.031773526 -0.02249714 0.17636412
0.033967528 -0.019467548 0.17599598
0.036309049 -0.015450073 0.1749182
0.037700728 -0.011640782 0.17466503
0.020263365 -0.033269398 0.17317596
0.022536265 -0.031539325 0.17264959
0.025030555 -0.029278478 0.17265481
0.027868794 -0.02540263 0.1717312
0.030942617 -0.022083944 0.17161107
0.033682376 -0.019358711 0.17129764
0.035930082 -0.016576556 0.17132419
0.020711042 -0.013863872 0.1876407
0.012008337 -0.027648835 0.18655953
0.015133251 -0.023893673 0.18770263
0.018036757 -0.021284662 0.18770701
0.020646304 -0.018092696 0.18754318
0.023774942 -0.014185471 0.18754047
0.026128158 -0.011052515 0.18698582
0.01064902 -0.033281125 0.18439907
0.013081731 -0.030148508 0.18566746
0.012067908 -0.034089893 0.17839849
0.014919146 -0.033219662 0.1784696
0.013190675 -0.034333415 0.17407069
0.015779875 -0.033564884 0.17425209
0.017710011 -0.033214319 0.17022783
0.021311617 -0.031322837 0.16944653
0.024569383 -0.028167376 0.16933763
0.027612124 -0.025185112 0.16798934
0.030132426 -0.021780739 0.16812298
0.033408094 -0.018757228 0.16764811
0.035415612 -0.015334007 0.16790116
0.037049867 -0.011589282 0.16808647
0.019456584 -0.03286054 0.16618636
0.02134517 -0.031118119 0.16526628
0.024269786 -0.028565597 0.16442487
0.027395701 -0.025860118 0.16409832
0.030037615 -0.02251057 0.16406476
0.032727715 -0.018681567 0.16361481
0.034839563 -0.015867645 0.16415864
0.036715638 -0.012506151 0.16441077
0.025484532 -0.028137095 0.16027141
0.028030757 -0.026541851 0.16024685
0.030082664 -0.024521807 0.15879267
0.0072506526 -0.023541957 0.18720683
0.010772876 -0.020568699 0.18731457
0.014209582 -0.017526992 0.18734318
0.01705355 -0.014557744 0.18750438
0.019621629 -0.010814056 0.18698019
0.022974119 -0.0078615518 0.18637508
0.009894114 -0.025211275 0.18672878
0.011099336 -0.034862094 0.17247429
0.011474377 -0.033940613 0.16737247
0.015225652 -0.033521082 0.16766292
0.012581551 -0.03361325 0.16388953
0.016102001 -0.033033159 0.16341007
0.02119945 -0.031165797 0.16157442
0.030241536 -0.020882281 0.16129932
0.03222489 -0.018893652 0.16089144
0.035316914 -0.015227873 0.16100603
0.036939494 -0.011897913 0.16144407
0.016183004 -0.032500293 0.15905491
0.020117149 -0.031431507 0.15776843
0.024162453 -0.029000953 0.15800929
0.027372092 -0.026833475 0.15759695
0.030565806 -0.021378931 0.15719473
0.032877386 -0.019086428 0.15708947
0.035240937 -0.015931215 0.15650222
0.036603708 -0.012252055 0.15637571
0.021008588 -0.031038817 0.15332615
0.024229517 -0.029090891 0.15281934
0.027789416 -0.027066635 0.15356076
0.030468076 -0.023314092 0.15278512
0.032465097 -0.019111443 0.15159777
0.03482987 -0.016046479 0.15193757
0.025189901 -0.029622363 0.14874801
0.028008351 -0.02751899 0.14842385
0.030451456 -0.024939185 0.14848521
0.011940314 -0.009691352 0.18828315
0.013778688 -0.0068993247 0.18766919
0.0074727493 -0.01733792 0.18754467
0.010743661 -0.014106963 0.18738633
0.014053248 -0.012173628 0.18812758
0.016773161 -0.0086105373 0.18752295
0.010215824 -0.033357106 0.16065088
0.011462064 -0.032966033 0.15648335
0.014520324 -0.032859549 0.15653157
0.015089099 -0.03242632 0.1522744
0.018998913 -0.031422973 0.15055418
0.032965675 -0.017620657 0.14890233
0.034824681 -0.015300255 0.14899582
0.036069997 -0.01137722 0.1496433
0.020888492 -0.030991871 0.14718893
0.023678225 -0.030090362 0.1463387
0.030424941 -0.022634137 0.14588681
0.03221488 -0.019771831 0.14607671
0.034823019 -0.015903268 0.14518645
0.036061328 -0.01277579 0.14522454
0.024260858 -0.029234039 0.14292082
0.027454857 -0.027243756 0.14238068
0.029741479 -0.024202609 0.14204246
0.031745467 -0.020093422 0.14167017
0.035369214 -0.016127273 0.14144024
0.027189 -0.027159048 0.13844791
0.029391799 -0.025045987 0.13777244
0.0067618275 -0.01071139 0.18736738
0.0099788439 -0.00776604 0.1876578
0.012566555 -0.0043028533 0.18704486
0.013339007 -0.03271772 0.14963794
0.011363129 -0.033547465 0.14469871
0.013986485 -0.032353111 0.14542842
0.017887596 -0.031094607 0.14496654
0.036172904 -0.011056973 0.14331859
0.014771013 -0.032469995 0.1403217
0.018410256 -0.030745929 0.13997096
0.022987634 -0.028975599 0.13952583
0.029774414 -0.022273498 0.13878113
0.031578671 -0.018802613 0.13829565
0.034223467 -0.015915267 0.13814348
0.035942674 -0.011615226 0.1382311
0.018921742 -0.031640097 0.13490337
0.02249385 -0.02916925 0.13514158
0.026573729 -0.02670268 0.13500282
0.029226996 -0.023144387 0.13462871
0.030730655 -0.019678948 0.13397139
0.03364427 -0.016059149 0.13339603
0.035800166 -0.012548675 0.13434085
0.023446018 -0.029395724 0.13064259
0.026378028 -0.026726857 0.13019431
0.028946336 -0.024204865 0.13037056
0.031222515 -0.020320214 0.13040769
0.033872385 -0.017344996 0.13055152
0.027450228 -0.026996156 0.12719959
0.029291702 -0.025096228 0.12707615
0.0029717232 -0.0080029555 0.18729284
0.0067051961 -0.0045520584 0.18663007
0.012750987 -0.032483153 0.13825732
0.010336714 -0.033151105 0.13447404
0.013815574 -0.032837953 0.13372809
0.017269511 -0.032499295 0.13327947
0.035655804 -0.01125212 0.13184336
0.014301327 -0.032964319 0.1287097
0.018219732 -0.031814672 0.12866461
0.02150462 -0.030372849 0.12871262
0.029156826 -0.022100728 0.12796238
0.030949123 -0.020153955 0.12759134
0.033649847 -0.016374875 0.12771586
0.035148561 -0.011883856 0.12670028
0.018276637 -0.031870618 0.12356657
0.02253484 -0.029747747 0.12416697
0.026120728 -0.027021876 0.12399837
0.029058592 -0.023796516 0.12367976
0.030661501 -0.020051926 0.12279621
0.032992844 -0.016752116 0.12207574
0.034394734 -0.013728247 0.12226188
0.023066208 -0.029603865 0.11865771
0.0259852 -0.026863191 0.1186353
0.028335791 -0.024171717 0.11894763
0.031596433 -0.019250657 0.1190173
0.002095235 -0.00092604372 0.18614683
0.0019833101 -0.0045829276 0.18621144
0.004058125 -0.0019526415 0.18580082
0.012634312 -0.033309124 0.12701404
0.013661481 -0.033514354 0.12303996
0.017433392 -0.032387435 0.12094164
0.035195805 -0.011601144 0.12068897
0.014228727 -0.033090815 0.11950809
0.018033361 -0.031988829 0.11744368
0.020667717 -0.031017348 0.1181398
0.028636653 -0.022694524 0.11626738
0.030287404 -0.020152692 0.11666089
0.032933146 -0.016898375 0.11639053
0.034908392 -0.013444709 0.11559725
0.018970057 -0.031463608 0.11357009
0.022237835 -0.029974381 0.11359811
0.025616953 -0.026729001 0.11352909
0.027976055 -0.023721438 0.11259043
0.030354304 -0.020162812 0.11213601
0.032945026 -0.017082512 0.11170268
0.034831043 -0.01421069 0.11194813
-0.0030153631 0.0032445276 0.18703094
0.012703848 -0.033010624 0.11608368
0.013284049 -0.033316661 0.11161196
0.016948227 -0.032071762 0.11210984
0.021174246 -0.029125972 0.1095143
0.0241853 -0.02643073 0.10958135
0.027665691 -0.022337789 0.10902697
0.029796924 -0.019735184 0.10862523
0.032056607 -0.017254408 0.10837942
0.034732081 -0.012436095 0.10997528
0.014314697 -0.032928191 0.10687661
0.016774613 -0.031571481 0.10650468
0.020584565 -0.029650554 0.10626131
0.024160001 -0.0265816 0.10577983
0.027195593 -0.023199057 0.10566086
0.029814461 -0.01961411 0.10522717
0.032184187 -0.01654347 0.10508132
0.033640809 -0.012807087 0.10478753
0.018105075 -0.031156592 0.10313928
0.02073703 -0.029839188 0.10070401
0.024723114 -0.027372124 0.1007902
0.027737711 -0.023709428 0.10088301
0.029725501 -0.02018535 0.099843264
0.03206851 -0.016919687 0.10037887
0.033619218 -0.014280871 0.10155278
0.022527037 -0.03010886 0.09732765
0.024703166 -0.028117986 0.09656918
0.027776159 -0.025636952 0.095893264
-0.0049854647 0.0052384455 0.18782461
0.011789054 -0.034128081 0.10905671
0.012097979 -0.033105314 0.10467851
0.03425771 -0.011017108 0.10274422
0.013378241 -0.03287429 0.099912584
0.016484458 -0.031845961 0.1003989
0.019825907 -0.031097984 0.10023886
0.028228927 -0.022423517 0.097726345
0.032470491 -0.016438443 0.098350585
0.034152769 -0.012745549 0.098670721
0.016811645 -0.031775776 0.096081436
0.020247787 -0.030486591 0.09551239
0.024341613 -0.028260615 0.09394753
0.027979104 -0.023764053 0.094038248
0.030506523 -0.02102443 0.094276488
0.032486625 -0.016997073 0.09455359
0.034164239 -0.013794079 0.094371915
0.02084635 -0.029661158 0.092047632
0.023759509 -0.027836399 0.090669274
0.027567251 -0.024957815 0.090137482
0.030445334 -0.021155126 0.0893929
0.032325868 -0.017207973 0.090896249
0.028485229 -0.024086146 0.087159336
0.010302808 -0.033118319 0.10164183
0.011040505 -0.033284783 0.097868085
0.012734148 -0.033091228 0.093247056
0.015908353 -0.031914353 0.09294939
0.034431282 -0.012214075 0.091517627
0.012828542 -0.03246896 0.088923931
0.015993608 -0.031113153 0.088666677
0.019672789 -0.029887933 0.088918746
0.022658732 -0.027827028 0.08799243
0.031845834 -0.016843168 0.087380171
0.033168439 -0.012640391 0.08695507
0.017044963 -0.03107441 0.084652901
0.019763201 -0.029966585 0.083625615
0.023611143 -0.027967859 0.084710836
0.02654941 -0.025380444 0.084573984
0.029080776 -0.021289522 0.083658278
0.030851247 -0.017389791 0.082714736
0.021291414 -0.02971174 0.080427527
0.023569992 -0.027907925 0.079223514
0.026593702 -0.02518739 0.078980148
0.028767146 -0.023249771 0.079298854
0.028927812 -0.024056992 0.075445235
0.010340261 -0.032460585 0.086968064
0.014374683 -0.031586021 0.085978448
0.033111122 -0.011432731 0.083549857
0.012096544 -0.032072462 0.083206713
0.015270863 -0.031408027 0.08175689
0.031206764 -0.015972681 0.079910338
0.032747157 -0.012396165 0.080217183
0.0156118 -0.031458471 0.077992141
0.01919172 -0.029973064 0.077003837
0.02263011 -0.028348263 0.076341987
0.025073541 -0.025958294 0.076275706
0.02888565 -0.020848623 0.076833844
0.030667329 -0.017605936 0.076361835
0.032148559 -0.013663161 0.075425565
0.020472875 -0.029238777 0.073548555
0.022670433 -0.027204219 0.072760284
0.025893608 -0.024732536 0.072508097
0.028757915 -0.022070535 0.072289109
0.030424478 -0.018401878 0.072017908
0.010561279 -0.032262616 0.075989246
0.015002219 -0.031860188 0.075457931
0.032189552 -0.012430453 0.074274898
0.01503097 -0.031996027 0.071350634
0.019140989 -0.029971842 0.07117027
0.022049794 -0.02759243 0.06989634
0.024711093 -0.024936834 0.069283247
0.028426275 -0.020895578 0.068903327
0.030063037 -0.017653171 0.069075704
0.032025944 -0.013479576 0.069917679
0.016146004 -0.03188457 0.066890717
0.019109562 -0.030432444 0.066830635
0.022528185 -0.027775859 0.065766931
0.025457721 -0.02487053 0.065663218
0.02755489 -0.021419147 0.065215468
0.029890958 -0.017379306 0.065132558
0.031708546 -0.014227591 0.065064847
0.033469684 -0.01140334 0.065613508
0.019555217 -0.030594641 0.06195724
0.022985104 -0.028431978 0.06143111
0.026117984 -0.025710426 0.06159395
0.027836272 -0.021601332 0.060866296
0.029552352 -0.018737242 0.06135416
0.023234129 -0.02785999 0.058123887
0.02603974 -0.025421707 0.057450294
0.027605973 -0.023452599 0.05792284
0.010410446 -0.032292787 0.063429356
0.012887336 -0.031494305 0.063571036
0.03167592 -0.01232503 0.061680377
0.014671171 -0.031338736 0.059679985
0.017200749 -0.030655336 0.058135927
0.027779013 -0.019712925 0.057451606
0.029723879 -0.017054498 0.058238268
0.031026218 -0.013397328 0.057803512
0.015850205 -0.031451494 0.054709733
0.018470239 -0.029892258 0.054581821
0.021579076 -0.027650662 0.054224849
0.024903079 -0.025320696 0.053842783
0.027263284 -0.021065831 0.05369091
0.029044716 -0.017856782 0.053552985
0.030464355 -0.014672752 0.053623438
0.022093741 -0.027569069 0.050457299
0.025056828 -0.025143825 0.050207019
0.026896151 -0.023109423 0.04895997
0.011801585 -0.031740706 0.057380319
0.031120276 -0.012326935 0.054467857
0.012106513 -0.03176171 0.053465009
0.016678043 -0.030480091 0.051474392
0.02945259 -0.016393738 0.05072242
0.031238981 -0.013558184 0.051285803
0.013859954 -0.031437267 0.048876882
0.017696666 -0.030225964 0.04872036
0.021420309 -0.027517604 0.047719836
0.02456411 -0.024810273 0.046525002
0.027470853 -0.020778138 0.047679424
0.029332496 -0.017999619 0.047542751
0.031487186 -0.013683013 0.046801746
0.033450976 -0.010361181 0.047595263
0.017676696 -0.029859602 0.04443121
0.020860534 -0.027496547 0.044689357
0.02446959 -0.024853783 0.04336834
0.027195087 -0.021680327 0.042940021
0.029517446 -0.018077228 0.042967916
0.031463381 -0.015071869 0.043171465
0.02512729 -0.023688154 0.03984344
0.026354102 -0.022972161 0.03911972
0.028648589 -0.019331913 0.039101601
0.0099437535 -0.031800989 0.049974084
0.010459875 -0.031752627 0.045699179
0.011774184 -0.031858206 0.041065037
0.015187081 -0.03032364 0.041184425
0.019203866 -0.026665656 0.040032387
0.030070541 -0.016745409 0.040295839
0.031496398 -0.013405824 0.040111303
0.013129716 -0.031707328 0.036364794
0.015503999 -0.029822554 0.036177456
0.019383598 -0.02702203 0.036212325
0.02348135 -0.024395183 0.036863804
0.027013758 -0.021173311 0.03691709
0.029132437 -0.01769818 0.035885453
0.030455355 -0.013900783 0.034595966
0.031918392 -0.010779859 0.03514111
0.01934984 -0.027794998 0.03169173
0.023241062 -0.025148604 0.031190217
0.026543349 -0.021765683 0.031610548
0.028553046 -0.01803343 0.031250477
0.024570113 -0.024650304 0.027520299
0.026246954 -0.023381323 0.026699483
0.010526725 -0.032359455 0.035678148
0.015589831 -0.030303897 0.033876419
0.031483524 -0.012426965 0.032876849
0.011836229 -0.031369805 0.031348646
0.014805114 -0.029994579 0.030382752
0.019293694 -0.028233429 0.029647231
0.026854914 -0.02092386 0.028489113
0.029220665 -0.017272534 0.029570699
0.030699454 -0.013766433 0.029083014
0.032291893 -0.010359391 0.028750062
0.015652969 -0.028762054 0.026426375
0.019184448 -0.027876366 0.026547849
0.023061233 -0.026200218 0.025837541
0.025837658 -0.023051193 0.024679244
0.027972875 -0.018574657 0.026020527
0.02990362 -0.015091874 0.025611758
0.030814566 -0.012008318 0.024682939
0.019841891 -0.027159888 0.021789491
0.022632336 -0.025951685 0.021799028
0.025455507 -0.022843553 0.02041471
0.01006409 -0.031516857 0.028384447
0.010110181 -0.031394325 0.02412945
0.013959123 -0.02948585 0.023370326
0.016973935 -0.02758595 0.022928476
0.027379742 -0.017682223 0.022203445
0.029152988 -0.014054926 0.02161485
0.031214312 -0.010484551 0.021701038
0.011572207 -0.031560276 0.019746125
0.014333581 -0.029835932 0.01880759
0.018224815 -0.027687555 0.018893838
0.021755025 -0.025730047 0.018334508
0.025019743 -0.021836236 0.017922997
0.026946038 -0.018404793 0.01815325
0.028997751 -0.014438262 0.017721117
0.031225933 -0.010642866 0.01718539
0.015395707 -0.029714381 0.015529871
0.018125907 -0.027793907 0.014603853
0.022011828 -0.025695417 0.013656259
0.024787888 -0.022702318 0.013662398
0.026956992 -0.018617602 0.012947142
0.029432882 -0.01528979 0.013562739
0.03114287 -0.012717692 0.013660014
0.022977283 -0.026198985 0.0089802742
0.025183916 -0.02408541 0.0082519054
0.02306165 -0.027049845 0.0068041086
0.025203587 -0.025258543 0.0048282146
0.010940832 -0.031320874 0.012648702
0.013615138 -0.030121367 0.012401581
0.0172086 -0.028014051 0.011953413
0.030204736 -0.013893534 0.010636687
0.031725213 -0.010768706 0.011223376
0.014132179 -0.029162221 0.0084378123
0.017572584 -0.027277542 0.007943511
0.020953666 -0.026931249 0.0073451996
0.025362452 -0.021230457 0.0083719492
0.027011659 -0.018872313 0.0077741146
0.029443532 -0.015526168 0.0072622299
0.031664647 -0.011835525 0.0070996881
0.022222467 -0.02637738 0.0031404495
0.02567143 -0.023119595 0.0028026104
0.02689144 -0.019555446 0.0019958615
0.022988647 -0.026335012 -0.0014221668
0.013004504 -0.029663399 0.0063713789
0.016617637 -0.026801541 0.0040912032
0.029194623 -0.013120762 0.0028050542
0.031898946 -0.0096994173 0.0043424368
0.010374817 -0.031659365 0.0015034676
0.013442849 -0.029818241 0.0018966198
0.016998138 -0.027559292 0.0021412969
0.027404532 -0.017513435 0.00049376488
0.028454708 -0.014507694 4.8875809e-05
0.030638177 -0.010597262 -0.00025701523
