# .PCD v0.7 - Point Cloud Data file format
VERSION 0.7
FIELDS x y z
SIZE 4 4 4
TYPE F F F
COUNT 1 1 1
WIDTH 465
HEIGHT 1
VIEWPOINT 0 0 0 1 0 0 0
POINTS 465
DATA ascii
0.039845418 0.014635769 0.18485561
0.038175527 0.018583298 0.18588015
0.03592547 0.023062829 0.1849758
0.043427248 0.010594442 0.18201298
0.042548809 0.01458128 0.18235028
0.040659562 0.019469883 0.18226445
0.037800398 0.023735587 0.18166783
0.043973047 0.011779118 0.17904538
0.043425087 0.014820926 0.17938188
0.041630995 0.019732116 0.17876679
0.040412184 0.023304299 0.17940071
0.036682237 0.0041196514 0.18720019
0.036455788 0.007334426 0.18775013
0.035576463 0.012285495 0.1878356
0.033672396 0.017117672 0.18781424
0.031010393 0.021385245 0.18770316
0.028204435 0.025109597 0.18747884
0.025723647 0.028538615 0.18627644
0.041939918 -0.0011748644 0.18388531
0.04158074 0.0039147688 0.18528122
0.040036667 0.0087752994 0.18577689
0.038632337 0.012483863 0.1861698
0.033292901 0.022802118 0.18619868
0.032243989 0.026650541 0.18491453
0.029237676 0.031080235 0.18404907
0.044461355 0.00524073 0.1816498
0.043624878 0.009036079 0.18179172
0.036935776 0.025121758 0.17943704
0.034998789 0.027613293 0.18057668
0.031930052 0.032013178 0.17965809
0.045456458 0.0062484248 0.17720056
0.045264449 0.010423291 0.17753425
0.043510478 0.01474217 0.17673761
0.041030582 0.019367721 0.17592961
0.038434494 0.024203232 0.17636412
0.036148559 0.027920661 0.17599598
0.032863695 0.032238148 0.1749182
0.029379144 0.035438895 0.17466503
0.044906598 0.0069874693 0.17317596
0.044056587 0.01020975 0.17264959
0.042733327 0.013907632 0.17265481
0.03982288 0.018697282 0.1717312
0.037618157 0.023492105 0.17161107
0.035903942 0.027661897 0.17129764
0.033908691 0.031326741 0.17132419
0.024190042 0.016133873 0.1876407
0.035162851 0.00059909001 0.18655953
0.032510474 0.0056438507 0.18770263
0.030994639 0.0099382522 0.18770701
0.028719215 0.014176073 0.18754318
0.025904601 0.019292744 0.18754047
0.023578342 0.02322793 0.18698582
0.040626775 -0.0033806786 0.18439907
0.038336378 0.00064004119 0.18566746
0.042132005 -0.0022124024 0.17839849
0.042466987 0.0012493553 0.1784696
0.042895757 -0.0011109449 0.17407069
0.043223374 0.0020229723 0.17425209
0.043707248 0.0042599039 0.17022783
0.043276485 0.008986407 0.16944653
0.04132982 0.01390662 0.16933763
0.039473832 0.018517742 0.16798934
0.036929622 0.022754204 0.16812298
0.035133168 0.027634801 0.16764811
0.032339707 0.031326968 0.16790116
0.029033054 0.034760348 0.16808647
0.044105709 0.0063004112 0.16618636
0.043070808 0.0091139721 0.16526628
0.041625287 0.013405905 0.16442487
0.040104769 0.017983103 0.16409832
0.037673946 0.022326168 0.16406476
0.03474785 0.026935229 0.16361481
0.032657705 0.030467823 0.16415864
0.029872084 0.033990748 0.16441077
0.041705761 0.014906542 0.16027141
0.041123111 0.018363234 0.16024685
0.039861888 0.021476775 0.15879267
0.028612077 -0.0026954543 0.18720683
0.026979869 0.0024284613 0.18731457
0.025235703 0.007490762 0.18734318
0.023304999 0.01188182 0.18750438
0.020416385 0.016321272 0.18698019
0.018730767 0.021252971 0.18637508
0.031591576 -0.00059146527 0.18672878
0.042531889 -0.0036011487 0.17247429
0.041706108 -0.0027854992 0.16737247
0.042928718 0.0014451528 0.16766292
0.041847568 -0.0014459612 0.16388953
0.042794067 0.0026075756 0.16341007
0.04305714 0.0089356173 0.16157442
0.036009919 0.023272939 0.16129932
0.034751955 0.026298564 0.16089144
0.032181241 0.031267971 0.16100603
0.029316436 0.034503594 0.16144407
0.042255878 0.0029327879 0.15905491
0.042860329 0.0076504182 0.15776843
0.042046621 0.013095845 0.15800929
0.041143369 0.017523088 0.15759695
0.036690015 0.02340072 0.15719473
0.035251059 0.026915796 0.15708947
0.032905422 0.030872064 0.15650222
0.02954823 0.033983551 0.15637571
0.042835064 0.008786588 0.15332615
0.042173501 0.013127978 0.15281934
0.041581001 0.017868804 0.15356076
0.038732219 0.022431402 0.15278512
0.035093952 0.026460238 0.15159777
0.032846138 0.030377526 0.15193757
0.043175131 0.013925853 0.14874801
0.042166322 0.017902825 0.14842385
0.040476419 0.02168794 0.14848521
0.015776835 0.0085431393 0.18828315
0.013588192 0.011771189 0.18766919
0.022024155 0.0003138152 0.18754467
0.020001981 0.0052819047 0.18738633
0.01939573 0.0097123384 0.18812758
0.016769562 0.014234814 0.18752295
0.04051527 -0.0038815243 0.16065088
0.040650152 -0.0023636529 0.15648335
0.04190078 0.00098025985 0.15653157
0.041687753 0.0017867414 0.1522744
0.042351883 0.0064489329 0.15055418
0.033710584 0.027665375 0.14890233
0.03203949 0.030705094 0.14899582
0.028366998 0.033798866 0.1496433
0.042730846 0.0086781001 0.14718893
0.043004658 0.012087533 0.1463387
0.037980057 0.022688482 0.14588681
0.035694048 0.025895704 0.14607671
0.032688711 0.030434083 0.14518645
0.029870594 0.033165112 0.14522454
0.042341787 0.013097849 0.14292082
0.041622546 0.017429119 0.14238068
0.039365515 0.021251539 0.14204246
0.035831098 0.025246158 0.14167017
0.033174016 0.030922793 0.14144024
0.041412547 0.017180381 0.13844791
0.040118437 0.020498095 0.13777244
0.014564285 0.0025060489 0.18736738
0.012825893 0.0072885333 0.1876578
0.010248386 0.011623912 0.18704486
0.04122049 -0.00022970978 0.14963794
0.041232683 -0.0027298806 0.14469871
0.041116565 0.00063096546 0.14542842
0.041501783 0.0053976867 0.14496654
0.028067764 0.034052767 0.14331859
0.041592814 0.0014243908 0.1403217
0.041359305 0.0061167162 0.13997096
0.041494779 0.011840874 0.13952583
0.037300907 0.022148319 0.13878113
0.034365315 0.025642678 0.13829565
0.032433972 0.029782491 0.13814348
0.028566694 0.033555374 0.1382311
0.042551454 0.0062688114 0.13490337
0.041483048 0.011222188 0.13514158
0.040645953 0.016720958 0.13500282
0.037995204 0.021169458 0.13462871
0.034931276 0.024337385 0.13397139
0.032330461 0.029093962 0.13339603
0.029509194 0.032985017 0.13434085
0.042152263 0.01214738 0.13064259
0.040584635 0.016499227 0.13019431
0.039012939 0.02039348 0.13037056
0.035842068 0.024581237 0.13040769
0.033818271 0.028765751 0.13055152
0.041353602 0.017534673 0.12719959
0.040127899 0.020367773 0.12707615
0.0099528283 -0.0003699318 0.18729284
0.0079001086 0.005194929 0.18663007
0.040705133 -0.00075878855 0.13825732
0.0403472 -0.003659253 0.13447404
0.041562855 0.00023028068 0.13372809
0.042739887 0.0041043358 0.13327947
0.028047238 0.033408277 0.13184336
0.041915931 0.00069743767 0.1287097
0.042426199 0.0054342002 0.12866461
0.042338703 0.0096185738 0.12871262
0.036838952 0.021559782 0.12796238
0.035540801 0.024360789 0.12759134
0.032673262 0.02895901 0.12771586
0.028501695 0.032579493 0.12670028
0.042511914 0.0054705609 0.12356657
0.042124886 0.011008091 0.12416697
0.040787745 0.016090177 0.12399837
0.038622916 0.020696789 0.12367976
0.035302412 0.024096325 0.12279621
0.032786544 0.02808243 0.12207574
0.030153137 0.03094352 0.12226188
0.04220704 0.011645069 0.11865771
0.040556204 0.016014945 0.1186353
0.038704626 0.019750198 0.11894763
0.034856174 0.025461789 0.1190173
0.0019335923 0.0018449236 0.18614683
0.0058252285 9.1616996e-05 0.18621144
0.0039164806 0.0035023042 0.18580082
0.041543324 -0.0012533143 0.12701404
0.042223122 -0.00023779739 0.12303996
0.042692486 0.0043309219 0.12094164
0.028218063 0.032756634 0.12068897
0.042019866 0.00056270789 0.11950809
0.042530712 0.0051555661 0.11744368
0.042659737 0.0084287608 0.1181398
0.037246745 0.020733997 0.11626738
0.035244007 0.023648111 0.11666089
0.032917537 0.027952785 0.11639053
0.030076854 0.031623766 0.11559725
0.042382795 0.0063996864 0.11357009
0.042236563 0.010586777 0.11359811
0.040247153 0.015677935 0.11352909
0.03805868 0.019563485 0.11259043
0.035284784 0.023715703 0.11213601
0.033121318 0.027883381 0.11170268
0.030867936 0.031198408 0.11194813
-0.0048433957 -0.0018015729 0.18703094
0.041252624 -0.0010450948 0.11608368
0.041841529 -0.00055635441 0.11161196
0.042135626 0.0039489176 0.11210984
0.040847246 0.0098191611 0.1095143
0.039286479 0.014267983 0.10958135
0.036428735 0.019846706 0.10902697
0.034575008 0.023305846 0.10862523
0.032909952 0.026849046 0.10837942
0.028910989 0.031884033 0.10997528
0.041882955 0.00072797667 0.10687661
0.041518882 0.0039851442 0.10650468
0.041149396 0.0089493608 0.10626131
0.039437801 0.014173358 0.10577983
0.037147179 0.018955482 0.10566086
0.034452341 0.023378804 0.10522717
0.03220062 0.027303968 0.10508132
0.028823653 0.030542161 0.10478753
0.041665696 0.0056044273 0.10313928
0.041420788 0.0090294797 0.10070401
0.040541284 0.014427371 0.1007902
0.037939321 0.019311948 0.10088301
0.035028338 0.02302788 0.099843264
0.032554481 0.027011314 0.10037887
0.030402543 0.029860895 0.10155278
0.042510632 0.010838456 0.09732765
0.041336313 0.014072869 0.09656918
0.040034086 0.018492818 0.095893264
-0.0078721391 -0.0030348529 0.18782461
0.042048667 -0.0025300188 0.10905671
0.041084185 -0.0017404119 0.10467851
0.027169731 0.032006253 0.10274422
0.041406766 -0.00025732536 0.099912584
0.041685186 0.0035498524 0.1003989
0.042370811 0.0074854111 0.10023886
0.036772601 0.02041552 0.097726345
0.032215241 0.027659452 0.098350585
0.028985891 0.031121455 0.098670721
0.041755613 0.0039338479 0.096081436
0.041900169 0.008213101 0.09551239
0.041328628 0.013619488 0.09394753
0.038105972 0.019547744 0.094038248
0.036281444 0.023495091 0.094276488
0.032824565 0.027427435 0.09455359
0.030121185 0.030665688 0.094371915
0.041277703 0.0092267944 0.092047632
0.040611494 0.013181459 0.090669274
0.039208803 0.018570853 0.090137482
0.036395002 0.023370786 0.0893929
0.032980114 0.027160002 0.090896249
0.038679112 0.019949475 0.087159336
0.040296726 -0.0036811596 0.10164183
0.040805504 -0.0029603476 0.097868085
0.041353036 -0.0010484233 0.093247056
0.041501693 0.0028983559 0.09294939
0.028537389 0.03165894 0.091517627
0.040724464 -0.00066885911 0.088923931
0.040676177 0.0033479575 0.088666677
0.040998183 0.0078606112 0.088918746
0.040109936 0.011999158 0.08799243
0.032372586 0.026805464 0.087380171
0.028433084 0.030107435 0.08695507
0.04110381 0.0044984659 0.084652901
0.041123327 0.007922953 0.083625615
0.04068695 0.012962848 0.084710836
0.03920991 0.017285075 0.084573984
0.035930634 0.021839982 0.083658278
0.032517727 0.025489394 0.082714736
0.04153093 0.0096839275 0.080427527
0.040603977 0.012945256 0.079223514
0.039021596 0.017419007 0.078980148
0.037903484 0.020626754 0.079298854
0.038845282 0.020439532 0.075445235
0.039604504 -0.0033471379 0.086968064
0.040463075 0.0013918635 0.085978448
0.027105801 0.030584831 0.083549857
0.039970279 -0.0012808274 0.083206713
0.040671326 0.002437287 0.08175689
0.031149007 0.02650528 0.079910338
0.027981753 0.029762387 0.080217183
0.040877923 0.0027822498 0.077992141
0.040875159 0.007304078 0.077003837
0.040658973 0.011735599 0.076341987
0.03917383 0.015436308 0.076275706
0.03536829 0.021826508 0.076833844
0.032668583 0.025194654 0.076361835
0.029080145 0.028551521 0.075425565
0.040655699 0.0090128193 0.073548555
0.039443858 0.012289834 0.072760284
0.038218766 0.016867481 0.072508097
0.036628306 0.021143291 0.072289109
0.033418071 0.024577532 0.072017908
0.039489798 -0.003020524 0.075989246
0.041038755 0.001945857 0.075457931
0.027769756 0.02914606 0.074274898
0.041198008 0.0019161971 0.071350634
0.040851198 0.0072499448 0.07117027
0.039585195 0.011447551 0.06989634
0.037911016 0.015501685 0.069283247
0.035213809 0.021310404 0.068903327
0.0324497 0.024522223 0.069075704
0.028827518 0.028501321 0.069917679
0.041575693 0.003167809 0.066890717
0.041333634 0.0070104292 0.066830635
0.039996497 0.011881294 0.065766931
0.038172893 0.016336046 0.065663218
0.035389099 0.02013742 0.065215468
0.032077692 0.024459019 0.065132558
0.029492073 0.027825249 0.065064847
0.02723421 0.030984435 0.065613508
0.041707426 0.007418368 0.06195724
0.0409077 0.012080856 0.06143111
0.039372969 0.016672736 0.06159395
0.035711091 0.020359371 0.060866296
0.033390176 0.023487777 0.06135416
0.040402357 0.012604642 0.058123887
0.039026834 0.0167173 0.057450294
0.03760368 0.019284613 0.05792284
0.039454978 -0.003196571 0.063429356
0.039700165 -0.00017033704 0.063571036
0.027426811 0.028639507 0.061680377
0.040328905 0.001821842 0.059679985
0.040721662 0.0048534833 0.058135927
0.033650093 0.02114076 0.057451606
0.031652994 0.024423942 0.058238268
0.028292529 0.027460478 0.057803512
0.040976837 0.0030423291 0.054709733
0.040465951 0.006562504 0.054581821
0.039437804 0.010914184 0.054224849
0.038410481 0.01553724 0.053842783
0.034878083 0.019980852 0.05369091
0.032214522 0.02333371 0.053552985
0.029416405 0.026285436 0.053623438
0.039579645 0.01150535 0.050457299
0.038288482 0.015781926 0.050207019
0.036916874 0.018672742 0.04895997
0.039481007 -0.0014506355 0.057380319
0.027180789 0.02803975 0.054467857
0.039639782 -0.0011313427 0.053465009
0.040299401 0.0043683201 0.051474392
0.030819669 0.024426538 0.05072242
0.028560897 0.027617987 0.051285803
0.040072925 0.00090347137 0.048876882
0.040480267 0.0055797109 0.04872036
0.039223507 0.010802463 0.047719836
0.037708979 0.015399764 0.046525002
0.03466066 0.020333026 0.047679424
0.032496963 0.023580126 0.047542751
0.028806262 0.027829789 0.046801746
0.026102554 0.031429555 0.047595263
0.040076464 0.0057217553 0.04443121
0.03895089 0.010208504 0.044689357
0.037713677 0.015278457 0.04336834
0.035509974 0.019632993 0.042940021
0.032663193 0.023744827 0.042967916
0.030292626 0.027184056 0.043171465
0.036750931 0.016507778 0.03984344
0.036526918 0.018149775 0.03911972
0.033627648 0.022248149 0.039101601
0.038716525 -0.0034800302 0.049974084
0.038894825 -0.0029021297 0.045699179
0.039595421 -0.0015326291 0.041065037
0.039465107 0.0028311238 0.041184425
0.037315667 0.0087938122 0.040032387
0.031474613 0.024935592 0.040295839
0.028511601 0.027963469 0.040111303
0.04003799 -4.1928142e-06 0.036364794
0.039066497 0.0033964319 0.036177456
0.037780035 0.0088284314 0.036212325
0.036778156 0.014418024 0.036863804
0.034882527 0.019663911 0.03691709
0.032082736 0.023499072 0.035885453
0.028580312 0.026620392 0.034595966
0.025869587 0.029590722 0.03514111
0.038598109 0.0084469412 0.03169173
0.037482955 0.013822651 0.031190217
0.035310995 0.018892404 0.031610548
0.032185413 0.022724889 0.031250477
0.037539236 0.015477654 0.027520299
0.0369201 0.017851606 0.026699483
0.039578747 -0.0031010034 0.035678148
0.039623644 0.003274045 0.033876419
0.027450781 0.028386621 0.032876849
0.039096691 -0.0012477003 0.031348646
0.03893989 0.0025663301 0.030382752
0.03904561 0.0081906766 0.029647231
0.034542736 0.019604072 0.028489113
0.03166334 0.023784205 0.029570699
0.028544482 0.026943481 0.029083014
0.025583137 0.030181028 0.028750062
0.03798994 0.0040304773 0.026426375
0.038611967 0.0082323421 0.026547849
0.038536169 0.013159312 0.025837541
0.036381535 0.017557835 0.024679244
0.032509755 0.02185791 0.026020527
0.029617811 0.02549392 0.025611758
0.026700877 0.027852489 0.024682939
0.038133234 0.0092608538 0.021789491
0.038076792 0.012807982 0.021799028
0.035987109 0.017238634 0.02041471
0.038463999 -0.0032234723 0.028384447
0.038352501 -0.0031190841 0.02412945
0.038013849 0.0018815994 0.023370326
0.037312031 0.0059793843 0.022928476
0.031283021 0.021617038 0.022203445
0.028164998 0.025147803 0.02161485
0.025236942 0.028963666 0.021701038
0.039184116 -0.0016173162 0.019746125
0.038558368 0.002128914 0.01880759
0.037980016 0.0072822906 0.018893838
0.037446212 0.011961317 0.018334508
0.034706805 0.017218672 0.017922997
0.031868216 0.020826962 0.01815325
0.028508872 0.024809334 0.017721117
0.025412772 0.028905509 0.01718539
0.038901553 0.0033280039 0.015529871
0.038050488 0.0071281977 0.014603853
0.037523542 0.012253578 0.013656259
0.035536807 0.016582089 0.013662398
0.032102484 0.020743757 0.012947142
0.029620968 0.02489817 0.013562739
0.027612058 0.027889645 0.013660014
0.038497355 0.013069377 0.0089802742
0.037204403 0.016391454 0.0082519054
0.039452132 0.012780434 0.0068041086
0.038477656 0.015888894 0.0048282146
0.038644183 -0.0021909643 0.012648702
0.038545273 0.0012270967 0.012401581
0.037878234 0.0060411859 0.011953413
0.028460607 0.026353497 0.010636687
0.02577132 0.029387482 0.011223376
0.037742287 0.0022126194 0.0084378123
0.037246879 0.0067623332 0.007943511
0.03838316 0.010561273 0.0073451996
0.034206871 0.017858522 0.0083719492
0.032401439 0.02068896 0.0077741146
0.029880507 0.024804115 0.0072622299
0.026894158 0.028845903 0.0070996881
0.038352638 0.012176143 0.0031404495
0.036381043 0.017348126 0.0028026104
0.033084083 0.020254388 0.0019958615
0.038649049 0.013020894 -0.0014221668
0.037779018 0.00077338703 0.0063713789
0.036307469 0.0059455526 0.0040912032
0.027176689 0.025609754 0.0028050542
0.024696339 0.030052138 0.0043424368
0.038756333 -0.0029521752 0.0015034676
0.038141623 0.0011767289 0.0018966198
0.037294101 0.006017372 0.0021412969
0.031112162 0.021719115 0.00049376488
0.02834126 0.024193013 4.8875809e-05
0.025101205 0.028292354 -0.00025701523
