# .PCD v0.7 - Point Cloud Data file format
VERSION 0.7
FIELDS x y z
SIZE 4 4 4
TYPE F F F
COUNT 1 1 1
WIDTH 465
HEIGHT 1
VIEWPOINT 0 0 0 1 0 0 0
POINTS 465
DATA ascii
0.03852402 -0.017825915 0.18485561
0.040134549 -0.013853797 0.18588015
0.041711021 -0.009095259 0.1849758
0.038199104 -0.023216296 0.18201298
0.04039707 -0.019776028 0.18235028
0.042517934 -0.014983363 0.18226445
0.043512508 -0.00994532 0.18166783
0.039422736 -0.022764541 0.17904538
0.041186146 -0.020226192 0.17938188
0.04339027 -0.015484843 0.17876679
0.045054354 -0.0120971 0.17940071
0.028851295 -0.023025224 0.18720019
0.030964356 -0.020591911 0.18775013
0.033843514 -0.016469199 0.1878356
0.035913996 -0.011705955 0.18781424
0.037049308 -0.0068060048 0.18770316
0.037698712 -0.0021883789 0.18747884
0.038369209 0.0019904831 0.18627644
0.02882525 -0.030486753 0.18388531
0.032170184 -0.026633862 0.18528122
0.034515273 -0.022105122 0.18577689
0.036144607 -0.018489761 0.1861698
0.039665163 -0.0074181012 0.18619868
0.041644718 -0.0039551621 0.18491453
0.042651199 0.0013028895 0.18404907
0.035144679 -0.027733168 0.1816498
0.037236918 -0.024457971 0.18179172
0.043881301 -0.0083537707 0.17943704
0.044273425 -0.0052223336 0.18057668
0.04521469 5.8783218e-05 0.17965809
0.036560874 -0.027724264 0.17720056
0.039377179 -0.024636414 0.17753425
0.041190844 -0.020342264 0.17673761
0.04270805 -0.015317954 0.17592961
0.044291556 -0.010063019 0.17636412
0.045303777 -0.005818001 0.17599598
0.046033956 -0.00044232607 0.1749182
0.045833275 0.0042848922 0.17466503
0.036694646 -0.02681287 0.17317596
0.038372099 -0.023933327 0.17264959
0.040051203 -0.020382842 0.17265481
0.041380003 -0.014938051 0.1717312
0.043211482 -0.0099886237 0.17161107
0.044947833 -0.0058280025 0.17129764
0.046128415 -0.0018257126 0.17132419
0.028513312 -0.00569657 0.1876407
0.025287511 -0.024440266 0.18655953
0.026979182 -0.018997569 0.18770263
0.028943924 -0.014889112 0.18770701
0.030331548 -0.010283552 0.18754318
0.031959347 -0.0046752873 0.18754047
0.033097032 -0.00024777744 0.18698582
0.02633697 -0.031117968 0.18439907
0.027560491 -0.026655331 0.18566746
0.028227421 -0.03135623 0.17839849
0.030912122 -0.029145265 0.1784696
0.029546324 -0.031117436 0.17407069
0.031994 -0.029133081 0.17425209
0.033917896 -0.027893482 0.17022783
0.036955446 -0.024246745 0.16944653
0.039058063 -0.019391129 0.16933763
0.041006234 -0.014818192 0.16798934
0.042202834 -0.010023531 0.16812298
0.044383656 -0.0053021451 0.16764811
0.045019135 -0.00071611162 0.16790116
0.045108743 0.0040498134 0.16808647
0.035642508 -0.026732381 0.16618636
0.036900215 -0.024011107 0.16526628
0.03891293 -0.019954115 0.16442487
0.041074324 -0.015642377 0.16409832
0.042426489 -0.010852516 0.16406476
0.043616522 -0.0055243559 0.16361481
0.044636484 -0.0015484802 0.16415864
0.045157842 0.0029123379 0.16441077
0.040030945 -0.018949907 0.16027141
0.042063192 -0.01609366 0.16024685
0.043372985 -0.013000237 0.15879267
0.018325821 -0.022137765 0.18720683
0.020794831 -0.017360466 0.18731457
0.023141105 -0.012547567 0.18734318
0.024880836 -0.0080774054 0.18750438
0.025977444 -0.0028956817 0.18698019
0.02827277 0.0017834688 0.18637508
0.021920389 -0.022756845 0.18672878
0.027528193 -0.032620981 0.17247429
0.027521025 -0.031460315 0.16737247
0.03137707 -0.02933331 0.16766292
0.028568249 -0.030613147 0.16388953
0.032103807 -0.028416136 0.16341007
0.036764428 -0.024127558 0.16157442
0.04191931 -0.0090064052 0.16129932
0.043169238 -0.0059774481 0.16089144
0.044865366 -0.00064577721 0.16100603
0.045127571 0.0036678771 0.16144407
0.031953212 -0.027805619 0.15905491
0.035716493 -0.024897166 0.15776843
0.038991611 -0.020471286 0.15800929
0.041483447 -0.01670206 0.15759695
0.042490568 -0.0093969498 0.15719473
0.043958601 -0.0058939196 0.15708947
0.045097489 -0.0014377991 0.15650222
0.044923753 0.0031362474 0.15637571
0.036502019 -0.024075905 0.15332615
0.039104052 -0.020538284 0.15281934
0.04203736 -0.016767055 0.15356076
0.043249212 -0.011526416 0.15278512
0.043525383 -0.0061049554 0.15159777
0.044705879 -0.0017455686 0.15193757
0.040376492 -0.020682359 0.14874801
0.042475305 -0.017156882 0.14842385
0.043956835 -0.013285458 0.14848521
0.017196819 -0.0051149949 0.18828315
0.017931791 -0.0012848144 0.18766919
0.015795331 -0.015351527 0.18754467
0.017878408 -0.010408666 0.18738633
0.020582512 -0.0068471907 0.18812758
0.021923404 -0.0017923373 0.18752295
0.02590397 -0.031393271 0.16065088
0.027072646 -0.030415352 0.15648335
0.030321471 -0.028935174 0.15653157
0.030741112 -0.028214276 0.1522744
0.034507386 -0.025387216 0.15055418
0.043399353 -0.0042746039 0.14890233
0.044367123 -0.00094355829 0.14899582
0.0439579 0.0038409121 0.1496433
0.03635161 -0.024078922 0.14718893
0.038956065 -0.021861708 0.1463387
0.042899139 -0.010812776 0.14588681
0.043550529 -0.0069284718 0.14607671
0.044634555 -0.0015942622 0.14518645
0.044572972 0.0023295796 0.14522454
0.039201744 -0.020678585 0.14292082
0.041755833 -0.017107334 0.14238068
0.042862725 -0.012808512 0.14204246
0.04318814 -0.0074846791 0.14167017
0.04532329 -0.0015918547 0.14144024
0.041431457 -0.017134726 0.13844791
0.042862356 -0.013873673 0.13777244
0.012070549 -0.0085264593 0.18736738
0.014223048 -0.0039155041 0.1876578
0.015466049 0.00097264349 0.18704486
0.028984858 -0.029309716 0.14963794
0.027225593 -0.031086225 0.14469871
0.029519962 -0.02862764 0.14542842
0.033162933 -0.025529448 0.14496654
0.043925848 0.0042320369 0.14331859
0.030417757 -0.028403362 0.1403217
0.033570617 -0.024920274 0.13997096
0.037714001 -0.020968474 0.13952583
0.042036947 -0.010714496 0.13878113
0.042432055 -0.0061678328 0.13829565
0.043993678 -0.0018748762 0.13814348
0.043926932 0.0035275305 0.1382311
0.034521144 -0.025655702 0.13490337
0.037268229 -0.021397656 0.13514158
0.04056453 -0.016917523 0.13500282
0.041835729 -0.011897597 0.13462871
0.04190927 -0.0074910102 0.13397139
0.043433625 -0.0022885501 0.13339603
0.044190079 0.002457777 0.13434085
0.038395643 -0.021216655 0.13064259
0.040364385 -0.017030954 0.13019431
0.042006679 -0.013165944 0.13037056
0.042725727 -0.0079626068 0.13040769
0.044253588 -0.0035726698 0.13055152
0.041640297 -0.016842524 0.12719959
0.042776898 -0.013972517 0.12707615
0.0067761308 -0.0072992928 0.18729284
0.009259589 -0.0019128504 0.18663007
0.028246328 -0.029319417 0.13825732
0.0259423 -0.031117259 0.13447404
0.02955221 -0.029226542 0.13372809
0.033123869 -0.027319457 0.13327947
0.043455612 0.0037908284 0.13184336
0.030132201 -0.029145872 0.1287097
0.033842415 -0.02615729 0.12866461
0.036739346 -0.023136623 0.12871262
0.041294135 -0.010804002 0.12796238
0.042356819 -0.0079054618 0.12759134
0.043580595 -0.0026263688 0.12771586
0.043190919 0.002883439 0.12670028
0.03392873 -0.026192188 0.12356657
0.037570689 -0.022002894 0.12416697
0.040218767 -0.017463816 0.12399837
0.041945368 -0.012675686 0.12367976
0.042001251 -0.0079239001 0.12279621
0.043040868 -0.0033263098 0.12207574
0.043201856 0.00055888761 0.12226188
0.038079191 -0.021610573 0.11865771
0.040001839 -0.017353287 0.1186353
0.041333798 -0.013402802 0.11894763
0.042651236 -0.0066428334 0.1190173
0.0026718141 -6.2698033e-05 0.18614683
0.0041838419 -0.0040542753 0.18621144
0.0052458728 -0.00029286649 0.18580082
0.028489336 -0.030261789 0.12701404
0.029688109 -0.030024402 0.12303996
0.03325057 -0.02712572 0.12094164
0.043115623 0.0032092556 0.12068897
0.030110424 -0.029314633 0.11950809
0.03371929 -0.026428215 0.11744368
0.036125023 -0.024204951 0.1181398
0.040998571 -0.011676274 0.11626738
0.041643016 -0.0081995353 0.11666089
0.043041818 -0.0035106102 0.11639053
0.04362892 0.0010938337 0.11559725
0.034494422 -0.0254439 0.11357009
0.037351742 -0.022379775 0.11359811
0.039545011 -0.017373059 0.11352909
0.04074502 -0.013078075 0.11259043
0.041719645 -0.0081805745 0.11213601
0.043136831 -0.0037037805 0.11170268
0.043887533 0.00023368001 0.11194813
-0.0046987026 0.0021508937 0.18703094
0.028431017 -0.029909002 0.11608368
0.029193025 -0.029979829 0.11161196
0.03258669 -0.027002078 0.11210984
0.035826556 -0.021940166 0.1095143
0.03786872 -0.017690746 0.10958135
0.039792743 -0.011725262 0.10902697
0.040927947 -0.0079685003 0.10862523
0.04225599 -0.0042857062 0.10837942
0.042988569 0.0021022623 0.10997528
0.030130481 -0.029100962 0.10687661
0.032176204 -0.026540358 0.10650468
0.035425171 -0.022768861 0.10626131
0.037908815 -0.017864659 0.10577983
0.039670568 -0.012863468 0.10566086
0.040892791 -0.00783017 0.10522717
0.042076092 -0.0034624534 0.10508132
0.041977964 0.0012151692 0.10478753
0.033425022 -0.025499165 0.10313928
0.035673726 -0.022904113 0.10070401
0.03886871 -0.018465323 0.1007902
0.040482763 -0.013171542 0.10088301
0.041051943 -0.008485605 0.099843264
0.042119376 -0.0039196089 0.10037887
0.042612683 -0.00038300175 0.10155278
0.037723504 -0.022395607 0.09732765
0.039180208 -0.019278163 0.09656918
0.041384771 -0.015231976 0.095893264
-0.0077124075 0.003420477 0.18782461
0.027943902 -0.031521887 0.10905671
0.027820248 -0.03028156 0.10467851
0.041843738 0.0034199366 0.10274422
0.02909705 -0.029460959 0.099912584
0.031986002 -0.02696575 0.1003989
0.035253674 -0.024667703 0.10023886
0.040438108 -0.0115662 0.097726345
0.042337798 -0.0032214271 0.098350585
0.04250231 0.0015100725 0.098670721
0.032307327 -0.026744023 0.096081436
0.035435431 -0.023820352 0.09551239
0.038854185 -0.019593317 0.09394753
0.040767334 -0.013122648 0.094038248
0.042268395 -0.0090413168 0.094276488
0.042604599 -0.0038163466 0.09455359
0.042982809 0.00038502272 0.094371915
0.035712074 -0.022663414 0.092047632
0.03803736 -0.01939596 0.090669274
0.040856384 -0.014593232 0.090137482
0.042260788 -0.0092095081 0.0893929
0.042525481 -0.0041154409 0.090896249
0.041456673 -0.01324385 0.087159336
0.025891118 -0.031097058 0.10164183
0.026760569 -0.030947128 0.097868085
0.028499663 -0.029982354 0.093247056
0.031395577 -0.027296679 0.09294939
0.04256523 0.0022072699 0.091517627
0.028323587 -0.029269496 0.088923931
0.031129764 -0.026395034 0.088666677
0.034548383 -0.023431798 0.088918746
0.03684669 -0.019877318 0.08799243
0.041845202 -0.0039365487 0.087380171
0.041394394 0.0011839485 0.08695507
0.032245677 -0.025883883 0.084652901
0.034680955 -0.023476208 0.083625615
0.037936132 -0.019603895 0.084710836
0.039947987 -0.015503196 0.084573984
0.040849999 -0.0099635944 0.083658278
0.041017227 -0.0049697794 0.082714736
0.036214374 -0.022519231 0.080427527
0.037865024 -0.019557666 0.079223514
0.03990953 -0.015275334 0.078980148
0.041387126 -0.012216492 0.079298854
0.041920695 -0.013014829 0.075445235
0.025637832 -0.030371394 0.086968064
0.029595908 -0.027627513 0.085978448
0.040793434 0.0024600476 0.083549857
0.027357573 -0.029168934 0.083206713
0.030482396 -0.027035547 0.08175689
0.040767733 -0.0032836068 0.079910338
0.040831272 0.0012591016 0.080217183
0.030872403 -0.026937705 0.077992141
0.034067869 -0.023738338 0.077003837
0.037048552 -0.020451911 0.076341987
0.038615197 -0.01678496 0.076275706
0.040442824 -0.0095754825 0.076833844
0.040915489 -0.0052848654 0.076361835
0.040751737 -0.0003737919 0.075425565
0.035120942 -0.022374891 0.073548555
0.036581248 -0.019200793 0.072760284
0.038951855 -0.015097635 0.072508097
0.040850691 -0.01094956 0.072289109
0.041009083 -0.0062512038 0.072017908
0.02578767 -0.030059336 0.075989246
0.030394711 -0.02764285 0.075457931
0.040245559 0.00097319577 0.074274898
0.030486347 -0.027776431 0.071350634
0.034012642 -0.023759671 0.07117027
0.036085602 -0.019896319 0.06989634
0.037768483 -0.015845789 0.069283247
0.039968655 -0.0098311901 0.068903327
0.040285233 -0.00560557 0.069075704
0.040537611 -0.00023065787 0.069917679
0.031638436 -0.027158473 0.066890717
0.034184411 -0.024270166 0.066830635
0.036683138 -0.019880451 0.065766931
0.038543638 -0.01544098 0.065663218
0.039263174 -0.010784563 0.065215468
0.039977487 -0.0053872121 0.065132558
0.040529463 -0.0011786195 0.065064847
0.041166797 0.0026518106 0.065613508
0.034737181 -0.024246024 0.06195724
0.037468567 -0.020383654 0.06143111
0.039630298 -0.016051486 0.06159395
0.039647806 -0.010855305 0.060866296
0.040218785 -0.0070020519 0.06135416
0.037481606 -0.019655949 0.058123887
0.039417055 -0.01577522 0.057450294
0.040226098 -0.012953532 0.05792284
0.025638564 -0.030159198 0.063429356
0.027951812 -0.028192703 0.063571036
0.039644871 0.00085750781 0.061680377
0.029805075 -0.027228603 0.059679985
0.032226492 -0.025362629 0.058135927
0.038742978 -0.0088454317 0.057451606
0.039652385 -0.005111712 0.058238268
0.039423328 -0.0005883472 0.057803512
0.03112625 -0.026823744 0.054709733
0.033254139 -0.023973355 0.054581821
0.035604235 -0.020169243 0.054224849
0.038146794 -0.016173821 0.053842783
0.038791124 -0.010533932 0.05369091
0.039278526 -0.0062796809 0.053552985
0.039387148 -0.002213927 0.053623438
0.036122542 -0.019851521 0.050457299
0.038233552 -0.015914537 0.050207019
0.039307795 -0.012900547 0.04895997
0.026891533 -0.028943039 0.057380319
0.039046817 0.00060737971 0.054467857
0.027229577 -0.028829535 0.053465009
0.031584848 -0.025407108 0.051474392
0.039064966 -0.0045206249 0.05072242
0.039724469 -0.00066673663 0.051285803
0.028974686 -0.027696982 0.048876882
0.032569319 -0.024678417 0.04872036
0.035373699 -0.02009671 0.047719836
0.037553549 -0.015774995 0.046525002
0.038886406 -0.010131165 0.047679424
0.039652489 -0.0063051535 0.047542751
0.040047731 -0.00069046952 0.046801746
0.04068134 0.0037667602 0.047595263
0.032384232 -0.024292445 0.04443121
0.034760941 -0.020323932 0.044689357
0.037471097 -0.015864095 0.04336834
0.038991962 -0.011226718 0.042940021
0.03988649 -0.0063062347 0.042967916
0.04064215 -0.0021980889 0.043171465
0.037659593 -0.014314069 0.03984344
0.038662262 -0.012994602 0.03911972
0.039510157 -0.0080465209 0.039101601
0.024915965 -0.029837467 0.049974084
0.025450679 -0.029554911 0.045699179
0.026914459 -0.02908192 0.041065037
0.029907951 -0.025904138 0.041184425
0.032604326 -0.020167993 0.040032387
0.039888036 -0.0046237828 0.040295839
0.039933905 -0.00038758665 0.040111303
0.02830817 -0.028314097 0.036364794
0.030025827 -0.025222544 0.036177456
0.032957159 -0.020471871 0.036212325
0.036201164 -0.015811 0.036863804
0.038570158 -0.010761183 0.03691709
0.039302271 -0.0060695652 0.035885453
0.039032791 -0.0013858713 0.034595966
0.039216358 0.0026312405 0.03514111
0.033265874 -0.021320093 0.03169173
0.036278542 -0.016730361 0.031190217
0.038327593 -0.011609698 0.031610548
0.038827445 -0.0066895979 0.031250477
0.037488598 -0.015599891 0.027520299
0.038729444 -0.013483459 0.026699483
0.025793657 -0.030179137 0.035678148
0.030333245 -0.025703043 0.033876419
0.039483007 0.00066173822 0.032876849
0.026763281 -0.028527793 0.031348646
0.029349331 -0.025719989 0.030382752
0.033401098 -0.021817729 0.029647231
0.038287573 -0.010563226 0.028489113
0.039207336 -0.0055713905 0.029570699
0.039235916 -0.0011320785 0.029083014
0.039431218 0.0032512015 0.028750062
0.029712921 -0.024012964 0.026426375
0.033123929 -0.021481637 0.026547849
0.036554221 -0.017944142 0.025837541
0.038140889 -0.013310362 0.024679244
0.038443744 -0.0075319894 0.026020527
0.038969874 -0.0029160287 0.025611758
0.038575049 0.00081431493 0.024682939
0.033512682 -0.020415854 0.021789491
0.03598097 -0.017867746 0.021799028
0.037636284 -0.013257171 0.02041471
0.024918815 -0.02947749 0.028384447
0.024913792 -0.029324837 0.02412945
0.028210342 -0.025549356 0.023370326
0.030611651 -0.022155525 0.022928476
0.03740599 -0.0068348814 0.022203445
0.03769784 -0.0021334747 0.02161485
0.038325615 0.0026351931 0.021701038
0.026563738 -0.028850967 0.019746125
0.028770255 -0.025759513 0.01880759
0.032005284 -0.021706568 0.018893838
0.034936398 -0.01802054 0.018334508
0.03671686 -0.012365978 0.017922997
0.037261114 -0.0078073437 0.01815325
0.037701663 -0.002615965 0.017721117
0.038408823 0.0024697408 0.01718539
0.029860809 -0.025154296 0.015529871
0.031946152 -0.021865359 0.014603853
0.035197735 -0.01786856 0.013656259
0.036853623 -0.013403008 0.013662398
0.037367936 -0.0080318302 0.012947142
0.03855085 -0.0033395216 0.013562739
0.039245628 0.00019628555 0.013660014
0.036463186 -0.017980292 0.0089802742
0.037897989 -0.014716975 0.0082519054
0.036933996 -0.018859735 0.0068041086
0.038442958 -0.015972666 0.0048282146
0.025776321 -0.028874811 0.012648702
0.028123314 -0.026387934 0.012401581
0.031055719 -0.02251219 0.011953413
0.038759422 -0.0014899513 0.010636687
0.039003164 0.002557015 0.011223376
0.028252382 -0.025123265 0.0084378123
0.031119214 -0.021555828 0.007943511
0.034608938 -0.019673042 0.0073451996
0.036815792 -0.011560026 0.0083719492
0.037540577 -0.0082819695 0.0077741146
0.038667865 -0.0035895491 0.0072622299
0.039414175 0.0013800934 0.0070996881
0.035729244 -0.018509574 0.0031404495
0.037992258 -0.013458302 0.0028026104
0.037715994 -0.0090719629 0.0019958615
0.036536165 -0.01812184 -0.0014221668
0.027260669 -0.026166931 0.0063713789
0.0298774 -0.021469116 0.0040912032
0.03732565 -0.0011079889 0.0028050542
0.038713019 0.0037871217 0.0043424368
0.02531736 -0.029492363 0.0015034676
0.027802274 -0.026138123 0.0018966198
0.030625835 -0.022115985 0.0021412969
0.037357353 -0.0066418853 0.00049376488
0.037147336 -0.0029332507 4.8875809e-05
0.037754945 0.0022564847 -0.00025701523
