# .PCD v0.7 - Point Cloud Data file format
VERSION 0.7
FIELDS x y z
SIZE 4 4 4
TYPE F F F
COUNT 1 1 1
WIDTH 465
HEIGHT 1
VIEWPOINT 0 0 0 1 0 0 0
POINTS 465
DATA ascii
-0.036354203 0.0014798508 0.18485561
-0.036326665 -0.0021939324 0.18588015
-0.036014199 -0.0064793108 0.1849758
-0.037865028 0.0058550541 0.18201298
-0.03847713 0.0024097504 0.18235028
-0.038584575 -0.0020812191 0.18226445
-0.037719626 -0.0063970624 0.18166783
-0.038685832 0.0050959429 0.17904538
-0.039249659 0.0025074068 0.17938188
-0.039439864 -0.0019702362 0.17876679
-0.039646421 -0.0051988242 0.17940071
-0.030399852 0.0087699611 0.18720019
-0.031275019 0.0061499123 0.18775013
-0.032202706 0.0019407455 0.1878356
-0.032279901 -0.0025104012 0.18781424
-0.031571694 -0.0067630531 0.18770316
-0.030571308 -0.01063275 0.18747884
-0.029731546 -0.014161911 0.18627644
-0.032826714 0.014687266 0.18388531
-0.034211755 0.010538987 0.18528122
-0.03458333 0.0061834683 0.18577689
-0.034687705 0.0027860291 0.1861698
-0.033843961 -0.0071363752 0.18619868
-0.03427567 -0.010527987 0.18491453
-0.033347983 -0.015021961 0.18404907
-0.036927838 0.010433844 0.1816498
-0.037510362 0.0071539427 0.18179172
-0.037489619 -0.0077783749 0.17943704
-0.036772985 -0.010386772 0.18057668
-0.035786085 -0.014877619 0.17965809
-0.038046394 0.0099622626 0.17720056
-0.039263759 0.0065932157 0.17753425
-0.039291449 0.0025977844 0.17673761
-0.038844876 -0.0018786165 0.17592961
-0.038375158 -0.0065593971 0.17636412
-0.037784304 -0.010253035 0.17599598
-0.036599226 -0.014749521 0.1749182
-0.034889717 -0.018427165 0.17466503
-0.037853379 0.009196653 0.17317596
-0.038237214 0.0063661239 0.17264959
-0.038402285 0.0030037351 0.17265481
-0.037668586 -0.0017438419 0.1717312
-0.037495442 -0.0062640281 0.17161107
-0.037505712 -0.01012836 0.17129764
-0.0371278 -0.013685008 0.17132419
-0.024448156 -0.0048416816 0.1876407
-0.028041856 0.011059501 0.18655953
-0.027596202 0.0061945533 0.18770263
-0.027804444 0.0022966156 0.18770701
-0.027392609 -0.001805673 0.18754318
-0.026842067 -0.0067807813 0.18754047
-0.026290707 -0.010660089 0.18698582
-0.031063301 0.016003314 0.18439907
-0.030568395 0.012068034 0.18566746
-0.032638498 0.015571897 0.17839849
-0.034039278 0.01294042 0.1784696
-0.033604607 0.014950177 0.17407069
-0.034892015 0.012575901 0.17425209
-0.036008939 0.010963201 0.17022783
-0.03721818 0.0070790006 0.16944653
-0.037290521 0.0025441658 0.16933763
-0.037333284 -0.0017161577 0.16798934
-0.03670815 -0.0059055351 0.16812298
-0.036886454 -0.010359726 0.16764811
-0.035885401 -0.014199838 0.16790116
-0.034393072 -0.018003352 0.16808647
-0.036993794 0.0094780298 0.16618636
-0.037097149 0.0069105178 0.16526628
-0.037360258 0.003037598 0.16442487
-0.037657551 -0.0010858226 0.16409832
-0.037157178 -0.0053224261 0.16406476
-0.036351852 -0.0099321278 0.16361481
-0.035855412 -0.013415174 0.16415864
-0.034805059 -0.017118692 0.16441077
-0.037916217 0.0018756443 0.16027141
-0.038588662 -0.0010528155 0.16024685
-0.038611192 -0.0039321189 0.15879267
-0.021773662 0.011519692 0.18720683
-0.022161841 0.0069266926 0.18731457
-0.022441149 0.0023457624 0.18734318
-0.022352559 -0.0017648012 0.18750438
-0.02152128 -0.0062278952 0.18698019
-0.021804111 -0.010686198 0.18637508
-0.024823258 0.010830869 0.18672878
-0.032499637 0.016802806 0.17247429
-0.032113247 0.015886027 0.16737247
-0.034469146 0.012936824 0.16766292
-0.032664657 0.014871655 0.16388953
-0.034743804 0.011972136 0.16341007
-0.037027821 0.0070472723 0.16157442
-0.036149997 -0.0066179936 0.16129932
-0.036146268 -0.0094266078 0.16089144
-0.035740562 -0.014205097 0.16100603
-0.034533262 -0.017707072 0.16144407
-0.03442429 0.011538068 0.15905491
-0.036450405 0.0080004614 0.15776843
-0.037592206 0.0034213359 0.15800929
-0.038329124 -0.00038086137 0.15759695
-0.036730476 -0.006496103 0.15719473
-0.036743965 -0.0097516784 0.15708947
-0.036184177 -0.013654037 0.15650222
-0.034546241 -0.017219219 0.15637571
-0.036803074 0.0070924438 0.15332615
-0.037703224 0.0034375091 0.15281934
-0.038789086 -0.00051108265 0.15356076
-0.038029738 -0.0050586308 0.15278512
-0.036470123 -0.0094424579 0.15159777
-0.035975013 -0.013281861 0.15193757
-0.038758125 0.0031342232 0.14874801
-0.039263759 -0.00034603098 0.14842385
-0.039167099 -0.0038977643 0.14848521
-0.015295898 -0.0015902565 0.18828315
-0.014621564 -0.004864445 0.18766919
-0.017543793 0.0069757295 0.18754467
-0.017572045 0.0023782139 0.18738633
-0.018545203 -0.0013290923 0.18812758
-0.017948985 -0.0057718456 0.18752295
-0.030810714 0.016363356 0.16065088
-0.03141541 0.015205603 0.15648335
-0.033502631 0.012967791 0.15653157
-0.033598475 0.012259266 0.1522744
-0.035653658 0.0087851351 0.15055418
-0.035769939 -0.010850567 0.14890233
-0.035443682 -0.013805853 0.14899582
-0.033550248 -0.01746043 0.1496433
-0.036684956 0.0071441685 0.14718893
-0.038020134 0.0045340662 0.1463387
-0.037518434 -0.0055089323 0.14588681
-0.036760159 -0.0087985657 0.14607671
-0.035868902 -0.013378284 0.14518645
-0.034533057 -0.016465362 0.14522454
-0.037826605 0.0035165688 0.14292082
-0.038677759 -0.00014927179 0.14238068
-0.038144231 -0.0039165718 0.14204246
-0.036655631 -0.0082392385 0.14167017
-0.036413517 -0.013606106 0.14144024
-0.038429875 -2.1180331e-05 0.13844791
-0.038493328 -0.0030729531 0.13777244
-0.01235543 0.0027927621 0.18736738
-0.012547527 -0.0015646891 0.1876578
-0.011928474 -0.0058433199 0.18704486
-0.032567024 0.013702818 0.14963794
-0.031756587 0.015686695 0.14469871
-0.032767043 0.012987164 0.14542842
-0.034635648 0.0093387682 0.14496654
-0.033396568 -0.017759647 0.14331859
-0.033404436 0.012515069 0.1403217
-0.034758672 0.0087226378 0.13997096
-0.036743555 0.0042341314 0.13952583
-0.036803432 -0.0053039505 0.13878113
-0.035624947 -0.0090340376 0.13829565
-0.035453439 -0.012945851 0.13814348
-0.033628516 -0.017202105 0.1382311
-0.035752621 0.0089932363 0.13490337
-0.036531329 0.0047202199 0.13514158
-0.03767211 9.1181886e-05 0.13500282
-0.037032161 -0.0043010535 0.13462871
-0.035644975 -0.007814737 0.13397139
-0.035145625 -0.012434558 0.13339603
-0.034187794 -0.016441287 0.13434085
-0.037364755 0.0042070765 0.13064259
-0.037550826 0.00024665744 0.13019431
-0.037583575 -0.0033527266 0.13037056
-0.036446214 -0.0077090906 0.13040769
-0.036216158 -0.011686628 0.13055152
-0.038499407 -0.00032107686 0.12719959
-0.038458075 -0.0029666482 0.12707615
-0.0077602696 0.0035576182 0.18729284
-0.0079600811 -0.0015224986 0.18663007
-0.031985369 0.013952749 0.13825732
-0.03075053 0.016132209 0.13447404
-0.032989025 0.013450854 0.13372809
-0.03519186 0.010769085 0.13327947
-0.033168912 -0.01725601 0.13184336
-0.033421859 0.013196727 0.1287097
-0.035379667 0.0096130753 0.12866461
-0.036682911 0.006270784 0.12871262
-0.036244564 -0.0049894168 0.12796238
-0.036135335 -0.0076333373 0.12759134
-0.03537282 -0.012215249 0.12771586
-0.033256941 -0.016450631 0.12670028
-0.035459466 0.0096123973 0.12356657
-0.036969371 0.0051002949 0.12416697
-0.037577495 0.00063720619 0.12399837
-0.037374206 -0.0037208502 0.12367976
-0.035859808 -0.0075021042 0.12279621
-0.035174999 -0.011483929 0.12207574
-0.034028087 -0.014613412 0.12226188
-0.037243366 0.0046228203 0.11865771
-0.037369456 0.00062083197 0.1186353
-0.037128415 -0.0029444466 0.11894763
-0.035954323 -0.0087297829 0.1190173
-0.0021363667 -0.00082674302 0.18614683
-0.0046430314 0.0018382072 0.18621144
-0.004250254 -0.0014888017 0.18580082
-0.032486916 0.0146193 0.12701404
-0.033358354 0.014038101 0.12303996
-0.035228644 0.010574104 0.12094164
-0.033090439 -0.016683944 0.12068897
-0.033459969 0.013337512 0.11950809
-0.035371032 0.0098680072 0.11744368
-0.03654686 0.0073182951 0.1181398
-0.036296625 -0.0042017191 0.11626738
-0.035666533 -0.0071663233 0.11666089
-0.035236206 -0.011338294 0.11639053
-0.034190807 -0.015177117 0.11559725
-0.035661988 0.0088342736 0.11357009
-0.036919612 0.0054705627 0.11359811
-0.037014179 0.00078633701 0.11352909
-0.036555648 -0.0030084683 0.11259043
-0.035720997 -0.0072064735 0.11213601
-0.035374813 -0.011216491 0.11170268
-0.034677744 -0.014580792 0.11194813
0.0044264114 -0.00016204368 0.18703094
-0.032325014 0.014359059 0.11608368
-0.032951679 0.014165197 0.11161196
-0.034662366 0.010693954 0.11210984
-0.035567626 0.0056227189 0.1095143
-0.035790939 0.0015877588 0.10958135
-0.035357799 -0.0037673961 0.10902697
-0.03502449 -0.0071147261 0.10862523
-0.034868155 -0.010466737 0.10837942
-0.033352938 -0.015765645 0.10997528
-0.033405766 0.013161727 0.10687661
-0.034185853 0.010462966 0.10650468
-0.035521593 0.0064106211 0.10626131
-0.035879731 0.0017123282 0.10577983
-0.035634398 -0.0028259791 0.10566086
-0.034951277 -0.0072127385 0.10522717
-0.034455657 -0.011059658 0.10508132
-0.032843623 -0.014731666 0.10478753
-0.03483326 0.0092288172 0.10313928
-0.035762787 0.0064361966 0.10070401
-0.036836896 0.001873133 0.1007902
-0.036378622 -0.0028484266 0.10088301
-0.035292301 -0.0067459061 0.099843264
-0.034639888 -0.010711836 0.10037887
-0.033870477 -0.013674275 0.10155278
-0.0372192 0.0053611575 0.09732765
-0.037350196 0.0024146424 0.09656918
-0.037768774 -0.0015126482 0.095893264
0.0072293961 -0.0001788841 0.18782461
-0.032468319 0.015796078 0.10905671
-0.031963553 0.014854428 0.10467851
-0.032014132 -0.016433585 0.10274422
-0.032705478 0.013785788 0.099912584
-0.034174766 0.010862222 0.1003989
-0.03600863 0.0079705613 0.10023886
-0.035816688 -0.004105045 0.097726345
-0.034583841 -0.011336369 0.098350585
-0.033162117 -0.01513719 0.098670721
-0.034356494 0.010581238 0.096081436
-0.035874624 0.0072399266 0.09551239
-0.037195392 0.0027711526 0.09394753
-0.036587939 -0.0029804902 0.094038248
-0.036437888 -0.0067048525 0.094276488
-0.034990259 -0.010952769 0.09455359
-0.033911653 -0.014403878 0.094371915
-0.035714202 0.0062330095 0.092047632
-0.036483817 0.0028827963 0.090669274
-0.037140831 -0.0018451496 0.090137482
-0.036487035 -0.0065691681 0.0893929
-0.035025716 -0.010689966 0.090896249
-0.037173577 -0.0031106221 0.087159336
-0.030703375 0.016133003 0.10164183
-0.031342711 0.015729081 0.097868085
-0.032403436 0.014394631 0.093247056
-0.03381576 0.011317952 0.09294939
-0.032983251 -0.015709938 0.091517627
-0.032030173 0.013887875 0.088923931
-0.033309512 0.010691132 0.088666677
-0.035044722 0.0072231982 0.088918746
-0.035698824 0.0036545382 0.08799243
-0.034428325 -0.010608488 0.087380171
-0.032391734 -0.014515521 0.08695507
-0.034025535 0.0099203177 0.084652901
-0.035164271 0.0072148801 0.083625615
-0.036471862 0.0030806635 0.084710836
-0.036719952 -0.00082658383 0.084573984
-0.03561718 -0.0055092485 0.083658278
-0.034111567 -0.0095186876 0.082714736
-0.036064677 0.0059540696 0.080427527
-0.036400385 0.0030673803 0.079223514
-0.036614761 -0.00099441351 0.078980148
-0.036781516 -0.0039013724 0.079298854
-0.037465915 -0.0034441899 0.075445235
-0.030264769 0.015641432 0.086968064
-0.032499127 0.012170255 0.085978448
-0.031497259 -0.015328936 0.083549857
-0.031232204 0.014125107 0.083206713
-0.033006959 0.011410698 0.08175689
-0.033360906 -0.010772125 0.079910338
-0.031921148 -0.014390323 0.080217183
-0.03328371 0.01120529 0.077992141
-0.034764752 0.0076235626 0.077003837
-0.036047153 0.0040433435 0.076341987
-0.036084957 0.0006256153 0.076275706
-0.035167441 -0.0056830361 0.076833844
-0.034134354 -0.0092358002 0.076361835
-0.03239378 -0.013071151 0.075425565
-0.035151448 0.0061984281 0.073548555
-0.035266705 0.0032058717 0.072760284
-0.035798091 -0.00082100224 0.072508097
-0.035941143 -0.0047286935 0.072289109
-0.034525447 -0.0085012615 0.072017908
-0.030281067 0.015345164 0.075989246
-0.033136725 0.011920382 0.075457931
-0.031551108 -0.013971793 0.074274898
-0.033253107 0.011996106 0.071350634
-0.034728017 0.0076585701 0.07117027
-0.035102352 0.003919234 0.06989634
-0.035106387 0.00015962294 0.069283247
-0.034875818 -0.0053250059 0.068903327
-0.033740453 -0.008775102 0.069075704
-0.032177262 -0.013114262 0.069917679
-0.033962745 0.011128847 0.066890717
-0.03503149 0.008006488 0.066830635
-0.035570331 0.0037106664 0.065766931
-0.035587449 -0.00041520639 0.065663218
-0.034629874 -0.0043386267 0.065215468
-0.033425126 -0.0088470746 0.065132558
-0.032481756 -0.012360903 0.065064847
-0.031730022 -0.015603263 0.065613508
-0.035461307 0.0078060515 0.06195724
-0.036357369 0.0038515208 0.06143111
-0.036648221 -0.00028818785 0.06159395
-0.034957666 -0.0044087698 0.060866296
-0.034145899 -0.0076474384 0.06135416
-0.036128998 0.0032709758 0.058123887
-0.03638874 -0.00043701532 0.057450294
-0.036103863 -0.0029368789 0.05792284
-0.030195747 0.015473153 0.063429356
-0.031382561 0.013157113 0.063571036
-0.031113369 -0.013683146 0.061680377
-0.032533918 0.011785747 0.059679985
-0.033839364 0.0095138308 0.058135927
-0.033581872 -0.0057035871 0.057451606
-0.033077307 -0.0089586042 0.058238268
-0.031412192 -0.012465509 0.057803512
-0.033447351 0.011031779 0.054709733
-0.03419745 0.0080765868 0.054581821
-0.034810681 0.0042932583 0.054224849
-0.035513572 0.000295298 0.053842783
-0.034173846 -0.0043822606 0.05369091
-0.033164367 -0.0079110637 0.053552985
-0.031916756 -0.011166349 0.053623438
-0.035116911 0.0038716407 0.050457299
-0.035497222 6.1514766e-05 0.050207019
-0.035359282 -0.0026776211 0.04895997
-0.030789051 0.014099089 0.057380319
-0.030721817 -0.013288899 0.054467857
-0.031019518 0.013898322 0.053465009
-0.033345837 0.009759523 0.051474392
-0.032418251 -0.0092340028 0.05072242
-0.031676378 -0.01250221 0.051285803
-0.032029971 0.012429037 0.048876882
-0.033886418 0.0088595524 0.04872036
-0.03460433 0.0043114368 0.047719836
-0.034912962 0.00017406217 0.046525002
-0.034117188 -0.0047324644 0.047679424
-0.033468861 -0.0080135558 0.047542751
-0.031940155 -0.012589453 0.046801746
-0.030979872 -0.016326951 0.047595263
-0.033613238 0.0086146155 0.04443121
-0.03419362 0.0046923677 0.044689357
-0.03487689 0.00027166586 0.04336834
-0.034560136 -0.0038995238 0.042940021
-0.033654518 -0.0080894567 0.042967916
-0.032905392 -0.01159055 0.043171465
-0.034517732 -0.0010176242 0.03984344
-0.034878936 -0.0023913942 0.03911972
-0.03392734 -0.0065878858 0.039101601
-0.029517991 0.0154554 0.049974084
-0.029848747 0.015056249 0.045699179
-0.030852761 0.01420155 0.041065037
-0.032180939 0.010703163 0.041184425
-0.03243465 0.0052762814 0.040032387
-0.033103876 -0.0094222911 0.040295839
-0.031750664 -0.012791966 0.040111303
-0.031704579 0.013136355 0.036364794
-0.032050714 0.010124749 0.036177456
-0.032813735 0.0054011862 0.036212325
-0.033853821 0.0006461757 0.036863804
-0.034073405 -0.00412982 0.03691709
-0.033114247 -0.0080852415 0.035885453
-0.031364527 -0.01170585 0.034595966
-0.030192222 -0.0149472 0.03514111
-0.033336435 0.0059716282 0.03169173
-0.034216661 0.0013488346 0.031190217
-0.034159645 -0.0033783193 0.031610548
-0.032941613 -0.0074384911 0.031250477
-0.034804091 5.670276e-05 0.027520299
-0.035092492 -0.0020263072 0.026699483
-0.030325107 0.015438071 0.035678148
-0.032451767 0.010404416 0.033876419
-0.031049404 -0.013475022 0.032876849
-0.030551281 0.013812326 0.031348646
-0.031678166 0.010740574 0.030382752
-0.033606753 0.0063213482 0.029647231
-0.033784695 -0.0041938899 0.028489113
-0.032875657 -0.0084486045 0.029570699
-0.031442132 -0.011973455 0.029083014
-0.030159013 -0.015508622 0.028750062
-0.031406164 0.0092695225 0.026426375
-0.03327702 0.0061461139 0.026547849
-0.034833107 0.0022195978 0.025837541
-0.03456964 -0.0019703289 0.024679244
-0.032914076 -0.006645544 0.026020527
-0.03181662 -0.010473487 0.025611758
-0.030280352 -0.013298025 0.024682939
-0.033235278 0.0051746066 0.021789491
-0.034354091 0.0023471336 0.021799028
-0.034152593 -0.0018469312 0.02041471
-0.02940217 0.015169399 0.028384447
-0.029348118 0.015050163 0.02412945
-0.030720234 0.010979054 0.023370326
-0.031508598 0.0075038257 0.022928476
-0.031863622 -0.0068571828 0.022203445
-0.030552609 -0.010675943 0.02161485
-0.02948555 -0.014658154 0.021701038
-0.030499272 0.014133699 0.019746125
-0.031232562 0.010961818 0.01880759
-0.032464948 0.0066911676 0.018893838
-0.033577017 0.0028107662 0.018334508
-0.033132181 -0.0022510795 0.017922997
-0.03206788 -0.0060395719 0.01815325
-0.030713899 -0.010295114 0.017721117
-0.029605713 -0.014554426 0.01718539
-0.031897649 0.010124831 0.015529871
-0.032470211 0.0068363086 0.014603853
-0.033734117 0.0026046894 0.013656259
-0.033580646 -0.0014747204 0.013662398
-0.032226104 -0.0058968402 0.012947142
-0.031623706 -0.010000677 0.013562739
-0.031014102 -0.013028569 0.013660014
-0.034772873 0.0022780858 0.0089802742
-0.034838676 -0.00077676174 0.0082519054
-0.035434179 0.0028200806 0.0068041086
-0.035682116 3.8859675e-05 0.0048282146
-0.029883537 0.014410865 0.012648702
-0.03092638 0.011671668 0.012401581
-0.031977244 0.0076406072 0.011953413
-0.031182187 -0.01153376 0.010636687
-0.030047741 -0.01481849 0.011223376
-0.030613763 0.010627844 0.0084378123
-0.031713828 0.0068624411 0.007943511
-0.033859748 0.0042267875 0.0073451996
-0.032946162 -0.0029217626 0.0083719492
-0.032444868 -0.0057553858 0.0077741146
-0.031798381 -0.0098410631 0.0072622299
-0.030759268 -0.014021308 0.0070996881
-0.034365281 0.0029379667 0.0031404495
-0.034500465 -0.0018044214 0.0028026104
-0.032842908 -0.0051873322 0.0019958615
-0.034877095 0.002366238 -0.0014221668
-0.030170765 0.011779618 0.0063713789
-0.030701995 0.0072011068 0.0040912032
-0.029921498 -0.011365937 0.0028050542
-0.029414484 -0.015697436 0.0043424368
-0.029722657 0.015050449 0.0015034676
-0.03059021 0.01157915 0.0018966198
-0.031506862 0.0074678618 0.0021412969
-0.031761799 -0.0069940616 0.00049376488
-0.030379007 -0.009862029 4.8875809e-05
-0.02915786 -0.014171069 -0.00025701523
