# .PCD v0.7 - Point Cloud Data file format
VERSION 0.7
FIELDS x y z
SIZE 4 4 4
TYPE F F F
COUNT 1 1 1
WIDTH 465
HEIGHT 1
VIEWPOINT 0 0 0 1 0 0 0
POINTS 465
DATA ascii
-0.03302059 0.01527936 0.18485561
-0.034401044 0.01187469 0.18588015
-0.035752308 0.0077959402 0.1849758
-0.032742091 0.019899689 0.18201298
-0.034626059 0.016950885 0.18235028
-0.036443945 0.012842888 0.18226445
-0.03729644 0.0085245669 0.18166783
-0.033790912 0.019512471 0.17904538
-0.035302408 0.017336743 0.17938188
-0.037191659 0.013272728 0.17876679
-0.038618021 0.010368947 0.17940071
-0.02472968 0.01973591 0.18720019
-0.026540879 0.017650213 0.18775013
-0.029008728 0.014116462 0.1878356
-0.030783428 0.01003368 0.18781424
-0.03175655 0.0058337227 0.18770316
-0.032313183 0.0018757582 0.18747884
-0.032887895 -0.0017061252 0.18627644
-0.024707355 0.026131509 0.18388531
-0.027574442 0.02282903 0.18528122
-0.02958452 0.018947253 0.18577689
-0.030981094 0.01584837 0.1861698
-0.033998713 0.0063583772 0.18619868
-0.035695475 0.0033901446 0.18491453
-0.036558177 -0.0011167573 0.18404907
-0.030124011 0.023771293 0.1816498
-0.031917356 0.020963982 0.18179172
-0.037612546 0.0071603805 0.17943704
-0.037948653 0.0044762921 0.18057668
-0.03875545 -5.0380826e-05 0.17965809
-0.031337887 0.02376366 0.17720056
-0.033751864 0.021116933 0.17753425
-0.035306435 0.017436232 0.17673761
-0.0366069 0.013129681 0.17592961
-0.037964195 0.0086254496 0.17636412
-0.038831815 0.0049868645 0.17599598
-0.039457675 0.00037914235 0.1749182
-0.039285667 -0.0036727581 0.17466503
-0.031452551 0.022982467 0.17317596
-0.032890365 0.020514285 0.17264959
-0.034329604 0.017471014 0.17265481
-0.035468575 0.012804049 0.1717312
-0.037038408 0.0085616829 0.17161107
-0.038526714 0.0049954355 0.17129764
-0.039538641 0.0015649013 0.17132419
-0.024439983 0.0048827785 0.1876407
-0.021675007 0.020948805 0.18655953
-0.023125011 0.016283635 0.18770263
-0.024809077 0.0127621 0.18770701
-0.025998471 0.0088144774 0.18754318
-0.027393728 0.004007394 0.18754047
-0.028368887 0.00021238439 0.18698582
-0.022574542 0.02667255 0.18439907
-0.023623275 0.022847433 0.18566746
-0.02419493 0.026876774 0.17839849
-0.026496103 0.024981663 0.1784696
-0.025325421 0.026672093 0.17407069
-0.027423427 0.024971217 0.17425209
-0.029072486 0.023908705 0.17022783
-0.031676099 0.020782929 0.16944653
-0.033478335 0.016620973 0.16933763
-0.035148203 0.012701312 0.16798934
-0.036173858 0.0085916035 0.16812298
-0.038043134 0.0045447014 0.16764811
-0.038587831 0.00061381422 0.16790116
-0.038664639 -0.0034712637 0.16808647
-0.030550724 0.022913475 0.16618636
-0.031628754 0.020580955 0.16526628
-0.033353936 0.017103532 0.16442487
-0.035206567 0.013407758 0.16409832
-0.036365561 0.0093021616 0.16406476
-0.037385594 0.0047351671 0.16361481
-0.038259849 0.0013272734 0.16415864
-0.038706724 -0.0024962835 0.16441077
-0.034312237 0.016242784 0.16027141
-0.036054168 0.013794573 0.16024685
-0.037176847 0.011143066 0.15879267
-0.015707843 0.01897523 0.18720683
-0.017824139 0.014880402 0.18731457
-0.019835232 0.01075506 0.18734318
-0.021326432 0.0069234939 0.18750438
-0.02226638 0.0024820156 0.18698019
-0.024233803 -0.001528684 0.18637508
-0.018788904 0.01950587 0.18672878
-0.02359559 0.027960844 0.17247429
-0.023589449 0.026965987 0.16737247
-0.026894629 0.025142843 0.16766292
-0.024487067 0.026239846 0.16388953
-0.02751755 0.024356693 0.16341007
-0.031512368 0.02068077 0.16157442
-0.035930838 0.0077197817 0.16129932
-0.037002202 0.0051235333 0.16089144
-0.03845603 0.00055352785 0.16100603
-0.038680781 -0.0031438889 0.16144407
-0.027388465 0.023833394 0.15905491
-0.030614138 0.021340434 0.15776843
-0.033421379 0.017546823 0.15800929
-0.03555724 0.014316057 0.15759695
-0.036420487 0.008054534 0.15719473
-0.037678801 0.005051936 0.15708947
-0.038654998 0.0012324052 0.15650222
-0.038506076 -0.0026882039 0.15637571
-0.031287447 0.020636495 0.15332615
-0.033517756 0.017604249 0.15281934
-0.036032025 0.014371768 0.15356076
-0.037070751 0.0098797912 0.15278512
-0.037307471 0.005232824 0.15159777
-0.038319327 0.001496207 0.15193757
-0.03460842 0.017727744 0.14874801
-0.0364074 0.014705905 0.14842385
-0.037677288 0.011387541 0.14848521
-0.014740132 0.0043842834 0.18828315
-0.015370107 0.0011012717 0.18766919
-0.013538853 0.013158455 0.18754467
-0.015324349 0.0089217164 0.18738633
-0.017642153 0.0058690235 0.18812758
-0.018791489 0.001536292 0.18752295
-0.022203399 0.026908524 0.16065088
-0.023205118 0.026070308 0.15648335
-0.025989834 0.024801584 0.15653157
-0.026349522 0.024183668 0.1522744
-0.029577756 0.021760475 0.15055418
-0.037199449 0.0036639515 0.14890233
-0.038028967 0.00080876984 0.14899582
-0.037678204 -0.0032922057 0.1496433
-0.031158522 0.020639081 0.14718893
-0.033390909 0.018738613 0.1463387
-0.03677069 0.0092680994 0.14588681
-0.037329026 0.0059386948 0.14607671
-0.038258195 0.0013665166 0.14518645
-0.038205408 -0.001996777 0.14522454
-0.033601489 0.017724507 0.14292082
-0.035790712 0.014663435 0.14238068
-0.03673948 0.01097873 0.14204246
-0.037018407 0.0064154444 0.14167017
-0.038848538 0.0013644518 0.14144024
-0.035512678 0.014686914 0.13844791
-0.036739167 0.011891726 0.13777244
-0.010346184 0.0073083956 0.18736738
-0.012191184 0.0033561485 0.1876578
-0.013256615 -0.00083369249 0.18704486
-0.024844162 0.025122618 0.14963794
-0.023336219 0.02664534 0.14469871
-0.025302824 0.024537984 0.14542842
-0.028425373 0.021882389 0.14496654
-0.03765073 -0.0036274567 0.14331859
-0.026072362 0.024345744 0.1403217
-0.028774815 0.021360239 0.13997096
-0.032326285 0.017972983 0.13952583
-0.036031671 0.0091838585 0.13878113
-0.036370337 0.0052867206 0.13829565
-0.037708871 0.0016070418 0.13814348
-0.037651658 -0.0030235928 0.1382311
-0.029589549 0.021990608 0.13490337
-0.031944193 0.018340854 0.13514158
-0.034769595 0.01450074 0.13500282
-0.035859197 0.010197945 0.13462871
-0.035922233 0.0064208712 0.13397139
-0.037228823 0.0019616205 0.13339603
-0.037877213 -0.0021066619 0.13434085
-0.032910552 0.018185711 0.13064259
-0.034598045 0.014597966 0.13019431
-0.036005728 0.011285102 0.13037056
-0.036622051 0.0068250974 0.13040769
-0.037931647 0.0030622929 0.13055152
-0.035691686 0.014436455 0.12719959
-0.036665913 0.011976449 0.12707615
-0.0058081122 0.0062565384 0.18729284
-0.0079367906 0.0016395871 0.18663007
-0.024211138 0.025130933 0.13825732
-0.022236254 0.02667194 0.13447404
-0.025330462 0.025051326 0.13372809
-0.028391887 0.023416683 0.13327947
-0.037247669 -0.0032492774 0.13184336
-0.0258276 0.024982182 0.1287097
-0.029007785 0.02242054 0.12866461
-0.031490862 0.019831397 0.12871262
-0.035394978 0.0092605799 0.12796238
-0.036305849 0.0067761154 0.12759134
-0.037354801 0.002251178 0.12771586
-0.037020791 -0.002471515 0.12670028
-0.029081767 0.022450453 0.12356657
-0.032203447 0.018859629 0.12416697
-0.034473229 0.014968992 0.12399837
-0.035953168 0.010864878 0.12367976
-0.036001075 0.0067919199 0.12279621
-0.036892172 0.0028511276 0.12207574
-0.037030164 -0.00047904253 0.12226188
-0.032639306 0.018523354 0.11865771
-0.034287289 0.014874252 0.1186353
-0.035428975 0.011488121 0.11894763
-0.036558207 0.0056938613 0.1190173
-0.0022901264 5.3741504e-05 0.18614683
-0.0035861498 0.0034750937 0.18621144
-0.0044964626 0.00025102904 0.18580082
-0.024419429 0.025938682 0.12701404
-0.025446948 0.025735207 0.12303996
-0.028500486 0.023250621 0.12094164
-0.036956251 -0.002750787 0.12068897
-0.025808932 0.025126833 0.11950809
-0.028902246 0.022652764 0.11744368
-0.030964304 0.020747107 0.1181398
-0.035141636 0.01000824 0.11626738
-0.035694011 0.0070281774 0.11666089
-0.036892988 0.0030090986 0.11639053
-0.037396219 -0.00093756616 0.11559725
-0.029566649 0.021809062 0.11357009
-0.032015778 0.019182671 0.11359811
-0.033895724 0.014891199 0.11352909
-0.034924302 0.011209785 0.11259043
-0.035759695 0.0070119263 0.11213601
-0.03697443 0.0031746738 0.11170268
-0.037617885 -0.0002002921 0.11194813
0.0040274593 -0.0018436238 0.18703094
-0.024369443 0.025636293 0.11608368
-0.025022592 0.025697 0.11161196
-0.02793145 0.023144644 0.11210984
-0.030708479 0.018805861 0.1095143
-0.032458905 0.015163503 0.10958135
-0.034108069 0.01005023 0.10902697
-0.035081096 0.0068301484 0.10862523
-0.036219422 0.0036734669 0.10837942
-0.036847349 -0.001801935 0.10997528
-0.025826126 0.024943687 0.10687661
-0.027579602 0.022748884 0.10650468
-0.030364433 0.019516172 0.10626131
-0.032493271 0.015312569 0.10577983
-0.034003347 0.011025835 0.10566086
-0.035050966 0.0067115785 0.10522717
-0.036065225 0.0029678224 0.10508132
-0.035981119 -0.0010415697 0.10478753
-0.028650019 0.021856431 0.10313928
-0.030577477 0.019632101 0.10070401
-0.033316035 0.015827425 0.1007902
-0.034699511 0.011289898 0.10088301
-0.035187382 0.0072733797 0.099843264
-0.036102325 0.0033596708 0.10037887
-0.03652516 0.00032829307 0.10155278
-0.032334432 0.01919624 0.09732765
-0.033583038 0.016524145 0.09656918
-0.035472661 0.013055985 0.095893264
0.0066106352 -0.0029318386 0.18782461
-0.023951914 0.027018765 0.10905671
-0.023845926 0.025955629 0.10467851
-0.035866063 -0.0029313704 0.10274422
-0.024940327 0.025252257 0.099912584
-0.027416572 0.023113506 0.1003989
-0.030217433 0.021143749 0.10023886
-0.034661237 0.0099138916 0.097726345
-0.036289543 0.002761228 0.098350585
-0.036430553 -0.0012943428 0.098670721
-0.027691996 0.022923455 0.096081436
-0.030373229 0.020417448 0.09551239
-0.033303585 0.016794277 0.09394753
-0.034943432 0.01124799 0.094038248
-0.036230057 0.0077497056 0.094276488
-0.036518227 0.0032711588 0.09455359
-0.036842406 -0.00033001509 0.094371915
-0.030610349 0.019425787 0.092047632
-0.03260345 0.016625114 0.090669274
-0.035019759 0.01250849 0.090137482
-0.036223534 0.0078938697 0.0893929
-0.036450416 0.0035275249 0.090896249
-0.035534289 0.011351878 0.087159336
-0.022192385 0.026654627 0.10164183
-0.022937628 0.026526116 0.097868085
-0.024428282 0.025699168 0.093247056
-0.026910493 0.023397159 0.09294939
-0.036484484 -0.0018919418 0.091517627
-0.024277359 0.025088144 0.088923931
-0.026682654 0.022624321 0.088666677
-0.029612903 0.020084405 0.088918746
-0.031582877 0.017037706 0.08799243
-0.035867319 0.0033741901 0.087380171
-0.035480913 -0.0010148073 0.08695507
-0.027639151 0.022186192 0.084652901
-0.029726533 0.020122468 0.083625615
-0.032516684 0.016803345 0.084710836
-0.034241129 0.01328846 0.084573984
-0.035014279 0.008540228 0.083658278
-0.035157621 0.0042598154 0.082714736
-0.031040892 0.019302202 0.080427527
-0.032455735 0.016763721 0.079223514
-0.034208171 0.013093149 0.078980148
-0.03547468 0.010471284 0.079298854
-0.035932023 0.011155574 0.075445235
-0.021975279 0.026032628 0.086968064
-0.025367921 0.023680732 0.085978448
-0.034965802 -0.0021086065 0.083549857
-0.023449346 0.025001949 0.083206713
-0.026127767 0.023173332 0.08175689
-0.034943774 0.0028145248 0.079910338
-0.034998234 -0.0010792259 0.080217183
-0.026462059 0.023089467 0.077992141
-0.029201031 0.020347152 0.077003837
-0.031755906 0.017530216 0.076341987
-0.033098739 0.014387114 0.076275706
-0.034665283 0.0082075624 0.076833844
-0.035070419 0.0045298906 0.076361835
-0.034930065 0.00032039825 0.075425565
-0.030103665 0.019178484 0.073548555
-0.031355351 0.01645783 0.072760284
-0.033387307 0.012940835 0.072508097
-0.035014879 0.0093853418 0.072289109
-0.035150643 0.00535818 0.072017908
-0.022103714 0.025765149 0.075989246
-0.026052605 0.023693878 0.075457931
-0.034496199 -0.00083416235 0.074274898
-0.026131151 0.023808375 0.071350634
-0.029153693 0.020365437 0.07117027
-0.030930517 0.017053995 0.06989634
-0.032372989 0.01358211 0.069283247
-0.034258846 0.0084267389 0.068903327
-0.0345302 0.0048047807 0.069075704
-0.034746528 0.0001977114 0.069917679
-0.027118657 0.023278698 0.066890717
-0.029300924 0.020803006 0.066830635
-0.031442691 0.017040391 0.065766931
-0.033037405 0.013235131 0.065663218
-0.033654153 0.0092439167 0.065215468
-0.03426642 0.0046176165 0.065132558
-0.034739543 0.0010102503 0.065064847
-0.03528583 -0.0022729766 0.065613508
-0.029774729 0.020782311 0.06195724
-0.032115914 0.01747171 0.06143111
-0.033968825 0.013758422 0.06159395
-0.033983838 0.0093045533 0.060866296
-0.034473248 0.006001764 0.06135416
-0.03212709 0.016847963 0.058123887
-0.033786051 0.013521625 0.057450294
-0.034479514 0.011103034 0.05792284
-0.02197591 0.025850747 0.063429356
-0.023958694 0.02416518 0.063571036
-0.03398132 -0.00073500257 0.061680377
-0.025547206 0.023338806 0.059679985
-0.027622707 0.021739401 0.058135927
-0.033208273 0.0075818039 0.057451606
-0.033987757 0.0043814713 0.058238268
-0.033791427 0.00050430186 0.057803512
-0.026679642 0.022991786 0.054709733
-0.028503545 0.020548595 0.054581821
-0.030517915 0.01728793 0.054224849
-0.032697257 0.01386328 0.053842783
-0.033249535 0.0090290885 0.05369091
-0.033667315 0.0053825891 0.053552985
-0.033760417 0.0018976573 0.053623438
-0.030962182 0.017015595 0.050457299
-0.032771617 0.013641037 0.050207019
-0.033692397 0.011057618 0.04895997
-0.023049884 0.024808325 0.057380319
-0.033468701 -0.00052060653 0.054467857
-0.023339637 0.024711035 0.053465009
-0.027072728 0.021777527 0.051474392
-0.033484258 0.0038748262 0.05072242
-0.034049548 0.00057149399 0.051285803
-0.024835445 0.023740277 0.048876882
-0.027916562 0.021152934 0.04872036
-0.030320317 0.017225757 0.047719836
-0.032188758 0.01352143 0.046525002
-0.033331204 0.0086838603 0.047679424
-0.03398785 0.005404423 0.047542751
-0.034326632 0.00059183501 0.046801746
-0.034869723 -0.0032286476 0.047595263
-0.027757911 0.0208221 0.04443121
-0.029795093 0.017420519 0.044689357
-0.032118082 0.013597799 0.04336834
-0.033421688 0.0096229073 0.042940021
-0.034188423 0.0054053483 0.042967916
-0.034836128 0.0018840814 0.043171465
-0.032279652 0.012269207 0.03984344
-0.03313908 0.011138236 0.03911972
-0.03386585 0.0068970234 0.039101601
-0.02135654 0.025574978 0.049974084
-0.021814868 0.025332784 0.045699179
-0.023069534 0.024927367 0.041065037
-0.025635384 0.02220355 0.041184425
-0.027946562 0.017286856 0.040032387
-0.03418975 0.0039632479 0.040295839
-0.034229062 0.00033222232 0.040111303
-0.024264144 0.024269231 0.036364794
-0.025736421 0.021619329 0.036177456
-0.028248992 0.017547322 0.036212325
-0.031029571 0.01355229 0.036863804
-0.033060133 0.0092238775 0.03691709
-0.033687662 0.005202489 0.035885453
-0.033456679 0.0011878936 0.034595966
-0.033614025 -0.0022553438 0.03514111
-0.028513605 0.018274371 0.03169173
-0.031095896 0.014340315 0.031190217
-0.032852225 0.0099511761 0.031610548
-0.033280671 0.0057339459 0.031250477
-0.032133088 0.013371341 0.027520299
-0.033196669 0.011557257 0.026699483
-0.022108849 0.025867837 0.035678148
-0.025999924 0.022031184 0.033876419
-0.033842579 -0.00056719966 0.032876849
-0.02293995 0.024452399 0.031348646
-0.025156567 0.022045709 0.030382752
-0.028629513 0.018700916 0.029647231
-0.032817919 0.0090541998 0.028489113
-0.033606287 0.0047754813 0.029570699
-0.033630785 0.00097035803 0.029083014
-0.033798188 -0.0027867388 0.028750062
-0.025468217 0.020582546 0.026426375
-0.028391939 0.018412838 0.026547849
-0.031332191 0.015380699 0.025837541
-0.032692194 0.011408887 0.024679244
-0.03295178 0.0064559947 0.026020527
-0.033402756 0.0024994574 0.025611758
-0.033064332 -0.0006979797 0.024682939
-0.028725155 0.017499309 0.021789491
-0.030840831 0.015315215 0.021799028
-0.032259673 0.011363295 0.02041471
-0.021358982 0.025266424 0.028384447
-0.021354675 0.02513558 0.02412945
-0.024180291 0.021899452 0.023370326
-0.026238557 0.018990453 0.022928476
-0.032062277 0.0058584744 0.022203445
-0.032312438 0.0018286975 0.02161485
-0.03285053 -0.0022587329 0.021701038
-0.022768918 0.024729405 0.019746125
-0.024660217 0.022079587 0.01880759
-0.027433099 0.018605635 0.018893838
-0.029945483 0.015446182 0.018334508
-0.031471591 0.010599416 0.017922997
-0.031938102 0.0066920151 0.01815325
-0.032315712 0.0022422597 0.017721117
-0.032921851 -0.0021169158 0.01718539
-0.025594978 0.021560829 0.015529871
-0.02738242 0.018741742 0.014603853
-0.030169487 0.015315913 0.013656259
-0.031588823 0.011488298 0.013662398
-0.032029662 0.0068844319 0.012947142
-0.033043589 0.0028624525 0.013562739
-0.033639111 -0.0001682397 0.013660014
-0.031254161 0.015411684 0.0089802742
-0.032483991 0.012614556 0.0082519054
-0.031657714 0.016165493 0.0068041086
-0.032951105 0.013690862 0.0048282146
-0.022093987 0.024749842 0.012648702
-0.024105692 0.022618234 0.012401581
-0.026619185 0.019296167 0.011953413
-0.033222362 0.0012771059 0.010636687
-0.033431284 -0.0021917215 0.011223376
-0.024216328 0.021534231 0.0084378123
-0.026673613 0.01847643 0.007943511
-0.029664805 0.016862612 0.0073451996
-0.031556394 0.0099085988 0.0083719492
-0.032177638 0.0070988354 0.0077741146
-0.033143885 0.003076762 0.0072622299
-0.033783581 -0.0011829333 0.0070996881
-0.030625068 0.015865358 0.0031404495
-0.032564797 0.011535694 0.0028026104
-0.032327995 0.0077759717 0.0019958615
-0.031316712 0.015533011 -0.0014221668
-0.023366285 0.022428803 0.0063713789
-0.025609197 0.018402105 0.0040912032
-0.031993415 0.00094970968 0.0028050542
-0.033182591 -0.0032461006 0.0043424368
-0.021700595 0.025279175 0.0015034676
-0.023830518 0.022404112 0.0018966198
-0.026250716 0.018956564 0.0021412969
-0.032020587 0.0056930492 0.00049376488
-0.031840578 0.0025142208 4.8875809e-05
-0.032361384 -0.0019341251 -0.00025701523
