# .PCD v0.7 - Point Cloud Data file format
VERSION 0.7
FIELDS x y z
SIZE 4 4 4
TYPE F F F
COUNT 1 1 1
WIDTH 465
HEIGHT 1
VIEWPOINT 0 0 0 1 0 0 0
POINTS 465
DATA ascii
-0.014635771 0.039845418 0.18485561
-0.018583298 0.038175523 0.18588015
-0.023062829 0.035925467 0.1849758
-0.010594445 0.043427244 0.18201298
-0.014581282 0.042548805 0.18235028
-0.019469885 0.040659558 0.18226445
-0.023735588 0.037800394 0.18166783
-0.011779121 0.043973044 0.17904538
-0.014820926 0.043425083 0.17938188
-0.019732118 0.041630995 0.17876679
-0.0233043 0.04041218 0.17940071
-0.0041196533 0.036682241 0.18720019
-0.0073344284 0.036455784 0.18775013
-0.012285497 0.035576459 0.1878356
-0.017117672 0.033672392 0.18781424
-0.021385245 0.031010389 0.18770316
-0.025109597 0.028204432 0.18747884
-0.028538615 0.025723644 0.18627644
0.0011748616 0.041939918 0.18388531
-0.0039147707 0.041580744 0.18528122
-0.0087753013 0.040036667 0.18577689
-0.012483864 0.038632333 0.1861698
-0.022802118 0.033292897 0.18619868
-0.026650541 0.032243986 0.18491453
-0.031080235 0.029237671 0.18404907
-0.0052407328 0.044461355 0.1816498
-0.0090360809 0.043624874 0.18179172
-0.02512176 0.036935773 0.17943704
-0.027613292 0.034998786 0.18057668
-0.032013178 0.031930044 0.17965809
-0.0062484276 0.045456458 0.17720056
-0.010423294 0.045264449 0.17753425
-0.01474217 0.043510478 0.17673761
-0.019367721 0.041030582 0.17592961
-0.024203233 0.038434491 0.17636412
-0.02792066 0.036148556 0.17599598
-0.032238148 0.032863691 0.1749182
-0.035438895 0.029379144 0.17466503
-0.0069874721 0.044906594 0.17317596
-0.010209752 0.044056587 0.17264959
-0.013907632 0.042733323 0.17265481
-0.018697282 0.039822876 0.1717312
-0.023492105 0.037618153 0.17161107
-0.027661899 0.035903938 0.17129764
-0.031326741 0.033908688 0.17132419
-0.016133873 0.024190038 0.1876407
-0.00059909094 0.035162851 0.18655953
-0.0056438521 0.032510471 0.18770263
-0.0099382531 0.030994637 0.18770701
-0.014176074 0.028719213 0.18754318
-0.019292744 0.0259046 0.18754047
-0.02322793 0.02357834 0.18698582
0.0033806777 0.040626775 0.18439907
-0.00064004306 0.038336378 0.18566746
0.0022124015 0.042132005 0.17839849
-0.0012493581 0.042466983 0.1784696
0.0011109421 0.042895753 0.17407069
-0.0020229742 0.043223374 0.17425209
-0.0042599048 0.043707244 0.17022783
-0.0089864098 0.043276481 0.16944653
-0.013906622 0.04132982 0.16933763
-0.018517744 0.039473828 0.16798934
-0.022754204 0.036929619 0.16812298
-0.027634799 0.035133164 0.16764811
-0.031326968 0.0323397 0.16790116
-0.034760348 0.029033048 0.16808647
-0.006300413 0.044105705 0.16618636
-0.009113973 0.043070808 0.16526628
-0.013405908 0.041625284 0.16442487
-0.017983103 0.040104765 0.16409832
-0.022326168 0.037673943 0.16406476
-0.026935231 0.03474785 0.16361481
-0.030467823 0.032657702 0.16415864
-0.033990748 0.029872082 0.16441077
-0.014906544 0.041705761 0.16027141
-0.018363234 0.041123107 0.16024685
-0.021476777 0.039861884 0.15879267
0.0026954524 0.028612074 0.18720683
-0.0024284627 0.026979867 0.18731457
-0.0074907625 0.025235701 0.18734318
-0.011881821 0.023304997 0.18750438
-0.016321272 0.020416383 0.18698019
-0.021252971 0.018730763 0.18637508
0.00059146341 0.031591576 0.18672878
0.003601145 0.042531889 0.17247429
0.0027854973 0.041706104 0.16737247
-0.0014451537 0.042928718 0.16766292
0.0014459603 0.041847568 0.16388953
-0.0026075784 0.042794064 0.16341007
-0.0089356191 0.043057136 0.16157442
-0.023272937 0.036009919 0.16129932
-0.026298564 0.034751952 0.16089144
-0.031267971 0.032181237 0.16100603
-0.034503594 0.029316433 0.16144407
-0.0029327897 0.042255875 0.15905491
-0.0076504201 0.042860325 0.15776843
-0.013095847 0.042046618 0.15800929
-0.017523088 0.041143365 0.15759695
-0.023400722 0.036690015 0.15719473
-0.026915796 0.035251055 0.15708947
-0.030872066 0.032905418 0.15650222
-0.033983551 0.029548228 0.15637571
-0.0087865908 0.042835064 0.15332615
-0.01312798 0.042173497 0.15281934
-0.017868806 0.041580997 0.15356076
-0.0224314 0.038732216 0.15278512
-0.02646024 0.035093948 0.15159777
-0.030377528 0.032846134 0.15193757
-0.013925855 0.043175131 0.14874801
-0.017902827 0.042166322 0.14842385
-0.02168794 0.040476415 0.14848521
-0.0085431403 0.015776835 0.18828315
-0.01177119 0.013588192 0.18766919
-0.00031381566 0.022024155 0.18754467
-0.0052819047 0.020001983 0.18738633
-0.0097123394 0.019395728 0.18812758
-0.014234813 0.016769562 0.18752295
0.0038815215 0.040515266 0.16065088
0.002363652 0.040650152 0.15648335
-0.00098026171 0.041900776 0.15653157
-0.0017867433 0.041687753 0.1522744
-0.0064489357 0.042351879 0.15055418
-0.027665377 0.03371058 0.14890233
-0.030705096 0.03203949 0.14899582
-0.033798866 0.028366994 0.1496433
-0.0086781029 0.042730842 0.14718893
-0.012087533 0.043004658 0.1463387
-0.022688484 0.037980057 0.14588681
-0.025895705 0.03569404 0.14607671
-0.030434081 0.032688711 0.14518645
-0.033165112 0.02987059 0.14522454
-0.013097851 0.042341784 0.14292082
-0.017429121 0.041622542 0.14238068
-0.021251537 0.039365511 0.14204246
-0.025246162 0.035831094 0.14167017
-0.030922793 0.033174016 0.14144024
-0.017180383 0.041412547 0.13844791
-0.020498095 0.040118434 0.13777244
-0.0025060491 0.014564284 0.18736738
-0.0072885337 0.012825892 0.1876578
-0.011623912 0.010248385 0.18704486
0.00022970792 0.041220486 0.14963794
0.0027298778 0.041232683 0.14469871
-0.00063096732 0.041116565 0.14542842
-0.0053976895 0.041501779 0.14496654
-0.034052767 0.028067764 0.14331859
-0.0014243927 0.041592814 0.1403217
-0.0061167171 0.041359305 0.13997096
-0.011840876 0.041494776 0.13952583
-0.02214832 0.037300903 0.13878113
-0.025642678 0.034365311 0.13829565
-0.029782493 0.032433968 0.13814348
-0.033555374 0.02856669 0.1382311
-0.0062688133 0.042551454 0.13490337
-0.011222189 0.041483045 0.13514158
-0.016720958 0.04064595 0.13500282
-0.021169458 0.037995201 0.13462871
-0.024337385 0.034931272 0.13397139
-0.029093962 0.032330457 0.13339603
-0.032985017 0.029509194 0.13434085
-0.01214738 0.042152263 0.13064259
-0.016499229 0.040584631 0.13019431
-0.02039348 0.039012939 0.13037056
-0.024581239 0.035842061 0.13040769
-0.028765753 0.033818267 0.13055152
-0.017534675 0.041353598 0.12719959
-0.020367775 0.040127896 0.12707615
0.00036993134 0.0099528274 0.18729284
-0.005194929 0.0079001077 0.18663007
0.00075878669 0.04070513 0.13825732
0.0036592502 0.0403472 0.13447404
-0.00023028255 0.041562852 0.13372809
-0.0041043377 0.042739887 0.13327947
-0.033408277 0.028047238 0.13184336
-0.00069743954 0.041915927 0.1287097
-0.005434203 0.042426199 0.12866461
-0.0096185757 0.042338703 0.12871262
-0.021559782 0.036838949 0.12796238
-0.024360791 0.035540797 0.12759134
-0.028959012 0.032673258 0.12771586
-0.032579493 0.028501689 0.12670028
-0.0054705627 0.04251191 0.12356657
-0.011008091 0.042124886 0.12416697
-0.016090179 0.040787745 0.12399837
-0.020696791 0.038622916 0.12367976
-0.024096325 0.035302412 0.12279621
-0.028082432 0.032786544 0.12207574
-0.03094352 0.030153133 0.12226188
-0.011645071 0.042207036 0.11865771
-0.016014947 0.0405562 0.1186353
-0.0197502 0.038704623 0.11894763
-0.025461789 0.03485617 0.1190173
-0.0018449236 0.001933592 0.18614683
-9.1617461e-05 0.005825229 0.18621144
-0.0035023042 0.0039164796 0.18580082
0.0012533134 0.04154332 0.12701404
0.00023779552 0.042223122 0.12303996
-0.0043309228 0.042692482 0.12094164
-0.032756634 0.028218061 0.12068897
-0.00056270976 0.042019863 0.11950809
-0.0051555671 0.042530712 0.11744368
-0.0084287636 0.042659733 0.1181398
-0.020733997 0.037246741 0.11626738
-0.023648113 0.035244003 0.11666089
-0.027952787 0.032917537 0.11639053
-0.031623762 0.030076848 0.11559725
-0.0063996883 0.042382792 0.11357009
-0.01058678 0.042236559 0.11359811
-0.015677936 0.040247153 0.11352909
-0.019563485 0.038058676 0.11259043
-0.023715705 0.03528478 0.11213601
-0.027883381 0.033121314 0.11170268
-0.031198408 0.030867934 0.11194813
0.0018015729 -0.0048433957 0.18703094
0.0010450929 0.041252624 0.11608368
0.00055635162 0.041841526 0.11161196
-0.0039489185 0.042135622 0.11210984
-0.009819163 0.040847242 0.1095143
-0.014267983 0.039286476 0.10958135
-0.019846708 0.036428731 0.10902697
-0.023305848 0.034575008 0.10862523
-0.026849046 0.032909952 0.10837942
-0.031884033 0.028910985 0.10997528
-0.00072797853 0.041882955 0.10687661
-0.0039851461 0.041518882 0.10650468
-0.0089493636 0.041149393 0.10626131
-0.01417336 0.039437801 0.10577983
-0.018955484 0.037147176 0.10566086
-0.023378804 0.034452338 0.10522717
-0.027303968 0.032200616 0.10508132
-0.030542159 0.02882365 0.10478753
-0.0056044301 0.041665692 0.10313928
-0.0090294816 0.041420784 0.10070401
-0.014427373 0.040541284 0.1007902
-0.019311948 0.037939321 0.10088301
-0.023027882 0.035028335 0.099843264
-0.027011316 0.032554477 0.10037887
-0.029860895 0.030402539 0.10155278
-0.010838459 0.042510629 0.09732765
-0.014072872 0.041336309 0.09656918
-0.01849282 0.040034086 0.095893264
0.0030348531 -0.0078721382 0.18782461
0.002530016 0.042048663 0.10905671
0.0017404091 0.041084182 0.10467851
-0.032006253 0.027169731 0.10274422
0.0002573235 0.041406766 0.099912584
-0.0035498552 0.041685183 0.1003989
-0.007485413 0.042370811 0.10023886
-0.020415522 0.036772601 0.097726345
-0.027659453 0.032215238 0.098350585
-0.031121455 0.028985891 0.098670721
-0.0039338497 0.041755609 0.096081436
-0.0082131037 0.041900165 0.09551239
-0.01361949 0.041328628 0.09394753
-0.019547746 0.038105972 0.094038248
-0.023495093 0.036281444 0.094276488
-0.027427435 0.032824565 0.09455359
-0.030665688 0.030121185 0.094371915
-0.0092267962 0.041277703 0.092047632
-0.013181461 0.040611491 0.090669274
-0.018570855 0.0392088 0.090137482
-0.023370786 0.036394998 0.0893929
-0.027160004 0.03298011 0.090896249
-0.019949477 0.038679112 0.087159336
0.0036811559 0.040296726 0.10164183
0.0029603448 0.040805504 0.097868085
0.0010484206 0.041353032 0.093247056
-0.0028983578 0.041501693 0.09294939
-0.03165894 0.028537389 0.091517627
0.00066885725 0.04072446 0.088923931
-0.0033479603 0.040676177 0.088666677
-0.007860614 0.040998179 0.088918746
-0.01199916 0.040109932 0.08799243
-0.026805464 0.032372586 0.087380171
-0.030107435 0.028433081 0.08695507
-0.0044984668 0.041103806 0.084652901
-0.007922953 0.041123323 0.083625615
-0.01296285 0.040686946 0.084710836
-0.017285077 0.03920991 0.084573984
-0.021839984 0.035930634 0.083658278
-0.025489394 0.032517724 0.082714736
-0.0096839294 0.04153093 0.080427527
-0.012945256 0.040603977 0.079223514
-0.017419009 0.039021593 0.078980148
-0.020626752 0.03790348 0.079298854
-0.020439534 0.038845282 0.075445235
0.0033471351 0.039604504 0.086968064
-0.0013918662 0.040463071 0.085978448
-0.030584831 0.027105795 0.083549857
0.0012808247 0.039970275 0.083206713
-0.0024372898 0.040671326 0.08175689
-0.02650528 0.031149002 0.079910338
-0.029762389 0.027981749 0.080217183
-0.0027822517 0.04087792 0.077992141
-0.0073040798 0.040875159 0.077003837
-0.011735599 0.040658969 0.076341987
-0.015436308 0.039173827 0.076275706
-0.021826509 0.035368286 0.076833844
-0.025194656 0.032668583 0.076361835
-0.028551521 0.029080141 0.075425565
-0.0090128221 0.040655695 0.073548555
-0.012289834 0.039443858 0.072760284
-0.016867483 0.038218763 0.072508097
-0.021143291 0.036628306 0.072289109
-0.024577532 0.033418067 0.072017908
0.0030205231 0.039489795 0.075989246
-0.0019458598 0.041038752 0.075457931
-0.02914606 0.027769756 0.074274898
-0.001916199 0.041198008 0.071350634
-0.0072499467 0.040851194 0.07117027
-0.011447551 0.039585199 0.06989634
-0.015501686 0.037911013 0.069283247
-0.021310404 0.035213806 0.068903327
-0.024522223 0.032449696 0.069075704
-0.028501321 0.028827518 0.069917679
-0.0031678108 0.041575693 0.066890717
-0.0070104292 0.041333631 0.066830635
-0.011881296 0.039996494 0.065766931
-0.016336048 0.03817289 0.065663218
-0.02013742 0.035389096 0.065215468
-0.024459019 0.032077689 0.065132558
-0.027825251 0.029492069 0.065064847
-0.030984435 0.02723421 0.065613508
-0.0074183699 0.041707423 0.06195724
-0.012080858 0.040907696 0.06143111
-0.016672738 0.039372969 0.06159395
-0.020359371 0.035711091 0.060866296
-0.023487778 0.033390172 0.06135416
-0.012604645 0.040402353 0.058123887
-0.016717302 0.03902683 0.057450294
-0.019284615 0.03760368 0.05792284
0.0031965701 0.039454974 0.063429356
0.00017033517 0.039700165 0.063571036
-0.028639507 0.027426805 0.061680377
-0.0018218439 0.040328901 0.059679985
-0.0048534842 0.040721659 0.058135927
-0.02114076 0.033650089 0.057451606
-0.024423942 0.031652994 0.058238268
-0.027460478 0.028292526 0.057803512
-0.003042331 0.040976834 0.054709733
-0.0065625049 0.040465951 0.054581821
-0.010914185 0.039437804 0.054224849
-0.01553724 0.038410477 0.053842783
-0.019980852 0.034878079 0.05369091
-0.02333371 0.032214519 0.053552985
-0.026285436 0.029416401 0.053623438
-0.01150535 0.039579641 0.050457299
-0.015781928 0.038288478 0.050207019
-0.018672744 0.036916874 0.04895997
0.0014506336 0.039481003 0.057380319
-0.02803975 0.027180785 0.054467857
0.0011313409 0.039639778 0.053465009
-0.004368322 0.040299397 0.051474392
-0.024426538 0.030819668 0.05072242
-0.027617987 0.028560894 0.051285803
-0.00090347324 0.040072922 0.048876882
-0.0055797128 0.040480264 0.04872036
-0.010802463 0.039223503 0.047719836
-0.015399765 0.037708975 0.046525002
-0.020333027 0.03466066 0.047679424
-0.023580126 0.032496959 0.047542751
-0.027829789 0.028806258 0.046801746
-0.031429555 0.02610255 0.047595263
-0.0057217572 0.040076464 0.04443121
-0.010208506 0.038950887 0.044689357
-0.015278459 0.037713673 0.04336834
-0.019632995 0.03550997 0.042940021
-0.023744827 0.032663189 0.042967916
-0.027184056 0.030292623 0.043171465
-0.01650778 0.036750928 0.03984344
-0.018149775 0.036526918 0.03911972
-0.022248149 0.033627648 0.039101601
0.0034800274 0.038716525 0.049974084
0.0029021287 0.038894825 0.045699179
0.0015326273 0.039595421 0.041065037
-0.0028311247 0.039465107 0.041184425
-0.0087938141 0.037315663 0.040032387
-0.024935592 0.031474609 0.040295839
-0.027963469 0.028511599 0.040111303
4.1909516e-06 0.04003799 0.036364794
-0.0033964338 0.039066497 0.036177456
-0.0088284323 0.037780032 0.036212325
-0.014418026 0.036778152 0.036863804
-0.019663913 0.034882523 0.03691709
-0.023499072 0.032082733 0.035885453
-0.026620392 0.028580312 0.034595966
-0.029590722 0.025869584 0.03514111
-0.0084469421 0.038598105 0.03169173
-0.013822652 0.037482958 0.031190217
-0.018892404 0.035310995 0.031610548
-0.022724893 0.032185409 0.031250477
-0.015477655 0.037539233 0.027520299
-0.017851608 0.0369201 0.026699483
0.0031010006 0.039578743 0.035678148
-0.0032740468 0.03962364 0.033876419
-0.028386621 0.027450781 0.032876849
0.0012476984 0.039096694 0.031348646
-0.002566332 0.03893989 0.030382752
-0.0081906794 0.039045606 0.029647231
-0.019604074 0.034542732 0.028489113
-0.023784205 0.03166334 0.029570699
-0.026943481 0.028544482 0.029083014
-0.030181028 0.025583137 0.028750062
-0.0040304791 0.037989937 0.026426375
-0.008232343 0.038611967 0.026547849
-0.013159313 0.038536165 0.025837541
-0.017557835 0.036381532 0.024679244
-0.021857912 0.032509752 0.026020527
-0.025493922 0.029617807 0.025611758
-0.027852489 0.026700873 0.024682939
-0.0092608556 0.038133234 0.021789491
-0.012807984 0.038076788 0.021799028
-0.017238636 0.035987105 0.02041471
0.0032234695 0.038463995 0.028384447
0.0031190813 0.038352501 0.02412945
-0.0018816013 0.038013846 0.023370326
-0.0059793852 0.037312027 0.022928476
-0.021617038 0.031283021 0.022203445
-0.025147803 0.028164994 0.02161485
-0.028963666 0.02523694 0.021701038
0.0016173143 0.039184112 0.019746125
-0.0021289159 0.038558368 0.01880759
-0.007282292 0.037980016 0.018893838
-0.011961317 0.037446208 0.018334508
-0.017218672 0.034706805 0.017922997
-0.020826962 0.031868212 0.01815325
-0.024809334 0.028508868 0.017721117
-0.028905511 0.025412768 0.01718539
-0.0033280058 0.038901553 0.015529871
-0.0071281991 0.038050488 0.014603853
-0.01225358 0.037523538 0.013656259
-0.016582089 0.035536807 0.013662398
-0.020743759 0.032102484 0.012947142
-0.02489817 0.029620964 0.013562739
-0.027889645 0.027612053 0.013660014
-0.013069379 0.038497351 0.0089802742
-0.016391454 0.0372044 0.0082519054
-0.012780434 0.039452128 0.0068041086
-0.015888896 0.038477656 0.0048282146
0.0021909615 0.038644187 0.012648702
-0.0012270985 0.038545273 0.012401581
-0.0060411878 0.03787823 0.011953413
-0.026353497 0.028460603 0.010636687
-0.029387483 0.02577132 0.011223376
-0.0022126203 0.037742283 0.0084378123
-0.0067623346 0.037246879 0.007943511
-0.010561275 0.038383156 0.0073451996
-0.017858524 0.034206867 0.0083719492
-0.020688962 0.032401435 0.0077741146
-0.024804115 0.029880503 0.0072622299
-0.028845904 0.026894154 0.0070996881
-0.012176144 0.038352638 0.0031404495
-0.017348127 0.03638104 0.0028026104
-0.02025439 0.03308408 0.0019958615
-0.013020895 0.038649045 -0.0014221668
-0.00077338889 0.037779018 0.0063713789
-0.005945554 0.036307469 0.0040912032
-0.025609754 0.027176686 0.0028050542
-0.030052137 0.024696339 0.0043424368
0.0029521724 0.03875633 0.0015034676
-0.0011767307 0.038141623 0.0018966198
-0.0060173739 0.037294097 0.0021412969
-0.021719115 0.031112159 0.00049376488
-0.024193013 0.028341256 4.8875809e-05
-0.028292354 0.0251012 -0.00025701523
