# .PCD v0.7 - Point Cloud Data file format
VERSION 0.7
FIELDS x y z
SIZE 4 4 4
TYPE F F F
COUNT 1 1 1
WIDTH 465
HEIGHT 1
VIEWPOINT 0 0 0 1 0 0 0
POINTS 465
DATA ascii
0.014635772 -0.039845418 0.18485561
0.0185833 -0.038175523 0.18588015
0.023062829 -0.035925467 0.1849758
0.010594445 -0.043427244 0.18201298
0.014581282 -0.042548805 0.18235028
0.019469885 -0.040659558 0.18226445
0.02373559 -0.037800394 0.18166783
0.011779123 -0.043973044 0.17904538
0.014820928 -0.043425083 0.17938188
0.019732118 -0.041630995 0.17876679
0.023304302 -0.04041218 0.17940071
0.0041196542 -0.036682241 0.18720019
0.0073344293 -0.036455784 0.18775013
0.012285498 -0.035576459 0.1878356
0.017117674 -0.033672392 0.18781424
0.021385245 -0.031010389 0.18770316
0.025109598 -0.02820443 0.18747884
0.028538615 -0.025723644 0.18627644
-0.0011748606 -0.041939922 0.18388531
0.0039147716 -0.041580744 0.18528122
0.0087753022 -0.040036667 0.18577689
0.012483865 -0.038632333 0.1861698
0.02280212 -0.033292897 0.18619868
0.026650542 -0.032243986 0.18491453
0.031080237 -0.029237671 0.18404907
0.0052407328 -0.044461355 0.1816498
0.0090360828 -0.043624874 0.18179172
0.02512176 -0.036935773 0.17943704
0.027613293 -0.034998786 0.18057668
0.032013182 -0.031930044 0.17965809
0.0062484276 -0.045456458 0.17720056
0.010423296 -0.045264449 0.17753425
0.014742171 -0.043510478 0.17673761
0.019367723 -0.041030582 0.17592961
0.024203235 -0.038434491 0.17636412
0.027920663 -0.036148556 0.17599598
0.032238148 -0.032863691 0.1749182
0.035438895 -0.029379144 0.17466503
0.0069874721 -0.044906594 0.17317596
0.010209754 -0.044056587 0.17264959
0.013907634 -0.042733323 0.17265481
0.018697284 -0.039822876 0.1717312
0.023492109 -0.037618153 0.17161107
0.027661899 -0.035903938 0.17129764
0.031326741 -0.033908688 0.17132419
0.016133875 -0.024190038 0.1876407
0.00059909187 -0.035162851 0.18655953
0.005643853 -0.032510471 0.18770263
0.009938254 -0.030994637 0.18770701
0.014176075 -0.028719213 0.18754318
0.019292746 -0.0259046 0.18754047
0.023227932 -0.023578338 0.18698582
-0.0033806767 -0.040626779 0.18439907
0.00064004492 -0.038336378 0.18566746
-0.0022124005 -0.042132005 0.17839849
0.001249359 -0.042466987 0.1784696
-0.0011109412 -0.042895757 0.17407069
0.0020229761 -0.043223374 0.17425209
0.0042599067 -0.043707244 0.17022783
0.0089864116 -0.043276481 0.16944653
0.013906624 -0.04132982 0.16933763
0.018517744 -0.039473828 0.16798934
0.022754205 -0.036929619 0.16812298
0.027634803 -0.035133164 0.16764811
0.031326972 -0.0323397 0.16790116
0.034760352 -0.029033048 0.16808647
0.0063004149 -0.044105705 0.16618636
0.0091139749 -0.043070808 0.16526628
0.013405908 -0.041625284 0.16442487
0.017983105 -0.040104765 0.16409832
0.02232617 -0.037673943 0.16406476
0.026935231 -0.034747846 0.16361481
0.030467823 -0.032657702 0.16415864
0.033990752 -0.029872082 0.16441077
0.014906546 -0.041705761 0.16027141
0.018363236 -0.041123107 0.16024685
0.021476777 -0.039861884 0.15879267
-0.0026954515 -0.028612075 0.18720683
0.0024284637 -0.026979869 0.18731457
0.0074907634 -0.025235701 0.18734318
0.011881821 -0.023304997 0.18750438
0.016321272 -0.020416383 0.18698019
0.021252971 -0.018730763 0.18637508
-0.00059146248 -0.031591576 0.18672878
-0.0036011441 -0.042531889 0.17247429
-0.0027854964 -0.041706104 0.16737247
0.0014451547 -0.042928722 0.16766292
-0.0014459593 -0.041847568 0.16388953
0.0026075793 -0.042794064 0.16341007
0.0089356191 -0.043057136 0.16157442
0.023272939 -0.036009919 0.16129932
0.026298566 -0.034751952 0.16089144
0.031267971 -0.032181237 0.16100603
0.034503594 -0.029316431 0.16144407
0.0029327916 -0.042255875 0.15905491
0.0076504219 -0.042860329 0.15776843
0.013095849 -0.042046618 0.15800929
0.017523089 -0.041143365 0.15759695
0.023400722 -0.036690015 0.15719473
0.026915796 -0.035251055 0.15708947
0.030872066 -0.032905418 0.15650222
0.033983551 -0.029548228 0.15637571
0.0087865926 -0.042835064 0.15332615
0.013127982 -0.042173497 0.15281934
0.017868808 -0.041580997 0.15356076
0.022431403 -0.038732216 0.15278512
0.02646024 -0.035093948 0.15159777
0.03037753 -0.032846134 0.15193757
0.013925857 -0.043175131 0.14874801
0.017902829 -0.042166322 0.14842385
0.021687942 -0.040476415 0.14848521
0.0085431412 -0.015776835 0.18828315
0.011771191 -0.013588192 0.18766919
0.00031381659 -0.022024155 0.18754467
0.0052819056 -0.020001983 0.18738633
0.0097123403 -0.019395728 0.18812758
0.014234815 -0.016769562 0.18752295
-0.0038815206 -0.040515266 0.16065088
-0.0023636511 -0.040650152 0.15648335
0.00098026358 -0.041900776 0.15653157
0.0017867442 -0.041687757 0.1522744
0.0064489357 -0.042351879 0.15055418
0.027665377 -0.033710577 0.14890233
0.030705098 -0.03203949 0.14899582
0.033798866 -0.028366994 0.1496433
0.0086781029 -0.042730842 0.14718893
0.012087535 -0.043004658 0.1463387
0.022688486 -0.037980057 0.14588681
0.025895705 -0.03569404 0.14607671
0.030434083 -0.032688711 0.14518645
0.033165116 -0.02987059 0.14522454
0.013097852 -0.042341784 0.14292082
0.017429123 -0.041622542 0.14238068
0.021251541 -0.039365511 0.14204246
0.025246162 -0.035831094 0.14167017
0.030922793 -0.033174016 0.14144024
0.017180385 -0.041412547 0.13844791
0.020498097 -0.040118434 0.13777244
0.0025060496 -0.014564284 0.18736738
0.0072885342 -0.012825892 0.1876578
0.011623912 -0.010248385 0.18704486
-0.00022970699 -0.04122049 0.14963794
-0.0027298769 -0.041232683 0.14469871
0.00063096918 -0.041116565 0.14542842
0.0053976905 -0.041501779 0.14496654
0.034052767 -0.028067762 0.14331859
0.0014243945 -0.041592814 0.1403217
0.0061167181 -0.041359305 0.13997096
0.011840876 -0.041494776 0.13952583
0.022148322 -0.037300903 0.13878113
0.02564268 -0.034365311 0.13829565
0.029782493 -0.032433964 0.13814348
0.033555374 -0.028566688 0.1382311
0.0062688133 -0.042551454 0.13490337
0.011222191 -0.041483045 0.13514158
0.01672096 -0.04064595 0.13500282
0.021169458 -0.037995201 0.13462871
0.024337385 -0.034931272 0.13397139
0.029093962 -0.032330457 0.13339603
0.032985017 -0.029509194 0.13434085
0.012147382 -0.042152263 0.13064259
0.016499229 -0.040584631 0.13019431
0.020393481 -0.039012939 0.13037056
0.024581239 -0.035842061 0.13040769
0.028765753 -0.033818267 0.13055152
0.017534675 -0.041353598 0.12719959
0.020367777 -0.040127896 0.12707615
-0.00036993111 -0.0099528274 0.18729284
0.0051949294 -0.0079001077 0.18663007
-0.00075878575 -0.04070513 0.13825732
-0.0036592484 -0.0403472 0.13447404
0.00023028348 -0.041562852 0.13372809
0.0041043395 -0.042739887 0.13327947
0.03340828 -0.028047238 0.13184336
0.00069744047 -0.041915927 0.1287097
0.0054342048 -0.042426199 0.12866461
0.0096185775 -0.042338703 0.12871262
0.021559782 -0.036838949 0.12796238
0.024360791 -0.035540797 0.12759134
0.028959014 -0.032673258 0.12771586
0.032579493 -0.028501689 0.12670028
0.0054705646 -0.04251191 0.12356657
0.011008093 -0.042124886 0.12416697
0.016090181 -0.040787745 0.12399837
0.020696791 -0.038622916 0.12367976
0.024096325 -0.035302412 0.12279621
0.028082434 -0.032786544 0.12207574
0.03094352 -0.030153131 0.12226188
0.011645073 -0.042207036 0.11865771
0.016014948 -0.0405562 0.1186353
0.019750202 -0.038704623 0.11894763
0.025461789 -0.03485617 0.1190173
0.0018449237 -0.0019335919 0.18614683
9.1617694e-05 -0.005825229 0.18621144
0.0035023042 -0.0039164796 0.18580082
-0.0012533125 -0.04154332 0.12701404
-0.00023779459 -0.042223122 0.12303996
0.0043309247 -0.042692482 0.12094164
0.032756634 -0.028218061 0.12068897
0.00056271069 -0.042019863 0.11950809
0.0051555689 -0.042530712 0.11744368
0.0084287655 -0.042659733 0.1181398
0.020733999 -0.037246741 0.11626738
0.023648113 -0.035244003 0.11666089
0.027952787 -0.032917537 0.11639053
0.031623766 -0.030076848 0.11559725
0.0063996883 -0.042382792 0.11357009
0.010586781 -0.042236559 0.11359811
0.015677938 -0.040247153 0.11352909
0.019563487 -0.038058676 0.11259043
0.023715705 -0.03528478 0.11213601
0.027883381 -0.033121314 0.11170268
0.031198408 -0.030867934 0.11194813
-0.0018015731 0.0048433957 0.18703094
-0.001045092 -0.041252624 0.11608368
-0.00055635069 -0.041841526 0.11161196
0.0039489195 -0.042135622 0.11210984
0.009819163 -0.040847242 0.1095143
0.014267985 -0.039286476 0.10958135
0.019846708 -0.036428731 0.10902697
0.023305848 -0.034575008 0.10862523
0.026849046 -0.032909948 0.10837942
0.031884037 -0.028910985 0.10997528
0.00072797947 -0.041882958 0.10687661
0.0039851479 -0.041518882 0.10650468
0.0089493655 -0.041149393 0.10626131
0.01417336 -0.039437801 0.10577983
0.018955486 -0.037147176 0.10566086
0.023378806 -0.034452338 0.10522717
0.027303968 -0.032200616 0.10508132
0.030542161 -0.02882365 0.10478753
0.005604431 -0.041665692 0.10313928
0.0090294816 -0.041420784 0.10070401
0.014427375 -0.040541284 0.1007902
0.01931195 -0.037939321 0.10088301
0.023027882 -0.035028335 0.099843264
0.027011316 -0.032554477 0.10037887
0.029860895 -0.030402537 0.10155278
0.010838459 -0.042510629 0.09732765
0.014072874 -0.041336309 0.09656918
0.01849282 -0.040034086 0.095893264
-0.0030348534 0.0078721382 0.18782461
-0.0025300151 -0.042048663 0.10905671
-0.0017404081 -0.041084182 0.10467851
0.032006253 -0.027169731 0.10274422
-0.00025732256 -0.041406766 0.099912584
0.0035498561 -0.041685183 0.1003989
0.0074854149 -0.042370811 0.10023886
0.020415522 -0.036772601 0.097726345
0.027659453 -0.032215238 0.098350585
0.031121455 -0.02898589 0.098670721
0.0039338507 -0.041755609 0.096081436
0.0082131056 -0.041900165 0.09551239
0.013619492 -0.041328628 0.09394753
0.019547746 -0.038105972 0.094038248
0.023495093 -0.036281444 0.094276488
0.027427437 -0.032824565 0.09455359
0.030665688 -0.030121185 0.094371915
0.0092267981 -0.041277703 0.092047632
0.013181461 -0.040611491 0.090669274
0.018570855 -0.0392088 0.090137482
0.023370788 -0.036394998 0.0893929
0.027160004 -0.03298011 0.090896249
0.019949479 -0.038679112 0.087159336
-0.0036811549 -0.040296726 0.10164183
-0.0029603438 -0.040805507 0.097868085
-0.0010484196 -0.041353032 0.093247056
0.0028983597 -0.041501693 0.09294939
0.03165894 -0.028537387 0.091517627
-0.00066885632 -0.04072446 0.088923931
0.0033479612 -0.040676177 0.088666677
0.0078606158 -0.040998179 0.088918746
0.011999162 -0.040109932 0.08799243
0.026805468 -0.032372586 0.087380171
0.030107437 -0.028433079 0.08695507
0.0044984687 -0.041103806 0.084652901
0.0079229549 -0.041123323 0.083625615
0.012962852 -0.040686946 0.084710836
0.017285079 -0.03920991 0.084573984
0.021839986 -0.035930634 0.083658278
0.025489395 -0.032517724 0.082714736
0.0096839294 -0.04153093 0.080427527
0.012945258 -0.040603977 0.079223514
0.01741901 -0.039021593 0.078980148
0.020626754 -0.03790348 0.079298854
0.020439535 -0.038845282 0.075445235
-0.0033471342 -0.039604504 0.086968064
0.0013918672 -0.040463071 0.085978448
0.030584831 -0.027105795 0.083549857
-0.0012808237 -0.039970279 0.083206713
0.0024372907 -0.040671326 0.08175689
0.026505282 -0.031149002 0.079910338
0.029762391 -0.027981747 0.080217183
0.0027822535 -0.04087792 0.077992141
0.0073040817 -0.040875159 0.077003837
0.011735601 -0.040658969 0.076341987
0.01543631 -0.039173827 0.076275706
0.021826509 -0.035368286 0.076833844
0.025194656 -0.032668583 0.076361835
0.028551523 -0.029080139 0.075425565
0.0090128221 -0.040655695 0.073548555
0.012289836 -0.039443858 0.072760284
0.016867483 -0.038218763 0.072508097
0.021143293 -0.036628306 0.072289109
0.024577534 -0.033418067 0.072017908
-0.0030205222 -0.039489795 0.075989246
0.0019458607 -0.041038752 0.075457931
0.029146062 -0.027769754 0.074274898
0.0019161999 -0.041198008 0.071350634
0.0072499476 -0.040851194 0.07117027
0.011447553 -0.039585199 0.06989634
0.015501686 -0.037911013 0.069283247
0.021310406 -0.035213806 0.068903327
0.024522226 -0.032449696 0.069075704
0.028501321 -0.028827518 0.069917679
0.0031678118 -0.041575693 0.066890717
0.007010431 -0.041333631 0.066830635
0.011881296 -0.039996494 0.065766931
0.01633605 -0.03817289 0.065663218
0.020137422 -0.035389096 0.065215468
0.024459019 -0.032077689 0.065132558
0.027825251 -0.029492067 0.065064847
0.030984435 -0.027234208 0.065613508
0.0074183717 -0.041707423 0.06195724
0.012080859 -0.040907696 0.06143111
0.01667274 -0.039372969 0.06159395
0.020359373 -0.035711091 0.060866296
0.02348778 -0.033390172 0.06135416
0.012604646 -0.040402353 0.058123887
0.016717304 -0.03902683 0.057450294
0.019284617 -0.03760368 0.05792284
-0.0031965692 -0.039454974 0.063429356
-0.00017033424 -0.039700169 0.063571036
0.028639507 -0.027426805 0.061680377
0.0018218448 -0.040328901 0.059679985
0.0048534861 -0.040721659 0.058135927
0.021140762 -0.033650089 0.057451606
0.024423944 -0.031652994 0.058238268
0.02746048 -0.028292526 0.057803512
0.0030423328 -0.040976834 0.054709733
0.0065625058 -0.040465951 0.054581821
0.010914187 -0.039437804 0.054224849
0.015537241 -0.038410477 0.053842783
0.019980853 -0.034878079 0.05369091
0.02333371 -0.032214515 0.053552985
0.026285438 -0.029416401 0.053623438
0.011505352 -0.039579641 0.050457299
0.015781928 -0.038288478 0.050207019
0.018672746 -0.036916874 0.04895997
-0.0014506327 -0.039481003 0.057380319
0.028039752 -0.027180783 0.054467857
-0.001131339 -0.039639778 0.053465009
0.0043683238 -0.040299397 0.051474392
0.024426538 -0.030819668 0.05072242
0.027617989 -0.028560894 0.051285803
0.00090347417 -0.040072922 0.048876882
0.0055797147 -0.040480264 0.04872036
0.010802465 -0.039223503 0.047719836
0.015399766 -0.037708975 0.046525002
0.020333029 -0.034660656 0.047679424
0.02358013 -0.032496959 0.047542751
0.027829789 -0.028806258 0.046801746
0.031429555 -0.026102548 0.047595263
0.0057217581 -0.040076464 0.04443121
0.010208506 -0.038950887 0.044689357
0.01527846 -0.037713673 0.04336834
0.019632995 -0.03550997 0.042940021
0.023744829 -0.032663189 0.042967916
0.027184058 -0.030292623 0.043171465
0.01650778 -0.036750928 0.03984344
0.018149776 -0.036526918 0.03911972
0.022248151 -0.033627648 0.039101601
-0.0034800265 -0.038716525 0.049974084
-0.0029021278 -0.038894825 0.045699179
-0.0015326254 -0.039595421 0.041065037
0.0028311256 -0.039465107 0.041184425
0.0087938141 -0.037315663 0.040032387
0.024935596 -0.031474609 0.040295839
0.027963471 -0.028511599 0.040111303
-4.1900203e-06 -0.04003799 0.036364794
0.0033964347 -0.039066501 0.036177456
0.0088284332 -0.037780032 0.036212325
0.014418026 -0.036778152 0.036863804
0.019663913 -0.034882523 0.03691709
0.023499072 -0.032082733 0.035885453
0.026620392 -0.02858031 0.034595966
0.029590722 -0.025869582 0.03514111
0.008446943 -0.038598105 0.03169173
0.013822653 -0.037482958 0.031190217
0.018892404 -0.035310995 0.031610548
0.022724893 -0.032185409 0.031250477
0.015477655 -0.037539233 0.027520299
0.01785161 -0.0369201 0.026699483
-0.0031009996 -0.039578743 0.035678148
0.0032740477 -0.03962364 0.033876419
0.028386623 -0.027450781 0.032876849
-0.0012476975 -0.039096694 0.031348646
0.0025663329 -0.03893989 0.030382752
0.0081906803 -0.039045606 0.029647231
0.019604076 -0.034542732 0.028489113
0.023784205 -0.03166334 0.029570699
0.026943482 -0.028544482 0.029083014
0.03018103 -0.025583135 0.028750062
0.00403048 -0.037989937 0.026426375
0.0082323439 -0.038611967 0.026547849
0.013159315 -0.038536165 0.025837541
0.017557837 -0.036381528 0.024679244
0.021857914 -0.032509752 0.026020527
0.025493924 -0.029617807 0.025611758
0.027852491 -0.026700871 0.024682939
0.0092608565 -0.038133234 0.021789491
0.012807986 -0.038076788 0.021799028
0.017238636 -0.035987105 0.02041471
-0.0032234676 -0.038463999 0.028384447
-0.0031190803 -0.038352501 0.02412945
0.0018816022 -0.038013846 0.023370326
0.0059793862 -0.037312027 0.022928476
0.02161704 -0.031283021 0.022203445
0.025147807 -0.028164994 0.02161485
0.028963666 -0.02523694 0.021701038
-0.0016173134 -0.039184112 0.019746125
0.0021289168 -0.038558371 0.01880759
0.0072822929 -0.037980016 0.018893838
0.011961319 -0.037446208 0.018334508
0.017218672 -0.034706805 0.017922997
0.020826964 -0.031868212 0.01815325
0.024809336 -0.028508868 0.017721117
0.028905511 -0.025412768 0.01718539
0.0033280076 -0.038901553 0.015529871
0.007128201 -0.038050488 0.014603853
0.012253581 -0.037523538 0.013656259
0.01658209 -0.035536807 0.013662398
0.020743759 -0.032102484 0.012947142
0.024898171 -0.029620964 0.013562739
0.027889647 -0.027612053 0.013660014
0.01306938 -0.038497351 0.0089802742
0.016391456 -0.0372044 0.0082519054
0.012780435 -0.039452128 0.0068041086
0.015888896 -0.038477656 0.0048282146
-0.0021909606 -0.038644187 0.012648702
0.0012270994 -0.038545273 0.012401581
0.0060411887 -0.03787823 0.011953413
0.026353497 -0.028460603 0.010636687
0.029387485 -0.02577132 0.011223376
0.0022126213 -0.037742283 0.0084378123
0.0067623355 -0.037246883 0.007943511
0.010561276 -0.038383156 0.0073451996
0.017858526 -0.034206867 0.0083719492
0.020688962 -0.032401435 0.0077741146
0.024804115 -0.029880501 0.0072622299
0.028845906 -0.026894154 0.0070996881
0.012176146 -0.038352638 0.0031404495
0.017348127 -0.03638104 0.0028026104
0.020254392 -0.03308408 0.0019958615
0.013020896 -0.038649045 -0.0014221668
0.00077338982 -0.037779018 0.0063713789
0.0059455549 -0.036307469 0.0040912032
0.025609754 -0.027176686 0.0028050542
0.030052138 -0.024696339 0.0043424368
-0.0029521715 -0.03875633 0.0015034676
0.0011767317 -0.038141623 0.0018966198
0.0060173748 -0.037294097 0.0021412969
0.021719117 -0.031112159 0.00049376488
0.024193015 -0.028341254 4.8875809e-05
0.028292354 -0.0251012 -0.00025701523
