# .PCD v0.7 - Point Cloud Data file format
VERSION 0.7
FIELDS x y z
SIZE 4 4 4
TYPE F F F
COUNT 1 1 1
WIDTH 465
HEIGHT 1
VIEWPOINT 0 0 0 1 0 0 0
POINTS 465
DATA ascii
0.036354203 -0.0014798497 0.18485561
0.036326665 0.0021939336 0.18588015
0.036014199 0.0064793117 0.1849758
0.037865028 -0.0058550527 0.18201298
0.03847713 -0.0024097492 0.18235028
0.038584575 0.0020812203 0.18226445
0.037719626 0.0063970638 0.18166783
0.038685832 -0.0050959415 0.17904538
0.039249659 -0.0025074056 0.17938188
0.039439864 0.0019702374 0.17876679
0.039646421 0.0051988256 0.17940071
0.030399852 -0.0087699601 0.18720019
0.031275019 -0.0061499113 0.18775013
0.032202706 -0.0019407445 0.1878356
0.032279901 0.0025104021 0.18781424
0.031571694 0.0067630541 0.18770316
0.030571308 0.010632751 0.18747884
0.029731546 0.014161912 0.18627644
0.032826714 -0.014687264 0.18388531
0.034211755 -0.010538985 0.18528122
0.03458333 -0.0061834673 0.18577689
0.034687705 -0.002786028 0.1861698
0.033843961 0.0071363761 0.18619868
0.03427567 0.010527989 0.18491453
0.033347983 0.015021963 0.18404907
0.036927838 -0.010433842 0.1816498
0.037510362 -0.0071539413 0.18179172
0.037489619 0.0077783763 0.17943704
0.036772985 0.010386773 0.18057668
0.035786085 0.014877621 0.17965809
0.038046394 -0.0099622607 0.17720056
0.039263759 -0.0065932143 0.17753425
0.039291449 -0.0025977832 0.17673761
0.038844876 0.0018786178 0.17592961
0.038375158 0.0065593985 0.17636412
0.037784304 0.010253036 0.17599598
0.036599226 0.014749523 0.1749182
0.034889717 0.018427167 0.17466503
0.037853379 -0.0091966512 0.17317596
0.038237214 -0.0063661225 0.17264959
0.038402285 -0.0030037339 0.17265481
0.037668586 0.0017438431 0.1717312
0.037495442 0.0062640295 0.17161107
0.037505712 0.010128362 0.17129764
0.0371278 0.013685009 0.17132419
0.024448156 0.004841682 0.1876407
0.028041856 -0.0110595 0.18655953
0.027596202 -0.0061945524 0.18770263
0.027804444 -0.0022966147 0.18770701
0.027392609 0.0018056738 0.18754318
0.026842067 0.0067807822 0.18754047
0.026290707 0.01066009 0.18698582
0.031063301 -0.016003313 0.18439907
0.030568395 -0.012068033 0.18566746
0.032638498 -0.015571895 0.17839849
0.034039278 -0.012940418 0.1784696
0.033604607 -0.014950175 0.17407069
0.034892015 -0.012575899 0.17425209
0.036008939 -0.010963199 0.17022783
0.03721818 -0.0070789997 0.16944653
0.037290521 -0.0025441647 0.16933763
0.037333284 0.0017161588 0.16798934
0.03670815 0.005905536 0.16812298
0.036886454 0.010359728 0.16764811
0.035885401 0.01419984 0.16790116
0.034393072 0.018003354 0.16808647
0.036993794 -0.0094780279 0.16618636
0.037097149 -0.0069105169 0.16526628
0.037360258 -0.0030375968 0.16442487
0.037657551 0.0010858238 0.16409832
0.037157178 0.005322427 0.16406476
0.036351852 0.0099321296 0.16361481
0.035855412 0.013415175 0.16415864
0.034805059 0.017118694 0.16441077
0.037916217 -0.0018756432 0.16027141
0.038588662 0.0010528166 0.16024685
0.038611192 0.0039321203 0.15879267
0.021773662 -0.011519691 0.18720683
0.022161841 -0.0069266921 0.18731457
0.022441149 -0.0023457617 0.18734318
0.022352559 0.0017648019 0.18750438
0.02152128 0.0062278956 0.18698019
0.021804111 0.010686199 0.18637508
0.024823258 -0.010830868 0.18672878
0.032499637 -0.016802805 0.17247429
0.032113247 -0.015886026 0.16737247
0.034469146 -0.012936822 0.16766292
0.032664657 -0.014871653 0.16388953
0.034743804 -0.011972134 0.16341007
0.037027821 -0.0070472714 0.16157442
0.036149997 0.0066179945 0.16129932
0.036146268 0.0094266096 0.16089144
0.035740562 0.014205099 0.16100603
0.034533262 0.017707074 0.16144407
0.03442429 -0.011538066 0.15905491
0.036450405 -0.0080004595 0.15776843
0.037592206 -0.0034213348 0.15800929
0.038329124 0.00038086259 0.15759695
0.036730476 0.0064961039 0.15719473
0.036743965 0.0097516803 0.15708947
0.036184177 0.013654039 0.15650222
0.034546241 0.017219221 0.15637571
0.036803074 -0.0070924428 0.15332615
0.037703224 -0.0034375079 0.15281934
0.038789086 0.00051108387 0.15356076
0.038029738 0.0050586322 0.15278512
0.036470123 0.0094424598 0.15159777
0.035975013 0.013281863 0.15193757
0.038758125 -0.003134222 0.14874801
0.039263759 0.00034603223 0.14842385
0.039167099 0.0038977654 0.14848521
0.015295898 0.0015902569 0.18828315
0.014621564 0.0048644454 0.18766919
0.017543793 -0.0069757286 0.18754467
0.017572045 -0.0023782135 0.18738633
0.018545203 0.0013290929 0.18812758
0.017948985 0.0057718465 0.18752295
0.030810714 -0.016363354 0.16065088
0.03141541 -0.015205602 0.15648335
0.033502631 -0.01296779 0.15653157
0.033598475 -0.012259264 0.1522744
0.035653658 -0.0087851333 0.15055418
0.035769939 0.010850569 0.14890233
0.035443682 0.013805855 0.14899582
0.033550248 0.017460432 0.1496433
0.036684956 -0.0071441676 0.14718893
0.038020134 -0.0045340648 0.1463387
0.037518434 0.0055089337 0.14588681
0.036760159 0.0087985676 0.14607671
0.035868902 0.013378286 0.14518645
0.034533057 0.016465364 0.14522454
0.037826605 -0.0035165676 0.14292082
0.038677759 0.00014927301 0.14238068
0.038144231 0.0039165732 0.14204246
0.036655631 0.0082392404 0.14167017
0.036413517 0.013606108 0.14144024
0.038429875 2.1181551e-05 0.13844791
0.038493328 0.0030729542 0.13777244
0.01235543 -0.0027927619 0.18736738
0.012547527 0.0015646896 0.1876578
0.011928474 0.0058433204 0.18704486
0.032567024 -0.013702816 0.14963794
0.031756587 -0.015686693 0.14469871
0.032767043 -0.012987162 0.14542842
0.034635648 -0.0093387663 0.14496654
0.033396568 0.017759649 0.14331859
0.033404436 -0.012515067 0.1403217
0.034758672 -0.0087226359 0.13997096
0.036743555 -0.0042341305 0.13952583
0.036803432 0.0053039514 0.13878113
0.035624947 0.0090340395 0.13829565
0.035453439 0.012945853 0.13814348
0.033628516 0.017202107 0.1382311
0.035752621 -0.0089932345 0.13490337
0.036531329 -0.0047202189 0.13514158
0.03767211 -9.1180693e-05 0.13500282
0.037032161 0.0043010544 0.13462871
0.035644975 0.0078147389 0.13397139
0.035145625 0.01243456 0.13339603
0.034187794 0.016441289 0.13434085
0.037364755 -0.0042070751 0.13064259
0.037550826 -0.00024665624 0.13019431
0.037583575 0.0033527277 0.13037056
0.036446214 0.0077090915 0.13040769
0.036216158 0.01168663 0.13055152
0.038499407 0.00032107809 0.12719959
0.038458075 0.0029666494 0.12707615
0.0077602696 -0.003557618 0.18729284
0.0079600811 0.0015224988 0.18663007
0.031985369 -0.013952747 0.13825732
0.03075053 -0.016132208 0.13447404
0.032989025 -0.013450852 0.13372809
0.03519186 -0.010769083 0.13327947
0.033168912 0.017256012 0.13184336
0.033421859 -0.013196725 0.1287097
0.035379667 -0.0096130734 0.12866461
0.036682911 -0.006270783 0.12871262
0.036244564 0.0049894177 0.12796238
0.036135335 0.0076333382 0.12759134
0.03537282 0.012215251 0.12771586
0.033256941 0.016450632 0.12670028
0.035459466 -0.0096123954 0.12356657
0.036969371 -0.005100294 0.12416697
0.037577495 -0.00063720503 0.12399837
0.037374206 0.0037208514 0.12367976
0.035859808 0.0075021051 0.12279621
0.035174999 0.011483931 0.12207574
0.034028087 0.014613414 0.12226188
0.037243366 -0.0046228194 0.11865771
0.037369456 -0.0006208308 0.1186353
0.037128415 0.0029444478 0.11894763
0.035954323 0.0087297847 0.1190173
0.0021363667 0.00082674314 0.18614683
0.0046430314 -0.001838207 0.18621144
0.004250254 0.0014888019 0.18580082
0.032486916 -0.014619298 0.12701404
0.033358354 -0.014038099 0.12303996
0.035228644 -0.010574102 0.12094164
0.033090439 0.016683945 0.12068897
0.033459969 -0.01333751 0.11950809
0.035371032 -0.0098680053 0.11744368
0.03654686 -0.0073182941 0.1181398
0.036296625 0.00420172 0.11626738
0.035666533 0.0071663242 0.11666089
0.035236206 0.011338296 0.11639053
0.034190807 0.015177119 0.11559725
0.035661988 -0.0088342717 0.11357009
0.036919612 -0.0054705618 0.11359811
0.037014179 -0.00078633585 0.11352909
0.036555648 0.0030084695 0.11259043
0.035720997 0.0072064744 0.11213601
0.035374813 0.011216492 0.11170268
0.034677744 0.014580794 0.11194813
-0.0044264114 0.00016204355 0.18703094
0.032325014 -0.014359057 0.11608368
0.032951679 -0.014165195 0.11161196
0.034662366 -0.010693952 0.11210984
0.035567626 -0.005622718 0.1095143
0.035790939 -0.0015877577 0.10958135
0.035357799 0.0037673973 0.10902697
0.03502449 0.0071147271 0.10862523
0.034868155 0.010466739 0.10837942
0.033352938 0.015765646 0.10997528
0.033405766 -0.013161725 0.10687661
0.034185853 -0.010462964 0.10650468
0.035521593 -0.0064106202 0.10626131
0.035879731 -0.0017123271 0.10577983
0.035634398 0.0028259803 0.10566086
0.034951277 0.0072127394 0.10522717
0.034455657 0.01105966 0.10508132
0.032843623 0.014731668 0.10478753
0.03483326 -0.0092288153 0.10313928
0.035762787 -0.0064361957 0.10070401
0.036836896 -0.0018731318 0.1007902
0.036378622 0.0028484277 0.10088301
0.035292301 0.006745907 0.099843264
0.034639888 0.010711838 0.10037887
0.033870477 0.013674277 0.10155278
0.0372192 -0.0053611565 0.09732765
0.037350196 -0.0024146412 0.09656918
0.037768774 0.0015126494 0.095893264
-0.0072293961 0.00017888387 0.18782461
0.032468319 -0.015796077 0.10905671
0.031963553 -0.014854426 0.10467851
0.032014132 0.016433587 0.10274422
0.032705478 -0.013785786 0.099912584
0.034174766 -0.01086222 0.1003989
0.03600863 -0.0079705594 0.10023886
0.035816688 0.0041050459 0.097726345
0.034583841 0.011336371 0.098350585
0.033162117 0.015137192 0.098670721
0.034356494 -0.010581236 0.096081436
0.035874624 -0.0072399257 0.09551239
0.037195392 -0.0027711515 0.09394753
0.036587939 0.0029804914 0.094038248
0.036437888 0.0067048534 0.094276488
0.034990259 0.010952771 0.09455359
0.033911653 0.01440388 0.094371915
0.035714202 -0.0062330086 0.092047632
0.036483817 -0.0028827952 0.090669274
0.037140831 0.0018451507 0.090137482
0.036487035 0.006569169 0.0893929
0.035025716 0.010689968 0.090896249
0.037173577 0.0031106232 0.087159336
0.030703375 -0.016133001 0.10164183
0.031342711 -0.015729079 0.097868085
0.032403436 -0.014394629 0.093247056
0.03381576 -0.01131795 0.09294939
0.032983251 0.01570994 0.091517627
0.032030173 -0.013887873 0.088923931
0.033309512 -0.010691131 0.088666677
0.035044722 -0.0072231973 0.088918746
0.035698824 -0.003654537 0.08799243
0.034428325 0.01060849 0.087380171
0.032391734 0.014515523 0.08695507
0.034025535 -0.0099203158 0.084652901
0.035164271 -0.0072148792 0.083625615
0.036471862 -0.0030806623 0.084710836
0.036719952 0.00082658499 0.084573984
0.03561718 0.0055092494 0.083658278
0.034111567 0.0095186895 0.082714736
0.036064677 -0.0059540686 0.080427527
0.036400385 -0.0030673791 0.079223514
0.036614761 0.00099441467 0.078980148
0.036781516 0.0039013736 0.079298854
0.037465915 0.0034441911 0.075445235
0.030264769 -0.01564143 0.086968064
0.032499127 -0.012170253 0.085978448
0.031497259 0.015328937 0.083549857
0.031232204 -0.014125106 0.083206713
0.033006959 -0.011410696 0.08175689
0.033360906 0.010772127 0.079910338
0.031921148 0.014390324 0.080217183
0.03328371 -0.011205288 0.077992141
0.034764752 -0.0076235617 0.077003837
0.036047153 -0.0040433425 0.076341987
0.036084957 -0.00062561414 0.076275706
0.035167441 0.005683037 0.076833844
0.034134354 0.0092358021 0.076361835
0.03239378 0.013071153 0.075425565
0.035151448 -0.0061984272 0.073548555
0.035266705 -0.0032058705 0.072760284
0.035798091 0.0008210034 0.072508097
0.035941143 0.0047286944 0.072289109
0.034525447 0.0085012633 0.072017908
0.030281067 -0.015345163 0.075989246
0.033136725 -0.01192038 0.075457931
0.031551108 0.013971793 0.074274898
0.033253107 -0.011996104 0.071350634
0.034728017 -0.0076585691 0.07117027
0.035102352 -0.0039192331 0.06989634
0.035106387 -0.00015962184 0.069283247
0.034875818 0.0053250068 0.068903327
0.033740453 0.0087751038 0.069075704
0.032177262 0.013114264 0.069917679
0.033962745 -0.011128845 0.066890717
0.03503149 -0.0080064861 0.066830635
0.035570331 -0.0037106653 0.065766931
0.035587449 0.0004152075 0.065663218
0.034629874 0.0043386277 0.065215468
0.033425126 0.0088470764 0.065132558
0.032481756 0.012360904 0.065064847
0.031730022 0.015603264 0.065613508
0.035461307 -0.0078060506 0.06195724
0.036357369 -0.0038515197 0.06143111
0.036648221 0.00028818901 0.06159395
0.034957666 0.0044087707 0.060866296
0.034145899 0.0076474394 0.06135416
0.036128998 -0.0032709746 0.058123887
0.03638874 0.00043701648 0.057450294
0.036103863 0.0029368801 0.05792284
0.030195747 -0.015473153 0.063429356
0.031382561 -0.013157113 0.063571036
0.031113369 0.013683147 0.061680377
0.032533918 -0.011785746 0.059679985
0.033839364 -0.0095138289 0.058135927
0.033581872 0.005703588 0.057451606
0.033077307 0.008958606 0.058238268
0.031412192 0.01246551 0.057803512
0.033447351 -0.011031777 0.054709733
0.03419745 -0.0080765849 0.054581821
0.034810681 -0.0042932574 0.054224849
0.035513572 -0.00029529689 0.053842783
0.034173846 0.0043822615 0.05369091
0.033164367 0.0079110656 0.053552985
0.031916756 0.01116635 0.053623438
0.035116911 -0.0038716395 0.050457299
0.035497222 -6.1513638e-05 0.050207019
0.035359282 0.0026776223 0.04895997
0.030789051 -0.014099088 0.057380319
0.030721817 0.0132889 0.054467857
0.031019518 -0.013898321 0.053465009
0.033345837 -0.0097595211 0.051474392
0.032418251 0.0092340047 0.05072242
0.031676378 0.012502211 0.051285803
0.032029971 -0.012429035 0.048876882
0.033886418 -0.0088595506 0.04872036
0.03460433 -0.0043114359 0.047719836
0.034912962 -0.00017406106 0.046525002
0.034117188 0.0047324654 0.047679424
0.033468861 0.0080135576 0.047542751
0.031940155 0.012589454 0.046801746
0.030979872 0.016326953 0.047595263
0.033613238 -0.0086146137 0.04443121
0.03419362 -0.0046923668 0.044689357
0.03487689 -0.00027166476 0.04336834
0.034560136 0.0038995247 0.042940021
0.033654518 0.0080894586 0.042967916
0.032905392 0.011590552 0.043171465
0.034517732 0.0010176252 0.03984344
0.034878936 0.0023913954 0.03911972
0.03392734 0.0065878867 0.039101601
0.029517991 -0.015455399 0.049974084
0.029848747 -0.015056248 0.045699179
0.030852761 -0.014201549 0.041065037
0.032180939 -0.010703161 0.041184425
0.03243465 -0.0052762805 0.040032387
0.033103876 0.0094222929 0.040295839
0.031750664 0.012791967 0.040111303
0.031704579 -0.013136354 0.036364794
0.032050714 -0.010124747 0.036177456
0.032813735 -0.0054011852 0.036212325
0.033853821 -0.00064617465 0.036863804
0.034073405 0.004129821 0.03691709
0.033114247 0.0080852434 0.035885453
0.031364527 0.011705851 0.034595966
0.030192222 0.014947201 0.03514111
0.033336435 -0.0059716273 0.03169173
0.034216661 -0.0013488336 0.031190217
0.034159645 0.0033783203 0.031610548
0.032941613 0.007438492 0.031250477
0.034804091 -5.6701654e-05 0.027520299
0.035092492 0.0020263083 0.026699483
0.030325107 -0.01543807 0.035678148
0.032451767 -0.010404414 0.033876419
0.031049404 0.013475023 0.032876849
0.030551281 -0.013812325 0.031348646
0.031678166 -0.010740574 0.030382752
0.033606753 -0.0063213473 0.029647231
0.033784695 0.0041938908 0.028489113
0.032875657 0.0084486064 0.029570699
0.031442132 0.011973456 0.029083014
0.030159013 0.015508623 0.028750062
0.031406164 -0.0092695216 0.026426375
0.03327702 -0.0061461129 0.026547849
0.034833107 -0.0022195966 0.025837541
0.03456964 0.0019703298 0.024679244
0.032914076 0.0066455449 0.026020527
0.03181662 0.010473488 0.025611758
0.030280352 0.013298026 0.024682939
0.033235278 -0.0051746056 0.021789491
0.034354091 -0.0023471327 0.021799028
0.034152593 0.0018469323 0.02041471
0.02940217 -0.015169398 0.028384447
0.029348118 -0.015050162 0.02412945
0.030720234 -0.010979054 0.023370326
0.031508598 -0.0075038248 0.022928476
0.031863622 0.0068571838 0.022203445
0.030552609 0.010675943 0.02161485
0.02948555 0.014658155 0.021701038
0.030499272 -0.014133698 0.019746125
0.031232562 -0.010961817 0.01880759
0.032464948 -0.0066911667 0.018893838
0.033577017 -0.0028107653 0.018334508
0.033132181 0.0022510805 0.017922997
0.03206788 0.0060395729 0.01815325
0.030713899 0.010295114 0.017721117
0.029605713 0.014554427 0.01718539
0.031897649 -0.010124831 0.015529871
0.032470211 -0.0068363077 0.014603853
0.033734117 -0.0026046885 0.013656259
0.033580646 0.0014747216 0.013662398
0.032226104 0.0058968412 0.012947142
0.031623706 0.010000678 0.013562739
0.031014102 0.01302857 0.013660014
0.034772873 -0.0022780846 0.0089802742
0.034838676 0.00077676284 0.0082519054
0.035434179 -0.0028200794 0.0068041086
0.035682116 -3.8858539e-05 0.0048282146
0.029883537 -0.014410864 0.012648702
0.03092638 -0.011671667 0.012401581
0.031977244 -0.0076406063 0.011953413
0.031182187 0.011533761 0.010636687
0.030047741 0.01481849 0.011223376
0.030613763 -0.010627843 0.0084378123
0.031713828 -0.0068624401 0.007943511
0.033859748 -0.0042267866 0.0073451996
0.032946162 0.0029217636 0.0083719492
0.032444868 0.0057553868 0.0077741146
0.031798381 0.009841064 0.0072622299
0.030759268 0.014021309 0.0070996881
0.034365281 -0.0029379658 0.0031404495
0.034500465 0.0018044225 0.0028026104
0.032842908 0.0051873331 0.0019958615
0.034877095 -0.0023662369 -0.0014221668
0.030170765 -0.011779617 0.0063713789
0.030701995 -0.0072011058 0.0040912032
0.029921498 0.011365938 0.0028050542
0.029414484 0.015697438 0.0043424368
0.029722657 -0.015050448 0.0015034676
0.03059021 -0.011579149 0.0018966198
0.031506862 -0.0074678608 0.0021412969
0.031761799 0.0069940626 0.00049376488
0.030379007 0.0098620299 4.8875809e-05
0.02915786 0.014171069 -0.00025701523
