# .PCD v0.7 - Point Cloud Data file format
VERSION 0.7
FIELDS x y z
SIZE 4 4 4
TYPE F F F
COUNT 1 1 1
WIDTH 465
HEIGHT 1
VIEWPOINT 0 0 0 1 0 0 0
POINTS 465
DATA ascii
-0.012544947 0.034153219 0.18485561
-0.015928542 0.032721881 0.18588015
-0.019768139 0.030793255 0.1849758
-0.0090809539 0.037223354 0.18201298
-0.012498241 0.036470406 0.18235028
-0.016688472 0.034851048 0.18226445
-0.02034479 0.03240034 0.18166783
-0.010096389 0.03769118 0.17904538
-0.012703652 0.037221495 0.17938188
-0.016913243 0.035683706 0.17876679
-0.019975115 0.034639012 0.17940071
-0.0035311319 0.03144192 0.18720019
-0.0062866528 0.031247819 0.18775013
-0.010530427 0.030494111 0.1878356
-0.014672291 0.02886205 0.18781424
-0.018330209 0.026580332 0.18770316
-0.021522511 0.024175227 0.18747884
-0.024461668 0.022048837 0.18627644
0.0010070251 0.035948504 0.18388531
-0.003355518 0.035640635 0.18528122
-0.0075216871 0.034317143 0.18577689
-0.010700454 0.033113427 0.1861698
-0.019544674 0.028536767 0.18619868
-0.022843322 0.027637701 0.18491453
-0.026640203 0.025060862 0.18404907
-0.0044920566 0.038109731 0.1816498
-0.0077452124 0.03739275 0.18179172
-0.021532936 0.031659234 0.17943704
-0.023668537 0.02999896 0.18057668
-0.02743987 0.027368611 0.17965809
-0.005355794 0.038962673 0.17720056
-0.008934252 0.038798094 0.17753425
-0.012636146 0.037294697 0.17673761
-0.016600905 0.035169072 0.17592961
-0.020745629 0.032943852 0.17636412
-0.023931995 0.03098448 0.17599598
-0.027632698 0.028168878 0.1749182
-0.030376196 0.025182124 0.17466503
-0.005989261 0.038491368 0.17317596
-0.0087512173 0.037762787 0.17264959
-0.011920828 0.036628563 0.17265481
-0.016026242 0.034133893 0.1717312
-0.020136092 0.032244131 0.17161107
-0.023710199 0.030774802 0.17129764
-0.026851492 0.029064586 0.17132419
-0.013829034 0.020734319 0.1876407
-0.00051350798 0.030139584 0.18655953
-0.0048375879 0.027866118 0.18770263
-0.008518504 0.026566831 0.18770701
-0.012150922 0.024616471 0.18754318
-0.016536638 0.022203943 0.18754047
-0.019909656 0.020210007 0.18698582
0.0028977236 0.034822952 0.18439907
-0.0005486086 0.03285975 0.18566746
0.0018963441 0.036113147 0.17839849
-0.0010708785 0.036400273 0.1784696
0.00095223542 0.036767792 0.17407069
-0.0017339792 0.037048608 0.17425209
-0.0036513479 0.03746336 0.17022783
-0.0077026365 0.037094131 0.16944653
-0.01191996 0.035425559 0.16933763
-0.015872352 0.033834711 0.16798934
-0.019503603 0.031653956 0.16812298
-0.023686973 0.030114144 0.16764811
-0.026851688 0.027719744 0.16790116
-0.029794585 0.024885468 0.16808647
-0.005400354 0.037804894 0.16618636
-0.0078119775 0.036917835 0.16526628
-0.011490777 0.035678815 0.16442487
-0.015414089 0.034375515 0.16409832
-0.019136716 0.032291953 0.16406476
-0.023087341 0.029783871 0.16361481
-0.026115276 0.027992317 0.16415864
-0.029134927 0.025604641 0.16441077
-0.012777038 0.035747793 0.16027141
-0.015739916 0.03524838 0.16024685
-0.018408667 0.034167334 0.15879267
0.0023103869 0.024524635 0.18720683
-0.0020815399 0.023125602 0.18731457
-0.0064206538 0.021630602 0.18734318
-0.010184417 0.019975713 0.18750438
-0.013989662 0.017499756 0.18698019
-0.018216832 0.016054939 0.18637508
0.00050696824 0.027078493 0.18672878
0.0030866954 0.036455903 0.17247429
0.0023875674 0.035748091 0.16737247
-0.0012387047 0.036796048 0.16766292
0.0012393948 0.035869341 0.16388953
-0.0022350671 0.036680628 0.16341007
-0.0076591023 0.036906119 0.16157442
-0.019948233 0.030865645 0.16129932
-0.022541627 0.029787388 0.16089144
-0.026801119 0.027583916 0.16100603
-0.029574508 0.025128372 0.16144407
-0.0025138212 0.036219321 0.15905491
-0.0065575037 0.036737427 0.15776843
-0.011225012 0.03603996 0.15800929
-0.01501979 0.035265744 0.15759695
-0.02005776 0.031448584 0.15719473
-0.023070682 0.030215189 0.15708947
-0.026461769 0.028204646 0.15650222
-0.029128756 0.025327053 0.15637571
-0.0075313626 0.036715768 0.15332615
-0.011252554 0.036148712 0.15281934
-0.015316119 0.035640862 0.15356076
-0.019226916 0.033199042 0.15278512
-0.022680204 0.030080527 0.15159777
-0.026037881 0.028153829 0.15193757
-0.011936448 0.037007254 0.14874801
-0.01534528 0.036142562 0.14842385
-0.018589664 0.034694068 0.14848521
-0.0073226918 0.013523002 0.18828315
-0.010089591 0.011647021 0.18766919
-0.00026898505 0.018877847 0.18754467
-0.0045273472 0.017144555 0.18738633
-0.0083248625 0.016624911 0.18812758
-0.012201269 0.01437391 0.18752295
0.0033270195 0.034727372 0.16065088
0.002025988 0.034842987 0.15648335
-0.00084022433 0.035914954 0.15653157
-0.0015314948 0.035732359 0.1522744
-0.0055276575 0.036301609 0.15055418
-0.023713179 0.028894782 0.14890233
-0.026318654 0.027462421 0.14899582
-0.028970458 0.024314569 0.1496433
-0.0074383738 0.036626436 0.14718893
-0.010360744 0.036861137 0.1463387
-0.019447273 0.032554336 0.14588681
-0.022196319 0.030594895 0.14607671
-0.026086356 0.028018896 0.14518645
-0.02842724 0.025603363 0.14522454
-0.011226729 0.036292955 0.14292082
-0.014939246 0.035676464 0.14238068
-0.018215606 0.033741865 0.14204246
-0.021639567 0.030712364 0.14167017
-0.026505252 0.028434873 0.14144024
-0.014726045 0.035496466 0.13844791
-0.017569797 0.034387227 0.13777244
-0.0021480422 0.012483672 0.18736738
-0.0062473146 0.010993622 0.1876578
-0.0099633522 0.0087843304 0.18704486
0.00019689277 0.035331845 0.14963794
0.0023398958 0.035342298 0.14469871
-0.00054083019 0.03524277 0.14542842
-0.0046265926 0.035572957 0.14496654
-0.029188089 0.024058081 0.14331859
-0.0012209089 0.035650983 0.1403217
-0.0052429019 0.035450835 0.13997096
-0.010149322 0.035566952 0.13952583
-0.018984273 0.0319722 0.13878113
-0.02197944 0.029455982 0.13829565
-0.02552785 0.027800541 0.13814348
-0.028761748 0.024485735 0.1382311
-0.0053732684 0.036472674 0.13490337
-0.0096190199 0.035556894 0.13514158
-0.014332251 0.034839384 0.13500282
-0.018145248 0.032567315 0.13462871
-0.020860616 0.029941093 0.13397139
-0.024937682 0.027711824 0.13339603
-0.028272871 0.025293594 0.13434085
-0.01041204 0.03613051 0.13064259
-0.014142196 0.034786828 0.13019431
-0.017480126 0.033439662 0.13037056
-0.021069633 0.030721767 0.13040769
-0.024656359 0.028987087 0.13055152
-0.015029721 0.035445943 0.12719959
-0.017458092 0.034395341 0.12707615
0.00031708414 0.0085309958 0.18729284
-0.0044527962 0.0067715207 0.18663007
0.00065038819 0.034890112 0.13825732
0.0031364998 0.034583315 0.13447404
-0.00019738544 0.035625301 0.13372809
-0.0035180049 0.036634188 0.13327947
-0.028635668 0.024040489 0.13184336
-0.00059780572 0.03592794 0.1287097
-0.0046578888 0.036365315 0.12866461
-0.008244494 0.036290314 0.12871262
-0.018479813 0.031576242 0.12796238
-0.020880677 0.030463545 0.12759134
-0.024822012 0.028005652 0.12771586
-0.027925279 0.024430024 0.12670028
-0.0046890527 0.036438778 0.12356657
-0.0094355075 0.036107045 0.12416697
-0.013791583 0.034960929 0.12399837
-0.017740106 0.033105355 0.12367976
-0.020653995 0.030259212 0.12279621
-0.024070656 0.028102752 0.12207574
-0.026523016 0.025845541 0.12226188
-0.0099814888 0.03617746 0.11865771
-0.013727097 0.034762457 0.1186353
-0.016928744 0.03317539 0.11894763
-0.02182439 0.02987672 0.1190173
-0.001581363 0.0016573645 0.18614683
-7.8529236e-05 0.0049930532 0.18621144
-0.0030019751 0.003356983 0.18580082
0.0010742676 0.03560856 0.12701404
0.0002038246 0.036191247 0.12303996
-0.0037122192 0.036593556 0.12094164
-0.028077116 0.024186909 0.12068897
-0.00048232172 0.036017023 0.11950809
-0.0044190576 0.036454894 0.11744368
-0.0072246548 0.036565486 0.1181398
-0.017771998 0.031925779 0.11626738
-0.020269809 0.030209146 0.11666089
-0.023959531 0.02821503 0.11639053
-0.027106082 0.025780154 0.11559725
-0.0054854471 0.036328111 0.11357009
-0.0090743825 0.036202766 0.11359811
-0.013438232 0.034497559 0.11352909
-0.016768703 0.032621723 0.11259043
-0.020327747 0.030244099 0.11213601
-0.023900039 0.0283897 0.11170268
-0.026741493 0.026458228 0.11194813
0.0015442054 -0.0041514826 0.18703094
0.00089579262 0.035359394 0.11608368
0.00047687348 0.035864167 0.11161196
-0.0033847876 0.03611625 0.11210984
-0.0084164254 0.035011921 0.1095143
-0.012229701 0.033674125 0.10958135
-0.017011464 0.031224629 0.10902697
-0.019976441 0.02963572 0.10862523
-0.023013469 0.028208528 0.10837942
-0.027329173 0.024780845 0.10997528
-0.0006239824 0.035899676 0.10687661
-0.0034158397 0.035587609 0.10650468
-0.0076708826 0.035270911 0.10626131
-0.012148593 0.033803828 0.10577983
-0.016247557 0.031840436 0.10566086
-0.020038975 0.029530572 0.10522717
-0.023403401 0.027600527 0.10508132
-0.026178995 0.024705987 0.10478753
-0.0048037963 0.035713453 0.10313928
-0.0077395556 0.035503529 0.10070401
-0.012366319 0.034749668 0.1007902
-0.016553098 0.032519419 0.10088301
-0.019738182 0.030024288 0.099843264
-0.023152556 0.02790384 0.10037887
-0.025595052 0.026059322 0.10155278
-0.0092901066 0.036437683 0.09732765
-0.012062462 0.035431124 0.09656918
-0.015850987 0.03431493 0.095893264
0.0026013027 -0.0067475471 0.18782461
0.0021685855 0.036041711 0.10905671
0.0014917804 0.035215013 0.10467851
-0.02743393 0.023288339 0.10274422
0.00022056233 0.035491515 0.099912584
-0.0030427324 0.035730161 0.1003989
-0.0064160675 0.036317836 0.10023886
-0.01749902 0.031519372 0.097726345
-0.023708101 0.027613061 0.098350585
-0.026675534 0.024845049 0.098670721
-0.0033718711 0.035790525 0.096081436
-0.007039804 0.035914429 0.09551239
-0.011673849 0.035424534 0.09394753
-0.01675521 0.032662265 0.094038248
-0.020138651 0.031098383 0.094276488
-0.02350923 0.028135341 0.09455359
-0.026284875 0.025818154 0.094371915
-0.0079086833 0.035380889 0.092047632
-0.011298395 0.03480985 0.090669274
-0.015917875 0.033607546 0.090137482
-0.020032104 0.031195711 0.0893929
-0.023280002 0.028268667 0.090896249
-0.017099552 0.033153523 0.087159336
0.003155278 0.034540053 0.10164183
0.0025374396 0.034976147 0.097868085
0.00089864712 0.035445459 0.093247056
-0.0024843076 0.035572879 0.09294939
-0.027136233 0.024460616 0.091517627
0.00057330728 0.034906678 0.088923931
-0.0028696796 0.034865294 0.088666677
-0.0067376695 0.0351413 0.088918746
-0.010284995 0.03437994 0.08799243
-0.022976113 0.027747931 0.087380171
-0.025806371 0.02437121 0.08695507
-0.0038558301 0.035231836 0.084652901
-0.0067911032 0.035248563 0.083625615
-0.011111015 0.034874525 0.084710836
-0.01481578 0.033608492 0.084573984
-0.018719986 0.030797683 0.083658278
-0.021848053 0.027872331 0.082714736
-0.0083005112 0.035597943 0.080427527
-0.011095934 0.034803405 0.079223514
-0.01493058 0.033447079 0.078980148
-0.017680075 0.032488696 0.079298854
-0.017519601 0.033295956 0.075445235
0.0028689737 0.033946715 0.086968064
-0.0011930279 0.034682631 0.085978448
-0.026215568 0.02323354 0.083549857
0.0010978496 0.034260236 0.083206713
-0.0020891055 0.03486114 0.08175689
-0.022718811 0.026699144 0.079910338
-0.02551062 0.023984356 0.080217183
-0.0023847865 0.035038218 0.077992141
-0.0062606409 0.035035856 0.077003837
-0.010059086 0.034850549 0.076341987
-0.013231121 0.033577565 0.076275706
-0.018708438 0.030315673 0.076833844
-0.021595418 0.028001644 0.076361835
-0.024472732 0.024925835 0.075425565
-0.0077252761 0.03484774 0.073548555
-0.010534144 0.033809021 0.072760284
-0.014457842 0.03275894 0.072508097
-0.018122822 0.031395692 0.072289109
-0.021066457 0.028644059 0.072017908
0.0025890199 0.033848397 0.075989246
-0.0016678795 0.035176072 0.075457931
-0.024982339 0.023802649 0.074274898
-0.0016424563 0.035312574 0.071350634
-0.0062142401 0.035015311 0.07117027
-0.0098121883 0.033930168 0.06989634
-0.01328716 0.032495156 0.069283247
-0.018266061 0.030183261 0.068903327
-0.021019049 0.027814027 0.069075704
-0.024429703 0.024709303 0.069917679
-0.0027152663 0.03563631 0.066890717
-0.0060089403 0.035428826 0.066830635
-0.010183968 0.03428271 0.065766931
-0.014002328 0.032719623 0.065663218
-0.017260646 0.030333512 0.065215468
-0.020964872 0.027495159 0.065132558
-0.023850214 0.025278917 0.065064847
-0.02655809 0.023343608 0.065613508
-0.0063586025 0.035749223 0.06195724
-0.010355021 0.035063744 0.06143111
-0.014290917 0.033748258 0.06159395
-0.017450891 0.030609509 0.060866296
-0.020132381 0.02862015 0.06135416
-0.010803981 0.034630589 0.058123887
-0.014329117 0.033451572 0.057450294
-0.016529672 0.032231726 0.05792284
0.0027399175 0.03381855 0.063429356
0.00014600158 0.034028716 0.063571036
-0.024548149 0.023508692 0.061680377
-0.0015615802 0.034567628 0.059679985
-0.0041601304 0.034904279 0.058135927
-0.018120652 0.028842935 0.057451606
-0.020934809 0.027131137 0.058238268
-0.023537554 0.024250736 0.057803512
-0.0026077135 0.035123002 0.054709733
-0.0056250049 0.034685098 0.054581821
-0.0093550161 0.033803832 0.054224849
-0.013317636 0.03292327 0.053842783
-0.017126445 0.029895499 0.05369091
-0.020000324 0.027612446 0.053552985
-0.022530373 0.025214061 0.053623438
-0.00986173 0.033925407 0.050457299
-0.013527365 0.032818697 0.050207019
-0.016005211 0.031643033 0.04895997
0.0012433995 0.033840861 0.057380319
-0.024034072 0.023297815 0.054467857
0.00096972007 0.033976953 0.053465009
-0.0037442762 0.034542345 0.051474392
-0.020937033 0.026416857 0.05072242
-0.02367256 0.024480768 0.051285803
-0.00077440683 0.03434822 0.048876882
-0.0047826115 0.034697372 0.04872036
-0.0092592556 0.033620149 0.047719836
-0.0131998 0.032321982 0.046525002
-0.017428309 0.029709134 0.047679424
-0.020211538 0.027854539 0.047542751
-0.023854107 0.024691081 0.046801746
-0.026939619 0.022373615 0.047595263
-0.0049043624 0.034351252 0.04443121
-0.008750149 0.033386476 0.044689357
-0.013095821 0.032326005 0.04336834
-0.016828282 0.030437121 0.042940021
-0.02035271 0.027997019 0.042967916
-0.02330062 0.025965106 0.043171465
-0.014149525 0.031500798 0.03984344
-0.01555695 0.031308785 0.03911972
-0.019069843 0.0288237 0.039101601
0.0029828809 0.033185594 0.049974084
0.0024875384 0.033338424 0.045699179
0.0013136808 0.033938933 0.041065037
-0.0024266792 0.03382723 0.041184425
-0.007537554 0.031984854 0.040032387
-0.021373367 0.026978238 0.040295839
-0.023968689 0.024438513 0.040111303
3.5921112e-06 0.034318276 0.036364794
-0.0029112296 0.033485569 0.036177456
-0.0075672274 0.032382883 0.036212325
-0.012358308 0.031524133 0.036863804
-0.016854784 0.029899307 0.03691709
-0.020142063 0.027499486 0.035885453
-0.022817479 0.024497408 0.034595966
-0.025363475 0.02217393 0.03514111
-0.0072402358 0.033084091 0.03169173
-0.011847989 0.032128248 0.031190217
-0.01619349 0.03026657 0.031610548
-0.019478478 0.027587494 0.031250477
-0.013266562 0.032176487 0.027520299
-0.015301378 0.031645801 0.026699483
0.0026580002 0.033924639 0.035678148
-0.0028063264 0.033963121 0.033876419
-0.024331391 0.023529241 0.032876849
0.0010694563 0.033511449 0.031348646
-0.0021997131 0.033377048 0.030382752
-0.0070205824 0.033467665 0.029647231
-0.016803492 0.029608056 0.028489113
-0.020386461 0.027140005 0.029570699
-0.023094412 0.024466697 0.029083014
-0.025869451 0.021928402 0.028750062
-0.0034546964 0.032562803 0.026426375
-0.0070562949 0.033095971 0.026547849
-0.011279412 0.033030998 0.025837541
-0.015049575 0.031184169 0.024679244
-0.018735353 0.027865499 0.026020527
-0.021851934 0.025386693 0.025611758
-0.02387356 0.022886463 0.024682939
-0.0079378765 0.03268563 0.021789491
-0.010978272 0.03263725 0.021799028
-0.014775973 0.030846091 0.02041471
0.0027629733 0.03296914 0.028384447
0.0026734984 0.032873571 0.02412945
-0.0016128002 0.032583296 0.023370326
-0.0051251873 0.03198174 0.022928476
-0.01852889 0.026814017 0.022203445
-0.021555262 0.024141423 0.02161485
-0.024826 0.021631664 0.021701038
0.0013862699 0.033586383 0.019746125
-0.001824786 0.03305003 0.01880759
-0.0062419646 0.032554299 0.018893838
-0.010252559 0.032096751 0.018334508
-0.014758863 0.029748691 0.017922997
-0.017851682 0.027315613 0.01815325
-0.021265145 0.024436172 0.017721117
-0.024776151 0.021782374 0.01718539
-0.0028525777 0.033344191 0.015529871
-0.0061098859 0.032614704 0.014603853
-0.010503069 0.032163031 0.013656259
-0.01421322 0.030460119 0.013662398
-0.017780365 0.027516415 0.012947142
-0.021341288 0.025389401 0.013562739
-0.023905411 0.023667475 0.013660014
-0.011202325 0.032997731 0.0089802742
-0.014049819 0.031889487 0.0082519054
-0.010954659 0.03381611 0.0068041086
-0.013619052 0.032980848 0.0048282146
0.0018779682 0.033123586 0.012648702
-0.0010517985 0.033038802 0.012401581
-0.0051781605 0.032467056 0.011953413
-0.022588711 0.024394803 0.010636687
-0.025189271 0.022089701 0.011223376
-0.0018965323 0.032350529 0.0084378123
-0.0057962877 0.031925898 0.007943511
-0.0090525215 0.032899849 0.0073451996
-0.015307306 0.029320173 0.0083719492
-0.017733395 0.027772658 0.0077741146
-0.021260671 0.025611861 0.0072622299
-0.024725061 0.023052135 0.0070996881
-0.010436696 0.03287369 0.0031404495
-0.014869823 0.031183751 0.0028026104
-0.017360907 0.028357783 0.0019958615
-0.011160767 0.033127755 -0.0014221668
-0.00066290423 0.032382015 0.0063713789
-0.0050961892 0.031120688 0.0040912032
-0.021951217 0.023294304 0.0028050542
-0.025758976 0.021168292 0.0043424368
0.0025304332 0.03321971 0.0015034676
-0.0010086261 0.03269282 0.0018966198
-0.0051577496 0.031966373 0.0021412969
-0.018616384 0.026667563 0.00049376488
-0.020736869 0.024292506 4.8875809e-05
-0.024250589 0.021515315 -0.00025701523
