# .PCD v0.7 - Point Cloud Data file format
VERSION 0.7
FIELDS x y z
SIZE 4 4 4
TYPE F F F
COUNT 1 1 1
WIDTH 465
HEIGHT 1
VIEWPOINT 0 0 0 1 0 0 0
POINTS 465
DATA ascii
0.034153219 0.012544945 0.18485561
0.032721885 0.01592854 0.18588015
0.030793259 0.019768139 0.1849758
0.037223358 0.009080952 0.18201298
0.036470406 0.012498239 0.18235028
0.034851052 0.016688472 0.18226445
0.032400344 0.02034479 0.18166783
0.037691183 0.010096388 0.17904538
0.037221499 0.012703651 0.17938188
0.03568371 0.016913241 0.17876679
0.034639016 0.019975115 0.17940071
0.03144192 0.00353113 0.18720019
0.031247821 0.0062866514 0.18775013
0.030494113 0.010530425 0.1878356
0.028862052 0.014672291 0.18781424
0.026580334 0.018330209 0.18770316
0.02417523 0.021522511 0.18747884
0.022048838 0.024461668 0.18627644
0.035948504 -0.0010070261 0.18388531
0.035640638 0.0033555152 0.18528122
0.034317143 0.0075216861 0.18577689
0.033113427 0.010700453 0.1861698
0.02853677 0.019544672 0.18619868
0.027637705 0.022843322 0.18491453
0.025060864 0.026640203 0.18404907
0.038109735 0.0044920556 0.1816498
0.03739275 0.0077452101 0.18179172
0.031659238 0.021532936 0.17943704
0.029998964 0.023668537 0.18057668
0.027368616 0.02743987 0.17965809
0.038962677 0.0053557931 0.17720056
0.038798098 0.008934251 0.17753425
0.037294693 0.012636145 0.17673761
0.035169072 0.016600905 0.17592961
0.032943852 0.020745628 0.17636412
0.03098448 0.023931995 0.17599598
0.028168879 0.027632698 0.1749182
0.025182128 0.030376196 0.17466503
0.038491368 0.0059892591 0.17317596
0.037762791 0.0087512145 0.17264959
0.036628567 0.011920827 0.17265481
0.034133896 0.016026242 0.1717312
0.032244135 0.02013609 0.17161107
0.030774806 0.023710199 0.17129764
0.029064592 0.026851492 0.17132419
0.020734321 0.013829034 0.1876407
0.030139586 0.00051350612 0.18655953
0.02786612 0.004837587 0.18770263
0.026566833 0.0085185021 0.18770701
0.024616471 0.012150921 0.18754318
0.022203945 0.016536638 0.18754047
0.020210009 0.019909656 0.18698582
0.034822952 -0.0028977254 0.18439907
0.03285975 0.00054860674 0.18566746
0.036113147 -0.001896346 0.17839849
0.036400277 0.0010708766 0.1784696
0.036767796 -0.00095223822 0.17407069
0.037048608 0.0017339773 0.17425209
0.03746336 0.0036513461 0.17022783
0.037094131 0.0077026351 0.16944653
0.035425559 0.011919959 0.16933763
0.033834711 0.01587235 0.16798934
0.031653959 0.019503603 0.16812298
0.030114144 0.023686972 0.16764811
0.027719745 0.026851688 0.16790116
0.024885474 0.029794587 0.16808647
0.037804894 0.0054003522 0.16618636
0.036917835 0.0078119761 0.16526628
0.035678819 0.011490776 0.16442487
0.034375515 0.015414088 0.16409832
0.032291956 0.019136716 0.16406476
0.029783873 0.023087339 0.16361481
0.027992317 0.026115276 0.16415864
0.025604643 0.029134929 0.16441077
0.035747796 0.012777037 0.16027141
0.035248384 0.015739914 0.16024685
0.034167334 0.018408665 0.15879267
0.024524637 -0.0023103887 0.18720683
0.023125602 0.0020815386 0.18731457
0.021630604 0.0064206524 0.18734318
0.019975713 0.010184417 0.18750438
0.017499758 0.013989661 0.18698019
0.016054943 0.018216832 0.18637508
0.027078494 -0.0005069701 0.18672878
0.036455907 -0.0030866982 0.17247429
0.035748091 -0.0023875693 0.16737247
0.036796048 0.0012387019 0.16766292
0.035869345 -0.0012393966 0.16388953
0.036680628 0.0022350652 0.16341007
0.036906123 0.0076591009 0.16157442
0.030865649 0.019948233 0.16129932
0.029787391 0.022541627 0.16089144
0.027583919 0.026801119 0.16100603
0.025128372 0.02957451 0.16144407
0.036219325 0.0025138194 0.15905491
0.036737427 0.0065575023 0.15776843
0.036039963 0.011225011 0.15800929
0.035265747 0.015019789 0.15759695
0.031448588 0.02005776 0.15719473
0.030215193 0.023070682 0.15708947
0.028204646 0.026461769 0.15650222
0.025327057 0.029128758 0.15637571
0.036715768 0.0075313612 0.15332615
0.036148716 0.011252552 0.15281934
0.035640862 0.015316118 0.15356076
0.033199042 0.019226914 0.15278512
0.030080531 0.022680204 0.15159777
0.028153829 0.026037879 0.15193757
0.037007257 0.011936446 0.14874801
0.036142565 0.015345279 0.14842385
0.034694072 0.018589662 0.14848521
0.013523003 0.0073226914 0.18828315
0.011647022 0.010089591 0.18766919
0.018877847 0.00026898412 0.18754467
0.017144557 0.0045273462 0.18738633
0.016624913 0.0083248625 0.18812758
0.014373912 0.012201268 0.18752295
0.034727372 -0.0033270214 0.16065088
0.034842987 -0.0020259898 0.15648335
0.035914954 0.00084022339 0.15653157
0.035732362 0.0015314929 0.1522744
0.036301613 0.0055276565 0.15055418
0.028894786 0.023713179 0.14890233
0.027462423 0.026318654 0.14899582
0.024314571 0.028970458 0.1496433
0.036626436 0.0074383724 0.14718893
0.036861137 0.010360742 0.1463387
0.03255434 0.019447271 0.14588681
0.030594895 0.022196319 0.14607671
0.028018899 0.026086356 0.14518645
0.025603363 0.02842724 0.14522454
0.036292959 0.011226728 0.14292082
0.035676468 0.014939245 0.14238068
0.033741869 0.018215604 0.14204246
0.030712368 0.021639565 0.14167017
0.028434873 0.02650525 0.14144024
0.03549647 0.014726043 0.13844791
0.034387231 0.017569795 0.13777244
0.012483673 0.002148042 0.18736738
0.010993623 0.0062473146 0.1876578
0.0087843314 0.0099633522 0.18704486
0.035331849 -0.00019689463 0.14963794
0.035342298 -0.0023398977 0.14469871
0.035242774 0.00054082833 0.14542842
0.035572957 0.0046265908 0.14496654
0.024058085 0.029188087 0.14331859
0.035650983 0.0012209071 0.1403217
0.035450835 0.0052428991 0.13997096
0.035566952 0.010149321 0.13952583
0.031972207 0.018984273 0.13878113
0.029455984 0.02197944 0.13829565
0.027800545 0.02552785 0.13814348
0.024485739 0.028761748 0.1382311
0.036472678 0.0053732665 0.13490337
0.035556898 0.0096190181 0.13514158
0.034839388 0.014332249 0.13500282
0.032567315 0.018145248 0.13462871
0.029941093 0.020860616 0.13397139
0.027711827 0.024937682 0.13339603
0.025293596 0.028272871 0.13434085
0.03613051 0.010412039 0.13064259
0.034786832 0.014142195 0.13019431
0.033439666 0.017480126 0.13037056
0.030721771 0.021069631 0.13040769
0.028987091 0.024656359 0.13055152
0.035445943 0.015029719 0.12719959
0.034395345 0.017458092 0.12707615
0.0085309958 -0.0003170846 0.18729284
0.0067715212 0.0044527962 0.18663007
0.034890115 -0.00065039005 0.13825732
0.034583315 -0.0031365016 0.13447404
0.035625305 0.00019738358 0.13372809
0.036634192 0.003518003 0.13327947
0.02404049 0.028635666 0.13184336
0.03592794 0.00059780385 0.1287097
0.036365315 0.0046578869 0.12866461
0.036290318 0.0082444912 0.12871262
0.031576242 0.018479813 0.12796238
0.030463545 0.020880677 0.12759134
0.028005652 0.024822012 0.12771586
0.024430025 0.027925279 0.12670028
0.036438782 0.0046890518 0.12356657
0.036107045 0.0094355065 0.12416697
0.034960929 0.013791582 0.12399837
0.033105358 0.017740106 0.12367976
0.030259212 0.020653993 0.12279621
0.028102752 0.024070656 0.12207574
0.025845544 0.026523016 0.12226188
0.036177464 0.0099814879 0.11865771
0.034762461 0.013727096 0.1186353
0.03317539 0.016928742 0.11894763
0.02987672 0.02182439 0.1190173
0.0016573647 0.001581363 0.18614683
0.0049930532 7.8528887e-05 0.18621144
0.0033569832 0.0030019751 0.18580082
0.03560856 -0.0010742694 0.12701404
0.036191247 -0.00020382646 0.12303996
0.036593556 0.0037122183 0.12094164
0.024186911 0.028077116 0.12068897
0.036017027 0.00048231985 0.11950809
0.036454897 0.0044190567 0.11744368
0.03656549 0.0072246534 0.1181398
0.031925783 0.017771997 0.11626738
0.03020915 0.020269809 0.11666089
0.028215036 0.023959529 0.11639053
0.025780158 0.027106082 0.11559725
0.036328111 0.0054854462 0.11357009
0.03620277 0.0090743816 0.11359811
0.034497563 0.01343823 0.11352909
0.032621726 0.016768701 0.11259043
0.030244103 0.020327747 0.11213601
0.0283897 0.023900039 0.11170268
0.026458232 0.026741493 0.11194813
-0.0041514826 -0.0015442052 0.18703094
0.035359394 -0.00089579448 0.11608368
0.035864167 -0.00047687534 0.11161196
0.03611625 0.0033847857 0.11210984
0.035011925 0.0084164236 0.1095143
0.033674128 0.0122297 0.10958135
0.031224629 0.017011464 0.10902697
0.029635724 0.019976441 0.10862523
0.028208528 0.023013469 0.10837942
0.024780847 0.027329173 0.10997528
0.03589968 0.00062398147 0.10687661
0.035587616 0.0034158379 0.10650468
0.035270911 0.0076708817 0.10626131
0.033803828 0.012148592 0.10577983
0.031840436 0.016247556 0.10566086
0.029530577 0.020038974 0.10522717
0.027600531 0.023403399 0.10508132
0.024705989 0.026178993 0.10478753
0.035713453 0.0048037944 0.10313928
0.035503533 0.0077395532 0.10070401
0.034749672 0.012366318 0.1007902
0.032519419 0.016553096 0.10088301
0.030024288 0.019738182 0.099843264
0.02790384 0.023152556 0.10037887
0.026059322 0.025595052 0.10155278
0.036437683 0.0092901057 0.09732765
0.035431128 0.012062461 0.09656918
0.034314934 0.015850987 0.095893264
-0.0067475471 -0.0026013025 0.18782461
0.036041714 -0.0021685874 0.10905671
0.035215016 -0.0014917823 0.10467851
0.023288341 0.02743393 0.10274422
0.035491515 -0.00022056419 0.099912584
0.035730161 0.0030427314 0.1003989
0.036317836 0.0064160661 0.10023886
0.031519372 0.017499018 0.097726345
0.027613064 0.023708101 0.098350585
0.024845051 0.026675534 0.098670721
0.035790525 0.0033718701 0.096081436
0.035914432 0.0070398026 0.09551239
0.035424538 0.011673847 0.09394753
0.032662265 0.01675521 0.094038248
0.031098384 0.020138649 0.094276488
0.028135341 0.02350923 0.09455359
0.025818158 0.026284875 0.094371915
0.035380892 0.0079086814 0.092047632
0.034809854 0.011298394 0.090669274
0.03360755 0.015917875 0.090137482
0.031195715 0.020032102 0.0893929
0.028268673 0.023280002 0.090896249
0.033153526 0.01709955 0.087159336
0.034540053 -0.0031552799 0.10164183
0.034976147 -0.0025374414 0.097868085
0.035445459 -0.00089864898 0.093247056
0.035572879 0.0024843058 0.09294939
0.024460617 0.027136233 0.091517627
0.034906682 -0.00057330914 0.088923931
0.034865297 0.0028696787 0.088666677
0.0351413 0.0067376671 0.088918746
0.034379944 0.010284994 0.08799243
0.027747933 0.022976113 0.087380171
0.024371212 0.025806371 0.08695507
0.035231836 0.0038558282 0.084652901
0.035248566 0.0067911018 0.083625615
0.034874529 0.011111014 0.084710836
0.033608496 0.014815779 0.084573984
0.030797686 0.018719986 0.083658278
0.027872335 0.021848051 0.082714736
0.035597943 0.0083005093 0.080427527
0.034803405 0.011095933 0.079223514
0.033447083 0.014930579 0.078980148
0.0324887 0.017680073 0.079298854
0.033295959 0.017519601 0.075445235
0.033946715 -0.0028689755 0.086968064
0.034682635 0.0011930261 0.085978448
0.023233544 0.026215568 0.083549857
0.034260239 -0.0010978514 0.083206713
0.03486114 0.0020891046 0.08175689
0.026699146 0.02271881 0.079910338
0.023984358 0.02551062 0.080217183
0.035038218 0.0023847856 0.077992141
0.035035856 0.0062606395 0.077003837
0.034850549 0.010059084 0.076341987
0.033577569 0.01323112 0.076275706
0.030315677 0.018708436 0.076833844
0.028001644 0.021595418 0.076361835
0.024925837 0.024472732 0.075425565
0.034847744 0.0077252737 0.073548555
0.033809021 0.010534143 0.072760284
0.03275894 0.014457842 0.072508097
0.031395692 0.018122822 0.072289109
0.028644063 0.021066457 0.072017908
0.033848397 -0.0025890218 0.075989246
0.035176076 0.0016678767 0.075457931
0.023802651 0.024982339 0.074274898
0.035312578 0.0016424544 0.071350634
0.035015315 0.0062142387 0.07117027
0.033930171 0.0098121874 0.06989634
0.032495156 0.013287159 0.069283247
0.030183265 0.018266059 0.068903327
0.027814029 0.021019049 0.069075704
0.024709305 0.024429703 0.069917679
0.035636313 0.0027152654 0.066890717
0.035428829 0.0060089389 0.066830635
0.03428271 0.010183966 0.065766931
0.032719627 0.014002326 0.065663218
0.030333512 0.017260646 0.065215468
0.027495161 0.020964872 0.065132558
0.025278918 0.023850214 0.065064847
0.02334361 0.02655809 0.065613508
0.035749223 0.0063586012 0.06195724
0.035063744 0.01035502 0.06143111
0.033748258 0.014290916 0.06159395
0.030609509 0.017450891 0.060866296
0.02862015 0.02013238 0.06135416
0.034630593 0.01080398 0.058123887
0.033451572 0.014329116 0.057450294
0.032231726 0.016529672 0.05792284
0.03381855 -0.0027399193 0.063429356
0.034028716 -0.00014600251 0.063571036
0.023508694 0.024548149 0.061680377
0.034567632 0.0015615793 0.059679985
0.034904283 0.0041601295 0.058135927
0.028842937 0.018120652 0.057451606
0.02713114 0.020934807 0.058238268
0.024250738 0.023537554 0.057803512
0.035123002 0.0026077116 0.054709733
0.034685101 0.0056250026 0.054581821
0.033803836 0.0093550161 0.054224849
0.03292327 0.013317634 0.053842783
0.029895499 0.017126445 0.05369091
0.027612448 0.020000322 0.053552985
0.025214063 0.022530373 0.053623438
0.033925407 0.0098617282 0.050457299
0.032818697 0.013527364 0.050207019
0.031643037 0.016005209 0.04895997
0.033840865 -0.0012434013 0.057380319
0.023297817 0.024034072 0.054467857
0.033976957 -0.00096972194 0.053465009
0.034542345 0.0037442744 0.051474392
0.026416861 0.020937033 0.05072242
0.024480769 0.02367256 0.051285803
0.034348223 0.00077440497 0.048876882
0.034697372 0.0047826096 0.04872036
0.033620149 0.0092592537 0.047719836
0.032321986 0.013199799 0.046525002
0.029709138 0.017428309 0.047679424
0.027854541 0.020211538 0.047542751
0.024691083 0.023854105 0.046801746
0.022373617 0.026939619 0.047595263
0.034351256 0.0049043605 0.04443121
0.033386476 0.0087501481 0.044689357
0.032326009 0.01309582 0.04336834
0.030437121 0.01682828 0.042940021
0.027997021 0.02035271 0.042967916
0.025965108 0.02330062 0.043171465
0.031500801 0.014149524 0.03984344
0.031308789 0.015556949 0.03911972
0.0288237 0.019069843 0.039101601
0.033185594 -0.0029828828 0.049974084
0.033338424 -0.0024875402 0.045699179
0.033938933 -0.0013136826 0.041065037
0.033827234 0.0024266774 0.041184425
0.031984854 0.0075375526 0.040032387
0.026978239 0.021373365 0.040295839
0.024438515 0.023968687 0.040111303
0.034318276 -3.5939738e-06 0.036364794
0.033485573 0.0029112278 0.036177456
0.032382883 0.007567226 0.036212325
0.031524137 0.012358306 0.036863804
0.02989931 0.016854782 0.03691709
0.027499488 0.020142062 0.035885453
0.024497412 0.022817479 0.034595966
0.022173932 0.025363475 0.03514111
0.033084095 0.0072402349 0.03169173
0.032128248 0.011847987 0.031190217
0.03026657 0.016193489 0.031610548
0.027587496 0.019478478 0.031250477
0.032176487 0.013266561 0.027520299
0.031645801 0.015301378 0.026699483
0.033924639 -0.0026580021 0.035678148
0.033963121 0.0028063245 0.033876419
0.023529243 0.024331391 0.032876849
0.033511452 -0.0010694582 0.031348646
0.033377051 0.0021997113 0.030382752
0.033467669 0.007020581 0.029647231
0.029608058 0.01680349 0.028489113
0.027140008 0.020386461 0.029570699
0.024466701 0.023094412 0.029083014
0.021928404 0.025869451 0.028750062
0.032562807 0.0034546945 0.026426375
0.033095974 0.0070562935 0.026547849
0.033030998 0.01127941 0.025837541
0.031184172 0.015049573 0.024679244
0.027865503 0.018735353 0.026020527
0.025386695 0.021851933 0.025611758
0.022886464 0.02387356 0.024682939
0.03268563 0.0079378756 0.021789491
0.03263725 0.010978271 0.021799028
0.030846095 0.014775972 0.02041471
0.03296914 -0.0027629752 0.028384447
0.032873575 -0.0026735002 0.02412945
0.0325833 0.0016127992 0.023370326
0.03198174 0.0051251859 0.022928476
0.026814019 0.01852889 0.022203445
0.024141425 0.021555262 0.02161485
0.021631666 0.024826 0.021701038
0.033586387 -0.0013862709 0.019746125
0.03305003 0.0018247841 0.01880759
0.032554302 0.0062419632 0.018893838
0.032096755 0.010252558 0.018334508
0.029748693 0.014758862 0.017922997
0.027315617 0.017851681 0.01815325
0.024436176 0.021265144 0.017721117
0.021782376 0.024776151 0.01718539
0.033344191 0.0028525759 0.015529871
0.032614708 0.0061098849 0.014603853
0.032163031 0.010503067 0.013656259
0.030460121 0.014213219 0.013662398
0.027516417 0.017780364 0.012947142
0.025389403 0.021341288 0.013562739
0.023667477 0.023905411 0.013660014
0.032997731 0.011202324 0.0089802742
0.031889491 0.014049818 0.0082519054
0.03381611 0.010954657 0.0068041086
0.032980848 0.01361905 0.0048282146
0.03312359 -0.0018779701 0.012648702
0.033038802 0.0010517975 0.012401581
0.032467056 0.0051781591 0.011953413
0.024394806 0.022588711 0.010636687
0.022089705 0.025189271 0.011223376
0.032350529 0.0018965304 0.0084378123
0.031925902 0.0057962863 0.007943511
0.032899849 0.0090525206 0.0073451996
0.029320175 0.015307305 0.0083719492
0.027772661 0.017733395 0.0077741146
0.025611863 0.021260671 0.0072622299
0.023052137 0.024725061 0.0070996881
0.032873694 0.010436695 0.0031404495
0.031183751 0.014869822 0.0028026104
0.028357785 0.017360905 0.0019958615
0.033127759 0.011160766 -0.0014221668
0.032382019 0.0006629033 0.0063713789
0.03112069 0.0050961878 0.0040912032
0.023294305 0.021951217 0.0028050542
0.021168293 0.025758976 0.0043424368
0.033219714 -0.0025304351 0.0015034676
0.03269282 0.0010086251 0.0018966198
0.031966373 0.0051577482 0.0021412969
0.026667565 0.018616384 0.00049376488
0.02429251 0.020736869 4.8875809e-05
0.021515317 0.024250589 -0.00025701523
