# .PCD v0.7 - Point Cloud Data file format
VERSION 0.7
FIELDS x y z
SIZE 4 4 4
TYPE F F F
COUNT 1 1 1
WIDTH 465
HEIGHT 1
VIEWPOINT 0 0 0 1 0 0 0
POINTS 465
DATA ascii
0.017825916 0.03852402 0.18485561
0.0138538 0.040134549 0.18588015
0.0090952609 0.041711025 0.1849758
0.0232163 0.038199104 0.18201298
0.01977603 0.04039707 0.18235028
0.014983364 0.042517934 0.18226445
0.0099453218 0.043512508 0.18166783
0.022764545 0.039422736 0.17904538
0.020226195 0.041186146 0.17938188
0.015484845 0.04339027 0.17876679
0.012097102 0.045054354 0.17940071
0.023025226 0.028851295 0.18720019
0.020591913 0.030964356 0.18775013
0.016469201 0.033843514 0.1878356
0.011705956 0.035913996 0.18781424
0.0068060076 0.037049308 0.18770316
0.0021883817 0.037698712 0.18747884
-0.0019904813 0.038369209 0.18627644
0.030486755 0.028825248 0.18388531
0.026633866 0.032170184 0.18528122
0.022105124 0.034515273 0.18577689
0.018489763 0.036144607 0.1861698
0.0074181031 0.039665166 0.18619868
0.0039551649 0.041644718 0.18491453
-0.0013028877 0.042651203 0.18404907
0.027733169 0.035144679 0.1816498
0.024457972 0.037236918 0.18179172
0.0083537744 0.043881301 0.17943704
0.0052223373 0.044273425 0.18057668
-5.8781356e-05 0.04521469 0.17965809
0.027724266 0.036560874 0.17720056
0.024636418 0.039377179 0.17753425
0.020342268 0.041190844 0.17673761
0.015317958 0.04270805 0.17592961
0.010063021 0.04429156 0.17636412
0.0058180047 0.045303777 0.17599598
0.00044232793 0.046033956 0.1749182
-0.0042848894 0.045833275 0.17466503
0.02681287 0.036694646 0.17317596
0.023933329 0.038372099 0.17264959
0.020382846 0.040051203 0.17265481
0.014938055 0.041380003 0.1717312
0.0099886274 0.043211482 0.17161107
0.0058280043 0.044947833 0.17129764
0.0018257145 0.046128415 0.17132419
0.0056965719 0.028513312 0.1876407
0.02444027 0.025287511 0.18655953
0.01899757 0.02697918 0.18770263
0.014889114 0.028943924 0.18770701
0.010283554 0.030331548 0.18754318
0.0046752892 0.031959347 0.18754047
0.0002477793 0.033097032 0.18698582
0.031117972 0.026336968 0.18439907
0.026655335 0.027560491 0.18566746
0.031356234 0.028227419 0.17839849
0.029145267 0.030912122 0.1784696
0.031117436 0.029546322 0.17407069
0.029133085 0.031994 0.17425209
0.027893486 0.033917896 0.17022783
0.024246747 0.036955446 0.16944653
0.019391131 0.039058063 0.16933763
0.014818193 0.041006234 0.16798934
0.010023534 0.042202834 0.16812298
0.0053021489 0.044383656 0.16764811
0.00071611349 0.045019135 0.16790116
-0.0040498106 0.045108747 0.16808647
0.026732381 0.035642508 0.16618636
0.024011111 0.036900215 0.16526628
0.019954117 0.03891293 0.16442487
0.01564238 0.041074324 0.16409832
0.010852519 0.042426489 0.16406476
0.0055243578 0.043616526 0.16361481
0.0015484821 0.044636488 0.16415864
-0.0029123351 0.045157842 0.16441077
0.018949911 0.040030945 0.16027141
0.016093664 0.042063192 0.16024685
0.013000239 0.043372985 0.15879267
0.022137767 0.018325819 0.18720683
0.017360467 0.020794829 0.18731457
0.012547568 0.023141105 0.18734318
0.0080774073 0.024880836 0.18750438
0.0028956826 0.025977444 0.18698019
-0.0017834669 0.02827277 0.18637508
0.022756845 0.021920387 0.18672878
0.032620981 0.027528191 0.17247429
0.031460315 0.027521024 0.16737247
0.029333312 0.031377066 0.16766292
0.030613149 0.028568249 0.16388953
0.028416138 0.032103807 0.16341007
0.02412756 0.036764428 0.16157442
0.009006409 0.04191931 0.16129932
0.0059774518 0.043169238 0.16089144
0.00064577907 0.044865366 0.16100603
-0.0036678743 0.045127574 0.16144407
0.027805623 0.031953212 0.15905491
0.024897167 0.035716489 0.15776843
0.020471288 0.038991611 0.15800929
0.016702063 0.041483447 0.15759695
0.0093969516 0.042490568 0.15719473
0.0058939215 0.043958601 0.15708947
0.0014378009 0.045097493 0.15650222
-0.0031362446 0.044923753 0.15637571
0.024075909 0.036502019 0.15332615
0.020538287 0.039104052 0.15281934
0.016767057 0.04203736 0.15356076
0.01152642 0.043249212 0.15278512
0.0061049573 0.043525383 0.15159777
0.0017455705 0.044705879 0.15193757
0.020682361 0.040376492 0.14874801
0.017156886 0.042475305 0.14842385
0.01328546 0.043956835 0.14848521
0.0051149959 0.017196819 0.18828315
0.0012848154 0.017931791 0.18766919
0.015351529 0.015795331 0.18754467
0.010408668 0.017878408 0.18738633
0.0068471916 0.020582512 0.18812758
0.0017923391 0.021923404 0.18752295
0.031393275 0.025903968 0.16065088
0.030415354 0.027072644 0.15648335
0.028935175 0.030321471 0.15653157
0.028214276 0.030741112 0.1522744
0.025387218 0.034507386 0.15055418
0.0042746076 0.043399356 0.14890233
0.00094356015 0.044367123 0.14899582
-0.0038409103 0.043957904 0.1496433
0.024078924 0.03635161 0.14718893
0.021861712 0.038956065 0.1463387
0.010812778 0.042899139 0.14588681
0.0069284737 0.043550529 0.14607671
0.0015942659 0.044634555 0.14518645
-0.0023295768 0.044572975 0.14522454
0.020678587 0.039201744 0.14292082
0.017107338 0.041755833 0.14238068
0.012808516 0.042862725 0.14204246
0.007484681 0.04318814 0.14167017
0.0015918585 0.04532329 0.14144024
0.01713473 0.041431457 0.13844791
0.013873677 0.042862356 0.13777244
0.0085264603 0.012070549 0.18736738
0.003915505 0.014223048 0.1876578
-0.00097264303 0.015466049 0.18704486
0.029309718 0.028984856 0.14963794
0.031086227 0.027225591 0.14469871
0.028627641 0.02951996 0.14542842
0.025529452 0.033162933 0.14496654
-0.004232035 0.043925852 0.14331859
0.028403364 0.030417755 0.1403217
0.024920274 0.033570617 0.13997096
0.020968476 0.037714001 0.13952583
0.010714497 0.042036947 0.13878113
0.0061678365 0.042432055 0.13829565
0.0018748781 0.043993682 0.13814348
-0.0035275277 0.043926932 0.1382311
0.025655705 0.034521144 0.13490337
0.02139766 0.037268229 0.13514158
0.016917527 0.04056453 0.13500282
0.011897599 0.041835729 0.13462871
0.0074910121 0.04190927 0.13397139
0.002288552 0.043433625 0.13339603
-0.0024577742 0.044190079 0.13434085
0.021216659 0.038395643 0.13064259
0.017030956 0.040364385 0.13019431
0.013165948 0.042006679 0.13037056
0.0079626087 0.042725727 0.13040769
0.0035726717 0.044253588 0.13055152
0.016842525 0.041640297 0.12719959
0.013972519 0.042776898 0.12707615
0.0072992938 0.0067761303 0.18729284
0.0019128509 0.009259589 0.18663007
0.02931942 0.028246328 0.13825732
0.03111726 0.025942298 0.13447404
0.029226543 0.029552208 0.13372809
0.027319461 0.033123869 0.13327947
-0.0037908256 0.043455612 0.13184336
0.029145874 0.030132201 0.1287097
0.026157293 0.033842415 0.12866461
0.023136627 0.036739346 0.12871262
0.010804006 0.041294135 0.12796238
0.0079054637 0.042356819 0.12759134
0.0026263706 0.043580595 0.12771586
-0.0028834371 0.043190919 0.12670028
0.02619219 0.03392873 0.12356657
0.022002898 0.037570689 0.12416697
0.017463818 0.040218767 0.12399837
0.012675688 0.041945368 0.12367976
0.007923902 0.042001251 0.12279621
0.0033263117 0.043040868 0.12207574
-0.00055888481 0.043201856 0.12226188
0.021610575 0.038079191 0.11865771
0.017353289 0.040001839 0.1186353
0.013402804 0.041333798 0.11894763
0.0066428352 0.042651236 0.1190173
6.2698207e-05 0.0026718141 0.18614683
0.0040542753 0.0041838419 0.18621144
0.00029286684 0.0052458728 0.18580082
0.030261792 0.028489336 0.12701404
0.030024406 0.029688109 0.12303996
0.02712572 0.03325057 0.12094164
-0.0032092528 0.043115623 0.12068897
0.029314637 0.030110423 0.11950809
0.026428219 0.03371929 0.11744368
0.024204953 0.036125023 0.1181398
0.011676276 0.040998571 0.11626738
0.0081995372 0.041643016 0.11666089
0.0035106121 0.043041818 0.11639053
-0.0010938309 0.043628924 0.11559725
0.0254439 0.034494422 0.11357009
0.022379776 0.037351742 0.11359811
0.017373061 0.039545011 0.11352909
0.013078079 0.04074502 0.11259043
0.0081805764 0.041719645 0.11213601
0.0037037823 0.043136831 0.11170268
-0.00023367722 0.043887533 0.11194813
-0.0021508939 -0.0046987026 0.18703094
0.029909004 0.028431017 0.11608368
0.029979831 0.029193025 0.11161196
0.027002081 0.03258669 0.11210984
0.021940168 0.035826556 0.1095143
0.01769075 0.03786872 0.10958135
0.011725264 0.039792743 0.10902697
0.0079685021 0.040927947 0.10862523
0.0042857081 0.042255994 0.10837942
-0.0021022605 0.042988572 0.10997528
0.029100966 0.030130479 0.10687661
0.026540361 0.032176204 0.10650468
0.022768863 0.035425171 0.10626131
0.017864661 0.037908815 0.10577983
0.01286347 0.039670568 0.10566086
0.0078301718 0.040892791 0.10522717
0.0034624562 0.042076092 0.10508132
-0.0012151664 0.041977968 0.10478753
0.025499165 0.033425022 0.10313928
0.022904115 0.035673723 0.10070401
0.018465325 0.03886871 0.1007902
0.013171545 0.040482763 0.10088301
0.0084856069 0.041051943 0.099843264
0.0039196108 0.042119376 0.10037887
0.00038300361 0.042612683 0.10155278
0.022395611 0.0377235 0.09732765
0.019278167 0.039180208 0.09656918
0.015231978 0.041384771 0.095893264
-0.0034204775 -0.0077124075 0.18782461
0.03152189 0.027943902 0.10905671
0.030281562 0.027820246 0.10467851
-0.0034199348 0.041843738 0.10274422
0.029460963 0.029097049 0.099912584
0.026965752 0.031986002 0.1003989
0.024667703 0.035253674 0.10023886
0.011566202 0.040438108 0.097726345
0.0032214299 0.042337798 0.098350585
-0.0015100706 0.042502314 0.098670721
0.026744027 0.032307327 0.096081436
0.023820352 0.035435431 0.09551239
0.019593321 0.038854185 0.09394753
0.01312265 0.040767334 0.094038248
0.0090413187 0.042268395 0.094276488
0.0038163494 0.042604599 0.09455359
-0.00038501993 0.042982809 0.094371915
0.022663414 0.035712074 0.092047632
0.019395962 0.03803736 0.090669274
0.014593234 0.040856384 0.090137482
0.0092095118 0.042260792 0.0893929
0.0041154427 0.042525481 0.090896249
0.013243854 0.041456673 0.087159336
0.031097062 0.025891116 0.10164183
0.03094713 0.026760567 0.097868085
0.029982358 0.028499663 0.093247056
0.027296681 0.031395577 0.09294939
-0.0022072671 0.042565234 0.091517627
0.029269498 0.028323587 0.088923931
0.026395038 0.031129763 0.088666677
0.0234318 0.034548383 0.088918746
0.01987732 0.03684669 0.08799243
0.0039365515 0.041845202 0.087380171
-0.0011839466 0.041394398 0.08695507
0.025883887 0.032245677 0.084652901
0.023476211 0.034680955 0.083625615
0.019603899 0.037936132 0.084710836
0.015503198 0.039947987 0.084573984
0.0099635962 0.040849999 0.083658278
0.0049697822 0.041017227 0.082714736
0.022519233 0.036214374 0.080427527
0.01955767 0.037865024 0.079223514
0.015275336 0.03990953 0.078980148
0.012216495 0.041387126 0.079298854
0.013014831 0.041920695 0.075445235
0.030371398 0.02563783 0.086968064
0.027627517 0.029595908 0.085978448
-0.0024600457 0.040793434 0.083549857
0.029168937 0.027357573 0.083206713
0.027035549 0.030482395 0.08175689
0.0032836096 0.040767737 0.079910338
-0.0012590997 0.040831272 0.080217183
0.026937708 0.030872401 0.077992141
0.02373834 0.034067869 0.077003837
0.020451915 0.037048552 0.076341987
0.016784964 0.038615197 0.076275706
0.0095754843 0.040442828 0.076833844
0.0052848672 0.040915489 0.076361835
0.00037379377 0.04075174 0.075425565
0.022374893 0.035120942 0.073548555
0.019200796 0.036581248 0.072760284
0.015097637 0.038951855 0.072508097
0.010949561 0.040850691 0.072289109
0.0062512066 0.041009083 0.072017908
0.030059338 0.025787668 0.075989246
0.027642854 0.030394709 0.075457931
-0.00097319391 0.040245563 0.074274898
0.027776435 0.030486345 0.071350634
0.023759674 0.034012642 0.07117027
0.019896323 0.036085602 0.06989634
0.015845791 0.037768483 0.069283247
0.009831192 0.039968655 0.068903327
0.0056055728 0.040285233 0.069075704
0.00023065973 0.040537611 0.069917679
0.027158476 0.031638436 0.066890717
0.024270169 0.034184411 0.066830635
0.019880453 0.036683135 0.065766931
0.015440982 0.038543638 0.065663218
0.010784565 0.039263174 0.065215468
0.0053872149 0.039977491 0.065132558
0.0011786213 0.040529467 0.065064847
-0.0026518088 0.041166801 0.065613508
0.024246026 0.034737181 0.06195724
0.020383658 0.037468567 0.06143111
0.016051488 0.039630298 0.06159395
0.010855308 0.039647806 0.060866296
0.0070020538 0.040218785 0.06135416
0.01965595 0.037481606 0.058123887
0.015775222 0.039417055 0.057450294
0.012953536 0.040226098 0.05792284
0.030159201 0.025638564 0.063429356
0.028192705 0.027951811 0.063571036
-0.00085750595 0.039644871 0.061680377
0.027228605 0.029805075 0.059679985
0.025362631 0.032226492 0.058135927
0.0088454336 0.038742982 0.057451606
0.0051117139 0.039652385 0.058238268
0.00058834907 0.039423328 0.057803512
0.026823748 0.03112625 0.054709733
0.023973357 0.033254139 0.054581821
0.020169247 0.035604235 0.054224849
0.016173825 0.038146794 0.053842783
0.010533934 0.038791124 0.05369091
0.0062796827 0.03927853 0.053552985
0.0022139298 0.039387148 0.053623438
0.019851524 0.036122542 0.050457299
0.015914539 0.038233552 0.050207019
0.012900549 0.039307795 0.04895997
0.028943041 0.026891531 0.057380319
-0.00060737785 0.039046817 0.054467857
0.028829537 0.027229577 0.053465009
0.025407109 0.031584848 0.051474392
0.0045206277 0.039064966 0.05072242
0.00066673849 0.039724469 0.051285803
0.027696986 0.028974686 0.048876882
0.024678418 0.032569319 0.04872036
0.020096712 0.035373699 0.047719836
0.015774999 0.037553549 0.046525002
0.010131167 0.038886409 0.047679424
0.0063051563 0.039652489 0.047542751
0.00069047138 0.040047731 0.046801746
-0.0037667584 0.040681344 0.047595263
0.024292447 0.032384232 0.04443121
0.020323936 0.034760941 0.044689357
0.015864097 0.037471097 0.04336834
0.011226721 0.038991962 0.042940021
0.0063062375 0.03988649 0.042967916
0.0021980908 0.04064215 0.043171465
0.014314071 0.037659593 0.03984344
0.012994605 0.038662262 0.03911972
0.0080465227 0.039510157 0.039101601
0.029837471 0.024915963 0.049974084
0.029554911 0.025450677 0.045699179
0.029081922 0.026914459 0.041065037
0.02590414 0.029907949 0.041184425
0.020167997 0.032604326 0.040032387
0.0046237856 0.039888036 0.040295839
0.00038758852 0.039933905 0.040111303
0.028314099 0.028308168 0.036364794
0.025222547 0.030025827 0.036177456
0.020471875 0.032957159 0.036212325
0.015811002 0.036201164 0.036863804
0.010761186 0.038570158 0.03691709
0.006069568 0.039302271 0.035885453
0.0013858732 0.039032795 0.034595966
-0.0026312387 0.039216358 0.03514111
0.021320097 0.033265874 0.03169173
0.016730364 0.036278542 0.031190217
0.011609701 0.038327593 0.031610548
0.0066895997 0.038827445 0.031250477
0.015599893 0.037488598 0.027520299
0.013483461 0.038729444 0.026699483
0.030179139 0.025793657 0.035678148
0.025703046 0.030333243 0.033876419
-0.00066173635 0.039483007 0.032876849
0.028527794 0.026763279 0.031348646
0.025719991 0.029349331 0.030382752
0.021817733 0.033401098 0.029647231
0.01056323 0.038287573 0.028489113
0.0055713924 0.039207336 0.029570699
0.0011320803 0.039235916 0.029083014
-0.0032511996 0.039431222 0.028750062
0.024012966 0.029712921 0.026426375
0.021481641 0.033123929 0.026547849
0.017944146 0.036554221 0.025837541
0.013310364 0.038140893 0.024679244
0.0075319912 0.038443744 0.026020527
0.0029160306 0.038969878 0.025611758
-0.00081431307 0.038575053 0.024682939
0.020415857 0.033512682 0.021789491
0.017867748 0.03598097 0.021799028
0.013257174 0.037636284 0.02041471
0.029477492 0.024918813 0.028384447
0.029324839 0.02491379 0.02412945
0.025549358 0.02821034 0.023370326
0.022155527 0.030611651 0.022928476
0.0068348832 0.03740599 0.022203445
0.0021334775 0.03769784 0.02161485
-0.0026351912 0.038325619 0.021701038
0.028850969 0.026563736 0.019746125
0.025759514 0.028770255 0.01880759
0.02170657 0.032005284 0.018893838
0.018020542 0.034936398 0.018334508
0.01236598 0.03671686 0.017922997
0.0078073456 0.037261114 0.01815325
0.0026159668 0.037701663 0.017721117
-0.0024697389 0.038408823 0.01718539
0.025154298 0.029860808 0.015529871
0.021865362 0.031946152 0.014603853
0.01786856 0.035197735 0.013656259
0.01340301 0.036853623 0.013662398
0.0080318321 0.037367936 0.012947142
0.0033395234 0.03855085 0.013562739
-0.00019628275 0.039245628 0.013660014
0.017980294 0.036463186 0.0089802742
0.014716978 0.037897989 0.0082519054
0.018859738 0.036933996 0.0068041086
0.015972668 0.038442958 0.0048282146
0.028874811 0.025776319 0.012648702
0.026387934 0.028123312 0.012401581
0.022512192 0.031055719 0.011953413
0.0014899531 0.038759422 0.010636687
-0.0025570132 0.039003164 0.011223376
0.025123268 0.028252382 0.0084378123
0.021555832 0.031119214 0.007943511
0.019673042 0.034608938 0.0073451996
0.011560028 0.036815792 0.0083719492
0.0082819723 0.037540577 0.0077741146
0.003589551 0.038667865 0.0072622299
-0.0013800915 0.039414175 0.0070996881
0.018509578 0.035729244 0.0031404495
0.013458304 0.037992258 0.0028026104
0.0090719648 0.037715994 0.0019958615
0.018121842 0.036536165 -0.0014221668
0.026166933 0.027260669 0.0063713789
0.02146912 0.0298774 0.0040912032
0.0011079907 0.03732565 0.0028050542
-0.0037871199 0.038713019 0.0043424368
0.029492367 0.02531736 0.0015034676
0.026138127 0.027802274 0.0018966198
0.022115987 0.030625835 0.0021412969
0.0066418871 0.037357353 0.00049376488
0.0029332535 0.037147336 4.8875809e-05
-0.0022564828 0.037754945 -0.00025701523
