# .PCD v0.7 - Point Cloud Data file format
VERSION 0.7
FIELDS x y z
SIZE 4 4 4
TYPE F F F
COUNT 1 1 1
WIDTH 465
HEIGHT 1
VIEWPOINT 0 0 0 1 0 0 0
POINTS 465
DATA ascii
-0.034153216 -0.012544953 0.18485561
-0.032721877 -0.015928548 0.18588015
-0.030793251 -0.019768145 0.1849758
-0.037223354 -0.0090809604 0.18201298
-0.036470402 -0.012498247 0.18235028
-0.034851048 -0.016688479 0.18226445
-0.032400336 -0.020344796 0.18166783
-0.03769118 -0.010096397 0.17904538
-0.037221499 -0.012703659 0.17938188
-0.035683703 -0.01691325 0.17876679
-0.034639008 -0.019975122 0.17940071
-0.03144192 -0.0035311375 0.18720019
-0.031247819 -0.0062866588 0.18775013
-0.030494111 -0.010530433 0.1878356
-0.028862048 -0.014672296 0.18781424
-0.026580328 -0.018330215 0.18770316
-0.024175223 -0.021522518 0.18747884
-0.022048835 -0.024461674 0.18627644
-0.035948504 0.0010070186 0.18388531
-0.035640635 -0.0033555245 0.18528122
-0.03431714 -0.0075216941 0.18577689
-0.033113424 -0.010700461 0.1861698
-0.028536767 -0.01954468 0.18619868
-0.0276377 -0.022843327 0.18491453
-0.025060859 -0.026640207 0.18404907
-0.038109735 -0.004492064 0.1816498
-0.03739275 -0.0077452194 0.18179172
-0.031659234 -0.021532943 0.17943704
-0.029998958 -0.023668543 0.18057668
-0.027368609 -0.027439874 0.17965809
-0.038962677 -0.0053558014 0.17720056
-0.038798098 -0.0089342603 0.17753425
-0.037294693 -0.012636154 0.17673761
-0.035169069 -0.016600912 0.17592961
-0.032943845 -0.020745635 0.17636412
-0.030984474 -0.023932002 0.17599598
-0.028168872 -0.027632702 0.1749182
-0.025182121 -0.030376203 0.17466503
-0.038491368 -0.0059892694 0.17317596
-0.037762791 -0.0087512229 0.17264959
-0.036628563 -0.011920835 0.17265481
-0.034133893 -0.016026249 0.1717312
-0.032244127 -0.020136097 0.17161107
-0.0307748 -0.023710204 0.17129764
-0.029064585 -0.026851498 0.17132419
-0.020734316 -0.013829038 0.1876407
-0.030139584 -0.00051351264 0.18655953
-0.027866118 -0.0048375931 0.18770263
-0.026566831 -0.0085185086 0.18770701
-0.024616469 -0.012150927 0.18754318
-0.022203941 -0.016536642 0.18754047
-0.020210003 -0.019909659 0.18698582
-0.034822952 0.0028977171 0.18439907
-0.03285975 -0.00054861512 0.18566746
-0.036113147 0.0018963376 0.17839849
-0.036400277 -0.0010708859 0.1784696
-0.036767792 0.0009522289 0.17407069
-0.037048608 -0.0017339848 0.17425209
-0.037463356 -0.0036513545 0.17022783
-0.037094127 -0.0077026435 0.16944653
-0.035425559 -0.011919969 0.16933763
-0.033834707 -0.015872357 0.16798934
-0.031653956 -0.019503608 0.16812298
-0.030114138 -0.023686979 0.16764811
-0.027719738 -0.026851693 0.16790116
-0.024885466 -0.029794592 0.16808647
-0.037804894 -0.0054003615 0.16618636
-0.036917835 -0.0078119845 0.16526628
-0.035678815 -0.011490784 0.16442487
-0.034375511 -0.015414096 0.16409832
-0.032291945 -0.019136723 0.16406476
-0.029783867 -0.023087345 0.16361481
-0.027992312 -0.026115283 0.16415864
-0.025604635 -0.029134933 0.16441077
-0.035747793 -0.012777044 0.16027141
-0.035248376 -0.015739921 0.16024685
-0.034167331 -0.018408675 0.15879267
-0.024524637 0.0023103831 0.18720683
-0.023125602 -0.0020815441 0.18731457
-0.021630602 -0.006420658 0.18734318
-0.019975711 -0.010184422 0.18750438
-0.017499756 -0.013989665 0.18698019
-0.016054936 -0.018216833 0.18637508
-0.027078494 0.00050696358 0.18672878
-0.036455907 0.0030866889 0.17247429
-0.035748091 0.0023875609 0.16737247
-0.036796045 -0.0012387112 0.16766292
-0.035869341 0.0012393882 0.16388953
-0.036680628 -0.0022350736 0.16341007
-0.036906119 -0.0076591093 0.16157442
-0.030865643 -0.019948239 0.16129932
-0.029787388 -0.022541633 0.16089144
-0.027583914 -0.026801124 0.16100603
-0.025128365 -0.029574513 0.16144407
-0.036219325 -0.0025138278 0.15905491
-0.036737423 -0.0065575107 0.15776843
-0.036039956 -0.011225019 0.15800929
-0.035265744 -0.015019797 0.15759695
-0.031448577 -0.020057766 0.15719473
-0.030215187 -0.023070689 0.15708947
-0.02820464 -0.026461776 0.15650222
-0.025327049 -0.029128764 0.15637571
-0.036715765 -0.0075313696 0.15332615
-0.036148712 -0.011252561 0.15281934
-0.035640858 -0.015316126 0.15356076
-0.033199038 -0.019226922 0.15278512
-0.030080521 -0.022680212 0.15159777
-0.028153824 -0.026037887 0.15193757
-0.037007254 -0.011936454 0.14874801
-0.036142562 -0.015345288 0.14842385
-0.034694068 -0.01858967 0.14848521
-0.013523 -0.0073226942 0.18828315
-0.01164702 -0.010089594 0.18766919
-0.018877845 -0.00026898878 0.18754467
-0.017144555 -0.0045273504 0.18738633
-0.016624911 -0.0083248662 0.18812758
-0.014373907 -0.012201272 0.18752295
-0.034727372 0.003327013 0.16065088
-0.034842987 0.0020259814 0.15648335
-0.035914954 -0.00084023178 0.15653157
-0.035732359 -0.0015315013 0.1522744
-0.036301609 -0.0055276649 0.15055418
-0.028894778 -0.023713186 0.14890233
-0.027462415 -0.02631866 0.14899582
-0.024314564 -0.028970461 0.1496433
-0.036626436 -0.0074383803 0.14718893
-0.036861133 -0.010360751 0.1463387
-0.032554332 -0.019447278 0.14588681
-0.030594889 -0.022196325 0.14607671
-0.02801889 -0.026086362 0.14518645
-0.025603358 -0.028427243 0.14522454
-0.036292959 -0.011226735 0.14292082
-0.035676464 -0.014939253 0.14238068
-0.033741865 -0.018215612 0.14204246
-0.030712362 -0.021639572 0.14167017
-0.028434865 -0.026505258 0.14144024
-0.035496466 -0.014726051 0.13844791
-0.034387223 -0.017569803 0.13777244
-0.012483671 -0.0021480448 0.18736738
-0.010993622 -0.006247317 0.1876578
-0.0087843286 -0.0099633541 0.18704486
-0.035331849 0.00019688532 0.14963794
-0.035342298 0.0023398893 0.14469871
-0.03524277 -0.00054083671 0.14542842
-0.035572957 -0.0046265982 0.14496654
-0.024058076 -0.029188093 0.14331859
-0.035650983 -0.0012209145 0.1403217
-0.035450831 -0.0052429084 0.13997096
-0.035566948 -0.010149328 0.13952583
-0.0319722 -0.018984281 0.13878113
-0.029455978 -0.021979446 0.13829565
-0.02780054 -0.025527855 0.13814348
-0.02448573 -0.028761752 0.1382311
-0.036472674 -0.0053732758 0.13490337
-0.035556898 -0.0096190255 0.13514158
-0.034839384 -0.014332257 0.13500282
-0.032567311 -0.018145256 0.13462871
-0.029941088 -0.020860622 0.13397139
-0.027711818 -0.024937687 0.13339603
-0.025293589 -0.028272875 0.13434085
-0.03613051 -0.010412047 0.13064259
-0.034786828 -0.014142203 0.13019431
-0.033439659 -0.017480131 0.13037056
-0.030721765 -0.021069638 0.13040769
-0.028987084 -0.024656365 0.13055152
-0.03544594 -0.015029727 0.12719959
-0.034395341 -0.0174581 0.12707615
-0.0085309958 0.00031708251 0.18729284
-0.0067715198 -0.0044527976 0.18663007
-0.034890115 0.00065038167 0.13825732
-0.034583315 0.0031364933 0.13447404
-0.035625301 -0.00019739196 0.13372809
-0.036634188 -0.0035180124 0.13327947
-0.024040483 -0.028635671 0.13184336
-0.03592794 -0.00059781224 0.1287097
-0.036365312 -0.0046578953 0.12866461
-0.036290314 -0.0082444996 0.12871262
-0.031576239 -0.01847982 0.12796238
-0.030463539 -0.020880684 0.12759134
-0.028005645 -0.024822015 0.12771586
-0.024430018 -0.027925286 0.12670028
-0.036438782 -0.0046890602 0.12356657
-0.036107041 -0.009435514 0.12416697
-0.034960926 -0.013791589 0.12399837
-0.033105355 -0.017740112 0.12367976
-0.030259207 -0.020654 0.12279621
-0.028102746 -0.024070662 0.12207574
-0.025845539 -0.026523022 0.12226188
-0.036177456 -0.0099814972 0.11865771
-0.034762457 -0.013727103 0.1186353
-0.033175386 -0.016928749 0.11894763
-0.029876715 -0.021824397 0.1190173
-0.0016573642 -0.0015813634 0.18614683
-0.0049930532 -7.8530167e-05 0.18621144
-0.0033569823 -0.0030019758 0.18580082
-0.03560856 0.001074261 0.12701404
-0.036191247 0.00020381715 0.12303996
-0.036593556 -0.0037122266 0.12094164
-0.024186905 -0.028077122 0.12068897
-0.036017023 -0.00048232917 0.11950809
-0.036454894 -0.0044190651 0.11744368
-0.036565483 -0.0072246618 0.1181398
-0.031925779 -0.017772004 0.11626738
-0.030209141 -0.020269815 0.11666089
-0.028215028 -0.023959536 0.11639053
-0.025780153 -0.027106088 0.11559725
-0.036328107 -0.0054854546 0.11357009
-0.036202766 -0.0090743899 0.11359811
-0.034497555 -0.013438239 0.11352909
-0.032621723 -0.016768709 0.11259043
-0.030244097 -0.020327752 0.11213601
-0.028389694 -0.023900047 0.11170268
-0.026458226 -0.026741497 0.11194813
0.0041514821 0.0015442062 0.18703094
-0.03535939 0.0008957861 0.11608368
-0.035864167 0.00047686603 0.11161196
-0.03611625 -0.003384795 0.11210984
-0.035011921 -0.0084164329 0.1095143
-0.033674121 -0.012229707 0.10958135
-0.031224623 -0.017011469 0.10902697
-0.02963572 -0.019976448 0.10862523
-0.028208522 -0.023013474 0.10837942
-0.02478084 -0.027329177 0.10997528
-0.03589968 -0.00062398985 0.10687661
-0.035587613 -0.0034158463 0.10650468
-0.035270911 -0.0076708896 0.10626131
-0.033803824 -0.012148599 0.10577983
-0.031840432 -0.016247563 0.10566086
-0.029530572 -0.020038981 0.10522717
-0.027600523 -0.023403406 0.10508132
-0.024705982 -0.026179001 0.10478753
-0.035713449 -0.0048038037 0.10313928
-0.035503533 -0.0077395616 0.10070401
-0.034749668 -0.012366327 0.1007902
-0.032519415 -0.016553104 0.10088301
-0.030024283 -0.019738188 0.099843264
-0.027903834 -0.023152562 0.10037887
-0.026059316 -0.025595058 0.10155278
-0.036437683 -0.009290114 0.09732765
-0.035431121 -0.012062469 0.09656918
-0.034314927 -0.015850995 0.095893264
0.0067475466 0.0026013041 0.18782461
-0.036041714 0.002168579 0.10905671
-0.035215016 0.0014917739 0.10467851
-0.023288334 -0.027433936 0.10274422
-0.035491515 0.00022055581 0.099912584
-0.035730157 -0.0030427389 0.1003989
-0.036317836 -0.0064160745 0.10023886
-0.031519368 -0.017499026 0.097726345
-0.027613059 -0.023708107 0.098350585
-0.024845045 -0.026675537 0.098670721
-0.035790525 -0.0033718785 0.096081436
-0.035914429 -0.007039811 0.09551239
-0.035424534 -0.011673856 0.09394753
-0.032662261 -0.016755218 0.094038248
-0.031098379 -0.020138659 0.094276488
-0.028135335 -0.023509236 0.09455359
-0.025818152 -0.026284881 0.094371915
-0.035380885 -0.0079086898 0.092047632
-0.03480985 -0.011298401 0.090669274
-0.033607543 -0.015917882 0.090137482
-0.031195709 -0.02003211 0.0893929
-0.028268665 -0.023280006 0.090896249
-0.033153519 -0.017099557 0.087159336
-0.034540053 0.0031552715 0.10164183
-0.034976147 0.0025374331 0.097868085
-0.035445459 0.00089863967 0.093247056
-0.035572879 -0.0024843141 0.09294939
-0.02446061 -0.02713624 0.091517627
-0.034906682 0.00057329983 0.088923931
-0.034865294 -0.0028696861 0.088666677
-0.035141297 -0.0067376755 0.088918746
-0.034379944 -0.010285001 0.08799243
-0.027747925 -0.022976119 0.087380171
-0.024371207 -0.025806379 0.08695507
-0.035231836 -0.0038558366 0.084652901
-0.035248563 -0.0067911102 0.083625615
-0.034874525 -0.011111022 0.084710836
-0.033608489 -0.014815787 0.084573984
-0.030797683 -0.018719992 0.083658278
-0.027872331 -0.021848056 0.082714736
-0.035597939 -0.0083005177 0.080427527
-0.034803402 -0.011095941 0.079223514
-0.033447079 -0.014930586 0.078980148
-0.032488696 -0.017680081 0.079298854
-0.033295956 -0.017519608 0.075445235
-0.033946715 0.0028689671 0.086968064
-0.034682631 -0.0011930345 0.085978448
-0.023233537 -0.026215572 0.083549857
-0.034260239 0.0010978431 0.083206713
-0.03486114 -0.0020891121 0.08175689
-0.026699141 -0.022718817 0.079910338
-0.023984352 -0.025510624 0.080217183
-0.035038218 -0.0023847939 0.077992141
-0.035035852 -0.006260647 0.077003837
-0.034850545 -0.010059092 0.076341987
-0.033577565 -0.013231128 0.076275706
-0.030315673 -0.018708443 0.076833844
-0.028001638 -0.021595424 0.076361835
-0.024925832 -0.024472736 0.075425565
-0.034847736 -0.0077252821 0.073548555
-0.033809017 -0.010534151 0.072760284
-0.032758936 -0.014457849 0.072508097
-0.031395689 -0.018122828 0.072289109
-0.028644057 -0.021066463 0.072017908
-0.033848397 0.0025890134 0.075989246
-0.035176072 -0.0016678851 0.075457931
-0.023802646 -0.024982344 0.074274898
-0.035312574 -0.0016424637 0.071350634
-0.035015311 -0.0062142471 0.07117027
-0.033930171 -0.0098121949 0.06989634
-0.032495152 -0.013287165 0.069283247
-0.030183261 -0.018266067 0.068903327
-0.027814023 -0.021019055 0.069075704
-0.024709299 -0.024429709 0.069917679
-0.03563631 -0.0027152728 0.066890717
-0.035428826 -0.0060089473 0.066830635
-0.034282707 -0.010183974 0.065766931
-0.03271962 -0.014002333 0.065663218
-0.030333508 -0.017260652 0.065215468
-0.027495157 -0.02096488 0.065132558
-0.025278911 -0.023850219 0.065064847
-0.023343602 -0.026558094 0.065613508
-0.035749219 -0.0063586095 0.06195724
-0.03506374 -0.010355027 0.06143111
-0.033748254 -0.014290923 0.06159395
-0.030609505 -0.017450897 0.060866296
-0.028620144 -0.020132387 0.06135416
-0.034630589 -0.010803988 0.058123887
-0.033451568 -0.014329123 0.057450294
-0.032231722 -0.016529679 0.05792284
-0.03381855 0.002739911 0.063429356
-0.034028716 0.00014599506 0.063571036
-0.023508687 -0.024548154 0.061680377
-0.034567628 -0.0015615867 0.059679985
-0.034904279 -0.0041601369 0.058135927
-0.028842933 -0.018120658 0.057451606
-0.027131135 -0.020934813 0.058238268
-0.024250733 -0.023537558 0.057803512
-0.035123002 -0.002607719 0.054709733
-0.034685098 -0.0056250109 0.054581821
-0.033803832 -0.0093550235 0.054224849
-0.032923266 -0.013317642 0.053842783
-0.029895494 -0.01712645 0.05369091
-0.027612444 -0.020000329 0.053552985
-0.025214057 -0.022530381 0.053623438
-0.033925407 -0.0098617366 0.050457299
-0.032818694 -0.013527372 0.050207019
-0.031643033 -0.016005216 0.04895997
-0.033840861 0.0012433939 0.057380319
-0.023297811 -0.024034075 0.054467857
-0.033976957 0.00096971355 0.053465009
-0.034542345 -0.0037442828 0.051474392
-0.026416853 -0.020937039 0.05072242
-0.024480764 -0.023672566 0.051285803
-0.03434822 -0.00077441335 0.048876882
-0.034697369 -0.004782618 0.04872036
-0.033620145 -0.0092592612 0.047719836
-0.032321982 -0.013199806 0.046525002
-0.029709132 -0.017428314 0.047679424
-0.027854536 -0.020211544 0.047542751
-0.024691075 -0.02385411 0.046801746
-0.022373609 -0.026939623 0.047595263
-0.034351252 -0.0049043689 0.04443121
-0.033386476 -0.0087501546 0.044689357
-0.032326005 -0.013095828 0.04336834
-0.030437116 -0.016828287 0.042940021
-0.027997015 -0.020352716 0.042967916
-0.025965102 -0.023300625 0.043171465
-0.031500794 -0.014149532 0.03984344
-0.031308785 -0.015556957 0.03911972
-0.028823696 -0.019069849 0.039101601
-0.033185594 0.0029828744 0.049974084
-0.033338424 0.0024875328 0.045699179
-0.033938933 0.0013136743 0.041065037
-0.03382723 -0.0024266848 0.041184425
-0.031984851 -0.0075375605 0.040032387
-0.026978234 -0.021373373 0.040295839
-0.02443851 -0.023968693 0.040111303
-0.034318276 3.5855919e-06 0.036364794
-0.033485569 -0.0029112352 0.036177456
-0.032382883 -0.0075672329 0.036212325
-0.031524129 -0.012358313 0.036863804
-0.029899307 -0.016854789 0.03691709
-0.027499482 -0.020142067 0.035885453
-0.024497405 -0.022817485 0.034595966
-0.022173924 -0.025363479 0.03514111
-0.033084091 -0.0072402419 0.03169173
-0.032128245 -0.011847994 0.031190217
-0.030266566 -0.016193496 0.031610548
-0.027587492 -0.019478485 0.031250477
-0.032176483 -0.013266568 0.027520299
-0.031645797 -0.015301384 0.026699483
-0.033924639 0.0026579946 0.035678148
-0.033963121 -0.0028063329 0.033876419
-0.023529237 -0.024331395 0.032876849
-0.033511449 0.0010694498 0.031348646
-0.033377048 -0.0021997187 0.030382752
-0.033467665 -0.0070205894 0.029647231
-0.029608052 -0.016803497 0.028489113
-0.027140001 -0.020386467 0.029570699
-0.024466693 -0.023094418 0.029083014
-0.021928396 -0.025869457 0.028750062
-0.032562803 -0.0034547029 0.026426375
-0.033095971 -0.007056301 0.026547849
-0.033030994 -0.011279418 0.025837541
-0.031184169 -0.01504958 0.024679244
-0.027865497 -0.018735358 0.026020527
-0.025386689 -0.021851938 0.025611758
-0.022886459 -0.023873568 0.024682939
-0.032685626 -0.0079378821 0.021789491
-0.032637246 -0.010978278 0.021799028
-0.030846087 -0.014775978 0.02041471
-0.03296914 0.0027629668 0.028384447
-0.032873575 0.0026734928 0.02412945
-0.032583296 -0.0016128067 0.023370326
-0.031981736 -0.0051251934 0.022928476
-0.026814014 -0.018528897 0.022203445
-0.02414142 -0.021555267 0.02161485
-0.021631658 -0.024826003 0.021701038
-0.033586387 0.0013862634 0.019746125
-0.03305003 -0.0018247915 0.01880759
-0.032554299 -0.0062419707 0.018893838
-0.032096751 -0.010252564 0.018334508
-0.029748689 -0.014758868 0.017922997
-0.027315611 -0.017851688 0.01815325
-0.024436168 -0.021265149 0.017721117
-0.021782368 -0.024776157 0.01718539
-0.033344191 -0.0028525833 0.015529871
-0.032614704 -0.0061098919 0.014603853
-0.032163028 -0.010503074 0.013656259
-0.030460117 -0.014213226 0.013662398
-0.027516412 -0.017780371 0.012947142
-0.025389398 -0.021341294 0.013562739
-0.02366747 -0.023905415 0.013660014
-0.032997727 -0.011202331 0.0089802742
-0.031889483 -0.014049823 0.0082519054
-0.033816107 -0.010954664 0.0068041086
-0.032980844 -0.013619058 0.0048282146
-0.033123586 0.0018779617 0.012648702
-0.033038802 -0.001051805 0.012401581
-0.032467052 -0.0051781666 0.011953413
-0.024394799 -0.022588715 0.010636687
-0.022089697 -0.025189277 0.011223376
-0.032350529 -0.0018965378 0.0084378123
-0.031925898 -0.0057962937 0.007943511
-0.032899845 -0.0090525281 0.0073451996
-0.029320171 -0.015307313 0.0083719492
-0.027772654 -0.017733401 0.0077741146
-0.025611857 -0.021260675 0.0072622299
-0.02305213 -0.024725065 0.0070996881
-0.03287369 -0.010436703 0.0031404495
-0.031183748 -0.01486983 0.0028026104
-0.028357781 -0.017360911 0.0019958615
-0.033127751 -0.011160774 -0.0014221668
-0.032382015 -0.00066291075 0.0063713789
-0.031120688 -0.0050961953 0.0040912032
-0.0232943 -0.021951223 0.0028050542
-0.021168286 -0.025758978 0.0043424368
-0.033219714 0.0025304267 0.0015034676
-0.03269282 -0.0010086326 0.0018966198
-0.031966373 -0.0051577557 0.0021412969
-0.02666756 -0.018616389 0.00049376488
-0.024292503 -0.020736873 4.8875809e-05
-0.021515312 -0.024250593 -0.00025701523
