# .PCD v0.7 - Point Cloud Data file format
VERSION 0.7
FIELDS x y z
SIZE 4 4 4
TYPE F F F
COUNT 1 1 1
WIDTH 465
HEIGHT 1
VIEWPOINT 0 0 0 1 0 0 0
POINTS 465
DATA ascii
-0.042413235 0.0017264928 0.18485561
-0.042381108 -0.0025595878 0.18588015
-0.042016566 -0.0075591956 0.1849758
-0.044175863 0.0068308967 0.18201298
-0.044889987 0.0028113755 0.18235028
-0.045015335 -0.0024280888 0.18226445
-0.044006228 -0.0074632396 0.18166783
-0.045133471 0.0059452667 0.17904538
-0.045791268 0.002925308 0.17938188
-0.046013176 -0.0022986089 0.17876679
-0.046254158 -0.0060652946 0.17940071
-0.035466492 0.010231622 0.18720019
-0.03648752 0.0071748975 0.18775013
-0.037569821 0.002264203 0.1878356
-0.037659883 -0.0029288013 0.18781424
-0.036833644 -0.0078902282 0.18770316
-0.035666525 -0.012404874 0.18747884
-0.034686804 -0.016522229 0.18627644
-0.038297832 0.017135143 0.18388531
-0.039913714 0.012295484 0.18528122
-0.040347219 0.0072140465 0.18577689
-0.040468991 0.0032503675 0.1861698
-0.03948462 -0.0083257714 0.18619868
-0.039988279 -0.012282652 0.18491453
-0.038905978 -0.017525621 0.18404907
-0.043082476 0.012172817 0.1816498
-0.043762088 0.0083462661 0.18179172
-0.043737888 -0.0090747708 0.17943704
-0.042901814 -0.012117901 0.18057668
-0.041750431 -0.017357223 0.17965809
-0.04438746 0.011622638 0.17720056
-0.045807719 0.0076920851 0.17753425
-0.045840025 0.0030307486 0.17673761
-0.045319021 -0.0021917191 0.17592961
-0.044771016 -0.0076526296 0.17636412
-0.044081688 -0.011961875 0.17599598
-0.042699099 -0.017207775 0.1749182
-0.040704668 -0.02149836 0.17466503
-0.044162273 0.010729427 0.17317596
-0.044610083 0.0074271443 0.17264959
-0.044802666 0.0035043578 0.17265481
-0.043946683 -0.0020344821 0.1717312
-0.043744683 -0.0073080328 0.17161107
-0.043756664 -0.011816421 0.17129764
-0.043315768 -0.015965842 0.17132419
-0.028522849 -0.0056486283 0.1876407
-0.032715499 0.012902752 0.18655953
-0.032195568 0.0072269789 0.18770263
-0.032438517 0.0026793848 0.18770701
-0.031958044 -0.0021066186 0.18754318
-0.031315744 -0.007910911 0.18754047
-0.030672491 -0.01243677 0.18698582
-0.036240518 0.018670533 0.18439907
-0.035663128 0.014079373 0.18566746
-0.038078249 0.018167213 0.17839849
-0.039712489 0.015097155 0.1784696
-0.039205372 0.017441873 0.17407069
-0.04070735 0.014671884 0.17425209
-0.042010427 0.0127904 0.17022783
-0.043421209 0.0082588335 0.16944653
-0.043505609 0.0029681935 0.16933763
-0.043555498 -0.0020021838 0.16798934
-0.042826176 -0.0068897908 0.16812298
-0.043034196 -0.012086348 0.16764811
-0.041866302 -0.016566478 0.16790116
-0.040125251 -0.021003909 0.16808647
-0.043159425 0.0110577 0.16618636
-0.043280005 0.0080622705 0.16526628
-0.043586969 0.0035438645 0.16442487
-0.043933809 -0.001266793 0.16409832
-0.043350041 -0.0062094969 0.16406476
-0.042410493 -0.011587483 0.16361481
-0.041831315 -0.015651036 0.16415864
-0.040605903 -0.019971807 0.16441077
-0.044235587 0.0021882518 0.16027141
-0.045020103 -0.0012282847 0.16024685
-0.045046389 -0.004587472 0.15879267
-0.025402606 0.01343964 0.18720683
-0.025855482 0.0080811419 0.18731457
-0.02618134 0.0027367228 0.18734318
-0.026077986 -0.0020589347 0.18750438
-0.025108159 -0.0072658774 0.18698019
-0.02543813 -0.012467232 0.18637508
-0.028960466 0.012636013 0.18672878
-0.037916243 0.019603275 0.17247429
-0.037465453 0.018533699 0.16737247
-0.040214002 0.015092961 0.16766292
-0.038108766 0.017350264 0.16388953
-0.040534437 0.013967491 0.16341007
-0.043199122 0.0082218172 0.16157442
-0.042174995 -0.0077209924 0.16129932
-0.042170644 -0.01099771 0.16089144
-0.041697323 -0.016572613 0.16100603
-0.040288806 -0.020658251 0.16144407
-0.040161669 0.013461079 0.15905491
-0.04252547 0.0093338704 0.15776843
-0.043857574 0.0039915587 0.15800929
-0.044717312 -0.00044433825 0.15759695
-0.042852223 -0.0075787869 0.15719473
-0.042867959 -0.011376959 0.15708947
-0.04221487 -0.01592971 0.15650222
-0.040303946 -0.02008909 0.15637571
-0.042936921 0.008274517 0.15332615
-0.043987095 0.0040104273 0.15281934
-0.045253932 -0.00059626304 0.15356076
-0.044368029 -0.0059017357 0.15278512
-0.042548478 -0.011016202 0.15159777
-0.041970849 -0.015495506 0.15193757
-0.045217812 0.0036565936 0.14874801
-0.045807719 -0.00040370281 0.14842385
-0.045694947 -0.0045473916 0.14848521
-0.017845213 -0.0018552991 0.18828315
-0.017058492 -0.0056751855 0.18766919
-0.020467758 0.0081383511 0.18754467
-0.02050072 0.0027745829 0.18738633
-0.021636069 -0.0015506076 0.18812758
-0.020940483 -0.0067338203 0.18752295
-0.035945833 0.019090582 0.16065088
-0.036651313 0.01773987 0.15648335
-0.039086401 0.015129088 0.15653157
-0.03919822 0.014302476 0.1522744
-0.041595936 0.010249323 0.15055418
-0.041731596 -0.012658996 0.14890233
-0.041350961 -0.016106829 0.14899582
-0.039141953 -0.020370502 0.1496433
-0.042799115 0.008334863 0.14718893
-0.044356823 0.0052897441 0.1463387
-0.043771505 -0.0064270874 0.14588681
-0.042886853 -0.010264994 0.14607671
-0.04184705 -0.015607999 0.14518645
-0.040288568 -0.01920959 0.14522454
-0.044131041 0.0041026636 0.14292082
-0.045124054 -0.00017415041 0.14238068
-0.044501603 -0.0045693335 0.14204246
-0.042764902 -0.0096124457 0.14167017
-0.042482436 -0.01587379 0.14144024
-0.044834852 -2.4710385e-05 0.13844791
-0.044908881 -0.0035851118 0.13777244
-0.014414668 0.0032582225 0.18736738
-0.014638782 -0.0018254706 0.1876578
-0.013916552 -0.0068172067 0.18704486
-0.037994862 0.015986621 0.14963794
-0.037049353 0.018301144 0.14469871
-0.038228214 0.015151691 0.14542842
-0.040408254 0.010895229 0.14496654
-0.038962662 -0.020719588 0.14331859
-0.038971841 0.014600914 0.1403217
-0.040551782 0.01017641 0.13997096
-0.042867482 0.0049398202 0.13952583
-0.042937338 -0.0061879423 0.13878113
-0.041562438 -0.010539711 0.13829565
-0.041362345 -0.015103494 0.13814348
-0.039233267 -0.020069122 0.1382311
-0.04171139 0.010492108 0.13490337
-0.042619884 0.005506923 0.13514158
-0.043950796 0.00010637887 0.13500282
-0.043204188 -0.0050178957 0.13462871
-0.041585803 -0.0091171945 0.13397139
-0.041003227 -0.014506985 0.13339603
-0.039885759 -0.019181501 0.13434085
-0.043592215 0.0049082558 0.13064259
-0.043809295 0.00028776698 0.13019431
-0.043847501 -0.0039115143 0.13037056
-0.042520583 -0.0089939395 0.13040769
-0.042252183 -0.0136344 0.13055152
-0.044915974 -0.00037458964 0.12719959
-0.044867754 -0.0034610895 0.12707615
-0.0090536475 0.0041505545 0.18729284
-0.0092867613 -0.0017762483 0.18663007
-0.037316263 0.016278207 0.13825732
-0.035875618 0.018820912 0.13447404
-0.038487196 0.015692662 0.13372809
-0.041057169 0.012563932 0.13327947
-0.038697064 -0.020132013 0.13184336
-0.038992167 0.015396181 0.1287097
-0.041276276 0.011215254 0.12866461
-0.042796731 0.0073159146 0.12871262
-0.042285323 -0.0058209863 0.12796238
-0.042157888 -0.0089055607 0.12759134
-0.041268289 -0.014251125 0.12771586
-0.038799763 -0.019192401 0.12670028
-0.041369379 0.011214462 0.12356657
-0.043130934 0.0059503443 0.12416697
-0.043840408 0.00074340723 0.12399837
-0.043603241 -0.0043409918 0.12367976
-0.041836441 -0.008752455 0.12279621
-0.0410375 -0.013397918 0.12207574
-0.039699435 -0.017048981 0.12226188
-0.043450594 0.0053932904 0.11865771
-0.043597698 0.00072430394 0.1186353
-0.043316483 -0.0034351875 0.11894763
-0.041946709 -0.010184747 0.1190173
-0.0024924278 -0.0009645336 0.18614683
-0.0054168701 0.0021445751 0.18621144
-0.0049586296 -0.0017369353 0.18580082
-0.037901402 0.01705585 0.12701404
-0.038918078 0.016377784 0.12303996
-0.041100085 0.012336454 0.12094164
-0.038605511 -0.019464601 0.12068897
-0.039036632 0.01556043 0.11950809
-0.041266203 0.011512673 0.11744368
-0.042638004 0.0085380105 0.1181398
-0.04234606 -0.0049020057 0.11626738
-0.041610956 -0.0083607109 0.11666089
-0.041108906 -0.013228011 0.11639053
-0.039889276 -0.017706636 0.11559725
-0.041605651 0.010306652 0.11357009
-0.043072879 0.0063823233 0.11359811
-0.043183208 0.00091739319 0.11352909
-0.042648256 -0.0035098796 0.11259043
-0.041674495 -0.0084075527 0.11213601
-0.041270614 -0.013085906 0.11170268
-0.040457368 -0.017010923 0.11194813
0.0051641464 -0.00018905097 0.18703094
-0.037712514 0.016752236 0.11608368
-0.038443625 0.016526062 0.11161196
-0.040439427 0.012476279 0.11210984
-0.041495562 0.006559839 0.1095143
-0.041756094 0.0018523852 0.10958135
-0.041250765 -0.0043952954 0.10902697
-0.040861905 -0.008300514 0.10862523
-0.040679514 -0.012211193 0.10837942
-0.03891176 -0.018393252 0.10997528
-0.038973391 0.015355349 0.10687661
-0.039883494 0.012206792 0.10650468
-0.041441858 0.0074790581 0.10626131
-0.041859686 0.0019977163 0.10577983
-0.041573465 -0.0032969755 0.10566086
-0.040776491 -0.0084148617 0.10522717
-0.040198267 -0.012902935 0.10508132
-0.038317561 -0.017186943 0.10478753
-0.040638804 0.010766952 0.10313928
-0.041723251 0.0075088958 0.10070401
-0.042976379 0.0021853219 0.1007902
-0.042441726 -0.0033231643 0.10088301
-0.041174352 -0.0078702243 0.099843264
-0.040413201 -0.012497143 0.10037887
-0.039515555 -0.015953321 0.10155278
-0.043422401 0.0062546837 0.09732765
-0.043575227 0.0028170827 0.09656918
-0.044063568 -0.0017647563 0.095893264
0.0084342957 -0.00020869811 0.18782461
-0.037879705 0.018428758 0.10905671
-0.037290812 0.017330166 0.10467851
-0.03734982 -0.019172516 0.10274422
-0.03815639 0.016083419 0.099912584
-0.03987056 0.012672591 0.1003989
-0.042010069 0.0092989868 0.10023886
-0.041786134 -0.0047892188 0.097726345
-0.040347815 -0.013225765 0.098350585
-0.038689137 -0.017660055 0.098670721
-0.040082574 0.012344777 0.096081436
-0.041853726 0.0084465807 0.09551239
-0.043394625 0.0032330113 0.09394753
-0.042685926 -0.0034772386 0.094038248
-0.042510867 -0.0078223282 0.094276488
-0.04082197 -0.012778231 0.09455359
-0.039563596 -0.016804524 0.094371915
-0.041666567 0.0072718444 0.092047632
-0.042564452 0.0033632624 0.090669274
-0.043330967 -0.0021526744 0.090137482
-0.042568207 -0.007664029 0.0893929
-0.040863335 -0.012471628 0.090896249
-0.043369174 -0.0036290591 0.087159336
-0.035820603 0.018821836 0.10164183
-0.036566496 0.018350594 0.097868085
-0.037804008 0.016793735 0.093247056
-0.039451718 0.013204276 0.09294939
-0.038480461 -0.018328261 0.091517627
-0.037368536 0.016202521 0.088923931
-0.038861096 0.012472987 0.088666677
-0.040885508 0.0084270639 0.088918746
-0.041648626 0.0042636278 0.08799243
-0.040166378 -0.01237657 0.087380171
-0.037790358 -0.016934775 0.08695507
-0.039696455 0.011573703 0.084652901
-0.041024983 0.0084173596 0.083625615
-0.042550504 0.0035941075 0.084710836
-0.042839944 -0.0009643478 0.084573984
-0.041553378 -0.0064274562 0.083658278
-0.039796829 -0.011105136 0.082714736
-0.042075455 0.0069464142 0.080427527
-0.042467117 0.0035786103 0.079223514
-0.042717218 -0.001160149 0.078980148
-0.042911768 -0.0045516011 0.079298854
-0.043710232 -0.0040182215 0.075445235
-0.035308897 0.018248338 0.086968064
-0.037915647 0.014198631 0.085978448
-0.0367468 -0.017883759 0.083549857
-0.036437571 0.016479291 0.083206713
-0.038508117 0.013312481 0.08175689
-0.038921058 -0.012567479 0.079910338
-0.03724134 -0.01678871 0.080217183
-0.038830996 0.013072837 0.077992141
-0.040558875 0.0088941557 0.077003837
-0.042055011 0.0047172341 0.076341987
-0.042099118 0.00072988443 0.076275706
-0.041028678 -0.0066302088 0.076833844
-0.039823413 -0.010775101 0.076361835
-0.037792742 -0.015249677 0.075425565
-0.041010022 0.0072314995 0.073548555
-0.04114449 0.0037401835 0.072760284
-0.041764438 -0.00095783599 0.072508097
-0.041931331 -0.0055168089 0.072289109
-0.040279686 -0.0099181393 0.072017908
-0.035327911 0.017902691 0.075989246
-0.038659513 0.013907112 0.075457931
-0.036809623 -0.016300425 0.074274898
-0.038795292 0.013995457 0.071350634
-0.040516019 0.008934998 0.07117027
-0.040952742 0.0045724395 0.06989634
-0.040957451 0.00018622677 0.069283247
-0.040688455 -0.0062125069 0.068903327
-0.039363861 -0.01023762 0.069075704
-0.037540138 -0.015299972 0.069917679
-0.039623201 0.012983653 0.066890717
-0.04087007 0.0093409019 0.066830635
-0.041498721 0.004329111 0.065766931
-0.041518688 -0.00048440744 0.065663218
-0.040401518 -0.0050617312 0.065215468
-0.038995981 -0.010321587 0.065132558
-0.037895381 -0.014421053 0.065064847
-0.037018359 -0.018203806 0.065613508
-0.041371524 0.0091070598 0.06195724
-0.04241693 0.004493441 0.06143111
-0.042756259 -0.00033621915 0.06159395
-0.040783942 -0.0051435647 0.060866296
-0.039836884 -0.0089220116 0.06135416
-0.042150497 0.0038161385 0.058123887
-0.042453527 -0.0005098512 0.057450294
-0.042121172 -0.0034263586 0.05792284
-0.035228372 0.018052012 0.063429356
-0.036612988 0.015349966 0.063571036
-0.036298931 -0.01596367 0.061680377
-0.037956238 0.013750039 0.059679985
-0.039479256 0.011099468 0.058135927
-0.039178848 -0.0066541848 0.057451606
-0.038590193 -0.010451704 0.058238268
-0.036647558 -0.014543094 0.057803512
-0.039021909 0.012870409 0.054709733
-0.039897025 0.0094226832 0.054581821
-0.040612459 0.0050088014 0.054224849
-0.0414325 0.00034451435 0.053842783
-0.039869487 -0.0051126373 0.05369091
-0.038691759 -0.0092295744 0.053552985
-0.037236214 -0.013027407 0.053623438
-0.040969729 0.004516914 0.050457299
-0.041413426 7.1767223e-05 0.050207019
-0.041252494 -0.0031238911 0.04895997
-0.03592056 0.016448937 0.057380319
-0.035842121 -0.015503716 0.054467857
-0.036189437 0.01621471 0.053465009
-0.038903475 0.01138611 0.051474392
-0.037821293 -0.010773003 0.05072242
-0.036955774 -0.014585912 0.051285803
-0.037368298 0.014500543 0.048876882
-0.039534152 0.010336143 0.04872036
-0.040371716 0.0050300094 0.047719836
-0.040731788 0.00020307254 0.046525002
-0.039803386 -0.0055212085 0.047679424
-0.039047003 -0.0093491487 0.047542751
-0.037263513 -0.014687695 0.046801746
-0.036143184 -0.01904811 0.047595263
-0.039215446 0.010050383 0.04443121
-0.039892554 0.0054744291 0.044689357
-0.040689707 0.00031694348 0.04336834
-0.040320158 -0.0045494442 0.042940021
-0.039263606 -0.0094376998 0.042967916
-0.038389623 -0.013522308 0.043171465
-0.040270686 -0.0011872281 0.03984344
-0.040692091 -0.0027899598 0.03911972
-0.039581895 -0.0076858667 0.039101601
-0.034437656 0.018031299 0.049974084
-0.034823537 0.017565623 0.045699179
-0.035994887 0.016568474 0.041065037
-0.037544429 0.012487024 0.041184425
-0.037840426 0.0061556618 0.040032387
-0.038621187 -0.010992672 0.040295839
-0.037042439 -0.01492396 0.040111303
-0.036988676 0.015325747 0.036364794
-0.037392497 0.011812206 0.036177456
-0.038282692 0.006301384 0.036212325
-0.039496124 0.00075387163 0.036863804
-0.039752305 -0.0048181233 0.03691709
-0.038633287 -0.0094327815 0.035885453
-0.036591947 -0.013656825 0.034595966
-0.035224259 -0.017438401 0.03514111
-0.038892508 0.0069668996 0.03169173
-0.039919436 0.0015736404 0.031190217
-0.039852917 -0.0039413725 0.031610548
-0.038431883 -0.0086782388 0.031250477
-0.04060477 6.6153218e-05 0.027520299
-0.040941238 -0.002364025 0.026699483
-0.035379291 0.018011082 0.035678148
-0.037860394 0.012138486 0.033876419
-0.036224306 -0.015720859 0.032876849
-0.03564316 0.01611438 0.031348646
-0.03695786 0.01253067 0.030382752
-0.039207876 0.0073749064 0.029647231
-0.039415479 -0.0048928712 0.028489113
-0.038354933 -0.0098567046 0.029570699
-0.036682487 -0.01396903 0.029083014
-0.035185516 -0.018093392 0.028750062
-0.036640525 0.010814443 0.026426375
-0.038823187 0.0071704662 0.026547849
-0.040638626 0.0025895308 0.025837541
-0.040331244 -0.0022987169 0.024679244
-0.038399756 -0.0077531342 0.026020527
-0.037119389 -0.012219068 0.025611758
-0.035327077 -0.015514363 0.024682939
-0.03877449 0.0060370411 0.021789491
-0.040079772 0.0027383226 0.021799028
-0.039844692 -0.0021547531 0.02041471
-0.034302533 0.017697632 0.028384447
-0.034239471 0.017558523 0.02412945
-0.035840273 0.012808897 0.023370326
-0.036760032 0.0087544639 0.022928476
-0.037174225 -0.008000046 0.022203445
-0.03564471 -0.012455266 0.02161485
-0.034399807 -0.01710118 0.021701038
-0.035582483 0.016489316 0.019746125
-0.036437988 0.012788787 0.01880759
-0.037875772 0.0078063621 0.018893838
-0.039173186 0.0032792273 0.018334508
-0.038654208 -0.0026262593 0.017922997
-0.037412524 -0.0070461673 0.01815325
-0.035832882 -0.012010965 0.017721117
-0.034539998 -0.016980164 0.01718539
-0.037213922 0.011812303 0.015529871
-0.037881911 0.0079756938 0.014603853
-0.03935647 0.0030388045 0.013656259
-0.039177418 -0.0017205072 0.013662398
-0.03759712 -0.0068796468 0.012947142
-0.036894321 -0.011667456 0.013562739
-0.036183119 -0.015199997 0.013660014
-0.040568352 0.0026577669 0.0089802742
-0.040645123 -0.00090622203 0.0082519054
-0.041339874 0.003290094 0.0068041086
-0.041629136 4.5336288e-05 0.0048282146
-0.034864128 0.016812675 0.012648702
-0.036080778 0.013616946 0.012401581
-0.037306786 0.0089140423 0.011953413
-0.036379218 -0.013456054 0.010636687
-0.035055697 -0.017288238 0.011223376
-0.035716057 0.012399152 0.0084378123
-0.036999464 0.0080061816 0.007943511
-0.039503038 0.004931252 0.0073451996
-0.038437188 -0.003408723 0.0083719492
-0.037852347 -0.0067146164 0.0077741146
-0.03709811 -0.01148124 0.0072622299
-0.035885811 -0.016358193 0.0070996881
-0.040092826 0.003427628 0.0031404495
-0.04025054 -0.0021051583 0.0028026104
-0.038316727 -0.0060518873 0.0019958615
-0.040689945 0.002760611 -0.0014221668
-0.035199225 0.013742886 0.0063713789
-0.035818994 0.0084012914 0.0040912032
-0.034908414 -0.01326026 0.0028050542
-0.034316897 -0.018313676 0.0043424368
-0.034676433 0.017558858 0.0015034676
-0.035688579 0.013509009 0.0018966198
-0.036758006 0.0087125059 0.0021412969
-0.037055433 -0.008159738 0.00049376488
-0.035442173 -0.011505701 4.8875809e-05
-0.034017503 -0.016532913 -0.00025701523
