# .PCD v0.7 - Point Cloud Data file format
VERSION 0.7
FIELDS x y z
SIZE 4 4 4
TYPE F F F
COUNT 1 1 1
WIDTH 465
HEIGHT 1
VIEWPOINT 0 0 0 1 0 0 0
POINTS 465
DATA ascii
-0.015279355 -0.03302059 0.18485561
-0.011874684 -0.034401044 0.18588015
-0.007795935 -0.035752308 0.1849758
-0.019899683 -0.032742094 0.18201298
-0.016950879 -0.034626059 0.18235028
-0.012842881 -0.036443949 0.18226445
-0.0085245613 -0.03729644 0.18166783
-0.019512463 -0.033790916 0.17904538
-0.017336736 -0.035302415 0.17938188
-0.013272722 -0.037191663 0.17876679
-0.010368941 -0.038618021 0.17940071
-0.019735906 -0.024729684 0.18720019
-0.017650209 -0.026540883 0.18775013
-0.014116458 -0.029008731 0.1878356
-0.010033675 -0.03078343 0.18781424
-0.005833718 -0.03175655 0.18770316
-0.0018757526 -0.032313183 0.18747884
0.0017061308 -0.032887895 0.18627644
-0.026131503 -0.024707358 0.18388531
-0.022829026 -0.027574446 0.18528122
-0.018947247 -0.02958452 0.18577689
-0.015848365 -0.030981094 0.1861698
-0.0063583725 -0.033998717 0.18619868
-0.003390138 -0.035695478 0.18491453
0.0011167629 -0.036558174 0.18404907
-0.023771286 -0.030124016 0.1816498
-0.020963976 -0.03191736 0.18179172
-0.0071603744 -0.03761255 0.17943704
-0.0044762855 -0.037948653 0.18057668
5.0386414e-05 -0.03875545 0.17965809
-0.023763655 -0.031337894 0.17720056
-0.021116927 -0.033751871 0.17753425
-0.017436227 -0.035306435 0.17673761
-0.013129676 -0.0366069 0.17592961
-0.008625444 -0.037964195 0.17636412
-0.004986858 -0.038831811 0.17599598
-0.00037913583 -0.039457671 0.1749182
0.0036727656 -0.039285667 0.17466503
-0.02298246 -0.031452555 0.17317596
-0.02051428 -0.032890372 0.17264959
-0.017471008 -0.034329608 0.17265481
-0.012804043 -0.035468578 0.1717312
-0.0085616764 -0.037038412 0.17161107
-0.004995429 -0.038526718 0.17129764
-0.0015648948 -0.039538641 0.17132419
-0.0048827743 -0.024439983 0.1876407
-0.020948801 -0.021675011 0.18655953
-0.016283631 -0.023125013 0.18770263
-0.012762096 -0.024809081 0.18770701
-0.0088144736 -0.025998471 0.18754318
-0.0040073893 -0.027393728 0.18754047
-0.00021237973 -0.028368887 0.18698582
-0.026672546 -0.022574548 0.18439907
-0.022847429 -0.023623278 0.18566746
-0.02687677 -0.024194933 0.17839849
-0.024981657 -0.026496109 0.1784696
-0.026672089 -0.025325425 0.17407069
-0.024971213 -0.027423432 0.17425209
-0.023908701 -0.029072488 0.17022783
-0.020782925 -0.031676099 0.16944653
-0.016620968 -0.033478338 0.16933763
-0.012701306 -0.035148203 0.16798934
-0.0085915979 -0.036173861 0.16812298
-0.0045446958 -0.038043134 0.16764811
-0.0006138077 -0.038587831 0.16790116
0.0034712711 -0.038664643 0.16808647
-0.022913471 -0.030550726 0.16618636
-0.020580951 -0.031628758 0.16526628
-0.017103527 -0.03335394 0.16442487
-0.013407752 -0.035206567 0.16409832
-0.009302156 -0.036365561 0.16406476
-0.0047351616 -0.037385594 0.16361481
-0.0013272678 -0.038259849 0.16415864
0.002496291 -0.03870672 0.16441077
-0.016242778 -0.034312241 0.16027141
-0.013794567 -0.036054172 0.16024685
-0.011143059 -0.037176847 0.15879267
-0.018975228 -0.015707847 0.18720683
-0.0148804 -0.017824141 0.18731457
-0.010755058 -0.019835234 0.18734318
-0.0069234902 -0.021326432 0.18750438
-0.0024820128 -0.022266382 0.18698019
0.0015286887 -0.024233803 0.18637508
-0.019505868 -0.018788908 0.18672878
-0.027960842 -0.023595594 0.17247429
-0.026965983 -0.023589453 0.16737247
-0.025142839 -0.026894631 0.16766292
-0.026239842 -0.024487073 0.16388953
-0.024356689 -0.027517553 0.16341007
-0.020680765 -0.031512372 0.16157442
-0.0077197766 -0.035930842 0.16129932
-0.0051235268 -0.037002206 0.16089144
-0.00055352133 -0.03845603 0.16100603
0.0031438954 -0.038680777 0.16144407
-0.02383339 -0.027388472 0.15905491
-0.021340428 -0.030614138 0.15776843
-0.017546818 -0.033421382 0.15800929
-0.014316051 -0.035557244 0.15759695
-0.0080545284 -0.036420487 0.15719473
-0.0050519304 -0.037678804 0.15708947
-0.0012323987 -0.038654994 0.15650222
0.0026882114 -0.038506076 0.15637571
-0.020636491 -0.031287447 0.15332615
-0.017604243 -0.033517759 0.15281934
-0.014371762 -0.036032025 0.15356076
-0.0098797847 -0.037070751 0.15278512
-0.0052328175 -0.037307475 0.15159777
-0.0014962014 -0.038319327 0.15193757
-0.017727738 -0.034608424 0.14874801
-0.014705899 -0.036407404 0.14842385
-0.011387535 -0.037677292 0.14848521
-0.0043842816 -0.014740132 0.18828315
-0.0011012689 -0.015370107 0.18766919
-0.013158453 -0.013538854 0.18754467
-0.0089217136 -0.01532435 0.18738633
-0.0058690207 -0.017642155 0.18812758
-0.0015362892 -0.018791491 0.18752295
-0.026908521 -0.022203403 0.16065088
-0.026070304 -0.023205124 0.15648335
-0.024801578 -0.025989838 0.15653157
-0.024183664 -0.026349526 0.1522744
-0.021760471 -0.029577762 0.15055418
-0.0036639459 -0.037199449 0.14890233
-0.00080876332 -0.038028963 0.14899582
0.0032922104 -0.037678204 0.1496433
-0.020639077 -0.031158527 0.14718893
-0.018738607 -0.033390909 0.1463387
-0.0092680939 -0.03677069 0.14588681
-0.0059386883 -0.037329026 0.14607671
-0.0013665119 -0.038258195 0.14518645
0.0019967826 -0.038205408 0.14522454
-0.017724501 -0.033601496 0.14292082
-0.014663429 -0.035790715 0.14238068
-0.010978725 -0.036739483 0.14204246
-0.0064154384 -0.037018407 0.14167017
-0.0013644462 -0.038848534 0.14144024
-0.014686909 -0.035512682 0.13844791
-0.011891721 -0.036739171 0.13777244
-0.0073083942 -0.010346185 0.18736738
-0.0033561466 -0.012191185 0.1876578
0.00083369482 -0.013256615 0.18704486
-0.025122613 -0.024844166 0.14963794
-0.026645336 -0.023336224 0.14469871
-0.024537981 -0.025302827 0.14542842
-0.021882385 -0.028425375 0.14496654
0.0036274614 -0.03765073 0.14331859
-0.024345741 -0.026072366 0.1403217
-0.021360235 -0.028774817 0.13997096
-0.017972978 -0.032326285 0.13952583
-0.009183852 -0.036031671 0.13878113
-0.0052867141 -0.036370337 0.13829565
-0.0016070353 -0.037708871 0.13814348
0.0030235974 -0.037651658 0.1382311
-0.021990603 -0.029589554 0.13490337
-0.018340848 -0.0319442 0.13514158
-0.014500734 -0.034769598 0.13500282
-0.010197939 -0.035859197 0.13462871
-0.0064208652 -0.035922233 0.13397139
-0.001961614 -0.037228826 0.13339603
0.0021066675 -0.037877209 0.13434085
-0.018185705 -0.032910556 0.13064259
-0.014597961 -0.034598049 0.13019431
-0.011285096 -0.036005728 0.13037056
-0.0068250913 -0.036622051 0.13040769
-0.0030622864 -0.037931647 0.13055152
-0.01443645 -0.035691686 0.12719959
-0.011976442 -0.036665916 0.12707615
-0.0062565375 -0.0058081131 0.18729284
-0.0016395858 -0.0079367906 0.18663007
-0.025130929 -0.024211142 0.13825732
-0.026671937 -0.022236258 0.13447404
-0.025051322 -0.025330469 0.13372809
-0.023416679 -0.02839189 0.13327947
0.003249282 -0.037247669 0.13184336
-0.024982179 -0.025827603 0.1287097
-0.022420537 -0.029007785 0.12866461
-0.019831393 -0.03149087 0.12871262
-0.0092605744 -0.035394978 0.12796238
-0.0067761103 -0.036305849 0.12759134
-0.0022511724 -0.037354797 0.12771586
0.0024715215 -0.037020791 0.12670028
-0.022450447 -0.029081773 0.12356657
-0.018859625 -0.032203447 0.12416697
-0.014968987 -0.034473229 0.12399837
-0.010864872 -0.035953172 0.12367976
-0.0067919139 -0.036001075 0.12279621
-0.0028511221 -0.036892172 0.12207574
0.00047904812 -0.037030168 0.12226188
-0.018523348 -0.03263931 0.11865771
-0.014874246 -0.034287293 0.1186353
-0.011488115 -0.035428975 0.11894763
-0.0056938548 -0.036558207 0.1190173
-5.3741096e-05 -0.0022901262 0.18614683
-0.0034750933 -0.0035861505 0.18621144
-0.00025102834 -0.0044964626 0.18580082
-0.025938679 -0.024419434 0.12701404
-0.025735203 -0.025446953 0.12303996
-0.023250617 -0.028500488 0.12094164
0.0027507925 -0.036956251 0.12068897
-0.02512683 -0.025808938 0.11950809
-0.022652756 -0.028902251 0.11744368
-0.020747101 -0.030964307 0.1181398
-0.010008235 -0.035141639 0.11626738
-0.0070281713 -0.035694014 0.11666089
-0.0030090939 -0.036892988 0.11639053
0.00093757268 -0.037396222 0.11559725
-0.021809056 -0.029566649 0.11357009
-0.019182665 -0.032015782 0.11359811
-0.014891194 -0.033895727 0.11352909
-0.011209778 -0.034924306 0.11259043
-0.0070119202 -0.035759699 0.11213601
-0.0031746682 -0.03697443 0.11170268
0.00020029768 -0.037617885 0.11194813
0.0018436232 0.0040274593 0.18703094
-0.025636289 -0.024369448 0.11608368
-0.025696997 -0.025022598 0.11161196
-0.02314464 -0.027931452 0.11210984
-0.018805856 -0.030708482 0.1095143
-0.015163497 -0.032458909 0.10958135
-0.010050224 -0.034108069 0.10902697
-0.0068301423 -0.0350811 0.10862523
-0.0036734603 -0.036219422 0.10837942
0.0018019406 -0.036847349 0.10997528
-0.024943683 -0.02582613 0.10687661
-0.02274888 -0.027579607 0.10650468
-0.019516166 -0.030364435 0.10626131
-0.015312564 -0.032493271 0.10577983
-0.011025829 -0.034003347 0.10566086
-0.0067115733 -0.035050966 0.10522717
-0.0029678177 -0.036065225 0.10508132
0.0010415744 -0.035981119 0.10478753
-0.021856427 -0.028650021 0.10313928
-0.019632097 -0.030577483 0.10070401
-0.015827419 -0.033316039 0.1007902
-0.011289893 -0.034699511 0.10088301
-0.0072733751 -0.035187382 0.099843264
-0.0033596652 -0.036102325 0.10037887
-0.00032828655 -0.03652516 0.10155278
-0.019196235 -0.032334432 0.09732765
-0.01652414 -0.033583041 0.09656918
-0.013055979 -0.035472665 0.095893264
0.0029318375 0.0066106352 0.18782461
-0.027018761 -0.023951918 0.10905671
-0.025955625 -0.02384593 0.10467851
0.002931376 -0.035866063 0.10274422
-0.025252253 -0.024940331 0.099912584
-0.0231135 -0.027416578 0.1003989
-0.021143744 -0.030217433 0.10023886
-0.009913886 -0.034661237 0.097726345
-0.0027612224 -0.036289547 0.098350585
0.0012943484 -0.036430553 0.098670721
-0.022923451 -0.027691998 0.096081436
-0.020417444 -0.030373232 0.09551239
-0.016794272 -0.033303589 0.09394753
-0.011247984 -0.034943432 0.094038248
-0.0077497005 -0.036230054 0.094276488
-0.0032711523 -0.036518227 0.09455359
0.00033002067 -0.03684241 0.094371915
-0.019425783 -0.030610353 0.092047632
-0.016625108 -0.032603454 0.090669274
-0.012508485 -0.035019763 0.090137482
-0.0078938641 -0.036223538 0.0893929
-0.0035275193 -0.036450416 0.090896249
-0.011351872 -0.035534292 0.087159336
-0.026654623 -0.022192389 0.10164183
-0.026526112 -0.022937631 0.097868085
-0.025699163 -0.024428286 0.093247056
-0.023397155 -0.026910497 0.09294939
0.0018919483 -0.036484484 0.091517627
-0.025088139 -0.024277363 0.088923931
-0.022624318 -0.026682658 0.088666677
-0.0200844 -0.029612903 0.088918746
-0.017037701 -0.031582884 0.08799243
-0.0033741845 -0.035867315 0.087380171
0.0010148138 -0.035480909 0.08695507
-0.022186186 -0.027639156 0.084652901
-0.020122465 -0.029726537 0.083625615
-0.016803339 -0.032516688 0.084710836
-0.013288454 -0.034241132 0.084573984
-0.0085402224 -0.035014283 0.083658278
-0.0042598108 -0.035157625 0.082714736
-0.019302197 -0.031040894 0.080427527
-0.016763715 -0.032455735 0.079223514
-0.013093144 -0.034208175 0.078980148
-0.010471279 -0.035474684 0.079298854
-0.011155568 -0.035932027 0.075445235
-0.026032625 -0.021975284 0.086968064
-0.023680728 -0.025367923 0.085978448
0.0021086121 -0.034965802 0.083549857
-0.025001945 -0.02344935 0.083206713
-0.023173327 -0.026127771 0.08175689
-0.0028145202 -0.034943774 0.079910338
0.0010792315 -0.034998234 0.080217183
-0.023089461 -0.026462061 0.077992141
-0.020347148 -0.029201033 0.077003837
-0.01753021 -0.031755906 0.076341987
-0.014387108 -0.033098742 0.076275706
-0.0082075559 -0.034665283 0.076833844
-0.0045298841 -0.035070419 0.076361835
-0.00032039359 -0.034930065 0.075425565
-0.019178478 -0.03010367 0.073548555
-0.016457824 -0.031355351 0.072760284
-0.01294083 -0.033387307 0.072508097
-0.0093853371 -0.035014879 0.072289109
-0.0053581744 -0.035150647 0.072017908
-0.025765145 -0.022103719 0.075989246
-0.023693874 -0.026052609 0.075457931
0.00083416793 -0.034496199 0.074274898
-0.023808371 -0.026131155 0.071350634
-0.020365432 -0.029153697 0.07117027
-0.01705399 -0.030930521 0.06989634
-0.013582106 -0.032372989 0.069283247
-0.0084267333 -0.034258846 0.068903327
-0.0048047751 -0.0345302 0.069075704
-0.00019770581 -0.034746528 0.069917679
-0.023278695 -0.027118662 0.066890717
-0.020803001 -0.029300928 0.066830635
-0.017040385 -0.031442691 0.065766931
-0.013235127 -0.033037409 0.065663218
-0.0092439111 -0.033654153 0.065215468
-0.00461761 -0.03426642 0.065132558
-0.0010102447 -0.034739543 0.065064847
0.0022729822 -0.03528583 0.065613508
-0.020782307 -0.029774729 0.06195724
-0.017471705 -0.032115914 0.06143111
-0.013758416 -0.033968825 0.06159395
-0.0093045477 -0.033983834 0.060866296
-0.0060017579 -0.034473244 0.06135416
-0.016847957 -0.032127094 0.058123887
-0.013521619 -0.033786051 0.057450294
-0.011103028 -0.034479514 0.05792284
-0.025850743 -0.021975914 0.063429356
-0.024165174 -0.023958698 0.063571036
0.00073500816 -0.03398132 0.061680377
-0.023338802 -0.02554721 0.059679985
-0.021739397 -0.027622711 0.058135927
-0.0075817979 -0.033208273 0.057451606
-0.0043814657 -0.033987757 0.058238268
-0.00050429627 -0.033791427 0.057803512
-0.022991782 -0.026679646 0.054709733
-0.020548591 -0.028503548 0.054581821
-0.017287925 -0.030517919 0.054224849
-0.013863276 -0.032697257 0.053842783
-0.0090290848 -0.033249535 0.05369091
-0.0053825839 -0.033667315 0.053552985
-0.0018976517 -0.033760417 0.053623438
-0.017015589 -0.030962182 0.050457299
-0.013641031 -0.032771617 0.050207019
-0.011057612 -0.033692401 0.04895997
-0.024808321 -0.023049887 0.057380319
0.00052061211 -0.033468701 0.054467857
-0.024711031 -0.02333964 0.053465009
-0.021777522 -0.02707273 0.051474392
-0.0038748207 -0.033484258 0.05072242
-0.0005714884 -0.034049548 0.051285803
-0.023740273 -0.024835449 0.048876882
-0.021152928 -0.027916564 0.04872036
-0.017225754 -0.030320317 0.047719836
-0.013521425 -0.032188762 0.046525002
-0.0086838566 -0.033331208 0.047679424
-0.0054044179 -0.03398785 0.047542751
-0.00059183035 -0.034326632 0.046801746
0.0032286532 -0.034869723 0.047595263
-0.020822097 -0.027757913 0.04443121
-0.017420515 -0.029795093 0.044689357
-0.013597795 -0.032118086 0.04336834
-0.0096229017 -0.033421688 0.042940021
-0.0054053422 -0.034188423 0.042967916
-0.0018840758 -0.034836128 0.043171465
-0.012269202 -0.032279655 0.03984344
-0.011138231 -0.033139084 0.03911972
-0.0068970183 -0.03386585 0.039101601
-0.025574975 -0.021356545 0.049974084
-0.025332782 -0.021814872 0.045699179
-0.024927363 -0.023069538 0.041065037
-0.022203546 -0.025635388 0.041184425
-0.017286852 -0.027946565 0.040032387
-0.0039632432 -0.03418975 0.040295839
-0.00033221673 -0.034229062 0.040111303
-0.024269227 -0.024264148 0.036364794
-0.021619326 -0.025736425 0.036177456
-0.017547319 -0.028248996 0.036212325
-0.013552286 -0.031029575 0.036863804
-0.0092238709 -0.033060137 0.03691709
-0.0052024839 -0.033687662 0.035885453
-0.001187888 -0.033456679 0.034595966
0.0022553494 -0.033614025 0.03514111
-0.018274367 -0.028513607 0.03169173
-0.01434031 -0.031095896 0.031190217
-0.0099511705 -0.032852225 0.031610548
-0.0057339398 -0.033280671 0.031250477
-0.013371335 -0.032133088 0.027520299
-0.011557251 -0.033196669 0.026699483
-0.025867835 -0.022108853 0.035678148
-0.022031181 -0.025999928 0.033876419
0.00056720525 -0.033842579 0.032876849
-0.024452396 -0.022939954 0.031348646
-0.022045705 -0.025156571 0.030382752
-0.018700913 -0.028629517 0.029647231
-0.0090541933 -0.032817923 0.028489113
-0.0047754762 -0.033606291 0.029570699
-0.00097035337 -0.033630785 0.029083014
0.0027867444 -0.033798188 0.028750062
-0.020582542 -0.025468221 0.026426375
-0.018412834 -0.028391942 0.026547849
-0.015380694 -0.031332191 0.025837541
-0.011408882 -0.032692198 0.024679244
-0.0064559896 -0.03295178 0.026020527
-0.0024994528 -0.033402756 0.025611758
0.00069798529 -0.033064332 0.024682939
-0.017499303 -0.028725158 0.021789491
-0.01531521 -0.030840833 0.021799028
-0.01136329 -0.032259673 0.02041471
-0.02526642 -0.021358987 0.028384447
-0.025135577 -0.021354679 0.02412945
-0.021899447 -0.024180295 0.023370326
-0.01899045 -0.026238561 0.022928476
-0.0058584693 -0.032062281 0.022203445
-0.0018286919 -0.032312438 0.02161485
0.0022587376 -0.03285053 0.021701038
-0.024729401 -0.022768922 0.019746125
-0.022079583 -0.02466022 0.01880759
-0.018605631 -0.027433103 0.018893838
-0.015446179 -0.029945485 0.018334508
-0.01059941 -0.031471595 0.017922997
-0.00669201 -0.031938102 0.01815325
-0.002242255 -0.032315712 0.017721117
0.0021169214 -0.032921851 0.01718539
-0.021560825 -0.025594981 0.015529871
-0.018741738 -0.027382422 0.014603853
-0.015315907 -0.030169489 0.013656259
-0.011488293 -0.031588823 0.013662398
-0.0068844259 -0.032029662 0.012947142
-0.0028624469 -0.033043589 0.013562739
0.00016824529 -0.033639111 0.013660014
-0.01541168 -0.031254161 0.0089802742
-0.01261455 -0.032483995 0.0082519054
-0.016165489 -0.031657714 0.0068041086
-0.013690857 -0.032951105 0.0048282146
-0.024749838 -0.022093991 0.012648702
-0.022618229 -0.024105696 0.012401581
-0.019296162 -0.026619188 0.011953413
-0.0012771003 -0.033222362 0.010636687
0.002191727 -0.033431284 0.011223376
-0.021534227 -0.02421633 0.0084378123
-0.018476427 -0.026673615 0.007943511
-0.016862608 -0.029664807 0.0073451996
-0.0099085933 -0.031556394 0.0083719492
-0.0070988303 -0.032177642 0.0077741146
-0.0030767564 -0.033143885 0.0072622299
0.0011829389 -0.033783581 0.0070996881
-0.015865352 -0.030625071 0.0031404495
-0.011535688 -0.032564797 0.0028026104
-0.007775967 -0.032327998 0.0019958615
-0.015533006 -0.031316716 -0.0014221668
-0.022428799 -0.023366289 0.0063713789
-0.0184021 -0.025609201 0.0040912032
-0.00094970409 -0.031993419 0.0028050542
0.0032461053 -0.033182591 0.0043424368
-0.025279172 -0.021700598 0.0015034676
-0.022404106 -0.023830522 0.0018966198
-0.018956561 -0.02625072 0.0021412969
-0.005693044 -0.032020587 0.00049376488
-0.0025142152 -0.031840578 4.8875809e-05
0.0019341307 -0.032361384 -0.00025701523
