# .PCD v0.7 - Point Cloud Data file format
VERSION 0.7
FIELDS x y z
SIZE 4 4 4
TYPE F F F
COUNT 1 1 1
WIDTH 465
HEIGHT 1
VIEWPOINT 0 0 0 1 0 0 0
POINTS 465
DATA ascii
0.03302059 -0.015279355 0.18485561
0.034401041 -0.011874684 0.18588015
0.035752304 -0.0077959355 0.1849758
0.032742091 -0.019899683 0.18201298
0.034626059 -0.016950879 0.18235028
0.036443945 -0.012842881 0.18226445
0.037296437 -0.0085245613 0.18166783
0.033790912 -0.019512463 0.17904538
0.035302412 -0.017336736 0.17938188
0.037191659 -0.013272722 0.17876679
0.038618017 -0.010368941 0.17940071
0.02472968 -0.019735906 0.18720019
0.026540881 -0.017650209 0.18775013
0.029008729 -0.014116457 0.1878356
0.030783428 -0.010033675 0.18781424
0.03175655 -0.005833718 0.18770316
0.032313183 -0.0018757535 0.18747884
0.032887895 0.0017061299 0.18627644
0.024707356 -0.026131503 0.18388531
0.027574442 -0.022829026 0.18528122
0.02958452 -0.018947247 0.18577689
0.030981094 -0.015848365 0.1861698
0.033998713 -0.0063583725 0.18619868
0.035695475 -0.003390139 0.18491453
0.036558174 0.0011167619 0.18404907
0.030124012 -0.023771286 0.1816498
0.031917356 -0.020963976 0.18179172
0.037612546 -0.0071603749 0.17943704
0.037948649 -0.0044762865 0.18057668
0.038755447 5.0385483e-05 0.17965809
0.031337891 -0.023763655 0.17720056
0.033751868 -0.021116927 0.17753425
0.035306435 -0.017436227 0.17673761
0.0366069 -0.013129676 0.17592961
0.037964195 -0.008625444 0.17636412
0.038831811 -0.0049868589 0.17599598
0.039457671 -0.00037913676 0.1749182
0.039285664 0.0036727637 0.17466503
0.031452551 -0.02298246 0.17317596
0.032890368 -0.02051428 0.17264959
0.034329604 -0.017471008 0.17265481
0.035468575 -0.012804043 0.1717312
0.037038408 -0.0085616773 0.17161107
0.038526714 -0.0049954299 0.17129764
0.039538637 -0.0015648957 0.17132419
0.024439981 -0.0048827748 0.1876407
0.021675009 -0.020948801 0.18655953
0.023125011 -0.016283631 0.18770263
0.024809079 -0.012762096 0.18770701
0.025998471 -0.0088144736 0.18754318
0.027393727 -0.0040073893 0.18754047
0.028368885 -0.00021238066 0.18698582
0.022574544 -0.026672546 0.18439907
0.023623277 -0.022847427 0.18566746
0.024194932 -0.026876768 0.17839849
0.026496105 -0.024981655 0.1784696
0.025325423 -0.026672088 0.17407069
0.027423428 -0.024971213 0.17425209
0.029072488 -0.023908701 0.17022783
0.031676099 -0.020782925 0.16944653
0.033478335 -0.016620968 0.16933763
0.035148203 -0.012701306 0.16798934
0.036173858 -0.0085915979 0.16812298
0.038043134 -0.0045446958 0.16764811
0.038587831 -0.00061380863 0.16790116
0.038664639 0.0034712693 0.16808647
0.030550726 -0.022913469 0.16618636
0.031628758 -0.020580951 0.16526628
0.033353936 -0.017103527 0.16442487
0.035206567 -0.013407752 0.16409832
0.036365557 -0.009302156 0.16406476
0.037385594 -0.0047351616 0.16361481
0.038259849 -0.0013272688 0.16415864
0.03870672 0.0024962891 0.16441077
0.034312237 -0.016242778 0.16027141
0.036054168 -0.013794567 0.16024685
0.037176847 -0.011143059 0.15879267
0.015707845 -0.018975228 0.18720683
0.017824141 -0.0148804 0.18731457
0.019835232 -0.010755058 0.18734318
0.021326432 -0.0069234902 0.18750438
0.02226638 -0.0024820128 0.18698019
0.024233803 0.0015286878 0.18637508
0.018788906 -0.019505866 0.18672878
0.023595594 -0.027960841 0.17247429
0.023589451 -0.026965983 0.16737247
0.026894631 -0.025142837 0.16766292
0.024487071 -0.02623984 0.16388953
0.027517553 -0.024356689 0.16341007
0.031512368 -0.020680765 0.16157442
0.035930838 -0.0077197771 0.16129932
0.037002202 -0.0051235277 0.16089144
0.038456026 -0.00055352226 0.16100603
0.038680777 0.0031438936 0.16144407
0.027388468 -0.02383339 0.15905491
0.030614138 -0.021340428 0.15776843
0.033421379 -0.017546818 0.15800929
0.03555724 -0.014316051 0.15759695
0.036420483 -0.0080545284 0.15719473
0.037678801 -0.0050519304 0.15708947
0.038654994 -0.0012323996 0.15650222
0.038506072 0.0026882095 0.15637571
0.031287447 -0.020636491 0.15332615
0.033517756 -0.017604243 0.15281934
0.036032025 -0.014371762 0.15356076
0.037070751 -0.0098797856 0.15278512
0.037307471 -0.0052328184 0.15159777
0.038319327 -0.0014962014 0.15193757
0.03460842 -0.017727736 0.14874801
0.0364074 -0.014705899 0.14842385
0.037677288 -0.011387535 0.14848521
0.014740131 -0.0043842816 0.18828315
0.015370106 -0.0011012694 0.18766919
0.013538854 -0.013158452 0.18754467
0.015324349 -0.0089217136 0.18738633
0.017642153 -0.0058690207 0.18812758
0.018791489 -0.0015362892 0.18752295
0.022203401 -0.026908519 0.16065088
0.02320512 -0.026070302 0.15648335
0.025989834 -0.024801578 0.15653157
0.026349524 -0.024183664 0.1522744
0.029577758 -0.021760471 0.15055418
0.037199445 -0.0036639469 0.14890233
0.038028963 -0.00080876425 0.14899582
0.037678204 0.0032922104 0.1496433
0.031158524 -0.020639077 0.14718893
0.033390909 -0.018738607 0.1463387
0.036770687 -0.0092680939 0.14588681
0.037329026 -0.0059386892 0.14607671
0.038258191 -0.0013665119 0.14518645
0.038205408 0.0019967817 0.14522454
0.033601493 -0.017724501 0.14292082
0.035790712 -0.014663429 0.14238068
0.03673948 -0.010978725 0.14204246
0.037018403 -0.0064154388 0.14167017
0.038848534 -0.0013644472 0.14144024
0.035512678 -0.014686909 0.13844791
0.036739167 -0.011891721 0.13777244
0.010346184 -0.0073083937 0.18736738
0.012191184 -0.0033561466 0.1876578
0.013256614 0.00083369436 0.18704486
0.024844164 -0.025122613 0.14963794
0.023336221 -0.026645334 0.14469871
0.025302827 -0.024537979 0.14542842
0.028425375 -0.021882385 0.14496654
0.037650727 0.0036274614 0.14331859
0.026072364 -0.024345741 0.1403217
0.028774817 -0.021360233 0.13997096
0.032326285 -0.017972976 0.13952583
0.036031671 -0.0091838529 0.13878113
0.036370337 -0.005286715 0.13829565
0.037708867 -0.0016070362 0.13814348
0.037651658 0.0030235974 0.1382311
0.029589551 -0.021990601 0.13490337
0.031944197 -0.018340848 0.13514158
0.034769595 -0.014500734 0.13500282
0.035859197 -0.010197939 0.13462871
0.035922233 -0.0064208657 0.13397139
0.037228823 -0.0019616149 0.13339603
0.037877209 0.0021066666 0.13434085
0.032910556 -0.018185705 0.13064259
0.034598045 -0.014597961 0.13019431
0.036005724 -0.011285096 0.13037056
0.036622047 -0.0068250918 0.13040769
0.037931643 -0.0030622873 0.13055152
0.035691686 -0.01443645 0.12719959
0.036665913 -0.011976443 0.12707615
0.0058081122 -0.006256537 0.18729284
0.0079367906 -0.0016395859 0.18663007
0.024211142 -0.025130928 0.13825732
0.022236256 -0.026671935 0.13447404
0.025330465 -0.025051322 0.13372809
0.028391887 -0.023416679 0.13327947
0.037247665 0.003249282 0.13184336
0.025827602 -0.024982177 0.1287097
0.029007785 -0.022420535 0.12866461
0.031490866 -0.019831391 0.12871262
0.035394978 -0.0092605744 0.12796238
0.036305849 -0.0067761107 0.12759134
0.037354797 -0.0022511734 0.12771586
0.037020791 0.0024715206 0.12670028
0.029081769 -0.022450447 0.12356657
0.032203447 -0.018859625 0.12416697
0.034473229 -0.014968987 0.12399837
0.035953168 -0.010864872 0.12367976
0.036001075 -0.0067919143 0.12279621
0.036892172 -0.002851123 0.12207574
0.03703016 0.00047904719 0.12226188
0.032639306 -0.018523348 0.11865771
0.034287289 -0.014874246 0.1186353
0.035428975 -0.011488116 0.11894763
0.036558207 -0.0056938557 0.1190173
0.0022901262 -5.3741154e-05 0.18614683
0.00358615 -0.0034750933 0.18621144
0.0044964626 -0.00025102845 0.18580082
0.024419431 -0.025938677 0.12701404
0.025446951 -0.025735203 0.12303996
0.028500488 -0.023250617 0.12094164
0.036956247 0.0027507916 0.12068897
0.025808934 -0.02512683 0.11950809
0.028902248 -0.022652756 0.11744368
0.030964304 -0.020747101 0.1181398
0.035141636 -0.010008235 0.11626738
0.035694011 -0.0070281718 0.11666089
0.036892984 -0.0030090939 0.11639053
0.037396215 0.00093757175 0.11559725
0.029566649 -0.021809056 0.11357009
0.032015778 -0.019182665 0.11359811
0.033895724 -0.014891194 0.11352909
0.034924302 -0.011209779 0.11259043
0.035759695 -0.0070119207 0.11213601
0.03697443 -0.0031746691 0.11170268
0.037617885 0.00020029675 0.11194813
-0.0040274593 0.0018436232 0.18703094
0.024369445 -0.025636287 0.11608368
0.025022596 -0.025696997 0.11161196
0.027931452 -0.023144638 0.11210984
0.030708479 -0.018805856 0.1095143
0.032458905 -0.015163497 0.10958135
0.034108069 -0.010050224 0.10902697
0.035081096 -0.0068301428 0.10862523
0.036219422 -0.0036734613 0.10837942
0.036847346 0.0018019397 0.10997528
0.025826128 -0.024943683 0.10687661
0.027579604 -0.022748878 0.10650468
0.030364435 -0.019516166 0.10626131
0.032493271 -0.015312564 0.10577983
0.034003347 -0.011025829 0.10566086
0.035050962 -0.0067115738 0.10522717
0.036065221 -0.0029678177 0.10508132
0.035981115 0.0010415744 0.10478753
0.028650021 -0.021856427 0.10313928
0.030577479 -0.019632097 0.10070401
0.033316035 -0.015827419 0.1007902
0.034699511 -0.011289893 0.10088301
0.035187382 -0.0072733751 0.099843264
0.036102325 -0.0033596661 0.10037887
0.03652516 -0.00032828748 0.10155278
0.032334432 -0.019196235 0.09732765
0.033583038 -0.01652414 0.09656918
0.035472661 -0.013055979 0.095893264
-0.0066106352 0.0029318375 0.18782461
0.023951918 -0.027018759 0.10905671
0.023845928 -0.025955625 0.10467851
0.035866059 0.0029313751 0.10274422
0.024940329 -0.025252253 0.099912584
0.027416574 -0.0231135 0.1003989
0.030217433 -0.021143744 0.10023886
0.034661237 -0.0099138869 0.097726345
0.036289543 -0.0027612234 0.098350585
0.036430553 0.0012943475 0.098670721
0.027691998 -0.022923451 0.096081436
0.030373229 -0.020417444 0.09551239
0.033303585 -0.016794272 0.09394753
0.034943432 -0.011247984 0.094038248
0.036230054 -0.0077497009 0.094276488
0.036518227 -0.0032711532 0.09455359
0.036842406 0.00033001974 0.094371915
0.030610349 -0.019425783 0.092047632
0.03260345 -0.016625108 0.090669274
0.035019759 -0.012508485 0.090137482
0.036223534 -0.007893865 0.0893929
0.036450412 -0.0035275202 0.090896249
0.035534289 -0.011351872 0.087159336
0.022192387 -0.026654623 0.10164183
0.022937629 -0.026526112 0.097868085
0.024428284 -0.025699161 0.093247056
0.026910495 -0.023397155 0.09294939
0.03648448 0.0018919474 0.091517627
0.024277361 -0.025088139 0.088923931
0.026682656 -0.022624318 0.088666677
0.029612903 -0.0200844 0.088918746
0.031582881 -0.017037701 0.08799243
0.035867315 -0.0033741854 0.087380171
0.035480909 0.0010148128 0.08695507
0.027639152 -0.022186186 0.084652901
0.029726533 -0.020122463 0.083625615
0.032516684 -0.016803339 0.084710836
0.034241129 -0.013288454 0.084573984
0.035014279 -0.0085402224 0.083658278
0.035157621 -0.0042598108 0.082714736
0.031040894 -0.019302197 0.080427527
0.032455735 -0.016763715 0.079223514
0.034208171 -0.013093144 0.078980148
0.03547468 -0.010471279 0.079298854
0.035932023 -0.011155568 0.075445235
0.021975283 -0.026032623 0.086968064
0.025367923 -0.023680726 0.085978448
0.034965802 0.0021086112 0.083549857
0.023449348 -0.025001943 0.083206713
0.026127769 -0.023173327 0.08175689
0.034943771 -0.0028145202 0.079910338
0.034998231 0.0010792306 0.080217183
0.026462059 -0.023089461 0.077992141
0.029201033 -0.020347148 0.077003837
0.031755906 -0.01753021 0.076341987
0.033098739 -0.014387108 0.076275706
0.034665279 -0.0082075568 0.076833844
0.035070419 -0.004529885 0.076361835
0.034930062 -0.00032039359 0.075425565
0.030103667 -0.019178478 0.073548555
0.031355351 -0.016457822 0.072760284
0.033387307 -0.01294083 0.072508097
0.035014879 -0.0093853381 0.072289109
0.035150643 -0.0053581744 0.072017908
0.022103716 -0.025765143 0.075989246
0.026052609 -0.023693873 0.075457931
0.034496196 0.000834167 0.074274898
0.026131153 -0.023808369 0.071350634
0.029153693 -0.020365432 0.07117027
0.030930517 -0.01705399 0.06989634
0.032372989 -0.013582106 0.069283247
0.034258842 -0.0084267333 0.068903327
0.0345302 -0.0048047751 0.069075704
0.034746524 -0.00019770674 0.069917679
0.027118659 -0.023278695 0.066890717
0.029300924 -0.020803001 0.066830635
0.031442691 -0.017040385 0.065766931
0.033037405 -0.013235127 0.065663218
0.033654153 -0.0092439111 0.065215468
0.034266416 -0.0046176109 0.065132558
0.034739543 -0.0010102456 0.065064847
0.035285827 0.0022729812 0.065613508
0.029774729 -0.020782305 0.06195724
0.032115914 -0.017471705 0.06143111
0.033968825 -0.013758416 0.06159395
0.033983834 -0.0093045477 0.060866296
0.034473244 -0.0060017584 0.06135416
0.03212709 -0.016847957 0.058123887
0.033786051 -0.013521619 0.057450294
0.034479514 -0.011103028 0.05792284
0.021975912 -0.025850741 0.063429356
0.023958696 -0.024165174 0.063571036
0.03398132 0.00073500723 0.061680377
0.025547208 -0.023338802 0.059679985
0.027622707 -0.021739397 0.058135927
0.033208273 -0.0075817984 0.057451606
0.033987757 -0.0043814657 0.058238268
0.033791423 -0.0005042972 0.057803512
0.026679642 -0.02299178 0.054709733
0.028503545 -0.02054859 0.054581821
0.030517915 -0.017287925 0.054224849
0.032697257 -0.013863276 0.053842783
0.033249535 -0.0090290848 0.05369091
0.033667311 -0.0053825844 0.053552985
0.033760414 -0.0018976526 0.053623438
0.030962182 -0.017015589 0.050457299
0.032771617 -0.013641031 0.050207019
0.033692397 -0.011057612 0.04895997
0.023049887 -0.024808319 0.057380319
0.033468697 0.00052061118 0.054467857
0.02333964 -0.024711031 0.053465009
0.027072728 -0.021777522 0.051474392
0.033484258 -0.0038748216 0.05072242
0.034049544 -0.00057148933 0.051285803
0.024835449 -0.023740273 0.048876882
0.027916564 -0.021152928 0.04872036
0.030320317 -0.017225752 0.047719836
0.032188758 -0.013521424 0.046525002
0.033331204 -0.0086838566 0.047679424
0.03398785 -0.0054044183 0.047542751
0.034326632 -0.00059183035 0.046801746
0.034869723 0.0032286523 0.047595263
0.027757913 -0.020822097 0.04443121
0.029795093 -0.017420515 0.044689357
0.032118082 -0.013597795 0.04336834
0.033421688 -0.0096229017 0.042940021
0.03418842 -0.0054053427 0.042967916
0.034836128 -0.0018840767 0.043171465
0.032279652 -0.012269202 0.03984344
0.03313908 -0.011138231 0.03911972
0.03386585 -0.0068970188 0.039101601
0.021356542 -0.025574973 0.049974084
0.021814868 -0.025332781 0.045699179
0.023069536 -0.024927361 0.041065037
0.025635386 -0.022203546 0.041184425
0.027946562 -0.017286852 0.040032387
0.034189746 -0.0039632432 0.040295839
0.034229062 -0.00033221673 0.040111303
0.024264146 -0.024269227 0.036364794
0.025736423 -0.021619324 0.036177456
0.028248992 -0.017547319 0.036212325
0.031029571 -0.013552286 0.036863804
0.033060133 -0.0092238719 0.03691709
0.033687662 -0.0052024843 0.035885453
0.033456679 -0.0011878889 0.034595966
0.033614021 0.0022553485 0.03514111
0.028513605 -0.018274367 0.03169173
0.031095896 -0.01434031 0.031190217
0.032852225 -0.0099511705 0.031610548
0.033280667 -0.0057339403 0.031250477
0.032133088 -0.013371335 0.027520299
0.033196669 -0.011557251 0.026699483
0.022108851 -0.025867833 0.035678148
0.025999926 -0.022031181 0.033876419
0.033842579 0.00056720432 0.032876849
0.022939954 -0.024452394 0.031348646
0.025156569 -0.022045705 0.030382752
0.028629515 -0.018700913 0.029647231
0.032817919 -0.0090541942 0.028489113
0.033606287 -0.0047754766 0.029570699
0.033630785 -0.00097035337 0.029083014
0.033798188 0.0027867435 0.028750062
0.025468219 -0.02058254 0.026426375
0.028391941 -0.018412832 0.026547849
0.031332191 -0.015380694 0.025837541
0.032692194 -0.011408882 0.024679244
0.03295178 -0.00645599 0.026020527
0.033402752 -0.0024994528 0.025611758
0.033064332 0.00069798436 0.024682939
0.028725157 -0.017499303 0.021789491
0.030840833 -0.01531521 0.021799028
0.032259669 -0.01136329 0.02041471
0.021358985 -0.02526642 0.028384447
0.021354677 -0.025135577 0.02412945
0.024180293 -0.021899447 0.023370326
0.026238559 -0.01899045 0.022928476
0.032062277 -0.0058584698 0.022203445
0.032312434 -0.0018286929 0.02161485
0.03285053 0.0022587366 0.021701038
0.02276892 -0.024729401 0.019746125
0.024660219 -0.022079583 0.01880759
0.027433101 -0.018605631 0.018893838
0.029945485 -0.015446178 0.018334508
0.031471591 -0.01059941 0.017922997
0.031938102 -0.0066920104 0.01815325
0.032315712 -0.002242255 0.017721117
0.032921851 0.0021169204 0.01718539
0.02559498 -0.021560825 0.015529871
0.02738242 -0.018741738 0.014603853
0.030169487 -0.015315907 0.013656259
0.031588823 -0.011488293 0.013662398
0.032029662 -0.0068844263 0.012947142
0.033043586 -0.0028624479 0.013562739
0.033639111 0.00016824435 0.013660014
0.031254161 -0.01541168 0.0089802742
0.032483991 -0.01261455 0.0082519054
0.031657714 -0.016165489 0.0068041086
0.032951105 -0.013690857 0.0048282146
0.022093989 -0.024749838 0.012648702
0.024105694 -0.022618229 0.012401581
0.026619187 -0.019296162 0.011953413
0.033222362 -0.0012771012 0.010636687
0.033431284 0.0021917261 0.011223376
0.024216328 -0.021534227 0.0084378123
0.026673613 -0.018476427 0.007943511
0.029664807 -0.016862607 0.0073451996
0.031556394 -0.0099085933 0.0083719492
0.032177638 -0.0070988308 0.0077741146
0.033143885 -0.0030767573 0.0072622299
0.033783581 0.001182938 0.0070996881
0.030625068 -0.015865352 0.0031404495
0.032564797 -0.011535688 0.0028026104
0.032327995 -0.007775967 0.0019958615
0.031316712 -0.015533006 -0.0014221668
0.023366287 -0.022428799 0.0063713789
0.025609199 -0.0184021 0.0040912032
0.031993415 -0.00094970502 0.0028050542
0.033182587 0.0032461043 0.0043424368
0.021700596 -0.02527917 0.0015034676
0.02383052 -0.022404106 0.0018966198
0.026250718 -0.018956559 0.0021412969
0.032020584 -0.0056930445 0.00049376488
0.031840578 -0.0025142161 4.8875809e-05
0.032361381 0.0019341297 -0.00025701523
