# .PCD v0.7 - Point Cloud Data file format
VERSION 0.7
FIELDS x y z
SIZE 4 4 4
TYPE F F F
COUNT 1 1 1
WIDTH 465
HEIGHT 1
VIEWPOINT 0 0 0 1 0 0 0
POINTS 465
DATA ascii
0.031211501 0.028769871 0.18485561
0.028158065 0.03177787 0.18588015
0.02436504 0.035055354 0.1849758
0.036067225 0.026406879 0.18201298
0.033729956 0.029754071 0.18235028
0.030113732 0.033547569 0.18226445
0.025839794 0.03639441 0.18166783
0.03611812 0.027710244 0.17904538
0.034447819 0.03031081 0.17938188
0.030910866 0.03416159 0.17876679
0.028417818 0.036995441 0.17940071
0.032313444 0.017843748 0.18720019
0.030873992 0.020727154 0.18775013
0.028166907 0.024964841 0.1878356
0.024558583 0.028700532 0.18781424
0.020466086 0.031624552 0.18770316
0.016448472 0.033991612 0.18747884
0.012844294 0.036210254 0.18627644
0.039197031 0.014964282 0.18388531
0.036917478 0.019529037 0.18528122
0.033630893 0.02342869 0.18577689
0.030914254 0.026317541 0.1861698
0.022032633 0.03380705 0.18619868
0.019590838 0.036961131 0.18491453
0.015118195 0.039903164 0.18404907
0.039071392 0.021856427 0.1816498
0.036846168 0.025042767 0.18179172
0.024510525 0.037344187 0.17943704
0.021767516 0.038904812 0.18057668
0.017248604 0.041795421 0.17965809
0.039605118 0.023168227 0.17720056
0.037830073 0.026951823 0.17753425
0.034556855 0.030270729 0.17673761
0.030495608 0.033595167 0.17592961
0.026246663 0.037069116 0.17636412
0.022712138 0.039628781 0.17599598
0.018025089 0.042360555 0.1749182
0.013580911 0.043984182 0.17466503
0.038814295 0.023640592 0.17317596
0.036795877 0.026292309 0.17264959
0.034158222 0.029202312 0.17265481
0.029636402 0.032513592 0.1717312
0.025764603 0.036099721 0.17161107
0.022585163 0.039296106 0.17129764
0.019339319 0.041918427 0.17132419
0.016174516 0.024162883 0.1876407
0.032256976 0.014009727 0.18655953
0.027875949 0.017655458 0.18770263
0.024832107 0.021042883 0.18770701
0.021108145 0.024087353 0.18754318
0.016549716 0.027737433 0.18754047
0.012894602 0.030482851 0.18698582
0.038827978 0.012423856 0.18439907
0.03517326 0.015262019 0.18566746
0.039771546 0.014079228 0.17839849
0.038756274 0.017405668 0.1784696
0.040055651 0.015389118 0.17407069
0.03915903 0.018409854 0.17425209
0.038750038 0.020661678 0.17022783
0.03654331 0.024863552 0.16944653
0.032861941 0.02866428 0.16933763
0.029382629 0.032214142 0.16798934
0.025410861 0.035154495 0.16812298
0.021883434 0.038976111 0.16764811
0.017889677 0.041318215 0.16790116
0.01352083 0.043224845 0.16808647
0.038337298 0.022699345 0.16618636
0.03630447 0.024902698 0.16526628
0.033326533 0.028314751 0.16442487
0.030170137 0.031961653 0.16409832
0.026262332 0.035043884 0.16406476
0.021795161 0.038182333 0.16361481
0.018512253 0.040646158 0.16415864
0.014590509 0.042834908 0.16441077
0.032826614 0.029731957 0.16027141
0.030965494 0.03270255 0.16024685
0.028608775 0.03509644 0.15879267
0.027465615 0.0084590949 0.18720683
0.023996817 0.012568356 0.18731457
0.020448159 0.016577847 0.18734318
0.016984034 0.019895807 0.18750438
0.012616398 0.0228919 0.18698019
0.0091718091 0.026803136 0.18637508
0.029413152 0.011543131 0.18672878
0.04067244 0.012949224 0.17247429
0.039597381 0.013386772 0.16737247
0.03910793 0.017763257 0.16766292
0.039215453 0.014678476 0.16388953
0.038538683 0.018785667 0.16341007
0.036360096 0.024732688 0.16157442
0.024362659 0.035281792 0.16129932
0.022042593 0.0375957 0.16089144
0.017765854 0.041203067 0.16100603
0.013880898 0.043096077 0.16144407
0.03791701 0.018880168 0.15905491
0.036670092 0.023470003 0.15776843
0.033834446 0.028189529 0.15800929
0.031305719 0.031934109 0.15759695
0.024942087 0.03566011 0.15719473
0.022267498 0.038356949 0.15708947
0.018586416 0.041114427 0.15650222
0.014294062 0.042704325 0.15637571
0.036211956 0.02451002 0.15332615
0.033939373 0.028267773 0.15281934
0.03157774 0.032420982 0.15356076
0.027199779 0.03554609 0.15278512
0.022296686 0.037875947 0.15159777
0.018720895 0.040634848 0.15193757
0.034559421 0.029388217 0.14874801
0.032105487 0.03267641 0.14842385
0.029095713 0.035526697 0.14848521
0.011306576 0.013930365 0.18828315
0.0080492133 0.016075138 0.18766919
0.020227574 0.0087182075 0.18754467
0.016458124 0.012534272 0.18738633
0.014202566 0.016395455 0.18812758
0.010045627 0.019568687 0.18752295
0.038916621 0.011918463 0.16065088
0.038460374 0.01337241 0.15648335
0.038336139 0.016940378 0.15653157
0.037830703 0.017603949 0.1522744
0.036660135 0.022165401 0.15055418
0.020557433 0.038459953 0.14890233
0.017850297 0.040628791 0.14899582
0.01327342 0.042081662 0.1496433
0.036157183 0.024369905 0.14718893
0.035105426 0.027624596 0.1463387
0.026406491 0.035495766 0.14588681
0.023067139 0.037584029 0.14607671
0.018553812 0.040626854 0.14518645
0.014905089 0.042071551 0.14522454
0.034106381 0.028304337 0.14292082
0.031784382 0.032030668 0.14238068
0.02823638 0.034698393 0.14204246
0.023442326 0.037036374 0.14167017
0.018815152 0.041264083 0.14144024
0.031685557 0.0317205 0.13844791
0.029220317 0.034290429 0.13777244
0.01249662 0.0078887977 0.18736738
0.0090603791 0.011641985 0.1876578
0.0050199954 0.014660981 0.18704486
0.038170673 0.015562175 0.14963794
0.039138712 0.013256986 0.14469871
0.037745293 0.016317565 0.14542842
0.036277041 0.02086886 0.14496654
0.012899802 0.042201724 0.14331859
0.037881657 0.017232846 0.1403217
0.035870247 0.021478631 0.13997096
0.033804867 0.026818905 0.13952583
0.025985746 0.034736816 0.13878113
0.021936381 0.036841784 0.13829565
0.018567812 0.039927378 0.13814348
0.013551096 0.041933119 0.1382311
0.036913447 0.022075366 0.13490337
0.034030791 0.026242826 0.13514158
0.031153126 0.031002684 0.13500282
0.027001785 0.03409816 0.13462871
0.022958774 0.035852432 0.13397139
0.018735671 0.039251648 0.13339603
0.014640122 0.04176686 0.13434085
0.034295011 0.027353689 0.13064259
0.031181332 0.030774366 0.13019431
0.028239006 0.033770721 0.13037056
0.023706917 0.036426269 0.13040769
0.020235829 0.039517779 0.13055152
0.031495515 0.032025266 0.12719959
0.029278934 0.034173653 0.12707615
0.0093367808 0.0034670103 0.18729284
0.0053107347 0.0078227287 0.18663007
0.037897013 0.014876151 0.13825732
0.038676288 0.0120595 0.13447404
0.038310945 0.016118169 0.13372809
0.037915844 0.020147759 0.13327947
0.013127473 0.041598439 0.13184336
0.03845837 0.016684879 0.1287097
0.037117116 0.021256354 0.12866461
0.035434991 0.025088724 0.12871262
0.02578418 0.034016296 0.12796238
0.023512946 0.036107309 0.12759134
0.019104021 0.039258152 0.12771586
0.013864498 0.041006651 0.12670028
0.037182391 0.021322746 0.12356657
0.034705706 0.026290646 0.12416697
0.031525519 0.03047418 0.12399837
0.027762603 0.033901691 0.12367976
0.02339391 0.03577175 0.12279621
0.019544136 0.038491651 0.12207574
0.01601629 0.040127188 0.12226188
0.034537841 0.026910577 0.11865771
0.03134039 0.030316068 0.1186353
0.028200334 0.033058424 0.11894763
0.022459099 0.036862504 0.1190173
0.0010803845 0.0024444407 0.18614683
0.005346749 0.0023138621 0.18621144
0.0022780818 0.0047344789 0.18580082
0.038860645 0.014740031 0.12701404
0.039100081 0.015938394 0.12303996
0.03778534 0.020338956 0.12094164
0.013534667 0.041061766 0.12068897
0.038605951 0.01660018 0.11950809
0.037320301 0.021038923 0.11744368
0.036186907 0.024112336 0.1181398
0.026476946 0.033409428 0.11626738
0.023511475 0.035335302 0.11666089
0.019714771 0.038422003 0.11639053
0.015685495 0.040726461 0.11559725
0.036707543 0.022131734 0.11357009
0.034970108 0.02594414 0.11359811
0.031183835 0.029886443 0.11352909
0.027675012 0.032638729 0.11259043
0.02352328 0.035413355 0.11213601
0.019929599 0.038435861 0.11170268
0.01657914 0.040636219 0.11194813
-0.0037852821 -0.0035179236 0.18703094
0.038512394 0.014821154 0.11608368
0.038869437 0.015498057 0.11161196
0.037417054 0.019772932 0.11210984
0.033980299 0.024703287 0.1095143
0.03083585 0.028216181 0.10958135
0.026060753 0.032276638 0.10902697
0.02302438 0.034763079 0.10862523
0.020130143 0.037399378 0.10837942
0.014508775 0.040520761 0.10997528
0.038416222 0.016700478 0.10687661
0.036833394 0.019570384 0.10650468
0.034592312 0.024015326 0.10626131
0.031011866 0.02818667 0.10577983
0.027065566 0.031728193 0.10566086
0.022883128 0.034783538 0.10522717
0.019300714 0.037548218 0.10508132
0.014941602 0.03924761 0.10478753
0.03634936 0.021122588 0.10313928
0.034812387 0.024193203 0.10070401
0.031934146 0.028843632 0.1007902
0.027661001 0.032360666 0.10088301
0.023549575 0.034679752 0.099843264
0.019739635 0.037413262 0.10037887
0.016661014 0.039222419 0.10155278
0.035127003 0.026281543 0.09732765
0.032804318 0.02882036 0.09656918
0.029909778 0.032405518 0.095893264
-0.0061115194 -0.0058163758 0.18782461
0.039816096 0.013753897 0.10905671
0.038622864 0.014114307 0.10467851
0.012853296 0.039967328 0.10274422
0.038353339 0.015607947 0.099912584
0.03715362 0.019231867 0.1003989
0.036280982 0.023130227 0.10023886
0.026160771 0.032933749 0.097726345
0.019178186 0.037882239 0.098350585
0.014869806 0.039844897 0.098670721
0.037071735 0.019613583 0.096081436
0.035567686 0.023622418 0.09551239
0.032970719 0.028398549 0.09394753
0.027724728 0.032642286 0.094038248
0.0245285 0.035590943 0.094276488
0.019829918 0.037901063 0.09455359
0.016093094 0.039858278 0.094371915
0.034604684 0.02432074 0.092047632
0.032475796 0.027719425 0.090669274
0.02911745 0.032161791 0.090137482
0.024680981 0.035519555 0.0893929
0.020075969 0.037713513 0.090896249
0.028100504 0.033232767 0.087159336
0.03863804 0.012019944 0.10164183
0.038832247 0.012880588 0.097868085
0.038606431 0.014856505 0.093247056
0.037233412 0.018559745 0.09294939
0.014249757 0.040169831 0.091517627
0.037880458 0.014966633 0.088923931
0.036298677 0.018659212 0.088666677
0.034869254 0.022951584 0.088918746
0.032464866 0.026435185 0.08799243
0.019650362 0.037153475 0.087380171
0.014747124 0.038696513 0.08695507
0.036253475 0.019885788 0.084652901
0.034961015 0.02305707 0.083625615
0.03262917 0.027546333 0.084710836
0.029610518 0.03097431 0.084573984
0.024837777 0.033927571 0.083658278
0.020288091 0.035993125 0.082714736
0.034663696 0.024839982 0.080427527
0.032559246 0.027498327 0.079223514
0.029385285 0.031025982 0.078980148
0.027124733 0.033561669 0.079298854
0.02806649 0.033749111 0.075445235
0.037870683 0.012063636 0.086968064
0.036850359 0.016770463 0.085978448
0.013338184 0.038629636 0.083549857
0.037417874 0.014112635 0.083206713
0.036642697 0.017816003 0.08175689
0.018634794 0.036407895 0.079910338
0.014462193 0.038205013 0.080217183
0.036701553 0.018213768 0.077992141
0.034968574 0.022390336 0.077003837
0.033072971 0.026401795 0.076341987
0.030284679 0.029252464 0.076275706
0.024323391 0.033699922 0.076833844
0.020540258 0.035778552 0.076361835
0.015940353 0.037506655 0.075425565
0.034111906 0.023885023 0.073548555
0.031738255 0.026448837 0.072760284
0.028854625 0.030209208 0.072508097
0.025748955 0.033550899 0.072289109
0.021468855 0.035495222 0.072017908
0.037639719 0.012321491 0.075989246
0.037170216 0.017502591 0.075457931
0.014502193 0.037554473 0.074274898
0.037328698 0.01753613 0.071350634
0.034967151 0.022331152 0.07117027
0.032191165 0.025724757 0.06989634
0.029092975 0.028829608 0.069283247
0.024378177 0.033163987 0.068903327
0.020595362 0.035073541 0.069075704
0.015726171 0.0373636 0.069917679
0.037198663 0.018837005 0.066890717
0.03550452 0.022294488 0.066830635
0.032405172 0.026282882 0.065766931
0.029015617 0.029700672 0.065663218
0.024989003 0.03214737 0.065215468
0.020275859 0.034872789 0.065132558
0.016598856 0.036993302 0.065064847
0.013303896 0.039047964 0.065613508
0.03569375 0.022814419 0.06195724
0.03317064 0.026815956 0.06143111
0.029995497 0.030470982 0.06159395
0.025201552 0.03247565 0.060866296
0.021860115 0.034477744 0.06135416
0.032503322 0.027106484 0.058123887
0.029658658 0.030379696 0.057450294
0.027361365 0.032206967 0.05792284
0.037674919 0.012145521 0.063429356
0.036743354 0.015035226 0.063571036
0.014379201 0.036955237 0.061680377
0.036561858 0.017116368 0.059679985
0.03576456 0.020067539 0.058135927
0.022998409 0.032408848 0.057451606
0.019896915 0.034677856 0.058238268
0.015630215 0.036197256 0.057803512
0.036693409 0.018491901 0.054709733
0.034874298 0.021548612 0.054581821
0.032259103 0.025175586 0.054224849
0.029540809 0.029053593 0.053842783
0.024576804 0.031807162 0.05369091
0.020832909 0.033885498 0.053552985
0.017118212 0.035541747 0.053623438
0.032163914 0.025776032 0.050457299
0.029334461 0.029232966 0.050207019
0.026960993 0.031378843 0.04895997
0.037030827 0.013768516 0.057380319
0.014381424 0.036306988 0.054467857
0.037055328 0.014124265 0.053465009
0.035560105 0.019457716 0.051474392
0.019126028 0.034361355 0.05072242
0.015817881 0.036445476 0.051285803
0.036676809 0.016169943 0.048876882
0.035263624 0.020646108 0.04872036
0.032103866 0.024990359 0.047719836
0.028945317 0.028658127 0.046525002
0.024241161 0.032049328 0.047679424
0.020999555 0.034221247 0.047542751
0.015963513 0.03673505 0.046801746
0.012088043 0.039026137 0.047595263
0.034836203 0.020622812 0.04443121
0.032079302 0.024337288 0.044689357
0.02899608 0.028547853 0.04336834
0.025293713 0.031727597 0.042940021
0.021090101 0.034437023 0.042967916
0.017583847 0.036707278 0.043171465
0.027636178 0.02931517 0.03984344
0.026800852 0.030746453 0.03911972
0.022553898 0.033423353 0.039101601
0.037101153 0.011601046 0.049974084
0.03704473 0.012203188 0.045699179
0.037167907 0.013736548 0.041065037
0.035377577 0.017718261 0.041184425
0.031109933 0.022404511 0.040032387
0.019536309 0.035082296 0.040295839
0.015640127 0.036745794 0.040111303
0.036991883 0.015318003 0.036364794
0.034792978 0.018087998 0.036177456
0.031525701 0.0226142 0.036212325
0.028461045 0.027394908 0.036863804
0.024702197 0.031516053 0.03691709
0.020647876 0.033987843 0.035885453
0.01621758 0.035531245 0.034595966
0.0125765 0.037238121 0.03514111
0.032427497 0.022574812 0.03169173
0.029340036 0.02711457 0.031190217
0.025393296 0.030967239 0.031610548
0.021039004 0.033311889 0.031250477
0.028758686 0.028665129 0.027520299
0.027278209 0.030621445 0.026699483
0.037752695 0.012281178 0.035678148
0.035354547 0.018188134 0.033876419
0.014498126 0.036730777 0.032876849
0.036598109 0.013808933 0.031348646
0.034993675 0.017272633 0.030382752
0.032939002 0.022509307 0.029647231
0.02441117 0.031330734 0.028489113
0.020151291 0.034090776 0.029570699
0.016060838 0.035816029 0.029083014
0.012085956 0.037673876 0.028750062
0.033555727 0.018261798 0.026426375
0.032522425 0.022381853 0.026547849
0.030566923 0.026904773 0.025837541
0.026893059 0.030143933 0.024679244
0.021670435 0.032635022 0.026020527
0.017607186 0.034887556 0.025611758
0.014009705 0.035950325 0.024682939
0.031686537 0.023148872 0.021789491
0.030276965 0.026404392 0.021799028
0.026650811 0.029698091 0.02041471
0.03676967 0.011741438 0.028384447
0.036626711 0.011795212 0.02412945
0.034400158 0.016285643 0.023370326
0.032183606 0.019802926 0.022928476
0.020629259 0.031943031 0.022203445
0.016397413 0.034011818 0.02161485
0.012231977 0.036416698 0.021701038
0.036820322 0.013500907 0.019746125
0.034808584 0.01672251 0.01880759
0.032302145 0.021262283 0.018893838
0.030018389 0.025380861 0.018334508
0.025475606 0.029189698 0.017922997
0.021472257 0.031437043 0.01815325
0.016844638 0.03383071 0.017721117
0.012416678 0.036430255 0.01718539
0.034666777 0.017961655 0.015529871
0.032426223 0.02114689 0.014603853
0.029977985 0.025680467 0.013656259
0.026486035 0.028919198 0.013662398
0.021720534 0.031449825 0.012947142
0.017838087 0.034338363 0.013562739
0.014837309 0.036333349 0.013660014
0.030565482 0.026806831 0.0089802742
0.028099647 0.029381236 0.0082519054
0.031558152 0.026905257 0.0068041086
0.029468302 0.029404186 0.0048282146
0.036541015 0.012764304 0.012648702
0.035141595 0.015884329 0.012401581
0.03268306 0.020076701 0.011953413
0.016209126 0.035238858 0.010636687
0.012563491 0.037012748 0.011223376
0.034022588 0.016487543 0.0084378123
0.031823799 0.020501347 0.007943511
0.031419788 0.024445944 0.0073451996
0.024768867 0.029589526 0.0083719492
0.022017699 0.031513602 0.0077741146
0.018113863 0.034350786 0.0072622299
0.013808111 0.036942087 0.0070996881
0.030773608 0.025926208 0.0031404495
0.026972856 0.02995 0.0028026104
0.022814687 0.031373348 0.0019958615
0.030724183 0.02682009 -0.0014221668
0.034607299 0.015171923 0.0063713789
0.031268463 0.019387243 0.0040912032
0.015307557 0.034060396 0.0028050542
0.011315986 0.037215434 0.0043424368
0.036935929 0.012103953 0.0015034676
0.034787949 0.015683323 0.0018966198
0.032152507 0.019831162 0.0021412969
0.020432342 0.031971954 0.00049376488
0.01692564 0.033197161 4.8875809e-05
0.012363473 0.03574454 -0.00025701523
