# .PCD v0.7 - Point Cloud Data file format
VERSION 0.7
FIELDS x y z
SIZE 4 4 4
TYPE F F F
COUNT 1 1 1
WIDTH 1282
HEIGHT 1
VIEWPOINT 0 0 0 1 0 0 0
POINTS 1282
DATA ascii
-0.034654446 -0.010768138 0.092612132
-0.034090221 -0.012531757 0.092612132
-0.035048738 -0.0089738071 0.090817802
-0.035462752 -0.0071794838 0.090817802
-0.03514801 -0.0089738071 0.092612132
-0.035558015 -0.0071794838 0.092612132
-0.035903618 -0.0035908222 0.089023478
-0.035884544 -0.003767781 0.089023478
-0.035884544 -0.0035908222 0.088760354
-0.035931498 -0.0017964989 0.087229148
-0.035884544 -0.0024420768 0.087229148
-0.035884544 -0.0017964989 0.086562984
-0.035986073 -2.168119e-06 0.087229148
-0.035884544 -2.168119e-06 0.085687809
-0.036054231 -0.0017964989 0.089023478
-0.036104389 -2.168119e-06 0.089023478
-0.035523333 -0.005385153 0.087229148
-0.03577394 -0.0035908222 0.087229148
-0.035663694 -0.005385153 0.089023478
0.0017963499 -0.033127286 0.0028957166
0.0017963499 -0.033337466 0.0046900436
0.0035906732 -0.032993563 0.0028957166
0.0035906732 -0.033223927 0.0046900436
0.0017963499 -0.033416562 0.0064843725
0.0035906732 -0.033299074 0.0064843725
0.005385004 -0.032720245 0.0028957166
0.005385004 -0.032963462 0.0046900436
0.0071793348 -0.03233999 0.0028957166
0.0071793348 -0.032575637 0.0046900436
0.005385004 -0.033052169 0.0064843725
0.0071793348 -0.032683343 0.0064843725
0.0073406771 -0.032300077 0.0028957166
0.0071793348 -0.032300077 0.0026734117
0.0071793348 -0.031959772 0.0011013877
0.0089736581 -0.031460837 0.0011013877
0.010767996 -0.030835517 0.0011013877
0.010767996 -0.030505747 2.4210662e-05
0.0089736581 -0.03183718 0.0028957166
0.010767996 -0.03123565 0.0028957166
0.011640191 -0.030505747 0.0011013877
0.01256232 -0.030147776 0.0011013877
0.014356643 -0.029386461 0.0011013877
0.01256232 -0.030553795 0.0028957166
0.01256232 -0.030505747 0.0026439205
0.012684718 -0.030505747 0.0028957166
0.014356643 -0.029831596 0.0028957166
0.0081670284 -0.032300077 0.0046900436
0.0085407123 -0.032300077 0.0064843725
0.0089736581 -0.032060839 0.0046900436
0.010767996 -0.031478509 0.0046900436
0.0089736581 -0.032170914 0.0064843725
0.010767996 -0.031600036 0.0064843725
0.01256232 -0.030803725 0.0046900436
0.01332438 -0.030505747 0.0046900436
0.014356643 -0.030101962 0.0046900436
0.01256232 -0.03093873 0.0064843725
0.013668865 -0.030505747 0.0064843725
0.014356643 -0.030236334 0.0064843725
0.015699223 -0.028711423 0.0011013877
0.016150981 -0.028940611 0.0028957166
0.016150981 -0.028711423 0.0019483026
0.016552165 -0.028711423 0.0028957166
0.016150981 -0.029228911 0.0046900436
0.017032132 -0.028711423 0.0046900436
0.016150981 -0.02936884 0.0064843725
0.01725246 -0.028711423 0.0064843725
0.016150981 -0.028457679 0.0011013877
0.017945305 -0.027304567 0.0011013877
0.017945305 -0.026917093 0.00013302639
0.017945305 -0.027824938 0.0028957166
0.017945305 -0.028146341 0.0046900436
0.017945305 -0.028292693 0.0064843725
0.019192353 -0.026917093 0.0028957166
0.019671261 -0.026917093 0.0046900436
0.019739628 -0.026513197 0.0028957166
0.019739628 -0.02686695 0.0046900436
0.021406278 -0.025122762 0.0028957166
0.021533966 -0.025406152 0.0046900436
0.021533966 -0.025122762 0.0032827035
0.019739628 -0.027021527 0.0064843725
0.019739628 -0.026917093 0.005143892
0.019873321 -0.026917093 0.0064843725
0.021533966 -0.025560431 0.0064843725
0.021533966 -0.025007628 0.0028957166
0.021847144 -0.025122762 0.0046900436
0.022033483 -0.025122762 0.0064843725
0.023320898 -0.023328438 0.0028957166
0.023328289 -0.023717299 0.0046900436
0.023328289 -0.023328438 0.0029200669
0.023718789 -0.023328438 0.0046900436
0.023328289 -0.023321025 0.0028957166
0.025028899 -0.021534108 0.0028957166
0.025122613 -0.021883599 0.0046900436
0.025122613 -0.021534108 0.003207406
0.023328289 -0.023918107 0.0064843725
0.023918197 -0.023328438 0.0064843725
0.025122613 -0.0220792 0.0064843725
0.02544333 -0.021534108 0.0046900436
0.025626853 -0.021534108 0.0064843725
0.025122613 -0.021430016 0.0028957166
0.026517332 -0.019739777 0.0028957166
0.026880041 -0.019739777 0.0046900436
0.026916951 -0.019193523 0.0028957166
0.026916951 -0.019688182 0.0046900436
0.027751043 -0.017945454 0.0028957166
0.028086662 -0.017945454 0.0046900436
0.026916951 -0.019905239 0.0064843725
0.026916951 -0.019739777 0.0050086677
0.027034819 -0.019739777 0.0064843725
0.028232142 -0.017945454 0.0064843725
0.028711274 -0.01627063 0.0028957166
0.028711274 -0.016870975 0.0046900436
0.028711274 -0.017121285 0.0064843725
0.028775081 -0.016151123 0.0028957166
0.029117331 -0.016151123 0.0046900436
0.029690608 -0.014356792 0.0028957166
0.03003338 -0.014356792 0.0046900436
0.029255792 -0.016151123 0.0064843725
0.030169711 -0.014356792 0.0064843725
0.030491233 -0.012562469 0.0028957166
0.030505598 -0.01325579 0.0046900436
0.030505598 -0.012562469 0.0029588472
0.030785099 -0.012562469 0.0046900436
0.030505598 -0.012527525 0.0028957166
0.031207845 -0.010768138 0.0028957166
0.031504914 -0.010768138 0.0046900436
0.030505598 -0.013606869 0.0064843725
0.030933365 -0.012562469 0.0064843725
0.031654164 -0.010768138 0.0064843725
0.03180939 -0.0089738071 0.0028957166
0.032110125 -0.0089738071 0.0046900436
0.032270148 -0.0071794838 0.0028957166
0.032299936 -0.0082943514 0.0046900436
0.032299936 -0.0071794838 0.0030220449
0.032251805 -0.0089738071 0.0064843725
0.032299936 -0.0087896809 0.0064843725
0.032583475 -0.0071794838 0.0046900436
0.032714352 -0.0071794838 0.0064843725
0.032299936 -0.007045038 0.0028957166
0.032615498 -0.005385153 0.0028957166
0.032933146 -0.005385153 0.0046900436
0.032824844 -0.0035908222 0.0028957166
0.033124238 -0.0035908222 0.0046900436
0.033045486 -0.005385153 0.0064843725
0.033235565 -0.0035908222 0.0064843725
0.032941833 -0.0017964989 0.0028957166
0.033242896 -0.0017964989 0.0046900436
0.032998607 -2.168119e-06 0.0028957166
0.033290356 -2.168119e-06 0.0046900436
0.033371076 -0.0017964989 0.0064843725
0.033408284 -2.168119e-06 0.0064843725
0.0017963499 -0.033434756 0.0082787015
0.0035906732 -0.033320047 0.0082787015
0.0017963499 -0.033388004 0.010073029
0.0035906732 -0.033272803 0.010073029
0.005385004 -0.033094741 0.0082787015
0.0071793348 -0.032711253 0.0082787015
0.005385004 -0.033061251 0.010073029
0.0071793348 -0.032686636 0.010073029
0.0017963499 -0.033363298 0.011867359
0.0035906732 -0.033238575 0.011867359
0.0017963499 -0.033313081 0.013661686
0.0035906732 -0.033184618 0.013661686
0.005385004 -0.033017367 0.011867359
0.0071793348 -0.032649912 0.011867359
0.005385004 -0.032949388 0.013661686
0.0071793348 -0.032593787 0.013661686
0.008670941 -0.032300077 0.0082787015
0.0086315721 -0.032300077 0.010073029
0.0089736581 -0.032211088 0.0082787015
0.010767996 -0.031641521 0.0082787015
0.0089736581 -0.032200091 0.010073029
0.010767996 -0.031624518 0.010073029
0.01256232 -0.031001776 0.0082787015
0.013818994 -0.030505747 0.0082787015
0.014356643 -0.030273706 0.0082787015
0.01256232 -0.030967914 0.010073029
0.013719067 -0.030505747 0.010073029
0.014356643 -0.030226894 0.010073029
0.0084827244 -0.032300077 0.011867359
0.008333683 -0.032300077 0.013661686
0.0089736581 -0.032157391 0.011867359
0.010767996 -0.031592265 0.011867359
0.0089736581 -0.032121092 0.013661686
0.010767996 -0.031563453 0.013661686
0.01256232 -0.030936182 0.011867359
0.01361379 -0.030505747 0.011867359
0.014356643 -0.030189335 0.011867359
0.01256232 -0.030901343 0.013661686
0.013536811 -0.030505747 0.013661686
0.014356643 -0.030155033 0.013661686
0.0017963499 -0.033232242 0.017250344
0.0017963499 -0.033260986 0.019044671
0.0035906732 -0.03311833 0.017250344
0.0035906732 -0.033145279 0.019044671
0.0017963499 -0.033307351 0.020838998
0.0035906732 -0.033176593 0.020838998
0.005385004 -0.032889605 0.017250344
0.005385004 -0.032913536 0.019044671
0.0071793348 -0.03252469 0.017250344
0.0071793348 -0.032548264 0.019044671
0.005385004 -0.032949194 0.020838998
0.0071793348 -0.032597929 0.020838998
0.0081364736 -0.032300077 0.015456013
0.0071793348 -0.032535389 0.015456013
0.0080756098 -0.032300077 0.017250344
0.0089736581 -0.032070465 0.015456013
0.010767996 -0.031507514 0.015456013
0.0089736581 -0.032046534 0.017250344
0.010767996 -0.031478219 0.017250344
0.01256232 -0.030824088 0.015456013
0.013352633 -0.030505747 0.015456013
0.014356643 -0.030085564 0.015456013
0.01256232 -0.030807614 0.017250344
0.013308883 -0.030505747 0.017250344
0.014356643 -0.03006015 0.017250344
0.0081997439 -0.032300077 0.019044671
0.0083804578 -0.032300077 0.020838998
0.0089736581 -0.032075815 0.019044671
0.010767996 -0.031496212 0.019044671
0.0089736581 -0.032132909 0.020838998
0.010767996 -0.031549349 0.020838998
0.01256232 -0.030828714 0.019044671
0.013356313 -0.030505747 0.019044671
0.014356643 -0.030064985 0.019044671
0.01256232 -0.030869089 0.020838998
0.013458863 -0.030505747 0.020838998
0.014356643 -0.03010986 0.020838998
0.016150981 -0.029401787 0.0082787015
0.017350361 -0.028711423 0.0082787015
0.016150981 -0.029354393 0.010073029
0.017284006 -0.028711423 0.010073029
0.016150981 -0.029303089 0.011867359
0.017156169 -0.028711423 0.011867359
0.016150981 -0.029256791 0.013661686
0.01708366 -0.028711423 0.013661686
0.016150981 -0.029196121 0.015456013
0.016982347 -0.028711423 0.015456013
0.016150981 -0.0291574 0.017250344
0.016919196 -0.028711423 0.017250344
0.016150981 -0.029143982 0.019044671
0.016916245 -0.028711423 0.019044671
0.016150981 -0.029180028 0.020838998
0.016973093 -0.028711423 0.020838998
0.0017963499 -0.033393666 0.022633329
0.0035906732 -0.033261791 0.022633329
0.0017963499 -0.033485584 0.024427656
0.0035906732 -0.033355623 0.024427656
0.005385004 -0.033038341 0.022633329
0.0071793348 -0.032687716 0.022633329
0.005385004 -0.033134371 0.024427656
0.0071793348 -0.032788865 0.024427656
0.0017963499 -0.033587523 0.026221983
0.0035906732 -0.033456326 0.026221983
0.0017963499 -0.033689067 0.028016314
0.0035906732 -0.033558071 0.028016314
0.005385004 -0.033237271 0.026221983
0.0071793348 -0.032892346 0.026221983
0.005385004 -0.033338226 0.028016314
0.0071793348 -0.03299477 0.028016314
0.0087082759 -0.032300077 0.022633329
0.0089736581 -0.032324895 0.024427656
0.0089736581 -0.032300077 0.023935806
0.0090579763 -0.032300077 0.024427656
0.0089736581 -0.032225288 0.022633329
0.010767996 -0.031646959 0.022633329
0.010767996 -0.031751037 0.024427656
0.01256232 -0.030955568 0.022633329
0.013658598 -0.030505747 0.022633329
0.014356643 -0.030198731 0.022633329
0.01256232 -0.031060241 0.024427656
0.013890669 -0.030505747 0.024427656
0.014356643 -0.030297294 0.024427656
0.0089736581 -0.032426208 0.026221983
0.0094035268 -0.032300077 0.026221983
0.0089736581 -0.032531813 0.028016314
0.0097496733 -0.032300077 0.028016314
0.010767996 -0.031857722 0.026221983
0.010767996 -0.03196352 0.028016314
0.01256232 -0.031172007 0.026221983
0.014140263 -0.030505747 0.026221983
0.014356643 -0.030407384 0.026221983
0.01256232 -0.031284124 0.028016314
0.014356643 -0.030515097 0.028016314
0.014356643 -0.030505747 0.027844712
0.0017963499 -0.033774175 0.029810641
0.0035906732 -0.03364189 0.029810641
0.0017963499 -0.033854522 0.031604968
0.0035906732 -0.033723503 0.031604968
0.005385004 -0.033423692 0.029810641
0.0071793348 -0.033090562 0.029810641
0.005385004 -0.033503175 0.031604968
0.0071793348 -0.033177614 0.031604968
0.0017963499 -0.033930168 0.033399299
0.0035906732 -0.033798404 0.033399299
0.0017963499 -0.034003168 0.035193626
0.0035906732 -0.033870943 0.035193626
0.005385004 -0.033575751 0.033399299
0.0071793348 -0.033249699 0.033399299
0.005385004 -0.033649094 0.035193626
0.0071793348 -0.033327051 0.035193626
0.0089736581 -0.032626078 0.029810641
0.010041833 -0.032300077 0.029810641
0.0089736581 -0.032721415 0.031604968
0.010323599 -0.032300077 0.031604968
0.010767996 -0.032057069 0.029810641
0.010767996 -0.032150172 0.031604968
0.01256232 -0.031377353 0.029810641
0.014356643 -0.030607015 0.029810641
0.01256232 -0.031471595 0.031604968
0.014356643 -0.030693904 0.031604968
0.0089736581 -0.032803819 0.033399299
0.010577098 -0.032300077 0.033399299
0.0089736581 -0.032883763 0.035193626
0.010767996 -0.032316551 0.035193626
0.010767996 -0.032300077 0.034842674
0.010815889 -0.032300077 0.035193626
0.010767996 -0.032235228 0.033399299
0.01256232 -0.031560183 0.033399299
0.014356643 -0.030780703 0.033399299
0.01256232 -0.031642959 0.035193626
0.014356643 -0.03086444 0.035193626
0.016150981 -0.029276676 0.022633329
0.017139703 -0.028711423 0.022633329
0.016150981 -0.029387236 0.024427656
0.01734069 -0.028711423 0.024427656
0.016150981 -0.029506482 0.026221983
0.01754345 -0.028711423 0.026221983
0.014376998 -0.030505747 0.028016314
0.016150981 -0.029626429 0.028016314
0.017740294 -0.028711423 0.028016314
0.01457873 -0.030505747 0.029810641
0.016150981 -0.029727355 0.029810641
0.01790446 -0.028711423 0.029810641
0.014767021 -0.030505747 0.031604968
0.016150981 -0.029823631 0.031604968
0.017945305 -0.028782345 0.031604968
0.017945305 -0.028711423 0.030276679
0.018059313 -0.028711423 0.031604968
0.014952213 -0.030505747 0.033399299
0.016150981 -0.029912084 0.033399299
0.017945305 -0.028871872 0.033399299
0.01512894 -0.030505747 0.035193626
0.016150981 -0.029999316 0.035193626
0.017945305 -0.028952353 0.035193626
0.018201783 -0.028711423 0.033399299
0.018326789 -0.028711423 0.035193626
0.017945305 -0.028334588 0.0082787015
0.017945305 -0.028294794 0.010073029
0.019739628 -0.027055904 0.0082787015
0.019922271 -0.026917093 0.0082787015
0.021533966 -0.025614716 0.0082787015
0.019739628 -0.027026668 0.010073029
0.019880474 -0.026917093 0.010073029
0.021533966 -0.025571793 0.010073029
0.017945305 -0.028224081 0.011867359
0.017945305 -0.028162487 0.013661686
0.019739628 -0.026971892 0.011867359
0.019810572 -0.026917093 0.011867359
0.021533966 -0.025515608 0.011867359
0.019712806 -0.026917093 0.013661686
0.019739628 -0.026917093 0.013194364
0.019739628 -0.02689752 0.013661686
0.021533966 -0.02546341 0.013661686
0.022100151 -0.025122762 0.0082787015
0.022052899 -0.025122762 0.010073029
0.023328289 -0.023972549 0.0082787015
0.023983821 -0.023328438 0.0082787015
0.025122613 -0.022151358 0.0082787015
0.023328289 -0.023917362 0.010073029
0.02392453 -0.023328438 0.010073029
0.025122613 -0.022087641 0.010073029
0.025674164 -0.021534108 0.0082787015
0.025616914 -0.021534108 0.010073029
0.021991298 -0.025122762 0.011867359
0.021928459 -0.025122762 0.013661686
0.023328289 -0.023877829 0.011867359
0.023871601 -0.023328438 0.011867359
0.025122613 -0.022014 0.011867359
0.023328289 -0.023826145 0.013661686
0.02382867 -0.023328438 0.013661686
0.025122613 -0.021959476 0.013661686
0.025559843 -0.021534108 0.011867359
0.025498718 -0.021534108 0.013661686
0.026916951 -0.019955486 0.0082787015
0.027070522 -0.019739777 0.0082787015
0.028268665 -0.017945454 0.0082787015
0.026916951 -0.01988481 0.010073029
0.027020916 -0.019739777 0.010073029
0.028229937 -0.017945454 0.010073029
0.028711274 -0.017195068 0.0082787015
0.028711274 -0.017137013 0.010073029
0.026916951 -0.019810744 0.011867359
0.026967555 -0.019739777 0.011867359
0.028179184 -0.017945454 0.011867359
0.026905015 -0.019739777 0.013661686
0.026916951 -0.019739777 0.013408121
0.026916951 -0.019722767 0.013661686
0.028116345 -0.017945454 0.013661686
0.028711274 -0.017052382 0.011867359
0.028711274 -0.016962238 0.013661686
0.017945305 -0.028107151 0.015456013
0.017945305 -0.028075278 0.017250344
0.019638106 -0.026917093 0.015456013
0.019739628 -0.026839986 0.015456013
0.021533966 -0.025382064 0.015456013
0.019606441 -0.026917093 0.017250344
0.019739628 -0.026815586 0.017250344
0.021533966 -0.025359869 0.017250344
0.017945305 -0.028069086 0.019044671
0.017945305 -0.028111838 0.020838998
0.019610703 -0.026917093 0.019044671
0.019739628 -0.02682326 0.019044671
0.021533966 -0.025394954 0.019044671
0.019691899 -0.026917093 0.020838998
0.019739628 -0.026883006 0.020838998
0.021533966 -0.025463857 0.020838998
0.021832705 -0.025122762 0.015456013
0.021810263 -0.025122762 0.017250344
0.023328289 -0.02372352 0.015456013
0.023722932 -0.023328438 0.015456013
0.025122613 -0.021853141 0.015456013
0.023328289 -0.023688868 0.017250344
0.023684964 -0.023328438 0.017250344
0.025122613 -0.021814413 0.017250344
0.025407612 -0.021534108 0.015456013
0.025369093 -0.021534108 0.017250344
0.021851838 -0.025122762 0.019044671
0.021925598 -0.025122762 0.020838998
0.023328289 -0.023718499 0.019044671
0.023713276 -0.023328438 0.019044671
0.025122613 -0.021831699 0.019044671
0.023328289 -0.023782648 0.020838998
0.023778439 -0.023328438 0.020838998
0.025122613 -0.021897882 0.020838998
0.025377184 -0.021534108 0.019044671
0.025434151 -0.021534108 0.020838998
0.026835963 -0.019739777 0.015456013
0.026916951 -0.019627132 0.015456013
0.028047532 -0.017945454 0.015456013
0.02680181 -0.019739777 0.017250344
0.026916951 -0.019582145 0.017250344
0.028030425 -0.017945454 0.017250344
0.028711274 -0.01684577 0.015456013
0.028711274 -0.016823061 0.017250344
0.02680558 -0.019739777 0.019044671
0.026916951 -0.019586749 0.019044671
0.028046623 -0.017945454 0.019044671
0.026862428 -0.019739777 0.020838998
0.026916951 -0.019665219 0.020838998
0.028110802 -0.017945454 0.020838998
0.028711274 -0.016883187 0.019044671
0.028711274 -0.016994253 0.020838998
0.017945305 -0.028215133 0.022633329
0.017945305 -0.028335765 0.024427656
0.019739628 -0.026986554 0.022633329
0.019739628 -0.026917093 0.021471452
0.01983656 -0.026917093 0.022633329
0.021533966 -0.025583282 0.022633329
0.019739628 -0.02709654 0.024427656
0.0199866 -0.026917093 0.024427656
0.021533966 -0.025707275 0.024427656
0.017945305 -0.028461911 0.026221983
0.017945305 -0.028584182 0.028016314
0.019739628 -0.027226076 0.026221983
0.020164207 -0.026917093 0.026221983
0.021533966 -0.025840819 0.026221983
0.019739628 -0.027353607 0.028016314
0.020337015 -0.026917093 0.028016314
0.021533966 -0.025972493 0.028016314
0.022060126 -0.025122762 0.022633329
0.02220881 -0.025122762 0.024427656
0.023328289 -0.023899235 0.022633329
0.02389802 -0.023328438 0.022633329
0.025122613 -0.022036739 0.022633329
0.023328289 -0.02404321 0.024427656
0.024044961 -0.023328438 0.024427656
0.025122613 -0.022191629 0.024427656
0.025551513 -0.021534108 0.022633329
0.02568467 -0.021534108 0.024427656
0.022359878 -0.025122762 0.026221983
0.022508621 -0.025122762 0.028016314
0.023328289 -0.024197832 0.026221983
0.024199128 -0.023328438 0.026221983
0.025122613 -0.022349104 0.026221983
0.023328289 -0.024345964 0.028016314
0.024347365 -0.023328438 0.028016314
0.025122613 -0.022503391 0.028016314
0.025826782 -0.021534108 0.026221983
0.025966138 -0.021534108 0.028016314
0.026916951 -0.019809425 0.022633329
0.026916951 -0.019739777 0.021861117
0.026968002 -0.019739777 0.022633329
0.028222486 -0.017945454 0.022633329
0.026916951 -0.019979537 0.024427656
0.027092978 -0.019739777 0.024427656
0.028341249 -0.017945454 0.024427656
0.028711274 -0.017171688 0.022633329
0.028711274 -0.017348893 0.024427656
0.026916951 -0.020161048 0.026221983
0.027225688 -0.019739777 0.026221983
0.028463155 -0.017945454 0.026221983
0.026916951 -0.020338312 0.028016314
0.027354732 -0.019739777 0.028016314
0.028583586 -0.017945454 0.028016314
0.028711274 -0.017540954 0.026221983
0.028711274 -0.017738581 0.028016314
0.017945305 -0.028686218 0.029810641
0.019739628 -0.027466297 0.029810641
0.020487726 -0.026917093 0.029810641
0.021533966 -0.026089154 0.029810641
0.019739628 -0.027574338 0.031604968
0.020640895 -0.026917093 0.031604968
0.021533966 -0.026210345 0.031604968
0.019739628 -0.027666703 0.033399299
0.020771399 -0.026917093 0.033399299
0.021533966 -0.02631636 0.033399299
0.019739628 -0.027761579 0.035193626
0.020897612 -0.026917093 0.035193626
0.021533966 -0.026415661 0.035193626
0.022641897 -0.025122762 0.029810641
0.022775501 -0.025122762 0.031604968
0.023328289 -0.024477459 0.029810641
0.024474859 -0.023328438 0.029810641
0.025122613 -0.022633761 0.029810641
0.023328289 -0.024600491 0.031604968
0.024594635 -0.023328438 0.031604968
0.025122613 -0.02276358 0.031604968
0.026083246 -0.021534108 0.029810641
0.026195675 -0.021534108 0.031604968
0.022891656 -0.025122762 0.033399299
0.023006082 -0.025122762 0.035193626
0.023328289 -0.024709672 0.033399299
0.024707437 -0.023328438 0.033399299
0.025122613 -0.022885613 0.033399299
0.023328289 -0.024817489 0.035193626
0.024812162 -0.023328438 0.035193626
0.025122613 -0.022997521 0.035193626
0.026297063 -0.021534108 0.033399299
0.026392803 -0.021534108 0.035193626
0.026916951 -0.020486243 0.029810641
0.027465999 -0.019739777 0.029810641
0.028689712 -0.017945454 0.029810641
0.026916951 -0.020626284 0.031604968
0.027569279 -0.019739777 0.031604968
0.028711274 -0.018071391 0.031604968
0.028711274 -0.017945454 0.030176673
0.028711274 -0.017910451 0.029810641
0.026916951 -0.020750247 0.033399299
0.027660146 -0.019739777 0.033399299
0.028711274 -0.01820989 0.033399299
0.026916951 -0.02086895 0.035193626
0.027749032 -0.019739777 0.035193626
0.028711274 -0.018314831 0.035193626
0.029308587 -0.016151123 0.0082787015
0.030216381 -0.014356792 0.0082787015
0.029270351 -0.016151123 0.010073029
0.030180573 -0.014356792 0.010073029
0.029216394 -0.016151123 0.011867359
0.030142561 -0.014356792 0.011867359
0.029172018 -0.016151123 0.013661686
0.030108929 -0.014356792 0.013661686
0.029111311 -0.016151123 0.015456013
0.030047283 -0.014356792 0.015456013
0.029097185 -0.016151123 0.017250344
0.030026376 -0.014356792 0.017250344
0.029131457 -0.016151123 0.019044671
0.030052185 -0.014356792 0.019044671
0.029197097 -0.016151123 0.020838998
0.030109361 -0.014356792 0.020838998
0.030505598 -0.013693005 0.0082787015
0.030978709 -0.012562469 0.0082787015
0.031698197 -0.010768138 0.0082787015
0.030505598 -0.013611868 0.010073029
0.030947447 -0.012562469 0.010073029
0.031651184 -0.010768138 0.010073029
0.032287031 -0.0089738071 0.0082787015
0.032299936 -0.0089284033 0.0082787015
0.032239541 -0.0089738071 0.010073029
0.032299936 -0.0087700114 0.010073029
0.032755703 -0.0071794838 0.0082787015
0.032717437 -0.0071794838 0.010073029
0.030505598 -0.013558514 0.011867359
0.030915037 -0.012562469 0.011867359
0.031603277 -0.010768138 0.011867359
0.030505598 -0.013484836 0.013661686
0.030883566 -0.012562469 0.013661686
0.031570092 -0.010768138 0.013661686
0.032192379 -0.0089738071 0.011867359
0.032299936 -0.0085845962 0.011867359
0.032151952 -0.0089738071 0.013661686
0.032299936 -0.0084337145 0.013661686
0.032665268 -0.0071794838 0.011867359
0.032602742 -0.0071794838 0.013661686
0.033078328 -0.005385153 0.0082787015
0.03329055 -0.0035908222 0.0082787015
0.033047572 -0.005385153 0.010073029
0.033264264 -0.0035908222 0.010073029
0.033415809 -0.0017964989 0.0082787015
0.033464193 -2.168119e-06 0.0082787015
0.033384919 -0.0017964989 0.010073029
0.033437803 -2.168119e-06 0.010073029
0.033017054 -0.005385153 0.011867359
0.03321974 -0.0035908222 0.011867359
0.032941535 -0.005385153 0.013661686
0.033182621 -0.0035908222 0.013661686
0.033353195 -0.0017964989 0.011867359
0.033407673 -2.168119e-06 0.011867359
0.03332293 -0.0017964989 0.013661686
0.033375338 -2.168119e-06 0.013661686
0.030505598 -0.013319381 0.015456013
0.030807197 -0.012562469 0.015456013
0.031494007 -0.010768138 0.015456013
0.030505598 -0.013250127 0.017250344
0.030780613 -0.012562469 0.017250344
0.031465545 -0.010768138 0.017250344
0.032089263 -0.0089738071 0.015456013
0.032299936 -0.0082159862 0.015456013
0.032054275 -0.0089738071 0.017250344
0.032299936 -0.0080890134 0.017250344
0.032539353 -0.0071794838 0.015456013
0.032521695 -0.0071794838 0.017250344
0.030505598 -0.013306879 0.019044671
0.030804574 -0.012562469 0.019044671
0.03148137 -0.010768138 0.019044671
0.030505598 -0.013432592 0.020838998
0.030850977 -0.012562469 0.020838998
0.031530276 -0.010768138 0.020838998
0.03205581 -0.0089738071 0.019044671
0.032299936 -0.0080929175 0.019044671
0.032101482 -0.0089738071 0.020838998
0.032299936 -0.0082520545 0.020838998
0.032525957 -0.0071794838 0.019044671
0.032570034 -0.0071794838 0.020838998
0.033120438 -0.0035908222 0.015456013
0.033263922 -0.0017964989 0.015456013
0.03329213 -2.168119e-06 0.015456013
0.033107668 -0.0035908222 0.017250344
0.033240408 -0.0017964989 0.017250344
0.033266664 -2.168119e-06 0.017250344
0.032863542 -0.005385153 0.017250344
0.032894298 -0.005385153 0.019044671
0.033135787 -0.0035908222 0.019044671
0.032940522 -0.005385153 0.020838998
0.033189341 -0.0035908222 0.020838998
0.033258304 -0.0017964989 0.019044671
0.033302188 -2.168119e-06 0.019044671
0.033311322 -0.0017964989 0.020838998
0.033349812 -2.168119e-06 0.020838998
0.029300362 -0.016151123 0.022633329
0.030205995 -0.014356792 0.022633329
0.029404953 -0.016151123 0.024427656
0.030310437 -0.014356792 0.024427656
0.029522121 -0.016151123 0.026221983
0.03041856 -0.014356792 0.026221983
0.029636368 -0.016151123 0.028016314
0.030505598 -0.014386564 0.028016314
0.030505598 -0.014356792 0.027762413
0.0305188 -0.014356792 0.028016314
0.028790474 -0.017945454 0.031604968
0.029737636 -0.016151123 0.029810641
0.030505598 -0.014592163 0.029810641
0.030611739 -0.014356792 0.029810641
0.029838979 -0.016151123 0.031604968
0.030505598 -0.014796369 0.031604968
0.030705005 -0.014356792 0.031604968
0.02888009 -0.017945454 0.033399299
0.028942481 -0.017945454 0.035193626
0.029932976 -0.016151123 0.033399299
0.030505598 -0.014985375 0.033399299
0.030788615 -0.014356792 0.033399299
0.029992834 -0.016151123 0.035193626
0.030505598 -0.015143879 0.035193626
0.030875772 -0.014356792 0.035193626
0.030505598 -0.01365833 0.022633329
0.030948848 -0.012562469 0.022633329
0.031627104 -0.010768138 0.022633329
0.030505598 -0.013901092 0.024427656
0.031053871 -0.012562469 0.024427656
0.031729624 -0.010768138 0.024427656
0.032191232 -0.0089738071 0.022633329
0.032299936 -0.0085928068 0.022633329
0.032299936 -0.0089753047 0.024427656
0.032299936 -0.0089738071 0.02442015
0.032668173 -0.0071794838 0.022633329
0.032300383 -0.0089738071 0.024427656
0.032780975 -0.0071794838 0.024427656
0.030505598 -0.01415465 0.026221983
0.031164587 -0.012562469 0.026221983
0.031842455 -0.010768138 0.026221983
0.031281158 -0.012562469 0.028016314
0.031956598 -0.010768138 0.028016314
0.032299936 -0.0093526021 0.026221983
0.032299936 -0.0097133443 0.028016314
0.032413274 -0.0089738071 0.026221983
0.032889128 -0.0071794838 0.026221983
0.032525897 -0.0089738071 0.028016314
0.032994404 -0.0071794838 0.028016314
0.033029601 -0.005385153 0.022633329
0.033278838 -0.0035908222 0.022633329
0.033124492 -0.005385153 0.024427656
0.033371747 -0.0035908222 0.024427656
0.033399761 -0.0017964989 0.022633329
0.033434466 -2.168119e-06 0.022633329
0.03349711 -0.0017964989 0.024427656
0.033528596 -2.168119e-06 0.024427656
0.033228964 -0.005385153 0.026221983
0.033473015 -0.0035908222 0.026221983
0.033330902 -0.005385153 0.028016314
0.033566788 -0.0035908222 0.028016314
0.03360121 -0.0017964989 0.026221983
0.033628419 -2.168119e-06 0.026221983
0.033690497 -0.0017964989 0.028016314
0.03372857 -2.168119e-06 0.028016314
0.031374872 -0.012562469 0.029810641
0.032046542 -0.010768138 0.029810641
0.031469971 -0.012562469 0.031604968
0.032137617 -0.010768138 0.031604968
0.032299936 -0.010009356 0.029810641
0.032299936 -0.010285363 0.031604968
0.032621071 -0.0089738071 0.029810641
0.033088818 -0.0071794838 0.029810641
0.032710969 -0.0089738071 0.031604968
0.033172935 -0.0071794838 0.031604968
0.031550869 -0.012562469 0.033399299
0.032222897 -0.010768138 0.033399299
0.031644702 -0.012562469 0.035193626
0.032299712 -0.010768138 0.035193626
0.032299936 -0.010543317 0.033399299
0.032299936 -0.010767467 0.035193626
0.032799587 -0.0089738071 0.033399299
0.033252075 -0.0071794838 0.033399299
0.032857701 -0.0089738071 0.035193626
0.033322677 -0.0071794838 0.035193626
0.033422515 -0.005385153 0.029810641
0.033651233 -0.0035908222 0.029810641
0.03351213 -0.005385153 0.031604968
0.03373836 -0.0035908222 0.031604968
0.033776328 -0.0017964989 0.029810641
0.03381297 -2.168119e-06 0.029810641
0.033865184 -0.0017964989 0.031604968
0.033901885 -2.168119e-06 0.031604968
0.033587128 -0.005385153 0.033399299
0.033815399 -0.0035908222 0.033399299
0.03366451 -0.005385153 0.035193626
0.033889741 -0.0035908222 0.035193626
0.033944726 -0.0017964989 0.033399299
0.033980668 -2.168119e-06 0.033399299
0.034019738 -0.0017964989 0.035193626
0.034054443 -2.168119e-06 0.035193626
0.0014472604 -0.034094408 0.036987953
0.0017963499 -0.034077168 0.036987953
0.0035906732 -0.033941396 0.036987953
0.0017963499 -0.034149744 0.038782284
0.0017963499 -0.034094408 0.037409663
0.0026375651 -0.034094408 0.038782284
0.0035906732 -0.034009516 0.038782284
0.005385004 -0.033721328 0.036987953
0.0071793348 -0.033401228 0.036987953
0.005385004 -0.033789732 0.038782284
0.0071793348 -0.033468015 0.038782284
0.0017963499 -0.034217052 0.040576614
0.0034123957 -0.034094408 0.040576614
0.0035906732 -0.034076624 0.040576614
0.0017963499 -0.034281783 0.042370938
0.0035906732 -0.034145676 0.042370938
0.0035906732 -0.034094408 0.04109592
0.005385004 -0.033864751 0.040576614
0.0071793348 -0.033548944 0.040576614
0.0040615425 -0.034094408 0.042370938
0.005385004 -0.033922918 0.042370938
0.0071793348 -0.033612624 0.042370938
0.0089736581 -0.032970242 0.036987953
0.010767996 -0.032403588 0.036987953
0.0089736581 -0.033024311 0.038782284
0.010767996 -0.032483064 0.038782284
0.011062399 -0.032300077 0.036987953
0.011295021 -0.032300077 0.038782284
0.01256232 -0.031732321 0.036987953
0.014356643 -0.030949019 0.036987953
0.01256232 -0.031815037 0.038782284
0.014356643 -0.031028681 0.038782284
0.011520252 -0.032300077 0.040576614
0.010767996 -0.032555468 0.040576614
0.011728466 -0.032300077 0.042370938
0.010767996 -0.032643475 0.042370938
0.01256232 -0.03189341 0.040576614
0.014356643 -0.031104408 0.040576614
0.01256232 -0.031967707 0.042370938
0.014356643 -0.031180643 0.042370938
0.0017963499 -0.034338996 0.044165269
0.0035906732 -0.034218058 0.044165269
0.0017963499 -0.034394085 0.045959599
0.0035906732 -0.034262985 0.045959599
0.0017963499 -0.034455255 0.047753923
0.0035906732 -0.034310028 0.047753923
0.0017963499 -0.034514233 0.049548253
0.0035906732 -0.034367859 0.049548253
0.0050599426 -0.034094408 0.045959599
0.005385004 -0.034100533 0.047753923
0.005385004 -0.034094408 0.047538318
0.0054310858 -0.034094408 0.047753923
0.005385004 -0.034048878 0.045959599
0.0071793348 -0.033740759 0.045959599
0.0071793348 -0.0338073 0.047753923
0.005385004 -0.034157 0.049548253
0.0058304667 -0.034094408 0.049548253
0.0071793348 -0.033864543 0.049548253
0.0071793348 -0.033664063 0.044165269
0.0089736581 -0.033183932 0.042370938
0.0089736581 -0.033270806 0.044165269
0.010767996 -0.032717705 0.044165269
0.0089736581 -0.033332169 0.045959599
0.010767996 -0.032784425 0.045959599
0.011911243 -0.032300077 0.044165269
0.012079433 -0.032300077 0.045959599
0.01256232 -0.03203842 0.044165269
0.014356643 -0.031245105 0.044165269
0.01256232 -0.032104835 0.045959599
0.014356643 -0.031308807 0.045959599
0.0089736581 -0.033401169 0.047753923
0.010767996 -0.032856911 0.047753923
0.0089736581 -0.033461675 0.049548253
0.010767996 -0.032920554 0.049548253
0.012245983 -0.032300077 0.047753923
0.012423679 -0.032300077 0.049548253
0.01256232 -0.03217259 0.047753923
0.014356643 -0.031376906 0.047753923
0.01256232 -0.032244712 0.049548253
0.014356643 -0.031447634 0.049548253
0.0152964 -0.030505747 0.036987953
0.016150981 -0.030080527 0.036987953
0.017945305 -0.029022329 0.036987953
0.015455633 -0.030505747 0.038782284
0.016150981 -0.030156069 0.038782284
0.017945305 -0.029101864 0.038782284
0.015611544 -0.030505747 0.040576614
0.016150981 -0.030234873 0.040576614
0.017945305 -0.029187985 0.040576614
0.015774533 -0.030505747 0.042370938
0.016150981 -0.03031341 0.042370938
0.017945305 -0.029285774 0.042370938
0.015903458 -0.030505747 0.044165269
0.016150981 -0.03037975 0.044165269
0.017945305 -0.029375456 0.044165269
0.016015097 -0.030505747 0.045959599
0.016150981 -0.030436888 0.045959599
0.017945305 -0.029436089 0.045959599
0.018869355 -0.028711423 0.042370938
0.018999904 -0.028711423 0.044165269
0.019100428 -0.028711423 0.045959599
0.016133606 -0.030505747 0.047753923
0.016150981 -0.030496962 0.047753923
0.017945305 -0.029511623 0.047753923
0.016150981 -0.030560225 0.049548253
0.016150981 -0.030505747 0.048018344
0.016259924 -0.030505747 0.049548253
0.017945305 -0.029587209 0.049548253
0.019224107 -0.028711423 0.047753923
0.019340932 -0.028711423 0.049548253
0.0017963499 -0.034575373 0.051342584
0.0035906732 -0.034428477 0.051342584
0.0017963499 -0.034631878 0.053136908
0.0035906732 -0.034484431 0.053136908
0.005385004 -0.03421241 0.051342584
0.0061643571 -0.034094408 0.051342584
0.0071793348 -0.033916593 0.051342584
0.005385004 -0.034265228 0.053136908
0.0064938366 -0.034094408 0.053136908
0.0071793348 -0.033972785 0.053136908
0.0017963499 -0.034696177 0.054931238
0.0035906732 -0.034547165 0.054931238
0.0017963499 -0.034771591 0.056725569
0.0035906732 -0.034619942 0.056725569
0.005385004 -0.034324251 0.054931238
0.0068139583 -0.034094408 0.054931238
0.0071793348 -0.034027889 0.054931238
0.005385004 -0.034393154 0.056725569
0.0071620941 -0.034094408 0.056725569
0.0071793348 -0.034091085 0.056725569
0.0089736581 -0.033512227 0.051342584
0.010767996 -0.032971017 0.051342584
0.0089736581 -0.03356985 0.053136908
0.010767996 -0.03302902 0.053136908
0.01256232 -0.032302827 0.051342584
0.01256232 -0.032300077 0.051244967
0.012569189 -0.032300077 0.051342584
0.01256232 -0.032363586 0.053136908
0.012718946 -0.032300077 0.053136908
0.014356643 -0.031517237 0.051342584
0.014356643 -0.031580508 0.053136908
0.0089736581 -0.033630118 0.054931238
0.010767996 -0.033097789 0.054931238
0.0089736581 -0.033692427 0.056725569
0.010767996 -0.033168808 0.056725569
0.01256232 -0.032438248 0.054931238
0.012902826 -0.032300077 0.054931238
0.01256232 -0.03251829 0.056725569
0.01310268 -0.032300077 0.056725569
0.014356643 -0.031659268 0.054931238
0.014356643 -0.03174597 0.056725569
0.0017963499 -0.034849249 0.058519892
0.0035906732 -0.034701794 0.058519892
0.0017963499 -0.034935385 0.060314223
0.0035906732 -0.034791157 0.060314223
0.005385004 -0.034480579 0.058519892
0.0071793348 -0.034170955 0.058519892
0.0071793348 -0.034094408 0.056794606
0.005385004 -0.034566246 0.060314223
0.0071793348 -0.034248576 0.060314223
0.0017963499 -0.035027735 0.062108554
0.0035906732 -0.034881674 0.062108554
0.0017963499 -0.035118066 0.063902877
0.0035906732 -0.03496889 0.063902877
0.005385004 -0.03465376 0.062108554
0.0071793348 -0.034332044 0.062108554
0.005385004 -0.034736812 0.063902877
0.0071793348 -0.034418933 0.063902877
0.0075534582 -0.034094408 0.058519892
0.0089736581 -0.033773795 0.058519892
0.010767996 -0.033259034 0.058519892
0.0079259798 -0.034094408 0.060314223
0.0089736581 -0.033857778 0.060314223
0.010767996 -0.033350006 0.060314223
0.01256232 -0.032605216 0.058519892
0.013306692 -0.032300077 0.058519892
0.01256232 -0.032699883 0.060314223
0.013537109 -0.032300077 0.060314223
0.014356643 -0.031837516 0.058519892
0.014356643 -0.031939588 0.060314223
0.0083010718 -0.034094408 0.062108554
0.0089736581 -0.033942305 0.062108554
0.010767996 -0.033440478 0.062108554
0.0086328685 -0.034094408 0.063902877
0.0089736581 -0.034011669 0.063902877
0.010767996 -0.033499755 0.063902877
0.01256232 -0.032799445 0.062108554
0.013771579 -0.032300077 0.062108554
0.01256232 -0.032872774 0.063902877
0.013986886 -0.032300077 0.063902877
0.014356643 -0.032036468 0.062108554
0.014356643 -0.032137766 0.063902877
0.016150981 -0.030629091 0.051342584
0.016394511 -0.030505747 0.051342584
0.017945305 -0.029652983 0.051342584
0.016150981 -0.030696526 0.053136908
0.016526788 -0.030505747 0.053136908
0.017945305 -0.029725768 0.053136908
0.019442216 -0.028711423 0.051342584
0.019553915 -0.028711423 0.053136908
0.016150981 -0.030768372 0.054931238
0.016663253 -0.030505747 0.054931238
0.017945305 -0.029799275 0.054931238
0.016150981 -0.030850179 0.056725569
0.016816214 -0.030505747 0.056725569
0.017945305 -0.029883318 0.056725569
0.019662216 -0.028711423 0.054931238
0.019739628 -0.028744087 0.056725569
0.019739628 -0.028711423 0.056115396
0.019788414 -0.028711423 0.056725569
0.016150981 -0.030950151 0.058519892
0.017006502 -0.030505747 0.058519892
0.017945305 -0.029986821 0.058519892
0.016150981 -0.031055614 0.060314223
0.017199382 -0.030505747 0.060314223
0.017945305 -0.030088715 0.060314223
0.019739628 -0.028843045 0.058519892
0.019933879 -0.028711423 0.058519892
0.019739628 -0.028955273 0.060314223
0.020105436 -0.028711423 0.060314223
0.016150981 -0.031154469 0.062108554
0.017390594 -0.030505747 0.062108554
0.017945305 -0.03019309 0.062108554
0.016150981 -0.031267039 0.063902877
0.01754126 -0.030505747 0.063902877
0.017945305 -0.030266203 0.063902877
0.019739628 -0.029070847 0.062108554
0.020289451 -0.028711423 0.062108554
0.019739628 -0.029144429 0.063902877
0.020412952 -0.028711423 0.063902877
0.018434346 -0.028711423 0.036987953
0.019739628 -0.027844287 0.036987953
0.021014839 -0.026917093 0.036987953
0.021533966 -0.026511692 0.036987953
0.018571183 -0.028711423 0.038782284
0.019739628 -0.027949154 0.038782284
0.021130472 -0.026917093 0.038782284
0.021533966 -0.026597127 0.038782284
0.023116842 -0.025122762 0.036987953
0.023223475 -0.025122762 0.038782284
0.023328289 -0.024923235 0.036987953
0.024916828 -0.023328438 0.036987953
0.025122613 -0.023107216 0.036987953
0.023328289 -0.02502384 0.038782284
0.025019005 -0.023328438 0.038782284
0.025122613 -0.023217514 0.038782284
0.026488289 -0.021534108 0.036987953
0.026574567 -0.021534108 0.038782284
0.023327529 -0.025122762 0.040576614
0.021533966 -0.026683711 0.040576614
0.021533966 -0.026782572 0.042370938
0.023328289 -0.025216445 0.042370938
0.023328289 -0.025122762 0.040590294
0.023426563 -0.025122762 0.042370938
0.023328289 -0.025122046 0.040576614
0.025112852 -0.023328438 0.040576614
0.025122613 -0.023318045 0.040576614
0.025122613 -0.023408778 0.042370938
0.025122613 -0.023328438 0.040786318
0.026659742 -0.021534108 0.040576614
0.025197715 -0.023328438 0.042370938
0.026751488 -0.021534108 0.042370938
0.026916951 -0.020985387 0.036987953
0.027828634 -0.019739777 0.036987953
0.028711274 -0.018414304 0.036987953
0.026916951 -0.021100618 0.038782284
0.027933285 -0.019739777 0.038782284
0.028711274 -0.018554658 0.038782284
0.019739628 -0.028135665 0.042370938
0.019739628 -0.028202437 0.044165269
0.021365583 -0.026917093 0.042370938
0.021470636 -0.026917093 0.044165269
0.021533966 -0.026867643 0.044165269
0.019739628 -0.028280221 0.045959599
0.021533966 -0.026950978 0.045959599
0.021533966 -0.026917093 0.045290418
0.019739628 -0.028363794 0.047753923
0.021533966 -0.027042732 0.047753923
0.019739628 -0.028444268 0.049548253
0.021533966 -0.027126186 0.049548253
0.023328289 -0.025309466 0.044165269
0.023524314 -0.025122762 0.044165269
0.02157712 -0.026917093 0.045959599
0.023328289 -0.025399491 0.045959599
0.023617923 -0.025122762 0.045959599
0.025122613 -0.023501381 0.044165269
0.025122613 -0.023593858 0.045959599
0.025284126 -0.023328438 0.044165269
0.026831254 -0.021534108 0.044165269
0.025367558 -0.023328438 0.045959599
0.026899159 -0.021534108 0.045959599
0.021694124 -0.026917093 0.047753923
0.023328289 -0.025497779 0.047753923
0.023722038 -0.025122762 0.047753923
0.021800771 -0.026917093 0.049548253
0.023328289 -0.025595255 0.049548253
0.023826405 -0.025122762 0.049548253
0.025122613 -0.023693234 0.047753923
0.025122613 -0.02379898 0.049548253
0.025454253 -0.023328438 0.047753923
0.026916951 -0.021609403 0.047753923
0.026916951 -0.021534108 0.04639484
0.026976421 -0.021534108 0.047753923
0.025548548 -0.023328438 0.049548253
0.026916951 -0.021713108 0.049548253
0.027057752 -0.021534108 0.049548253
0.026916951 -0.021327429 0.042370938
0.026916951 -0.02142404 0.044165269
0.028120741 -0.019739777 0.042370938
0.028185681 -0.019739777 0.044165269
0.028711274 -0.018858887 0.042370938
0.028711274 -0.018995963 0.044165269
0.026916951 -0.021511383 0.045959599
0.028262451 -0.019739777 0.045959599
0.028711274 -0.01910831 0.045959599
0.028341249 -0.019739777 0.047753923
0.028711274 -0.019220665 0.047753923
0.028419748 -0.019739777 0.049548253
0.028711274 -0.01932928 0.049548253
0.019739628 -0.028513126 0.051342584
0.021533966 -0.027194172 0.051342584
0.019739628 -0.028587997 0.053136908
0.021533966 -0.02727107 0.053136908
0.019739628 -0.028660156 0.054931238
0.021533966 -0.027352311 0.054931238
0.021533966 -0.027437992 0.056725569
0.02188845 -0.026917093 0.051342584
0.023328289 -0.025676005 0.051342584
0.023911983 -0.025122762 0.051342584
0.021984488 -0.026917093 0.053136908
0.023328289 -0.025761031 0.053136908
0.024002492 -0.025122762 0.053136908
0.025122613 -0.023892179 0.051342584
0.025122613 -0.023983777 0.053136908
0.025633901 -0.023328438 0.051342584
0.026916951 -0.021813489 0.051342584
0.027138278 -0.021534108 0.051342584
0.025719076 -0.023328438 0.053136908
0.026916951 -0.021916367 0.053136908
0.027219459 -0.021534108 0.053136908
0.022087976 -0.026917093 0.054931238
0.023328289 -0.02585385 0.054931238
0.024103209 -0.025122762 0.054931238
0.022193879 -0.026917093 0.056725569
0.023328289 -0.025946409 0.056725569
0.024211243 -0.025122762 0.056725569
0.025122613 -0.024089105 0.054931238
0.025122613 -0.024202183 0.056725569
0.02581732 -0.023328438 0.054931238
0.026916951 -0.022027366 0.054931238
0.027304724 -0.021534108 0.054931238
0.025920317 -0.023328438 0.056725569
0.026916951 -0.022148728 0.056725569
0.027402744 -0.021534108 0.056725569
0.028493509 -0.019739777 0.051342584
0.028711274 -0.019430518 0.051342584
0.028566152 -0.019739777 0.053136908
0.028711274 -0.019533701 0.053136908
0.02864264 -0.019739777 0.054931238
0.028711274 -0.01964169 0.054931238
0.028711274 -0.019766942 0.056725569
0.028711274 -0.019739777 0.056381986
0.021533966 -0.027540281 0.058519892
0.021533966 -0.027660564 0.060314223
0.022327244 -0.026917093 0.058519892
0.023328289 -0.026064925 0.058519892
0.024333328 -0.025122762 0.058519892
0.022449628 -0.026917093 0.060314223
0.023328289 -0.026168585 0.060314223
0.024471194 -0.025122762 0.060314223
0.025122613 -0.024326503 0.058519892
0.025122613 -0.024466626 0.060314223
0.026045024 -0.023328438 0.058519892
0.026916951 -0.02229625 0.058519892
0.027517393 -0.021534108 0.058519892
0.026154652 -0.023328438 0.060314223
0.026916951 -0.022434123 0.060314223
0.027654573 -0.021534108 0.060314223
0.028711274 -0.019919395 0.058519892
0.028711274 -0.020089649 0.060314223
0.029286385 -0.017945454 0.042370938
0.029394627 -0.017945454 0.044165269
0.029468253 -0.017945454 0.045959599
0.030328915 -0.016151123 0.042370938
0.030412525 -0.016151123 0.044165269
0.030505598 -0.015810601 0.042370938
0.030505598 -0.015966333 0.044165269
0.031207755 -0.014356792 0.042370938
0.031266019 -0.014356792 0.044165269
0.030479342 -0.016151123 0.045959599
0.030505598 -0.016099624 0.045959599
0.0313375 -0.014356792 0.045959599
0.029549882 -0.017945454 0.047753923
0.029620752 -0.017945454 0.049548253
0.030505598 -0.016245537 0.047753923
0.030505598 -0.016151123 0.04658436
0.030553401 -0.016151123 0.047753923
0.031406686 -0.014356792 0.047753923
0.030505598 -0.016375482 0.049548253
0.030620813 -0.016151123 0.049548253
0.031481624 -0.014356792 0.049548253
0.033389166 -0.0071794838 0.036987953
0.03373614 -0.005385153 0.036987953
0.033962831 -0.0035908222 0.036987953
0.0334602 -0.0071794838 0.038782284
0.033805639 -0.005385153 0.038782284
0.034032017 -0.0035908222 0.038782284
0.034094259 -0.0018246323 0.036987953
0.034094259 -0.0017964989 0.03695434
0.034095585 -0.0017964989 0.036987953
0.034094259 -2.168119e-06 0.036102269
0.034132227 -2.168119e-06 0.036987953
0.034094259 -0.0028895959 0.038782284
0.034164697 -0.0017964989 0.038782284
0.034205854 -2.168119e-06 0.038782284
0.033535749 -0.0071794838 0.040576614
0.033878267 -0.005385153 0.040576614
0.034094259 -0.0036761016 0.040576614
0.034094259 -0.0035908222 0.040354259
0.034102589 -0.0035908222 0.040576614
0.033610955 -0.0071794838 0.042370938
0.033948585 -0.005385153 0.042370938
0.034094259 -0.0043305904 0.042370938
0.034173474 -0.0035908222 0.042370938
0.034232959 -0.0017964989 0.040576614
0.034272894 -2.168119e-06 0.040576614
0.034303799 -0.0017964989 0.042370938
0.034340888 -2.168119e-06 0.042370938
0.031964585 -0.012562469 0.042370938
0.032025129 -0.012562469 0.044165269
0.032299936 -0.011654854 0.042370938
0.032299936 -0.011846766 0.044165269
0.032095641 -0.012562469 0.045959599
0.032299936 -0.012026317 0.045959599
0.032608122 -0.010768138 0.042370938
0.032687038 -0.010768138 0.044165269
0.032739699 -0.010768138 0.045959599
0.033163473 -0.0089738071 0.042370938
0.033244714 -0.0089738071 0.044165269
0.033677891 -0.0071794838 0.044165269
0.03328757 -0.0089738071 0.045959599
0.033734635 -0.0071794838 0.045959599
0.032161355 -0.012562469 0.047753923
0.032299936 -0.012197442 0.047753923
0.032226741 -0.012562469 0.049548253
0.032299936 -0.012368895 0.049548253
0.03280361 -0.010768138 0.047753923
0.032867536 -0.010768138 0.049548253
0.033347741 -0.0089738071 0.047753923
0.033791929 -0.0071794838 0.047753923
0.033411548 -0.0089738071 0.049548253
0.033855766 -0.0071794838 0.049548253
0.034015179 -0.005385153 0.044165269
0.034094259 -0.004854627 0.044165269
0.034238651 -0.0035908222 0.044165269
0.034073025 -0.005385153 0.045959599
0.034094259 -0.0052476004 0.045959599
0.034298524 -0.0035908222 0.045959599
0.034369186 -0.0017964989 0.044165269
0.034403577 -2.168119e-06 0.044165269
0.034428418 -0.0017964989 0.045959599
0.034460694 -2.168119e-06 0.045959599
0.034094259 -0.0056425259 0.047753923
0.034094259 -0.005385153 0.046546966
0.034136236 -0.005385153 0.047753923
0.034365237 -0.0035908222 0.047753923
0.034094259 -0.0059837475 0.049548253
0.034193248 -0.005385153 0.049548253
0.034426719 -0.0035908222 0.049548253
0.034492776 -0.0017964989 0.047753923
0.034521595 -2.168119e-06 0.047753923
0.034555241 -0.0017964989 0.049548253
0.034581214 -2.168119e-06 0.049548253
0.029681906 -0.017945454 0.051342584
0.029751197 -0.017945454 0.053136908
0.030505598 -0.01647535 0.051342584
0.030672982 -0.016151123 0.051342584
0.031538203 -0.014356792 0.051342584
0.030505598 -0.01659096 0.053136908
0.030732647 -0.016151123 0.053136908
0.031599745 -0.014356792 0.053136908
0.029822737 -0.017945454 0.054931238
0.028729931 -0.019739777 0.056725569
0.029902905 -0.017945454 0.056725569
0.030505598 -0.016724914 0.054931238
0.030805156 -0.016151123 0.054931238
0.03167896 -0.014356792 0.054931238
0.030505598 -0.016876213 0.056725569
0.03087987 -0.016151123 0.056725569
0.031758532 -0.014356792 0.056725569
0.028834403 -0.019739777 0.058519892
0.030001208 -0.017945454 0.058519892
0.028938532 -0.019739777 0.060314223
0.030091509 -0.017945454 0.060314223
0.030505598 -0.017057173 0.058519892
0.03097643 -0.016151123 0.058519892
0.03184779 -0.014356792 0.058519892
0.030505598 -0.017233305 0.060314223
0.031076953 -0.016151123 0.060314223
0.031949148 -0.014356792 0.060314223
0.030191287 -0.017945454 0.062108554
0.030505598 -0.017414846 0.062108554
0.031170115 -0.016151123 0.062108554
0.032049775 -0.014356792 0.062108554
0.030271694 -0.017945454 0.063902877
0.030505598 -0.017561011 0.063902877
0.031280488 -0.016151123 0.063902877
0.032151297 -0.014356792 0.063902877
0.03228572 -0.012562469 0.051342584
0.032299936 -0.012525462 0.051342584
0.032299936 -0.012680091 0.053136908
0.032299936 -0.012562469 0.051797174
0.032928869 -0.010768138 0.051342584
0.032345384 -0.012562469 0.053136908
0.03299132 -0.010768138 0.053136908
0.033468574 -0.0089738071 0.051342584
0.033909455 -0.0071794838 0.051342584
0.033532694 -0.0089738071 0.053136908
0.033965886 -0.0071794838 0.053136908
0.032299936 -0.012873515 0.054931238
0.032299936 -0.013092339 0.056725569
0.032420933 -0.012562469 0.054931238
0.033060923 -0.010768138 0.054931238
0.032505468 -0.012562469 0.056725569
0.03313975 -0.010768138 0.056725569
0.033595055 -0.0089738071 0.054931238
0.034025759 -0.0071794838 0.054931238
0.03367117 -0.0089738071 0.056725569
0.034088403 -0.0071794838 0.056725569
0.034094259 -0.0062628314 0.051342584
0.034240469 -0.005385153 0.051342584
0.034476161 -0.0035908222 0.051342584
