# .PCD v0.7 - Point Cloud Data file format
VERSION 0.7
FIELDS x y z
SIZE 4 4 4
TYPE F F F
COUNT 1 1 1
WIDTH 1145
HEIGHT 1
VIEWPOINT 0 0 0 1 0 0 0
POINTS 1145
DATA ascii
0.028137639 0.059466716 0.81951112
0.027362227 0.062490512 0.81918335
0.026602993 0.06631238 0.81933331
0.019076983 0.05904495 0.82426679
0.022259753 0.057853706 0.82261336
0.027281942 0.056827467 0.82208198
0.032822702 0.057352781 0.82201654
0.03749989 0.057681918 0.82372129
0.019083155 0.062132131 0.82453346
0.022080861 0.062681854 0.82168877
0.032791331 0.06264656 0.82122207
0.036990259 0.06232943 0.82376677
0.022107057 0.06734965 0.82268888
0.0281759 0.067944221 0.82063317
0.032674368 0.067190729 0.8230834
0.036016043 0.065998316 0.82493347
0.023277638 0.071613647 0.82333344
0.027431197 0.071814813 0.82124978
0.031369064 0.07206466 0.82410747
0.023706023 0.075199395 0.82486689
0.027840918 0.075745694 0.82364768
0.014562284 0.054038964 0.82980025
0.018016096 0.053570971 0.82853353
0.022247195 0.05313912 0.82782227
0.027180022 0.053587068 0.8276
0.033352215 0.05327611 0.82756007
0.037684754 0.052367534 0.82780749
0.042336036 0.052391123 0.82817054
0.045490257 0.053239129 0.82936692
0.013188975 0.057241019 0.82867515
0.017414253 0.057065725 0.82645917
0.021420371 0.055310149 0.8257333
0.037560623 0.055265483 0.8250668
0.042121936 0.057240225 0.82698661
0.045468323 0.056297723 0.82896698
0.013577342 0.061873328 0.82876682
0.017013896 0.062877804 0.82677501
0.038617048 0.06401249 0.82571119
0.041911267 0.062100351 0.82849538
0.017812135 0.067596294 0.82805842
0.034522109 0.069156684 0.82599998
0.037848555 0.06790594 0.8271333
0.040867992 0.066382319 0.82973355
0.019183446 0.0717097 0.82886696
0.021296684 0.072618678 0.82692003
0.033781696 0.072292954 0.826711
0.037215412 0.071960084 0.82878906
0.02257023 0.076752141 0.82837355
0.027130608 0.078077696 0.82609332
0.032588094 0.07672675 0.82714814
0.027141346 0.082300462 0.82861048
0.030529352 0.081758104 0.82913357
0.028472267 0.086398728 0.82926691
0.03795521 0.049643699 0.83375549
0.04290957 0.048995782 0.83330667
0.047320154 0.049679425 0.83435541
0.013060228 0.05267847 0.83271438
0.017385814 0.051681846 0.83162677
0.022381864 0.051134627 0.8327778
0.027353069 0.051758338 0.83286667
0.031958941 0.051654715 0.83284444
0.047621902 0.05240342 0.83184767
0.0099721178 0.057428379 0.83419991
0.011484616 0.055667378 0.83106655
0.047615655 0.057480838 0.83173335
0.012009333 0.063441105 0.83164436
0.043480948 0.063344605 0.83037788
0.046835631 0.061820693 0.83362848
0.013502392 0.067725338 0.83268565
0.016130572 0.069564141 0.83086663
0.042894028 0.067966819 0.83232599
0.045788284 0.065234773 0.83479995
0.014644958 0.072974883 0.83451098
0.017258501 0.072970591 0.83193332
0.038894478 0.073754959 0.83164448
0.042111162 0.072405048 0.833911
0.018257914 0.077040486 0.83371109
0.021315509 0.078397974 0.83166665
0.034712967 0.078037068 0.83056659
0.037498478 0.077311106 0.83343798
0.019325396 0.080783039 0.83499974
0.022372223 0.082096115 0.83255553
0.033042628 0.082536355 0.83180004
0.036415745 0.082247145 0.8340888
0.022835758 0.08659339 0.83325708
0.026794309 0.08834026 0.8312
0.032486495 0.087175436 0.83299994
0.036452614 0.085435972 0.8349331
0.023980007 0.090814009 0.83439982
0.027067857 0.092284329 0.83365554
0.031451508 0.09128394 0.83443987
0.013460184 0.049289171 0.83829337
0.017826285 0.049256895 0.83774662
0.022503316 0.049078882 0.83736652
0.027384825 0.048495106 0.83739161
0.032037981 0.048632331 0.83714807
0.037475854 0.04766456 0.83793342
0.042790789 0.046724424 0.8370533
0.047675103 0.046924587 0.83716655
0.052200783 0.049102645 0.83776683
0.057432637 0.048445418 0.83743864
0.007666552 0.053295325 0.8375333
0.010532522 0.050909981 0.83759999
0.052072231 0.052868824 0.83570349
0.057564404 0.052904163 0.83625108
0.0076717739 0.057686955 0.83794451
0.052131183 0.057598367 0.83664435
0.057181261 0.057501465 0.8374939
0.060607746 0.058265347 0.83878785
0.0088374596 0.061931241 0.83735001
0.010004397 0.063064024 0.8369
0.048958741 0.0629787 0.83576655
0.052048605 0.061989032 0.83890486
0.057384752 0.061294325 0.83931673
0.010644183 0.067370519 0.83818674
0.047653191 0.067140326 0.83676672
0.012738142 0.072421975 0.8371166
0.043761551 0.074117221 0.83573323
0.047198638 0.072162941 0.83770674
0.014307851 0.077525541 0.83754998
0.016768284 0.078894205 0.83693331
0.039601691 0.078516155 0.83566654
0.042792566 0.077871941 0.83708882
0.046518322 0.076971732 0.8386001
0.014730761 0.081208713 0.83940011
0.017812034 0.08254651 0.83713329
0.038881481 0.082527339 0.83693331
0.041705713 0.082321569 0.83880019
0.019006344 0.086931497 0.83811665
0.020916022 0.087913349 0.83633327
0.038325924 0.08745639 0.83755004
0.022195969 0.091629408 0.83760005
0.02714788 0.09489096 0.83613324
0.033380728 0.093318932 0.83597982
0.037379276 0.092011221 0.83823341
0.027662506 0.098024614 0.83821905
0.031873327 0.098145559 0.83735555
0.03582821 0.097503789 0.8385334
0.032327943 0.10185175 0.8390168
0.035090506 0.1015317 0.83959985
0.036879595 0.044010729 0.84471101
0.042877216 0.043445263 0.84391111
0.047511823 0.043308496 0.84329331
0.056481592 0.043940686 0.84336674
0.0069399495 0.047893867 0.84392232
0.011903696 0.047550514 0.84247798
0.017912684 0.047381639 0.84180009
0.022643007 0.046248466 0.84256679
0.026945941 0.045824632 0.84196675
0.032448057 0.045834642 0.84215015
0.037402242 0.045764189 0.84229344
0.042183302 0.045356609 0.84053314
0.046080813 0.045335032 0.84013325
0.052461416 0.046214491 0.8419444
0.05638916 0.045434758 0.84198141
0.002358573 0.052773178 0.84322417
0.0065299836 0.050513834 0.84179997
0.0030038233 0.058076616 0.84360003
0.0053455792 0.057871535 0.84062195
0.003795184 0.062850975 0.84448886
0.0061379462 0.062656604 0.84187776
0.05319101 0.064159945 0.84106654
0.056840491 0.063581869 0.84169328
0.060249966 0.062596202 0.84107447
0.0073787449 0.06720493 0.84280956
0.052502196 0.067411408 0.84258527
0.057312388 0.066741124 0.84402221
0.0085178874 0.07225766 0.84426665
0.010683035 0.072309658 0.8412267
0.049210612 0.073459782 0.84006655
0.052123815 0.071987145 0.84373337
0.011639985 0.077241488 0.84235245
0.048202526 0.077946864 0.84069991
0.05155516 0.075918995 0.84424442
0.013222814 0.082690574 0.84314293
0.016310487 0.084405281 0.84013337
0.04396303 0.083298564 0.84157336
0.047621548 0.082291178 0.8436287
0.014287115 0.086891927 0.84404451
0.016964644 0.087989092 0.84152001
0.042658333 0.087632053 0.84324771
0.018385351 0.092304692 0.84294283
0.02182815 0.09393099 0.84146667
0.039846022 0.092295974 0.84082216
0.042199083 0.092325285 0.84395999
0.022845682 0.097025841 0.84285009
0.025727971 0.098533079 0.84066665
0.039118122 0.097125381 0.84201115
0.041560829 0.095761038 0.84379983
0.023625171 0.10174821 0.84398681
0.027103269 0.1022305 0.84167624
0.031693753 0.10418961 0.8408798
0.036974438 0.10245476 0.8423667
0.040013984 0.10132294 0.84436649
0.024275072 0.1060728 0.8446666
0.027549157 0.10704318 0.84364015
0.032086365 0.10821035 0.84295577
0.035806082 0.10679286 0.84415555
0.027436513 0.11082995 0.84499991
0.031373885 0.11160708 0.84493321
0.035316184 0.11004401 0.84499991
0.057684861 0.034778837 0.84950006
0.044155266 0.039463721 0.84830022
0.047329888 0.039471474 0.84846687
0.0038196514 0.044282813 0.84993351
0.0069787949 0.044213336 0.84860021
0.012634888 0.043548439 0.84883827
0.018054938 0.043575712 0.8484934
0.022796864 0.043406945 0.84828901
0.027494164 0.043330133 0.84678888
0.032224957 0.043320436 0.84660006
0.03701799 0.041809246 0.84788901
0.0419796 0.041503161 0.8469891
0.048385136 0.041331686 0.84616673
0.052785549 0.042559873 0.84715563
0.05750731 0.041760162 0.84689575
-0.0014628029 0.048440542 0.84891146
0.0022262384 0.047290523 0.8472001
0.0069618723 0.045682788 0.84657782
0.012485469 0.045673199 0.84639984
0.017995104 0.045634825 0.84568876
-0.0020633244 0.052034788 0.84744793
0.00064601778 0.050344992 0.84553325
-0.0014610371 0.057050448 0.84777802
0.0006463406 0.058238715 0.84595567
-0.00093502284 0.062415898 0.84926701
0.0014357549 0.063030601 0.84690017
0.0026810628 0.06764251 0.84829551
0.0053753257 0.068414144 0.84529996
0.057408538 0.069210149 0.84542209
0.0038166554 0.07110469 0.84926689
0.0061767767 0.072512574 0.8472445
0.05426807 0.073160551 0.84563327
0.057518467 0.07249476 0.8470372
0.0074918666 0.076705001 0.8471446
0.010102821 0.078619167 0.84513319
0.05330883 0.077749975 0.84707791
0.056696415 0.077078596 0.84893358
0.0085613867 0.082097746 0.84857798
0.010739742 0.082759097 0.84566659
0.048738364 0.084154919 0.84546661
0.051929355 0.081787311 0.84864014
0.012489018 0.087954812 0.84673339
0.044805359 0.088890798 0.84563327
0.048057169 0.087757193 0.84734094
0.051369715 0.085383154 0.84986687
0.013836228 0.092358805 0.84858912
0.016438616 0.093731955 0.84673357
0.044475622 0.093350172 0.84685022
0.047615796 0.092388518 0.84886688
0.018965643 0.097359821 0.84677327
0.021146107 0.099103488 0.84553319
0.043012455 0.09764567 0.84653354
0.04501377 0.098785885 0.84956694
0.019640414 0.10262278 0.84861135
0.021566151 0.10276829 0.84656668
0.042452391 0.10233611 0.84811449
0.02231594 0.10741117 0.8472572
0.037894078 0.10737409 0.84625328
0.040228292 0.10739308 0.84888911
0.023723738 0.11163113 0.84749347
0.027070342 0.11291299 0.84588331
0.032201141 0.11358011 0.84596664
0.036693119 0.11165287 0.84766686
0.02768811 0.11704759 0.84790689
0.032265339 0.1177471 0.84764475
0.035495441 0.11692216 0.84928912
0.027561853 0.12054817 0.84886694
0.03272799 0.12128243 0.84940022
0.035519596 0.12016333 0.84986669
0.052659065 0.034949422 0.85366678
0.05616216 0.034817047 0.85043347
-0.0089038378 0.039728884 0.85400003
0.0086234892 0.039762989 0.85473359
0.012607453 0.039758343 0.85463345
0.017124014 0.039760929 0.85468894
0.022968248 0.039759893 0.85466677
0.027738079 0.039742321 0.85428905
0.032515112 0.039341439 0.85421681
0.037587773 0.039076515 0.85364664
0.041696221 0.038729034 0.85299999
0.047870707 0.037826743 0.85208565
0.052800704 0.037914045 0.85252333
0.057562992 0.038187224 0.85062683
-0.012094462 0.043323427 0.85439539
-0.0078464877 0.043459233 0.85447001
-0.0025324509 0.043677449 0.85356116
0.0022419023 0.042837042 0.85266197
0.0070049358 0.04200485 0.85185552
0.012403107 0.041517008 0.8515867
0.018117294 0.041588191 0.85142499
0.022887656 0.041204061 0.85165548
0.027626576 0.041165356 0.85085553
0.032385051 0.04116267 0.85079986
-0.01289688 0.046123773 0.85475016
-0.0065158573 0.04767916 0.85413343
-0.0030547557 0.046992976 0.85129994
-0.0065138713 0.051634863 0.85385835
-0.0041068364 0.052198194 0.85009992
-0.0037168683 0.05742836 0.85143334
-0.0021277766 0.062551789 0.8511166
-0.0015758636 0.067290559 0.85297996
0.00065029645 0.068886399 0.85113329
-0.00094118796 0.071573533 0.8548668
0.0022392392 0.072947673 0.85233814
0.0033037588 0.076734833 0.85331112
0.0059440616 0.078696139 0.85163331
0.059033841 0.078054175 0.85181659
0.061213389 0.077108532 0.85452396
0.0064823455 0.081447639 0.85280007
0.054269701 0.082809083 0.85184157
0.057138894 0.082541518 0.85316664
0.0086112702 0.087340467 0.8535223
0.010167971 0.087829009 0.85058331
0.053365227 0.087507218 0.85323346
0.056954622 0.086367458 0.85438901
0.010995951 0.092081882 0.8533417
0.049298894 0.093368195 0.85059994
0.052039307 0.091793552 0.85435015
0.013642352 0.096801929 0.85296661
0.016912941 0.098527327 0.85074168
0.048098598 0.097379632 0.85207134
0.050054144 0.098561071 0.85446674
0.01498697 0.10009582 0.85400003
0.017508835 0.10280579 0.85275328
0.043495763 0.10447694 0.85086656
0.046798404 0.10271939 0.853181
0.019359801 0.10760546 0.85370845
0.042751137 0.10776433 0.8518222
0.04565097 0.10765145 0.85407513
0.021697616 0.11290185 0.85172498
0.038184952 0.11338244 0.85038882
0.041548096 0.11241202 0.85273808
0.023673251 0.11720981 0.85137218
0.03796288 0.11720451 0.8513388
0.041120432 0.11728846 0.85426015
0.023983331 0.12113417 0.8529889
0.027319431 0.12288594 0.85119998
0.032376967 0.12382463 0.85058331
0.037428163 0.12234671 0.85268742
0.040492605 0.12081372 0.85446686
0.027694222 0.12695138 0.85297775
0.032433111 0.12701179 0.85204995
0.036175888 0.12587614 0.85286665
0.028542846 0.13036069 0.85453343
0.031731922 0.13036577 0.85456675
0.047941405 0.033587463 0.85945076
0.051401675 0.033092994 0.85702711
-0.0065429267 0.039898682 0.85765004
-0.0023667957 0.038134802 0.85786676
0.0022553378 0.03911601 0.85801029
0.0059799142 0.039322868 0.85672432
0.01144974 0.038695291 0.85751683
0.017848101 0.037897423 0.85753351
0.023049168 0.037505329 0.85767794
0.027836574 0.03748982 0.85732239
0.032622702 0.037318893 0.85705346
0.03745269 0.036712557 0.85779989
0.042287149 0.036106542 0.85854661
0.046597399 0.035477981 0.85685009
0.051732361 0.035039492 0.85586703
-0.011042953 0.04296672 0.85520965
-0.0062595564 0.041915182 0.85539621
-0.0025364973 0.041376617 0.85522246
0.00065325067 0.041365866 0.8550002
-0.015867734 0.048389997 0.85733336
-0.01188692 0.048226029 0.85577762
-0.0089165801 0.0477398 0.85522246
-0.015360899 0.051935546 0.85881817
-0.01213349 0.051829737 0.85707337
-0.0079747085 0.053246938 0.8567735
-0.0065449197 0.05745922 0.85781121
-0.0057514305 0.06232829 0.85893327
-0.0041362504 0.062129278 0.85618907
-0.003609604 0.066992708 0.85731107
-0.0014765387 0.072826602 0.85713339
0.00065401493 0.074853078 0.85600024
0.0019340366 0.078517079 0.85776007
0.06214124 0.079661056 0.85633343
0.0034579411 0.082672432 0.85865003
0.0059787179 0.083930828 0.85655564
0.059736639 0.082834631 0.85620004
0.061555278 0.083134331 0.85929626
0.0066580167 0.087429464 0.85831666
0.05871357 0.088203825 0.85678905
0.061586585 0.086374432 0.85973334
0.0082564829 0.092193112 0.85806674
0.010233516 0.093968302 0.85606694
0.054151177 0.092395522 0.85625023
0.057983004 0.09280777 0.85858667
0.0086729228 0.096758507 0.85963351
0.010880454 0.097554013 0.85678673
0.05262588 0.097307228 0.85741115
0.057065874 0.096236207 0.85925329
0.061557934 0.095925398 0.85933322
0.012387101 0.10161728 0.85790008
0.015015049 0.10267133 0.85560024
0.048536178 0.10349073 0.85580033
0.051027596 0.10209133 0.85741121
0.016646286 0.10688414 0.85748017
0.047918495 0.10767486 0.85616028
0.050283279 0.10699662 0.85837764
0.019040475 0.11243799 0.85725552
0.043739431 0.11381616 0.85563362
0.04700787 0.11267021 0.8570075
0.050370503 0.11038062 0.85986686
0.019245895 0.11733846 0.85927999
0.021421216 0.11792041 0.85653353
0.043376479 0.11829007 0.85633349
0.046551064 0.11738094 0.85842228
0.022720683 0.1231437 0.85741347
0.042420268 0.12298688 0.8571502
0.023991114 0.12723982 0.85706693
0.037934233 0.12803148 0.8566668
0.041319758 0.12743902 0.85840005
0.024665922 0.13093027 0.85826659
0.027635161 0.13296902 0.85817146
0.032872234 0.13287762 0.85758096
0.036856007 0.13197723 0.85883999
0.028694095 0.13584638 0.85906672
0.032301679 0.13625407 0.85911673
0.043376375 0.028954018 0.86430955
0.00065859896 0.033687104 0.86200005
0.019994264 0.033761356 0.86390013
0.023227068 0.033775683 0.86426681
0.028011635 0.033715766 0.86273354
0.032848217 0.033082046 0.86297339
0.037879035 0.032319993 0.86299175
0.042496216 0.032112401 0.8628037
0.046698555 0.031785 0.86116266
-0.0057585724 0.038408242 0.86000001
-0.00094683992 0.03520871 0.86000001
0.0019469697 0.036275834 0.86255836
0.007875856 0.038414348 0.86013699
0.012328346 0.036535911 0.86302507
0.01753957 0.03569252 0.86203343
0.023173669 0.035302427 0.86228895
0.027968081 0.035265118 0.86137766
0.032744255 0.035218712 0.86024451
0.036745057 0.035208706 0.86000019
0.042358752 0.035208706 0.86000019
-0.016460584 0.052838933 0.86051852
-0.012182469 0.054440189 0.86054188
-0.015458054 0.056282435 0.86425
-0.012211202 0.057775754 0.86253333
-0.0089682443 0.057617456 0.86017781
-0.011994177 0.062198732 0.86348039
-0.0081782164 0.062506609 0.86138892
-0.010623893 0.065936856 0.86436003
-0.0073843771 0.067388386 0.8623445
-0.0041549825 0.068809122 0.86006677
-0.0067507597 0.071670085 0.86369342
-0.0035200468 0.072454162 0.86154681
-0.0025601473 0.077038266 0.86263806
-0.001354221 0.08155942 0.86378354
0.0012999695 0.082649127 0.8609001
0.063300379 0.08412151 0.86123538
0.0028007228 0.087380797 0.86177224
0.005470498 0.088828534 0.86026669
0.062607221 0.088376045 0.86053628
0.0033454287 0.091615677 0.86391133
0.0061229481 0.093326785 0.86190003
0.062505186 0.092944473 0.86133796
0.0074885571 0.098204479 0.86180001
0.057183247 0.098677464 0.86102659
0.061958887 0.09825252 0.8617143
0.0087116025 0.10200942 0.86346674
0.010830849 0.10362274 0.86131114
0.053613823 0.10245225 0.86044472
0.056965914 0.10270846 0.8625927
0.061645657 0.10259936 0.86336279
0.012379284 0.10729686 0.86262399
0.015099283 0.10804867 0.86040008
0.052920546 0.10747462 0.86221117
0.055990338 0.10663784 0.86410016
0.013552136 0.11252787 0.8640669
0.015915832 0.11215565 0.86121112
0.05142023 0.11248951 0.86132002
0.016744256 0.11713883 0.86252004
0.048802756 0.11766547 0.86049998
0.051175803 0.11683329 0.86262673
0.018989239 0.12222867 0.86220008
0.021521252 0.12487302 0.86053354
0.047447663 0.12199064 0.86137086
0.050669242 0.12068933 0.86496675
0.019980637 0.12688287 0.86331123
0.022068113 0.12814647 0.86102229
0.043502044 0.12821384 0.86146659
0.046838555 0.12640838 0.86372799
0.023182152 0.13224193 0.86266011
0.038392603 0.13374485 0.86096668
0.042259455 0.13228258 0.86262399
0.024856558 0.1367688 0.86490017
0.027736505 0.13826561 0.86133331
0.03306964 0.13860951 0.86034662
0.037650101 0.13796744 0.86232966
0.041752219 0.13582757 0.86403358
0.028805321 0.14279129 0.86240005
0.032791626 0.14263797 0.86147398
0.036740057 0.14267333 0.86363351
0.029664811 0.14626975 0.8640002
0.032554943 0.14686783 0.86373359
0.036147904 0.1464221 0.86490029
0.01768831 0.029123427 0.86936665
0.020932665 0.029124387 0.86939514
0.033898421 0.029120076 0.86926663
0.038230754 0.028439278 0.86825341
0.041623447 0.027966766 0.86695558
0.003358175 0.033343427 0.8669734
0.0074735084 0.033324521 0.86928284
0.012010101 0.032346915 0.8690964
0.017054461 0.032510184 0.86807513
0.021978622 0.031769205 0.86802739
0.028586868 0.031901911 0.86798334
0.033020496 0.031077463 0.86751676
0.036202237 0.030628642 0.86620015
0.0038925668 0.035460815 0.86615783
0.0071269511 0.036282606 0.86656886
0.011164518 0.035470042 0.86638343
0.015194052 0.035446163 0.86580002
-0.016043248 0.058599815 0.86683339
-0.013067694 0.064451784 0.86601019
-0.011472519 0.067793921 0.86753917
-0.011083029 0.072330885 0.86873376
-0.0082272803 0.073357195 0.8665418
-0.010687888 0.076848283 0.86956668
-0.007428987 0.077481307 0.867589
-0.0041792998 0.078867331 0.86510009
-0.0072409483 0.082498923 0.86944944
-0.0035444379 0.08264067 0.86754006
-0.0020375482 0.086735241 0.86868334
0.00066207536 0.087865785 0.86655021
0.0017433716 0.092111386 0.86858886
0.0039009452 0.096896052 0.86802214
0.005506109 0.098266304 0.8658669
0.0039080358 0.10030665 0.86959994
0.0068624313 0.10327835 0.8673889
0.063724093 0.10484514 0.86700004
0.0077953935 0.10736008 0.86907995
0.010356644 0.10879818 0.86636674
0.057562165 0.10836016 0.86673337
0.061326489 0.10731353 0.86739171
0.01117719 0.11296733 0.86743885
0.053971183 0.11280345 0.86617947
0.056850735 0.11236592 0.86903334
0.01297229 0.11762236 0.86845332
0.015199607 0.118434 0.86611682
0.05363724 0.11819052 0.86729306
0.055793285 0.11645614 0.86939996
0.016192291 0.12232568 0.86744004
0.051733993 0.12284924 0.86658001
0.018059058 0.12712596 0.86771667
0.048620325 0.12846655 0.86677784
0.051706675 0.12769546 0.86883885
0.018498693 0.13100138 0.86933333
0.021048315 0.13299146 0.86754006
0.044293236 0.13379298 0.86646676
0.047420703 0.13225009 0.8682375
0.023326721 0.13726313 0.86802661
0.04322141 0.13756682 0.86655015
0.046716347 0.13716538 0.86945343
0.024559448 0.14180847 0.86866665
0.02650173 0.14257345 0.86595017
0.038898524 0.1434323 0.86627775
0.042560399 0.14193165 0.86818331
0.046092875 0.14080121 0.86993355
0.024999294 0.14564477 0.86986667
0.027641313 0.14747891 0.86796111
0.033367172 0.14942923 0.86600858
0.038440328 0.14749865 0.8680777
0.041734502 0.14608346 0.86926669
0.029416297 0.15148646 0.86856663
0.033051256 0.15265121 0.86829996
0.036728926 0.15157934 0.86909997
0.029863942 0.1553416 0.86979997
0.033496067 0.15566279 0.86933333
0.0087887906 0.029182084 0.87111777
0.012440724 0.028767588 0.8708446
0.016512524 0.027978245 0.8714819
0.02348806 0.028465053 0.87400001
0.027525414 0.029239558 0.87283325
0.032616884 0.027212027 0.87294161
0.037622474 0.02634386 0.87103987
0.0071583888 0.031315971 0.8703804
0.0152818 0.030791301 0.87080014
0.023403855 0.030793659 0.87086684
0.026657896 0.03079994 0.87104458
-0.01559667 0.063277356 0.87200004
-0.013551429 0.068482667 0.87117505
-0.013297847 0.073210679 0.87055457
-0.011925751 0.078199789 0.87110901
-0.01072087 0.083574846 0.87225002
-0.009073358 0.082575373 0.87025946
-0.0074701747 0.087668262 0.8725915
-0.0036691185 0.088645577 0.87157792
-0.002124367 0.092301227 0.87256193
0.00066542433 0.093170121 0.87093353
-0.00096192339 0.096716687 0.8736999
0.0014788049 0.097367205 0.87224442
0.0029474245 0.10270326 0.87346661
0.0039278092 0.10569165 0.87399983
0.0060888901 0.10819796 0.8723557
0.0078169424 0.11219962 0.87150681
0.059153877 0.11263773 0.87113339
0.062006023 0.11217996 0.87206668
0.0084044114 0.11659247 0.87344992
0.010954529 0.11830274 0.87108904
0.057789937 0.11741038 0.87198335
0.062048849 0.11649913 0.87376523
0.065868609 0.1170723 0.87400007
0.0088269506 0.12044777 0.87490004
0.012056984 0.1220272 0.87261659
0.015282971 0.12475249 0.87086684
0.054263234 0.12313292 0.87086684
0.057652865 0.12180859 0.87299043
0.061037838 0.12125471 0.87485003
0.013303244 0.12645145 0.87420827
0.015943708 0.12841278 0.87152004
0.054372612 0.12825149 0.87262219
0.056475796 0.12637539 0.87368321
0.017258208 0.13274436 0.87229329
0.049405824 0.13451353 0.87113351
0.052514475 0.13284385 0.87213755
0.018193405 0.13741891 0.87414992
0.020818442 0.13812767 0.87144005
0.049012948 0.13819675 0.87136674
0.051572636 0.13771233 0.87343323
0.021811921 0.14279358 0.87221909
0.044487499 0.1440929 0.87026691
0.048044577 0.14299385 0.87220007
0.023063224 0.1474494 0.87336659
0.025039526 0.14831054 0.87126684
0.04346526 0.14807077 0.87144452
0.046930049 0.14754167 0.87342662
0.02669546 0.15254866 0.87233323
0.039022036 0.15271713 0.87144005
0.04203552 0.15238772 0.8732667
0.028614556 0.15752868 0.87295556
0.032820575 0.15810733 0.87077361
0.037861239 0.15712108 0.87181675
0.041427772 0.15612744 0.87420005
0.032905523 0.16225596 0.87304658
0.036914721 0.16209492 0.87349159
0.026809262 0.026900478 0.87600011
0.030081384 0.026090559 0.87613338
-0.010772619 0.088056825 0.87646037
-0.010804694 0.093222953 0.8790701
-0.0075115985 0.093045399 0.87738633
-0.0042317156 0.093706928 0.8759501
-0.0068727001 0.097507715 0.87937087
-0.0030698604 0.098128192 0.87697619
-0.0019510292 0.10234676 0.87877333
0.00067052635 0.10286399 0.87761134
0.0023075829 0.10784285 0.87827623
0.0035420742 0.11248826 0.87946653
0.0055781794 0.11260752 0.87720013
0.0064039417 0.11766846 0.87845814
0.063803874 0.11835712 0.87548643
0.0083146254 0.12255318 0.87833333
0.010476981 0.12391954 0.87643343
0.059418682 0.12372161 0.87503338
0.063278705 0.12257779 0.87682325
0.0088777356 0.12605129 0.87993336
0.011152608 0.12776391 0.87820005
0.058873236 0.12753391 0.87662011
0.061731607 0.12713271 0.87891662
0.012605013 0.13213287 0.87838572
0.015355499 0.13348293 0.87500006
0.057759129 0.13186039 0.87812859
0.061397169 0.13097173 0.87999976
0.013798906 0.13585176 0.87979978
0.01606553 0.13756354 0.8781867
0.054129809 0.13712001 0.87745553
0.017695952 0.14240453 0.87782001
0.052324187 0.14218405 0.87646008
0.018712906 0.14724177 0.87939996
0.02069805 0.14719142 0.87666672
0.049158484 0.14836596 0.87637788
0.051878758 0.14670196 0.87861669
0.021959728 0.15192899 0.87812859
0.025166934 0.15476632 0.87570006
0.044239197 0.15319945 0.87605566
0.048388381 0.15235665 0.87790477
0.023614381 0.15611412 0.87869996
0.026011841 0.15820116 0.87668335
0.039845936 0.15957427 0.87526673
0.043454785 0.15764377 0.87747151
0.046985433 0.15658426 0.87904155
0.027417153 0.16253267 0.87805557
0.030079095 0.16379464 0.87606674
0.039122403 0.16321521 0.87733346
0.042894721 0.16151829 0.87919992
0.027740732 0.1660973 0.87963307
0.03199571 0.16766731 0.87744772
0.036491856 0.16803581 0.87800425
0.040049285 0.16611646 0.87973309
0.032656252 0.17179236 0.87946647
0.036763329 0.17209512 0.87962204
0.033496562 0.17516993 0.87999976
0.035958387 0.17516993 0.87999976
-0.0083579049 0.099093467 0.88037771
-0.0077748811 0.10276883 0.88079935
-0.003159767 0.10377964 0.88076657
-0.0070110988 0.10569137 0.88305396
-0.0022064892 0.10670123 0.88235003
0.00067342113 0.10986568 0.88139999
-0.00097359373 0.11022712 0.88430011
0.001495894 0.11324919 0.88221657
0.00286806 0.11741042 0.88265544
0.0056048874 0.1197031 0.88139993
0.0064374292 0.12319553 0.88292503
0.066320792 0.12442387 0.88000005
0.0089031262 0.12887442 0.88245004
0.064084701 0.12814869 0.88084614
0.066400349 0.12703146 0.88105559
0.01053974 0.13368288 0.88168335
0.058960125 0.1343016 0.88036644
0.063336276 0.13300727 0.88128716
0.066320792 0.13424569 0.88000005
0.012848887 0.13820049 0.88225329
0.054836486 0.13916713 0.88006645
0.058046527 0.13763744 0.88206249
0.061650038 0.1375405 0.88363338
0.065035783 0.1382772 0.88484645
0.013857978 0.14300923 0.8835668
0.01546743 0.14265454 0.8813777
0.054937541 0.14270484 0.88168889
0.057135161 0.14264849 0.88388342
0.016473887 0.14743735 0.88253325
0.053259604 0.14835164 0.88113332
0.05507116 0.14716181 0.88383329
0.018111128 0.15228586 0.88208663
0.020390026 0.15406424 0.88099986
0.052502695 0.15263258 0.88219446
0.018802278 0.15616257 0.88360012
0.02177264 0.15744549 0.88157779
0.048862699 0.15731816 0.88086653
0.050889228 0.15765953 0.88277507
0.023724558 0.16177008 0.8828001
0.025319736 0.16308135 0.88101661
0.043381594 0.16303521 0.88076651
0.046451412 0.1622847 0.88292009
0.026662622 0.16769353 0.88200665
0.042256176 0.16754831 0.8817333
0.028137749 0.17148896 0.88352233
0.030667013 0.1725475 0.88123327
0.038434755 0.17359869 0.88033313
0.040981051 0.17230934 0.88211107
0.031953711 0.17736067 0.88275248
0.037097037 0.17767148 0.88196665
0.040784404 0.17647468 0.88380009
0.033614565 0.18071517 0.88310009
0.036935359 0.1812529 0.88371676
-0.0059393654 0.10808993 0.88699985
-0.0037292391 0.10823524 0.88594437
-0.0059545436 0.11084621 0.88926673
-0.0028406708 0.11246756 0.88737488
-0.0021617622 0.11705911 0.88799036
0.00067716499 0.11789615 0.88629991
-0.0013940256 0.12202363 0.88935006
0.0021240767 0.12234795 0.88719988
0.0028885175 0.12676762 0.88877779
0.0062953448 0.12726423 0.88609326
0.0039985157 0.13076527 0.88973343
0.0072968281 0.13208015 0.88744754
0.0085508404 0.13680083 0.88861662
0.010614854 0.13793954 0.88796651
0.062303945 0.13886723 0.88511115
0.065088242 0.13838848 0.88555998
0.011713804 0.14201607 0.88764447
0.05846256 0.14328295 0.88526672
0.062050521 0.14222148 0.88598073
0.065106101 0.14254566 0.88580298
0.013094286 0.14698662 0.88774991
0.015534509 0.14985874 0.88520014
0.057860743 0.14705442 0.8861599
0.0619203 0.14694634 0.88749623
0.013927863 0.15198965 0.88802212
0.016102895 0.15332535 0.88619989
0.056753572 0.15170635 0.88757491
0.062033486 0.15135019 0.88912243
0.016680421 0.15743893 0.88771105
0.02048723 0.15973859 0.88520014
0.053002093 0.15823053 0.88597775
0.055401407 0.15631381 0.88913339
0.018240083 0.16162902 0.88834667
0.021886101 0.16321008 0.88616657
0.048050597 0.16429488 0.88608885
0.051983476 0.16205755 0.88737774
0.022197632 0.16761082 0.88764983
0.025443792 0.16964398 0.88533336
0.046759356 0.16783322 0.88695228
0.051247589 0.16620962 0.88898337
0.023047876 0.17189714 0.8884666
0.026575742 0.17369586 0.88639981
0.043654133 0.17312741 0.88629991
0.046829462 0.17200911 0.88904446
0.023891171 0.17530774 0.889
0.027390437 0.1778069 0.88732368
0.030413302 0.17961997 0.88579983
0.042338707 0.17842753 0.88642657
0.045866657 0.17657442 0.88913333
0.027531162 0.1815453 0.88877326
0.031882282 0.18326224 0.88647896
0.03701172 0.18385449 0.88555992
0.0418455 0.18242148 0.88798088
0.028874362 0.18611649 0.8892833
0.032157768 0.18758094 0.88838333
0.037093107 0.18739669 0.88751101
0.041309614 0.18692578 0.88920003
0.03301625 0.19022679 0.88916671
0.03714703 0.19014835 0.88879997
0.04050754 0.19036227 0.88980025
-0.0069670761 0.11310223 0.89139664
-0.0059791678 0.11795121 0.89294463
-0.0043069995 0.1185922 0.89153349
-0.0059868088 0.12392025 0.89408547
-0.0036423132 0.12306253 0.89148557
-0.0022347567 0.1267354 0.8934086
0.0012352279 0.12887187 0.89190024
0.0026221282 0.13281228 0.89236695
0.0056595742 0.13411565 0.89000022
0.0034588629 0.13683906 0.89336699
0.0063368073 0.13806531 0.89198029
0.0085905679 0.14241566 0.89272529
0.010649917 0.14336632 0.89090019
0.0090270536 0.14647956 0.89473355
0.011084475 0.14818949 0.89250028
0.012349918 0.15212652 0.89368355
0.058788363 0.15401715 0.89020032
0.062195618 0.15423049 0.89143354
0.06554836 0.15346867 0.89182001
0.014014296 0.15791954 0.89353353
0.057513278 0.15762402 0.89186692
0.061507914 0.1570863 0.8935253
0.016209096 0.16263534 0.89205569
0.053860035 0.1641124 0.89106691
0.056275353 0.1619236 0.89423352
0.018310975 0.16723868 0.89182699
0.052944183 0.16834345 0.89240682
0.01902288 0.17129831 0.89396703
0.021044185 0.172867 0.89133358
0.048885435 0.17326829 0.89126682
0.051354773 0.17258419 0.89373362
0.022583267 0.17755121 0.89196116
0.048247468 0.17784014 0.89174688
0.050728194 0.17721482 0.89445013
0.023455316 0.1817289 0.89346695
0.026160305 0.183437 0.89100021
0.043839656 0.1837965 0.89006692
0.046833027 0.1824739 0.8928526
0.027041441 0.18765883 0.89268351
0.043534189 0.18799351 0.89230025
0.046269845 0.18687983 0.89425582
0.0289918 0.1910255 0.89290035
0.032323662 0.19297273 0.89293909
0.037300803 0.19342603 0.89247817
0.041486789 0.19271478 0.89302528
0.034044702 0.19633773 0.89440018
0.03738353 0.19634992 0.89445573
-0.0076762908 0.11760564 0.89665532
-0.0072595966 0.1217863 0.89674079
-0.0068510808 0.12614782 0.89810002
-0.0026580933 0.1288915 0.89588577
-0.006016369 0.13372514 0.89850003
-0.002868345 0.13195448 0.89640641
0.00068416866 0.13410679 0.89546669
-0.0026626829 0.13605468 0.89732617
0.00193756 0.13840449 0.8963334
0.0026942722 0.14164232 0.89783353
0.0065301536 0.14328974 0.89560008
0.0040410599 0.14553809 0.89920038
0.0070432732 0.14722757 0.89726686
0.0086358404 0.15151863 0.89746684
0.011266408 0.15333478 0.89588886
0.0090746386 0.15645449 0.8994503
0.011392107 0.15720744 0.89706677
0.059158143 0.1599851 0.89579993
0.063055821 0.15831445 0.89577788
0.066040561 0.15796351 0.89851689
0.012399249 0.16193403 0.89736682
0.057962388 0.16347517 0.89666682
0.062623478 0.16197082 0.89756685
0.014091146 0.1663053 0.89843351
0.016152687 0.16764051 0.89664173
0.057812668 0.16719055 0.89757937
0.061046124 0.16557351 0.89900011
0.017416339 0.17191581 0.89720011
0.053592041 0.17332436 0.89584446
0.05665512 0.17183222 0.89849359
0.019090736 0.17691696 0.89715558
0.020727936 0.17827515 0.89560002
0.053070903 0.17760675 0.89643341
0.019128565 0.18144774 0.89893353
0.021750228 0.1827832 0.89646673
0.049126785 0.18411997 0.89566666
0.052291229 0.18197204 0.89740014
0.022455979 0.18709847 0.8979668
0.048607677 0.18787427 0.89635563
0.051354799 0.18671072 0.89810848
0.024153192 0.19144136 0.89875019
0.02688498 0.19239748 0.89671117
0.030747481 0.19492055 0.89553338
0.043558974 0.19328313 0.8956666
0.047338217 0.19177404 0.89737099
0.028483322 0.19676845 0.8978802
0.032108229 0.19774237 0.89624006
0.037426427 0.1982425 0.89548892
0.042713415 0.19722621 0.89627618
0.046769559 0.19724196 0.89851683
0.032708973 0.2018896 0.8978169
0.037466306 0.20179135 0.89645183
0.042542212 0.20207256 0.89770019
0.045983575 0.20164819 0.89953363
0.034204565 0.20561746 0.89860028
0.037752364 0.20700884 0.89828777
0.041759335 0.20651668 0.89887524
-0.0093953516 0.12070807 0.9011429
-0.0060264133 0.12892586 0.90000004
-0.006033109 0.13158318 0.90100002
-0.0060453853 0.13689095 0.90283334
-0.0018321824 0.13910988 0.90090013
-0.0018383241 0.1412207 0.90368342
0.0012488024 0.14369231 0.90161133
0.0027079766 0.14739759 0.90239334
0.0057288902 0.14916497 0.90090042
0.0040609837 0.15213946 0.9036333
0.0064055161 0.15297635 0.90163344
0.0069389348 0.15803365 0.90232861
0.067876309 0.15917405 0.90064025
0.0079873716 0.16240725 0.90308899
0.010770652 0.16426583 0.9010002
0.064521186 0.16421111 0.90070039
0.067447163 0.16264759 0.90131485
0.012184522 0.16782767 0.90212792
0.063074589 0.16783288 0.90102959
0.066936262 0.16738352 0.90154684
0.013606824 0.17198406 0.90338898
0.016392818 0.1739887 0.90216678
0.059103444 0.17312948 0.90133357
0.062742785 0.17249753 0.90272385
0.066330858 0.17124829 0.90246671
0.017534653 0.17810617 0.90318888
0.057683405 0.17768365 0.90210843
0.061378859 0.17656453 0.90389997
0.018382445 0.18320218 0.9034667
0.054451361 0.18351021 0.90085024
0.056313217 0.18242356 0.90376669
0.020860629 0.18947646 0.90133363
0.053678785 0.18793346 0.9019751
0.022224287 0.19266388 0.90212679
0.04941747 0.1944273 0.900967
0.052308638 0.1922393 0.90249997
0.024291605 0.19674163 0.90389997
0.026458761 0.19782096 0.90115589
0.049441844 0.19787723 0.90141124
0.051274568 0.19762301 0.90408331
0.02817131 0.20224871 0.90221667
0.030913424 0.20434691 0.90036684
0.04807594 0.20304905 0.90204149
0.029363025 0.20692937 0.90433335
0.032647729 0.20805235 0.90190488
0.035964314 0.20944901 0.90070039
0.043383904 0.20857665 0.90127355
0.047005139 0.2074703 0.90302503
0.033047445 0.21214966 0.90363997
0.037695166 0.21225329 0.90193349
0.042483397 0.21246915 0.90356672
0.046230663 0.21030162 0.90436667
0.03865296 0.21541594 0.90465003
-0.004373265 0.13978155 0.90525001
-0.0077850311 0.14126202 0.90935719
-0.0026922983 0.14369436 0.9069252
-0.0023548529 0.14725205 0.90770644
0.0015359096 0.14909765 0.90558338
-0.0018473165 0.15208381 0.90832257
0.0018183668 0.15256989 0.90619451
-0.0010009347 0.15560168 0.90913349
0.0023838666 0.15696645 0.9072479
0.0036567401 0.16173922 0.9079836
0.0057604737 0.16346799 0.9058668
0.0078828968 0.16665423 0.90715867
0.0091676284 0.17073449 0.90866685
0.011266947 0.17256115 0.90715861
0.067795463 0.17323904 0.90703338
0.013563434 0.17703085 0.90801364
0.015903626 0.17786378 0.90623355
0.063491188 0.17696941 0.9059723
0.067191713 0.17752615 0.90759075
0.07015875 0.17914212 0.90844452
0.014250081 0.18085633 0.90856689
0.016344834 0.18271576 0.90730858
0.059196848 0.18249363 0.9066202
0.062525004 0.18249388 0.90830022
0.066605344 0.1824398 0.90908343
0.071082711 0.18187365 0.9094286
0.01828339 0.18761858 0.90694028
0.057403591 0.18743294 0.90767246
0.061421532 0.18679874 0.90951997
0.066032313 0.18620977 0.9099499
0.018483572 0.19266766 0.90847248
0.054773733 0.19302471 0.90618348
0.057083294 0.19242361 0.90931666
0.019354831 0.19628307 0.90956676
0.02240633 0.19747013 0.90724462
0.053840928 0.19719681 0.9075402
0.023981793 0.20231408 0.90815854
0.026036311 0.20308626 0.90595007
0.051875092 0.20210281 0.90720475
0.027473899 0.20753098 0.90696138
0.049743731 0.20752053 0.90691489
0.051569048 0.20636894 0.90927595
0.028632147 0.21281822 0.90792251
0.031096535 0.2131393 0.90570009
0.044622805 0.21404429 0.90596676
0.047816161 0.21277951 0.90776134
0.029517256 0.21731777 0.90908349
0.032825172 0.21762031 0.90681881
0.037640337 0.21799792 0.90638584
0.04299546 0.21772762 0.90726691
-0.0071257828 0.14283247 0.91182917
-0.0066788266 0.14660798 0.91279846
-0.0044033024 0.14837225 0.91146743
-0.0044119139 0.15120979 0.91325015
-0.0018558118 0.15787052 0.91246676
0.00069545093 0.15917633 0.91023338
0.0015470672 0.16292027 0.91223335
0.0024020248 0.16609497 0.91414475
0.0069302632 0.16847591 0.91168898
0.0078443186 0.17251003 0.91270685
0.0086541483 0.17686503 0.91414475
0.011455499 0.17794068 0.9109444
0.012365757 0.18262383 0.91257626
0.068586737 0.18454076 0.9100666
0.070867784 0.18402362 0.91030002
0.013758332 0.18692242 0.91343349
0.015977038 0.18715239 0.9104166
0.061833769 0.18916614 0.91059995
0.067351349 0.18760818 0.91057497
0.070347629 0.18809657 0.91089004
0.01434471 0.19056393 0.91460031
0.016024521 0.19195557 0.91312236
0.058430839 0.19309713 0.91049993
0.061994761 0.19220418 0.9129613
0.067133062 0.19179842 0.91338348
0.070401765 0.19163269 0.91159081
0.017720524 0.19741482 0.91285014
0.021065064 0.19979878 0.91016674
0.05719801 0.19759162 0.91248673
0.061234076 0.19560735 0.91431701
0.019007839 0.20176151 0.91330016
0.0216834 0.20311582 0.91238898
0.053326808 0.20322217 0.91033328
0.055772051 0.20218213 0.91328901
0.023934109 0.20692728 0.91174453
0.026153646 0.20992655 0.91003329
0.053003095 0.20742436 0.91205692
0.055294581 0.20677191 0.91480041
0.024552276 0.21074933 0.91360015
0.026189575 0.21275781 0.91128331
0.049938545 0.21341377 0.91046661
0.052645933 0.21236686 0.91324455
-0.0078333393 0.14809538 0.91500002
-0.0044307732 0.15356228 0.91715395
-0.0044264914 0.15767543 0.91626793
-0.0029361243 0.162374 0.91753447
-0.0015837988 0.16642183 0.91907734
0.0019823383 0.16852684 0.91735011
0.0034428097 0.17225258 0.91855985
0.0058245929 0.17295565 0.91595006
0.0041342364 0.17627391 0.91993338
0.0065199472 0.17790142 0.91773319
0.0083992584 0.18262249 0.91743344
0.009267956 0.18798332 0.91861099
0.011639718 0.18790163 0.9165467
0.013024921 0.19260831 0.91786003
0.06384141 0.19405849 0.91503358
0.067256957 0.19406557 0.9150669
0.014398037 0.19639538 0.9179998
0.016097836 0.19880527 0.91729981
0.058777388 0.19935359 0.91590011
0.062307253 0.19829595 0.91757202
0.066303767 0.19688477 0.91762215
0.016953956 0.2022388 0.91740012
0.058019739 0.20309697 0.91741651
0.061997466 0.20180741 0.91931665
0.018682357 0.20583571 0.91821653
0.022072958 0.2080733 0.91678345
0.057561904 0.20738542 0.91827995
0.022701856 0.21264733 0.9176048
0.056057785 0.21175514 0.91796654
-0.0031648895 0.16808575 0.92194939
-0.0018781178 0.17097262 0.92365003
0.0012761517 0.17316812 0.92162228
0.0032810513 0.17741767 0.92143333
0.0041468707 0.18196303 0.92274457
0.0058560697 0.18245536 0.92090011
0.00415461 0.18574102 0.92446649
0.006550306 0.18732254 0.92209351
0.0084443782 0.19216019 0.92225838
0.011009338 0.19360366 0.9209668
0.009331746 0.1961581 0.92493314
0.012456357 0.19729073 0.92218345
0.067671016 0.19868562 0.92070007
0.014048888 0.20223671 0.92322493
0.016145807 0.20367609 0.9200334
0.063674085 0.20328267 0.92083341
0.066539548 0.20215949 0.92286676
0.017553177 0.20786652 0.92192012
0.059049077 0.20883308 0.92013341
0.062141478 0.20737544 0.92234766
-0.0021739029 0.17357522 0.9268443
-0.0010218039 0.17783821 0.92808884
0.0011390005 0.17791907 0.92626649
0.0018634866 0.18195868 0.92856663
0.0041676424 0.18891218 0.92736661
0.0064624958 0.19289549 0.9257887
0.007628439 0.19719088 0.92777497
0.0093771433 0.20057036 0.92943352
0.011660696 0.20182955 0.92727762
0.068070367 0.20330371 0.92613316
0.013514559 0.20749967 0.92794669
0.01623589 0.20997544 0.92516649
-0.0010268078 0.18304589 0.93263352
0.00071192853 0.18374774 0.93180013
0.0020156798 0.18686721 0.93222517
0.0036133172 0.19270806 0.93322229
0.0042017982 0.19654672 0.93496662
0.0059311073 0.19867317 0.93269998
0.007670735 0.203058 0.93291909
0.011118119 0.20416717 0.93006682
0.070147634 0.20259202 0.93077785
0.011145616 0.20727396 0.93236685
-0.002774782 0.18361342 0.93553334
-0.0019069768 0.18746474 0.93738323
0.00071481918 0.18884519 0.93558335
-0.0010341471 0.19046853 0.9393
0.0015890085 0.19255823 0.93671656
0.0029004188 0.19748124 0.93734157
0.0033358585 0.20219372 0.93695551
-0.0010362024 0.19259782 0.94116682
0.00071870314 0.19424531 0.94066679
0.00071939919 0.19793606 0.94157809
0.00071837194 0.20290081 0.94023365
-0.0010422947 0.19725031 0.94669992
