# .PCD v0.7 - Point Cloud Data file format
VERSION 0.7
FIELDS x y z
SIZE 4 4 4
TYPE F F F
COUNT 1 1 1
WIDTH 1154
HEIGHT 1
VIEWPOINT 0 0 0 1 0 0 0
POINTS 1154
DATA ascii
0.023702189 0.05907844 0.8247335
0.027505763 0.058224786 0.82351112
0.032879654 0.057662591 0.82344854
0.037509307 0.057488684 0.82394457
0.041763175 0.057910856 0.82449186
0.027728243 0.062711075 0.823897
0.032893047 0.062842496 0.82378531
0.0371354 0.061721001 0.82416689
0.013781471 0.054012917 0.8294003
0.017635146 0.053201169 0.82877797
0.022261396 0.053172961 0.82834452
0.02714864 0.053421136 0.82821113
0.03344442 0.053531963 0.82793337
0.037686482 0.052369729 0.82784444
0.042515911 0.05256715 0.82791668
0.046732374 0.052813213 0.82788569
0.050882015 0.053215526 0.82900023
0.013192122 0.057251673 0.82882529
0.017600965 0.05694459 0.82717019
0.021892482 0.057332058 0.82610655
0.027578017 0.0553068 0.82568336
0.032941684 0.05526102 0.82500017
0.042955685 0.056812428 0.82525015
0.04671206 0.057195254 0.8263399
0.050850317 0.057035342 0.82847786
0.013519194 0.061191913 0.8291114
0.017621042 0.062404022 0.82812232
0.022214921 0.063062027 0.82666659
0.025250526 0.064474188 0.82506686
0.037875123 0.063871756 0.82521325
0.042232171 0.063022271 0.82614058
0.047104023 0.062608883 0.82806069
0.050125897 0.061719816 0.82928896
0.019189619 0.066334307 0.82913369
0.02245418 0.067622468 0.8283751
0.027616309 0.067687012 0.82680553
0.03300149 0.067661732 0.82649612
0.037649877 0.067704566 0.82702208
0.042343874 0.067811407 0.82832611
0.045878015 0.067511633 0.82938349
0.023443915 0.072124064 0.82920027
0.027671285 0.072445281 0.82846135
0.033070579 0.072424896 0.82822239
0.03773544 0.071712591 0.82890028
0.04163339 0.070998445 0.82956672
0.026928013 0.075608693 0.82935578
0.031183079 0.075997181 0.82938361
0.034116834 0.049713828 0.8349331
0.03795794 0.049646344 0.8337999
0.042605255 0.049237262 0.83345002
0.047298562 0.049656928 0.83397776
0.051225442 0.049693979 0.83459985
0.0081511103 0.053780872 0.83377784
0.012826079 0.052186597 0.83193344
0.017687364 0.051040471 0.83124453
0.022373004 0.051115528 0.8324666
0.02743558 0.051536806 0.83303326
0.032111403 0.051749449 0.83199996
0.040881135 0.050964057 0.8300001
0.047866091 0.050984524 0.83033347
0.053129632 0.052371256 0.83133334
0.056101263 0.052748587 0.83382225
0.0076271049 0.057367485 0.8333056
0.011470793 0.055600416 0.83006692
0.053980626 0.056932569 0.83147991
0.056599997 0.057382248 0.83352011
0.0088546034 0.061829057 0.83373308
0.01264953 0.063412309 0.83126658
0.052271504 0.062346466 0.83177149
0.056100745 0.061021227 0.83380008
0.013271019 0.067094415 0.83377498
0.017503951 0.068285368 0.83174998
0.020767642 0.06952507 0.83040005
0.048044186 0.068316951 0.83073318
0.051217191 0.067723073 0.83265722
0.017944939 0.072754711 0.83421654
0.021417283 0.073029414 0.83160001
0.03782459 0.074198879 0.83084446
0.042708732 0.073122084 0.8311429
0.047192171 0.07276281 0.83208901
0.051182657 0.072920807 0.83390003
0.01932231 0.076111086 0.83486646
0.02291332 0.077008933 0.83336657
0.027022079 0.078197129 0.83226675
0.033032265 0.077987984 0.83209991
0.037718687 0.077086814 0.83340943
0.042605877 0.076759674 0.83346653
0.047278207 0.076772846 0.83361101
0.051203094 0.076053351 0.83423328
0.027106801 0.081156835 0.83484977
0.031372689 0.081114911 0.83441651
0.0084613906 0.049936123 0.8386668
0.012694058 0.049219731 0.83786672
0.017825412 0.049097579 0.83768892
0.022504769 0.049082011 0.83742231
0.027376467 0.048480071 0.83713329
0.032052204 0.048132464 0.8374815
0.037622195 0.047551084 0.8379001
0.043047518 0.046980534 0.83699995
0.047486696 0.046736736 0.83729625
0.052177537 0.04804169 0.83738893
0.056194276 0.049959943 0.83906674
-0.010287611 0.051393878 0.83700001
-0.0065583675 0.052466042 0.83920956
-0.0024864234 0.053018227 0.83807409
0.002198393 0.05291374 0.83642948
0.0071036876 0.051597722 0.8367238
0.058017928 0.052570857 0.8371526
-0.0056184032 0.05698368 0.83906686
-0.0024866897 0.057692051 0.83801484
0.0021967809 0.057547051 0.83591098
0.058357537 0.058360666 0.83643347
0.060101371 0.059320189 0.83900005
-0.0015492472 0.062098213 0.83857346
0.0022000631 0.062290952 0.83697027
0.0059396117 0.062529139 0.8359865
0.056790285 0.062553868 0.8363201
0.060140885 0.06092092 0.83955187
-0.00092415966 0.065594241 0.83940011
0.0025179256 0.066169851 0.83877343
0.0074514258 0.06684076 0.83721828
0.011558451 0.068995215 0.83646661
0.053661257 0.066898525 0.83617777
0.056152437 0.067079701 0.83844441
0.0076847868 0.070270225 0.83930004
0.012297993 0.07266961 0.83788198
0.01623024 0.074659273 0.83600003
0.053735424 0.072443306 0.83733332
0.056191951 0.070247896 0.83903337
0.013152253 0.076458551 0.83868343
0.017623004 0.078093894 0.83738333
0.021422418 0.078789584 0.83582211
0.03879923 0.079245612 0.83516657
0.042708408 0.079274066 0.83546656
0.047382966 0.079274066 0.83546662
0.051851213 0.078187399 0.83714658
0.018480618 0.082115725 0.83909351
0.022496043 0.082545981 0.83711845
0.027140444 0.083358862 0.83590662
0.033182684 0.083009586 0.83590829
0.038090155 0.082503542 0.83668888
0.042807087 0.08257249 0.83738524
0.047509413 0.082603648 0.83769631
0.051217329 0.081662178 0.8387112
0.02306439 0.086877048 0.83884454
0.027188649 0.08724384 0.83737034
0.03219264 0.087105945 0.83753997
0.037391797 0.087363683 0.83852017
0.041864891 0.086411595 0.8393777
0.049206711 0.085954435 0.83999985
0.027566591 0.091197915 0.83936006
0.031948663 0.090570174 0.83933347
0.035098866 0.090620525 0.83979994
0.02820521 0.04399626 0.84443331
0.031366579 0.044011883 0.84473324
0.035313401 0.044022311 0.84493321
0.043145258 0.043974843 0.84402221
0.047531359 0.04332621 0.84364003
0.051786214 0.043959796 0.84373349
0.057374753 0.044022307 0.84493315
-0.0056447401 0.048626006 0.84300005
-0.0025048794 0.04870395 0.84435129
0.0026113603 0.048275642 0.84373331
0.0071527842 0.047473252 0.8424477
0.012234371 0.046644438 0.84264988
0.018324325 0.046643503 0.84261668
0.022638844 0.046240065 0.84241104
0.026937732 0.045811165 0.84171671
0.032067079 0.045458537 0.84242231
0.037708335 0.045755457 0.84213352
0.042195112 0.045369204 0.84076655
0.052843228 0.045814171 0.8417666
0.057017222 0.047226954 0.84254998
-0.011147311 0.054112364 0.84295762
-0.0074664541 0.052720975 0.84165496
-0.0024989976 0.050160885 0.84244156
0.0022128639 0.050137252 0.84204441
0.0053450139 0.050047271 0.8405332
0.058745921 0.050134603 0.84200001
0.061056137 0.053049304 0.84353036
-0.011003788 0.057792414 0.84403479
-0.0076535186 0.058155097 0.8414939
0.061174855 0.057250276 0.84299242
-0.0072184228 0.062739573 0.84299463
-0.0036706552 0.062979937 0.84096664
0.058629639 0.064104006 0.84033334
0.060345694 0.063479677 0.84241092
-0.0067025214 0.067012243 0.84414369
-0.0026967211 0.067610353 0.84262508
0.0018176857 0.068425983 0.84061652
0.058674593 0.067281924 0.84097773
0.060468275 0.067532472 0.84412223
-0.0013233705 0.071868755 0.8443166
0.0022151517 0.072133318 0.84281492
0.0066931765 0.072439469 0.84117132
0.057379901 0.072483487 0.84168571
0.0026129617 0.075791955 0.84428328
0.0069329799 0.076864325 0.84311873
0.011806194 0.07865642 0.84178519
0.054021843 0.079092652 0.84179652
0.056295812 0.076533698 0.84293032
0.0079958392 0.080662526 0.84457779
0.012652213 0.08300712 0.84324259
0.017114921 0.083728775 0.84118319
0.052486252 0.083447784 0.84231663
0.014290095 0.086908005 0.8441999
0.017930835 0.087799743 0.84270376
0.021557664 0.088673703 0.84108871
0.039819691 0.089107864 0.84026653
0.043530136 0.088174701 0.84130001
0.047535952 0.087882362 0.84161669
0.051766053 0.087871738 0.84340018
0.019020768 0.091655202 0.84453326
0.022836881 0.09228427 0.84250003
0.026933849 0.093554989 0.84159994
0.032015551 0.093107097 0.84108877
0.03774482 0.092527479 0.84163642
0.043089528 0.09252473 0.8429113
0.047840159 0.092592396 0.84352601
0.051033247 0.091891602 0.84429991
0.024267398 0.095829129 0.84440011
0.027920654 0.09680333 0.84375572
0.032085609 0.097231336 0.8429336
0.037599508 0.097259469 0.84317797
0.042717945 0.097181655 0.84444755
0.047131993 0.095889658 0.84493321
0.032454509 0.1011652 0.84435987
0.036635198 0.10164652 0.84425706
0.040564045 0.10112358 0.84488887
0.046595007 0.039520066 0.84951133
-0.0041015204 0.042654887 0.84900004
0.0022310314 0.044226069 0.84884459
0.0069777751 0.043574918 0.84848022
0.012509061 0.043390751 0.84796685
0.018051257 0.04340839 0.84831136
0.022782462 0.043379173 0.84774464
0.027519604 0.042578883 0.84752017
0.032642931 0.042958342 0.8472169
0.037272029 0.043157112 0.84648007
0.04252594 0.042177029 0.84735841
0.048439644 0.041378632 0.8471334
0.053004954 0.042105012 0.84704769
0.057550572 0.042381249 0.84751678
0.062146086 0.042811528 0.84821677
0.065591052 0.043459728 0.84930027
-0.005658132 0.04716951 0.84500003
-0.0025154778 0.046538364 0.84783345
0.0019090312 0.046290748 0.84618682
0.0061649368 0.045624632 0.84550005
0.011679002 0.045604847 0.84513336
0.017195646 0.045604847 0.8451333
0.058959868 0.045601256 0.84506649
0.062238351 0.047267906 0.84676296
0.066388823 0.047413841 0.84937257
0.062868282 0.051362075 0.84675086
0.067141324 0.052122477 0.84887248
-0.013235955 0.05791657 0.84583646
0.063217722 0.057063483 0.84719884
0.067186482 0.055318583 0.84944946
-0.01518529 0.060027223 0.84900004
-0.011190965 0.062980942 0.84624225
0.062225834 0.062221814 0.84661543
-0.011199131 0.067754388 0.84688359
-0.0082903234 0.068696186 0.84554845
-0.011216184 0.07101956 0.84825003
-0.0070608668 0.072354011 0.8477025
-0.0034552994 0.0727017 0.84578675
0.060590003 0.070816219 0.8458215
-0.0056849159 0.076610342 0.84900022
-0.0023175271 0.077081151 0.84765857
0.0019074762 0.078047261 0.84574664
0.057459321 0.078716397 0.84617865
-0.00093465589 0.080551833 0.84893364
0.0027556114 0.081494369 0.84777802
0.0064321435 0.082388841 0.84616661
0.010103616 0.084914297 0.84519988
0.054287314 0.083414383 0.84593338
0.056838121 0.082106635 0.84867305
0.0075022099 0.086271338 0.84823346
0.012088099 0.088364482 0.84624183
0.054429568 0.087577298 0.84815025
0.056099053 0.086923517 0.84947795
0.01304632 0.091841839 0.84867793
0.017496003 0.093499899 0.84701127
0.021139439 0.094355144 0.84526652
0.053235091 0.093207337 0.84708577
0.019133976 0.096941151 0.84955579
0.022583371 0.097982585 0.84773344
0.026399622 0.098569036 0.84544426
0.044830084 0.098383337 0.84609985
0.048238989 0.098102726 0.84658098
0.052362178 0.097543038 0.8475858
0.023882797 0.1016636 0.84940022
0.027526731 0.10252678 0.84781498
0.031803422 0.10347397 0.8459
0.037689023 0.10378115 0.84519982
0.043122172 0.10277292 0.84696299
0.048147414 0.10187128 0.84893352
0.052149214 0.10116649 0.84965026
0.028368972 0.1058686 0.84933358
0.032490667 0.10713235 0.84838361
0.037009425 0.10724173 0.84768915
0.041354749 0.1071548 0.84879076
0.045012005 0.10589354 0.84953362
0.038686581 0.11066911 0.84980011
0.051667888 0.03499582 0.85480022
0.058791779 0.034965798 0.85406685
0.06199326 0.034974676 0.85428345
0.0022420979 0.039700314 0.85338598
0.0066263108 0.039338488 0.85415208
0.012593633 0.039716478 0.85373342
0.018182993 0.039752141 0.85450011
0.022964984 0.039754204 0.8545447
0.027732946 0.039735083 0.85413355
0.032511067 0.039734054 0.85411119
0.037268743 0.039711822 0.8536334
0.042392079 0.039266713 0.85260832
0.048101049 0.03808637 0.85282224
0.052805729 0.037916206 0.85257673
0.05789623 0.038077462 0.85260743
0.062657878 0.038072094 0.85248888
0.067467608 0.038094845 0.85299402
-0.0020719194 0.043006085 0.85150355
0.0022367483 0.041969895 0.85113335
0.0070010847 0.041582949 0.85131663
0.01254881 0.041157834 0.85069996
0.018118465 0.041194919 0.85146666
0.022871232 0.041174494 0.85104436
0.026826143 0.041154608 0.85063326
0.032375589 0.041150305 0.85054439
0.037121139 0.041135792 0.85024446
0.040296748 0.041140091 0.85033327
0.064092509 0.04114493 0.85043353
0.067781657 0.042540092 0.85123199
0.070776373 0.043727808 0.85453337
0.068918258 0.047519226 0.85126752
0.07076367 0.047692686 0.85437995
0.070509881 0.051480807 0.85131574
0.065696605 0.056980252 0.85066676
-0.013631267 0.062530763 0.85083336
0.062491555 0.06485904 0.85023063
-0.01046537 0.073664963 0.85146248
-0.0088636968 0.074341513 0.85014999
-0.010491292 0.077816941 0.85357141
-0.0077466783 0.077879496 0.85176772
-0.0041076415 0.079096697 0.85026664
0.059478864 0.077721536 0.85250527
-0.010508849 0.081127495 0.85499996
-0.0067763864 0.082040563 0.8534624
-0.0027241278 0.082562134 0.85133332
0.0011783807 0.083329983 0.8504222
0.059585474 0.0842131 0.85403341
-0.0015776946 0.08708825 0.85418004
0.0022387488 0.087201267 0.85217404
0.00593815 0.088102035 0.85067773
0.058316853 0.086881489 0.85293853
0.0030417866 0.091367528 0.85408342
0.0070112776 0.092017092 0.85272962
0.012071721 0.093687564 0.85062659
0.056922086 0.092286445 0.8522867
0.0078222584 0.096158162 0.85430014
0.012257513 0.097077981 0.85260332
0.017585499 0.098724641 0.85130543
0.05465205 0.099025279 0.85161674
0.056992065 0.096527122 0.85334682
0.013715317 0.1007517 0.85417336
0.018348616 0.10295239 0.85297918
0.022340648 0.10343736 0.85099435
0.048240509 0.10444147 0.85057783
0.053091645 0.10329777 0.85202789
0.019775167 0.10729935 0.85443348
0.022898106 0.10779958 0.85209996
0.027400425 0.10809608 0.85087615
0.030791104 0.10919103 0.85060006
0.043492362 0.10842545 0.85079992
0.047236562 0.10772832 0.85154074
0.051589485 0.10797719 0.85350484
0.02389686 0.11244456 0.85367334
0.027691679 0.11265688 0.85287035
0.032439999 0.11257359 0.85223699
0.037004314 0.11275531 0.85211253
0.041990682 0.11260986 0.85251111
0.046628706 0.11257212 0.85373759
0.028546158 0.11606789 0.85463345
0.032196831 0.11664845 0.85422671
0.037518702 0.11713574 0.8541382
0.04154956 0.11708913 0.85435015
0.046089977 0.1160951 0.8548336
0.047090579 0.033552554 0.85855722
0.050999366 0.033490501 0.85696924
0.056646612 0.03352176 0.85776931
0.0081194798 0.037766349 0.85756391
0.012163429 0.037636984 0.85704011
0.017791638 0.037614275 0.85756212
0.023045173 0.03749869 0.85752231
0.027838305 0.037491638 0.8573668
0.032629598 0.037485976 0.85723352
0.037423354 0.037483212 0.85716671
0.042241391 0.036703613 0.85760009
0.046662308 0.035705324 0.85657358
0.052773546 0.035024028 0.85548919
0.056490157 0.035020389 0.85540032
0.064451739 0.0350122 0.85520011
0.066050574 0.035014246 0.85525006
0.070897847 0.039821923 0.85600007
0.070856437 0.041390058 0.8555001
0.067625858 0.057270519 0.85500002
-0.012103436 0.074765623 0.85500002
-0.012139612 0.078181185 0.85755557
0.061547309 0.075131595 0.85918528
-0.011067819 0.082916088 0.8570556
-0.0083913421 0.08386007 0.85583144
0.059714966 0.082007952 0.85588932
0.061496858 0.083053388 0.85848087
-0.01056211 0.086334236 0.85933334
-0.0073414724 0.087732904 0.85736728
-0.0037368257 0.088006124 0.85615009
0.059843615 0.088567257 0.85773337
0.061479088 0.087023079 0.85823274
-0.006390383 0.092344061 0.85872716
-0.0025447016 0.092541471 0.85759264
0.0016118016 0.093011856 0.85605353
0.059454061 0.092172101 0.8578667
-0.0025490767 0.096719891 0.85928887
0.0022542472 0.097353667 0.8578223
0.0064018914 0.09780255 0.85617363
0.058958776 0.097198397 0.8564834
0.0030612641 0.10075223 0.85959989
0.0072619524 0.10205016 0.85874164
0.011305872 0.10253903 0.85671133
0.015009198 0.10342625 0.85526675
0.05738138 0.10201737 0.85678345
0.012268886 0.10586306 0.85890001
0.016809665 0.10733008 0.85679275
0.054380327 0.10718784 0.85566694
0.056120198 0.10693192 0.8578667
0.018061362 0.11196841 0.85824162
0.021801617 0.11344106 0.85580027
0.048505943 0.11456298 0.85526693
0.051589113 0.11297514 0.85679173
0.055104475 0.11022653 0.85866672
0.019360825 0.11567954 0.8596223
0.023239743 0.11783561 0.85736674
0.027571866 0.11832929 0.85620022
0.032967843 0.11898933 0.85563362
0.036537241 0.11931726 0.85513353
0.043226317 0.11890767 0.85600019
0.047242768 0.11845948 0.85714293
0.051271629 0.11727864 0.85884011
0.0246755 0.12139814 0.8585999
0.028108209 0.12254667 0.8586477
0.032648202 0.12287123 0.85772592
0.037417702 0.12277324 0.85704452
0.042252645 0.1228848 0.85782218
0.046600465 0.12256964 0.85934466
0.029525183 0.12798515 0.8599335
0.032710727 0.12710182 0.85936683
0.037509643 0.1269097 0.85914671
0.041516807 0.12627292 0.85916674
0.0079062246 0.032935608 0.86331248
0.010334614 0.033785734 0.86452395
0.028054034 0.033766568 0.86403352
0.033287898 0.033360623 0.8639335
0.037668157 0.032111876 0.86278749
0.042426962 0.032861888 0.86140013
0.04643397 0.032053843 0.86119998
0.0070808483 0.036045097 0.86088991
0.011511168 0.035688125 0.86194044
0.017809056 0.035827532 0.86206669
0.023186982 0.035322893 0.86278898
0.027985051 0.035286043 0.86188883
0.032798305 0.035276946 0.86166668
0.037573129 0.035233274 0.86060029
0.040767476 0.035219621 0.86026686
0.064874381 0.064064607 0.86080772
0.065000281 0.062584557 0.86247844
0.063332088 0.070539996 0.86166662
0.062811747 0.077420987 0.86333859
0.06516134 0.0772148 0.86461556
0.063287191 0.083302386 0.86105561
-0.011130986 0.08873868 0.86198407
0.062527761 0.088166535 0.86163986
-0.0112413 0.093366802 0.86228335
-0.0085732993 0.093282767 0.86076349
0.061846051 0.093163617 0.8633557
-0.011229822 0.097437762 0.86140001
-0.007373732 0.097738117 0.86121756
-0.0025520294 0.099237777 0.86033344
0.060043629 0.097667649 0.86060005
-0.010570304 0.10239887 0.86000001
-0.0077851424 0.10149789 0.86254174
-0.0025599552 0.10195508 0.86300558
0.002034446 0.10305411 0.86165249
0.0054738894 0.10409539 0.86080021
0.0032371166 0.10734236 0.86372679
0.0070888847 0.10745474 0.86205178
0.011569159 0.10821532 0.86045343
0.056846771 0.10889913 0.86080003
0.0076398775 0.11194535 0.86370569
0.01190878 0.1122345 0.86181474
0.015094602 0.11201507 0.86013341
0.055937305 0.11242473 0.86327791
0.012467027 0.11671904 0.86336678
0.01689633 0.11731502 0.86119264
0.021507917 0.1199963 0.86000019
0.053104091 0.11797911 0.86084437
0.055460643 0.11656617 0.86421692
0.018180091 0.12163922 0.86282599
0.023129219 0.1230248 0.86066681
0.027125681 0.12481497 0.86013341
0.048268292 0.12433648 0.860511
0.052284081 0.12202998 0.86164987
0.022864232 0.12712972 0.86281335
0.027746651 0.12810633 0.86074173
0.032742608 0.12962501 0.86020023
0.03758207 0.12931547 0.86079991
0.042643525 0.12861933 0.86111432
0.047042757 0.12781394 0.86185712
0.051701874 0.12660144 0.86295837
0.024034884 0.13105446 0.8643502
0.028337482 0.13227084 0.86284006
0.032627203 0.1329737 0.86245
0.03766517 0.13240969 0.86269999
0.042194415 0.13232605 0.86320007
0.047684312 0.13108522 0.86349356
0.029678544 0.13508178 0.86440003
0.032900758 0.13588089 0.86436677
0.029845631 0.02912008 0.86926663
0.031457171 0.029111143 0.86900008
0.012004164 0.033404943 0.86853737
0.017940423 0.033400964 0.86847782
0.022848768 0.033205062 0.86739528
0.028512591 0.031667482 0.86819333
0.032660872 0.031284492 0.86653137
0.016010758 0.035468675 0.86635017
0.068601348 0.059710044 0.86733341
0.070191957 0.059687097 0.86700004
0.067023672 0.067815125 0.86782908
0.063661903 0.073324129 0.86615384
0.066968799 0.072600231 0.86713243
0.07039272 0.071179628 0.86948007
0.066084877 0.07694836 0.8661443
0.063602529 0.080499478 0.86534631
0.06550917 0.080860853 0.86923087
-0.012252074 0.086953782 0.86550003
0.063765742 0.088775262 0.8675667
0.065374963 0.087149687 0.86745006
0.063884571 0.091365665 0.86918342
0.061599851 0.098443307 0.86743671
-0.0063393614 0.10368806 0.86631018
-0.0025698945 0.10474705 0.866189
0.060480077 0.10321587 0.86685544
-0.0058240988 0.10679998 0.86978573
-0.0022530563 0.10732238 0.86877328
0.0010674635 0.108588 0.86790836
0.058857355 0.10642929 0.86676663
-0.0017687862 0.11084685 0.86979997
0.0025135104 0.11263321 0.86842382
0.006052135 0.11398742 0.86702234
0.057213739 0.11363195 0.86635673
0.0039056391 0.1164115 0.8690666
0.0071403738 0.11792992 0.86833698
0.010893285 0.11871656 0.86622238
0.056872528 0.11819139 0.86730009
0.0079616513 0.12132649 0.8695333
0.012231491 0.12233017 0.86845243
0.015752846 0.12365935 0.86698896
0.056059018 0.12221393 0.86722517
0.013634744 0.12614994 0.86933333
0.017056378 0.12739915 0.8682
0.020053674 0.12815183 0.86646676
0.053954273 0.12806986 0.86590827
0.055728044 0.12682039 0.86838329
0.018495146 0.13178489 0.86916667
0.022107393 0.13258876 0.8678084
0.026536925 0.13389079 0.8671
0.044274494 0.13373637 0.86610019
0.047566544 0.13390793 0.86721116
0.052425191 0.13231246 0.86731493
0.05580613 0.13185024 0.86959994
0.024570653 0.13702123 0.86904991
0.027956123 0.13734582 0.86726671
0.033298496 0.13795879 0.86630678
0.037845623 0.13707566 0.86682969
0.042732611 0.13719399 0.86758149
0.047648534 0.13737188 0.86871105
0.05157445 0.13714889 0.86934662
0.029429363 0.14185473 0.86895013
0.033066124 0.14221497 0.86868161
0.037743177 0.1420867 0.86913335
0.042585939 0.14185651 0.86931431
0.046889849 0.14075807 0.86966681
0.022948021 0.028740263 0.87412208
0.02668957 0.028565686 0.87212008
0.012853849 0.03161969 0.87133217
0.016372787 0.031885989 0.8712334
0.021379501 0.031206623 0.87110007
0.025831249 0.030783046 0.87056673
0.068057217 0.063182414 0.87071866
0.071398236 0.063265473 0.87185508
0.071360491 0.068093091 0.8713879
0.066848345 0.088748336 0.87259191
0.063947052 0.093882948 0.87003326
0.066518039 0.092355967 0.87396014
0.064160198 0.096632175 0.87293339
0.065911323 0.097625844 0.87456685
0.062547289 0.1023374 0.87314445
-0.007933408 0.10732905 0.87220591
-0.0042036162 0.10846128 0.87013334
0.059186962 0.10864665 0.87162077
0.06191162 0.10756497 0.87336177
-0.0064950762 0.11169934 0.87266999
-0.0032323871 0.11241801 0.8706935
0.002288674 0.11498861 0.87053341
0.059282836 0.11126034 0.87303269
0.061778508 0.11054167 0.87378323
-0.0058587738 0.11557389 0.87496424
-0.0023864591 0.11673507 0.87298757
0.0020579279 0.11764025 0.871324
-0.00096306094 0.12042484 0.87473327
0.0020919847 0.12208825 0.87353319
0.0071640885 0.12344053 0.87113357
0.01122102 0.12473816 0.87076682
0.057552502 0.1240308 0.87148631
0.0039305058 0.12528728 0.87459999
0.007508222 0.12706691 0.87341326
0.011842731 0.12832682 0.87175846
0.015279461 0.12958263 0.8706668
0.057190694 0.12858582 0.87215012
0.0088192141 0.13009861 0.87413329
0.012883087 0.13242583 0.87339163
0.016460184 0.13322778 0.87180012
0.020155501 0.13447234 0.87086689
0.057078373 0.13310231 0.87251115
0.013720478 0.13507971 0.87480003
0.018186841 0.13777727 0.87384164
0.021594411 0.13803568 0.87162507
0.053882141 0.13818136 0.87126672
0.056042135 0.13809511 0.87327766
0.022385409 0.14244786 0.87341112
0.026456058 0.14281671 0.87111676
0.039618324 0.1440929 0.87026685
0.04371113 0.14420882 0.87096691
0.047986943 0.14300124 0.87065732
0.052505992 0.1425568 0.87200832
0.028342135 0.14737706 0.87293333
0.033153556 0.14745453 0.87099266
0.038021941 0.14743429 0.87087417
0.042931791 0.14756119 0.87162238
0.047864832 0.14773625 0.87265182
0.051719204 0.14681362 0.87361103
0.033263605 0.15200758 0.87388331
0.038155697 0.1520173 0.8739388
0.042218961 0.15116234 0.8736999
0.01375641 0.029382182 0.87709105
0.017007424 0.028938491 0.87603343
0.020285107 0.028545145 0.87646675
0.067618757 0.094478823 0.87555563
0.064321898 0.099317007 0.87513345
0.067396022 0.097808816 0.87619781
0.064549752 0.10293724 0.87823325
0.066313252 0.10149474 0.8798998
-0.0087379124 0.11301604 0.87721747
0.059561934 0.11422998 0.87714303
0.061976377 0.11334301 0.8765853
-0.0072436072 0.11814278 0.8779192
-0.0042326022 0.11898783 0.87613338
0.059542399 0.11745462 0.87685531
0.061354138 0.1169761 0.87938321
-0.0065438794 0.12236486 0.87931919
-0.0028070882 0.12259079 0.8771292
0.059534233 0.12233141 0.87673503
0.061383206 0.12275898 0.87980002
-0.0058900355 0.12600833 0.87963307
-0.0026066573 0.12750691 0.87868154
0.0021013282 0.1275076 0.87727928
0.0055728792 0.12798597 0.87636673
0.059506115 0.12716278 0.8763209
-0.0075302795 0.13091221 0.87960005
-0.0020615286 0.13196185 0.87932223
0.0023103841 0.13246235 0.87902224
0.0070092799 0.13239622 0.87722933
0.010474391 0.1328547 0.87621677
0.059513271 0.13207127 0.8764264
0.007561747 0.13647974 0.87962645
0.011932069 0.13746539 0.87834167
0.015919851 0.13800244 0.87613344
0.057846922 0.13688727 0.87594444
0.013244863 0.14123575 0.87935543
0.016835822 0.14227843 0.87779582
0.020268133 0.14336903 0.87573338
0.054526985 0.14489318 0.87510008
0.057353295 0.14249238 0.87836665
0.017891796 0.14723611 0.87936658
0.02174018 0.14712764 0.87750018
0.025983483 0.14825326 0.87571669
0.053393506 0.14839835 0.87657517
0.056392238 0.14713037 0.87873322
0.018724253 0.15060398 0.87993312
0.021988941 0.15130629 0.87925547
0.026661368 0.15209042 0.87787926
0.032025747 0.15378805 0.87569344
0.038241316 0.15479971 0.87588888
0.04316045 0.15323693 0.87626678
0.048077192 0.15246542 0.87651682
0.053102221 0.15199549 0.87851423
0.027456181 0.15649134 0.87928867
0.03230761 0.15725438 0.8774631
0.038300071 0.15748544 0.87723351
0.043463156 0.15705606 0.87825429
0.048017129 0.15680997 0.87916237
0.051499128 0.15537313 0.87913311
0.032232877 0.16068539 0.87911665
0.036914401 0.16150726 0.87888885
0.042510916 0.16120906 0.87974423
0.069634847 0.099914744 0.8804
0.067536063 0.10278198 0.88157773
0.064689405 0.10643332 0.88013321
0.067200169 0.10644214 0.88291991
0.064943597 0.11260487 0.88359189
0.066599652 0.11179619 0.88370001
-0.0091749141 0.11705752 0.88
0.062713191 0.11844515 0.88118827
-0.0091919443 0.1230158 0.88163346
0.062495209 0.12300804 0.8815819
-0.0064410679 0.12772502 0.88018864
0.061926171 0.1275292 0.88167065
-0.0059036203 0.13286121 0.88166183
-0.003706482 0.13377295 0.88047886
0.062063832 0.13233563 0.88364136
-0.0017971235 0.13642049 0.88348341
0.0028672789 0.13731575 0.88218886
0.0068343845 0.13890803 0.88101661
0.059844211 0.13772319 0.88129997
0.061729729 0.13991036 0.88476676
0.0078181317 0.14251609 0.88391113
0.011624691 0.14311984 0.88088328
0.059892502 0.14275581 0.88201112
0.012664089 0.14752109 0.88246667
0.015452224 0.14742772 0.88051099
0.058631252 0.14719619 0.88158333
0.060073979 0.14894864 0.88468319
0.013861638 0.15126576 0.88380015
0.016925031 0.15288411 0.88245833
0.022020942 0.15398259 0.88053304
0.054857247 0.1539593 0.88039988
0.057028376 0.15223008 0.88223332
0.018264282 0.15681134 0.88416678
0.022069925 0.15761292 0.88250744
0.025857395 0.15837671 0.8806777
0.049927585 0.15886034 0.88033313
0.052972853 0.15732633 0.88091093
0.055078425 0.15869159 0.88395005
0.027557077 0.16199292 0.88252228
0.031558618 0.16322456 0.88090658
0.038428936 0.16374832 0.88019973
0.041727141 0.1638062 0.88051087
0.046952512 0.1626994 0.88227081
0.051399566 0.16165185 0.88305342
0.028730955 0.16626255 0.88486677
0.032291256 0.16656089 0.88295346
0.036703181 0.16736975 0.88309997
0.041521013 0.16659217 0.88312006
0.045230422 0.16625001 0.88480014
0.071025126 0.10319789 0.88750243
0.06680163 0.10883386 0.88634992
0.071978144 0.10668596 0.88905984
0.066180497 0.11146799 0.88544542
0.065980576 0.11709067 0.88644308
0.066060849 0.12218408 0.88751101
0.063465811 0.12856364 0.88596636
0.065964416 0.12694177 0.8884533
0.063464493 0.13268128 0.88594818
0.06536559 0.13236117 0.88933343
-0.0059503885 0.13804515 0.88864636
-0.0030445494 0.13817416 0.8868252
0.0015017749 0.13917369 0.88531661
0.062861934 0.1372567 0.88675994
-0.0059580682 0.14070521 0.88979316
-0.0026360713 0.1421334 0.88837028
0.0020942793 0.14233391 0.88668066
0.0056337146 0.14339085 0.88593316
0.062671505 0.14264232 0.88640547
-0.0059592291 0.14569917 0.88996673
-0.0020850229 0.14696148 0.88925558
0.0023346324 0.14706789 0.88822955
0.0070858812 0.14703991 0.88681644
0.010580982 0.14820093 0.88513333
0.062770955 0.14699656 0.88780838
-0.00097979559 0.15066008 0.88993335
0.0027520675 0.15094377 0.88916671
0.0073047727 0.15203868 0.88831097
0.012010783 0.15263322 0.8862856
0.058471367 0.15318662 0.88539988
0.061096143 0.15190861 0.88755006
0.008308989 0.15684298 0.88932002
0.012057251 0.15706447 0.88753313
0.016786302 0.15822312 0.88593334
0.057748921 0.15675698 0.88696665
0.012832996 0.16147272 0.88869995
0.017030235 0.16208056 0.88787478
0.022168109 0.16243313 0.8864221
0.026010359 0.16425748 0.88588876
0.051875424 0.16419552 0.88555557
0.056273155 0.16207688 0.88717985
0.017818684 0.1665528 0.88934445
0.022208657 0.16686298 0.88805914
0.027135702 0.1679756 0.88666648
0.031650644 0.16931525 0.88576663
0.038638484 0.16958013 0.88500017
0.042384863 0.16929789 0.88567495
0.046959799 0.16790648 0.88629985
0.052205794 0.16716389 0.88715214
0.056216326 0.16702087 0.88889998
0.02333851 0.17089784 0.889
0.026991794 0.17215791 0.88874167
0.032117013 0.17248623 0.88724416
0.037056394 0.17319323 0.88663679
0.041808512 0.17283295 0.88720924
0.04728445 0.1721143 0.8885166
0.051525723 0.17145382 0.88902229
0.055422172 0.17043597 0.88946682
0.028885731 0.17626023 0.88963354
0.032170132 0.17690435 0.88871109
0.037114616 0.17759557 0.88803321
0.042320568 0.17710048 0.88865829
0.046706915 0.17579062 0.88935006
0.033858187 0.18119791 0.88950014
0.036833934 0.18098208 0.88925344
0.040471125 0.18026881 0.889
0.072273463 0.10961655 0.8927241
0.068804026 0.11270764 0.89090276
0.068943515 0.11791859 0.89270896
0.068939619 0.12289149 0.89265877
0.068551816 0.12833989 0.89301544
0.068000652 0.13263892 0.89343345
0.066017836 0.13740332 0.89253354
-0.0059619928 0.1432822 0.89037943
0.065614268 0.14199826 0.89271688
-0.0059795412 0.14785694 0.89299989
-0.0037474602 0.14795858 0.89027786
0.063814409 0.14915532 0.89083356
-0.0026463626 0.15271844 0.89228112
0.0020097336 0.1535366 0.89125347
0.063172892 0.15292466 0.89350009
0.0035979638 0.15746979 0.89334202
0.0060813758 0.15789855 0.89107519
0.058805965 0.15903252 0.89046693
0.061257698 0.15736705 0.89229357
0.0076769209 0.16183296 0.89312029
0.011216308 0.16371572 0.89191133
0.058876399 0.16254105 0.89153355
0.060584381 0.1618318 0.89220023
0.013008249 0.16716366 0.89319354
0.016186105 0.16847606 0.8907668
0.059055414 0.16802447 0.89424461
0.017900117 0.17230909 0.8934558
0.02173727 0.17300959 0.89135575
0.053278457 0.1734146 0.89060026
0.056580901 0.17291999 0.89203358
0.022894537 0.17725568 0.89325577
0.026799042 0.17763539 0.89119071
0.047518291 0.17826758 0.89056695
0.052252319 0.17755334 0.89196694
0.055690799 0.17791371 0.89377791
0.027582994 0.1823751 0.89352882
0.031788204 0.18262462 0.89126694
0.037649319 0.183553 0.89089191
0.042463418 0.18267255 0.89164609
0.047138348 0.18265647 0.89359617
0.051536806 0.18128277 0.89400023
0.029053485 0.18643841 0.89480007
0.032690581 0.18690974 0.8938669
0.03734491 0.18700753 0.89353913
0.042036075 0.18695132 0.89406693
0.071692258 0.11250048 0.89585137
0.071788527 0.11682235 0.89704746
0.07246802 0.12217508 0.89715493
0.072676696 0.12692329 0.89767635
0.070926733 0.13179477 0.89673346
0.068683475 0.13677122 0.8965556
0.067682385 0.14034294 0.89806682
0.06594298 0.14688179 0.89718908
-0.0060143606 0.15038875 0.89820004
0.064277656 0.15357634 0.89730006
0.066078529 0.15052825 0.89903349
-0.0029003951 0.15731204 0.89684737
0.0015195361 0.15829541 0.89566672
0.063913926 0.15787892 0.89805025
-0.0016596727 0.16177605 0.89834023
0.0021189947 0.16237709 0.89717633
0.0073674349 0.16416305 0.89586669
0.061970238 0.16338782 0.89618915
0.004040611 0.16559193 0.89910024
0.0073851482 0.16708183 0.89811456
0.011542601 0.16830435 0.89573342
0.061315674 0.16766621 0.89679182
0.0090650534 0.17049553 0.89850026
0.01240132 0.17196229 0.89742869
0.015727544 0.17339332 0.8962
0.059172451 0.17252523 0.89601684
0.060960114 0.17202003 0.89773357
0.013271066 0.17573434 0.89965022
0.017205341 0.17710987 0.89707929
0.021555124 0.17904162 0.89526665
0.05842087 0.17694016 0.89728343
0.018682018 0.18160251 0.89763355
0.022176383 0.18222679 0.89630479
0.0274112 0.18495299 0.89566666
0.049101189 0.18485661 0.89520007
0.052467316 0.18328407 0.89565337
0.056941144 0.18237045 0.89771354
0.019124309 0.18558621 0.89873356
0.02266508 0.18687969 0.89791691
0.026867086 0.18726516 0.89609998
0.032417908 0.18909022 0.89553332
0.037432928 0.18994658 0.89564443
0.04245618 0.18916748 0.89589995
0.04746769 0.18749642 0.89587778
0.052760981 0.18712544 0.89709187
0.055993333 0.18640199 0.8986336
0.024185892 0.19086316 0.8999669
0.02746913 0.19119388 0.89758897
0.032263588 0.19212428 0.89705431
0.037498713 0.19278561 0.89722234
0.042710908 0.1920839 0.8968668
0.047557395 0.19202495 0.8975668
0.052086368 0.19170737 0.89868921
0.038400866 0.19562067 0.89875019
0.042807229 0.19711448 0.89888775
0.046800837 0.19653903 0.89912528
0.074624948 0.12906912 0.90100002
0.073863484 0.13256128 0.90194911
0.069606982 0.13917165 0.90130019
0.072078012 0.13738468 0.90276682
0.068519972 0.14259259 0.9017334
0.068184808 0.14979966 0.90473342
0.066230416 0.15338939 0.9011001
0.066309623 0.15776818 0.90217781
-0.0035178065 0.16443272 0.90191567
0.064600788 0.16273873 0.9018113
0.066367604 0.161265 0.90296662
-0.0022580721 0.16674119 0.90305835
0.0023713368 0.1678087 0.90201914
0.005735883 0.16948177 0.90200007
0.063013494 0.16886131 0.90316665
0.0023769659 0.17077358 0.90439999
0.0074223205 0.17296572 0.90266669
0.010764674 0.17422535 0.90050036
0.062399473 0.17291065 0.90238899
0.0091180224 0.17737648 0.90374994
0.012220274 0.17829837 0.90173352
0.059479542 0.17928371 0.90066683
0.061963528 0.17765042 0.90258008
0.013604051 0.18202384 0.90317774
0.016503369 0.18325771 0.90208018
0.059604287 0.18301924 0.90255553
0.061375462 0.18243982 0.90384996
0.014192577 0.1851763 0.90489995
0.01837771 0.18819912 0.90324998
0.020835944 0.1892522 0.90026689
0.057455018 0.18832633 0.90184182
0.01925021 0.19269782 0.90465003
0.022549221 0.19261725 0.90164471
0.027577996 0.19446804 0.90115577
0.053946942 0.1940435 0.90177792
0.056825504 0.19205917 0.90296656
0.023469649 0.19607455 0.90470004
0.027970901 0.19721088 0.9029668
0.032851372 0.1977337 0.90170848
0.03741128 0.19824091 0.900886
0.040984035 0.19930016 0.90026689
0.048404109 0.19842616 0.90086019
0.052662533 0.19776131 0.9030714
0.056383833 0.19527599 0.90490001
0.031058768 0.20025955 0.90460008
0.038074039 0.20224509 0.90294665
0.042735394 0.20215636 0.90180016
0.047835004 0.20237823 0.90278894
0.052149482 0.20110813 0.9046334
0.038927373 0.205846 0.90450007
0.042835571 0.20557147 0.90390831
0.047067873 0.20522831 0.90424997
0.075659521 0.13775389 0.9066782
0.069944233 0.14405787 0.90566689
0.072758079 0.14208436 0.90704691
0.076093331 0.14197384 0.9084993
0.068266451 0.14745179 0.90581691
0.071545951 0.14698069 0.90811682
0.076437064 0.14603435 0.90923339
0.068240076 0.15244766 0.90546679
0.070845753 0.15178588 0.9085601
0.068319626 0.15684032 0.90652245
0.067955568 0.16245928 0.90729183
-0.0035362272 0.1686783 0.90670013
0.064903267 0.16686888 0.90603346
0.065895684 0.16724335 0.90806699
-0.0018445222 0.17208987 0.90689462
0.0020439855 0.17295668 0.90614015
0.065111011 0.17163077 0.90893364
-0.0010005678 0.17667684 0.90880024
0.0025974403 0.17711097 0.90777528
0.0064381598 0.17734745 0.9061802
0.063143738 0.17510241 0.90503335
0.065053709 0.1773905 0.90813369
0.0036614598 0.18223476 0.9091168
0.0074600331 0.18228287 0.90725207
0.011385593 0.18302648 0.90536672
0.063214272 0.18204026 0.90604472
0.065158769 0.18190828 0.90959996
0.007955228 0.18736324 0.90850502
0.012318559 0.18745409 0.90675431
0.015891634 0.18783651 0.90555
0.059828453 0.18791978 0.90595019
0.062462807 0.18737595 0.90739483
0.013118022 0.19209911 0.90845037
0.016753832 0.19225891 0.90654463
0.059488479 0.19281676 0.90719193
0.061738759 0.19282191 0.90920001
0.01783973 0.19743782 0.90806687
0.022102246 0.19782789 0.90630573
0.026023375 0.19877429 0.90550011
0.057531487 0.19775876 0.90702021
0.060084902 0.19634067 0.90983325
0.019350221 0.20215741 0.90935004
0.022958945 0.20230386 0.90838116
0.027743692 0.20237702 0.90654457
0.032782901 0.20301656 0.90563899
0.036144011 0.20375997 0.90520006
0.053657055 0.2028942 0.90634465
0.057024084 0.20236315 0.90837526
0.024442999 0.20642738 0.90953332
0.028020725 0.2077107 0.90866697
0.03285189 0.20766598 0.90754849
0.037311468 0.20792502 0.90622789
0.042916782 0.208235 0.9056201
0.048256926 0.20784082 0.90620965
0.052725375 0.20760226 0.90832406
0.033245433 0.21206793 0.90905344
0.037956316 0.21287972 0.90818173
0.043011196 0.21274674 0.90761513
0.047897942 0.21248528 0.90856218
0.05160255 0.21158062 0.90986663
0.073739335 0.14826575 0.91081673
0.075982094 0.14850549 0.91055554
0.073327489 0.15282203 0.91273355
0.075624362 0.15202965 0.91306686
0.071163468 0.1575571 0.91262662
0.070528619 0.16309935 0.91323346
0.06800323 0.16818392 0.91133338
0.07061097 0.16669057 0.91430032
0.067377828 0.1727291 0.91206008
-0.0021360619 0.17909916 0.91108888
0.00069532363 0.17946205 0.91006666
0.067863747 0.17720047 0.91337627
-0.0020244983 0.18290083 0.91202003
0.0015449442 0.18300688 0.91085827
0.067069419 0.18220003 0.91248894
-0.0014316088 0.1868974 0.91330844
0.0021544348 0.1872035 0.91243345
0.0057912096 0.18805735 0.9106999
0.066191874 0.1875031 0.91212499
-0.0010061639 0.19126475 0.91388369
0.0028301771 0.19096166 0.91446698
0.007505042 0.19214804 0.91269451
0.011735019 0.19398245 0.91068327
0.063556157 0.19319187 0.91094446
0.065432541 0.19201814 0.91342229
0.0083666295 0.19549328 0.91378355
0.012955231 0.19734153 0.91289341
0.062254153 0.19777423 0.91176003
0.065526463 0.1956965 0.91473353
0.014330073 0.20056705 0.91366684
0.016696576 0.20238462 0.91266012
0.058435123 0.20327422 0.91056663
0.061155103 0.20130181 0.91314185
0.019023536 0.20702451 0.91403353
0.022337245 0.20738067 0.91266203
0.057406913 0.20759748 0.91219455
0.023546526 0.211924 0.91426694
0.027666152 0.21255448 0.91196674
0.031251036 0.21335128 0.91019994
0.052838564 0.2131298 0.91166663
0.056088109 0.21250136 0.91382247
0.07408879 0.15492627 0.91513348
0.074324943 0.15798196 0.91804987
0.076032713 0.15712096 0.91799688
0.073138148 0.16101049 0.9174667
0.070739694 0.1686983 0.91596645
0.070821226 0.17230648 0.91702223
0.071006149 0.17703052 0.91941679
0.067350067 0.18410689 0.91633344
-0.0027219877 0.1895097 0.91773337
0.068327263 0.18785346 0.91798341
-0.0010093384 0.19442609 0.916767
0.0020660274 0.19349933 0.91560829
0.0058185509 0.19405141 0.91500038
0.067450516 0.19291823 0.91770005
0.0029839594 0.19750708 0.91787213
0.0072907959 0.19822511 0.91630477
0.010938414 0.19831386 0.91503364
0.065707952 0.19794472 0.91726673
0.0041297427 0.20172326 0.91893315
0.0075491518 0.20237882 0.9180277
0.01245037 0.20310597 0.91649187
0.062687166 0.20339721 0.91685003
0.065896586 0.20022422 0.9199
0.0087009957 0.2057323 0.91902208
0.013031331 0.2073832 0.9182598
0.016759558 0.20825927 0.9161002
0.061461989 0.20743163 0.91771668
0.013729255 0.21167795 0.9191066
0.017803481 0.21241175 0.91710562
0.022055222 0.21387076 0.91605031
0.058754575 0.21290119 0.91554481
0.074111968 0.16418077 0.92249537
0.076344542 0.16119243 0.92176199
0.073600061 0.16771929 0.92182505
0.074010812 0.17199078 0.92266548
0.073768109 0.1766994 0.92394429
0.069350451 0.183172 0.92020005
0.071334362 0.18042567 0.9236666
0.06957151 0.18718842 0.92313325
-0.0027312811 0.1918696 0.92086679
0.069636829 0.19338122 0.92400002
0.067896418 0.19848931 0.92376661
0.0029942065 0.20222552 0.92122221
0.06622611 0.20294517 0.92449987
0.0041499659 0.20700663 0.9234333
0.0070123337 0.20821744 0.92245561
0.011001366 0.2088709 0.92029995
0.064400367 0.2077788 0.92304426
0.076720424 0.17404768 0.92630005
0.075057611 0.17937174 0.92710018
0.072253235 0.18301542 0.92808896
0.075227007 0.18150504 0.92919242
0.069832779 0.18789326 0.92659986
0.071723081 0.1874558 0.92870009
0.071756564 0.19186372 0.92913342
0.069722243 0.19620052 0.92513329
0.070837572 0.19690478 0.92845011
0.067527652 0.20340101 0.92657775
0.0024406621 0.20724447 0.92834455
0.073621228 0.18355054 0.9308002
0.075380109 0.18360639 0.93108338
0.073633529 0.18704556 0.93095571
0.075448155 0.18724036 0.93192387
0.073071741 0.19258519 0.93262661
0.071823485 0.19723265 0.93000013
0.075799756 0.19159508 0.93626666
0.073987693 0.19664481 0.93543327
0.076301716 0.19461705 0.9424668
0.076323293 0.19642575 0.94273341
0.078523234 0.1931276 0.94806671
