# .PCD v0.7 - Point Cloud Data file format
VERSION 0.7
FIELDS x y z
SIZE 4 4 4
TYPE F F F
COUNT 1 1 1
WIDTH 1354
HEIGHT 1
VIEWPOINT 0 0 0 1 0 0 0
POINTS 1354
DATA ascii
0.03908043 0.053704642 0.82466686
0.019092415 0.059860166 0.82493347
0.022583438 0.058479514 0.82401913
0.027498849 0.058208939 0.82328886
0.032852098 0.057404894 0.82275563
0.037437007 0.057377409 0.82236654
0.041970041 0.057683125 0.82373339
0.02318812 0.061887976 0.82468909
0.027715016 0.062680371 0.82349086
0.032827582 0.062718242 0.82215542
0.037430398 0.06272231 0.82220721
0.041608538 0.06234419 0.8239556
0.033211716 0.066542692 0.82406676
0.037531409 0.066724524 0.82442236
0.013780175 0.054008573 0.82933354
0.017942756 0.053349994 0.82869369
0.022251872 0.053150799 0.82800007
0.027143465 0.05341113 0.82805556
0.033441745 0.053526282 0.82784998
0.037691135 0.052375037 0.82792383
0.042509798 0.052558929 0.82779181
0.046755761 0.052839514 0.82829541
0.050646972 0.053497057 0.82937795
0.01318385 0.057217412 0.8283335
0.017446997 0.057459317 0.82653326
0.021577155 0.056236379 0.82581341
0.027573094 0.055294514 0.82550013
0.04375805 0.055319078 0.82586652
0.046724088 0.05720941 0.82654655
0.050736826 0.056773663 0.82916039
0.013568058 0.061830435 0.82819176
0.017590106 0.063063525 0.82668144
0.021673845 0.063492574 0.82560015
0.025248487 0.064468972 0.82500017
0.043232176 0.064005829 0.82562232
0.046968624 0.062403668 0.82814008
0.050160818 0.060218152 0.82986683
0.014557604 0.066366307 0.82953364
0.017822588 0.067633957 0.8285169
0.022232894 0.067728028 0.82731098
0.027604459 0.067657545 0.82644439
0.032592908 0.068765908 0.82591671
0.037589114 0.069130637 0.82568902
0.042266671 0.067687035 0.82680726
0.04546893 0.067864209 0.82897806
0.019189619 0.071732655 0.82913363
0.0222793 0.072494835 0.82903004
0.027658492 0.072410725 0.82806116
0.033053476 0.072388992 0.82780743
0.037685394 0.072389044 0.82780743
0.042177629 0.072287738 0.82885855
0.045517698 0.071024112 0.82986677
0.023060851 0.075606667 0.82933366
0.026923627 0.075594515 0.82920027
0.032331824 0.075583883 0.82908362
0.036993697 0.07563097 0.82960021
0.027110383 0.04971515 0.83495528
0.032559637 0.049713828 0.83493304
0.037957523 0.049646337 0.8337999
0.042919014 0.049007013 0.83349323
0.047284368 0.049642373 0.83373338
0.051192895 0.049662221 0.83406669
0.0094487583 0.053783346 0.83382207
0.012834839 0.052221876 0.83249527
0.017323814 0.051493585 0.83233339
0.022367774 0.05110462 0.8322888
0.027413655 0.05149553 0.8323667
0.032102469 0.051733296 0.83174288
0.036243048 0.050972264 0.83013326
0.040894262 0.050980434 0.83026671
0.047896892 0.051017292 0.83086658
0.052958436 0.052394159 0.83125836
0.05612297 0.052769508 0.83413321
0.009180543 0.057353888 0.83311087
0.011477247 0.055631645 0.83053321
0.053348511 0.057229031 0.8312934
0.055861648 0.05742237 0.83410001
0.009442132 0.060983401 0.83328873
0.011993356 0.063356511 0.83053344
0.048648242 0.064896159 0.83046681
0.051857051 0.061937731 0.83222854
0.012863292 0.067772947 0.83259159
0.016125396 0.069541812 0.83060002
0.047917217 0.068047494 0.83121109
0.050938401 0.066994503 0.83414429
0.014250472 0.072560661 0.83421665
0.017252097 0.072942473 0.83161908
0.043998238 0.074159183 0.83040011
0.047409933 0.072991237 0.8324917
0.014653536 0.076123245 0.83499974
0.018255195 0.077025659 0.83354443
0.022143671 0.077863857 0.83224761
0.027017489 0.078180462 0.83208895
0.032442451 0.078161776 0.83189166
0.038124025 0.077895246 0.83258104
0.042577259 0.077483363 0.83289635
0.046207663 0.076458149 0.833
0.022818131 0.08113265 0.83459985
0.027091151 0.080720693 0.83435535
0.032540925 0.081245966 0.83443314
0.037619762 0.081163287 0.83491641
0.041904397 0.080779813 0.83496642
0.0076842383 0.049969859 0.83923346
0.012698683 0.049235251 0.83813345
0.017831372 0.049114555 0.83797783
0.022504043 0.048299924 0.83739251
0.02743125 0.047220718 0.83796185
0.032083388 0.047348019 0.83775002
0.037685778 0.047425538 0.83764756
0.042807195 0.046742141 0.83737338
0.047462225 0.047158349 0.83686668
0.052162752 0.048028115 0.83716655
0.056883011 0.049097434 0.8376779
0.062122013 0.049293675 0.83911449
0.068755403 0.048819315 0.83958352
0.071522236 0.047275275 0.83989817
0.0031424991 0.05336811 0.83866674
0.007049303 0.052556045 0.8362295
0.058634643 0.052411228 0.83666658
0.06231606 0.052836377 0.83871442
0.067190975 0.050772354 0.83960009
0.071129858 0.050008897 0.83988899
0.0037701167 0.057753712 0.83891129
0.0060959044 0.057562288 0.83613324
0.058060579 0.058064636 0.83776665
0.060077488 0.056956761 0.8386668
0.0072733704 0.062501371 0.83719158
0.053637017 0.063758165 0.83579999
0.056087654 0.06232889 0.83746672
0.0084527731 0.066415839 0.83793336
0.01000639 0.067747638 0.83706665
0.053320225 0.067347348 0.83693337
0.055413004 0.067131676 0.83908886
0.011572971 0.072463892 0.83759999
0.051997848 0.07234928 0.83726662
0.013398373 0.077930294 0.83772224
0.016747037 0.078794099 0.83586645
0.047963385 0.078336678 0.83651096
0.05059601 0.076311678 0.83706659
0.014714964 0.081902303 0.83850002
0.017821208 0.082589597 0.83755553
0.022151457 0.083356395 0.83587992
0.027126389 0.083158545 0.83545542
0.032568518 0.083387367 0.83515531
0.038337998 0.083297521 0.83529317
0.042991228 0.082942285 0.8366285
0.046593782 0.082329378 0.83808005
0.019020908 0.086997658 0.83875006
0.022510052 0.087270245 0.83762228
0.027170936 0.087186322 0.83682215
0.032638658 0.087200135 0.83695549
0.038113311 0.087225832 0.83719999
0.042414863 0.087133244 0.83844769
0.023601914 0.091098189 0.83940011
0.027225941 0.091263093 0.83852226
0.031928144 0.091292016 0.83878905
0.03688376 0.091036551 0.83883357
0.041370384 0.09063492 0.83993328
0.028200569 0.043989316 0.84429997
0.032140914 0.043992206 0.84435558
0.036886435 0.044018835 0.84486657
0.043180764 0.044010729 0.84471101
0.047838148 0.043946769 0.84348345
0.051849432 0.044013627 0.84476662
0.055781323 0.044008415 0.84466666
0.062489867 0.043625001 0.84484982
0.066930935 0.042752236 0.8440063
0.0030052979 0.047893416 0.84391671
0.0069303163 0.047043495 0.84277773
0.012172582 0.046526004 0.84287387
0.017626684 0.04643805 0.84315997
0.022680698 0.045542482 0.84397787
0.02653381 0.045401573 0.84136653
0.032825589 0.045421362 0.84173334
0.037557468 0.045450136 0.84226674
0.04219529 0.0453692 0.84076661
0.047657177 0.045344025 0.84029996
0.052867591 0.045835607 0.84216666
0.057197098 0.046234731 0.84231108
0.062644906 0.046590008 0.84164995
0.067297265 0.046551146 0.84094155
0.072734728 0.046909004 0.8403334
-0.00092897937 0.053379562 0.84377795
0.001540413 0.051707692 0.84212381
0.0053462856 0.050059181 0.84073317
0.064195968 0.054012172 0.84139985
0.067452572 0.053325176 0.84288841
0.072067171 0.050900035 0.84169644
-0.00093017868 0.058163613 0.84486657
0.0014273591 0.057957973 0.84187788
0.062157381 0.057972696 0.84210014
0.002410294 0.062523924 0.84273344
0.0053445897 0.064114176 0.84046656
0.058705613 0.062623315 0.84142232
0.061041366 0.062451415 0.84333336
0.0033993199 0.067129381 0.8439669
0.0059797354 0.06765084 0.84166658
0.057980824 0.067386717 0.84227777
0.060516823 0.066802084 0.84479988
0.0073766964 0.07188382 0.84252393
0.010042249 0.073459774 0.84006667
0.053936485 0.073494762 0.8404665
0.056813776 0.071947224 0.84326661
0.0078865374 0.076644801 0.84416008
0.010583613 0.078031152 0.84159994
0.052675791 0.07763575 0.84177148
0.055728491 0.076146901 0.84386647
0.012170743 0.083117932 0.84292597
0.048880011 0.083331384 0.84111655
0.051903963 0.082758233 0.84381914
0.013754801 0.087370537 0.84361124
0.016959285 0.087959848 0.84123993
0.044551041 0.088385992 0.84083313
0.047792759 0.087796539 0.84267414
0.051065493 0.08723484 0.8448332
0.018137788 0.092359096 0.8431834
0.022088701 0.092880897 0.84139997
0.027291879 0.093829274 0.84055543
0.032004703 0.093856573 0.84079975
0.038010523 0.093323089 0.84068871
0.043249696 0.092642829 0.8422001
0.047368929 0.092171766 0.84446663
0.019556841 0.09589722 0.84499991
0.02290768 0.096911527 0.84404761
0.027360527 0.097202145 0.8426742
0.032060679 0.097155839 0.84227425
0.037551742 0.097137071 0.84211117
0.0429333 0.097122386 0.84369177
0.028217737 0.10058905 0.84479994
0.032436032 0.10110648 0.84386683
0.03739351 0.10184789 0.84338814
0.041909605 0.10180809 0.84447992
0.037678581 0.10532424 0.84496653
0.040043999 0.1053284 0.84499991
0.054502457 0.03477006 0.84928572
0.054100297 0.038320221 0.8491919
0.057642773 0.037911069 0.84886885
0.06231159 0.038650788 0.84778744
0.066054299 0.039314628 0.84509528
-0.01518529 0.044234186 0.84900004
0.0022310677 0.044234175 0.84900028
0.0069706668 0.043374211 0.84764463
0.0125008 0.043360159 0.84736687
0.018044928 0.043549735 0.84798688
0.022780083 0.044164706 0.84766692
0.027147025 0.043010876 0.84825033
0.032305285 0.042640362 0.84871149
0.037017241 0.042597938 0.84786701
0.042538207 0.042582374 0.84757805
0.047731094 0.041931883 0.84717351
0.053005558 0.042106517 0.84707642
0.05769679 0.042344224 0.84676677
0.06188501 0.041573364 0.8462801
-0.016768685 0.048972096 0.84900004
-0.0056875953 0.048995148 0.8494001
-0.0019890058 0.047875296 0.84823364
0.0015933162 0.046619158 0.84644002
0.01956147 0.04560845 0.84519988
-0.0056812703 0.052097753 0.84845591
-0.0029624514 0.051740739 0.84631437
0.070254371 0.053661343 0.84823072
-0.0031917186 0.057211455 0.84739059
0.063758381 0.059815124 0.84600008
0.06680762 0.057443969 0.84749538
-0.002064348 0.062647805 0.84782869
0.0006456612 0.064465098 0.84506649
0.063389361 0.063380912 0.84633338
0.065536983 0.063156627 0.84860033
-0.0014628858 0.066863976 0.84891129
0.0012770721 0.067999139 0.8459999
0.062733814 0.068018369 0.84736198
0.065639965 0.066417351 0.84993333
0.00267989 0.072340973 0.84787637
0.005374054 0.073113918 0.84509981
0.059027325 0.073195346 0.84603333
0.06138422 0.072266571 0.84806693
0.0038139594 0.075790472 0.84866703
0.0059117177 0.07720533 0.84686679
0.057946067 0.077414259 0.84668577
0.060820103 0.076613002 0.84903365
0.0079132551 0.081635758 0.84706676
0.010109992 0.084967881 0.84573328
0.054283027 0.081834793 0.84586674
0.057112914 0.081787013 0.84770495
0.0085562309 0.085202329 0.84806699
0.011387506 0.088562213 0.84701347
0.053227227 0.087794043 0.84698105
0.056437247 0.086440206 0.84860021
0.013822112 0.092530109 0.84774452
0.016443791 0.09454868 0.84700006
0.049028527 0.093905471 0.84593338
0.052044932 0.093077712 0.84794468
0.018298918 0.097768635 0.84758908
0.021948557 0.099169895 0.84609997
0.04479653 0.099095672 0.84546661
0.047625132 0.097554885 0.84768587
0.051321361 0.096358739 0.84906697
0.019652497 0.10189494 0.84913367
0.022981957 0.10233234 0.84784186
0.027260218 0.10282011 0.84652382
0.031788029 0.10342294 0.84548324
0.043915294 0.10302007 0.8466934
0.046545215 0.10183127 0.84860027
0.023616023 0.10586445 0.84930032
0.027889181 0.10648259 0.8491869
0.032482438 0.10710496 0.84816688
0.03672985 0.10753517 0.84645712
0.04254302 0.10723615 0.84765357
0.045001406 0.10902844 0.84933358
0.037452631 0.11093173 0.84878361
0.040990066 0.11046943 0.84826696
0.051569618 0.034533221 0.85320139
-0.0069813346 0.039025925 0.85251665
-0.0025290139 0.038892124 0.85306627
0.0025109553 0.038670987 0.85402966
0.0070248814 0.039732672 0.85408163
0.011804107 0.039739221 0.85422236
0.019786742 0.039772294 0.85493356
0.022968501 0.039759889 0.85466683
0.026156427 0.039759889 0.85466683
0.034136891 0.039772306 0.85493356
0.038080666 0.039728105 0.8539834
0.042023014 0.039691668 0.85320002
0.047803868 0.038588442 0.85223335
0.052065663 0.037683789 0.85088003
-0.016808189 0.04433839 0.85100001
-0.011664474 0.043995567 0.8520242
-0.0072882539 0.042769846 0.85129088
-0.002524588 0.042765837 0.85121846
0.0022370911 0.041972663 0.8511889
0.0070023737 0.041193843 0.85144442
0.012553965 0.041172341 0.85099989
0.018122328 0.041599911 0.85166669
0.022879109 0.041979253 0.85133332
0.027637577 0.041182023 0.85119992
0.032403927 0.041187394 0.85131097
0.037144262 0.041161597 0.85077763
0.041891087 0.041148692 0.85051101
0.049796402 0.041127194 0.85006678
-0.015755072 0.048047621 0.85127783
-0.012061709 0.047562029 0.85203588
-0.0074838689 0.047304705 0.85097075
-0.003579567 0.046413902 0.85035557
-0.015766418 0.05125162 0.8518889
-0.012072894 0.05156967 0.85277444
-0.0080912737 0.052331198 0.85223335
0.072346076 0.054042149 0.85425007
-0.016024034 0.055452123 0.85150003
-0.0066670543 0.056492288 0.85286009
0.068837255 0.058535133 0.85026658
0.070575386 0.057078514 0.85210657
-0.0057228608 0.060427893 0.85466695
-0.0041103787 0.062531069 0.85083324
0.068154417 0.061797481 0.85162765
0.070770793 0.062002737 0.85446614
-0.0028460179 0.06783136 0.85183346
0.067799449 0.067780204 0.85315341
-0.0013373024 0.072614715 0.85307503
0.00065006735 0.073610008 0.8508333
0.063755393 0.073248573 0.85122496
0.066578582 0.072757885 0.85383338
0.0025570341 0.077361651 0.85205996
0.0054069082 0.079096682 0.85026664
0.062917031 0.077709861 0.8524
0.065966934 0.077076271 0.85416675
0.0038377033 0.081822723 0.85395014
0.0058146799 0.082830265 0.85205835
0.059352912 0.083093315 0.85070002
0.061552145 0.082195185 0.8536917
0.0076460191 0.087555535 0.85254669
0.058720559 0.087288849 0.8530333
0.0086142411 0.091339409 0.85381675
0.011129159 0.092820682 0.85137999
0.054632451 0.091863841 0.85131103
0.056305248 0.092003047 0.8526001
0.013019041 0.097304724 0.85274446
0.016517568 0.098929659 0.85079992
0.049817875 0.098887235 0.85043329
0.053095102 0.097493984 0.85209447
0.056454942 0.095426805 0.85486698
0.014459576 0.10170865 0.85420012
0.01767667 0.10326915 0.85208565
0.02126115 0.1043869 0.85013348
0.048541684 0.10293873 0.8512277
0.052039556 0.10275052 0.85342389
0.018956184 0.10797247 0.85346675
0.022636626 0.10808165 0.85076183
0.027227914 0.10881922 0.85078329
0.030786276 0.10917392 0.85046673
0.047424588 0.1075983 0.85302001
0.019774394 0.11206314 0.85440004
0.022912344 0.11262111 0.85259622
0.02767596 0.11259221 0.85237777
0.03242822 0.11253275 0.85192955
0.036838107 0.11336277 0.85103321
0.042143214 0.11286256 0.85100949
0.045987871 0.1126635 0.85292339
0.023749208 0.11678764 0.85408342
0.027737467 0.11681435 0.85427791
0.032312125 0.11738819 0.85411674
0.037250601 0.11746579 0.85323334
0.041823894 0.11725692 0.85315835
0.046066076 0.11603394 0.85438347
0.038883846 0.1207666 0.85413343
0.0086766239 0.033608936 0.85999995
0.0110789 0.032798409 0.85972083
0.047121059 0.033573806 0.8591013
0.050319728 0.033569865 0.85900009
0.0027854422 0.03665464 0.85644454
0.0070571327 0.037255779 0.85807312
0.011852298 0.036709588 0.85772967
0.017215215 0.038119134 0.85681224
0.023034548 0.038078163 0.85712522
0.028030086 0.038078394 0.85713357
0.032424841 0.038076688 0.85709184
0.037208557 0.037837423 0.85746676
0.042229112 0.037492342 0.85737795
0.046989288 0.035870824 0.8567223
-0.015292606 0.046137262 0.85500002
-0.015334342 0.054237198 0.85733336
-0.012129091 0.054199386 0.85673577
-0.015328378 0.057404477 0.85700005
-0.012154838 0.057507139 0.85852265
-0.0081238803 0.058112293 0.85568357
0.073319301 0.057358664 0.8563084
0.075996667 0.055973094 0.85950005
-0.011097505 0.06129536 0.85939854
-0.0075424025 0.062424351 0.85750842
0.073484428 0.062277034 0.85823327
-0.0068193641 0.066576965 0.85878891
-0.0041374313 0.068518467 0.85643351
0.072147496 0.066763036 0.85727626
-0.0057541067 0.070348985 0.85933346
-0.0037459964 0.072243914 0.8581
0.068875618 0.073630154 0.855667
0.071817897 0.071789466 0.85744452
-0.001585138 0.077238634 0.85773337
0.0011854829 0.079087079 0.85586685
0.064481884 0.079592831 0.85560024
0.068038441 0.07811556 0.8568446
0.071555421 0.07632342 0.85910004
-0.0009466933 0.081589237 0.85986674
0.0019867222 0.08296337 0.85753345
0.063903876 0.083172694 0.85640013
0.066273242 0.082224242 0.85813344
0.0038545069 0.087764949 0.85768872
0.0054463348 0.087639749 0.85646677
0.059713375 0.089170128 0.85586697
0.062610202 0.087573878 0.85804766
0.0038642928 0.091186382 0.85986686
0.0067838547 0.09252125 0.85741121
0.059019666 0.092516698 0.8573668
0.061581809 0.091964751 0.85966682
0.0080222357 0.097133659 0.85870665
0.010237101 0.097984135 0.85636687
0.054903381 0.098684147 0.85553348
0.058023658 0.097417958 0.85840005
0.01210962 0.10205133 0.85707784
0.054956153 0.10196507 0.85635549
0.056692671 0.10221667 0.8584668
0.012938817 0.10601398 0.85904449
0.015672646 0.1071052 0.85669345
0.048496678 0.10976915 0.85510367
0.051986277 0.10718938 0.85627639
0.055149399 0.1063204 0.85936666
0.016968967 0.11249325 0.8576867
0.048554149 0.11308491 0.85611707
0.051419158 0.11154066 0.85823816
0.018799493 0.11738136 0.85842222
0.022357702 0.11844401 0.85572022
0.027788512 0.11941648 0.8558448
0.034152851 0.11934516 0.85533363
0.043751355 0.11941956 0.85586685
0.047261741 0.11850397 0.85746676
0.050335355 0.1158984 0.85926664
0.023243684 0.12263969 0.85750008
0.027825154 0.1227643 0.85697794
0.032604516 0.12270558 0.85657048
0.037170351 0.12281539 0.85595024
0.042194169 0.12271389 0.85662967
0.046322297 0.12227304 0.85913342
0.024689866 0.12706223 0.8591001
0.027656123 0.12736481 0.85882854
0.032676924 0.12731144 0.85846657
0.037485663 0.12698884 0.85860008
0.041230977 0.12674861 0.85877782
0.0070805047 0.033645969 0.86094743
0.011901417 0.032583494 0.86110187
0.018362861 0.033723086 0.8629207
0.021623783 0.033790011 0.86463356
0.028883707 0.033793919 0.86473358
0.032892786 0.033771124 0.86415023
0.038006343 0.033088859 0.86314023
0.042716034 0.032564074 0.86260968
0.047225188 0.03204586 0.86098558
0.0070789806 0.035239901 0.86076194
0.017512316 0.035237372 0.86070001
0.023205364 0.035349734 0.86344463
0.028000364 0.035305154 0.86235571
0.032810826 0.035290595 0.86200005
0.03760637 0.035264209 0.86135548
0.042398293 0.035242368 0.8608222
-0.015382037 0.059205197 0.86000001
0.076073587 0.058430687 0.86036998
-0.012737569 0.063078023 0.86190623
0.076157242 0.062500596 0.86131591
-0.01541781 0.068963803 0.86200005
-0.011681001 0.066900201 0.86295986
-0.00844042 0.068339616 0.86086661
0.074549489 0.068107218 0.86130005
0.076356255 0.06748379 0.86356688
-0.010621354 0.072351575 0.86415356
-0.0075818496 0.072370723 0.86199105
0.0746774 0.072237045 0.86277789
0.076406345 0.071546048 0.86413348
-0.010631112 0.07563547 0.86494738
-0.0071862321 0.076852836 0.86280471
-0.0037579692 0.077283829 0.8609001
0.074033901 0.077370338 0.86276674
0.076409847 0.077978656 0.86417294
-0.0057893745 0.080430061 0.86460018
-0.003019467 0.082096145 0.86278582
0.0006570706 0.084801443 0.86000019
0.06867975 0.082550608 0.86154455
0.072503589 0.081311338 0.86370677
-0.000950363 0.085920565 0.86320019
0.0014600145 0.088128328 0.86123896
0.064901412 0.088921875 0.86116678
0.068098001 0.087154783 0.86350435
0.0029087574 0.093344197 0.86206007
0.0054700742 0.094421968 0.86020011
0.063575342 0.092942804 0.86132234
0.066308022 0.093610659 0.86379182
0.0038803227 0.097989894 0.86343354
0.0058780792 0.0981474 0.86129999
0.06177447 0.097865939 0.86234295
0.065126278 0.097267121 0.86415017
0.0070911888 0.10269238 0.86245561
0.010280537 0.10319877 0.86000019
0.05847935 0.10254208 0.86120003
0.060215712 0.10276429 0.86306685
0.0083139427 0.10729619 0.86400849
0.011365185 0.10788709 0.8612445
0.057187606 0.1074327 0.86188334
0.060318038 0.10615506 0.86453348
0.011912719 0.11228462 0.86220002
0.053629741 0.1128896 0.86070019
0.05603388 0.11208234 0.86311358
0.013135134 0.11682595 0.86316675
0.01617326 0.1176879 0.86066675
0.052343886 0.11700508 0.8615334
0.017736875 0.12207476 0.86197096
0.021507917 0.12479562 0.86000019
0.047746465 0.12330059 0.86073333
0.051341057 0.12197792 0.8626945
0.01916736 0.12683327 0.8629778
0.02267568 0.12835337 0.86086667
0.028725518 0.12959486 0.86000019
0.032735288 0.12959486 0.86000019
0.037565492 0.12965848 0.86042231
0.042952094 0.12870331 0.86116654
0.047519047 0.12699059 0.8626793
0.050614558 0.12538084 0.86403352
0.019996582 0.13019758 0.8640002
0.023513693 0.13229337 0.86298674
0.027999226 0.13315903 0.86234826
0.032803908 0.13307419 0.86180013
0.037633829 0.13310316 0.8619926
0.042293657 0.13301834 0.86274588
0.04658898 0.13101397 0.86408353
0.024828779 0.13500887 0.8639335
0.028867526 0.13666865 0.86426687
0.032892123 0.13664405 0.86411124
0.037701029 0.13655268 0.8635335
0.042960957 0.13622998 0.86403358
0.029857073 0.029131245 0.86960006
0.033089872 0.029121568 0.86931109
0.037899915 0.029080996 0.86809987
0.041928217 0.029067595 0.8677001
0.023312872 0.032555748 0.86748886
0.028193539 0.032047227 0.86829442
0.033037055 0.031841654 0.86794281
0.037415318 0.031032177 0.86623347
0.041831665 0.03061096 0.86570013
0.078461863 0.054978423 0.86905015
0.078317955 0.05810428 0.86745614
0.078331955 0.062958203 0.86761117
-0.015513201 0.066163681 0.86733341
-0.013346245 0.068799242 0.86666274
0.078529581 0.066351861 0.86980003
-0.012928508 0.072312079 0.86753464
0.076611027 0.074154966 0.86644828
-0.012290542 0.077528961 0.86813337
-0.0090195155 0.078866899 0.86509532
0.077438101 0.077398896 0.86664724
-0.011229252 0.081436902 0.86962509
-0.0076340516 0.082563996 0.86800092
0.073397674 0.08304137 0.86666679
0.075896271 0.082316458 0.86751676
-0.006361146 0.086254239 0.86926657
-0.0030341542 0.087318674 0.86683339
0.071805075 0.087098151 0.86694002
-0.0013611432 0.091676675 0.86829168
0.0006622792 0.092729822 0.86681682
0.0685082 0.091854535 0.8661558
0.07070747 0.09168309 0.86835837
0.0013103118 0.097256914 0.86836672
0.063665271 0.099914528 0.86620015
0.06792184 0.097095169 0.86691344
0.070316091 0.09533672 0.86853325
0.0034930171 0.10246995 0.86737502
0.062718719 0.10285066 0.86650002
0.066096872 0.10146423 0.86842668
0.0039083348 0.10678537 0.86966676
0.006165918 0.1085071 0.86790669
0.058744155 0.10944314 0.86510015
0.061864637 0.10756365 0.86812001
0.0081079211 0.11269901 0.86786002
0.058513071 0.11339655 0.86764181
0.060648315 0.11239605 0.86926651
0.0087731443 0.11728753 0.86956656
0.011015032 0.11811984 0.86736012
0.05389769 0.11908491 0.86500019
0.05649152 0.1178389 0.86766118
0.012971422 0.12246041 0.8683933
0.015219495 0.1234281 0.86725014
0.054007765 0.1225532 0.86676687
0.055769037 0.12287241 0.86902219
0.013644155 0.12623702 0.86993331
0.016045405 0.12760583 0.86823338
0.052620582 0.12765619 0.86720067
0.055784728 0.12775774 0.86926669
0.01783069 0.1321556 0.86841333
0.02061188 0.13338454 0.86730009
0.048189055 0.13287365 0.86677343
0.052192092 0.13157144 0.86882669
0.022917191 0.13703561 0.86786252
0.027748268 0.13832022 0.86705846
0.032987896 0.13865499 0.86663347
0.037798483 0.13851631 0.86576682
0.042638477 0.13850032 0.86566687
0.047589887 0.13719904 0.8676185
0.024174022 0.14151827 0.86936665
0.028209202 0.14223813 0.86882222
0.033057753 0.14218019 0.86846656
0.037882399 0.14205325 0.86768889
0.042747233 0.14208415 0.86787772
0.046676148 0.14189574 0.86870658
0.037953839 0.1463625 0.86932224
0.042488411 0.14618239 0.86921328
0.046092872 0.14565593 0.86993337
0.026647881 0.029169209 0.87073356
0.023387734 0.030772442 0.87026685
0.025822565 0.030772442 0.87026685
0.078652374 0.053491391 0.87116021
0.082117215 0.053630959 0.87343305
0.080917843 0.05734041 0.87221712
0.081304468 0.062826924 0.87220949
0.078643948 0.068878807 0.87106681
0.080862895 0.067820467 0.87309158
0.07881698 0.072279215 0.87298322
0.080621727 0.07162334 0.87489992
-0.011782466 0.083685033 0.87057298
0.077034131 0.084288463 0.87123328
-0.011373198 0.087322786 0.87239456
-0.0079956697 0.088018775 0.87072235
0.073869109 0.08844234 0.87223327
0.076290511 0.085984722 0.87199998
-0.0072696912 0.092362814 0.87286645
-0.0035568059 0.092654675 0.87065351
0.072247908 0.093316302 0.87229991
-0.0063997139 0.09653642 0.87452215
-0.0025871668 0.097314328 0.87177038
0.07142476 0.097357422 0.87216663
-0.0020490051 0.10186885 0.87374431
0.0013151715 0.10244751 0.87129343
0.068469726 0.10247032 0.87080014
0.071367577 0.1020517 0.87345982
0.0022957702 0.10725721 0.87350667
0.064059749 0.10783 0.87156671
0.066828705 0.10657445 0.87234432
0.070745207 0.10567151 0.873833
0.0039269095 0.11135712 0.87379986
0.0060789906 0.11340979 0.87084466
0.06331709 0.11200536 0.87251663
0.065878659 0.11058597 0.87413317
0.0071709184 0.11763425 0.87215853
0.059156135 0.11750361 0.87116683
0.061988246 0.11638296 0.87289435
0.0079931822 0.12181139 0.87300825
0.010818767 0.12356414 0.87105024
0.058381934 0.12244236 0.87172216
0.060972344 0.12193776 0.87391096
0.0088197188 0.12604126 0.8741833
0.012054816 0.12822251 0.87243336
0.058490593 0.12754405 0.87334424
0.061043646 0.12533501 0.87493336
0.013152831 0.132137 0.87327766
0.01569785 0.13333444 0.8713668
0.05305402 0.1340881 0.87100011
0.056510165 0.13195963 0.87210649
0.013715252 0.13502827 0.8744666
0.017407754 0.13778332 0.87278092
0.02068872 0.13873924 0.87053347
0.052496739 0.13766532 0.87185007
0.056124859 0.1350437 0.87456673
0.018588066 0.14301018 0.87353325
0.02133451 0.14293405 0.87165725
0.025010789 0.1440929 0.87026685
0.048992496 0.14299947 0.87100017
0.051578894 0.14260277 0.87353319
0.022390408 0.14735289 0.87359434
0.027507162 0.14766912 0.87225556
0.033163145 0.14749813 0.87124825
0.038026217 0.14907122 0.87097794
0.043311831 0.14868723 0.87110019
0.047847413 0.14767954 0.87232381
0.051239431 0.1464541 0.87470001
0.03299902 0.15177007 0.87407774
0.038121175 0.15269352 0.8731519
0.04256114 0.15253207 0.87355709
0.046867449 0.15180667 0.87428886
0.085844271 0.053926721 0.87825018
0.083768338 0.057174049 0.87793911
0.085950151 0.055628974 0.87933344
0.084141992 0.062047217 0.87757915
0.085980795 0.062194157 0.8796466
0.083635129 0.067274727 0.87655014
0.085968122 0.066275477 0.87951708
0.083270483 0.070981957 0.87701678
-0.01321101 0.089594021 0.87556827
0.075891092 0.088905253 0.87679994
-0.011862372 0.092401981 0.87644649
-0.0091238283 0.094429716 0.87510002
0.074281253 0.093015365 0.87710005
0.076124787 0.091632403 0.87949985
-0.011620324 0.098092817 0.87874931
-0.0080481945 0.098371051 0.87637234
0.073956355 0.098425962 0.87808323
-0.0070533617 0.1027381 0.87852782
-0.0036916819 0.10386065 0.87684458
0.073889822 0.10323466 0.87730014
-0.002060211 0.1073274 0.87851113
0.00066956284 0.10842186 0.87635005
0.068744607 0.10865232 0.87602234
0.072425425 0.10753056 0.87839335
-0.00096881017 0.11295944 0.87995529
0.0018371298 0.11282813 0.87711436
0.068010002 0.1129061 0.8779459
0.071228258 0.11130282 0.87979978
0.0028539067 0.11710626 0.87831664
0.0055773314 0.11829959 0.87706679
0.063847207 0.11843717 0.87607789
0.066868924 0.11735773 0.87856662
0.0063946424 0.12238692 0.87715006
0.063628085 0.12234273 0.87681121
0.066275567 0.12188554 0.87939984
0.0080356039 0.12736389 0.8777166
0.062654473 0.12747024 0.87843323
0.0088565499 0.1306493 0.87783349
0.010892566 0.13257191 0.8770417
0.059130903 0.13253595 0.8768084
0.061329715 0.13164617 0.87903327
0.012794865 0.13761461 0.87851322
0.015370126 0.13849774 0.87583339
0.057316445 0.1375031 0.87780666
0.013793676 0.14234503 0.87946653
0.016042527 0.14225888 0.8769201
0.054217089 0.14230049 0.87667513
0.056412209 0.14227708 0.87904435
0.017050726 0.14706315 0.87833816
0.021082245 0.14905101 0.87561667
0.049687505 0.1499479 0.87610012
0.053366732 0.14706917 0.87837225
0.056469243 0.14569345 0.87993306
0.017888812 0.15130228 0.87923324
0.021725276 0.15238306 0.87805253
0.026825935 0.15247534 0.87657237
0.031976879 0.15425263 0.87586671
0.044757575 0.15392591 0.87555009
0.048502699 0.15333018 0.87680846
0.05190894 0.15169258 0.87912488
0.021999625 0.15628774 0.87967759
0.026882615 0.1568808 0.87841487
0.032554634 0.15740447 0.87678349
0.037634123 0.15788265 0.8760376
0.043210711 0.15749456 0.87728339
0.048200395 0.15694249 0.87876189
0.028012281 0.16090585 0.87957758
0.03205324 0.16142307 0.87899524
0.03734304 0.16205853 0.87880003
0.042487625 0.16173565 0.87926656
0.046615653 0.16040069 0.87979972
0.086883582 0.058158398 0.88048178
0.087656535 0.061400544 0.88000005
0.078011923 0.09192016 0.88227332
0.076864026 0.096545026 0.88327491
-0.011368464 0.10264785 0.88042861
-0.0091807134 0.1040279 0.88055605
0.076396942 0.10180992 0.88264441
-0.010867339 0.10527635 0.88416672
-0.0072265714 0.10737187 0.88245648
-0.0037091563 0.10927775 0.8810665
0.074086882 0.10930243 0.88126659
0.076427706 0.10678037 0.88300008
-0.0059197228 0.11019806 0.88406676
-0.0032740855 0.11287992 0.88189328
0.073053226 0.11322318 0.88200951
0.076547444 0.11106044 0.88438344
-0.0022077591 0.11665013 0.88310844
0.0012208939 0.11919133 0.88165551
0.069278292 0.11843143 0.88108319
0.072890647 0.11722936 0.88335568
0.0028669753 0.12258267 0.88245553
0.0055994811 0.12368312 0.88054979
0.06859725 0.12331736 0.88211906
0.071573652 0.12170983 0.88406676
0.0064389296 0.12815608 0.88315839
0.0647531 0.12866279 0.88099992
0.067670129 0.12763211 0.8833167
0.0083623817 0.13311554 0.88336676
0.063430324 0.13285404 0.88162774
0.065861121 0.13333966 0.88485014
0.010533963 0.13770823 0.8811999
0.059801191 0.13762401 0.88066673
0.062046122 0.13763914 0.88339174
0.012182478 0.14268483 0.88156658
0.059039276 0.14268138 0.88154453
0.061734375 0.14156683 0.88483351
0.013185179 0.14747092 0.88273335
0.015444428 0.14898971 0.88006645
0.054848943 0.14902356 0.88026643
0.057612933 0.1480646 0.88235319
0.060020763 0.1463502 0.88390005
0.013877324 0.15143691 0.88480014
0.016463857 0.15325518 0.88199997
0.054111604 0.15253395 0.88162494
0.056666054 0.15112881 0.88300008
0.017682707 0.15708667 0.88263339
0.022028306 0.15895258 0.8808443
0.0499238 0.1588483 0.88026643
0.052105304 0.15718934 0.8824417
0.022493977 0.16138943 0.88296676
0.026437357 0.16294749 0.88176656
0.031053122 0.16381034 0.8805331
0.040067494 0.16373591 0.88013303
0.046969719 0.16291893 0.88203335
0.050925598 0.16105406 0.88338339
0.027041435 0.16643922 0.88361681
0.031968053 0.16675739 0.88312221
0.036909807 0.16757873 0.88311851
0.041617531 0.16726613 0.88255417
0.045179304 0.1660621 0.88380015
0.079944037 0.093077868 0.88546658
0.081914887 0.09344212 0.8889333
0.078479797 0.098254204 0.88758326
0.080272079 0.096768081 0.88910007
-0.011735286 0.10814366 0.88744938
-0.0092385132 0.10880317 0.88609993
-0.010913283 0.11232836 0.88790482
-0.0077940379 0.11231495 0.88616925
0.076629661 0.11364973 0.88533336
-0.010916304 0.11648937 0.88815057
-0.0073631913 0.11677997 0.88765961
-0.003730268 0.11815026 0.8861444
0.073299751 0.11854576 0.88500011
0.076414935 0.11765964 0.88762492
-0.0021616265 0.1220199 0.88802844
0.00067688496 0.1236148 0.88593322
0.073059924 0.12254013 0.88709158
0.075176127 0.12138122 0.88766658
-0.00097869465 0.12568699 0.8889333
0.0021241291 0.12728448 0.88709569
0.071426451 0.12752695 0.8873499
0.0025410219 0.13198955 0.8882249
0.006046019 0.13225746 0.88586664
0.068067461 0.13238424 0.88671649
0.070254453 0.13137135 0.8882333
0.0035792231 0.1368082 0.88866663
0.00708448 0.13712691 0.88672066
0.06345626 0.13843121 0.88583314
0.066931807 0.13713288 0.88809508
0.0077799489 0.14191614 0.88848555
0.010595328 0.14263152 0.88633305
0.063098036 0.1422625 0.88659978
0.065997623 0.14188844 0.88890666
0.0089725703 0.14642292 0.88933337
0.010611267 0.14697504 0.88766646
0.062215552 0.14698817 0.88775539
0.012277067 0.15207078 0.88850671
0.057277076 0.15330161 0.88606662
0.060730759 0.1516151 0.88825005
0.013918456 0.1568388 0.88742203
0.016374772 0.15906429 0.88603324
0.053493343 0.15805624 0.88500011
0.056699783 0.15690666 0.88781101
0.013944242 0.16126332 0.8890667
0.017226296 0.16205586 0.88736653
0.022155985 0.16399106 0.88593328
0.052233826 0.16280304 0.88694429
0.055958521 0.1610118 0.88920003
0.018501557 0.1666165 0.88894999
0.02218508 0.16750908 0.88710815
0.027123194 0.16916406 0.88626653
0.032066349 0.16974193 0.88584441
0.043590117 0.16958015 0.88499999
0.046956372 0.16789131 0.88622206
0.051787887 0.16699554 0.88876671
0.022228872 0.17197099 0.88884765
0.027168645 0.17258377 0.88774425
0.032108881 0.17244071 0.88701081
0.037051331 0.17317067 0.88652211
0.042010307 0.17316264 0.8864814
0.047290374 0.17213345 0.88861662
0.050472043 0.17052545 0.88993347
0.023891171 0.17530774 0.889
0.027415169 0.17675978 0.88902497
0.032168582 0.17689544 0.88866657
0.037102532 0.17753977 0.88775533
0.042062905 0.17750645 0.88758868
0.046905912 0.17679113 0.88918334
0.028882479 0.18037696 0.88953334
0.032194305 0.18117063 0.88936669
0.037160125 0.18112071 0.88912225
0.041903432 0.18149903 0.88923806
0.046310779 0.18041077 0.88970006
0.082718052 0.089025967 0.89161998
0.085539825 0.089632004 0.89215791
0.083394758 0.092463359 0.89145929
0.085530005 0.092941038 0.89205557
0.082723178 0.098210312 0.89254236
0.085428797 0.097802833 0.89100003
0.078884058 0.10290968 0.89215559
0.080651268 0.1013787 0.89330012
0.079075135 0.10814741 0.89431667
0.078812331 0.11276165 0.89134461
-0.0084597748 0.11936514 0.89111733
0.078792192 0.11687873 0.8911168
-0.0069825547 0.12234099 0.89347303
-0.0043111863 0.12368725 0.89240026
0.076350391 0.12276351 0.89171684
-0.002648073 0.12780558 0.89218122
0.073742427 0.12754326 0.89034462
0.07570684 0.12805767 0.89393359
-0.0018159663 0.13284177 0.89256138
0.00068004278 0.13412571 0.89006674
0.072736807 0.13307551 0.89253837
-0.0018172902 0.13624921 0.89313352
0.0015121226 0.1376617 0.89151686
0.068796083 0.13920736 0.89080024
0.071787484 0.13758563 0.89256209
0.0035951512 0.14241061 0.89269191
0.0056680534 0.14343646 0.89133346
0.068496577 0.14317705 0.89230025
0.070718445 0.14138629 0.89410031
0.0073382184 0.14775784 0.89240015
0.063764244 0.14903814 0.8901335
0.066671468 0.14713632 0.89198917
0.0090186475 0.15299523 0.89390039
0.010657288 0.15341642 0.89151692
0.063074835 0.15268975 0.8921169
0.065671846 0.15126392 0.89350027
0.011495672 0.15767264 0.89213914
0.058860973 0.15835282 0.8913002
0.061009273 0.1572881 0.89231688
0.012908268 0.16296577 0.89386702
0.015621083 0.16394047 0.89013344
0.057580523 0.16296324 0.89204013
0.060715657 0.16135067 0.89413339
0.016323555 0.16799088 0.89229357
0.053894281 0.16836408 0.89163357
0.056315105 0.16747814 0.89310026
0.018329605 0.17239007 0.8927269
0.020618387 0.17401861 0.89086688
0.052279953 0.17266443 0.89243358
0.019042032 0.17646463 0.89486682
0.022090223 0.17769718 0.89165026
0.025577905 0.17881607 0.8900001
0.04881962 0.17882948 0.8900668
0.05147323 0.17773466 0.8928836
0.023456113 0.18173142 0.8934781
0.027090486 0.1827445 0.89199603
0.032266285 0.18406264 0.89135581
0.037239201 0.1839938 0.8910225
0.043036964 0.1839135 0.89063358
0.04745229 0.18282618 0.89110029
0.050647866 0.18274869 0.8930335
0.028478915 0.1868729 0.89422256
0.032357652 0.18707941 0.89388353
0.037323028 0.18690175 0.89303368
0.04251112 0.18744889 0.89266688
0.047133867 0.18762439 0.89350444
0.082569532 0.10307747 0.89602947
0.086099952 0.10358256 0.89800006
0.07918565 0.10829969 0.8955667
0.082985587 0.10716581 0.89827532
0.086841866 0.10734636 0.89874202
0.082295217 0.11096007 0.89912248
0.086215004 0.11041171 0.89920032
0.08121407 0.11547256 0.89953357
-0.0085087875 0.12339169 0.89628339
-0.0074042589 0.12714206 0.8972578
-0.0043240692 0.12988414 0.89506686
0.077727966 0.12697379 0.89802235
-0.0068505276 0.13196732 0.89790964
-0.0043257866 0.13326733 0.89542228
0.075925633 0.13259697 0.8965168
-0.0060159219 0.13538645 0.89843357
-0.0026583113 0.13789098 0.89660007
0.00068396493 0.13989498 0.89520007
0.074133538 0.13820915 0.89506686
0.075972207 0.13684992 0.89706683
-0.00099003478 0.14052525 0.8992334
0.0012416502 0.14286178 0.89640015
0.073176235 0.14239536 0.89696121
0.076183952 0.14057738 0.89956701
0.002636702 0.14688158 0.89718908
0.0056939139 0.14825429 0.89540011
0.068319306 0.14909227 0.89543343
0.072010711 0.14630061 0.89772016
0.0031993969 0.15210226 0.89845031
0.0063650394 0.15200016 0.89587992
0.064132005 0.1548937 0.89526671
0.068197466 0.15249398 0.89747804
0.071177192 0.15067334 0.8999002
0.0040379139 0.15545313 0.89850026
0.0071631316 0.15699504 0.89656675
0.06365332 0.15786128 0.89635563
0.066642188 0.15663144 0.89758682
0.0079417443 0.16146936 0.89787239
0.010711282 0.16252728 0.89603335
0.059149336 0.16495959 0.89566684
0.062885083 0.16192378 0.89731127
0.066134863 0.16069946 0.89980012
0.012682657 0.16699617 0.89765579
0.058623645 0.1683787 0.89613348
0.060975954 0.16705455 0.89796692
0.014084349 0.17040063 0.8980003
0.016304174 0.17360938 0.89732242
0.054146126 0.17498228 0.89579993
0.057798844 0.17233725 0.89690012
0.061065365 0.17148077 0.89928365
0.017987968 0.17816712 0.8978557
0.054154187 0.17750832 0.89593327
0.057114236 0.17672841 0.89741451
0.019082697 0.18184727 0.89677793
0.0212839 0.18271329 0.89557785
0.053345297 0.18259625 0.89636678
0.055949714 0.18041 0.8979336
0.019108705 0.1854348 0.8980003
0.022425421 0.18683764 0.89671111
0.026290303 0.18767883 0.89542228
0.038267598 0.18994421 0.89563334
0.040762492 0.18989472 0.89540011
0.049134098 0.18997957 0.89579999
0.052553292 0.18719415 0.89709455
0.022706205 0.19171567 0.89835739
0.027444882 0.19185618 0.89677787
0.032457594 0.19182624 0.89663708
0.037238311 0.19231704 0.89670479
0.042464297 0.19253905 0.89607781
0.047498975 0.19262175 0.89646119
0.051601212 0.19178748 0.89802015
0.028326217 0.195501 0.89820027
0.032511961 0.19548649 0.89813358
0.037797712 0.19679405 0.89865267
0.042549495 0.19710158 0.89787799
0.047386479 0.19698358 0.89829183
0.043043401 0.20121107 0.89945018
0.046818387 0.20079252 0.89945024
0.088067964 0.10560464 0.90100002
0.083334424 0.11290565 0.90130025
0.086897708 0.11280305 0.90048355
0.083354607 0.11771314 0.90227103
0.086469553 0.11744895 0.90185493
0.079934292 0.12445864 0.90403336
0.085067593 0.12120242 0.90483338
-0.0093839085 0.12893237 0.90004557
0.079868458 0.12771659 0.90328902
-0.0094004693 0.13251495 0.90163374
0.07847818 0.13212118 0.90181684
0.080016807 0.1330042 0.90496671
-0.0068889344 0.1377475 0.90295303
-0.0043499013 0.13903479 0.90041387
0.078818195 0.13739291 0.90282679
-0.0026801389 0.14278002 0.90291798
0.077486448 0.14312966 0.90300095
-0.001416534 0.1474847 0.90344167
0.0006884982 0.14836565 0.9011336
0.073800959 0.14837539 0.90119189
0.077134296 0.14746106 0.90414697
-0.0009948056 0.15296906 0.90356666
0.00068909238 0.15268843 0.90191132
0.073239803 0.1529184 0.90203345
0.079154558 0.1523281 0.9047572
0.081686348 0.1514879 0.90476471
0.0027072127 0.15746188 0.90235358
0.069152266 0.15795484 0.9008503
0.0720938 0.15757033 0.90296668
0.0040551419 0.16115189 0.90233344
0.0062972642 0.16392179 0.90217799
0.064542681 0.16426581 0.90100032
0.067974329 0.16275762 0.90192878
0.071509376 0.16146739 0.9041
0.009116509 0.16726191 0.90359998
0.01078181 0.16863126 0.90193343
0.063769214 0.16779196 0.90193349
0.066433743 0.16731104 0.90386665
0.012748792 0.17290384 0.90234452
0.063004389 0.17303276 0.90302002
0.01417062 0.1764864 0.90349996
0.015832255 0.17790534 0.90216678
0.059520267 0.178569 0.90128338
0.061732411 0.17762953 0.90289998
0.017100511 0.18259378 0.90253341
0.057604775 0.18289907 0.90197235
0.018630924 0.18792796 0.9019556
0.054458417 0.18939938 0.90096688
0.056824028 0.18701561 0.90294451
0.019214038 0.19233572 0.90294993
0.02169786 0.19447765 0.90120035
0.054010186 0.1931508 0.9028334
0.056383837 0.19022617 0.90490001
0.022906397 0.197106 0.90248668
0.027347391 0.19836201 0.90143347
0.032624893 0.19868286 0.90126133
0.036809579 0.19942558 0.90083361
0.049393706 0.19935918 0.9005335
0.051598217 0.19766563 0.90235841
0.024305034 0.20021529 0.90439999
0.028520297 0.20188639 0.90434998
0.033153489 0.20227733 0.90421665
0.037952092 0.20263581 0.90233338
0.042387951 0.20394734 0.90156019
0.047812629 0.20340204 0.90236664
0.038616404 0.20596668 0.90380001
0.043160133 0.20744517 0.90364659
0.046777949 0.20743197 0.90407783
0.082683831 0.1222632 0.90645027
0.086385988 0.12260043 0.90686685
0.082826883 0.12669604 0.90801698
0.086117372 0.1264666 0.9087885
0.082360476 0.13253523 0.90752935
0.082754061 0.13670757 0.90720731
0.085426144 0.13692559 0.90864706
-0.006924619 0.14269336 0.90770638
-0.0043757609 0.14491609 0.90576673
0.080955088 0.14154172 0.90790462
-0.0069290642 0.14700574 0.90827185
-0.0037005753 0.14863357 0.90583342
0.077842675 0.14886111 0.90585113
0.080226161 0.14685467 0.90733439
-0.0072877482 0.15199195 0.90777123
-0.0035324248 0.1525445 0.90604174
0.076710433 0.1525012 0.90578353
0.081264906 0.15118812 0.90633965
-0.0060862228 0.15641266 0.90893239
-0.002901501 0.15712544 0.90694314
0.00069221662 0.15843605 0.90600008
0.074981093 0.15662959 0.90530008
0.077321552 0.15721466 0.90728611
0.080716655 0.15753536 0.90808362
-0.0018482043 0.16060445 0.90873361
0.0019000378 0.16225697 0.90716684
0.07293129 0.16223727 0.90605009
0.076437764 0.16197138 0.90827167
0.082509257 0.16152996 0.90918624
0.004080608 0.16554207 0.90800035
0.0069001564 0.1677448 0.90773362
0.068828948 0.16682838 0.90581125
0.072051078 0.16749075 0.90825844
0.07575731 0.16709422 0.90955007
0.0091541773 0.17217286 0.90733361
0.010830429 0.17360403 0.90600008
0.064886548 0.1735657 0.90580004
0.067503847 0.1720926 0.90691137
0.070656776 0.17214158 0.90940005
0.0091720019 0.17673501 0.90910017
0.011963432 0.17765073 0.90658355
0.064498298 0.17745006 0.90627509
0.067442179 0.17709777 0.9083603
0.013020669 0.18205421 0.90731448
0.015890757 0.18361475 0.90550011
0.059787735 0.18358095 0.90533352
0.062610671 0.18258539 0.90708035
0.065543532 0.18222147 0.90905011
0.013830296 0.18725258 0.90885019
0.016332403 0.18763563 0.90661687
0.059462257 0.18767393 0.90680021
0.062369347 0.1872641 0.9084934
0.065187424 0.18622001 0.90999991
0.01676604 0.19240332 0.90722799
0.057527166 0.19268277 0.90695363
0.06061979 0.19172907 0.90936667
0.018459456 0.19748127 0.90729469
0.020952431 0.19873039 0.90530008
0.054402225 0.19784419 0.90702522
0.057216018 0.1967632 0.90917796
0.019337453 0.20202407 0.90875018
0.022688882 0.20253329 0.90724307
0.027299307 0.20347588 0.90580845
0.031939115 0.20386127 0.90565002
0.052882668 0.20259976 0.90754461
0.024423288 0.20795256 0.90880013
0.027780857 0.20771317 0.90775585
0.032837313 0.20757121 0.90713364
0.037300464 0.20786518 0.90596676
0.041217741 0.20885772 0.9054001
0.049275078 0.20774734 0.90606678
0.051977988 0.20757709 0.9090085
0.027824109 0.21226622 0.90917796
0.032892253 0.21214448 0.90865588
0.038161751 0.21263188 0.90802526
0.042977169 0.21258084 0.90690762
0.047901001 0.21263421 0.90803772
0.043940365 0.2165312 0.90933347
0.086392924 0.13195662 0.91168511
0.083889976 0.13887818 0.91036683
0.085561156 0.1354491 0.91008335
0.082235925 0.14403531 0.9108519
0.08244922 0.15630014 0.91321427
-0.0023648664 0.16349544 0.91165626
0.078784883 0.16340938 0.91023332
0.081846431 0.1632521 0.91030085
-0.0018573496 0.16649005 0.91320014
0.0023994835 0.1678402 0.912839
0.0057909964 0.16941623 0.9106667
0.078260064 0.16831115 0.91202003
0.081621975 0.16739254 0.91348481
0.0032575219 0.17099874 0.91460025
0.0068186983 0.17271072 0.91196001
0.07293281 0.1729345 0.91135001
0.076515585 0.17249897 0.91353351
0.0075022243 0.17738482 0.91245842
0.068584226 0.17945547 0.91003323
0.072207786 0.17690845 0.91290563
0.075729266 0.17520091 0.91433352
0.008362893 0.18181981 0.91340852
0.010891987 0.1839132 0.91114998
0.067848399 0.18314424 0.9115417
0.070616134 0.18201162 0.91436696
0.0092205964 0.18617177 0.91391683
0.011477515 0.18791342 0.91274452
0.067700148 0.18747167 0.91335016
0.013095445 0.19232753 0.91259539
0.062633984 0.19280621 0.91233349
0.065933332 0.19181073 0.91445863
0.014343143 0.19819856 0.91450024
0.015987277 0.19743991 0.91099989
0.057632912 0.19919944 0.91130006
0.061195735 0.19718894 0.91375858
0.016869478 0.20207858 0.91281676
0.057444826 0.202641 0.91280013
0.019020852 0.2069979 0.91391695
0.021784211 0.20729689 0.91186666
0.053406861 0.20861505 0.91170001
0.05590095 0.20699906 0.91354686
0.023102028 0.21218377 0.91246122
0.052764319 0.21249537 0.91234004
0.055304654 0.21106461 0.914967
0.027934829 0.2173546 0.91278529
-0.0018633923 0.16869527 0.91595024
-0.0016954874 0.17211488 0.91782653
0.0018388048 0.17276186 0.91642791
0.079405203 0.17322969 0.9174
0.081168234 0.17248864 0.91798884
0.0029021462 0.17740628 0.9181999
0.005818869 0.17789149 0.91505039
0.074215636 0.17906485 0.91670018
0.077039704 0.17790458 0.91774666
0.0041298927 0.18121706 0.91896659
0.0062567946 0.18291879 0.91678333
0.073470607 0.18274719 0.91806108
0.076174684 0.18307497 0.91971111
0.0072561954 0.18768622 0.91716671
0.071762919 0.18788211 0.91811657
0.0085790306 0.19269964 0.91828662
0.01095435 0.19348988 0.91636676
0.068418257 0.19309025 0.91689998
0.07097654 0.19234256 0.91903323
0.0092806229 0.19679467 0.91986668
0.01210218 0.1967603 0.9170444
0.063558124 0.19833428 0.91709161
0.067052357 0.19684425 0.91809988
0.071046062 0.19509766 0.91993338
0.01382753 0.20153011 0.91805553
0.016090231 0.20468061 0.9168666
0.061721776 0.20250843 0.91732764
0.014423651 0.20529823 0.91963333
0.016953118 0.20819914 0.91734159
0.058378156 0.20839785 0.91633332
0.06154415 0.20685518 0.91895008
0.017816994 0.21201108 0.91783887
0.021180404 0.21366042 0.91515028
0.057119254 0.21287955 0.91667777
-0.0010147704 0.17747068 0.92170012
0.00070398266 0.17826891 0.92140013
0.079742767 0.17739367 0.92130011
0.081486046 0.17744794 0.92158341
0.002079804 0.18232854 0.92286664
0.078682445 0.18187119 0.92228907
0.080606796 0.18233712 0.92464429
0.0041413275 0.1868621 0.92151123
0.005850771 0.18999146 0.92006665
0.074503057 0.18746176 0.92025006
0.077421024 0.18736205 0.92228669
0.0041534617 0.19256715 0.92421103
0.0058614747 0.19291151 0.92175007
0.073940888 0.19240381 0.92178679
0.076489434 0.19242124 0.92351127
0.0070999539 0.19775943 0.92322379
0.011016909 0.19887985 0.9216001
0.068568975 0.19879711 0.92121673
0.072658494 0.19711825 0.92298013
0.0093270373 0.20207834 0.92446655
0.011717635 0.20289716 0.9227134
0.064229824 0.20380156 0.92060006
0.067608617 0.20234929 0.9227584
0.013438839 0.20805912 0.92277336
0.063979425 0.20823368 0.92316663
0.066228494 0.20639209 0.92453325
0.016148731 0.21398346 0.92020005
-0.0010197611 0.18265153 0.92623311
0.00070757355 0.18434645 0.92609978
0.081931099 0.18358737 0.92661667
-0.0016011415 0.18729536 0.92933339
0.0017453922 0.18768509 0.92727315
0.080678433 0.18756537 0.92710829
0.0018642382 0.19176531 0.92865556
0.078472458 0.19306318 0.92658877
0.080993161 0.19184947 0.92906672
0.0041628489 0.19731012 0.92629987
0.07490921 0.19794998 0.9252665
0.076797709 0.1975096 0.92723322
0.0041748341 0.20133422 0.92896664
0.0072701275 0.20294783 0.92607987
0.069777496 0.20496748 0.92586648
0.072688818 0.20227936 0.92775327
0.075173646 0.20037614 0.92853326
0.0079792617 0.20686217 0.9281866
0.01106891 0.2075703 0.92594981
-0.0027615328 0.18879899 0.93106687
-0.0014602467 0.19192868 0.93154186
0.00071092253 0.19300811 0.93048352
0.082283296 0.1921666 0.93060023
0.0017539763 0.19730309 0.93196678
0.078877077 0.19838992 0.93136674
0.080719396 0.19691515 0.93258345
0.0024499469 0.20213808 0.93269175
0.076904774 0.20266423 0.93270683
0.0036136343 0.20662731 0.93336678
0.0067837173 0.20855957 0.93036675
-0.0010348444 0.2010877 0.93993354
0.00071750616 0.20353 0.93910003
