# .PCD v0.7 - Point Cloud Data file format
VERSION 0.7
FIELDS x y z
SIZE 4 4 4
TYPE F F F
COUNT 1 1 1
WIDTH 1392
HEIGHT 1
VIEWPOINT 0 0 0 1 0 0 0
POINTS 1392
DATA ascii
0.03285785 0.05762374 0.82289696
0.037471008 0.057429735 0.82311106
0.042104486 0.05823366 0.82363713
0.04522882 0.058301974 0.82460022
0.019086244 0.061374862 0.8246668
0.02232643 0.062639892 0.82365
0.027451588 0.062695831 0.821872
0.03283428 0.062729515 0.82231092
0.037475288 0.062797368 0.82319248
0.041626621 0.062371973 0.82432228
0.023689736 0.066714525 0.82430017
0.027514568 0.067435585 0.82373339
0.032914944 0.066716455 0.82432228
0.037547156 0.065984964 0.82476676
0.026776318 0.070579097 0.8246668
0.013780487 0.054008581 0.82933366
0.017635731 0.053203214 0.82881135
0.022259263 0.053167779 0.8282668
0.027183691 0.053596474 0.82774657
0.033427864 0.053503644 0.82749999
0.037264265 0.052396018 0.82825726
0.042548362 0.052820716 0.82800961
0.046751115 0.052834239 0.82821923
0.05249149 0.052935556 0.82864463
0.0099118175 0.057080943 0.82915574
0.01313251 0.057276506 0.82753325
0.017435275 0.057418372 0.82595152
0.021815721 0.055718441 0.82609999
0.026042979 0.055314615 0.82580006
0.032944344 0.055265483 0.8250668
0.042182833 0.055272926 0.82517797
0.048035253 0.057288334 0.82657212
0.05310965 0.056972716 0.82757026
0.0099112866 0.061706584 0.82911128
0.012983059 0.062379587 0.82780677
0.017384274 0.063205332 0.82602513
0.020637592 0.064484611 0.82520014
0.043236513 0.064012825 0.82571125
0.0472176 0.062787607 0.8270998
0.052235603 0.06239339 0.82877976
0.014037658 0.066860996 0.82928914
0.017618991 0.067787565 0.82803714
0.021756565 0.067837812 0.82597142
0.032965373 0.069121331 0.82557791
0.037604105 0.068061315 0.82601917
0.042290509 0.067725919 0.82728142
0.047023032 0.067875251 0.82911134
0.050160818 0.066392973 0.82986671
0.018674478 0.071477287 0.82915586
0.022235528 0.072355479 0.82742953
0.027643776 0.072327763 0.82552129
0.033002812 0.072274975 0.82651109
0.037701737 0.072419554 0.8281557
0.042383239 0.071729876 0.82910031
0.045484778 0.070972763 0.82926697
0.022586506 0.076191023 0.82897347
0.027651912 0.076705903 0.82786
0.032206621 0.076872632 0.82871437
0.03489548 0.049713828 0.8349331
0.037971258 0.049663544 0.83408898
0.04257971 0.04959606 0.8329556
0.04731999 0.049679417 0.83435553
0.051989738 0.049680743 0.83437771
0.059810042 0.049713828 0.83493322
0.062774487 0.048820674 0.83295363
0.065935574 0.049636211 0.83362973
0.0084017226 0.053467613 0.83293337
0.012822548 0.052172564 0.83170474
0.017692508 0.051054124 0.83146667
0.022363022 0.051092338 0.83208889
0.027330082 0.051715422 0.83217335
0.032103997 0.051736381 0.83179057
0.039339483 0.050972227 0.83013356
0.041669883 0.050982475 0.83030009
0.047902562 0.051023424 0.83096659
0.0522906 0.051020011 0.83091098
0.058007114 0.052596673 0.83141476
0.062635474 0.052577004 0.83109617
0.066981897 0.052908447 0.83282411
0.0068423864 0.057295844 0.83227408
0.057957172 0.057187453 0.83068883
0.06248527 0.057061899 0.83166665
0.065906867 0.055814747 0.83326679
0.0081335893 0.062169254 0.83186656
0.01148001 0.064916998 0.83073324
0.054876618 0.064163074 0.83096671
0.058033302 0.06190525 0.83177775
0.061635666 0.061631069 0.83329999
0.0094552739 0.066753902 0.83437759
0.012527373 0.068607703 0.83175546
0.052311435 0.068049088 0.83123702
0.05702775 0.066924155 0.83408326
0.061372127 0.065250404 0.83499974
0.013848931 0.072884478 0.83347774
0.017169252 0.073198132 0.83117771
0.042475671 0.07420484 0.83091098
0.047323678 0.072860718 0.83099997
0.051895052 0.072828911 0.83284444
0.055125359 0.071440652 0.83473307
0.014129373 0.07661467 0.8347109
0.017928801 0.077340938 0.83345824
0.021967968 0.078550272 0.83191663
0.025403554 0.078761682 0.8300668
0.034240305 0.078394048 0.83162218
0.037918635 0.077484027 0.83291119
0.042604011 0.077088945 0.8334285
0.047086507 0.077360369 0.83366656
0.05159121 0.076440156 0.83421659
0.019323854 0.080776587 0.8349331
0.022593683 0.081997439 0.83352494
0.027033737 0.082101494 0.83260745
0.032310024 0.082091697 0.83393931
0.036449704 0.080770142 0.83486646
0.023212209 0.085418925 0.83476645
0.027100751 0.086185336 0.83466649
0.031394362 0.085831106 0.83499974
0.012890565 0.049408842 0.83855557
0.017830741 0.049268559 0.83794671
0.022518715 0.04911207 0.83793336
0.027407143 0.048735734 0.83721912
0.032182794 0.048293702 0.83727992
0.037825063 0.047699302 0.83775997
0.042769905 0.047482025 0.83667779
0.047485363 0.047516152 0.83727783
0.051773429 0.047900349 0.83718336
0.057297569 0.048960038 0.83722848
0.061627239 0.046804965 0.83846951
0.0037676711 0.053816613 0.83836663
0.0068796389 0.052154232 0.8367222
0.0037672219 0.057708848 0.83826667
0.064630829 0.059169367 0.83686662
0.06712833 0.056966901 0.8388201
0.0057073263 0.062627837 0.83626664
0.064014509 0.062600985 0.83695996
0.06639199 0.0640328 0.83940017
0.0071973675 0.066681266 0.83737338
0.058717176 0.068439148 0.83599997
0.063317485 0.067202106 0.83754164
0.066386715 0.065589033 0.83933347
0.008459541 0.072542779 0.83848345
0.010670327 0.072719775 0.83668566
0.05746568 0.072729997 0.83705997
0.061654277 0.072572589 0.83883345
0.0084714787 0.076548688 0.83966672
0.012242854 0.078138374 0.8375715
0.016228946 0.07931833 0.83593327
0.042693254 0.079245612 0.83516657
0.048917729 0.079236127 0.83506638
0.052457303 0.078784563 0.83686656
0.056408655 0.077470042 0.83836669
0.013665303 0.08212585 0.83813334
0.017604195 0.082680188 0.83650827
0.020886008 0.083902948 0.83513314
0.034903839 0.083902955 0.83513314
0.038261268 0.082645327 0.83615822
0.042813342 0.082584374 0.83750367
0.047534958 0.082648411 0.83814812
0.051951181 0.08177267 0.83877343
0.055451158 0.0812345 0.83966678
0.018351907 0.086788245 0.83798891
0.022244593 0.087549195 0.83603805
0.027123762 0.088589408 0.83537751
0.033202179 0.087725922 0.83639991
0.038132351 0.087267824 0.83759999
0.042112023 0.085862368 0.83910012
0.022747321 0.091558136 0.83816195
0.02717199 0.091861635 0.83686668
0.031887595 0.091955297 0.83771849
0.03610659 0.091569185 0.83894461
0.028025033 0.095220082 0.83903348
0.031168539 0.095261693 0.83940017
0.044768266 0.044022311 0.84493333
0.04707041 0.043965001 0.84383345
0.054206047 0.044008415 0.8446666
0.057316422 0.043977156 0.84406674
0.060469069 0.043980632 0.84413332
0.0037941858 0.048699055 0.84426683
0.0071589462 0.047515687 0.84319061
0.011639734 0.047242474 0.84232384
0.017923156 0.047408745 0.84228337
0.02265742 0.04643438 0.84309328
0.027027357 0.046064798 0.84206665
0.032097567 0.045501709 0.84322232
0.037558068 0.04597104 0.84226674
0.043006305 0.045398578 0.84131116
0.04770707 0.045391381 0.84117764
0.052772187 0.046056084 0.84190673
0.057159677 0.046205025 0.84176666
0.061107155 0.045439355 0.84206653
0.0020401934 0.052451439 0.84289676
0.0069159693 0.050079029 0.84106654
0.0022162839 0.058036778 0.8429985
0.067722522 0.059077058 0.84295553
0.0033911138 0.063074268 0.84221667
0.067921661 0.06267789 0.84217781
0.0033979421 0.067111388 0.84375
0.0058676829 0.068294324 0.84059983
0.068327256 0.067521349 0.84152496
0.071557097 0.067598343 0.84493321
0.0037956832 0.070713975 0.84459996
0.0061376481 0.072051495 0.84186667
0.064915746 0.071939521 0.84055543
0.068066292 0.071966089 0.84315842
0.0069301319 0.07727737 0.84274292
0.010047031 0.078966826 0.8404665
0.058133543 0.079250485 0.84071094
0.06222038 0.077265546 0.84179252
0.066489674 0.076939031 0.84394449
0.0078884149 0.08231245 0.84430677
0.011111203 0.083546869 0.84197778
0.052796509 0.08410494 0.84103316
0.057411909 0.083279267 0.84256661
0.062064752 0.081433214 0.84442228
0.065253824 0.080172315 0.84493321
0.012905991 0.087678395 0.84304678
0.016842222 0.088624328 0.84062213
0.04324577 0.088128462 0.84157139
0.047763575 0.087745167 0.84217787
0.052539464 0.087850548 0.84319282
0.055699915 0.087090462 0.84343362
0.014028381 0.09110254 0.84426665
0.017928358 0.092490688 0.84259272
0.021821668 0.093901217 0.84119987
0.038813271 0.092846334 0.84108895
0.043105278 0.092558175 0.84321505
0.047868881 0.092647962 0.84402978
0.051455289 0.092335284 0.84476662
0.018753689 0.095821559 0.84433329
0.02285731 0.097071208 0.84324163
0.027109334 0.097551875 0.84182864
0.032252375 0.09750516 0.84142846
0.037558209 0.097150899 0.84223336
0.042531144 0.096761174 0.84430677
0.047135711 0.09589722 0.84499991
0.024277948 0.10137101 0.84476656
0.027626976 0.10161025 0.84395254
0.032102142 0.10198868 0.84337056
0.036837239 0.10203156 0.84372616
0.040550318 0.10108902 0.84460002
0.032164332 0.1053284 0.84499991
0.054484122 0.034758367 0.84900004
0.053499095 0.038524371 0.8484624
0.056871496 0.038450669 0.84680492
0.003817555 0.04425849 0.84946698
0.0069750696 0.043561917 0.84822673
0.012510495 0.043394282 0.84803349
0.018061394 0.043590248 0.84877348
0.022790274 0.044184387 0.84804469
0.027523577 0.043376714 0.84770012
0.032264784 0.04337332 0.84763342
0.03699315 0.043356951 0.8473112
0.042522687 0.042960711 0.84727502
0.048302066 0.042136542 0.84768581
0.052561663 0.042342518 0.84673345
0.057456147 0.042059857 0.8461256
0.060564868 0.04247757 0.84547073
-0.00093480275 0.048975945 0.84906685
0.0020282622 0.047086563 0.84706664
0.0061652991 0.045628235 0.84556651
0.013259269 0.045618039 0.84537768
0.017997161 0.045639623 0.84577769
0.022710504 0.045601256 0.84506661
-0.0020645489 0.052292127 0.84796518
0.00064617064 0.050356902 0.84573328
0.070111014 0.053551853 0.84650004
-0.0014617426 0.055765033 0.84822398
0.00064787111 0.058377475 0.84795904
0.071219124 0.058406036 0.84840405
-0.00093522918 0.062693328 0.8494541
0.0014358893 0.06306316 0.84733337
0.069992311 0.062893108 0.84506661
0.072756976 0.062479153 0.84722441
0.076653466 0.062735483 0.84901941
-0.0013308455 0.0683107 0.8489086
0.001277176 0.068021327 0.84629887
0.074087173 0.067750461 0.84683341
0.077256404 0.067582615 0.84868032
-0.00093390251 0.071809322 0.8482492
0.002027065 0.072636127 0.84639478
0.072526388 0.072493635 0.84703338
0.075144894 0.072735816 0.84986687
0.0032794345 0.076168992 0.84702224
0.0053823199 0.078736998 0.84640008
0.068540379 0.07796856 0.8466
0.070864186 0.076988421 0.84794676
0.0061712707 0.081890777 0.84646678
0.062128071 0.083875082 0.84528875
0.067182131 0.082129471 0.84687507
0.070345692 0.080589801 0.84933358
0.0077597965 0.087511562 0.84751129
0.010107202 0.088876843 0.84549999
0.057928126 0.088412829 0.84642851
0.062462859 0.086884871 0.84715831
0.066636197 0.086567774 0.84819067
0.0085690087 0.091649257 0.84933358
0.012399899 0.093109377 0.84664452
0.053633679 0.093131095 0.84557313
0.057389356 0.092889607 0.84803337
0.062752001 0.090715721 0.84946692
0.065619364 0.090104707 0.84966689
0.013832158 0.097328126 0.8483336
0.017787967 0.098103985 0.84660012
0.021136103 0.099056609 0.84513324
0.044027034 0.098350234 0.84581661
0.048271101 0.098167822 0.84714305
0.052614897 0.097570471 0.84757513
0.056078505 0.097160548 0.84916687
0.018570296 0.10201814 0.84796685
0.022290064 0.10255782 0.84621906
0.026653714 0.10377706 0.8451665
0.043137014 0.10280805 0.84725195
0.047830693 0.10171316 0.84893352
0.052139871 0.10114864 0.84950018
0.019660216 0.10588523 0.84946692
0.022990827 0.10710349 0.84815854
0.027516779 0.10721568 0.84748155
0.032223895 0.10729657 0.84656656
0.036975324 0.10714224 0.84690362
0.041349802 0.10714147 0.84868604
0.045019072 0.10591014 0.84966677
0.023622546 0.11063439 0.84953356
0.027577171 0.11060835 0.8493337
0.032326277 0.11099269 0.84925032
0.037072212 0.1105823 0.84913367
0.040258832 0.1106344 0.84953362
0.052286178 0.034877092 0.85189998
0.013401222 0.039749559 0.8544445
0.018189561 0.039766096 0.85480011
0.023769312 0.039766096 0.85480022
0.027748227 0.03975679 0.85460025
0.032524537 0.039750591 0.85446686
0.037289705 0.039734051 0.85411119
0.042003248 0.039673056 0.85280007
0.047548588 0.038861174 0.85241663
0.051780514 0.037074871 0.85143644
-0.00094023382 0.044494703 0.85400003
0.0022419258 0.042837851 0.85268098
0.0070085768 0.041629314 0.85227513
0.012563014 0.041205004 0.85167497
0.018123487 0.041601717 0.85169995
0.022878179 0.041977372 0.85129446
0.02764146 0.041187931 0.85132217
0.032396853 0.04117772 0.85111099
0.037149195 0.041166969 0.85088879
0.041890208 0.041147616 0.85048896
-0.0025289825 0.047570262 0.85219246
-0.0065005757 0.052333333 0.85230005
-0.0041115885 0.051466133 0.85108387
0.069119237 0.050834235 0.85375005
-0.0030563846 0.057570975 0.85158998
0.072756521 0.056595683 0.85283977
0.07660573 0.058318015 0.85288334
0.08828789 0.058021657 0.85434628
-0.0021306947 0.061837293 0.85217452
0.00064950692 0.061686344 0.85010016
0.077963084 0.060752075 0.85178882
0.081140004 0.062829196 0.8533715
-0.0025308772 0.06667871 0.85329944
0.079166591 0.068043306 0.85050005
0.081842221 0.067156255 0.85358566
0.086731352 0.066790722 0.85471123
-0.0019977584 0.072912909 0.8519327
0.077238351 0.072966002 0.85255003
0.0022398105 0.077680856 0.8520897
0.073254295 0.077970885 0.8509168
0.075485319 0.077035815 0.85371673
0.0038347826 0.08096619 0.85329998
0.0054124198 0.083136067 0.85113335
0.071905524 0.082442664 0.85215694
0.0054261968 0.087314524 0.85330003
0.068965428 0.087960497 0.85185003
0.071028911 0.086866014 0.85277367
0.0070108967 0.092007026 0.85264671
0.010161793 0.094890982 0.85006678
0.059304062 0.094883516 0.85000026
0.061873306 0.09335234 0.85045356
0.067162074 0.091986962 0.85246664
0.0086102607 0.09685456 0.85342222
0.011443406 0.098488703 0.85109329
0.054548305 0.099627018 0.85000014
0.058152251 0.097924709 0.85169333
0.06271065 0.096565731 0.85321116
0.065892264 0.095240742 0.85320002
0.013202754 0.10264353 0.853163
0.01705412 0.10398912 0.85118884
0.04864933 0.10407322 0.85079992
0.053243022 0.10334491 0.85085231
0.057760105 0.10202476 0.85352498
0.061223608 0.10017395 0.85466671
0.017619397 0.10791805 0.85304451
0.021259489 0.10912259 0.85006672
0.04348214 0.10840002 0.85059994
0.047241334 0.10773853 0.85162222
0.052296985 0.10780043 0.85350376
0.056428526 0.10650847 0.85446674
0.01896885 0.11201285 0.85401678
0.022654967 0.11292261 0.85146183
0.027623989 0.11317059 0.85077769
0.032386746 0.11333637 0.8508333
0.037155725 0.11320541 0.85103887
0.042175829 0.11277154 0.85223746
0.046631705 0.11257935 0.85379177
0.02339666 0.11730207 0.85369527
0.027697062 0.11743898 0.8530333
0.032456297 0.11738523 0.85264438
0.037275638 0.11754096 0.85378146
0.041275892 0.11680137 0.85418344
0.024024321 0.12133753 0.85442239
0.027735107 0.12157068 0.85420012
0.032112401 0.12115918 0.85410011
0.035700694 0.12077603 0.85420007
-0.0057512745 0.038359586 0.85891014
-0.0023187392 0.038816739 0.85893667
0.0019367079 0.039302498 0.85858667
0.0074521722 0.039490335 0.85746676
0.012086476 0.037636515 0.85807639
0.017226545 0.037275884 0.85742438
0.022810608 0.037828863 0.85726678
0.027844256 0.03749999 0.85755569
0.032627523 0.037483532 0.85717797
0.037432186 0.037491724 0.8573668
0.042205852 0.037471522 0.85690004
0.047365539 0.036072277 0.85773337
0.050093208 0.03500947 0.85513341
-0.005757438 0.043199096 0.85983056
-0.0027452768 0.042888999 0.85763341
0.0006535562 0.041385222 0.85540015
-0.0057371911 0.047826022 0.85680693
-0.0041416669 0.046261936 0.85731047
-0.0065337121 0.05099003 0.85636663
0.073571071 0.054358564 0.85925186
-0.0057369219 0.058187366 0.85676664
0.074048951 0.055713739 0.85551727
0.077387974 0.056616969 0.8571611
0.082259849 0.058423948 0.8579334
0.086957045 0.057930708 0.85694867
-0.0041455762 0.062269971 0.85811925
0.083169907 0.061076503 0.85633355
0.086843193 0.06210063 0.85581511
0.090038501 0.062103063 0.85584074
-0.004147415 0.068683788 0.8585
0.083571687 0.068403758 0.85500008
0.086825095 0.066863038 0.85563368
0.090036213 0.066877395 0.85581905
-0.0033373167 0.072485752 0.85622621
0.078800216 0.074777275 0.85513347
0.082113117 0.072234705 0.85641503
0.087124094 0.072072044 0.8570118
0.090125397 0.070928074 0.85666668
-0.00094248599 0.076449446 0.85604566
0.077789962 0.078315623 0.85654306
0.082344599 0.076432891 0.85883331
0.085578009 0.07512705 0.85913336
0.0038494633 0.083666742 0.85656673
0.074088641 0.08360903 0.85597605
0.076964311 0.082512513 0.85836673
0.0038512603 0.087688647 0.85696679
0.07343737 0.087764263 0.85768342
0.0054494077 0.093269289 0.85695016
0.069247417 0.093092307 0.85533333
0.071452014 0.092169046 0.85785019
0.0064105741 0.096989632 0.85743332
0.063709088 0.098730251 0.85593355
0.067799591 0.097281151 0.85718584
0.071223617 0.095992364 0.8599335
0.0078587001 0.10220372 0.85835558
0.010234311 0.10273507 0.85613358
0.059680823 0.10344238 0.85540015
0.063177049 0.10222074 0.85682517
0.066724181 0.10185526 0.85878336
0.0086752772 0.10558207 0.85986674
0.011653675 0.10713369 0.85787505
0.015029091 0.10913909 0.85640025
0.054095391 0.10980294 0.85536695
0.058631338 0.10701583 0.85670489
0.062276948 0.10697321 0.85818893
0.013070899 0.11145964 0.85893339
0.016858544 0.1133858 0.85667628
0.048539955 0.11464335 0.85586703
0.051571093 0.11293694 0.85650015
0.056405898 0.1117577 0.85815555
0.061581805 0.11035495 0.85966688
0.01778248 0.11752857 0.85833341
0.021402044 0.11860988 0.85576695
0.04280901 0.11850555 0.85616016
0.046826322 0.11783486 0.85735846
0.051523246 0.11666586 0.85903335
0.055160102 0.11513447 0.85953343
0.019890882 0.12231579 0.85943347
0.022514855 0.12339415 0.85766679
0.027792923 0.12421191 0.85597807
0.032890968 0.12353615 0.85570699
0.037600834 0.12291595 0.85665017
0.042093914 0.12280599 0.85866672
0.045559499 0.12157723 0.85986686
0.024036149 0.12747777 0.85866672
0.027825452 0.12754764 0.85698527
0.032649923 0.12766063 0.85774076
0.037093438 0.12661362 0.85876662
0.040751681 0.12638561 0.8599335
0.02789929 0.13108276 0.85926676
0.031923559 0.13115394 0.85973346
0.034498915 0.028943647 0.86400002
0.0079141557 0.033779591 0.86436677
0.011915572 0.033699621 0.86232024
0.017532544 0.033675369 0.8616997
0.022393135 0.033732701 0.86316669
0.028054735 0.033767436 0.86405581
0.032879874 0.033757884 0.86381119
0.037506226 0.032345884 0.86367536
0.042779993 0.032611538 0.86388099
0.047325015 0.033719242 0.86282223
0.051202733 0.032444112 0.86309463
-0.0081661511 0.038417175 0.86020005
-0.0025522332 0.036029875 0.86050737
0.0024956849 0.03642391 0.86173815
0.0068896944 0.036701176 0.86221671
0.010828399 0.03578721 0.86108893
0.019106546 0.035216894 0.86020005
0.023164138 0.035286952 0.86191106
0.027981276 0.035281494 0.8617776
0.032800928 0.035279676 0.8617332
0.037597638 0.035256017 0.86115551
0.042393159 0.035237823 0.8607111
0.045566563 0.035208706 0.86000007
-0.0077090217 0.042705782 0.86279565
-0.0084635792 0.046043053 0.86318344
0.073896646 0.052993409 0.8630501
0.077899233 0.054582331 0.86278909
-0.007379605 0.059342884 0.86200005
0.079291679 0.056036066 0.86046684
0.082689799 0.056563649 0.86242509
0.085883498 0.056148931 0.86219996
-0.0057702535 0.06253317 0.86174446
-0.0057808929 0.067463733 0.8633334
-0.0041579371 0.066456124 0.86067808
-0.0017521738 0.077753536 0.86167371
0.00065826788 0.078545213 0.86156678
0.083432987 0.078566462 0.86179996
0.087234557 0.077277921 0.86231118
0.0022640198 0.081712253 0.86115551
0.078595489 0.084161304 0.8616333
0.082165122 0.081309341 0.86254448
0.0022670724 0.087434895 0.86231679
0.074546598 0.089732751 0.86126679
0.07791914 0.087507524 0.86302096
0.081275709 0.08524517 0.86450022
0.0038797925 0.092356153 0.86331558
0.073965639 0.093333885 0.8619734
0.0773139 0.092771053 0.86398113
0.0038818701 0.096421517 0.86377776
0.0054771355 0.099350497 0.86131048
0.069630638 0.099207029 0.86006683
0.07325694 0.098096609 0.86261261
0.076447606 0.096513271 0.86460018
0.0038841744 0.10371352 0.8642906
0.0054792608 0.10259464 0.86164457
0.069064125 0.10283889 0.86100018
0.072630808 0.1025303 0.86302871
0.0073613287 0.107525 0.86262232
0.064895548 0.10733507 0.86108893
0.068024285 0.10731802 0.86256677
0.071576975 0.10611413 0.86420023
0.00817437 0.11138108 0.86348897
0.010934246 0.11244692 0.86098671
0.058472559 0.11294207 0.86110008
0.061716639 0.1123993 0.86154169
0.066256337 0.11227167 0.86386687
0.011917811 0.11714164 0.86253345
0.015898904 0.11923313 0.8602668
0.048774395 0.1199963 0.86000019
0.053066716 0.11789691 0.86024469
0.057124335 0.11726107 0.86193758
0.061652899 0.11686347 0.86386681
0.065152653 0.11579981 0.86450016
0.013147046 0.12175347 0.86395013
0.01692933 0.1226439 0.8617416
0.043979712 0.12484399 0.8603335
0.047193829 0.12298987 0.86042237
0.052072827 0.12180722 0.86148888
0.056531411 0.12178709 0.86297143
0.018359516 0.12681317 0.86284298
0.021922385 0.12847531 0.86053336
0.037891679 0.12903531 0.86053342
0.042428594 0.12820551 0.86140949
0.047507092 0.12695907 0.86246669
0.051737029 0.12669006 0.86355716
0.05541892 0.12531313 0.86356664
0.019973435 0.1300469 0.86300015
0.022985127 0.13262966 0.86282516
0.027983068 0.133881 0.86184448
0.033034857 0.13353723 0.86183816
0.037652377 0.1323628 0.86239451
0.042919073 0.13127878 0.86318338
0.046598818 0.13023777 0.86426681
0.028444642 0.13697574 0.86366677
0.032476574 0.13699442 0.86378342
0.036926791 0.13505834 0.86425018
0.027422952 0.029130129 0.86956668
0.032215774 0.02906464 0.86761177
0.0038897593 0.033825181 0.86553347
0.0055120443 0.033874687 0.86680013
0.023585595 0.032021474 0.86760563
0.028185137 0.031502437 0.8680889
0.032973666 0.031437509 0.86629462
0.039386138 0.030592101 0.86516672
0.041807309 0.030592691 0.86518335
0.047492605 0.031423006 0.86589223
-0.010666585 0.042793773 0.86783338
-0.0090411138 0.041147798 0.8671667
-0.010671091 0.046851046 0.86820006
-0.0090602282 0.048509233 0.86900002
0.078205146 0.05318616 0.866189
0.082856581 0.054532442 0.86839175
0.086489685 0.054930087 0.86828578
-0.0033824472 0.078270048 0.86740744
0.089401782 0.078869611 0.865125
-0.0009564035 0.082426108 0.86868626
0.0006619608 0.082208604 0.86639994
0.08414688 0.083282791 0.86638904
0.087837182 0.082123123 0.86759996
0.00066337408 0.087231576 0.86825001
0.083455808 0.08743728 0.86830002
0.0022857143 0.093006432 0.86940747
0.079890676 0.091939367 0.86696678
0.082104132 0.091750726 0.86899996
0.0038910173 0.096648574 0.86581314
0.07824821 0.097549975 0.86667234
0.081177309 0.097026728 0.86920005
0.0038952567 0.10078448 0.86675644
0.074878402 0.10300615 0.8651002
0.077275567 0.10252614 0.86785007
0.080157913 0.10033742 0.86986673
0.0039047266 0.10830361 0.86886382
0.0055138897 0.10888873 0.86709034
0.072128296 0.1083843 0.86693335
0.075775258 0.10673154 0.86922222
0.0039073816 0.11161137 0.86945456
0.0071340743 0.11339639 0.86765003
0.068530172 0.11364153 0.8664335
0.07140895 0.11231903 0.86867768
0.0079478836 0.11789843 0.86811113
0.062802054 0.11914456 0.86543351
0.06722331 0.11805758 0.86779594
0.070407838 0.11810999 0.8696667
0.0087712379 0.1229224 0.86937785
0.011018337 0.1229922 0.86758673
0.058824509 0.12329046 0.86628342
0.062109761 0.12259081 0.86702609
0.06629657 0.12285852 0.86892223
0.012207018 0.12747979 0.86874998
0.015607929 0.12773789 0.8663919
0.053953767 0.12806839 0.86590004
0.0572704 0.12745361 0.86719543
0.061863378 0.12654224 0.86925006
0.0136337 0.13099132 0.86926657
0.01704869 0.13218261 0.86779165
0.020073725 0.13392681 0.86733329
0.042659689 0.13373466 0.86608905
0.04777018 0.13268213 0.86671913
0.052248321 0.13217638 0.86775017
0.056303818 0.1314799 0.86893338
0.018498693 0.13585271 0.86933339
0.022510422 0.1372287 0.86780339
0.02730844 0.13854566 0.86595017
0.033763789 0.13852167 0.86580014
0.038069326 0.13750908 0.86666203
0.042745754 0.13723598 0.86784822
0.047672436 0.13744085 0.86914808
0.050925031 0.13585271 0.86933333
0.024335343 0.14199826 0.86933327
0.028180847 0.1420965 0.86795563
0.033019263 0.14201327 0.86744821
0.037736513 0.1420608 0.86897492
0.042276293 0.14177719 0.86929989
0.028871167 0.14650786 0.86922663
0.033081241 0.14713037 0.8690815
0.036340155 0.14639246 0.86949998
0.029868519 0.15051065 0.86993337
0.031471658 0.15041837 0.86939991
0.023407439 0.029178143 0.87100023
0.025008874 0.029151345 0.87020016
0.02338057 0.03076301 0.87000012
-0.012335595 0.04378029 0.87140006
-0.011511574 0.046973668 0.87050003
0.07284794 0.052519094 0.87298554
0.077172734 0.0519685 0.87279993
0.082696952 0.051960915 0.87269437
0.086388253 0.053097475 0.87135577
-0.0063916873 0.07909181 0.87350005
-0.0042061917 0.079374813 0.87066674
-0.0034009304 0.082750984 0.87209982
0.089971997 0.084231362 0.87064302
-0.0013676861 0.087279916 0.87276661
0.00066491496 0.087432653 0.87026674
0.087532133 0.08746659 0.87060022
0.090111889 0.087607406 0.87199658
0.00066544797 0.090743087 0.87096435
0.083479241 0.093141481 0.87066674
0.086820811 0.092431158 0.87160009
0.090283327 0.092648983 0.87365562
0.0022884491 0.097166233 0.8704477
0.083142191 0.097676001 0.87138337
0.086765341 0.097258367 0.87308764
0.0014779074 0.10128789 0.87108338
0.082192652 0.10241727 0.87207496
0.085441895 0.10082959 0.87413329
0.0022938447 0.10875629 0.87250006
0.078020729 0.10731806 0.87136012
0.081478432 0.10661616 0.87357986
0.0022951593 0.11044256 0.87300003
0.005539191 0.11343899 0.87106913
0.073221579 0.11342678 0.87097794
0.077150211 0.11200707 0.87252963
0.080609441 0.11066608 0.87476653
0.0055601611 0.11712139 0.87436676
0.072677851 0.11771287 0.8718667
0.075607404 0.11700916 0.87352204
0.007162998 0.12314838 0.87097794
0.068861492 0.12309832 0.87062246
0.072032459 0.12243225 0.87248093
0.0081357677 0.12765913 0.8708002
0.010408847 0.12959255 0.87073356
0.059117641 0.12957273 0.87060004
0.062712893 0.12897238 0.87092018
0.067330018 0.12813164 0.8718074
0.072024085 0.12643203 0.8735199
0.0082764169 0.1317412 0.87424439
0.0120472 0.13300398 0.87185717
0.015267759 0.13433853 0.87000006
0.054213371 0.13434882 0.87006664
0.058130395 0.13356905 0.87201518
0.062494457 0.13227536 0.87239987
0.067472622 0.13246574 0.87365538
0.070774876 0.13010852 0.87419999
0.013297211 0.13777304 0.87381661
0.016716802 0.1380277 0.87157506
0.020146245 0.13926832 0.87046683
0.052856211 0.137951 0.87109178
0.056820035 0.13800465 0.8727088
0.061029695 0.13506943 0.87473333
0.017493853 0.14240797 0.87316662
0.021326626 0.14288096 0.87133348
0.039612249 0.14407083 0.87013334
0.04396655 0.14361961 0.8706668
0.047771074 0.14258498 0.87094092
0.052775804 0.14294007 0.87310737
0.056678634 0.14211887 0.87472218
0.022039829 0.14762172 0.87318325
0.026424861 0.14792432 0.87103814
0.03849246 0.1476901 0.87101924
0.042942848 0.14759837 0.87184078
0.047654267 0.14733924 0.8730523
0.051198419 0.14633684 0.87399983
0.023485374 0.15119697 0.8739
0.027794458 0.15262325 0.87275189
0.033401277 0.1527179 0.87213337
0.03749856 0.15215833 0.87381333
0.042251959 0.15128057 0.87438321
0.032470677 0.15671742 0.8744666
0.073921055 0.048538547 0.87929982
0.077248193 0.048619054 0.87829685
0.073653154 0.050723724 0.87936652
0.077593587 0.050620127 0.87757093
0.081539035 0.050529517 0.87600005
-0.0064108819 0.082051285 0.87618107
-0.0058857962 0.085039854 0.87900013
-0.0034194305 0.08809983 0.87690634
-0.0013763041 0.09267544 0.87775201
0.00066944631 0.093733743 0.87619758
0.00067104178 0.09640722 0.87828583
0.088835031 0.099351823 0.87544
0.090628944 0.097082242 0.87700009
0.087401591 0.10284225 0.8774271
0.083257161 0.10848556 0.87686676
0.087030374 0.1074106 0.87919432
0.003953828 0.11457465 0.87978953
0.082300432 0.11274532 0.87828892
0.0055677919 0.11565347 0.87556678
0.078363456 0.11747721 0.87701112
0.081039444 0.11698245 0.87943327
0.074106216 0.12372161 0.87503332
0.077105403 0.12199029 0.87819439
0.0055955602 0.12932496 0.87993348
0.073669039 0.12824757 0.8763001
0.076095939 0.12675951 0.87916648
0.0072259563 0.13240279 0.8786332
0.07247299 0.13235277 0.87830001
0.010898748 0.13754167 0.87752503
0.059451506 0.1376335 0.87551677
0.063009247 0.13721566 0.87674183
0.067647532 0.13709387 0.87857497
0.071244448 0.13588263 0.87999976
0.012135169 0.14215119 0.87827617
0.016178608 0.144126 0.87538338
0.058381457 0.14310668 0.87578899
0.062798373 0.14214708 0.87950814
0.067141399 0.14079358 0.87999976
0.013382621 0.14683545 0.87941653
0.016794791 0.14733683 0.87718582
0.020264274 0.14985657 0.87556666
0.048847459 0.14987658 0.87568337
0.052967284 0.14807773 0.87628341
0.058203675 0.147439 0.87779534
0.061397173 0.14570448 0.87999976
0.017056325 0.15119447 0.87860554
0.02162509 0.15284871 0.87778008
0.02516311 0.15311404 0.87556672
0.038793501 0.15374455 0.87606674
0.043616768 0.15299797 0.87723345
0.048136096 0.15265197 0.87758905
0.053118072 0.15204382 0.8787905
0.058056056 0.15087052 0.87910002
0.021983951 0.15617922 0.87906653
0.026627162 0.15722215 0.87771446
0.032513592 0.15882692 0.87563336
0.038527422 0.15710744 0.87707633
0.043062616 0.15668027 0.87843764
0.047907915 0.15607722 0.87941325
0.051549904 0.15552633 0.87999976
0.027569532 0.1613124 0.87941325
0.031581994 0.16234395 0.87892383
0.036511809 0.16159347 0.87849593
0.040588055 0.1609018 0.8795554
0.031854551 0.1653439 0.87997752
0.035135113 0.16533555 0.87993312
0.068943396 0.047596719 0.88205892
0.072441988 0.047006536 0.88125545
0.077895135 0.046719022 0.8809787
0.071288593 0.050791714 0.88054544
-0.0075422646 0.083594516 0.88100004
-0.0067319232 0.087004013 0.88234723
-0.005916365 0.090412326 0.88356531
-0.0038522244 0.092354745 0.88248068
-0.002619555 0.095760696 0.88237447
0.00067330664 0.098371901 0.88125002
0.090938963 0.099869333 0.88000005
-0.00097271288 0.10191002 0.88350004
0.0023170682 0.10493901 0.88133335
0.089319505 0.10480575 0.88021421
0.091094464 0.10331976 0.88150483
0.0023223262 0.10846347 0.88333338
0.088885479 0.10931083 0.88133317
0.092573904 0.10849173 0.88189238
0.084447622 0.11388336 0.88076651
0.08761394 0.11274423 0.88192856
0.091716915 0.11215635 0.88222224
0.0034146477 0.11707079 0.88216043
0.0055983164 0.11956275 0.88036662
0.083224304 0.11818442 0.8822999
0.088084795 0.11571059 0.88430017
0.0056023444 0.12128763 0.88099998
0.07898058 0.12399872 0.88085526
0.082660913 0.1216449 0.88360006
0.0056088092 0.12716903 0.88201678
0.078245029 0.12796128 0.88181657
0.081506349 0.12506019 0.88450015
0.074591756 0.13354409 0.88076645
0.07742776 0.1320924 0.88311994
0.008909571 0.13800429 0.88308907
0.069634847 0.13921985 0.88039976
0.073104158 0.13793002 0.88262385
0.010523605 0.14412206 0.88033319
0.064704098 0.14412206 0.88033307
0.068326481 0.14316989 0.88167137
0.071604691 0.14232829 0.88445008
0.01119959 0.14798968 0.88190669
0.063342214 0.14777479 0.88136244
0.067223005 0.14755441 0.88322675
0.013187423 0.15241687 0.88284004
0.017094346 0.15398455 0.88054436
0.054857247 0.15395929 0.8803997
0.057761364 0.15322189 0.88086647
0.062435523 0.15223797 0.8830778
0.017340893 0.1574399 0.88269168
0.022026092 0.15893453 0.8807444
0.044988457 0.15881221 0.88006645
0.048293229 0.15833849 0.88046646
0.052607331 0.15775581 0.88199997
0.056718986 0.1567498 0.88382226
0.018812208 0.16117865 0.8840667
0.022631435 0.16207738 0.88298339
0.026148416 0.16312921 0.88127494
0.038431849 0.16376071 0.88026643
0.042290222 0.16277552 0.88083869
0.046566006 0.16237508 0.88273752
0.050911307 0.16101152 0.8831501
0.027335918 0.16647139 0.88248003
0.031924743 0.1681729 0.88193327
0.037096217 0.16769111 0.88263327
0.041563403 0.1667591 0.88400668
0.032837532 0.17110068 0.88435018
0.036140911 0.17112325 0.88446683
-0.007587323 0.089039788 0.88626319
-0.0067685191 0.092433102 0.88718355
-0.0059497138 0.095880531 0.88854539
-0.0026311853 0.098217018 0.88725007
-0.00097876822 0.10089073 0.889
0.00067884591 0.10909788 0.88850003
0.002334595 0.11399204 0.88800001
0.0015037353 0.1167989 0.88736582
0.088275798 0.11788473 0.88621664
0.09126547 0.11759984 0.88716513
0.0031608841 0.12059921 0.88799828
0.005635411 0.12365199 0.88619989
0.084078781 0.12273546 0.88553345
0.087269582 0.12248534 0.88798082
0.091054045 0.12075335 0.88913333
0.0056320196 0.12522511 0.88566655
0.082698748 0.12734599 0.8866666
0.085874952 0.12698165 0.88873321
0.079105169 0.13258627 0.88531679
0.082289234 0.13237567 0.88784742
0.085278586 0.1315487 0.88943332
0.0073002451 0.13706787 0.88766646
0.074972883 0.13998942 0.88526684
0.077786863 0.13732944 0.88722646
0.080641374 0.13679838 0.88859987
0.0084092468 0.14211595 0.88826638
0.072769523 0.14327952 0.88524455
0.076879159 0.14210527 0.88819981
0.0089695454 0.14637357 0.88903308
0.068376489 0.14988695 0.88536662
0.072052464 0.14734371 0.88704747
0.075260811 0.14631322 0.88866663
0.010600509 0.1525988 0.88676643
0.061792534 0.15488027 0.88566649
0.067154191 0.15274385 0.88665324
0.071395986 0.15155193 0.8886888
0.012056981 0.15707399 0.88758737
0.015546203 0.15985891 0.88586652
0.056836057 0.15872033 0.88564438
0.062162876 0.15733686 0.88757128
0.066497296 0.1568141 0.88861907
0.0081477966 0.16222763 0.88982034
0.012485709 0.16179979 0.8886041
0.016887836 0.16269174 0.88693315
0.021057328 0.16428642 0.88604432
0.048549023 0.16466616 0.88513345
0.051895853 0.16343592 0.88589996
0.057135358 0.16193531 0.88708311
0.061456304 0.16148266 0.88875556
0.065385185 0.16053256 0.8896001
0.013946071 0.16624677 0.8891834
0.017250415 0.1669618 0.88858515
0.022408938 0.16776857 0.88660938
0.026685592 0.16925794 0.88546669
0.042404063 0.16937242 0.88606656
0.046738334 0.16776143 0.88657129
0.052217368 0.16720164 0.88735211
0.057018559 0.1669423 0.88848144
0.060403317 0.16713957 0.88953334
0.018917182 0.17034659 0.889
0.0220138 0.17211893 0.88854158
0.027347637 0.17302673 0.88684148
0.031846453 0.17359389 0.88627613
0.037276458 0.17359014 0.88625705
0.041812818 0.17284968 0.88729495
0.047285728 0.17211919 0.88854164
0.051533405 0.17147951 0.88915563
0.057075888 0.17041896 0.88937789
0.023064291 0.17615117 0.88908333
0.026959026 0.17736195 0.88863802
0.032124624 0.17747754 0.8874442
0.037090909 0.17747974 0.88745528
0.042332932 0.17715186 0.88891661
0.047116239 0.17535593 0.8892445
0.027548026 0.18099292 0.88930672
0.03242128 0.18146792 0.88908571
0.03715666 0.18110256 0.88903332
0.040474162 0.18028234 0.8890667
-0.0076258369 0.094462723 0.89076197
-0.0069755628 0.098298274 0.8924799
-0.0043000309 0.09935879 0.89009094
-0.0059830858 0.10140478 0.89352942
-0.003477802 0.10126664 0.89231253
0.00068190205 0.10128793 0.89250004
0.00068075594 0.11271787 0.89100003
-0.0016508602 0.1180013 0.8933441
0.00068013888 0.11924125 0.89019233
-0.0018187333 0.12142351 0.89406765
0.0021092468 0.12343246 0.89312488
0.091816083 0.12309311 0.89170015
0.00318453 0.12725922 0.89416683
0.088331141 0.12804255 0.89094186
0.092240155 0.12786216 0.8925758
0.0056761536 0.1328481 0.89260721
0.087500118 0.13280965 0.89234465
0.092011139 0.13186839 0.89440727
0.0040113241 0.1386555 0.89258355
0.0056747664 0.13779488 0.892389
0.083197102 0.13806991 0.89200675
0.085447952 0.13595432 0.89120024
0.0040127314 0.14202736 0.89289653
0.00634073 0.14313048 0.89252681
0.078746513 0.14414616 0.89060009
0.081278972 0.14252111 0.89286691
0.0040197647 0.14643505 0.89446169
0.007062905 0.14781396 0.89274216
0.077487998 0.14769588 0.89202803
0.0085942494 0.15328597 0.89317405
0.073241055 0.1535994 0.89097804
0.076293543 0.15250702 0.89298695
0.0081651332 0.15760949 0.89178801
0.06877549 0.1582166 0.89053351
0.071767278 0.15746649 0.89231449
0.0084334211 0.16185452 0.89080304
0.010653504 0.16413696 0.89120018
0.063273229 0.16354974 0.8910113
0.067399152 0.16274971 0.89154184
0.070700005 0.16213447 0.89386702
0.0090142507 0.16621594 0.89346451
0.012332262 0.16768858 0.89245355
0.063113727 0.16772909 0.892667
0.066799797 0.16737281 0.89372253
0.017311271 0.17253093 0.89173836
0.053272951 0.17339732 0.89051127
0.057219256 0.17333429 0.89160579
0.061073609 0.17241162 0.89326704
0.018595425 0.17743742 0.89347529
0.021617448 0.178019 0.89098024
0.047191754 0.17812318 0.89067245
0.052056413 0.17738691 0.89217514
0.057029177 0.17692867 0.89384699
0.022812011 0.18253353 0.89313835
0.026851278 0.18356661 0.89095849
0.03139798 0.18384469 0.89030027
0.037227955 0.18393415 0.89073348
0.042483654 0.18275957 0.89207107
0.047121461 0.18243955 0.893843
0.050702687 0.1812828 0.89400035
0.027893171 0.18723042 0.89327794
0.032081775 0.18721893 0.89284307
0.037316963 0.18686599 0.89286143
0.04152938 0.18625782 0.89393365
-0.0071125473 0.10278362 0.89588588
-0.0034945351 0.10340954 0.89650005
-0.0060141366 0.10610856 0.89816666
-0.003082704 0.1061472 0.89850008
0.002361543 0.10862416 0.89825004
-0.0021010365 0.11393005 0.89617777
0.00068381213 0.11322576 0.89500004
-0.0033319998 0.11722545 0.89759028
-0.002657538 0.12332759 0.8958171
0.094177082 0.12407227 0.89517915
-0.0028715511 0.12709121 0.89738643
0.00068425783 0.12746054 0.89558339
-0.0018293019 0.13049847 0.89930022
0.0023601896 0.13199158 0.89806962
0.0056922189 0.13488917 0.89513355
0.089197181 0.13493942 0.89546663
0.093443543 0.1333746 0.89614487
0.002636912 0.13771056 0.89724714
0.088000223 0.13782181 0.89687347
0.092798077 0.13615422 0.8979845
0.0020225891 0.14253934 0.8971774
0.084246539 0.14253639 0.89610004
0.086825565 0.14176014 0.89857358
0.0029168632 0.1469477 0.89760476
0.079153247 0.14988646 0.89520019
0.082672581 0.14687431 0.89714301
0.0040440136 0.15066621 0.8998571
0.0065406165 0.15188389 0.89716595
0.079259336 0.15258896 0.89639997
0.081745125 0.15169069 0.89799356
0.0057101804 0.15702848 0.8979581
0.074150108 0.1582244 0.89526671
0.077659793 0.1569005 0.89721912
0.0057067834 0.16110975 0.89742386
0.07356476 0.16206938 0.89626664
0.076723278 0.16171819 0.89802027
0.010700524 0.16819163 0.89513332
0.068316743 0.16907413 0.89540005
0.072426453 0.16649604 0.89753348
0.012814725 0.17190523 0.89713633
0.063608624 0.17274781 0.8957333
0.067835525 0.17234005 0.89691442
0.071057677 0.17214648 0.8983891
0.016159937 0.17731369 0.89705849
0.054113887 0.17987426 0.89526671
0.057466131 0.1793592 0.89546663
0.062804937 0.17712744 0.89716679
0.067126438 0.17654319 0.89808911
0.018235669 0.1817424 0.89626664
0.020715591 0.18316399 0.89506668
0.048265655 0.18485317 0.89518338
0.052470032 0.18301594 0.89569998
0.057789091 0.18232211 0.89677149
0.061408088 0.18170889 0.89815849
0.019100429 0.18702495 0.89761132
0.022174822 0.18721502 0.89623815
0.026568258 0.18906213 0.89539999
0.033235352 0.18982404 0.89506674
0.036600012 0.18995833 0.89569998
0.042856384 0.18784083 0.89553338
0.047474891 0.18752438 0.89601111
0.052782983 0.18720385 0.8974669
0.057318501 0.18618354 0.89838696
0.061032534 0.1856 0.89880025
0.019139558 0.19159001 0.89945018
0.022693578 0.19160791 0.8978526
0.027201232 0.19229852 0.8966192
0.032454342 0.19263972 0.89654446
0.037718337 0.19232933 0.89676195
0.042503498 0.19188172 0.89689648
0.04736349 0.19188015 0.89786696
0.05150336 0.19105953 0.89826697
0.027824868 0.19617958 0.89824688
0.032736067 0.19703707 0.89853358
0.037313394 0.19676395 0.89851457
0.042592406 0.19562435 0.89876699
0.04768065 0.19587103 0.89990032
-0.007746587 0.10605785 0.90486658
-0.0023348152 0.10794197 0.90091544
0.0006899244 0.10751881 0.90300006
-0.00099197996 0.11230878 0.90100002
-0.0043531051 0.11902304 0.90107697
-0.0018342414 0.13335559 0.90164661
-0.0021185472 0.13835512 0.90326172
0.0012481891 0.13632308 0.90094453
0.093141377 0.13917318 0.90131021
-0.0020072237 0.14255187 0.90359098
0.00068890577 0.14426009 0.90166664
0.089304417 0.14285827 0.90075868
0.093221471 0.14264929 0.90208584
-0.0009960169 0.14642292 0.90466666
0.0012499997 0.14772163 0.90232402
0.084697835 0.14916497 0.90090024
0.088135839 0.14761949 0.90169293
0.093293555 0.14779833 0.90278828
0.0040498404 0.15255962 0.90115398
0.0057241083 0.15406382 0.90014815
0.084309354 0.15299238 0.90123367
0.087937966 0.15188481 0.90311992
0.091741569 0.15193325 0.90407777
0.095048979 0.15127057 0.90346664
0.07961306 0.15913168 0.9004004
0.082543351 0.15714622 0.90182239
0.0040555447 0.16116789 0.9024232
0.079235844 0.1629878 0.90088367
0.081487894 0.16287325 0.90256667
0.0090946024 0.16937448 0.90142864
0.073744267 0.16919996 0.90050036
0.077860132 0.1673815 0.90230495
0.011613021 0.17353113 0.90125012
0.073831253 0.17275411 0.90156132
0.077147283 0.17159621 0.90429997
0.013466671 0.17744909 0.90156013
0.069025517 0.17879586 0.90102249
0.072480947 0.17734934 0.90218902
0.013613301 0.18159109 0.90381116
0.016238101 0.18319812 0.90137517
0.063874349 0.18304831 0.90105361
0.067956552 0.18284363 0.90169281
0.072336361 0.1816068 0.90389162
0.017108984 0.18772373 0.90298343
0.05825977 0.18904698 0.90128362
0.062971167 0.18777539 0.90255564
0.067692019 0.18704776 0.90377504
0.018107541 0.19335209 0.90377778
0.02167375 0.19426183 0.90020037
0.04939919 0.19435534 0.90063357
0.053149544 0.19321579 0.90156686
0.057965901 0.19239886 0.90324444
0.061410554 0.19179638 0.90436667
0.019253403 0.19693755 0.90480006
0.022802448 0.1975663 0.90217632
0.0271562 0.19906041 0.90107518
0.030928304 0.1994182 0.90080035
0.038460582 0.19927427 0.90015018
0.042669684 0.19849364 0.90040588
0.047521897 0.19787891 0.90141934
0.052528154 0.19673574 0.90387499
0.027979022 0.20230961 0.90323341
0.032899264 0.20260596 0.90220016
0.037695166 0.20302421 0.90192616
0.042771209 0.20232211 0.90253901
0.047868229 0.20168231 0.90343332
0.051309537 0.20028166 0.90470004
0.032706048 0.20505808 0.90349996
0.038612232 0.20678452 0.90369999
0.041140351 0.20510347 0.90369999
0.0006922165 0.10956135 0.90599996
-0.0026871862 0.11293202 0.90600002
-0.0043789241 0.13237423 0.90642142
-0.0038197478 0.13670273 0.90716702
-0.0026848793 0.14146118 0.90522224
-0.0026909995 0.1468468 0.90728575
0.0023862198 0.15196872 0.9076364
0.087653667 0.1549627 0.90540004
0.092732325 0.15329969 0.90552545
0.004077205 0.15780829 0.90724289
0.083410807 0.15997413 0.90516675
0.087302305 0.15793762 0.90700692
0.09188728 0.156597 0.90789616
0.0023891774 0.16145359 0.90876138
0.083436906 0.16255102 0.90545011
0.086516112 0.16164048 0.9082225
0.09061826 0.16078117 0.90973336
0.0074696029 0.16727884 0.90825915
0.082769521 0.1671178 0.90738356
0.085471854 0.16574869 0.90913337
0.0091735125 0.17253543 0.90925014
0.078528114 0.1730037 0.90726697
0.080677755 0.17181057 0.90765023
0.010834943 0.17704962 0.90637803
0.07497558 0.17850889 0.90523344
0.077319086 0.17693684 0.90796697
0.080455989 0.17605045 0.90993327
0.011522852 0.18264587 0.90738022
0.073343977 0.1837026 0.90593344
0.076016627 0.18234749 0.90757245
0.013022278 0.18714859 0.90746689
0.015897777 0.18875131 0.90590006
0.069112524 0.18873742 0.90583342
0.07262408 0.18739419 0.90748352
0.075248875 0.18591978 0.90853369
0.013572018 0.19269298 0.90859354
0.0159046 0.1922041 0.90628904
0.063548625 0.19231188 0.90679473
0.067174748 0.19267574 0.90737182
0.071280472 0.19207484 0.90833354
0.014271521 0.19636224 0.90993333
0.017327294 0.1974356 0.90708917
0.054194372 0.19830288 0.90591115
0.058198657 0.19739015 0.90687436
0.062387101 0.19746014 0.90875351
0.066866808 0.19632389 0.90975547
0.018906474 0.20237255 0.90841687
0.022458127 0.20257539 0.90648764
0.026017627 0.20378248 0.90530008
0.048543964 0.2032785 0.90555555
0.053380061 0.20282882 0.90762103
0.057471395 0.20202406 0.90875024
0.060889035 0.20127043 0.90916693
0.023739658 0.20756933 0.90860689
0.027756568 0.20753387 0.90697068
0.032556478 0.20780158 0.90603817
0.037439045 0.20855181 0.90590006
0.043150052 0.20754018 0.90607929
0.048081916 0.20764515 0.90745574
0.052423641 0.20639333 0.90938348
0.024430456 0.21139458 0.90906674
0.028019248 0.21277142 0.90862519
0.032861367 0.21278962 0.90780038
0.037926264 0.21270858 0.90745217
0.043044452 0.21290964 0.90831143
0.047047291 0.21200776 0.90927792
0.033775166 0.21659473 0.90960002
-0.0010070265 0.1497429 0.91466671
0.0023963249 0.15430778 0.91148001
0.0023946078 0.1575865 0.91082674
0.092401452 0.15923806 0.91058618
0.0032479349 0.16455312 0.91188014
0.088470854 0.16381401 0.91091108
0.092585713 0.16266601 0.91239339
0.083920687 0.16942246 0.9106999
0.087501138 0.16723159 0.91260839
0.092785418 0.16556792 0.91436368
0.083175153 0.17302369 0.911825
0.085951328 0.17007974 0.91423362
0.0091978973 0.17808084 0.91166669
0.078803636 0.17869116 0.91044992
0.082800031 0.17704193 0.91330683
0.009193413 0.18308026 0.91122228
0.078923881 0.18235667 0.91183931
0.08080221 0.18190889 0.91384935
0.008365389 0.18740457 0.91371369
0.010891493 0.18898946 0.91110861
0.077276677 0.18756688 0.91244286
0.0092235971 0.19048357 0.91421461
0.011465691 0.19280952 0.91181064
0.072882354 0.19398978 0.91071665
0.076205648 0.19197561 0.91322231
0.012612539 0.19697399 0.91277361
0.015973818 0.1998134 0.91023338
0.063518167 0.19985001 0.91039997
0.066936821 0.19822179 0.9106999
0.071772814 0.19698068 0.91280007
0.01658853 0.203251 0.91300011
0.062349923 0.20315149 0.91191661
0.067099676 0.20125215 0.91291672
0.070604555 0.20153867 0.91421688
0.018402258 0.20751813 0.91284007
0.02107162 0.20748247 0.91044998
0.05252758 0.20849684 0.91118324
0.057072159 0.20732094 0.91252929
0.061437707 0.20667529 0.91311675
0.0194364 0.21070315 0.91340011
0.022329213 0.21239758 0.91233343
0.049109176 0.21265268 0.91083324
0.052264679 0.21254253 0.91295719
0.056557979 0.21139002 0.91453362
0.060421716 0.21105692 0.91493374
-0.0027175052 0.14999755 0.91622233
0.00070052827 0.15266408 0.91687882
0.00070054847 0.15693127 0.91690522
0.000700548 0.16204876 0.91690451
0.094726063 0.16029797 0.91664702
0.0058296216 0.16713558 0.91674072
0.089524351 0.16868605 0.91590011
0.093406625 0.16822775 0.9171133
0.0075538228 0.17087351 0.91850013
0.088191316 0.17262021 0.91756654
0.091986567 0.17228067 0.91916662
0.095038079 0.17109057 0.91966665
0.0072044544 0.1779163 0.91781157
0.084528878 0.17918205 0.91730005
0.087840758 0.17725728 0.91869515
0.0068561295 0.18218911 0.91698009
0.08370892 0.18267106 0.91767782
0.086487219 0.18140768 0.91993332
0.006401421 0.18825485 0.91716433
0.079284035 0.18915175 0.91600025
0.081994377 0.18778501 0.91764313
0.0078294557 0.19285525 0.9174037
0.078527465 0.19279794 0.91713333
0.081266478 0.19235674 0.91909993
0.0092722401 0.19661692 0.91903585
0.012667529 0.19866917 0.91666675
0.073598154 0.19882917 0.91610026
0.077460729 0.19688113 0.91867334
0.014380001 0.20211975 0.91685009
0.067281276 0.20435067 0.91538924
0.072799586 0.20296042 0.9168002
0.07619033 0.20022416 0.9199
0.014414243 0.20687447 0.91903323
0.016080577 0.20711532 0.91631681
0.063038178 0.20868935 0.91575027
0.067415312 0.20731889 0.91721672
0.07265383 0.20676737 0.91855985
0.017555738 0.21249679 0.91695243
0.057355732 0.21380027 0.91502035
0.062527835 0.21255167 0.91719055
-0.0017064993 0.15843923 0.92370033
-0.0010161229 0.16225393 0.92292851
-0.0010182812 0.16518021 0.92488873
0.093387201 0.17377648 0.92030001
0.09618324 0.17335369 0.92078
0.0041531119 0.17879778 0.92413324
0.0067174071 0.17655288 0.92138904
0.089091375 0.17975828 0.92025006
0.092686363 0.17750086 0.92185843
0.096633919 0.1776249 0.92399043
0.0041489676 0.18205468 0.9232111
0.087795012 0.18288793 0.92164451
0.092019901 0.18216951 0.92379528
0.09882538 0.18372937 0.92300004
0.005859674 0.18599428 0.92146659
0.084892869 0.1876654 0.9212501
0.087250218 0.18682927 0.92346674
0.090355173 0.18572763 0.92439991
0.0058587422 0.19367795 0.9213199
0.083144628 0.19273692 0.92091674
0.085079752 0.19237272 0.92327791
0.0075737741 0.19702129 0.92092592
0.01102169 0.19896618 0.92199993
0.079706684 0.19786924 0.92088342
0.082268804 0.19704716 0.92264682
0.085201584 0.19608736 0.92459995
0.012179689 0.20260529 0.92295647
0.077809475 0.20242357 0.92212778
0.012757505 0.2078069 0.9231779
0.073637061 0.20883688 0.92015004
0.077313267 0.20778064 0.92305559
0.013609447 0.21284376 0.92267776
0.0024329033 0.168155 0.92548108
0.0037378303 0.17218412 0.92785186
0.0063286703 0.17293918 0.92728138
0.0033032545 0.1786519 0.92783344
0.0067519788 0.17574096 0.92614287
0.095596142 0.1789784 0.92506659
0.0024424738 0.181474 0.92903346
0.094029859 0.18445258 0.92663318
0.096631922 0.18274872 0.92672771
0.0041624494 0.18781529 0.92621112
0.088778183 0.18861976 0.92593318
0.092049964 0.18774574 0.9275732
0.097775444 0.18672886 0.9293834
0.087896578 0.19291823 0.92755336
0.09173198 0.1910989 0.92961693
0.0076276595 0.19849767 0.92784059
0.083516285 0.19962078 0.92503327
0.087247729 0.19723879 0.92800224
0.0087914495 0.20213003 0.92865825
0.011068712 0.20325978 0.92593342
0.081976198 0.20322923 0.92710549
0.08560241 0.20133086 0.92895007
0.0093727726 0.2073894 0.92900008
0.011073757 0.20679943 0.92635542
0.0024461404 0.17395765 0.93042803
0.0030259194 0.17723493 0.93097615
