# .PCD v0.7 - Point Cloud Data file format
VERSION 0.7
FIELDS x y z
SIZE 4 4 4
TYPE F F F
COUNT 1 1 1
WIDTH 1241
HEIGHT 1
VIEWPOINT 0 0 0 1 0 0 0
POINTS 1241
DATA ascii
0.038595475 0.062885605 0.81443363
0.040106181 0.063630253 0.81426698
0.038584411 0.067411751 0.81420022
0.040752131 0.067732617 0.81416214
0.028883485 0.059429638 0.81900018
0.032695662 0.058657005 0.8188557
0.037480455 0.058305867 0.81851441
0.042279843 0.058742754 0.81853348
0.028551992 0.06268663 0.81889534
0.032615528 0.062313132 0.8168593
0.03670327 0.062013593 0.81578106
0.042728651 0.062174916 0.81686056
0.029036229 0.066742413 0.81900012
0.032795738 0.067233518 0.81756002
0.036376983 0.067542702 0.81578344
0.043773156 0.067352101 0.81654817
0.029671345 0.070151165 0.81966674
0.03269323 0.071599558 0.81879061
0.037427701 0.07286045 0.81796682
0.04255195 0.073007353 0.81748343
0.047648534 0.072989121 0.81919271
0.051048078 0.074688904 0.81926686
0.044192173 0.076247007 0.81963348
0.048227113 0.077328615 0.81955248
0.051052228 0.076981217 0.81933349
0.039007768 0.053604808 0.82313329
0.042120632 0.053658351 0.8239556
0.014471031 0.059835974 0.82460016
0.017541464 0.05905113 0.82435578
0.022312902 0.058389712 0.82314998
0.027387476 0.057563499 0.82204229
0.032823998 0.055827364 0.82205552
0.037106771 0.055660237 0.82183981
0.041981202 0.055772156 0.82123309
0.046672896 0.057417117 0.82292664
0.014476881 0.06139471 0.82493347
0.017756635 0.06243255 0.82416207
0.022089787 0.062706657 0.82201469
0.025727067 0.062296428 0.82063979
0.047383428 0.062700838 0.8219443
0.022554424 0.06715484 0.82298094
0.02621357 0.067414269 0.82081884
0.047961317 0.067482129 0.82198316
0.051372074 0.069028296 0.82446676
0.023683988 0.071297854 0.82410008
0.02744627 0.072240241 0.82174987
0.032393713 0.074453011 0.82086647
0.035815205 0.074786171 0.82033318
0.049093377 0.070743516 0.82064432
0.052601289 0.072414398 0.82230204
0.027660925 0.075690962 0.82353336
0.033185165 0.077210948 0.82340002
0.037652232 0.077890106 0.82288331
0.041792367 0.078121446 0.82129985
0.046177026 0.079042092 0.82094979
0.053301994 0.077766374 0.82159996
0.057292093 0.077548906 0.82315767
0.06181898 0.079138599 0.82434684
0.065247744 0.079809144 0.82493347
0.042123642 0.082021795 0.82403344
0.047643922 0.082533225 0.8228727
0.052778177 0.082625285 0.82240736
0.057252429 0.082527332 0.82334173
0.062266443 0.082559079 0.82365847
0.065145798 0.082749188 0.82364446
0.049830403 0.085891686 0.82440019
0.052913453 0.085905574 0.82453346
0.065242477 0.085940309 0.82486689
0.0099115521 0.053995553 0.82913369
0.013315675 0.053387035 0.82926691
0.017638018 0.053209107 0.82890034
0.02195994 0.053347267 0.82865351
0.027202185 0.053632099 0.82829344
0.033427957 0.05350339 0.82749999
0.037675533 0.052353717 0.82759058
0.04235455 0.0516444 0.82854456
0.046727598 0.052806504 0.82779056
0.050156787 0.054038964 0.82980025
0.0085466988 0.057198647 0.82806677
0.012819261 0.057442769 0.82630306
0.017580947 0.056109756 0.82621115
0.021822829 0.05573646 0.8263666
0.026818341 0.055326521 0.8259778
0.049189225 0.056902491 0.82653332
0.050605495 0.0565359 0.82868892
0.0090139825 0.06161477 0.82787621
0.0127774 0.063280731 0.82700831
0.016795376 0.064505443 0.82546669
0.050122537 0.062487565 0.82923353
0.013513203 0.06733229 0.82875568
0.017596103 0.067699499 0.8269555
0.020637592 0.068322361 0.82520008
0.052685175 0.067769296 0.82782853
0.018150123 0.071957402 0.8287558
0.021774085 0.072507478 0.82665718
0.054504588 0.070636161 0.82533342
0.057539664 0.072548427 0.82745844
0.062487334 0.074046038 0.82913357
0.065590486 0.074057952 0.82926691
0.022646766 0.075904049 0.8283667
0.027120328 0.07799302 0.82736677
0.032983363 0.079402924 0.82602233
0.036056794 0.07989943 0.82586676
0.059112806 0.075229794 0.82520008
0.062493611 0.076426864 0.82629508
0.067383789 0.077750988 0.82754451
0.071560875 0.077310689 0.82900023
0.028468423 0.080219761 0.82917792
0.033070251 0.082696728 0.82822973
0.03763089 0.083049245 0.82662952
0.042195875 0.084465005 0.82544452
0.045269046 0.08445362 0.82533354
0.059098482 0.084419511 0.82500011
0.060637113 0.084419511 0.82500017
0.068402283 0.082972243 0.82586664
0.072702564 0.082164295 0.82805192
0.034666993 0.087191314 0.8294667
0.037908267 0.087665193 0.82847518
0.042279705 0.087709993 0.82708138
0.047425076 0.087771334 0.82633936
0.053005155 0.088358857 0.82595545
0.057701271 0.087703884 0.82701474
0.062310696 0.087681063 0.82679999
0.067197211 0.087959416 0.82761675
0.071271829 0.08764296 0.82852405
0.039304733 0.092584513 0.82940024
0.042367544 0.092517406 0.82880032
0.047280297 0.09229935 0.82822007
0.052562263 0.092546754 0.82780606
0.057652038 0.092357486 0.82909179
0.062473074 0.09176261 0.82894462
0.066742405 0.091401465 0.82916677
0.070235923 0.091033831 0.82933348
0.053233687 0.095682494 0.82951123
0.03796019 0.049650315 0.83386678
0.042577937 0.049593423 0.83291119
0.047336955 0.049696624 0.83464432
0.003751344 0.053583596 0.83473307
0.0077095083 0.052843392 0.8326
0.012650338 0.051427927 0.83126664
0.017688625 0.051041853 0.83126658
0.022741444 0.051459745 0.83178335
0.027342319 0.051737927 0.83253324
0.032124151 0.051768899 0.83231431
0.036275066 0.051017281 0.83086663
0.047904763 0.051025465 0.83099997
0.052046016 0.052450486 0.83216667
0.055083539 0.053543214 0.83409989
0.0033573643 0.057781097 0.83368331
0.0056722509 0.056827769 0.83108324
0.052707188 0.057206254 0.83096009
0.055041716 0.056603599 0.83346665
0.0033593872 0.06169207 0.83413315
0.0066159801 0.062770694 0.83154285
0.052012306 0.062432509 0.83195549
0.003752243 0.065245196 0.8349331
0.0075672623 0.067616433 0.83323061
0.011997039 0.069043748 0.8308
0.053890929 0.066022791 0.83168888
0.057488002 0.06813544 0.83232492
0.062437974 0.069407783 0.83363336
0.0093574943 0.072696917 0.83489305
0.013054772 0.072795026 0.83245182
0.016641758 0.073662348 0.83059996
0.059480511 0.071064062 0.83033335
0.062622353 0.071886927 0.83092219
0.067540161 0.072546534 0.83185005
0.071817689 0.073221818 0.83230478
0.075784087 0.073931761 0.83364445
0.0099816816 0.076123245 0.83499974
0.013469649 0.076424837 0.83404982
0.01792245 0.077311844 0.83314157
0.022045527 0.078317866 0.83190668
0.073447227 0.0757282 0.8306666
0.07667046 0.077397473 0.83200747
0.080008388 0.078402981 0.8344667
0.02260044 0.082021289 0.83376658
0.026773348 0.082425646 0.83141911
0.030581901 0.083443291 0.83055544
0.074948281 0.0818564 0.83013338
0.077099562 0.08224798 0.83185709
0.080053128 0.080776572 0.83493334
0.02347002 0.085930996 0.83471084
0.027059104 0.086831301 0.83340734
0.031993959 0.08796332 0.83238667
0.036245961 0.089584619 0.83019996
0.073456064 0.088873193 0.83076656
0.076418221 0.086961247 0.83301479
0.027885955 0.090864852 0.83486646
0.03275397 0.092729352 0.8344906
0.037064832 0.092786767 0.83121109
0.059480514 0.094232745 0.83033335
0.062606774 0.094275616 0.83071107
0.067593932 0.093699567 0.83107996
0.072180554 0.093033105 0.83168334
0.075727008 0.092372239 0.83444989
0.034898266 0.097092271 0.83499974
0.037923787 0.097643048 0.83306676
0.042493645 0.097432479 0.8312667
0.047139771 0.09742187 0.83117783
0.052305061 0.097932801 0.83114076
0.058045045 0.097513318 0.83195561
0.062760778 0.097606823 0.83275545
0.06741558 0.097600542 0.83270377
0.072126359 0.097669862 0.83329636
0.075360596 0.097057223 0.83469981
0.037986211 0.1012952 0.8344332
0.04263179 0.10162697 0.83396667
0.047319654 0.10244977 0.83434796
0.051964074 0.10196029 0.83397132
0.056942351 0.10116342 0.83398658
0.062889695 0.10091095 0.83446646
0.067578025 0.1009405 0.83471084
0.071480289 0.10095529 0.83483309
0.0037735128 0.049995665 0.83966672
0.0069005005 0.049965233 0.83915567
0.012353593 0.049090575 0.83756661
0.017807234 0.049048003 0.83684438
0.022491595 0.049052034 0.83691102
0.027379313 0.04848475 0.83721662
0.032054696 0.048863471 0.83702493
0.037885029 0.04781197 0.83791113
0.042779017 0.047492173 0.83685541
0.047509909 0.047540337 0.83769995
0.051957704 0.048748702 0.83743805
0.055442356 0.049987726 0.83953327
-0.0056045642 0.053728733 0.83700001
-0.0022906912 0.053207684 0.83799207
0.0017533988 0.052707482 0.83668572
0.0060914732 0.051297687 0.83543313
0.056489397 0.052601956 0.83763337
-0.0056201885 0.056221113 0.83933347
-0.0020396027 0.057461374 0.83790481
0.0012618209 0.057237498 0.83593321
0.056421801 0.05798538 0.83663332
-0.0017045926 0.062358964 0.83788657
0.0012617733 0.062512562 0.83577335
0.056869499 0.062326364 0.83745921
0.060886256 0.064004824 0.83903348
-0.0017054947 0.067066371 0.83828992
0.0020033536 0.067112535 0.83643323
0.0053119455 0.069938108 0.83533323
0.058646649 0.065958366 0.83610648
0.06328921 0.066781498 0.83717495
0.067784436 0.068539441 0.83725923
0.071842715 0.068689883 0.83906686
0.077393308 0.068755373 0.83986676
-0.001444026 0.070682056 0.83801121
0.0023450805 0.072277889 0.83787286
0.0064351899 0.073393263 0.83676189
0.072784528 0.070724323 0.83729327
0.077871382 0.072367743 0.83778095
0.081672035 0.074281372 0.8387602
0.085158281 0.074945681 0.83920705
0.0073411027 0.077767573 0.83836204
0.012002108 0.078692131 0.83636189
0.016221179 0.079280391 0.83553332
0.08226233 0.077643737 0.83703333
0.085096702 0.077231795 0.83860004
0.0084734969 0.081253856 0.83986658
0.01266891 0.082296647 0.8377533
0.017795119 0.082465656 0.83630371
0.020894345 0.083936445 0.83546656
0.081902184 0.082363479 0.83790928
0.014734264 0.085913509 0.83959985
0.018355919 0.086806767 0.83816677
0.021954909 0.087652721 0.83632213
0.078521058 0.088570565 0.83519971
0.080426008 0.087393843 0.83882236
0.02304413 0.09147945 0.83812219
0.026929546 0.093127154 0.83624756
0.030252937 0.094068892 0.83573323
0.077848807 0.092582427 0.8363443
0.080391914 0.092036717 0.8384667
0.027624212 0.096748367 0.83875006
0.032176673 0.098278277 0.83715993
0.077636443 0.097733259 0.83764756
0.080430277 0.095201164 0.83886677
0.033449624 0.10130864 0.8377555
0.03755831 0.10348966 0.83648872
0.042691451 0.10409855 0.83513308
0.052055571 0.10413596 0.83543313
0.057902355 0.103577 0.83629519
0.063016802 0.10311534 0.83615226
0.067726351 0.1034968 0.83654433
0.072679974 0.10323541 0.83712381
0.076673858 0.10206385 0.83884013
0.039056245 0.10717724 0.83733332
0.042779095 0.10742665 0.83685178
0.04744659 0.10739277 0.83658516
0.052161738 0.10746392 0.8371408
0.056930367 0.10742727 0.83837515
0.062413629 0.10764316 0.83853346
0.067869253 0.10761471 0.8383112
0.072612755 0.1074969 0.83891684
0.043685347 0.1108586 0.83926678
0.047590863 0.11162186 0.8391335
0.052282926 0.11161604 0.83908892
0.055426944 0.11164427 0.83930004
0.063296176 0.11093786 0.8398667
0.067939319 0.11084685 0.83917791
0.071094103 0.11088502 0.83946675
0.029010156 0.044022311 0.84493321
0.030588388 0.044025782 0.84499985
0.044764735 0.044018831 0.84486663
0.047061332 0.043956317 0.84366679
0.0024130775 0.047270868 0.84332514
0.0069240336 0.046999589 0.84198517
0.012433421 0.046263508 0.84284163
0.017905118 0.046971023 0.84144431
0.022638967 0.046239883 0.84241104
0.026955621 0.045840938 0.8422668
0.03236717 0.046065345 0.84208012
0.037039261 0.045975383 0.84234458
0.043017536 0.045410573 0.84153324
0.047738019 0.045420166 0.84171104
0.05281949 0.046097152 0.84265339
0.056047786 0.047434613 0.84274995
-0.0056390008 0.051709659 0.84214294
-0.0025001788 0.050732598 0.84327775
0.0014275134 0.05011674 0.84169984
0.058409467 0.052534893 0.84280002
-0.0064303218 0.058810517 0.84287578
-0.0040602032 0.058640808 0.84044755
0.058671489 0.057892088 0.84093314
0.061329167 0.058073819 0.84358102
0.074714571 0.058958475 0.84499991
0.077068269 0.059736513 0.84488845
-0.006428611 0.061931029 0.84266675
-0.0040644691 0.062615626 0.84133035
0.062426172 0.062418208 0.84132493
0.067727894 0.062642053 0.84363037
0.073304735 0.063057676 0.84464157
0.077766806 0.062808901 0.8439219
0.081502698 0.063380368 0.84457439
-0.0056413924 0.068186849 0.84250003
-0.004066898 0.067349143 0.84183335
0.068080254 0.065712325 0.84091091
0.073115632 0.066926189 0.84214294
0.077681705 0.066993743 0.84299999
0.081994571 0.067702599 0.84345502
0.085738614 0.069169536 0.84492582
-0.0024951838 0.071980745 0.8410514
0.076634571 0.07034 0.84013331
0.082481064 0.071575202 0.8415429
0.086303294 0.072124638 0.84273934
-0.0009291665 0.075369023 0.84394735
0.0022156739 0.077089168 0.84271115
0.0053522205 0.079080008 0.84166658
0.085289501 0.079751641 0.84050006
0.0037950841 0.080128036 0.84446657
0.007191787 0.083096348 0.84270006
0.010834172 0.084468916 0.84076655
0.082944855 0.084448814 0.84056652
0.08609321 0.083363026 0.84222186
0.0085219229 0.087217852 0.8446666
0.012215692 0.087943256 0.84271526
0.016846826 0.088647984 0.84084433
0.083019428 0.087654568 0.84132212
0.086966604 0.087878034 0.84346282
0.013770611 0.092179202 0.84453326
0.017928723 0.092491016 0.84260017
0.021563264 0.093392275 0.84131104
0.082952768 0.092275985 0.84064454
0.086626239 0.092268132 0.84261101
0.019018795 0.096358091 0.84444445
0.022665506 0.097288422 0.84342229
0.026277661 0.098115511 0.8415556
0.082321934 0.096884251 0.8421945
0.023758063 0.10113152 0.84495544
0.027383421 0.1019927 0.8434
0.032031596 0.10333105 0.8415333
0.035123944 0.10475504 0.84039986
0.078348383 0.10335104 0.84169984
0.080820195 0.10036673 0.84293342
0.028487137 0.10585236 0.84499997
0.031919636 0.10694005 0.8437584
0.036305647 0.10829477 0.84186661
0.057048839 0.10941025 0.84013337
0.072734728 0.10943627 0.84033316
0.077413626 0.10752297 0.84219152
0.033737604 0.11003532 0.84493321
0.038022369 0.11245124 0.84389174
0.042448636 0.11336447 0.84192502
0.047714513 0.11425859 0.84131098
0.052400868 0.11421333 0.84097767
0.057602786 0.11296857 0.84168571
0.062081642 0.11317626 0.84198338
0.067685537 0.11362631 0.8415904
0.073064737 0.11296584 0.84187496
0.076690994 0.11195714 0.84362239
0.038465038 0.11632233 0.84493321
0.042669259 0.11744393 0.84395343
0.047833148 0.11768215 0.84340745
0.052519932 0.11760955 0.84288907
0.05730233 0.11774407 0.8438518
0.062049612 0.1177956 0.84422225
0.06753511 0.11775095 0.84390014
0.072144382 0.11750986 0.84442663
0.043983828 0.12104703 0.84499991
0.047921121 0.12104067 0.84495544
0.05260855 0.12134209 0.8443166
0.056817282 0.12149129 0.84444445
0.063683033 0.12104703 0.84499991
0.066834912 0.12104703 0.84499991
0.054481991 0.038704645 0.84896684
0.056697525 0.038230333 0.84894246
0.062330436 0.03866332 0.84805173
0.065402783 0.038609032 0.84686214
-0.005671524 0.044129986 0.84700006
-0.0025196471 0.044247381 0.84925342
0.0022264824 0.043357193 0.84731108
0.0067374087 0.042989288 0.84673339
0.012499357 0.043353051 0.84722519
0.018058557 0.043583453 0.84864032
0.022797266 0.043407518 0.84830022
0.027190244 0.04319004 0.84713346
0.032575876 0.043209914 0.84752017
0.036973204 0.04333334 0.84685564
0.042520039 0.042958092 0.84722513
0.04806063 0.042311113 0.84740967
0.052774236 0.042551443 0.84697938
0.057563238 0.042587772 0.84768909
0.062291291 0.042579737 0.84751117
0.066573702 0.042800162 0.84740341
-0.0060621602 0.047645744 0.84650004
-0.0025144194 0.047294687 0.84726691
0.00064576307 0.045608453 0.84519988
0.017986452 0.045612048 0.84526658
0.058395397 0.04691096 0.84601325
0.062264964 0.047289457 0.8471483
0.067100406 0.047357604 0.84835356
-0.0067329481 0.051012713 0.84791678
-0.0040894425 0.050402544 0.8465001
0.058955219 0.050313234 0.84499997
0.062271655 0.052021082 0.84722239
0.067483559 0.052774884 0.84920013
0.063126586 0.056351472 0.84598666
0.066974543 0.057504509 0.84676689
0.071784519 0.057807002 0.84593141
0.076290503 0.058172539 0.84500021
0.071568385 0.061321098 0.84506649
0.083578959 0.064611599 0.84698725
-0.0056581325 0.066031851 0.84500009
0.084325895 0.066941194 0.84656316
0.086697586 0.067730732 0.84660047
-0.0032959306 0.073141217 0.84541667
-0.0017251894 0.077303126 0.84794503
0.00064718939 0.078799009 0.84706676
-0.00093472929 0.080558173 0.84900004
0.0022259213 0.081959657 0.84715873
0.0053746896 0.083342083 0.84519988
0.0034195352 0.086487636 0.84906685
0.0065150047 0.087816186 0.84719056
0.088898003 0.088037945 0.84500003
0.0081639877 0.092736408 0.84843355
0.011169587 0.09343379 0.84641117
0.013116024 0.097411759 0.84753358
0.017477239 0.0981187 0.84607774
0.08349707 0.099177718 0.84616661
0.086703382 0.097660489 0.84665084
0.014901565 0.10110496 0.84913367
0.018267695 0.1020873 0.84791452
0.022218922 0.10287566 0.8463667
0.083003342 0.10264437 0.84716672
0.086810656 0.10251123 0.84770054
0.019661756 0.10589354 0.84953368
0.022984838 0.107077 0.84795028
0.026950466 0.10758302 0.84624439
0.079454936 0.10848925 0.84513319
0.082884938 0.10727727 0.84797794
0.086724304 0.10701384 0.84839475
0.023881687 0.11113801 0.84935588
0.027737508 0.11184132 0.84819186
0.032034591 0.11204968 0.8467834
0.036147721 0.11411245 0.84603333
0.078628145 0.11274524 0.84639996
0.083160751 0.11191789 0.84877515
0.086513221 0.1120998 0.8486585
0.032844711 0.11635771 0.84901136
0.036747906 0.11749122 0.8468858
0.040862106 0.11956472 0.84563327
0.074407265 0.11843465 0.84598327
0.077307902 0.11746609 0.84751129
0.037584014 0.12185121 0.84877807
0.042167973 0.12315635 0.8465268
0.047982704 0.12355813 0.84604436
0.052695274 0.12366576 0.84570676
0.057718858 0.12330702 0.84612226
0.061973669 0.12294233 0.84586668
0.067303598 0.12295333 0.84594166
0.0722505 0.12289451 0.84689647
0.076278068 0.12244626 0.84925014
0.042587627 0.12630093 0.84861684
0.047738902 0.12750205 0.84872532
0.052863814 0.12785 0.84841132
0.057397913 0.127427 0.84860027
0.062320158 0.12698351 0.84790021
0.06710048 0.12784165 0.84835583
0.071896158 0.12792797 0.84893364
0.052351635 0.034920551 0.85296154
0.0030400697 0.039713375 0.85366666
0.0070207403 0.039704189 0.85346937
0.013396899 0.039736118 0.85415572
0.018186875 0.039761443 0.85470021
0.022959521 0.039744906 0.85434455
0.027734593 0.03973715 0.85417777
0.032514554 0.039738186 0.85420012
0.037288904 0.039733019 0.85408896
0.04203229 0.039700452 0.85338897
0.047555216 0.03886579 0.85251665
0.052592713 0.037794817 0.85134888
0.059347093 0.038780414 0.85061681
-0.0019951407 0.043293614 0.85122198
0.002236251 0.041197646 0.8515231
0.0077878898 0.041151382 0.85056663
0.012547988 0.041152995 0.85059994
0.018126002 0.041607451 0.85181659
0.022874648 0.041180946 0.85117769
0.02762571 0.041164283 0.85083324
0.032392405 0.041171808 0.85098881
0.037150145 0.041168045 0.85091096
0.041898962 0.041156217 0.85066658
0.049819827 0.041146539 0.85046673
0.066867545 0.051427171 0.85042489
0.07055103 0.052302238 0.85181254
-0.0041208444 0.074590735 0.85300004
-0.0033259916 0.077735595 0.85272217
-0.0057217441 0.084259115 0.85450006
-0.0022623388 0.082909383 0.85151786
0.00064943038 0.083815396 0.85000008
-0.00200232 0.087123543 0.85401011
0.0012846955 0.087410219 0.85112876
-0.004128091 0.09379632 0.85450006
0.0022409779 0.092035607 0.85290366
0.0058081849 0.092223629 0.85098326
0.0030409079 0.096902519 0.85385561
0.0070033483 0.097454146 0.85173988
0.010697062 0.09917257 0.85062218
0.0030430525 0.10094452 0.85445845
0.0067942357 0.10212556 0.85389054
0.012352437 0.10319576 0.85215759
0.017311469 0.10447285 0.8508333
0.014590662 0.10765565 0.85410839
0.017929394 0.10798144 0.85197496
0.021272827 0.10919104 0.8506
0.089105703 0.10884183 0.852
0.018697586 0.11224427 0.8537612
0.022353509 0.11300325 0.85149986
0.026044196 0.11399148 0.85099989
0.08158081 0.11397361 0.85086668
0.08880765 0.11210197 0.85168749
0.023395171 0.11729508 0.85364294
0.027656503 0.11727007 0.85180736
0.031320408 0.11816029 0.85062224
0.082023457 0.11689465 0.85340846
0.087448396 0.1159717 0.85392499
0.024547126 0.1207666 0.85413343
0.028048277 0.12138806 0.85403335
0.032443587 0.12210441 0.85237402
0.036074188 0.12288813 0.85048884
0.077891625 0.12296381 0.8510111
0.032727245 0.12662406 0.8538335
0.037006959 0.12703325 0.85219586
0.042242017 0.12890026 0.85118657
0.047171172 0.12972678 0.8503778
0.058598328 0.1298624 0.8512665
0.06249392 0.12970984 0.8502667
0.076942354 0.12736242 0.85220373
0.080316715 0.12873593 0.8543002
0.038091607 0.13031492 0.85423338
0.042377032 0.13217036 0.85390007
0.047626749 0.13265106 0.8522222
0.053115118 0.13241984 0.85243338
0.057966612 0.13244687 0.85363352
0.062759332 0.13264342 0.85387784
0.067457087 0.13248719 0.85286665
0.072215162 0.13246132 0.85269994
0.077111959 0.13161908 0.85410005
0.080351196 0.13038103 0.85466683
0.043662768 0.1350662 0.85413343
0.046849664 0.1370554 0.85415006
0.052159667 0.13612805 0.85414821
0.056429625 0.1359164 0.8544836
0.0635674 0.13505039 0.85403335
0.067548513 0.13504863 0.85402226
0.072342061 0.13507675 0.85420007
0.04312183 0.033578977 0.85923338
0.046185404 0.033476174 0.85660267
0.0078525143 0.039085295 0.8573519
0.011858685 0.038320929 0.85808003
0.017533517 0.03775965 0.85741496
0.023032995 0.037479006 0.85706681
0.027833553 0.037485581 0.85722238
0.032621894 0.037477043 0.85702246
0.037665557 0.037154041 0.85746676
0.042227458 0.036693361 0.8573482
0.046944365 0.035836343 0.85588694
0.050097104 0.03580752 0.85520017
-0.0057317885 0.073260747 0.85600007
-0.010545722 0.076624013 0.85800004
-0.0070792218 0.076099597 0.85808343
-0.0041334052 0.07879705 0.8556
-0.0041363444 0.082037993 0.85620832
-0.0036109395 0.08827538 0.85749573
-0.0017412292 0.092370719 0.85601455
-0.0017432845 0.097265221 0.85705155
0.0006536438 0.097090721 0.85551471
-0.00094330107 0.10121946 0.85678577
0.0016119009 0.10260351 0.85635787
0.0038629447 0.10634504 0.85956681
0.0072523556 0.10670488 0.85763335
0.011829101 0.10829595 0.85602874
0.0086651891 0.11025224 0.85886669
0.011860915 0.1120499 0.85835558
0.016097408 0.11368144 0.85661125
0.018074719 0.11774482 0.85783714
0.021411214 0.11866072 0.85613364
0.082842141 0.11939632 0.85570025
0.08698412 0.11880986 0.85720015
0.019896282 0.12154896 0.85966676
0.023045892 0.12285051 0.85758108
0.027396875 0.12382926 0.85608363
0.082215153 0.12283301 0.85746312
0.024658259 0.12689959 0.85799992
0.02783126 0.12757617 0.85717785
0.031793062 0.12902725 0.8562336
0.082458869 0.12748551 0.8579188
0.027897393 0.13107599 0.85922235
0.032886807 0.13202973 0.85799062
0.037177034 0.13275227 0.85677159
0.040533673 0.13286969 0.85533369
0.058085483 0.13367529 0.85540032
0.078024313 0.13367009 0.85536689
0.081760846 0.13191445 0.85689187
0.03433653 0.13598342 0.8599335
0.038018413 0.13683625 0.85858893
0.041989632 0.13724589 0.85657519
0.045333426 0.13848132 0.85560024
0.053313833 0.13848491 0.85562247
0.058574609 0.1371633 0.85588598
0.062682681 0.13739823 0.85593367
0.067674167 0.1376877 0.85561138
0.072491474 0.13774464 0.85596699
0.077239797 0.13703114 0.85772097
0.080643699 0.13564256 0.85777771
0.03914487 0.14077145 0.8598668
0.042304575 0.14221467 0.85891855
0.046993624 0.14206207 0.85679173
0.052099835 0.14168189 0.85666007
0.057682112 0.14221011 0.8580122
0.063046053 0.14202783 0.85778522
0.067854241 0.14204407 0.85788161
0.072539575 0.1420124 0.85890001
0.043955859 0.14556995 0.85986686
0.04752671 0.14585693 0.85920012
0.051935285 0.14626046 0.85922235
0.056209862 0.14599787 0.85924441
0.064808473 0.14558123 0.8599335
0.032426599 0.028491598 0.8624723
0.018388042 0.033770476 0.86413354
0.022418583 0.033772752 0.86419177
0.028348133 0.033088744 0.86314678
0.032850701 0.032121528 0.8630439
0.037613466 0.032867104 0.8615334
0.041973177 0.032421216 0.86032093
0.007419344 0.03725598 0.86297971
0.011593767 0.035941444 0.86224669
0.017538486 0.035292983 0.86205846
0.023157304 0.035278309 0.86170006
0.027952278 0.035244193 0.86086684
0.032747809 0.035222352 0.8603335
0.036749296 0.0352128 0.86010015
-0.00789712 0.077869132 0.85999995
-0.0071717636 0.081521019 0.86125004
-0.0041643237 0.093016095 0.86200005
-0.0041546617 0.097599573 0.86000001
0.0018054082 0.10764926 0.86177713
0.0054688021 0.10879795 0.86000019
0.0033416783 0.11131498 0.86297339
0.0068837916 0.1124009 0.86155003
0.010280537 0.11359721 0.86000019
0.0080655273 0.11692359 0.86329347
0.011900001 0.11695942 0.86119258
0.015894223 0.11919641 0.86000019
0.012470392 0.12156934 0.86359459
0.016925938 0.12241999 0.86157507
0.021507917 0.12479562 0.86000019
0.087125458 0.12248632 0.86175996
0.01881717 0.12656815 0.86273336
0.022674305 0.12834501 0.86080962
0.086649984 0.127464 0.8618235
0.022870395 0.13165933 0.86304677
0.027977178 0.13385512 0.86167783
0.031935811 0.1344046 0.86006677
0.082456522 0.13439418 0.86000001
0.085690334 0.13123444 0.86026078
0.029000718 0.13782161 0.8634268
0.032600991 0.1380762 0.86175829
0.036491677 0.13871418 0.86033344
0.079544879 0.1397137 0.86321443
0.08273714 0.13698725 0.86290646
0.033058677 0.14272819 0.86323345
0.037392993 0.1427744 0.86109167
0.074436933 0.14399284 0.86000025
0.077391014 0.14253843 0.86226016
0.034500249 0.14627539 0.86403352
0.037994593 0.14672479 0.86289346
0.042248122 0.14771003 0.86184591
0.046918988 0.14837302 0.86127996
0.052013144 0.14888051 0.8605113
0.057151314 0.14795686 0.86134434
0.062307134 0.14761899 0.86163634
0.068133332 0.14743556 0.86141479
0.072960399 0.14745051 0.86150384
0.077106647 0.14769685 0.86294454
0.044170558 0.15190724 0.86406684
0.047346529 0.15256152 0.86321861
0.052149832 0.15248261 0.86277032
0.057017099 0.15178394 0.86336678
0.061898518 0.15191077 0.86408907
0.067611016 0.15214005 0.86386681
0.072939329 0.15243475 0.86363763
0.076925792 0.15161543 0.86393356
0.051457036 0.15603021 0.86465025
0.024175748 0.029125661 0.86943328
0.028174276 0.029069645 0.86776119
0.0038992343 0.033101004 0.86764169
0.0073278514 0.032454491 0.86653197
0.011987946 0.032283492 0.86739266
0.016852193 0.032576527 0.86803883
0.022514131 0.03149502 0.86789173
0.027740773 0.031055233 0.8668614
0.0033623606 0.036090165 0.86838889
0.0060516042 0.036031876 0.86697787
-0.00095699338 0.10673079 0.86922222
-0.00095748267 0.11002085 0.86966664
0.0022776499 0.11290157 0.86695486
0.0039024926 0.11712605 0.86836666
0.0059139561 0.11809166 0.86655843
0.0081152972 0.12249161 0.86861324
0.010900361 0.12362985 0.8667779
0.012206741 0.12747748 0.86873335
0.015848536 0.12764521 0.86630678
0.013634743 0.13100138 0.86933339
0.017088277 0.13200346 0.8683238
0.021280335 0.13348784 0.86710006
0.023004483 0.13711736 0.86812001
0.026519071 0.13783097 0.86651677
0.083319433 0.13741714 0.86900002
0.024435351 0.14119622 0.86904436
0.027972752 0.14227165 0.86779583
0.079792053 0.14336932 0.8658967
0.081496738 0.14191669 0.86685139
0.029434608 0.14672942 0.86909992
0.03246659 0.14733653 0.86712235
0.03779681 0.14897352 0.86570019
0.079818487 0.14744478 0.86618346
0.08170107 0.14712082 0.86902475
0.029857075 0.150453 0.86959994
0.033316012 0.15153606 0.86918098
0.037718084 0.15209189 0.86856246
0.042406499 0.1531332 0.86646122
0.057212215 0.15472044 0.86632246
0.061998188 0.15456969 0.86547786
0.066055283 0.15462126 0.86576676
0.072470874 0.15452898 0.86525011
0.078726195 0.15358995 0.8660056
0.081754759 0.15287858 0.869596
0.0389199 0.15652315 0.86917323
0.042523358 0.15710664 0.86805719
0.047520105 0.15714766 0.86637235
0.052813672 0.1576761 0.86706674
0.057351887 0.15752321 0.86844438
0.062191367 0.15747505 0.86817789
0.066970654 0.15729229 0.8671723
0.072578259 0.15717797 0.8665418
0.077900931 0.15699373 0.86641341
0.081253998 0.15714222 0.86857498
0.043132603 0.16071948 0.86913329
0.04766795 0.16086899 0.86906666
0.052545119 0.16091441 0.86931109
0.056606267 0.16012809 0.8694334
0.067132741 0.16009741 0.86926669
0.072007693 0.16012193 0.86940002
0.076041102 0.16007897 0.86916661
0.016914845 0.029187819 0.87128901
0.021770313 0.028621068 0.87048906
0.025008876 0.027532596 0.87020004
0.0022872721 0.033999749 0.87
0.016085014 0.030774795 0.87033343
-0.0029889885 0.10733336 0.8708334
-0.0025864558 0.11192032 0.87186062
0.0014760855 0.11411369 0.87003583
-0.00096288533 0.11633605 0.87457389
0.0013168429 0.11716759 0.8722828
0.0033832241 0.12083783 0.87379456
0.0060835369 0.12322673 0.87153357
0.0081430031 0.12777802 0.87161332
0.010408847 0.12959255 0.87073356
0.0082689496 0.13161753 0.87342209
0.012044186 0.13296612 0.87160957
0.016091818 0.13444659 0.87070024
0.012616123 0.13734907 0.87371105
0.016915424 0.13778554 0.87132615
0.020153187 0.13850665 0.87076688
0.013717343 0.14155655 0.87459987
0.017154461 0.1427467 0.87316656
0.021584703 0.14283125 0.87120849
0.025018452 0.14413708 0.87053353
0.083651818 0.14283471 0.87246662
0.08551845 0.14160778 0.87491673
0.018615019 0.14647084 0.87479997
0.022382086 0.14729749 0.87326652
0.026465099 0.14772856 0.87141681
0.083734266 0.14784865 0.8733263
0.027890546 0.15226279 0.87335235
0.032326866 0.15386501 0.87060022
0.08311189 0.15203498 0.87248087
0.032869361 0.15721639 0.87212002
0.0367941 0.15751809 0.87065017
0.08363267 0.15740372 0.87226701
0.034089103 0.1609998 0.87416661
0.03808656 0.16229486 0.87237775
0.042492829 0.16324583 0.87096691
0.047754616 0.16359024 0.87064463
0.052635059 0.16361946 0.8708002
0.05774587 0.16248047 0.87089539
0.062394969 0.16204143 0.87102246
0.067253105 0.16281389 0.87082243
0.072134793 0.16283467 0.87093353
0.07727664 0.16256441 0.87134296
0.081259824 0.16240717 0.87298316
0.043346349 0.16639088 0.87343991
0.047871545 0.16724163 0.87278515
0.05274057 0.16719601 0.8725481
0.057637054 0.16723537 0.87275547
0.062560491 0.16734537 0.8733331
0.067430213 0.16730244 0.87311095
0.072335199 0.16734971 0.87335545
0.076677077 0.16680367 0.87333322
0.080578722 0.16592877 0.8744334
0.04880365 0.17089984 0.87489998
0.052875932 0.17087813 0.87478882
0.056911748 0.17075005 0.87413335
0.062660851 0.17086728 0.87473339
0.06673184 0.17084773 0.87463331
-0.0042295419 0.11401603 0.87550002
-0.0021898299 0.11773187 0.87587923
-0.00096699846 0.12255231 0.87830979
0.0017591926 0.12285516 0.87658888
0.0034046236 0.1264974 0.87923831
0.0055865161 0.12748344 0.87851113
0.0072151269 0.13302222 0.87731659
0.0076932074 0.13732018 0.87871891
0.010470802 0.13769686 0.87591678
0.0088696647 0.14147295 0.87913334
0.011651115 0.14218295 0.87702876
0.01536252 0.14494286 0.87540001
0.085540965 0.14408696 0.87514699
0.012614432 0.14693649 0.8789714
0.01670316 0.14785874 0.87724018
0.021072365 0.1489827 0.87521678
0.086729929 0.14720932 0.87726098
0.013800997 0.15060398 0.87993306
0.017270733 0.15188543 0.87905413
0.021718588 0.15233694 0.8777858
0.026819505 0.15407389 0.87640011
0.018725671 0.15552633 0.87999976
0.022228694 0.15660265 0.87947613
0.026667627 0.15702572 0.87808353
0.030081956 0.15892118 0.87615013
0.027570736 0.16131969 0.8794533
0.03223059 0.1630162 0.87751913
0.03504993 0.16493472 0.87780017
0.084181644 0.16252241 0.87799257
0.032167472 0.16657479 0.87955987
0.037727132 0.16805047 0.87778801
0.042748515 0.1691168 0.87620014
0.07851427 0.16887571 0.87565565
0.082179822 0.16816027 0.87758672
0.037584204 0.17210156 0.87965536
0.042931922 0.17319736 0.87829685
0.047854926 0.17335773 0.87674296
0.052961513 0.17359932 0.87620014
0.058064755 0.17315391 0.8757143
0.062866814 0.17387877 0.87761134
0.067760482 0.17329226 0.87739462
0.072675996 0.17303589 0.87747043
0.0774187 0.17291328 0.87788755
0.082680792 0.17151503 0.87944418
0.085832857 0.17479835 0.87813336
0.037599601 0.17516993 0.87999976
0.042516682 0.17718932 0.87986636
0.048190761 0.17734319 0.87860012
0.053095352 0.17730503 0.87841111
0.058008645 0.17730175 0.87839442
0.063431531 0.17716926 0.87976646
0.068180151 0.17723273 0.87979031
0.072870784 0.17758967 0.87982202
0.077381223 0.17676693 0.87979978
0.082709707 0.17512126 0.87975532
0.085948989 0.17667055 0.8793214
0.043343827 0.18008088 0.87999976
0.048267469 0.18008088 0.87999982
0.053183172 0.18005359 0.87986642
0.056469243 0.18006724 0.87993306
0.067141399 0.18008088 0.87999976
0.07288564 0.18008088 0.87999982
-0.0042512817 0.11705751 0.88000005
-0.0026112569 0.12202422 0.88040006
-0.0020724854 0.1260187 0.88353342
0.0019892047 0.12824617 0.88151187
0.003560296 0.13279846 0.88399178
0.0056024138 0.1327614 0.88101083
0.0039655021 0.13789301 0.88238734
0.0055976794 0.13756129 0.88026637
0.00397461 0.14149971 0.8844139
0.0067839804 0.14300762 0.88211429
0.0076766768 0.14668761 0.88345438
0.010528386 0.14828402 0.88073325
0.012468007 0.15267579 0.88244456
0.015454952 0.15400593 0.88066655
0.013855364 0.1561272 0.88340008
0.017127853 0.15756924 0.88226658
0.021212675 0.15899268 0.8810665
0.08611308 0.15734185 0.88100004
0.022479095 0.16128294 0.88238335
0.026156653 0.16318177 0.88155818
0.086471468 0.16128801 0.88466668
0.027571686 0.16701031 0.8830111
0.030802367 0.16830377 0.88118869
0.084386908 0.16619188 0.88013321
0.086852632 0.16863883 0.88294441
0.032513078 0.17194319 0.88303894
0.035181701 0.17293125 0.88109982
0.083559841 0.17354611 0.88006645
0.086970977 0.17216134 0.88136095
0.037298415 0.17733188 0.8826167
0.040131219 0.17875476 0.88153332
0.062222481 0.17845742 0.88006634
0.078987218 0.17808743 0.88093323
0.082887985 0.17795922 0.88164997
0.087224603 0.17704119 0.8811639
0.04219158 0.18186189 0.88168746
0.047476899 0.18265255 0.88055813
0.053243339 0.18271445 0.88085538
0.05839533 0.18216066 0.88114583
0.063144088 0.18202491 0.88148141
0.068290733 0.18243882 0.88121891
0.072997078 0.18281578 0.88134438
0.078004584 0.18217248 0.88219619
0.082684278 0.18128154 0.88385838
0.086326659 0.18073262 0.88318521
0.043513771 0.18653992 0.88345009
0.047030248 0.18683627 0.8831858
0.051736716 0.18648326 0.88318342
0.05782913 0.18583493 0.88401121
0.06406869 0.18560141 0.88290012
0.067685865 0.18646184 0.8825286
0.073137932 0.18645406 0.88304454
0.077034079 0.18630886 0.88365573
-0.0042754365 0.12183829 0.88500005
-0.0026337879 0.12874262 0.88720006
-0.0015307333 0.13166636 0.88836402
0.0010902181 0.13232251 0.88629913
-0.00097846787 0.13557707 0.88872725
0.0015027017 0.13689926 0.88658172
-0.00097656634 0.14356351 0.88700002
0.0023293663 0.14256522 0.88666004
0.002607869 0.14687297 0.88705206
0.0064597987 0.14834325 0.88598323
0.0034428157 0.15107565 0.88913089
0.0072994358 0.15193404 0.88769984
0.010580985 0.15314046 0.88513309
0.0081396252 0.15710856 0.8889491
0.012012018 0.15759799 0.88639033
0.015532171 0.15971452 0.88506687
0.012605737 0.1616116 0.88825321
0.017212655 0.16247611 0.88665551
0.022148605 0.1639356 0.88563335
0.086542666 0.16389117 0.88539517
0.013944241 0.16539784 0.88906664
0.017459357 0.16677031 0.88866663
0.022182684 0.1674903 0.88700807
0.026014023 0.16922684 0.88602209
0.088347569 0.16730949 0.88693702
0.018920021 0.17037216 0.88913333
0.022019822 0.17216371 0.88877499
0.027347993 0.17302991 0.88685811
0.030983977 0.17424123 0.88637763
0.089834757 0.17292984 0.88529211
0.091722623 0.17255183 0.88758337
0.023066053 0.17616445 0.88914996
0.026958521 0.17736004 0.88862848
0.032331549 0.17767164 0.88664734
0.035931006 0.17912711 0.88607764
0.028315941 0.18084264 0.8891111
0.032168612 0.18185446 0.88866663
0.037301879 0.18266882 0.88688552
0.040292077 0.18441048 0.88506681
0.083338521 0.18387291 0.88644159
0.086615257 0.18298522 0.88613784
0.033853117 0.18613392 0.88936669
0.037133459 0.1865031 0.88849992
0.041736003 0.18801254 0.886522
0.046098672 0.18947083 0.88563323
0.051856756 0.18938525 0.8852334
0.056871321 0.18841444 0.88619512
0.061818805 0.18818493 0.88603878
0.066732116 0.1894352 0.88546675
0.071730562 0.18954931 0.88599998
0.077713303 0.18864636 0.88639987
0.082172155 0.18769032 0.88811988
0.086653747 0.18640128 0.88895005
0.042123601 0.19209783 0.88889438
0.047256477 0.19268744 0.88743788
0.051974524 0.1922915 0.88724416
0.056995898 0.19248448 0.88813329
0.062011857 0.19207777 0.88880008
0.066974387 0.19260234 0.88867766
0.071960688 0.19263829 0.88884431
0.076953903 0.19268884 0.88907772
0.08152853 0.19065456 0.88923329
0.043821603 0.19613366 0.88970006
0.047107756 0.19682531 0.88908577
0.052066792 0.19594014 0.88882214
0.056737565 0.19587556 0.88928002
0.060413495 0.19612989 0.88968354
0.06869825 0.19526933 0.88953328
0.070362553 0.19528396 0.88959998
-0.0026440807 0.13433665 0.89146668
-0.0015372756 0.13782041 0.89254171
-0.0015348789 0.14144853 0.89100003
0.00067999196 0.1423935 0.89000005
0.0031704679 0.15319721 0.89024806
0.004006777 0.15591288 0.89157152
0.0056669004 0.15749873 0.89115208
0.008166207 0.16177855 0.89190012
0.011215803 0.16370986 0.89187795
0.013448849 0.16776995 0.89288908
0.015626933 0.16897115 0.89046687
0.017584749 0.17249195 0.89153904
0.018345522 0.1775244 0.89349365
0.021624099 0.17807145 0.89124024
0.022904022 0.1823165 0.89362806
0.026720701 0.18292944 0.89121693
0.030559789 0.1837965 0.8900668
0.027677011 0.18683165 0.89349365
0.031818874 0.18778422 0.8921479
0.036394536 0.18889438 0.89068353
0.087917358 0.18895257 0.89095783
0.033190615 0.19123229 0.89386702
0.037975848 0.19198105 0.89270031
0.040624395 0.19423133 0.89236695
0.062127426 0.19381784 0.89046687
0.082522564 0.19346817 0.89190692
0.087225907 0.1925779 0.8923862
0.090718396 0.1912608 0.89399999
0.042269599 0.19746697 0.89198697
0.045516688 0.19877216 0.89040017
0.052166972 0.19880192 0.89053363
0.057591803 0.19848096 0.8909502
0.062681429 0.19761933 0.89160025
0.066924967 0.19740647 0.8907752
0.072302073 0.19734563 0.89050019
0.07711453 0.19723412 0.89093357
0.081270963 0.19764176 0.89277351
0.087442391 0.1980457 0.89460015
0.043455083 0.20169067 0.89354473
0.047066897 0.20216107 0.8928194
0.052330423 0.20191921 0.89332801
0.057341021 0.20196056 0.89351135
0.062123578 0.20238662 0.89381927
0.067302547 0.20185275 0.89303368
0.072274648 0.20178252 0.89272255
0.07729423 0.20184632 0.89300585
0.080717474 0.20207819 0.89403355
-0.0026575264 0.14001998 0.89600003
0.00068565476 0.15192612 0.8974117
0.0040341686 0.15864861 0.89766663
0.0040332153 0.16111341 0.89745426
0.0057104165 0.16288301 0.89799511
0.0090618599 0.16625912 0.89818352
0.011271748 0.16786778 0.89636678
0.012678892 0.17195004 0.89736682
0.01570707 0.17316762 0.89503342
0.014099512 0.17727411 0.89896685
0.015742756 0.17689924 0.89706677
0.017746806 0.18154848 0.89696008
0.021556547 0.18405125 0.89533341
0.019109651 0.18711556 0.89804465
0.022182822 0.18728076 0.8965525
0.027413232 0.18913233 0.89573324
0.02270407 0.19169548 0.89826214
0.027238041 0.19207835 0.8968417
0.032033432 0.1930396 0.89646673
0.036607999 0.19333392 0.89589995
0.027926415 0.19605532 0.89882523
0.032514744 0.19634147 0.89822245
0.037273966 0.19708909 0.89687097
0.040750351 0.19816379 0.89513332
0.083667956 0.19777089 0.89586669
0.087623514 0.19745469 0.89644682
0.038536943 0.20181164 0.89802694
0.041793536 0.20269795 0.89604008
0.048255622 0.20479374 0.89500022
0.053300954 0.20493861 0.89563334
0.05665423 0.20498435 0.89583325
0.064165436 0.20496148 0.89573324
0.067492664 0.20492083 0.89555568
0.072512887 0.20494623 0.89566678
0.077495553 0.20486999 0.89533335
0.083226047 0.20276928 0.89709455
0.086634912 0.20097469 0.89776677
0.039248284 0.20570138 0.89896685
0.042534921 0.20705542 0.89758587
0.047484513 0.20756917 0.8962
0.052270602 0.2072541 0.89638096
0.057773959 0.20729157 0.89654297
0.062612548 0.20749208 0.89740974
0.067636855 0.20786281 0.8974669
0.072630636 0.20778322 0.89712238
0.077613644 0.20768553 0.89670008
0.082035996 0.20737132 0.89750683
0.044266544 0.21149997 0.89873356
0.047581937 0.21133602 0.89803916
0.052835032 0.21203871 0.89835858
0.057418384 0.2117919 0.89845264
0.062052108 0.21172805 0.89899349
0.067727357 0.2106479 0.89866686
0.072754793 0.21131551 0.89866018
0.077772461 0.21145411 0.89853907
0.081153885 0.21153155 0.89886689
0.0023681414 0.1575197 0.90076017
0.0032129441 0.16276935 0.90199006
0.0079775294 0.16778636 0.90190738
0.0091095576 0.17301367 0.90291113
0.010767862 0.17343943 0.90076685
0.0091255913 0.17668174 0.90450001
0.011783215 0.17741281 0.90137351
0.013043091 0.18232377 0.90327781
0.016374037 0.18385142 0.90115565
0.016851863 0.18775772 0.90274012
0.018379122 0.19242454 0.90336674
0.021690667 0.19441292 0.90090024
0.01923638 0.19508184 0.90400004
0.022906739 0.19710752 0.90249336
0.027258908 0.19894432 0.90168685
0.032612294 0.19944525 0.90092254
0.028787745 0.20235188 0.90392226
0.032684218 0.20240653 0.90291667
0.036395855 0.20323238 0.90099192
0.087224938 0.20364471 0.90096688
0.03357853 0.20524344 0.90431666
0.037710313 0.20786907 0.90232784
0.041000728 0.2094335 0.90063363
0.084705137 0.20783882 0.90097803
0.086704001 0.2069218 0.90430009
0.0385959 0.21089768 0.90331668
0.042427808 0.2128727 0.90242684
0.047725376 0.21448858 0.90075588
0.051076986 0.21445155 0.90060037
0.058604971 0.21434042 0.90013361
0.063715354 0.21375251 0.90118366
0.067887768 0.21366023 0.9007948
0.072926342 0.21407463 0.90077531
0.077982791 0.21453886 0.90096706
0.083394982 0.21309267 0.90193921
0.043668553 0.21603039 0.90369999
0.048148092 0.21722455 0.90237349
0.052845705 0.21733196 0.90212232
0.057887122 0.21730782 0.9020223
0.062967099 0.21742128 0.90249449
0.068003602 0.2173813 0.90232784
0.073070385 0.21743488 0.90255004
0.078165583 0.21756363 0.90308332
0.082392722 0.21676284 0.9032501
0.085080117 0.21549134 0.90496665
0.0040879911 0.16753364 0.90964305
0.0057795201 0.16823602 0.90886223
0.0074546486 0.17200387 0.90644121
0.0071769841 0.1777662 0.90717238
0.0074660573 0.18242614 0.90796691
0.010829034 0.18285003 0.90588343
0.0076830247 0.1873953 0.908517
0.012313979 0.18739161 0.90645432
0.0091760363 0.19119321 0.90950006
0.012542708 0.19251005 0.90772998
0.015898949 0.19213575 0.90596676
0.014248514 0.19604567 0.90846699
0.017403174 0.19771333 0.90739185
0.020950116 0.19870844 0.90520006
0.018772015 0.20174289 0.90875578
0.022887547 0.20221327 0.90675437
0.026590062 0.20329607 0.90563345
0.02442269 0.20794751 0.90877801
0.027772017 0.20765075 0.90748173
0.032562666 0.20784302 0.90621918
0.087834291 0.20760098 0.9072668
0.028384348 0.21251057 0.90901685
0.032857023 0.21276347 0.90768921
0.037303902 0.21294074 0.90605003
0.03376304 0.21651928 0.90928358
0.0384342 0.21767117 0.90803844
0.042390928 0.21808898 0.90643352
0.046278372 0.2189388 0.90530002
0.0041089896 0.17264661 0.91431582
0.0057921759 0.17283954 0.91085213
0.004107771 0.17684512 0.9140448
0.0057869698 0.17606981 0.91003329
0.0041081714 0.18111467 0.91413349
0.0057931156 0.1898139 0.91100019
0.0077758539 0.1932255 0.91110486
0.012607213 0.19774991 0.91243345
0.014333732 0.20146927 0.91390026
0.016587133 0.20322412 0.91287786
0.021064291 0.20487054 0.9101333
0.018225256 0.20714068 0.91374308
0.02195888 0.20785087 0.91206664
0.019460518 0.21096462 0.91453362
0.022838254 0.21236816 0.91325247
0.026181431 0.21353878 0.91099995
0.0028378095 0.17187902 0.91702342
0.0024126486 0.17755227 0.91768879
0.0041142362 0.1873419 0.915483
0.0084008081 0.19800586 0.91755009
0.010949968 0.19937533 0.91600007
0.0092725512 0.2000428 0.91906661
0.012390829 0.20308851 0.91737777
0.013033019 0.2070771 0.91841996
0.016069753 0.20867866 0.91570038
0.013723771 0.21159478 0.91874659
0.017791169 0.21282774 0.91645008
0.021176932 0.21447644 0.91500038
0.0058507868 0.1951265 0.92006898
0.0084379083 0.20228805 0.92150003
0.0093204789 0.20709166 0.9238168
0.011008142 0.20814361 0.92086673
0.0080567133 0.20784661 0.92719162
0.005924006 0.20363334 0.93158329
