# .PCD v0.7 - Point Cloud Data file format
VERSION 0.7
FIELDS x y z
SIZE 4 4 4
TYPE F F F
COUNT 1 1 1
WIDTH 1100
HEIGHT 1
VIEWPOINT 0 0 0 1 0 0 0
POINTS 1100
DATA ascii
0.024412073 0.084326215 0.81422234
0.027623966 0.084140003 0.81339997
0.032497194 0.084791921 0.8138445
0.035559073 0.084856749 0.81446689
0.024515593 0.087400049 0.81346655
0.02789963 0.087684132 0.81259245
0.032452334 0.087700166 0.81274062
0.037006106 0.087715417 0.81288147
0.042130537 0.087905347 0.81336957
0.047664884 0.087801114 0.81368148
0.051450852 0.087788135 0.81355548
0.056841135 0.089428045 0.81470448
0.024887368 0.091532163 0.81319988
0.02787856 0.092153192 0.81200743
0.032385848 0.092047848 0.81108165
0.037472937 0.092181914 0.81105483
0.042750061 0.092063539 0.81255329
0.047650531 0.092315167 0.81342959
0.051794413 0.092144862 0.81383818
0.056078635 0.091696091 0.8146565
0.028689137 0.096862845 0.81349993
0.032410074 0.097404301 0.81170017
0.037542384 0.097213306 0.81136894
0.042795494 0.097156353 0.81342
0.047419008 0.096091866 0.81466693
0.032812137 0.10209061 0.81416017
0.03768054 0.10241707 0.81434691
0.013611248 0.059439313 0.81913352
0.015905373 0.059448984 0.81926686
0.0091819866 0.062799633 0.81924009
0.012840417 0.062454835 0.81871134
0.017236168 0.062664039 0.81895858
0.02050421 0.063305296 0.81986678
0.0092846164 0.066056542 0.8193112
0.01284943 0.065926194 0.81926686
0.017432021 0.065539621 0.81920022
0.023558496 0.074731454 0.81973344
0.025089355 0.074737534 0.81980008
0.017739607 0.07865496 0.81930673
0.022014715 0.077728041 0.81917793
0.027102921 0.078223385 0.81904465
0.032326795 0.078870147 0.8191669
0.037296612 0.079260878 0.81926686
0.043147165 0.078741096 0.81914473
0.047979757 0.078478605 0.8190558
0.051798478 0.078478083 0.81905013
0.014383286 0.082342438 0.81960011
0.0174261 0.082275271 0.81893355
0.022508554 0.081941657 0.81699407
0.028246194 0.081579447 0.81633341
0.032625068 0.082085058 0.8170594
0.037342198 0.082653686 0.81722432
0.04239291 0.082723036 0.81736016
0.048017491 0.082665838 0.81733954
0.052149136 0.082874067 0.81734675
0.056592394 0.083490051 0.81841105
0.018084852 0.086866543 0.81913358
0.021646585 0.087690949 0.81687343
0.044746153 0.085753769 0.81580013
0.046297874 0.085051224 0.81633317
0.053886004 0.08728832 0.81596678
0.057141904 0.086751156 0.81626642
0.022856008 0.092627093 0.81810486
0.053824365 0.093254477 0.81503367
0.057248637 0.092882432 0.81509376
0.025928399 0.097019479 0.81737345
0.048182413 0.098300636 0.81601679
0.052399483 0.097220838 0.81650376
0.056760591 0.097383723 0.81628025
0.02825583 0.10170578 0.81745839
0.032198843 0.1043616 0.81593341
0.036372136 0.10394827 0.81566685
0.042455856 0.10239208 0.81674874
0.047928926 0.10198597 0.81817788
0.052311581 0.10159368 0.81911117
0.057140052 0.10056341 0.818995
0.06014099 0.10123418 0.81825006
0.029032296 0.10633974 0.81889355
0.032492235 0.10793076 0.81853336
0.037253536 0.10809389 0.81832606
0.042316828 0.10724708 0.81884015
0.04760287 0.10553254 0.81913346
0.037808213 0.11178166 0.81933349
0.040365599 0.11130096 0.81953347
0.039051998 0.053665582 0.82406676
0.0082981121 0.05859255 0.82254279
0.012893837 0.057868328 0.82208878
0.017683143 0.057925716 0.82199979
0.022097841 0.057830047 0.82227993
0.027658788 0.057933804 0.82274365
0.032876488 0.057657216 0.8233698
0.037476256 0.057647288 0.82322425
0.041734643 0.058062099 0.82391673
0.0065016877 0.062691577 0.82181096
0.018984402 0.061047379 0.82026654
0.022495728 0.06239542 0.82079983
0.027442852 0.062672757 0.82157201
0.032864209 0.062786669 0.82305932
0.03729542 0.06242593 0.82406676
0.040605303 0.061355013 0.82440013
0.0037070015 0.067527369 0.82486671
0.0069238935 0.067577809 0.82133317
0.012871424 0.068099894 0.82066649
0.017467078 0.067961715 0.82084435
0.02206172 0.067204513 0.82091826
0.027463658 0.067306556 0.8221665
0.032482672 0.067278661 0.82450485
0.0084275575 0.072401218 0.82160592
0.012877047 0.072558068 0.82102203
0.017471073 0.072559744 0.82104415
0.021926545 0.07235387 0.82107252
0.027593274 0.072446443 0.82149768
0.03285851 0.072722539 0.82290536
0.037090454 0.073512517 0.82318324
0.042068984 0.074259549 0.82296664
0.047743063 0.073790669 0.82286662
0.052375056 0.07349325 0.82296181
0.0087347534 0.07760141 0.82244748
0.012873312 0.077882938 0.82080722
0.017076308 0.07670594 0.82046646
0.028160283 0.076297663 0.82017785
0.033083886 0.076974891 0.82089311
0.037366483 0.077118725 0.82079983
0.04165737 0.076974899 0.82089317
0.047323275 0.076366395 0.82091641
0.053505804 0.07695736 0.82179993
0.05735454 0.07723505 0.82205969
0.060924139 0.077735677 0.82195693
0.009459707 0.082352221 0.8235001
0.012115411 0.08251483 0.82131094
0.054214008 0.080949195 0.8209331
0.057643652 0.081309393 0.82071656
0.061005604 0.082244717 0.82167113
0.013092818 0.087049074 0.82264996
0.016446624 0.088068463 0.82086641
0.060379863 0.086353153 0.82150006
0.01444763 0.09036795 0.82326674
0.01748471 0.091726534 0.8217141
0.021056836 0.094255745 0.82155532
0.019080844 0.095864058 0.82443339
0.022099301 0.097921543 0.82239252
0.025095476 0.099161476 0.81999999
0.023652377 0.10258618 0.82300001
0.02550563 0.10270603 0.82089972
0.053180844 0.10332137 0.82073307
0.057262655 0.1030687 0.82074428
0.060343113 0.10386407 0.82100004
0.023686865 0.10656904 0.82420003
0.026673207 0.10756099 0.82153326
0.034282483 0.1098747 0.8202666
0.043997247 0.1089225 0.8207553
0.047705673 0.10862462 0.82090807
0.0527477 0.10704083 0.82193315
0.057168406 0.10706875 0.82214993
0.028687982 0.11218341 0.8228094
0.03277659 0.11300936 0.82086641
0.037108298 0.11350002 0.82073307
0.042165637 0.11323133 0.82109141
0.047109328 0.11262337 0.82250655
0.052825734 0.1102617 0.82315564
0.057411987 0.1102264 0.82289201
0.029806489 0.11642113 0.82339996
0.032861084 0.11789649 0.82300001
0.037412599 0.11772786 0.82182211
0.042049047 0.11782951 0.82253325
0.045177627 0.11645881 0.82366663
0.033222549 0.12176906 0.82434684
0.037121367 0.12146839 0.82386672
0.04055275 0.12100638 0.82333332
0.013775719 0.053989042 0.82903367
0.017630788 0.05318816 0.828578
0.022254406 0.053156365 0.82808894
0.027641578 0.053892434 0.82754993
0.033430971 0.053508975 0.82758331
0.037422642 0.052616999 0.82768893
0.042316977 0.052807111 0.82780021
0.046963394 0.053155035 0.82806683
0.052520979 0.052965596 0.82911134
0.002565281 0.058218155 0.8288669
0.0069765514 0.05679588 0.82751125
0.012583159 0.055769764 0.82686669
0.017577032 0.055329502 0.82602221
0.022186724 0.055301212 0.82560015
0.026798638 0.055284839 0.82535577
0.032941684 0.05526102 0.82500017
0.037560623 0.055265486 0.82506686
0.042954989 0.05642771 0.82523346
0.047466125 0.057132058 0.82645619
0.053134263 0.05699965 0.82796299
0.057579786 0.056194644 0.82972014
0.0023155031 0.062164452 0.82776546
0.0052475082 0.061414555 0.82520014
0.038329944 0.06447418 0.8250668
0.042431034 0.063224033 0.82626659
0.047294319 0.062325448 0.82709974
0.052565355 0.062602513 0.82872903
0.0019791718 0.067674272 0.82666808
0.034480318 0.068305619 0.82500017
0.037611168 0.067633212 0.82616293
0.042274542 0.067700185 0.82697749
0.047674686 0.067702919 0.82701087
0.053098559 0.067734256 0.82739985
0.056326762 0.068677902 0.82950026
0.0031042662 0.072125688 0.8283335
0.0052507576 0.072204627 0.82571107
0.038338594 0.071396589 0.82525009
0.042228401 0.071468867 0.82608885
0.047085758 0.071178138 0.82568902
0.053369135 0.071044192 0.82561672
0.057327118 0.072621807 0.82798415
0.060931113 0.074034154 0.829
0.0067925462 0.077601582 0.82593358
0.0083504096 0.083923839 0.82766652
0.0098910993 0.087747417 0.82742232
0.011427494 0.089232162 0.82693315
0.009921114 0.091099694 0.82993346
0.012974651 0.092352867 0.82732391
0.016017983 0.093635045 0.8250668
0.014030538 0.096122175 0.82886696
0.017395005 0.097459108 0.82658345
0.018146897 0.10200033 0.82860023
0.021426186 0.10295621 0.82596666
0.02179922 0.10800146 0.82762867
0.023024591 0.11245859 0.82805562
0.02589092 0.11246888 0.82586682
0.049866673 0.11357807 0.82500017
0.052995067 0.11291917 0.82578897
0.057374883 0.11320662 0.82676947
0.023822896 0.11643267 0.8289336
0.027413584 0.11735892 0.82706052
0.047923695 0.11740011 0.82597333
0.053099532 0.11699029 0.82742214
0.057783715 0.11710265 0.82821494
0.0608261 0.11778122 0.82757151
0.028437601 0.121734 0.82828587
0.032106541 0.1243609 0.82730663
0.037926871 0.12390945 0.82634658
0.042468462 0.12327477 0.82698345
0.046976753 0.12225179 0.82830381
0.052126758 0.12154975 0.82912695
0.058609582 0.12029234 0.82896698
0.060942415 0.12031948 0.82915401
0.033087403 0.12729636 0.82866675
0.037402205 0.12698689 0.82837343
0.042385112 0.12648588 0.82913369
0.047046501 0.12500383 0.82953358
0.038759343 0.049676113 0.83429992
0.042600285 0.04961988 0.83335567
0.047337215 0.049697947 0.83466649
0.051989295 0.049292769 0.83438319
0.056646258 0.049671013 0.83421421
0.0025014256 0.053666629 0.83361328
0.007618641 0.05341373 0.83209997
0.012827304 0.052190803 0.83199996
0.017698938 0.051074598 0.83179998
0.022355298 0.051074594 0.83179998
0.027023233 0.051875431 0.83225554
0.032118209 0.051759541 0.8321619
0.037808478 0.05099681 0.83053333
0.042459015 0.051000901 0.83060002
0.047117189 0.051011827 0.8307777
0.052292824 0.051022742 0.83095551
0.057980809 0.052572895 0.83103108
0.061609786 0.053614806 0.83120513
-0.00091637956 0.058848843 0.83233351
0.0018762754 0.056352269 0.83205336
0.058339257 0.058341287 0.83061659
0.06184122 0.057197828 0.83084059
-0.00091819005 0.061291605 0.83397782
0.00063414982 0.064859696 0.82999998
0.0579747 0.062615141 0.83094448
0.061462231 0.061456531 0.83095551
-0.00091439357 0.069535911 0.83052957
0.058418605 0.067805462 0.83096182
0.061144244 0.067328706 0.8319
-0.00091695617 0.071280062 0.83285725
0.001153189 0.072732382 0.83172864
0.059483074 0.071839154 0.83036906
0.061030857 0.071838073 0.83035719
0.0052911732 0.076631039 0.83206671
0.0068426412 0.082042277 0.83202457
0.0077770771 0.087352917 0.83248568
0.0099458182 0.093648873 0.8319999
0.011476323 0.09424787 0.83046669
0.0099737113 0.09623874 0.8343333
0.012732254 0.097781613 0.83161336
0.014015998 0.10211456 0.83414662
0.016663067 0.10315377 0.83168888
0.017723275 0.10744622 0.83298516
0.018522104 0.11247923 0.83392215
0.020788206 0.11288887 0.83122212
0.01932231 0.11648941 0.83486646
0.022102633 0.11765283 0.83211112
0.023348046 0.1222759 0.83407992
0.025826789 0.12255654 0.83125001
0.054080367 0.12362443 0.8306334
0.05776877 0.12260116 0.83117139
0.061590005 0.1231545 0.83093596
0.023995334 0.12581751 0.8349331
0.027263388 0.1266167 0.83288568
0.031653263 0.12918223 0.83160001
0.03820749 0.12943956 0.83076656
0.042183645 0.12897408 0.83125323
0.047382422 0.12729838 0.83155245
0.052019909 0.12659656 0.83210367
0.057716552 0.12650637 0.833619
0.06178255 0.12612368 0.83353013
0.028664537 0.13046655 0.83486646
0.032487806 0.13213325 0.83313334
0.037713122 0.13302918 0.83267504
0.042799268 0.13215066 0.8328954
0.047308698 0.13190682 0.83414811
0.051092409 0.13172583 0.83497304
0.033779655 0.13645384 0.83484739
0.038005073 0.13770814 0.83482933
0.042456977 0.13623963 0.83489501
0.046577889 0.13514711 0.83499974
0.055421807 0.043724749 0.83922225
0.0072915563 0.049569458 0.8390668
0.012699687 0.049241614 0.83823812
0.017518926 0.04927168 0.838
0.02252759 0.049131423 0.83826661
0.027413117 0.048747003 0.83740956
0.032054432 0.048862427 0.83700836
0.037607212 0.048308793 0.83752221
0.042780995 0.047494873 0.8369
0.047704883 0.046954807 0.83770001
0.052412342 0.046980675 0.83698893
0.056778569 0.047563802 0.83617252
-0.0015486724 0.053334422 0.8381449
0.0018085074 0.05174141 0.83633327
0.0076517481 0.051313031 0.83568323
0.061372105 0.05127107 0.83500004
-0.0017041492 0.056876004 0.83748084
-0.0017052664 0.063945077 0.83825004
-0.0017050905 0.067054272 0.83812779
-0.0019630061 0.072935976 0.83704996
0.000638253 0.074603051 0.83537024
0.0022004738 0.076371737 0.83772564
0.0053110975 0.079248771 0.83519971
0.0053265728 0.081817776 0.83763325
0.006092635 0.087061077 0.8356325
0.0084300451 0.092494652 0.83555949
0.0084657632 0.095227644 0.83910006
0.010804216 0.099057816 0.83849996
0.011587424 0.1021907 0.83861673
0.013910393 0.10746739 0.83716661
0.014705605 0.11146711 0.83796674
0.016243614 0.11207527 0.83668882
0.01782109 0.11731113 0.83757144
0.020884339 0.11962413 0.83506638
0.019020908 0.12249244 0.83875012
0.021310888 0.12333754 0.83654988
0.022833694 0.12753321 0.83804005
0.026368055 0.12910911 0.83613324
0.05359422 0.12895472 0.83513319
0.057592347 0.1291863 0.83663327
0.062567949 0.12874112 0.83711106
0.024127537 0.13119586 0.83953351
0.027180156 0.13237984 0.83714288
0.030236049 0.13363653 0.83526647
0.053257104 0.13258031 0.83594984
0.056905746 0.13251817 0.8380149
0.061621197 0.13238361 0.83839709
0.028163439 0.13696304 0.83850682
0.031582657 0.13773632 0.83657765
0.039579574 0.13984044 0.83519989
0.042745631 0.13896681 0.83617765
0.047631558 0.13729692 0.83592361
0.052191429 0.13712592 0.8375926
0.055431347 0.13663474 0.83936679
0.028815601 0.14052133 0.83926678
0.032756343 0.14165865 0.83778518
0.038090356 0.14242655 0.83669996
0.043002166 0.14195913 0.83738333
0.047524918 0.14186335 0.83796293
0.051240373 0.14101183 0.83908898
0.033500675 0.14515878 0.83900017
0.037403647 0.14512417 0.83880019
0.042130455 0.1452395 0.83946669
0.052634869 0.039297786 0.84473348
0.029010156 0.044022311 0.84493327
0.030585974 0.044022311 0.84493321
0.037663966 0.044006683 0.8446334
0.043166164 0.043995678 0.84442216
0.04817709 0.043340795 0.84392011
0.052317359 0.042538851 0.84281379
0.0025328796 0.048052885 0.84395999
0.006733601 0.046843372 0.8427
0.012170656 0.046518747 0.84274071
0.01793451 0.046786938 0.84286666
0.022662601 0.046288267 0.84328884
0.027020555 0.046053138 0.84185344
0.032359101 0.046053927 0.84186679
0.037203766 0.046098839 0.84186667
0.042990942 0.045381788 0.84099984
0.046113726 0.045367401 0.84073317
0.051603734 0.0453692 0.84076655
-0.0028918704 0.052525699 0.84268755
0.0022110816 0.050108138 0.84155554
-0.0032859447 0.05799114 0.84241664
-0.0024921724 0.061752878 0.84025002
-0.0040773656 0.067523718 0.84400004
-0.00092762284 0.076811135 0.84254551
0.003261124 0.078889437 0.84242225
0.0037913392 0.082403466 0.84363347
0.0053590029 0.084666491 0.84273338
0.0037880123 0.086250462 0.84289283
0.0053416225 0.087517016 0.83999997
0.0069354358 0.090999044 0.84330773
0.0079842685 0.097283572 0.84339756
0.0081108259 0.10193545 0.84293336
0.01057449 0.10325187 0.8408888
0.010856676 0.10737485 0.84255552
0.012777303 0.1132005 0.84341908
0.014417791 0.1173741 0.84401673
0.016327314 0.11890961 0.84099972
0.016989227 0.12260643 0.84274673
0.018567871 0.12735756 0.84306681
0.021812871 0.12905303 0.84083313
0.019556841 0.1304782 0.84499991
0.022659428 0.13255432 0.84321117
0.025730012 0.13451122 0.84073317
0.061772559 0.13446562 0.8404482
0.023630898 0.1372619 0.84418666
0.026143812 0.13814797 0.84144992
0.057603247 0.1380197 0.84168571
0.061771981 0.13802883 0.84310436
0.027367655 0.14270067 0.84291428
0.031206382 0.14384344 0.84043318
0.052971765 0.14302266 0.84173328
0.057059206 0.14236322 0.84357148
0.061782867 0.14208938 0.84487695
0.028600723 0.14728631 0.84448326
0.031856928 0.14745823 0.84210002
0.037502035 0.14785317 0.84100813
0.043274283 0.14771545 0.8421334
0.047782149 0.147331 0.842489
0.052110732 0.14728916 0.84353352
0.032584183 0.15212145 0.84422863
0.037579939 0.15207973 0.84275579
0.043114319 0.15219486 0.84339267
0.046949498 0.15207693 0.84447992
0.05107557 0.15091246 0.84499991
0.033740267 0.15562804 0.84499991
0.036879059 0.15636075 0.84471107
0.04161888 0.15640986 0.84497762
-0.010435103 0.03633767 0.84900004
-0.0077904034 0.037362006 0.84833336
0.047860067 0.038949359 0.84855586
0.05112128 0.03855817 0.84575617
0.003021338 0.044204649 0.84843361
0.0069639459 0.043335095 0.84687787
0.01249346 0.043334045 0.84685004
0.018052977 0.043411303 0.84836692
0.022789732 0.043392923 0.84801131
0.027203452 0.043211918 0.84756011
0.032554425 0.043181922 0.84697342
0.036997162 0.042308714 0.84737784
0.042269278 0.042051531 0.84748161
0.047624703 0.041357823 0.84670007
-0.0020648639 0.047581621 0.84836215
0.0018308491 0.046098467 0.84698343
0.019558383 0.045601256 0.84506649
-0.0060805613 0.052126314 0.8489365
-0.0035625824 0.050910216 0.84622234
-0.0056872368 0.057681371 0.84934658
-0.0040882351 0.059045926 0.84625006
-0.0056847674 0.063183725 0.8489778
-0.0040907855 0.063018382 0.84677786
-0.0056748721 0.067804359 0.84750009
-0.0040821964 0.067603722 0.84500003
-0.00093472918 0.078978874 0.84899998
0.00064730213 0.078812771 0.84721434
-0.000934974 0.080579244 0.84922242
0.0014364192 0.081962124 0.84717226
0.0038079924 0.086706236 0.84733891
0.0061829397 0.092297696 0.84804583
0.0064458321 0.09886954 0.84802228
0.0069581443 0.10231587 0.8460691
0.0079117585 0.1068334 0.84696209
0.0085636284 0.11053888 0.8488003
0.010122475 0.11185243 0.84677792
0.0085685048 0.11613076 0.84928358
0.011345827 0.11793657 0.84648889
0.0085668648 0.12242709 0.84912086
0.012724104 0.12291384 0.84801233
0.014900396 0.12636794 0.84906703
0.016462561 0.12699383 0.84796691
0.019087719 0.13243984 0.84748906
0.021157775 0.13378011 0.84600002
0.019654812 0.13666132 0.84923363
0.021579459 0.13749945 0.84710014
0.063690566 0.13835396 0.8451001
0.065258965 0.13755162 0.84500003
0.02304806 0.14196283 0.84787792
0.025874872 0.14470486 0.84546649
0.058192767 0.14468774 0.84536648
0.06251847 0.14427188 0.8452332
0.065819718 0.14286782 0.84545666
0.024406303 0.14613977 0.84923363
0.026735488 0.14825296 0.84776688
0.054253101 0.14862522 0.84539992
0.057278823 0.14763883 0.84682864
0.062050976 0.14772132 0.84730005
0.065496184 0.14751808 0.84807152
0.028731938 0.15269765 0.84836686
0.030647518 0.15356688 0.84663337
0.049172282 0.15308647 0.84615004
0.052818444 0.15296619 0.8476668
0.057691853 0.15068029 0.84960032
0.062457442 0.15018301 0.84976697
0.032541372 0.15775827 0.84800023
0.036965366 0.15908909 0.84668893
0.043310493 0.15840398 0.84723347
0.047790106 0.15685135 0.84821367
0.051341511 0.1564384 0.84940034
0.065374814 0.15826628 0.84650004
0.033907954 0.16114064 0.84920037
0.037065607 0.16188823 0.8489781
0.042268526 0.16177627 0.84898126
0.06541343 0.16072315 0.84700006
-0.010496559 0.039728884 0.85400003
-0.0069132717 0.039334055 0.85405004
-0.0029324326 0.039348185 0.85435879
0.0022452872 0.039732505 0.85407782
0.0054259845 0.039694771 0.85326666
0.013399381 0.039743353 0.85431123
0.018182794 0.039752658 0.85451126
0.022954872 0.03973664 0.85416675
0.027730986 0.039731983 0.85406679
0.03251664 0.039741285 0.85426682
0.037273169 0.039716478 0.85373336
0.042375788 0.039251395 0.85227501
0.046764676 0.037550602 0.85262221
-0.010496559 0.042111792 0.85400003
-0.0072996486 0.042835452 0.85259908
-0.0025276528 0.042805791 0.85202593
0.0020121129 0.042339366 0.85175234
0.0070011914 0.041188475 0.85133338
0.012549665 0.041157834 0.85069996
0.018123994 0.041207824 0.85173327
0.022870293 0.041172884 0.85101098
0.027625307 0.041163743 0.85082215
0.032391816 0.041171268 0.85097766
0.035539098 0.041140091 0.85033339
-0.010498607 0.0476809 0.85416669
-0.0072882697 0.047520112 0.85128504
-0.0041097347 0.046696372 0.85069996
-0.01049656 0.052437719 0.85400003
-0.0082494477 0.052324127 0.85213852
-0.0077553503 0.056887593 0.85265768
-0.0075687864 0.061368953 0.85299999
-0.0081074778 0.065146558 0.85400003
-0.0025279142 0.078493401 0.85230052
-0.0017357842 0.082530677 0.85306674
0.0022380212 0.085523799 0.85126668
0.0034342422 0.092027046 0.85282248
0.0054102479 0.093389273 0.85079163
0.0034409084 0.09695635 0.85433245
0.0054165297 0.096666269 0.85177976
0.0038386469 0.10011459 0.85416007
0.0054156631 0.10298634 0.85164338
0.0038293814 0.10700437 0.85209823
0.005811153 0.10810893 0.85142922
0.0085901953 0.11325742 0.85143322
0.0073965332 0.11757492 0.8511585
0.0085838065 0.12266843 0.85080004
0.010164185 0.12496486 0.85026675
0.0086033121 0.12770799 0.85273337
0.012566766 0.12799042 0.85197914
0.016505921 0.12969968 0.8502
0.013795217 0.13150251 0.85420847
0.017337736 0.13316341 0.85211664
0.017850401 0.13724525 0.8538534
0.019769765 0.14143272 0.85420007
0.021285331 0.14329433 0.85109991
0.022890072 0.14736837 0.85176659
0.067349017 0.14811391 0.85150003
0.024136879 0.15207255 0.85371673
0.026436871 0.15235633 0.85086656
0.058230288 0.15326361 0.85283339
0.062900439 0.15273903 0.85268581
0.065854281 0.15070291 0.85270834
0.027943997 0.1570098 0.85249996
0.030788694 0.15902084 0.85053331
0.048626769 0.15939105 0.85039997
0.053226274 0.15792757 0.85103744
0.057946991 0.15696537 0.85333753
0.062702507 0.15712199 0.85311115
0.065954037 0.155697 0.85400003
0.028790049 0.16099234 0.85400009
0.032420103 0.16294482 0.85174996
0.037138071 0.16457944 0.85064441
0.041901525 0.16459234 0.85071111
0.047145344 0.16266508 0.85127127
0.052995689 0.16259278 0.85371256
0.056417521 0.16210862 0.85430008
0.062910654 0.16171053 0.85324943
0.033567384 0.16681071 0.85396671
0.037226573 0.16814664 0.8526777
0.04198809 0.16810256 0.8524555
0.046847314 0.1668378 0.85410488
0.050042436 0.16528024 0.85426682
0.034102287 0.17000768 0.85406673
0.037697792 0.17204754 0.8543334
0.042080678 0.17205101 0.85435009
0.045252196 0.17000768 0.85406673
0.047135171 0.033583749 0.85935563
-0.0014749514 0.037733015 0.85681564
0.002258796 0.03835316 0.85876662
0.007047167 0.039345216 0.85721117
0.01185453 0.038307808 0.85778677
0.017712064 0.037229955 0.85745943
0.022810699 0.037147321 0.85731447
0.027829155 0.037479192 0.85707802
0.032637823 0.037495237 0.85744458
0.037420359 0.037480392 0.85710019
0.042050157 0.036512326 0.85779172
0.046625886 0.035677884 0.85591078
-0.010521141 0.044598896 0.85600007
-0.01052114 0.054152846 0.85600007
-0.010945768 0.057870477 0.85800004
-0.010545722 0.061461579 0.85800004
-0.0089246901 0.0637068 0.85600007
-0.0041450001 0.077422649 0.85799998
-0.00094500481 0.08623375 0.85833347
0.0012929563 0.088000029 0.85687178
0.0022495366 0.092330202 0.85564667
0.0017181976 0.096678741 0.85657376
0.0022552144 0.10580298 0.85733336
0.0070427936 0.11311682 0.85636204
0.0070432075 0.1226843 0.85641205
0.0086342497 0.13055395 0.85580027
0.011847953 0.13266315 0.85742235
0.013472673 0.13743497 0.85900003
0.015424015 0.13737911 0.85616696
0.017441759 0.14226942 0.85732681
0.018263696 0.1469133 0.85837144
0.021413714 0.14893737 0.85623354
0.019885482 0.1510514 0.85920012
0.022224071 0.15300715 0.85673344
0.066041932 0.15351841 0.85513818
0.023695977 0.15706143 0.85798675
0.026192132 0.15841988 0.85583359
0.058103587 0.15918428 0.855667
0.024677416 0.16133963 0.8586666
0.027509969 0.16296484 0.85713351
0.058922872 0.16242687 0.85597807
0.061266586 0.16388278 0.85526681
0.029091358 0.16738884 0.85896671
0.031632878 0.16756906 0.85621357
0.048502162 0.16864252 0.85520023
0.052543998 0.16722411 0.85608023
0.057644203 0.16734418 0.85771668
0.06304536 0.16675846 0.85777777
0.032632653 0.17225119 0.85732394
0.03656232 0.17352319 0.85573357
0.042138021 0.17347586 0.85550022
0.047181532 0.17229724 0.85655844
0.05166164 0.17218655 0.85799164
0.05590732 0.17172912 0.85869992
0.033514272 0.17746897 0.85942239
0.037445113 0.17710859 0.85767406
0.042258091 0.17716533 0.85794818
0.047130533 0.17743725 0.8592667
0.050364643 0.17674017 0.85976678
0.03433387 0.18075937 0.85986686
0.037538245 0.18074536 0.85980016
0.041551996 0.18076637 0.85990018
0.034514897 0.028957052 0.86440021
0.036118641 0.028950354 0.86420023
0.044153519 0.028934721 0.86373353
0.046549708 0.028922431 0.86336672
0.0087263985 0.0321928 0.86493355
0.011937517 0.032152817 0.86386657
0.017551608 0.032911845 0.8627001
0.022273239 0.032350328 0.86304772
0.028019274 0.032920722 0.86295009
0.033086952 0.032585569 0.86319065
0.037678666 0.03211968 0.86300743
0.042481948 0.03210175 0.86252606
0.047249209 0.03126106 0.86143333
0.0022678503 0.036100503 0.86221021
0.0072984006 0.036736906 0.86306942
0.011583906 0.035913359 0.86156005
0.01670743 0.035234183 0.86062223
0.023921128 0.035219625 0.86026669
0.027931785 0.035218716 0.86024457
0.032755125 0.035230547 0.86053324
0.037548032 0.035209615 0.86002237
-0.012174215 0.054405898 0.86000001
-0.012708853 0.057072174 0.85999995
-0.012174215 0.060804963 0.86000001
-0.0065757846 0.073774263 0.86200005
-0.0069223461 0.077221476 0.86212116
-0.0057827756 0.08114253 0.86361468
-0.0037598356 0.082524315 0.86128068
-0.0020235148 0.087674685 0.86206394
0.00065921643 0.093105353 0.86280823
0.0006590765 0.097897477 0.86262506
0.0038801974 0.11244219 0.8634057
0.0054720389 0.11286448 0.86050916
0.0038783744 0.11559888 0.86300004
0.0054742843 0.11531244 0.86086226
0.010301259 0.13466506 0.86173326
0.011274836 0.13800126 0.86254007
0.012879344 0.14243993 0.86221343
0.015108643 0.14414908 0.86093324
0.013548998 0.14624718 0.86386681
0.015532844 0.14797577 0.86223334
0.017533462 0.15231773 0.86184585
0.019322842 0.1569646 0.86270678
0.022061611 0.15799659 0.86075568
0.022631811 0.16235305 0.86217046
0.026319636 0.16478969 0.86000019
0.023460532 0.16697763 0.86303902
0.026978036 0.16841671 0.86054677
0.058402408 0.16960219 0.86006683
0.061662357 0.16974521 0.86079216
0.024831653 0.17038435 0.86403352
0.028175522 0.17291318 0.86161256
0.031131383 0.17438836 0.86000019
0.053586129 0.17438836 0.86000019
0.057487734 0.17358479 0.86077338
0.062064927 0.17333534 0.86192113
0.02910316 0.17719662 0.86328906
0.031169182 0.17780428 0.86104459
0.052494567 0.17799823 0.86087626
0.056762513 0.17791501 0.86255425
0.061883245 0.17758523 0.86387795
0.065627545 0.17781155 0.86367446
0.029664811 0.18002109 0.86400014
0.032832019 0.18293121 0.86256188
0.037611146 0.18350226 0.86147779
0.042645216 0.18309204 0.86116189
0.047235887 0.18264127 0.86119258
0.051925991 0.18269159 0.86237919
0.056283019 0.18172637 0.86446691
0.038531523 0.18727383 0.86409181
0.042532284 0.18714897 0.86351687
0.04777969 0.18680128 0.86376691
0.023720339 0.028658196 0.86754173
0.028144123 0.029037824 0.86681122
0.032611042 0.028018931 0.86522037
0.038911376 0.028491229 0.86655551
0.041602861 0.028490668 0.86654454
0.0038938737 0.033055022 0.866449
0.0071240463 0.032781374 0.86630297
0.024343899 0.03115046 0.86578912
0.028118446 0.030622356 0.86602241
0.032156486 0.03062157 0.86600012
-0.0070140911 0.082619958 0.86647224
-0.0071132295 0.086303487 0.86867458
-0.0033795869 0.087889753 0.866786
-0.0023066544 0.092062563 0.86813331
-0.0017683528 0.095423386 0.86932278
0.0038957638 0.10402361 0.86686927
0.0022871632 0.11491263 0.8699584
0.0055234912 0.11796474 0.86860007
0.008747248 0.13387531 0.86700016
0.0087664183 0.13659355 0.86889994
0.010351862 0.13854833 0.8659668
0.010365211 0.14276081 0.86708343
0.012385428 0.14718981 0.86705005
0.013616271 0.15181889 0.86815548
0.015208381 0.15396759 0.86661673
0.013631608 0.15683959 0.86913329
0.016508957 0.15775713 0.86706668
0.017333059 0.16212308 0.86898094
0.020061387 0.16367447 0.86680007
0.020894667 0.16791317 0.86787504
0.023591585 0.17275244 0.86785007
0.024974393 0.17621328 0.8689999
0.026983367 0.17812246 0.86845005
0.029265938 0.18249464 0.86812228
0.057906419 0.18291318 0.86704004
0.061930519 0.18213671 0.86736673
0.065357804 0.18150112 0.86722237
0.032803014 0.1877505 0.86788577
0.0362099 0.18777063 0.86638343
0.042613357 0.18992043 0.86516684
0.046662226 0.18837272 0.86545026
0.052646093 0.18758936 0.86714298
0.056383055 0.18709739 0.86849326
0.03469323 0.19073264 0.86886668
0.038090445 0.19191863 0.86782914
0.042682599 0.19264895 0.86657792
0.047563367 0.19197302 0.86716294
0.052181743 0.19133238 0.8686533
0.038753219 0.19562647 0.8690666
0.042790968 0.19636966 0.86877775
0.047265414 0.19604196 0.8691166
-0.0066400273 0.089064181 0.87039036
-0.0064989016 0.092279129 0.87322855
-0.0042090132 0.093204677 0.87125063
-0.0058574057 0.096020199 0.87475997
-0.0028205027 0.097806856 0.87203616
0.00066509325 0.1004105 0.87050003
0.0022938447 0.10713327 0.87250006
0.0022891504 0.11339279 0.87071449
0.0031107808 0.11780325 0.87339133
0.0071960762 0.13348292 0.87499994
0.0075117638 0.13785389 0.87382591
0.0088139465 0.14302213 0.87361103
0.0088256048 0.14646527 0.87476665
0.010419737 0.14756466 0.8716445
0.0088196089 0.15449634 0.87417239
0.011228863 0.15238838 0.87141776
0.0084092105 0.1577033 0.87392783
0.011234004 0.15732205 0.87180966
0.008802738 0.16069286 0.87250012
0.012060273 0.1623764 0.8728202
0.015283555 0.16282865 0.87090015
0.012898558 0.16592515 0.87441415
0.017195558 0.16704988 0.87178898
0.018612182 0.17085426 0.87466675
0.020595104 0.172424 0.87231666
0.022085937 0.17688878 0.87233335
0.025032822 0.17905638 0.87103355
0.02293236 0.18092854 0.87355542
0.02669353 0.18309355 0.87225556
0.063988701 0.18463519 0.87060016
0.066480778 0.1847907 0.87133348
0.028671164 0.18710153 0.87303984
0.058755748 0.18842056 0.87125003
0.062421244 0.18723188 0.87137794
0.066547096 0.18741038 0.87220943
0.032767408 0.19253992 0.8715626
0.036386121 0.19435208 0.8706001
0.053038381 0.19398056 0.87075019
0.057395481 0.19287714 0.87216669
0.062560141 0.19171204 0.87332565
0.066360667 0.19198215 0.87332481
0.033565711 0.1969001 0.87327987
0.037800353 0.19817552 0.87113345
0.042879757 0.19920546 0.87057799
0.048105866 0.19868171 0.87112015
0.052733097 0.19719134 0.87241107
0.056652334 0.19734943 0.87431103
0.063424923 0.19592798 0.87401652
0.065814778 0.1973881 0.87328577
0.034922171 0.20012575 0.87459999
0.038650844 0.20243393 0.87285537
0.042948078 0.2027697 0.87197042
0.047665112 0.20260103 0.8732428
0.052044921 0.2001105 0.8745333
0.038190272 0.20503789 0.87473333
0.043077495 0.20663349 0.87459999
0.046359561 0.20672013 0.87496668
-0.0074999621 0.094533145 0.87605894
-0.0075169434 0.097715497 0.87781566
-0.0058738929 0.10118589 0.8772223
-0.0034208074 0.10125398 0.87781256
0.0014874979 0.10269202 0.87615007
-0.00096759782 0.11363512 0.87885427
0.0017610919 0.11257874 0.87700009
-0.0016236495 0.11805435 0.87889063
0.0010789139 0.11785002 0.87675428
-0.00096870196 0.1211303 0.879857
0.00251576 0.12246808 0.87917495
0.0055796634 0.1224303 0.87743348
0.0072067673 0.13042107 0.87629992
0.0055858982 0.13808857 0.8784138
0.0062409607 0.14251976 0.87853432
0.0080377879 0.14781319 0.87795568
0.0083000148 0.15280145 0.87688422
0.0072220252 0.15601757 0.87815529
0.012961862 0.16837348 0.87870282
0.015386511 0.16881928 0.87676668
0.017858531 0.17309058 0.87775838
0.018151095 0.17654319 0.87868881
0.020277005 0.17847234 0.87611675
0.018722834 0.18005358 0.87986642
0.02139947 0.18339072 0.87756109
0.022788748 0.1871227 0.87847507
0.025854191 0.18792282 0.87686682
0.027853679 0.19242211 0.87804669
0.030094545 0.19322848 0.87651676
0.028570769 0.19725418 0.87993312
0.030800542 0.19797066 0.87802666
0.059075885 0.19759749 0.87600839
0.062130909 0.19794504 0.87646687
0.033441637 0.20234907 0.87859982
0.035809975 0.2037982 0.87640011
0.053214461 0.20266113 0.87651443
0.058008831 0.20262825 0.87839276
0.0629704 0.20155518 0.8790583
0.037406623 0.20753163 0.8776297
0.04319514 0.20883197 0.87700015
0.04857092 0.20743826 0.87701446
0.05309796 0.20754416 0.87845188
0.056459259 0.20785718 0.87977761
0.038408563 0.2111192 0.87973309
0.042694122 0.21241169 0.87892115
0.04802236 0.21243936 0.8792665
0.052366592 0.21116722 0.87993312
0.044164442 0.21609412 0.87999976
0.046626251 0.21609412 0.87999976
-0.008358229 0.099916354 0.88041437
-0.0067392178 0.10273455 0.88351792
-0.0026185841 0.10298277 0.88330954
-0.003093638 0.10716744 0.88425761
0.0012208013 0.10770347 0.88160187
-0.0026204055 0.11196154 0.88340181
0.00067302014 0.11225753 0.88087499
-0.0039351075 0.11722881 0.88252515
-0.0023432637 0.12309896 0.8822341
0.00067270815 0.1244899 0.88046646
-0.00097240729 0.12652242 0.88322228
0.0025249147 0.12782629 0.8822875
0.0056063705 0.12793668 0.88163328
0.0034231243 0.13267726 0.88410014
0.0060211914 0.13295746 0.88231671
0.0031412512 0.13788421 0.88233924
0.0055978918 0.13592896 0.88029981
0.0033060773 0.14250827 0.88251388
0.0039647212 0.14689234 0.88221365
0.0060175918 0.14803308 0.88167298
0.0072446326 0.15158917 0.88090408
0.0056158565 0.15772137 0.88312501
0.0080653355 0.16223328 0.88086855
0.01329641 0.17133904 0.88274843
0.015465479 0.17296362 0.88126665
0.016296722 0.17717335 0.88182497
0.017948488 0.18216997 0.88219166
0.018804407 0.18741418 0.88370007
0.021471294 0.18835609 0.88042206
0.022417909 0.19190882 0.88320005
0.025863059 0.19336945 0.88087767
0.026194409 0.19708124 0.88282508
0.028681714 0.20130776 0.88335001
0.03109978 0.20342872 0.88186663
0.063073695 0.20409533 0.88049316
0.066333354 0.20385568 0.88016665
0.031946804 0.20715111 0.88258332
0.035149757 0.20961767 0.88029975
0.058957394 0.20798689 0.88032752
0.063154332 0.20747273 0.88162214
0.066384122 0.20728891 0.88084006
0.033627253 0.21036381 0.8834334
0.037167851 0.21284533 0.88146001
0.040067498 0.21448964 0.88013309
0.049912456 0.21447341 0.88006645
0.053262234 0.21337754 0.88117212
0.057915777 0.21231031 0.88196003
0.062281977 0.21130607 0.88324672
0.066526808 0.21019712 0.8827334
0.037775666 0.2162829 0.88411665
0.041776966 0.21785001 0.88158327
0.047322527 0.218309 0.88150418
0.05174594 0.21773195 0.8833251
0.056718573 0.21538334 0.88380003
0.041889798 0.22172631 0.8839612
0.046821963 0.2227553 0.88369447
0.050150033 0.2220747 0.88425571
-0.0087160841 0.1036469 0.88900012
-0.00097612588 0.10391685 0.88660002
-0.006606129 0.10700428 0.88758671
-0.00097465538 0.10623027 0.88526434
0.0023323416 0.10563074 0.88714284
-0.0059401295 0.1122278 0.88711435
-0.0042793015 0.11206187 0.88580006
-0.005933865 0.11623076 0.88617861
-0.0042793015 0.12359619 0.8858
-0.0031818307 0.12755254 0.88657475
-0.0016406507 0.13183789 0.88803273
0.0016675752 0.13251853 0.88595998
-0.00097866799 0.13643166 0.8889091
0.0010904828 0.1365504 0.88699162
0.00067847938 0.14207755 0.88802028
0.0017798374 0.14574499 0.88688892
0.0039853761 0.15013121 0.88680959
0.010580527 0.16795193 0.88509524
0.013889352 0.17463072 0.88556653
0.013896931 0.17719916 0.88604987
0.015538015 0.17953886 0.88539988
0.013945188 0.18112203 0.88912702
0.016114796 0.18313976 0.88688874
0.016411448 0.18750817 0.88804436
0.017787695 0.19242541 0.88786656
0.02105514 0.19393255 0.88594431
0.018365256 0.19681577 0.88904446
0.022420926 0.19756351 0.88709503
0.025440918 0.19926552 0.88523346
0.023341371 0.20179224 0.8891111
0.026876731 0.20301706 0.88723308
0.027416779 0.20724085 0.88816178
0.030429324 0.20938995 0.88626647
0.028864078 0.21250841 0.88896668
0.031899504 0.21306229 0.88696659
0.035337437 0.21402945 0.88499999
0.062919073 0.21372785 0.88602215
0.065702781 0.213277 0.88642985
0.032831632 0.21756473 0.88867998
0.036520872 0.21837427 0.88704437
0.053533636 0.2191332 0.88566673
0.056947324 0.21872883 0.88736653
0.061508495 0.2167024 0.88751656
0.066182524 0.21586408 0.88916671
0.033867072 0.22179447 0.88973349
0.037308555 0.2227475 0.88775826
0.04113283 0.22400823 0.88540006
0.052769613 0.22268729 0.88669437
0.056481671 0.22264464 0.88872218
0.060401056 0.22008158 0.88950002
0.038242716 0.22702225 0.88859993
0.042089615 0.22801498 0.8881703
0.047022376 0.22783653 0.88747388
0.05156507 0.2278204 0.88833332
0.00068062864 0.10607015 0.89083338
-0.0034742409 0.13594283 0.89112502
0.0015134581 0.14868595 0.89300001
0.0056634611 0.15243152 0.89061111
0.012348858 0.17704815 0.8936066
0.014013774 0.18450557 0.89350015
0.014036776 0.19146763 0.89496678
0.015657352 0.19336563 0.89220023
0.016772056 0.19759387 0.89256686
0.018460473 0.20172103 0.89367795
0.021312049 0.20280519 0.89210701
0.022871554 0.20696692 0.89240581
0.025604723 0.2088352 0.89093357
0.024028238 0.21124057 0.89410031
0.026634032 0.21208505 0.8920536
0.028422957 0.21639675 0.89250034
0.031444963 0.21895903 0.89166689
0.063004278 0.21882397 0.89111686
0.06644845 0.21839546 0.89275026
0.032306161 0.22247958 0.89248025
0.058854394 0.22381788 0.89120013
0.062011588 0.22255284 0.89277244
0.035993971 0.22750849 0.89104187
0.012368117 0.17482604 0.89500016
0.011286232 0.17866109 0.89754564
0.011395828 0.18230799 0.89741337
0.012682977 0.18704666 0.89772129
0.01353426 0.1922266 0.89851636
0.018226497 0.20414701 0.89581668
0.018255904 0.20698486 0.89728338
0.021558672 0.20905665 0.89543331
0.019116508 0.21224958 0.89836693
0.021858005 0.21231645 0.89630002
0.025727354 0.21483101 0.89520007
0.022661489 0.21691269 0.89777935
0.02701389 0.21844569 0.89636672
0.028309353 0.2221044 0.89767516
0.030745195 0.2232237 0.89546663
0.064151101 0.22324032 0.89553338
0.010798201 0.17392641 0.90330446
0.0091065839 0.17799133 0.90261632
0.010766669 0.17593293 0.90066671
0.0086697806 0.183121 0.900998
0.0086845169 0.18763253 0.90254629
0.010776687 0.18867454 0.90150511
0.0081381723 0.19248407 0.90196604
0.011615946 0.19242796 0.90141511
0.014137627 0.19703645 0.90139663
0.015842201 0.19984625 0.9027335
0.015844245 0.20239091 0.90285009
0.016391823 0.20754965 0.9021669
0.016962288 0.21158667 0.90267783
0.019193821 0.21646288 0.90200007
0.020862171 0.21967241 0.90140027
0.023432199 0.22181171 0.90328336
0.0074795652 0.16750191 0.90947062
0.0091547621 0.17387068 0.90739149
0.0071781334 0.1766571 0.90725374
0.0074727326 0.18256123 0.90863997
0.0066193873 0.18912108 0.90767503
0.011697056 0.19756523 0.90767455
0.014225493 0.20247781 0.90699911
0.014270996 0.20651059 0.90990013
0.01588198 0.20708196 0.90500009
0.015900115 0.21321791 0.90603352
0.018037722 0.21816772 0.90734184
0.0032470603 0.16459394 0.91210616
0.0032580169 0.16676997 0.91473532
0.0058097206 0.166565 0.91361117
0.0041036634 0.17497037 0.91313046
0.0072662449 0.17302267 0.91310769
0.0040946752 0.17628202 0.91113043
0.0058119032 0.1802287 0.91395473
0.0057958416 0.19159858 0.91142857
0.012610408 0.20286417 0.91253328
0.013451969 0.20697761 0.91196692
0.014294523 0.2110894 0.91140008
0.0019806228 0.16823827 0.91577947
0.0058241636 0.16868281 0.91588241
0.0034378371 0.17199777 0.91720831
0.0058260337 0.17129272 0.91617656
0.0041159731 0.17890261 0.91586953
0.010951003 0.20195118 0.91608679
0.01210973 0.20770608 0.91768813
0.013244537 0.21329695 0.91725546
0.0093004722 0.20321876 0.92183363
0.0093268119 0.20637226 0.9244445
0.011020798 0.20838273 0.92192525
0.0076425904 0.2031327 0.92929375
0.0080677131 0.20771658 0.92853844
