# .PCD v0.7 - Point Cloud Data file format
VERSION 0.7
FIELDS x y z
SIZE 4 4 4
TYPE F F F
COUNT 1 1 1
WIDTH 1323
HEIGHT 1
VIEWPOINT 0 0 0 1 0 0 0
POINTS 1323
DATA ascii
0.022013312 0.064010538 0.81913352
0.025844645 0.064039201 0.81950009
0.022009976 0.067047112 0.81900018
0.025680179 0.066753127 0.81913346
0.02202116 0.070130236 0.81942225
0.025085274 0.070151165 0.81966662
0.013951114 0.059293911 0.8241778
0.017520152 0.058980186 0.82336664
0.022115609 0.058621462 0.82295233
0.027509151 0.058227796 0.82357234
0.031400513 0.059860162 0.82493347
0.013680817 0.062808216 0.82334447
0.017473366 0.062641278 0.8211627
0.022061855 0.061860424 0.82093304
0.027752003 0.062372636 0.82164657
0.031400513 0.062161967 0.82493347
0.013838289 0.067116328 0.82358664
0.017469039 0.067209534 0.82097751
0.028650744 0.067484327 0.82167608
0.0144683 0.072094314 0.82444453
0.017493941 0.071894795 0.82216281
0.022061588 0.073313378 0.82092559
0.027405718 0.072484381 0.82218456
0.0029371071 0.079776876 0.8246001
0.0078796148 0.079112835 0.82453346
0.01447571 0.07519941 0.82486683
0.017530289 0.07571958 0.82384002
0.022139115 0.076636702 0.82382226
0.026763553 0.075907655 0.82423341
-0.00090793887 0.084385417 0.82466668
0.0019754907 0.082653202 0.8246001
0.006585943 0.082611069 0.824175
-0.00090749853 0.085877791 0.82426667
0.00063027855 0.085947253 0.82493341
0.018027868 0.053604595 0.8290503
0.022272812 0.053201228 0.82877803
0.027153797 0.053433295 0.82840008
0.033452053 0.053543806 0.82811677
0.037722249 0.053190455 0.82861131
0.041613437 0.053997725 0.82916701
0.0093896231 0.058072429 0.82862234
0.012630364 0.05711164 0.82714081
0.017583473 0.056118581 0.82634449
0.022205241 0.055959869 0.82626659
0.027612224 0.055373788 0.82668316
0.033124302 0.057426345 0.82606065
0.037496664 0.057243388 0.82703984
0.041455101 0.056768876 0.82909364
0.0095863855 0.061915487 0.82778662
0.01141122 0.062992744 0.8257556
0.033401705 0.063191913 0.8254953
0.03781743 0.062574066 0.82760614
0.040853217 0.060958505 0.82943362
0.009902521 0.06781555 0.8283779
0.011806383 0.068045579 0.82649994
0.032997463 0.06765005 0.82636291
0.036787625 0.067512132 0.82844019
0.0092866989 0.072765902 0.82861358
0.012193557 0.072285056 0.82663321
0.033028655 0.072327845 0.82711864
0.036202323 0.070967056 0.82920033
-0.0070970915 0.078660466 0.82900029
-0.0022367232 0.077502131 0.82840019
0.0020197816 0.077230975 0.82692671
0.0073118284 0.076384693 0.82662958
0.012808246 0.077777214 0.82558197
0.017571496 0.078789897 0.82573348
0.021888707 0.078988478 0.82597339
0.027930981 0.077308066 0.82631427
0.031534996 0.076684125 0.82846683
-0.011735139 0.083278373 0.82892025
-0.0070864665 0.082385078 0.82770556
-0.0025912451 0.08203508 0.82629085
0.0037082001 0.084433161 0.8251335
0.0094831381 0.083317965 0.82548344
0.012963309 0.08303421 0.82648134
0.017599354 0.083092697 0.82706648
0.022399815 0.082854792 0.82775337
0.026566003 0.081892759 0.8287558
-0.012031551 0.08765047 0.82798004
-0.0070732334 0.08760462 0.82608891
-0.0026397989 0.087700374 0.82518345
0.0023648469 0.087808326 0.82619166
0.0075732251 0.087697178 0.82695538
0.012766634 0.087371901 0.82803816
0.017639963 0.087139703 0.82897806
0.021247998 0.086884975 0.82900029
-0.011285812 0.092248186 0.82836211
-0.0070800697 0.092313886 0.82697749
-0.0024529221 0.09232112 0.82704419
0.0021785076 0.092484675 0.82850391
0.0071274587 0.092385553 0.82900029
-0.010963274 0.095631212 0.82906699
-0.006874471 0.096694268 0.82873362
-0.0024574464 0.097124584 0.82864475
0.0017929953 0.096014902 0.8290503
0.0052716727 0.095623516 0.82900035
-0.0040055453 0.10026596 0.82913363
0.03256233 0.049717795 0.83499974
0.038006704 0.049709857 0.83486646
0.041872203 0.049678102 0.8343333
0.0079707699 0.053661831 0.83422846
0.013247679 0.052843601 0.83227503
0.017391538 0.051698584 0.83189332
0.022356329 0.051077325 0.83184439
0.027415402 0.0514987 0.83241677
0.032100674 0.051730372 0.8316952
0.037817776 0.051007733 0.83071107
0.042759243 0.052197687 0.83208573
0.045785844 0.052808542 0.83475542
0.0037515434 0.057468399 0.83477759
0.0070155743 0.05695004 0.83224446
0.043721605 0.057697311 0.83248341
0.045782801 0.056686897 0.83469987
0.0037515434 0.062127769 0.83477759
0.0066495533 0.062140845 0.8323499
0.042126894 0.062283147 0.83166665
0.0027139261 0.068864472 0.83487749
0.0068505746 0.067433499 0.83319443
0.039009865 0.068445653 0.83135003
0.041693352 0.066402562 0.83385324
-0.0063671363 0.074534245 0.83459985
-0.0022511724 0.073356263 0.83382839
0.0021900777 0.072841674 0.83301479
0.0063959998 0.07250502 0.83168572
0.037640072 0.072795607 0.8324666
-0.018049452 0.079229809 0.83499974
-0.011965828 0.077829607 0.83295548
-0.0071207783 0.076595977 0.83171111
-0.0032384004 0.075722128 0.83060002
0.033747029 0.077932008 0.83218884
0.036403134 0.077566184 0.83380002
-0.018030494 0.082246169 0.8340888
-0.013849951 0.081535921 0.83211106
0.027737718 0.084203362 0.83043331
0.031719986 0.081778377 0.83326656
-0.017709114 0.087316476 0.83360672
-0.014893742 0.089079604 0.83270013
0.013792399 0.089566648 0.83003342
0.017673634 0.089625396 0.83057779
0.022837924 0.088596947 0.83058882
0.027166989 0.087912843 0.83190662
0.030203873 0.086932294 0.83437759
-0.01726028 0.091597334 0.83446658
-0.014114516 0.0929235 0.83244991
0.0099278865 0.093479626 0.83050001
0.013056859 0.092924371 0.83243698
0.017730163 0.09301354 0.8332296
0.022389581 0.093001045 0.83311844
0.026566541 0.092599548 0.83416653
-0.011772561 0.097724348 0.83156663
-0.0078854188 0.098894268 0.83056664
0.0024933186 0.098271094 0.83051997
0.0078338124 0.097691014 0.83226663
0.01286836 0.09738113 0.83461893
0.017768109 0.09631563 0.83499974
0.021661317 0.09631563 0.83499974
-0.010765434 0.10133997 0.83373332
-0.00713195 0.10227498 0.83291841
-0.0022730825 0.10233358 0.83182502
0.0019981 0.10219496 0.83384991
0.0060846535 0.10090287 0.83439988
-0.0061092251 0.10613326 0.83484417
-0.0024745616 0.10667349 0.83443797
0.00063797011 0.10641182 0.83499974
0.013534085 0.04950821 0.83803338
0.017830087 0.049111489 0.83792228
0.022508139 0.049089264 0.83754444
0.027186109 0.048294522 0.83729625
0.032321561 0.048526015 0.83742863
0.037718542 0.047466252 0.83836186
0.043025535 0.047547597 0.83784169
0.047746036 0.048554961 0.83841676
0.052256078 0.049154267 0.83864456
0.055455562 0.049999636 0.8397333
-0.00092390279 0.053868391 0.83916676
0.0021997241 0.052960664 0.83717775
0.007192648 0.051679987 0.83659995
0.010790859 0.05064553 0.8375333
0.048213165 0.052908808 0.83634424
0.052212175 0.053010419 0.83793342
0.056205284 0.051530991 0.83923352
-0.00092386612 0.057768676 0.8391335
0.0014187336 0.057590961 0.83655548
0.047891188 0.057813972 0.83655226
0.051752344 0.057234779 0.83893353
-0.00092371926 0.06244117 0.83900017
0.0014188542 0.062261347 0.83657771
0.044286698 0.06220777 0.83584428
0.047095068 0.062164277 0.83825725
0.050757192 0.060934104 0.83973342
-0.0019003481 0.067613885 0.83784169
0.001677682 0.066379562 0.83617759
0.043296415 0.068239734 0.83675551
0.046557453 0.066107906 0.8393113
-0.011473138 0.074449375 0.83801675
-0.0071692462 0.072446346 0.83740824
-0.0032599294 0.070783466 0.83614993
0.039625384 0.073897243 0.8361665
0.042357001 0.07277216 0.83729517
-0.021890204 0.078354999 0.8389467
-0.018098846 0.077689335 0.83724159
-0.014452473 0.076834701 0.837111
0.038912717 0.077918313 0.83758885
0.042103566 0.076481834 0.83893347
-0.025973927 0.082776226 0.83946145
-0.022791291 0.082583189 0.83750659
0.034175381 0.083247557 0.8363499
0.037219033 0.082647219 0.83814669
-0.02631999 0.087311424 0.83803332
-0.022778463 0.087209024 0.83704478
-0.019609876 0.088563494 0.83513314
0.032955676 0.086929761 0.8364951
0.035996161 0.087704323 0.83880007
-0.022026382 0.091224402 0.83816683
-0.018341763 0.092854731 0.83646649
-0.014944429 0.094822876 0.83553326
0.028173588 0.09432254 0.83568877
0.031881556 0.09193515 0.83753335
0.035070993 0.090548605 0.8391335
-0.01687994 0.09738078 0.83881342
-0.014450081 0.098094553 0.83693337
0.013891799 0.099537283 0.83596647
0.017797636 0.098808885 0.8363778
0.022698816 0.098472781 0.83635229
0.027187973 0.098141536 0.83731854
0.03067499 0.097061142 0.83874673
-0.012168029 0.10314021 0.83744013
0.0037561373 0.10418165 0.83579999
0.0074620778 0.10288076 0.83627486
0.01256975 0.10298962 0.83759397
0.017841861 0.10295498 0.83845931
0.022538295 0.1029797 0.83865935
0.026852639 0.1018556 0.83905017
-0.010297992 0.10755485 0.83784443
-0.0076815761 0.10790009 0.83649987
-0.0024769821 0.10877213 0.83523321
0.002645734 0.10762269 0.83664757
0.006888696 0.10751715 0.83755559
0.011596411 0.10733125 0.83915007
-0.010313015 0.11083218 0.83906686
-0.0069806157 0.11207528 0.83814174
-0.0024840715 0.11220423 0.83764446
0.0019811415 0.1118564 0.83838099
0.0065126726 0.11127779 0.8394835
-0.0056192959 0.11631364 0.8392002
-0.0040554656 0.1155697 0.83946681
0.027422229 0.044003785 0.84457779
0.032154676 0.044011891 0.84473324
0.036865417 0.043993369 0.84437776
0.041556552 0.043959793 0.84373349
0.04792368 0.044025782 0.84499991
0.057379279 0.044025782 0.84499991
0.062632404 0.043501828 0.84499997
0.065258972 0.044025782 0.84499991
0.0022185647 0.048697773 0.84424448
0.0069337022 0.047851626 0.84317803
0.012087085 0.047682684 0.84218109
0.017942553 0.046284486 0.84322214
0.022628518 0.04621863 0.84202224
0.027345659 0.045447748 0.84222221
0.032351032 0.046042293 0.84165347
0.037542168 0.04543215 0.84193337
0.042986073 0.045374602 0.84086657
0.047353793 0.045819506 0.84186667
0.052523587 0.046268791 0.84293324
0.057260785 0.047069453 0.84324443
0.062072642 0.04714264 0.84453332
0.066353284 0.047371574 0.84460944
-0.0056581334 0.052671049 0.84499991
-0.002815058 0.052222766 0.84286672
0.0022146727 0.050171655 0.84262234
0.0069173388 0.050085645 0.84117764
0.057337098 0.052647285 0.84147489
0.062031951 0.051823266 0.84397793
0.06634628 0.051855631 0.84451306
-0.0056581334 0.058172543 0.84499997
-0.0032838816 0.057975192 0.84213334
0.053470749 0.058965262 0.84135538
0.057028618 0.057145663 0.84311432
-0.0060507772 0.063265853 0.84479988
-0.0032843926 0.06268508 0.84227794
0.049230143 0.063327625 0.84039986
0.052706782 0.062914096 0.84270841
0.055750526 0.062044159 0.84420002
-0.010911251 0.068651639 0.84499997
-0.0072200722 0.067457922 0.84319264
-0.0040633567 0.066508874 0.84109986
0.048264187 0.067867376 0.84176666
0.051655721 0.067224145 0.84417343
-0.026065731 0.073666319 0.84242862
-0.022949522 0.072965533 0.84339148
-0.017231207 0.072331883 0.84349704
-0.012128403 0.071938828 0.84286678
-0.0079863966 0.070429295 0.84119987
0.044559866 0.072759494 0.84099984
0.04782645 0.072171241 0.84325927
0.05107557 0.070747465 0.84499991
-0.027478773 0.077323943 0.84192902
-0.023558391 0.076674856 0.84105694
-0.01738736 0.075073071 0.84063321
0.043302499 0.078167059 0.84267628
0.047489442 0.0757901 0.84426665
-0.026540915 0.082916759 0.84088892
0.03946197 0.082926854 0.84098327
0.042355236 0.083217293 0.84393352
-0.031547733 0.089291662 0.84200001
-0.02765562 0.08782956 0.84300005
0.039151315 0.087802589 0.84273344
0.041582175 0.087173507 0.84423333
-0.03080003 0.092533998 0.84300011
-0.027607424 0.092371404 0.84151834
-0.023501035 0.092896245 0.84059983
0.036967356 0.09264148 0.84219164
0.04003768 0.091167293 0.84486651
-0.031193081 0.096846387 0.84300005
-0.027640987 0.096741967 0.84256923
-0.022930063 0.097200826 0.84265935
-0.019366588 0.097454064 0.84146667
0.032946531 0.097300842 0.84082639
0.036622733 0.097077511 0.84330004
-0.016636461 0.10185453 0.84226674
-0.013471586 0.1048132 0.84086645
0.027616834 0.10418947 0.8408798
0.032260776 0.10206056 0.84235013
0.03567395 0.10168786 0.84413338
-0.015498159 0.10644081 0.84446669
-0.012706128 0.10809496 0.84205556
0.013972473 0.10872394 0.84086645
0.017912677 0.10805893 0.84177041
0.022629704 0.10809609 0.84205937
0.027167898 0.10799011 0.84276688
0.031933792 0.10659102 0.8441
-0.015113743 0.11004401 0.84499991
-0.011677259 0.11296906 0.84336686
-0.008766911 0.11419824 0.84086639
0.0029943436 0.11418466 0.84076643
0.0072307596 0.11360155 0.84107983
0.012430889 0.11286756 0.84260577
0.017951909 0.11300299 0.843615
0.022679886 0.11304176 0.84390378
0.027204007 0.11225812 0.84476185
0.030588388 0.11004401 0.84499991
-0.010771052 0.11741128 0.84428334
-0.0076539246 0.11765482 0.84160936
-0.0022982457 0.11755558 0.84109998
0.0022136988 0.11747559 0.84192592
0.0069352477 0.11765725 0.84322971
0.011986176 0.11657792 0.84450656
0.017980903 0.11633151 0.84499997
0.022392858 0.11695655 0.84497327
-0.0070278593 0.12224299 0.8437584
-0.0025003529 0.12233201 0.84302253
0.0022196488 0.12247472 0.8440001
0.005898729 0.121571 0.84499997
-0.0064454307 0.1257478 0.84489989
-0.0021110778 0.12609857 0.84461665
0.0014335783 0.12576269 0.84499991
0.044217661 0.039519548 0.84950018
0.049765166 0.039521094 0.8495335
0.052825656 0.037863463 0.84781116
0.057514198 0.038772389 0.84698677
0.061422214 0.039376579 0.84642714
0.0038196514 0.044282805 0.84993351
0.0073713772 0.043798536 0.84821689
0.012506185 0.043381646 0.84778357
0.01804111 0.043383952 0.84783345
0.022546176 0.043020993 0.84736198
0.027542105 0.041827906 0.84826684
0.032279398 0.042605747 0.84802252
0.037036184 0.041829482 0.84830016
0.042777583 0.042034745 0.84714091
0.048051134 0.042367749 0.84724176
0.052772775 0.04255132 0.84694827
0.057456907 0.042313579 0.8461417
0.061913449 0.041977763 0.84595561
0.066052094 0.0432432 0.84506655
-0.010440021 0.048995163 0.84940028
-0.0072658653 0.048160493 0.8486225
-0.0025156683 0.047334146 0.84798533
0.0022264775 0.046507627 0.84727794
0.0069533656 0.045626432 0.84553319
0.012472704 0.045625534 0.84551656
-0.0075245076 0.051543448 0.84798914
0.068410836 0.050313234 0.84500015
-0.0068657044 0.056408547 0.84800029
0.058473285 0.059264328 0.84562206
0.062077094 0.057033699 0.84673995
0.066150703 0.056690708 0.84632903
-0.017728021 0.064483009 0.849446
-0.011490226 0.063707486 0.84894472
-0.0081630787 0.061977126 0.84792393
0.057976998 0.063272849 0.84713334
0.062096406 0.061302233 0.84916008
-0.022759983 0.068793111 0.84803474
-0.017527286 0.067793913 0.84739453
-0.012507185 0.067186348 0.84635562
0.053899691 0.068080127 0.84603333
0.056784894 0.067834459 0.84787798
-0.023012802 0.070809118 0.8457365
-0.019847814 0.070769787 0.84526646
0.052975621 0.072688878 0.84700841
0.056058694 0.071861088 0.848867
0.048310231 0.078092955 0.84624004
0.051900517 0.077009521 0.8481735
0.044888366 0.081964828 0.84720016
0.047491122 0.081460066 0.84852016
0.042871594 0.0885747 0.84636664
0.045027904 0.086960472 0.84983349
0.042132046 0.092613496 0.84732521
0.04501377 0.092464842 0.84956682
-0.027735293 0.099094257 0.84545457
0.03847111 0.099048801 0.84506661
0.040959146 0.097771145 0.84761125
-0.027514156 0.10195915 0.84835356
-0.023056891 0.10246688 0.84731621
-0.019475559 0.1027244 0.84619999
0.03790313 0.10267647 0.84645337
0.040744673 0.10157313 0.84864473
-0.018520964 0.10742512 0.84759188
0.033748254 0.10849781 0.84519988
0.036568481 0.10704168 0.84789544
-0.017275469 0.11199658 0.84788162
-0.013543155 0.1140189 0.84533322
0.028256211 0.114099 0.84593332
0.032456487 0.11213885 0.84745848
0.035483368 0.11135533 0.84900022
-0.016373502 0.11569545 0.84898353
-0.012935551 0.11846592 0.84677333
0.01283107 0.11905386 0.84679061
0.0180152 0.11892264 0.84665561
0.023126993 0.11920707 0.84588337
0.027510324 0.11742864 0.84724182
0.03125399 0.11580211 0.84880024
-0.011554874 0.12284332 0.84809542
-0.0088294661 0.12446516 0.84686673
0.0074881152 0.12335707 0.84646678
0.011732577 0.12252306 0.84900033
0.018456623 0.12198176 0.84876698
0.022483695 0.12216624 0.84840029
0.027045809 0.12112558 0.84922242
-0.011227772 0.12636295 0.84903353
-0.0074833822 0.12818041 0.84761918
-0.0028252867 0.12845442 0.84615993
0.002452967 0.12807992 0.8469525
0.006450275 0.1273198 0.84838915
-0.00093494944 0.13112678 0.84920037
-0.0081113856 0.038157724 0.85437506
0.013396752 0.03973715 0.85417777
0.018174181 0.039733019 0.85408896
0.023267504 0.039090317 0.85393333
0.027728736 0.038934521 0.85400009
0.032507341 0.03893508 0.85401112
0.037280656 0.038929559 0.85390002
0.041688591 0.038721763 0.85284007
0.04777718 0.037863392 0.85177338
-0.015800009 0.043949705 0.85369444
-0.011877662 0.043056913 0.85305542
-0.0072985366 0.042834952 0.85261852
-0.0025294365 0.043297343 0.85280478
0.0022420478 0.042837024 0.85266674
0.006688471 0.041844275 0.85181332
0.012556874 0.04118726 0.85130823
0.018107034 0.041169118 0.85093325
0.023662619 0.041170731 0.85096657
0.032380346 0.041156217 0.85066652
-0.016667282 0.047470227 0.85394359
-0.012259955 0.047357831 0.85192502
-0.0072823227 0.045901041 0.85062218
-0.016074969 0.05245069 0.85420519
-0.012063791 0.052319366 0.85205925
-0.0088725574 0.053836547 0.85099989
-0.016070921 0.05720235 0.85399181
-0.012069947 0.057103142 0.85251111
-0.008871167 0.056993406 0.85086656
-0.021569567 0.064126194 0.85100001
-0.017289016 0.061770011 0.85127056
-0.012578614 0.06123561 0.85117221
0.062993422 0.06338352 0.85165
0.066521525 0.061587822 0.85309696
-0.023152793 0.067016378 0.85084611
0.05937928 0.068090133 0.85107762
0.062293053 0.067166261 0.85370964
0.058329213 0.073169187 0.85227621
0.061175857 0.071500994 0.85400003
0.054251559 0.078030147 0.85155827
0.056999136 0.077489331 0.85346001
0.049053978 0.083116315 0.85093319
0.052642871 0.082030661 0.85336113
0.047189586 0.087189659 0.8520571
0.050829951 0.08739873 0.85411119
0.043461684 0.094905876 0.85019994
0.047080439 0.092361711 0.85350007
0.050046336 0.090599589 0.85433334
0.043497469 0.098149933 0.85089988
0.045693159 0.096731842 0.85236669
-0.027933732 0.10350162 0.85150838
0.042272527 0.10332167 0.85177994
0.045240715 0.10087258 0.85385001
-0.026807731 0.10798091 0.85354072
-0.023155268 0.10765013 0.85092646
0.038724527 0.1084042 0.85063326
0.040434692 0.1079444 0.85324448
-0.022675944 0.11211666 0.85278887
-0.019975394 0.11316032 0.85069996
0.037486497 0.112611 0.85252786
0.040502083 0.11130293 0.85466683
-0.020440027 0.11710726 0.8535167
-0.017115328 0.11803325 0.85046673
0.032946598 0.1177709 0.85161662
0.035683513 0.11754191 0.85378891
-0.016648164 0.12198935 0.8529501
-0.013629132 0.12344608 0.85069996
0.014136396 0.12345091 0.85073328
0.01731224 0.12347026 0.85086656
0.024428345 0.1233445 0.85000002
0.028277898 0.12258923 0.85133994
0.032301415 0.12211114 0.8538084
-0.012285037 0.12811466 0.85168564
0.0080542574 0.12925369 0.85073328
0.012561526 0.12712358 0.8514778
0.018129412 0.12680453 0.85198885
0.022883963 0.12673399 0.85151845
0.027685242 0.12689836 0.85262221
0.030917805 0.12632272 0.85410011
-0.011559822 0.13188519 0.85411119
-0.0070654443 0.1326458 0.85170466
-0.0027216743 0.13315344 0.85079157
0.0020400928 0.13285396 0.85140407
0.0070076673 0.13235235 0.85199994
0.012509097 0.13168576 0.85396308
0.017778795 0.13071243 0.85423338
0.022950577 0.13027932 0.85400003
0.026939895 0.13031492 0.85423338
-0.006992898 0.13632363 0.8540467
-0.0023328648 0.13796318 0.85362089
0.0022455405 0.13691644 0.85411119
0.00662628 0.13546892 0.85416675
0.010215188 0.13512945 0.85453343
-0.0025341406 0.14146583 0.85440004
0.039138798 0.033598516 0.8597334
0.042286456 0.033151742 0.85853326
0.046205729 0.032693967 0.85698283
-0.015346265 0.039914966 0.85800004
-0.011609469 0.038838245 0.85772735
-0.0071074995 0.038275123 0.85702991
-0.0025452839 0.038326699 0.85820496
0.0022556407 0.039914969 0.85799986
0.0070514739 0.039893255 0.85753328
0.011845528 0.038813423 0.85717773
0.017710324 0.037224263 0.85733342
0.022820119 0.036248922 0.85762876
0.027455494 0.036319427 0.85791671
0.033030346 0.036289494 0.85721689
0.03745855 0.035923649 0.85798889
0.042202871 0.035875361 0.85683346
0.046560146 0.035448775 0.85614729
-0.013714042 0.041414246 0.85600007
-0.0025361555 0.041370705 0.85510015
0.00065340364 0.041375544 0.85520017
-0.020120978 0.048630882 0.85690004
-0.018492583 0.049347032 0.85550004
-0.018495888 0.052539438 0.85565281
-0.018546626 0.057471465 0.85800004
0.067644924 0.063650332 0.8552416
0.064486906 0.067661569 0.855667
0.06758517 0.066771597 0.85700727
0.063130766 0.072596364 0.85650378
0.067367241 0.071343333 0.85847163
0.05931212 0.078420602 0.85583365
0.063068189 0.077428639 0.85806662
0.066348769 0.076724067 0.85911113
0.05437747 0.083839156 0.85562259
0.058201537 0.082920261 0.85708165
0.061591364 0.081582904 0.85980016
0.053984813 0.087288253 0.85614693
0.056658618 0.087791398 0.85794669
0.048502166 0.093873166 0.85520017
0.052012295 0.092694335 0.85716683
0.055138711 0.091115683 0.85920012
0.047912013 0.097470298 0.85605365
0.050922316 0.097093537 0.85834664
0.047297288 0.10209316 0.85743332
-0.028069798 0.10983609 0.85562503
0.04296818 0.10751589 0.85615569
0.045495916 0.10703298 0.85866666
-0.027158299 0.1128915 0.85706407
-0.024359792 0.11414254 0.85608912
0.038935434 0.11456297 0.85526687
0.04225615 0.11252162 0.85789996
0.045559499 0.11038062 0.8598668
-0.026579626 0.11826458 0.85903722
-0.02352079 0.11818156 0.85699177
0.038172379 0.11785099 0.85603356
0.041353747 0.11731441 0.85910672
-0.02819692 0.12152536 0.85950005
-0.021945607 0.12229457 0.85788333
-0.018519247 0.12432154 0.85673344
0.034176804 0.12420546 0.85593361
0.03745681 0.12289409 0.85788894
0.040751681 0.12158666 0.8599335
-0.016943254 0.12766066 0.85774827
0.033074874 0.1277633 0.85690498
0.036441434 0.12680084 0.8591333
-0.01615064 0.130915 0.85816675
-0.012941828 0.13322717 0.85763347
0.013410984 0.13362321 0.8550669
0.017959839 0.13331467 0.85648912
0.02301375 0.13303022 0.85636693
0.028052317 0.13277759 0.85693341
0.031706028 0.13219419 0.85817337
-0.01093811 0.13677436 0.85736674
-0.0083979936 0.13809802 0.85651135
0.0038469152 0.13854605 0.8560003
0.0073614633 0.13795035 0.8562535
0.012046883 0.13735701 0.85726666
0.016865322 0.13673583 0.85837501
0.023477923 0.13619331 0.8587333
0.027897008 0.13586044 0.8591556
-0.0068929261 0.14191203 0.85846674
-0.0028062966 0.14230117 0.85623354
0.0022534085 0.14188772 0.85694087
0.0068613826 0.14195962 0.85858333
0.011071945 0.14065136 0.85913336
-0.0057581239 0.14558123 0.8599335
-0.0020894178 0.1467301 0.85862857
0.0022583411 0.14539313 0.85882217
0.03245271 0.028514493 0.86318338
0.037613016 0.028861023 0.86153334
0.041559957 0.028811883 0.86006677
-0.0025552802 0.033672716 0.86163193
0.00065972295 0.032941282 0.86347127
0.01836217 0.033725318 0.8629778
0.023167409 0.033689711 0.86206657
0.028408462 0.033305779 0.86252499
0.032842439 0.032113567 0.86282969
0.037385561 0.031842522 0.86091679
0.042358756 0.031049317 0.86000025
-0.0057585724 0.03520871 0.86000001
-0.0025539293 0.035252206 0.86106253
0.0022667367 0.036891028 0.86197269
0.0072958935 0.037122488 0.86269605
0.011676503 0.036417495 0.86160004
0.016720513 0.035262387 0.86131114
0.028726662 0.035210073 0.86003351
0.031933337 0.035208706 0.86000019
0.069645464 0.068823785 0.86025006
0.069148071 0.073130757 0.86071348
0.068970762 0.076967396 0.86183333
0.063523285 0.082348824 0.86153328
0.067290127 0.08156123 0.86295521
0.058461249 0.08889813 0.86093336
0.061834831 0.086989455 0.86318904
0.065903306 0.085173018 0.86376834
0.057138793 0.093233004 0.86215007
0.060287811 0.090027906 0.86410016
0.053271782 0.098160014 0.86140007
0.056479383 0.097444631 0.86335009
0.048785739 0.10402284 0.86020011
0.052124701 0.10267623 0.86232603
0.055478826 0.10213101 0.86450016
0.0480639 0.1074023 0.86163336
0.0514041 0.10766688 0.8637557
0.043962672 0.11359721 0.86000019
0.047513984 0.11253186 0.86256254
0.050653614 0.11100101 0.86470014
-0.0282399 0.11690726 0.86081028
0.043608509 0.11732212 0.86091673
0.04610851 0.11675221 0.862625
-0.027064741 0.12223434 0.86167681
-0.022608925 0.12484549 0.86034387
0.042458415 0.12233397 0.8619858
-0.026730757 0.12536395 0.8639167
-0.021616701 0.12781206 0.8618474
0.03812629 0.12867843 0.86100012
0.041686654 0.12678817 0.86267507
-0.021352483 0.13120769 0.8635959
-0.016717801 0.13353267 0.8627001
0.033971429 0.133324 0.86083341
0.037124325 0.13266118 0.86259443
0.040939648 0.13018253 0.86390018
-0.016524872 0.13659459 0.86380011
-0.013159275 0.13814771 0.86145341
0.018701065 0.13879357 0.86000019
0.022791734 0.13855793 0.86002684
0.027933374 0.13844033 0.8602891
0.032617792 0.13773909 0.86215842
-0.011408196 0.14282922 0.86262792
-0.0089719519 0.1432821 0.86053348
0.0086766221 0.14399284 0.86000019
0.01211522 0.14286768 0.86010492
0.017522205 0.1425855 0.86115557
0.023147978 0.14261845 0.86135554
0.027977519 0.14266726 0.8616519
0.031894714 0.14261681 0.86328679
-0.010614755 0.14700893 0.8636167
-0.0075789932 0.14768247 0.86169171
-0.0041546603 0.14799219 0.86000019
0.0022609816 0.14799219 0.86000019
0.0070755268 0.14724092 0.86028165
0.011908037 0.14747939 0.86167407
0.017330602 0.14748088 0.86253339
0.022877762 0.14791642 0.86328346
0.027575511 0.14755343 0.86344296
0.031305127 0.14640519 0.86480016
-0.0069318591 0.15235244 0.86333817
-0.0025544085 0.15218499 0.86108899
0.0022640787 0.15220755 0.86121488
0.0070879054 0.15231024 0.86180001
0.011917436 0.15240709 0.8623482
0.016313849 0.1524709 0.86400974
-0.0057853567 0.15591292 0.8640002
-0.0025592223 0.15648933 0.86274451
0.0022694666 0.15656714 0.86317229
0.0066980873 0.15620057 0.86336678
0.011537782 0.15632252 0.86404186
0.0038897598 0.028995018 0.86553347
0.0063201613 0.029035328 0.86673677
0.01282066 0.029114334 0.86909533
0.018497275 0.029120078 0.86926663
0.022899952 0.028429927 0.86936194
0.028520573 0.028445765 0.86843717
0.0032447546 0.032543354 0.86569786
0.00712993 0.03226747 0.86693716
0.011987776 0.032285318 0.86744082
0.016613303 0.031830512 0.86762857
0.022490228 0.03146027 0.86693347
0.027829811 0.031304922 0.86708677
0.0055005979 0.035413418 0.86500013
0.063628532 0.088584229 0.86570013
0.066695511 0.088151231 0.86777002
0.062285941 0.092109106 0.86666679
0.066094324 0.092090771 0.86839116
0.058018472 0.099119633 0.86630011
0.061636761 0.096351065 0.86796111
0.065491788 0.095387936 0.86900002
0.057847124 0.10251532 0.86776114
0.053986777 0.10800052 0.86642998
0.056399513 0.10731947 0.86874664
0.052653935 0.11320993 0.86775512
0.048542034 0.11811326 0.86730671
0.051733751 0.11644275 0.86930001
-0.026779588 0.1239837 0.86550003
0.044248935 0.12399805 0.86560017
0.046366956 0.12224736 0.86745834
-0.025766155 0.12751879 0.8676343
0.043919303 0.12783353 0.86704165
0.046066388 0.12697357 0.86943334
-0.025250712 0.13248099 0.8684333
-0.022601908 0.13278997 0.86622512
-0.018704422 0.13361284 0.86530018
0.039410416 0.13367461 0.86570013
0.042747311 0.13239457 0.86786193
-0.025278816 0.13586314 0.86940002
-0.021785706 0.13697447 0.8674705
-0.017921058 0.13781509 0.86641681
0.038079441 0.13738799 0.86753339
0.041182913 0.13661419 0.86903328
-0.020411367 0.14069337 0.86926663
-0.016956296 0.14202064 0.868725
-0.013874251 0.14258191 0.86600018
0.034166098 0.14254266 0.86576676
0.036957271 0.14190228 0.86874664
-0.012606388 0.1475178 0.8675667
0.02972661 0.14899093 0.86580014
0.033569641 0.14743911 0.86772782
0.036337368 0.14638123 0.86943328
-0.011216354 0.1518933 0.86858892
-0.0090346821 0.15395558 0.86655015
0.018428829 0.15386695 0.86605012
0.022167688 0.15290143 0.86697018
0.028180093 0.1525794 0.86788893
0.032534786 0.15141185 0.86891109
-0.010682562 0.15522255 0.86913329
-0.0077538625 0.15754905 0.8677001
-0.0025723577 0.15968603 0.86703342
0.0022801247 0.15974335 0.86734468
0.0074540647 0.15904558 0.86705339
0.011986755 0.15895529 0.86744177
0.016840791 0.15733311 0.86739451
0.02263459 0.15700327 0.86904448
0.028625589 0.15562697 0.86913329
-0.0066308985 0.16008511 0.86919993
-0.0022530903 0.16227925 0.86882669
0.0022839762 0.16243185 0.86877775
0.0071481713 0.16249625 0.86912221
0.012414224 0.16126376 0.86901659
0.015795635 0.16064073 0.86928886
0.002287097 0.16507487 0.86993331
0.016907137 0.029173676 0.87086689
0.067228317 0.092314005 0.87050015
0.063497938 0.09834078 0.87128901
0.067105763 0.097928457 0.87241501
0.062296435 0.10205602 0.87245411
0.05878621 0.10744148 0.87170005
0.06132213 0.10679961 0.87308329
0.057339702 0.11198158 0.87234443
0.06100877 0.1106239 0.87443334
0.052650735 0.11856826 0.87105578
0.056677591 0.11661687 0.87301987
0.048734397 0.12343973 0.87074679
0.052983288 0.1222329 0.87270457
0.056092769 0.12114653 0.87406665
0.048104752 0.12817058 0.8720777
0.052259505 0.12622301 0.87356645
0.044511352 0.13445173 0.8707335
0.047317769 0.13229841 0.87255549
0.043368887 0.1379775 0.87107641
0.046310112 0.13821381 0.87403321
-0.022112263 0.14281337 0.87233984
-0.018821873 0.14417018 0.8707335
0.039244238 0.1429939 0.87096685
0.042966783 0.14281017 0.87231475
-0.021072254 0.14692141 0.8742528
-0.017234942 0.14772016 0.87255925
-0.013954363 0.14907502 0.87100023
0.038538631 0.14786446 0.8720476
0.04204458 0.14754808 0.87346649
-0.016462775 0.15135553 0.87481666
-0.013321867 0.15282878 0.87207997
0.03422929 0.1533604 0.8708002
0.037584443 0.1521696 0.87326115
-0.012081933 0.15745918 0.87256664
0.027452402 0.1581635 0.87048906
0.033182606 0.157308 0.87172604
0.036505941 0.15599643 0.87346649
-0.01074443 0.16181353 0.87416661
-0.0076949783 0.16261046 0.87159055
-0.0042049047 0.16354433 0.87040013
0.012029435 0.16356102 0.87048894
0.017449306 0.1625586 0.87090021
0.021788621 0.16207713 0.87121499
0.02729767 0.16218753 0.87259984
0.031234235 0.16302088 0.87409997
-0.0069399267 0.16693723 0.87403327
-0.0025853901 0.16699648 0.87151122
0.0022897916 0.16709259 0.87095845
0.0071676811 0.16699523 0.87150377
0.012052113 0.16711468 0.87212592
0.016949464 0.16728359 0.8730073
0.021616099 0.16693501 0.87361419
0.026760096 0.16591823 0.87437773
-0.0025916344 0.17065449 0.87364417
0.0022968238 0.17229098 0.87369615
0.0068600317 0.17133036 0.87377322
0.011265878 0.17076957 0.87423325
0.064378254 0.10429204 0.87590009
0.06778314 0.10287077 0.87766385
0.063914746 0.10819751 0.87849998
0.067588054 0.10699943 0.8793999
0.059441321 0.11318454 0.87536669
0.062254734 0.11306052 0.87819326
0.059127226 0.11784846 0.87675011
0.061791182 0.11743596 0.87976646
0.058404837 0.12264147 0.87728578
0.061397173 0.12196845 0.87999976
0.054016259 0.1281504 0.87563342
0.057535987 0.12721851 0.87830001
0.049642138 0.13271478 0.87530005
0.052830674 0.13201484 0.87740421
0.056462824 0.13176541 0.8798331
0.049016763 0.13731779 0.8787055
0.051549904 0.13588263 0.87999976
-0.023828311 0.14498954 0.87568194
0.04748296 0.14236802 0.8775999
-0.022526171 0.14859712 0.87582636
0.04422782 0.14827295 0.87583345
0.046499085 0.14693998 0.87760019
-0.022487445 0.15237223 0.87799114
-0.017313905 0.15355533 0.87653905
0.039060004 0.15399235 0.87593341
0.043263 0.15223533 0.87832779
0.046615653 0.15139964 0.87979978
-0.021470904 0.15624794 0.87945443
-0.017573163 0.15724398 0.87783819
-0.014034733 0.15889703 0.87601674
0.038279053 0.15739438 0.87673348
0.041255798 0.15743279 0.87921661
-0.016538503 0.16022453 0.87883347
-0.012758357 0.1630104 0.8779934
0.033371381 0.16310102 0.87671119
0.036723353 0.16264124 0.87864166
0.040061425 0.16043715 0.87999976
-0.011625377 0.16681771 0.87911665
-0.0085963616 0.16907687 0.8767001
0.022708118 0.16935936 0.87535
0.026829192 0.16879295 0.87663341
0.031566866 0.16797227 0.877671
0.035653751 0.16683722 0.87922215
-0.010815307 0.17024611 0.87993306
-0.0069718775 0.17259346 0.87799454
-0.0025988594 0.17355965 0.87600011
0.0076069976 0.17383236 0.87532508
0.012340078 0.17321704 0.87603343
0.017021323 0.17288622 0.87671494
0.021946378 0.17304139 0.87750387
0.026879035 0.1731931 0.87827426
0.03206744 0.17224301 0.87938082
0.035137776 0.17025901 0.87999976
-0.006710642 0.17673323 0.87963319
-0.0023995952 0.17783599 0.87800854
0.0023052306 0.17777379 0.87668902
0.0072190859 0.17799363 0.87777793
0.011903929 0.1776354 0.87831444
0.017059693 0.17736113 0.87868899
0.021992415 0.17749582 0.87935543
0.026927767 0.17759861 0.87986642
0.031527113 0.17582473 0.87999976
-0.0026091626 0.18269563 0.87945169
0.0023096162 0.18302515 0.87841499
0.0070238216 0.18293075 0.87894166
0.012160084 0.18143363 0.87994415
0.017083855 0.18089254 0.87996632
0.021187492 0.18008088 0.87999976
-0.00096885912 0.18662877 0.87999976
0.0019847597 0.18723832 0.87978649
0.071276829 0.10482785 0.88039994
0.068443313 0.10939495 0.88090831
0.07221248 0.10745511 0.8818
0.064774334 0.11313158 0.88128883
0.067660376 0.11300869 0.88216668
0.07158985 0.11022297 0.88426679
0.064153895 0.11844449 0.88179332
0.067636125 0.11771383 0.88287503
0.063452475 0.12305686 0.88193887
0.066664949 0.12177865 0.88456684
0.059830628 0.12867755 0.88109982
0.062235653 0.12774326 0.88257331
0.054836486 0.13425583 0.88006634
0.058268357 0.13295931 0.88232005
0.052997652 0.13772649 0.88132215
0.055635441 0.13815548 0.88406676
0.049951535 0.14255345 0.88075542
0.052146874 0.14252958 0.88315004
0.048318665 0.14749871 0.88093323
0.0505061 0.1474764 0.8832584
0.047169454 0.15308294 0.8824417
-0.021517262 0.15904394 0.88135058
0.043411154 0.15740885 0.88136655
0.045960806 0.15687582 0.88298339
-0.02074841 0.16109733 0.88362074
-0.017664263 0.1629795 0.88236666
0.041543264 0.16251434 0.88238883
-0.016632041 0.16605899 0.88378346
-0.013724608 0.16783512 0.88230836
0.037841134 0.16765261 0.88178653
0.040643189 0.1672799 0.88371676
-0.012164295 0.17204094 0.88242662
-0.0091763036 0.17355925 0.88013309
0.036862899 0.17227748 0.88195711
-0.010859146 0.17586663 0.8835001
-0.0087808128 0.17753357 0.88157499
0.032323133 0.17834815 0.88154995
0.036080766 0.1774082 0.88298345
-0.0073486203 0.18196774 0.8822
0.013002273 0.18364653 0.88139987
0.017100964 0.18352616 0.880822
0.022276195 0.18245944 0.88131899
0.026981333 0.18205139 0.88160729
0.031429138 0.18187477 0.88340563
0.035309486 0.18096079 0.88430017
-0.0059199459 0.18749963 0.88410014
-0.0031642022 0.1875221 0.88163328
0.003955374 0.18829426 0.88013303
0.0074764448 0.18721135 0.88053781
0.011990398 0.18694682 0.88246244
0.016942522 0.18712476 0.88330007
0.022103721 0.18578357 0.88376683
0.026249146 0.18596923 0.88465017
-0.0015217145 0.19115829 0.88327789
0.0023203457 0.19207241 0.88244081
0.0068612113 0.19125815 0.88437515
0.010574209 0.19088818 0.88456666
0.071783371 0.11258477 0.88666356
0.071211211 0.11726452 0.88776141
0.067979828 0.12232967 0.88557506
0.071092747 0.12229991 0.88835096
0.066859037 0.12708165 0.88711846
0.070982061 0.12702599 0.88904572
0.06237207 0.13242473 0.88606662
0.065972932 0.13191769 0.88857329
0.05800483 0.13801149 0.8866666
0.061414484 0.13659209 0.88815546
0.065399893 0.13574073 0.88980001
0.053549755 0.14339085 0.88593322
0.057191659 0.14227286 0.88794988
0.060367104 0.14057976 0.889
0.053177167 0.14720958 0.88659984
0.056219596 0.1471878 0.88895553
0.048570972 0.15485694 0.88553333
0.052019868 0.1519846 0.88799989
0.055451248 0.15066008 0.88993347
0.047382981 0.15872636 0.88644993
0.051062129 0.1567231 0.88863993
-0.02080976 0.16404633 0.88623321
0.043636084 0.16316697 0.88593328
0.046703957 0.16216993 0.88769323
-0.020836372 0.16755819 0.88736641
-0.017505607 0.16845685 0.88630551
0.0430272 0.16765182 0.88699311
0.045871578 0.16667001 0.88923329
-0.020876467 0.17201547 0.88907433
-0.017767221 0.17219427 0.88756168
-0.013371011 0.17391074 0.88609993
0.038641397 0.17453216 0.88506687
0.041503172 0.17251559 0.88739991
-0.016455825 0.17588581 0.88913316
-0.012560864 0.17777467 0.88717133
0.038680211 0.17800432 0.88595551
0.041456599 0.1772498 0.88878661
-0.011737991 0.18245877 0.88758314
-0.0092388596 0.18463275 0.88613319
0.033166673 0.18401438 0.88580006
0.037064586 0.18312632 0.88681889
0.040477198 0.18112297 0.88913333
-0.010924287 0.18684256 0.88879991
-0.0082516801 0.18768784 0.88654649
0.013880461 0.18933536 0.88500017
0.018832067 0.18933536 0.88500017
0.022154851 0.18868983 0.88583326
0.027368614 0.18849209 0.88656175
0.031912163 0.18796389 0.8872664
0.037144978 0.18710567 0.88874435
-0.0072751315 0.19203997 0.8883732
-0.0031801651 0.19343776 0.88619441
0.0076166606 0.19380972 0.88588667
0.012457881 0.19315809 0.88648731
0.017016793 0.19289377 0.88716644
0.022203667 0.19241215 0.88779974
0.027197577 0.19260217 0.88867778
0.031858582 0.19223072 0.88925332
0.035513114 0.19027671 0.88940006
-0.0059532057 0.19599387 0.8890667
-0.0023032944 0.1972308 0.88793314
0.002331598 0.19799021 0.8868888
0.0072964937 0.19722812 0.88717765
0.012278794 0.1975171 0.88847762
0.017263314 0.19685657 0.88922662
0.021821765 0.19559523 0.88913333
0.02721218 0.19518642 0.88915557
-0.0015319005 0.20073505 0.88931113
0.002337791 0.20263959 0.88919997
0.0070773996 0.20138121 0.88938093
0.011465043 0.20026341 0.88966674
0.002339527 0.20526928 0.88984448
0.072077833 0.12919159 0.89029402
0.06841819 0.13306613 0.89128351
0.071205527 0.13240367 0.89184344
0.06324663 0.13862912 0.89063352
0.066963553 0.13754927 0.89294034
0.062427334 0.14288369 0.89176273
0.065745339 0.14228179 0.89450026
0.058827993 0.14749326 0.89080024
0.061311282 0.14753868 0.89308023
0.053831831 0.15408634 0.8906002
0.057269324 0.15273486 0.89238119
0.060756404 0.15147272 0.89473355
0.053471826 0.15797719 0.89151686
0.056278784 0.15694267 0.89428908
0.048877206 0.16329314 0.89111686
0.051736925 0.16218965 0.89264464
0.048093267 0.16759604 0.89196688
0.050719697 0.16637141 0.89430022
-0.022564892 0.17390196 0.89026934
0.043936532 0.17341745 0.89203352
0.046202037 0.17165685 0.89294463
-0.021359071 0.17713258 0.89193445
-0.018166451 0.17805077 0.89168906
-0.014290799 0.17921795 0.89200032
0.043940905 0.17758338 0.89212245
-0.021000342 0.18218574 0.89435029
-0.017432099 0.18255112 0.89308357
-0.014297031 0.18261683 0.89238912
0.041838106 0.18287307 0.89161682
-0.015996721 0.18634814 0.89436698
-0.013313132 0.18746175 0.89332694
0.038935378 0.18913119 0.89180028
0.041315943 0.18737383 0.89290684
-0.010961162 0.19079016 0.89180017
-0.009303852 0.19340241 0.89236689
0.033907667 0.1930621 0.89080018
0.037038684 0.19267404 0.89283913
-0.0076387823 0.19749644 0.89212024
-0.0043002362 0.19871263 0.8901335
0.018120155 0.19880939 0.89056683
0.022610549 0.1982021 0.89081353
0.027272252 0.19810273 0.89111137
0.032072905 0.19711812 0.89254779
0.035707448 0.19630846 0.8942669
-0.0059874654 0.20211232 0.89418364
-0.0032017806 0.20302542 0.89210582
0.0081568798 0.20383266 0.89080018
0.012557681 0.20280686 0.89149064
0.017330907 0.20259605 0.8926484
0.022121159 0.20243721 0.89404309
0.027348261 0.20156503 0.89360023
-0.0020949221 0.20714124 0.89315581
0.0023433834 0.20810185 0.89133912
0.0073434231 0.20761704 0.89281505
0.01179628 0.20729254 0.8938058
0.017359817 0.2062638 0.89415592
0.0023501348 0.21124057 0.89410019
0.072475038 0.13489923 0.89520019
0.069197662 0.13835329 0.89599997
0.072634362 0.13714285 0.8971613
0.068461843 0.14189315 0.89730024
0.071098097 0.14214648 0.89890027
0.063622907 0.14834262 0.89593333
0.066399425 0.14654809 0.89770019
0.063147433 0.15242578 0.89707786
0.066054031 0.15130889 0.89870024
0.058204226 0.15778105 0.89653337
0.061655939 0.15672204 0.89810693
0.053278916 0.16405335 0.89526677
0.057630129 0.16204908 0.89800489
0.061100446 0.16069944 0.89980024
0.049097527 0.16985671 0.89513344
0.053092062 0.16739036 0.89678901
0.055971526 0.16627717 0.8982836
0.047934365 0.1735006 0.8967585
0.05148587 0.17095144 0.89796686
0.046618626 0.17744422 0.89561123
-0.019364441 0.1849874 0.89583337
0.04411139 0.18243718 0.89558327
0.046872012 0.18227962 0.89726675
-0.017132798 0.18772079 0.89562231
-0.014350614 0.18996541 0.89573342
0.044134099 0.18669786 0.89604443
0.046598092 0.18686299 0.89844024
-0.016610587 0.19089198 0.89747787
-0.012698351 0.19274116 0.89701676
0.039104205 0.19328356 0.89566678
0.042721204 0.19212276 0.89705008
-0.011044737 0.19642439 0.89860022
-0.0093361717 0.19823752 0.89546686
0.033250645 0.19990331 0.89546674
0.038011272 0.19727392 0.89613336
0.041562665 0.19684842 0.89824688
-0.0076756212 0.20262264 0.89645004
0.023225585 0.20486239 0.89530015
0.026849998 0.20380025 0.89551133
0.032433651 0.2025152 0.89596671
0.03751697 0.20205578 0.89762604
-0.007012771 0.20731921 0.8972801
-0.0034907185 0.20905721 0.89543337
0.013490682 0.20938408 0.89564449
0.016973013 0.20871833 0.89576668
0.022405602 0.20749456 0.89587778
0.027661985 0.20713337 0.89701676
0.032298226 0.20694464 0.89800847
0.037147075 0.2060872 0.89882517
-0.0060163685 0.21060883 0.89850026
-0.0029007713 0.21243824 0.89714777
0.0023544612 0.2132768 0.89566666
0.0073663597 0.21244675 0.8956778
0.012384488 0.21256261 0.89616662
0.017616294 0.21204248 0.89660841
0.022440009 0.21198542 0.89724827
0.026938217 0.21171439 0.8984614
0.030866504 0.21072602 0.89900023
-0.0015489435 0.21633555 0.89914465
0.0025687437 0.21687299 0.89761674
0.0073816627 0.21706448 0.89754462
0.012413381 0.21723741 0.89825946
0.017442992 0.21644576 0.89844465
0.022479208 0.21569753 0.89881128
0.074624933 0.13912533 0.90100032
0.076305337 0.13912533 0.90099996
0.073804371 0.14251523 0.90123612
0.076305345 0.14163938 0.90100014
0.068899527 0.14781488 0.90084028
0.073062606 0.14774245 0.90244091
0.06828358 0.15275566 0.90231115
0.072037525 0.15186416 0.90366668
0.064128652 0.15799582 0.90108359
0.067058168 0.15760902 0.90318668
0.059488349 0.16422935 0.90080035
0.062973566 0.16287456 0.90257633
0.058341708 0.1679703 0.90160495
0.053365394 0.17328553 0.90141684
0.057517841 0.17173311 0.90280843
0.049419906 0.17767638 0.90101153
0.051877558 0.17769846 0.90282667
0.04950523 0.18302085 0.90256673
0.051245265 0.18154182 0.9035666
0.048954815 0.18808936 0.90273339
-0.014447807 0.19460709 0.90180004
0.04693589 0.19291043 0.9017058
-0.012760585 0.19819646 0.90134019
0.043978032 0.19829372 0.90140021
0.04674362 0.19719546 0.90341097
-0.012790643 0.20196964 0.9034667
-0.009396119 0.20370194 0.9012168
0.042190079 0.20250036 0.90208894
0.046252813 0.20030384 0.90480006
-0.012230064 0.20704138 0.90360004
-0.0094061997 0.20727676 0.90218347
0.034302261 0.20955752 0.90116692
0.038021259 0.20900333 0.90166682
0.041708779 0.20681465 0.90383339
-0.0127985 0.21192183 0.90410012
-0.0073872516 0.21243446 0.90200007
0.02869481 0.2139885 0.90100026
0.032652024 0.21282537 0.90198898
0.036649931 0.21241222 0.90380001
-0.0066109803 0.21679337 0.90337777
-0.0030102152 0.21836703 0.90154684
0.00068793795 0.21942872 0.90040028
0.017487135 0.21950452 0.9007113
0.022535183 0.21874814 0.90104467
0.027621547 0.21742027 0.90248895
0.031863526 0.2159825 0.90349996
-0.0021187591 0.22197753 0.90395552
0.002371646 0.22244151 0.90242785
0.0074197068 0.22237863 0.90217227
0.012143488 0.22244254 0.90311337
0.017550964 0.22198771 0.90399998
0.026820771 0.2202816 0.90390003
0.073300794 0.1532785 0.90540004
0.075039074 0.15253751 0.90600014
0.069988005 0.15679131 0.90623355
0.072576649 0.15690555 0.90689468
0.075208396 0.15710445 0.90804482
0.067673601 0.1623089 0.90692025
0.071875624 0.16229443 0.90872616
0.075325228 0.16242473 0.909455
0.062912866 0.16730496 0.9065668
0.066507138 0.16736019 0.90870023
0.071127474 0.16590671 0.90999991
0.058971234 0.17355615 0.9057501
0.06249452 0.17227155 0.90785581
0.065571107 0.17214778 0.90943336
0.054753579 0.1777882 0.90585011
0.058024324 0.17704755 0.90745032
0.062061783 0.1777149 0.90978885
0.053596418 0.18240626 0.90666687
0.057317603 0.18229619 0.90900022
0.060091507 0.18112841 0.90993327
0.052972354 0.18726039 0.90786266
0.049722817 0.19225742 0.90653354
0.051974744 0.19234611 0.90895009
0.049277097 0.19764084 0.90610015
0.051610112 0.19722304 0.90999991
-0.01450869 0.20385002 0.90560013
0.044612959 0.20388752 0.90576673
0.048273336 0.20270765 0.9070794
-0.013657972 0.20544012 0.90518343
0.043982796 0.20780709 0.90669358
0.046846755 0.20737675 0.90813363
-0.011135695 0.21236785 0.90600014
-0.0094437348 0.21315873 0.90578341
0.038998425 0.21352501 0.90614462
0.042816043 0.21261108 0.90793771
0.046501603 0.2115341 0.90966672
-0.0087859854 0.21812877 0.90753347
0.033363953 0.21800892 0.90610009
0.03772961 0.21764125 0.9077878
0.041422591 0.21666615 0.90989995
0.06862694 0.16855738 0.91059995
0.072188511 0.1680965 0.91269338
0.075695992 0.16747399 0.91393143
0.067887731 0.17306997 0.91206676
0.071484372 0.1709924 0.91456699
0.063553058 0.17962638 0.9109
0.066733785 0.17689593 0.91255343
0.058411587 0.18456776 0.91019994
0.062272858 0.18256447 0.91203338
0.066026561 0.18076058 0.91377801
0.057132907 0.18787225 0.91144669
0.061574247 0.18678463 0.91394311
0.053336572 0.19309714 0.91049993
0.056924529 0.192046 0.91355723
0.053003512 0.197668 0.91205835
0.055843074 0.19620676 0.91446704
0.052655067 0.20220557 0.91339189
0.049074207 0.20742151 0.91018331
0.050964516 0.20735165 0.91361678
0.047922108 0.21261494 0.91248345
0.050119564 0.21163808 0.91376686
-0.01177688 0.21774612 0.91205573
0.073047876 0.17274491 0.91633898
0.075944833 0.17228937 0.91693568
0.069067836 0.17816432 0.91645002
0.072652042 0.1777162 0.9185369
0.076032981 0.17590348 0.9179998
0.068027921 0.18325645 0.91776663
0.071046062 0.18140768 0.91993338
0.063889086 0.18824205 0.91571689
0.066453226 0.18753628 0.9181
0.058785949 0.19427057 0.91603357
0.062086698 0.19265455 0.91746241
0.065839298 0.19235703 0.91909993
0.057503302 0.19830772 0.91736662
0.062412601 0.19606286 0.91911101
0.065899 0.19509766 0.91993338
0.053650942 0.20445734 0.91586673
0.056666914 0.20250291 0.9185943
0.053140581 0.20752533 0.91687775
0.055536345 0.20767608 0.91879988
0.052561153 0.2122786 0.91811901
0.055588722 0.21043795 0.91966665
0.076198623 0.17885377 0.92000002
0.073178753 0.18261819 0.92086011
0.076322861 0.18171662 0.92150003
0.068806142 0.18838222 0.92056674
0.073034003 0.187241 0.92337388
0.068787776 0.19241691 0.92184687
0.071432203 0.19099638 0.92493314
0.062981114 0.19835669 0.92115843
0.067500845 0.19713688 0.92306674
0.059098274 0.20301214 0.92090011
0.062116276 0.2020883 0.92320013
0.058344726 0.20766509 0.9225443
0.072968416 0.19326501 0.92618316
0.075031966 0.19310296 0.9267832
0.069840312 0.19825669 0.92669982
0.072283454 0.19748592 0.92847776
0.075276203 0.19719021 0.92980009
0.063718915 0.20405865 0.92564976
0.067486227 0.20224449 0.92759323
0.070066407 0.20149282 0.9297002
0.073676579 0.19928357 0.93150014
0.071992472 0.20289297 0.93216676
