# .PCD v0.7 - Point Cloud Data file format
VERSION 0.7
FIELDS x y z
SIZE 4 4 4
TYPE F F F
COUNT 1 1 1
WIDTH 1166
HEIGHT 1
VIEWPOINT 0 0 0 1 0 0 0
POINTS 1166
DATA ascii
0.049035084 0.05365907 0.82396674
0.039088856 0.058319505 0.8248446
0.042144276 0.057983704 0.82443333
0.047781073 0.057653122 0.82374871
0.052552961 0.057471544 0.82368672
0.018425081 0.054021604 0.82953358
0.022275656 0.053979635 0.82888919
0.026913399 0.053979635 0.82888913
0.032771464 0.053645365 0.82849348
0.037683111 0.052805603 0.82777148
0.042514298 0.052564844 0.82788342
0.047119934 0.052344713 0.82744175
0.052593913 0.052352104 0.82757044
0.056263722 0.052416846 0.8285715
0.00218176 0.058674444 0.82986677
0.0087548513 0.058258004 0.82943362
0.013221527 0.057506692 0.8289336
0.017617967 0.056998689 0.82796293
0.022232585 0.056952529 0.82728881
0.027632415 0.056952089 0.8272776
0.033019118 0.056929614 0.82694793
0.037212539 0.057049241 0.82589173
0.042187002 0.055278882 0.82526684
0.046279043 0.056798905 0.82504463
0.054486979 0.05756766 0.8250668
0.056085337 0.057628803 0.82594442
0.002180971 0.06096787 0.82956696
0.008883765 0.061215561 0.82943362
0.013193045 0.061495814 0.82887518
0.017779768 0.061953753 0.82828677
0.0222582 0.06241332 0.82824445
0.027328234 0.062181208 0.82809049
0.032615338 0.062607139 0.82790476
0.037495326 0.062781632 0.82702649
0.042238608 0.063033074 0.82628143
0.047628816 0.063028581 0.82622224
0.053027466 0.063033976 0.82628894
0.056869239 0.063501246 0.82838136
0.023847807 0.066387653 0.82980031
0.02693628 0.06637165 0.82960033
0.032849263 0.066849358 0.82914478
0.037923422 0.067657076 0.82880026
0.042352483 0.06782601 0.82850391
0.046999793 0.067842692 0.82871133
0.051931042 0.067669228 0.82847345
0.057086419 0.066347644 0.82930028
0.039311051 0.070995584 0.82953364
0.04241772 0.071016498 0.82977796
0.048075195 0.071506269 0.82948905
0.051483579 0.072330877 0.82935864
0.037982136 0.049678098 0.83433312
0.042615324 0.049249101 0.83364999
0.047285587 0.049643695 0.83375567
0.051931668 0.049625169 0.83344454
-0.00091931585 0.054377582 0.83499974
0.002191552 0.054295108 0.83373338
0.0080977818 0.05396191 0.8333866
0.013260392 0.052896716 0.83310837
0.017486179 0.052201595 0.83217144
0.022355432 0.051849771 0.83184451
0.027026653 0.05188236 0.8323667
0.032101668 0.051733397 0.83174282
0.037786782 0.050966114 0.83003336
0.040904108 0.050992727 0.83046663
0.047095656 0.050988611 0.83040017
0.05488763 0.051033661 0.83113325
-0.0022802835 0.057606734 0.83397484
0.0021859093 0.057054058 0.83157498
0.0070300731 0.056643751 0.83122492
0.012255931 0.055651747 0.83083332
-0.0024727944 0.062003449 0.83311111
0.0020118768 0.062695213 0.83085924
0.0068334704 0.062721528 0.83088571
0.012643492 0.064540036 0.83085001
0.016889798 0.064867511 0.83010018
-0.0019557287 0.066210769 0.8340444
0.0024141113 0.067150235 0.83378088
0.0074191215 0.066824965 0.83349097
0.013262296 0.068017296 0.83319992
0.017709909 0.068136692 0.83228892
0.022152307 0.068267122 0.83152509
0.026996287 0.068838783 0.8314333
0.031891104 0.06906388 0.83104438
0.036251787 0.06951949 0.83033335
0.054872215 0.068794221 0.83089989
0.057199419 0.06879767 0.83094102
0.018073779 0.072063044 0.83474648
0.022612102 0.072752036 0.83418328
0.027069021 0.072901621 0.83367401
0.032486912 0.072851561 0.83309442
0.037698254 0.072981119 0.83235836
0.042527586 0.073523052 0.83193332
0.04661477 0.073185869 0.83103329
0.054377299 0.072685696 0.83122224
0.057525642 0.072750092 0.83193791
0.023989586 0.076098934 0.83473307
0.027107663 0.076111086 0.83486646
0.031781275 0.076117165 0.8349331
0.042619988 0.07600981 0.83375555
0.047491554 0.077093184 0.83347613
0.051879711 0.077456012 0.83260739
0.056662198 0.076071911 0.83443671
0.05202841 0.080783039 0.83499974
0.013544329 0.049545515 0.83866668
0.018218495 0.04949329 0.83778334
0.02251173 0.049097788 0.83768892
0.027193703 0.048307888 0.83752584
0.032037631 0.048631668 0.83714062
0.037810028 0.047991764 0.83741343
0.043027047 0.046739489 0.83733332
0.047471412 0.046722427 0.83702952
0.052375793 0.046939343 0.83743215
0.05582973 0.048047181 0.83752006
-0.0065913247 0.052842412 0.83838671
-0.0026793058 0.052783743 0.83744997
0.002200624 0.052180018 0.83714432
0.0068783779 0.052133832 0.83639985
0.010780971 0.051371358 0.83663327
-0.0067233844 0.057646535 0.83736187
-0.0040393616 0.056006774 0.83613324
-0.006235294 0.062345527 0.83770674
-0.0062350156 0.066706583 0.83768004
-0.0028682011 0.068399243 0.83551645
0.0021957401 0.06992694 0.83519977
0.0076470943 0.069924153 0.83516634
0.011541736 0.069926947 0.83519971
-0.0056185517 0.071814291 0.83908898
-0.0024852497 0.072481185 0.83777332
0.0022010366 0.073207632 0.83717763
0.007194201 0.073028445 0.83690655
0.012547011 0.073263332 0.8361938
0.01738386 0.074203923 0.83524978
0.020884339 0.074575916 0.83506638
0.059814822 0.074569978 0.83500004
-0.00092430651 0.076536544 0.83953351
0.0022058219 0.076493993 0.8390668
0.0068959729 0.076451458 0.83860016
0.012626109 0.077461168 0.83825934
0.017826218 0.077933699 0.83774823
0.022300141 0.078064084 0.83705837
0.027179698 0.078650899 0.83710003
0.032543045 0.078011855 0.83673328
0.037788101 0.078013994 0.83693326
0.042760149 0.078593545 0.83648878
0.046612687 0.079289883 0.83563322
0.057617068 0.078251675 0.83699298
0.060101356 0.079609312 0.83900005
0.019431857 0.081228063 0.83960015
0.022553211 0.081189357 0.83920002
0.027260588 0.081225924 0.83957767
0.031182062 0.081244186 0.8397665
0.039006494 0.081231304 0.83963323
0.043396264 0.082184419 0.83872223
0.047475688 0.082546383 0.83711845
0.052098684 0.082642727 0.83612484
0.056928437 0.082667522 0.83835375
0.060097378 0.082725964 0.83894444
0.047989227 0.0862699 0.83926678
0.052574039 0.086449549 0.83873338
0.057013866 0.08591523 0.83961678
0.043125913 0.043955166 0.84364456
0.04749646 0.043294597 0.84302986
0.052544821 0.043151315 0.84328842
0.055671275 0.043921579 0.84300005
-0.0040792977 0.048706759 0.84440023
0.0037965816 0.048729818 0.84479988
0.0069386992 0.047885437 0.84377789
0.012090387 0.047698472 0.84245723
0.017600706 0.047619902 0.84186679
0.022957209 0.046403266 0.84253323
0.027365185 0.045480117 0.84282237
0.032465525 0.045859203 0.84260011
0.037202362 0.046097111 0.84183806
0.041416358 0.045374598 0.84086645
0.050773311 0.045327842 0.84000015
-0.0087855542 0.053308614 0.8426553
-0.0024959522 0.050138969 0.84207344
0.0022165987 0.050208703 0.84324473
0.0069218581 0.050121371 0.84177774
0.010047828 0.050047271 0.84053314
-0.0087637799 0.056303736 0.84056669
-0.0080014886 0.063495472 0.84259981
-0.008396442 0.067828208 0.84291655
-0.0078431163 0.071795613 0.84254646
-0.0061692637 0.075807482 0.84300011
-0.0027235877 0.077710614 0.84257144
0.0022122262 0.079072773 0.84158874
0.0069161877 0.079017043 0.84099978
0.01161398 0.079744264 0.84042215
-0.0017177144 0.081721686 0.84469986
0.0024139388 0.08298064 0.84351689
0.0069308695 0.083103977 0.84277797
0.012417633 0.083010793 0.84182781
0.017705113 0.083150201 0.84125829
0.022601297 0.08371044 0.84099984
0.027313938 0.083732635 0.84122211
0.03225245 0.083418295 0.84142858
0.037198048 0.083264627 0.84123325
0.04192251 0.083924413 0.84053308
0.0030069416 0.086404681 0.84440005
0.0074675404 0.087428391 0.84416676
0.012449921 0.087932013 0.84397238
0.018146936 0.087692574 0.84355843
0.022660399 0.087852731 0.84321499
0.027368523 0.087819949 0.84290397
0.032090113 0.087835282 0.84305215
0.037584368 0.087814897 0.84285587
0.043061599 0.087765686 0.8423779
0.047400758 0.088593766 0.84131986
0.052003235 0.088782459 0.84088314
0.057158183 0.088481091 0.84173322
0.060387895 0.087829567 0.84300005
0.02302086 0.091798864 0.84489328
0.027423613 0.091924302 0.8445999
0.032156739 0.091946013 0.84479994
0.037657719 0.092386395 0.8445133
0.04281063 0.092760369 0.84362698
0.047810838 0.092535973 0.84301502
0.052497473 0.092483409 0.84253347
0.057258718 0.092558593 0.8432219
0.060975641 0.093677826 0.84388894
0.04240023 0.095880195 0.84484994
0.048694387 0.095863178 0.84469992
0.052972563 0.09615764 0.84383339
0.057660975 0.096470192 0.84451133
0.061076272 0.097333372 0.84382153
0.054441333 0.034731075 0.84833336
0.056067515 0.034758367 0.84900004
0.047384299 0.039517224 0.84945035
0.053116631 0.03836051 0.84883791
0.056034658 0.03789559 0.84850264
0.0073769977 0.043833923 0.84890032
0.012517233 0.043419842 0.84853357
0.018058037 0.043582015 0.84861362
0.023193918 0.04380434 0.8483336
0.027508127 0.043352153 0.84722233
0.032458637 0.042775519 0.84752917
0.03699854 0.042573653 0.84743708
0.042261168 0.042044546 0.84734076
0.048407864 0.041351713 0.84658343
0.052741241 0.040951688 0.84643894
0.055883158 0.041727066 0.84620845
-0.0056898501 0.049014602 0.84973699
-0.0021980889 0.047937486 0.84748173
0.0020301298 0.047103055 0.84737509
0.0069616814 0.045683984 0.84660006
0.012475267 0.045635432 0.84569991
0.017995546 0.045633629 0.84566659
0.021136103 0.045604851 0.84513319
-0.0088225147 0.059829269 0.84620011
-0.010434557 0.063181572 0.84895587
-0.0088169537 0.062151585 0.84566665
-0.011209101 0.067808889 0.84756684
-0.01181482 0.072418168 0.84845853
-0.0088204276 0.073978618 0.84599978
-0.010441249 0.076655358 0.8495003
-0.0075738453 0.077591047 0.84764016
-0.0060777096 0.081693262 0.8484835
-0.0031411406 0.082804881 0.84613341
0.0006456612 0.084900893 0.84506649
-0.0056862556 0.085316174 0.84920025
-0.0025155719 0.087281331 0.84782243
0.0019977111 0.088563405 0.84572369
0.005901339 0.089125901 0.84537768
0.016408846 0.089631051 0.84519982
0.060531165 0.089609809 0.84500003
-0.0019912436 0.091103315 0.84915572
0.0024271256 0.092896283 0.84808344
0.006971404 0.093055621 0.84773338
0.012501739 0.093024097 0.8474502
0.018026112 0.092992835 0.84716302
0.022356542 0.094110698 0.84660012
0.027446449 0.094360121 0.84531099
0.032175407 0.094357632 0.84528869
0.035324547 0.094347708 0.84519982
0.011742566 0.096434392 0.84973359
0.023609566 0.096358731 0.84906697
0.028062448 0.097294718 0.84803361
0.032264058 0.097774059 0.84762979
0.036958754 0.097647168 0.8465333
0.042489212 0.098443232 0.84661669
0.047774903 0.098075725 0.84635246
0.052346278 0.098430909 0.84515989
0.057019599 0.098708406 0.84551662
0.062107101 0.097469114 0.84500003
0.033114519 0.10189895 0.84916693
0.037270676 0.102157 0.84849554
0.042571165 0.10226283 0.84824687
0.047807038 0.10277124 0.84853363
0.052766591 0.10241111 0.84685946
0.057504065 0.1024103 0.8468523
0.061354294 0.10067068 0.84548581
0.052912936 0.10585199 0.84920031
0.051886726 0.034293711 0.85317057
0.013403498 0.039756794 0.85460013
0.018181972 0.039750587 0.8544668
0.022960702 0.039348744 0.85437506
0.027740043 0.039109021 0.85434675
0.03251626 0.03894553 0.85425001
0.037269618 0.038917538 0.85365003
0.042013392 0.038887631 0.85299999
0.047590349 0.037572887 0.85316116
0.05147776 0.036452755 0.85168886
-0.0017366736 0.044488996 0.85389054
0.0024685359 0.043293439 0.85271895
0.0066938638 0.041883357 0.85260665
0.01256603 0.041215885 0.85189986
0.018120095 0.041594386 0.85154998
0.022545706 0.041791931 0.85073328
0.027626855 0.041165892 0.85086662
0.030791102 0.041152999 0.85060018
-0.0025231391 0.045901153 0.85062432
-0.0088864611 0.052335382 0.85233343
-0.012068999 0.06238899 0.85251647
-0.020591564 0.069408655 0.85432225
-0.016686503 0.067914061 0.85286665
-0.01363554 0.067297883 0.85110003
-0.021238053 0.072658464 0.85359174
-0.017393116 0.073009148 0.85137558
-0.013629665 0.074392527 0.85073334
-0.020054061 0.077065721 0.85405004
-0.016853649 0.077794462 0.85331851
-0.012505055 0.077835359 0.8512904
-0.0088718627 0.079158701 0.85093319
-0.015283073 0.081076875 0.85446668
-0.011884949 0.082380936 0.85355842
-0.0082453331 0.082718916 0.85172653
-0.010507211 0.085885487 0.85486686
-0.0073040845 0.087288782 0.85303336
-0.0057201814 0.091387182 0.85426676
-0.0030520179 0.092842244 0.85061121
0.00064999069 0.094965369 0.85073346
-0.0023011819 0.096730568 0.85233337
0.0022369032 0.097396515 0.85122782
0.0072242515 0.09768977 0.85082859
0.012625197 0.098301917 0.85096663
0.018112378 0.098182671 0.85118133
0.022640353 0.098600693 0.85088575
0.026548818 0.099126011 0.85022235
0.0032005575 0.10135975 0.85394001
0.0068205399 0.10183469 0.85359168
0.012809039 0.10307746 0.85356373
0.018168587 0.10325208 0.8538186
0.022933282 0.10319894 0.85337788
0.02766826 0.10305053 0.85214436
0.031777579 0.10361017 0.85153991
0.036334705 0.10441964 0.85039997
0.040296745 0.10441146 0.85033327
0.023491846 0.10702737 0.85437793
0.027738839 0.10648906 0.85431123
0.032506436 0.10758502 0.85399538
0.037210543 0.1078281 0.85232586
0.041914999 0.10765865 0.8509925
0.047466531 0.10765046 0.85092765
0.053010333 0.1084208 0.85076112
0.057907563 0.10788734 0.8527863
0.038090155 0.11124213 0.85420007
0.042052943 0.11198393 0.8537944
0.047013573 0.11254214 0.85350841
0.052387845 0.11274657 0.85355282
0.04395245 0.033601116 0.85980022
0.046887688 0.032428246 0.85902131
0.050226428 0.033507619 0.85740733
-0.00094628969 0.039984751 0.85949999
0.0022565473 0.039944943 0.85864443
0.0070469216 0.03986844 0.85700017
0.011453731 0.038708899 0.85781682
0.017842168 0.037885997 0.85727519
0.02303566 0.037323929 0.85717344
0.027835887 0.037090532 0.85729998
0.032649897 0.036712419 0.85775542
0.037472803 0.035936918 0.85831118
0.042244166 0.035910573 0.85767776
0.046563655 0.035451747 0.85621703
-0.0017438128 0.042265553 0.85713601
0.0014518417 0.041412637 0.85596699
-0.010539578 0.054247733 0.85750014
-0.011083166 0.058554422 0.858289
-0.020981509 0.063959844 0.85940003
-0.016531652 0.063394986 0.85716677
-0.013726327 0.061372034 0.85676682
-0.022130389 0.067193903 0.85732502
-0.017710747 0.065319486 0.85626698
-0.027768556 0.072685018 0.85860741
-0.024101784 0.072494961 0.85636687
-0.02819035 0.077537701 0.85927999
-0.02299667 0.078271225 0.85680676
-0.025003565 0.083195217 0.8599335
-0.02192946 0.082667619 0.85814077
-0.017126996 0.083116114 0.85704178
-0.01371618 0.084420167 0.85613364
-0.020189067 0.086381122 0.85980016
-0.017374815 0.08674252 0.85941672
-0.012145725 0.087790489 0.85793346
-0.0089309467 0.089246534 0.85660022
-0.010568667 0.091186382 0.85986686
-0.0077995667 0.092758261 0.85749537
-0.0063905986 0.097128227 0.85865343
-0.0041396855 0.098841771 0.85690004
-0.002012969 0.10161426 0.85787791
0.0010525662 0.10226738 0.85555029
-0.00094654656 0.10556569 0.85973346
0.0024550194 0.10675333 0.85802501
0.0070468462 0.10681536 0.85691857
0.011611591 0.10724977 0.85675251
0.017418362 0.10750856 0.85610026
0.023002999 0.10860409 0.8559469
0.027789161 0.10891205 0.85586703
0.032571174 0.10984574 0.85570037
0.0033282244 0.11086812 0.8595112
0.0070631602 0.11105445 0.85888886
0.011868008 0.1110431 0.85879993
0.017686684 0.11166298 0.85853934
0.022815736 0.11212727 0.85749525
0.027852016 0.1121674 0.85779995
0.032641072 0.1124731 0.85752225
0.037412833 0.1134588 0.85693341
0.042183358 0.11472074 0.85644484
0.045315776 0.11456297 0.85526675
0.058133006 0.11308217 0.85609746
0.018298673 0.11518803 0.8599335
0.023496211 0.11551651 0.85940009
0.028319634 0.11557678 0.85985017
0.03240753 0.11581182 0.85981351
0.03774523 0.11738767 0.85930479
0.042299975 0.11823353 0.85880733
0.047064133 0.11813225 0.85806674
0.052110501 0.11780456 0.85684681
0.056902103 0.11791719 0.8581714
0.045563031 0.12158666 0.8599335
0.052355684 0.12193237 0.85955018
0.055688981 0.12205067 0.85944444
0.032916818 0.027360778 0.86476928
0.037739884 0.028957797 0.86442226
0.042500731 0.028907008 0.86290628
0.023226609 0.033776551 0.86428899
0.028424919 0.033325553 0.86303324
0.033087488 0.032585796 0.86320007
0.03765057 0.032096356 0.86238515
0.042230748 0.031863041 0.86148334
0.0503783 0.032009181 0.86000007
-0.0014832303 0.037943978 0.86159259
0.0019450554 0.037875842 0.86248243
0.0074902368 0.038090631 0.86188346
0.01232142 0.036514472 0.86252505
0.017067 0.03563397 0.86256665
0.02316165 0.035284683 0.86185557
0.027943721 0.035234179 0.86062247
0.032744344 0.035218712 0.86024457
-0.0033534477 0.040819522 0.86025
-0.015451793 0.059473675 0.86390001
-0.012603496 0.057731718 0.86188805
-0.021863505 0.063127279 0.86258888
-0.017344829 0.061576325 0.86185348
-0.031504184 0.068985626 0.8622728
-0.027472218 0.067751706 0.86189181
-0.023410669 0.065629669 0.8603335
-0.03185888 0.072085723 0.86099118
-0.029025704 0.070428334 0.86030257
-0.027623849 0.082638897 0.86038166
-0.023403412 0.084808014 0.86006683
-0.026269412 0.086602196 0.86199677
-0.022038518 0.088361748 0.86155427
-0.016681062 0.089048304 0.86084002
-0.01378026 0.089614667 0.86013347
-0.025134403 0.090062633 0.86443341
-0.021088751 0.093209773 0.8637889
-0.017030567 0.093045399 0.8622666
-0.012390945 0.093114987 0.86105841
-0.016798398 0.097529672 0.86410016
-0.012206233 0.097853288 0.86222965
-0.0085751517 0.09811037 0.8609668
-0.011697169 0.10182739 0.86420017
-0.0073840637 0.10267738 0.86232972
-0.0036222369 0.10352179 0.86046678
-0.0057818969 0.10683002 0.86348343
-0.0027602082 0.10771632 0.86254168
0.0006570706 0.10879795 0.86000019
-0.0020248203 0.11188924 0.86327785
0.0017272137 0.11261272 0.86062241
0.0070738439 0.11362069 0.86017799
0.011884446 0.11359721 0.86000019
0.015092262 0.11359721 0.86000019
0.0027267432 0.11691017 0.86251897
0.0070867739 0.11703486 0.86174816
0.011903094 0.11698373 0.86137038
0.017437166 0.11702387 0.86059397
0.022792734 0.11776578 0.86006689
0.027615588 0.11781166 0.86040008
0.033138134 0.11800346 0.86005014
0.036745057 0.11919641 0.86000019
0.058402557 0.11920591 0.86006904
0.060171209 0.11873087 0.86242861
0.0030787652 0.12062186 0.86448348
0.0071010543 0.12088204 0.86346668
0.012337137 0.12090189 0.86360836
0.017782027 0.12189984 0.86317289
0.023160867 0.12185792 0.86184448
0.027990235 0.12188774 0.86205924
0.032793861 0.12181454 0.86154079
0.037587985 0.12253156 0.86095011
0.042180333 0.12306087 0.86045009
0.047495652 0.12256738 0.86008012
0.051674806 0.12418862 0.86022675
0.057229426 0.1232698 0.86051679
0.060053676 0.12170149 0.860744
0.024835484 0.1254002 0.86416686
0.028056009 0.12619364 0.86409456
0.032839045 0.12679848 0.86273712
0.037449397 0.12694563 0.86237502
0.042687804 0.12715034 0.862019
0.047274873 0.12667534 0.86190361
0.052297737 0.12807786 0.86189997
0.056937542 0.1272497 0.86217034
0.060961496 0.12672429 0.86223465
0.038551908 0.13028051 0.86455017
0.042888664 0.13087299 0.86421359
0.047364544 0.13093245 0.86354452
0.051796962 0.1313435 0.86360842
0.057458002 0.13099226 0.86394179
0.061881337 0.13138032 0.86384797
0.063503593 0.13501927 0.86400002
0.017695028 0.029134249 0.86968964
0.022558197 0.029130127 0.86956668
0.028517758 0.028443268 0.86835545
0.032943334 0.028348396 0.86546153
0.038623072 0.027404463 0.86615014
-0.00095638848 0.033139743 0.86867285
0.0024887691 0.032563895 0.86946464
0.0081259999 0.032694899 0.86973333
0.012215259 0.032556422 0.86928332
0.016859945 0.032323316 0.86847782
0.022250136 0.031771082 0.86809629
0.027821993 0.031296823 0.86686677
0.032135226 0.030601528 0.86543339
-0.0017669451 0.035548419 0.86829758
0.0026836176 0.035913005 0.86737502
0.0068062292 0.03613646 0.86693352
0.011154652 0.03543935 0.86563349
-0.020940974 0.059272021 0.86879998
-0.017374912 0.058138847 0.86798102
-0.012823019 0.05596843 0.86770624
-0.031759363 0.064694025 0.86926502
-0.026323071 0.063535109 0.86817056
-0.022377834 0.06169698 0.86692512
-0.032234654 0.067251422 0.86750394
-0.027586559 0.066022463 0.86548221
-0.033229861 0.070840172 0.86533338
-0.031685449 0.076641053 0.86723399
-0.028388288 0.088546723 0.86533332
-0.026181173 0.092272386 0.86705607
-0.023549892 0.092583857 0.86545014
-0.031086575 0.097283706 0.86859095
-0.026875928 0.096757978 0.86859769
-0.0221943 0.097186275 0.86650002
-0.017094582 0.098223753 0.86550021
-0.020391017 0.10097654 0.86839998
-0.017346103 0.10193557 0.86796671
-0.012529409 0.10365859 0.86606127
-0.015543013 0.10508703 0.8689999
-0.01189559 0.10709535 0.86889994
-0.0078899153 0.10836349 0.86749047
-0.0062213088 0.11271329 0.86859167
-0.0036512539 0.11402699 0.86732227
-0.002037182 0.11741816 0.86853886
0.00066231738 0.11853586 0.86686683
-0.00095715269 0.12211215 0.86936665
0.0020492931 0.12318059 0.86793816
0.0071258731 0.12347655 0.86645347
0.011650218 0.12347335 0.8664335
0.015211597 0.12416996 0.86680013
0.0035016085 0.12737022 0.86938328
0.0071463534 0.12770988 0.86894059
0.012006843 0.12769999 0.86887401
0.016857047 0.12761877 0.8683185
0.022267831 0.12755956 0.86691833
0.02810099 0.12880869 0.86546683
0.0039095338 0.13109179 0.86993331
0.0063424287 0.13107672 0.86983323
0.01795692 0.13153054 0.86926657
0.022540737 0.13174824 0.86892486
0.028413011 0.13194549 0.8679381
0.033020899 0.13234296 0.86751485
0.037652604 0.13283329 0.86770958
0.042337861 0.13359459 0.86779177
0.047571242 0.13392338 0.8673113
0.052401062 0.13386504 0.86693341
0.057280906 0.13352945 0.86736673
0.061079998 0.13344863 0.86771113
0.033915471 0.13591 0.86969995
0.038275287 0.13648716 0.86925328
0.042809118 0.13744086 0.86914808
0.047650754 0.13738006 0.86876297
0.052501168 0.13735224 0.86858529
0.056743145 0.13677676 0.86904001
0.048520871 0.14078505 0.86983335
0.0071636378 0.029181862 0.87111133
0.012030414 0.029163999 0.87057799
0.01527595 0.029160278 0.87046677
0.025022669 0.027547784 0.87068009
-0.0025833766 0.034038827 0.87100005
0.0059396238 0.031986028 0.87025011
0.010401672 0.03076772 0.87013346
-0.0058450117 0.048727442 0.87290919
-0.022142937 0.053642914 0.87362784
-0.017661821 0.053234335 0.87359703
-0.012354612 0.053586628 0.87271094
-0.026646229 0.057923894 0.87286294
-0.022467485 0.056975827 0.87215841
-0.017205656 0.055515006 0.87113345
-0.013940474 0.055046961 0.8701334
-0.03089796 0.06200508 0.87240297
-0.028177837 0.061601542 0.87128514
-0.026922952 0.098749571 0.87013346
-0.030238679 0.10222503 0.87215549
-0.026994033 0.10225754 0.87243325
-0.022554602 0.1023813 0.87151432
-0.03111688 0.10568699 0.87396157
-0.027052658 0.1057306 0.87432218
-0.021728786 0.10601573 0.87331665
-0.017431954 0.10731156 0.87228334
-0.013141863 0.10856517 0.87096691
-0.015643176 0.11064498 0.87460005
-0.012350424 0.1119822 0.87233329
-0.008539225 0.11288422 0.87095577
-0.011284356 0.11597411 0.87388879
-0.0076696887 0.11701249 0.87203342
-0.0036656614 0.11933413 0.8707335
-0.0069373082 0.12136897 0.87371659
-0.0028567107 0.12323475 0.871589
-0.0023571865 0.12732472 0.87263811
0.0013146192 0.12829693 0.87073356
-0.0017773119 0.13090679 0.87409997
0.0022934396 0.13284194 0.8725667
0.0073974365 0.13338162 0.87129539
0.012038924 0.13290289 0.87119275
0.016369615 0.13342333 0.87106699
0.021786736 0.13451694 0.8711558
0.02664116 0.13441744 0.87051123
0.0075124092 0.13720146 0.8737998
0.012399739 0.13718681 0.87370652
0.017195309 0.13769908 0.87371415
0.022064665 0.13758321 0.87297618
0.027511075 0.13794966 0.87235564
0.032928623 0.1382256 0.87118113
0.037614197 0.13892227 0.87083352
0.058326945 0.13853054 0.87091684
0.06217742 0.13790826 0.8708216
0.033443689 0.14276473 0.87327898
0.038056202 0.14270417 0.87166673
0.042911358 0.14263102 0.87122238
0.047537837 0.14304633 0.87093353
0.052634776 0.14256041 0.87079275
0.057595372 0.1427775 0.87211841
0.062465336 0.14276052 0.8720144
0.034930158 0.14647084 0.87480003
0.038560942 0.14672416 0.87388331
0.04302771 0.14708121 0.87358874
0.048116025 0.14732967 0.87299502
0.052797355 0.14787762 0.87348878
0.057481728 0.14767464 0.87349159
0.0620462 0.14750449 0.87265778
0.062536933 0.15104125 0.87300003
-0.011622932 0.044161402 0.87898576
-0.0091659781 0.044169303 0.87914294
-0.016256364 0.048488319 0.87838811
-0.012237143 0.047631931 0.8789205
-0.0079884864 0.047399696 0.87839645
-0.016997334 0.051249027 0.87716419
-0.012421628 0.051428586 0.87744457
-0.0085954005 0.051114365 0.87672836
-0.030371973 0.058677159 0.87600005
-0.027985094 0.055544626 0.87800002
-0.03196919 0.060237847 0.87500006
-0.03036735 0.10754665 0.87586677
-0.027127601 0.10846957 0.87673515
-0.022540163 0.10858779 0.87637347
-0.026989371 0.11282454 0.87889588
-0.022260534 0.11273936 0.87823719
-0.017510224 0.11268269 0.87620431
-0.021475261 0.11619063 0.87963307
-0.017348403 0.11765303 0.87832963
-0.012950881 0.11792649 0.87631679
-0.01627692 0.12162208 0.87946653
-0.01222618 0.12231505 0.87807512
-0.0085904859 0.12333589 0.87614447
-0.011358008 0.126546 0.87957764
-0.0075139347 0.12733683 0.87750381
-0.0042300243 0.12868808 0.87560004
-0.0064342967 0.13140495 0.87924433
-0.0029310675 0.13255437 0.87747335
0.0025794664 0.13716491 0.87772793
0.0055669439 0.13843447 0.87543339
0.010459843 0.13836595 0.87500006
0.0035422426 0.14193848 0.8794831
0.0072186803 0.14208311 0.87784457
0.012117972 0.14193562 0.87693346
0.01681024 0.14205238 0.876396
0.021722374 0.14210586 0.87672508
0.026830569 0.14271247 0.8767001
0.030068222 0.14255773 0.87575006
0.0077803638 0.14673126 0.87961084
0.012148635 0.14719507 0.87911844
0.017060747 0.14714025 0.87879258
0.021985408 0.14718664 0.87907034
0.026893543 0.14713471 0.87875921
0.031951323 0.14731324 0.87766302
0.037398122 0.14817987 0.87528342
0.047210477 0.14986515 0.87561673
0.059432261 0.14979956 0.87523341
0.012981435 0.15061539 0.87999976
0.017083427 0.15101609 0.87994975
0.022007328 0.15060969 0.87996638
0.027342023 0.15102464 0.87999976
0.031849898 0.15140916 0.87985533
0.037324023 0.15189566 0.87879103
0.042935241 0.15213561 0.87837332
0.04812995 0.15263546 0.87749457
0.053015683 0.15256707 0.87710017
0.05795379 0.1526472 0.87756127
0.061145887 0.15244506 0.87639868
0.035958387 0.15552633 0.87999976
0.043572508 0.15667529 0.87988538
0.048243091 0.15687892 0.8795498
0.052943762 0.15683481 0.87929994
0.057666097 0.15583242 0.87941658
0.061329711 0.15617371 0.87903333
-0.029016417 0.11354018 0.88448006
-0.027326712 0.11747548 0.88313943
-0.022335185 0.11830787 0.88118333
-0.025708497 0.12172583 0.88417792
-0.022631019 0.12210681 0.88353819
-0.017959995 0.12354822 0.88153332
-0.014100689 0.12444277 0.88013309
-0.020773755 0.12508845 0.88470018
-0.017057089 0.12711102 0.88445848
-0.013029852 0.12848195 0.88163328
-0.011954443 0.1325437 0.88319445
-0.0080994992 0.133467 0.88205552
-0.004256112 0.13439822 0.88099986
-0.0021501004 0.13773873 0.88289994
0.00067266991 0.13840386 0.88041639
-0.00097333686 0.14308971 0.88406676
0.0013302963 0.14301017 0.88155329
-0.00097370386 0.14643301 0.88440007
0.0025232641 0.14748856 0.88209999
0.006147319 0.14854161 0.88064426
0.0034216971 0.15181021 0.88377786
0.0072546694 0.15263629 0.88221103
0.01193987 0.15289453 0.88099986
0.017098526 0.15336272 0.88073319
0.022025416 0.15283887 0.88068086
0.026618555 0.15332076 0.88049316
0.031860817 0.15391654 0.88015532
0.0080996044 0.15633047 0.88455009
0.012410858 0.15753379 0.88321674
0.017142355 0.15769678 0.88297778
0.021871647 0.15745355 0.88276672
0.027225675 0.15747225 0.88287079
0.03191296 0.15745097 0.8816036
0.037034359 0.15772089 0.88049972
0.041055374 0.15785401 0.88019961
0.048271134 0.15881221 0.88006634
0.054844789 0.15883628 0.88019973
0.058523934 0.15836227 0.88120663
0.062337451 0.15910514 0.88168979
0.032014709 0.16124144 0.88441128
0.036912974 0.16184513 0.8832112
0.042021848 0.16231327 0.88240421
0.04710475 0.16210444 0.88213336
0.052643359 0.16208741 0.88260955
0.057487663 0.16180545 0.88299447
0.063022286 0.16232564 0.88234782
0.065032378 0.16624999 0.88480008
-0.030726843 0.11211693 0.88623542
-0.030768026 0.12217295 0.8874231
-0.028407121 0.12165403 0.88605231
-0.026930129 0.12668195 0.88817829
-0.022685304 0.1272468 0.88683319
-0.018314894 0.12849112 0.88546669
-0.026407979 0.13123964 0.88920832
-0.022307757 0.13199612 0.88826644
-0.017513191 0.13196611 0.88667756
-0.014190406 0.13347273 0.88573343
-0.020895071 0.13575087 0.88986665
-0.017528148 0.13537794 0.88742191
-0.012566299 0.13707088 0.88768566
-0.0075909733 0.13773535 0.88665533
-0.0042799446 0.13844682 0.88593322
-0.010926744 0.14057976 0.889
-0.0073976587 0.14190099 0.88820821
-0.0036206748 0.14211972 0.88622648
-0.0059556589 0.14643952 0.88943338
-0.0031042395 0.14706926 0.88681889
0.0006762736 0.14984746 0.88513339
-0.0020829143 0.15144379 0.8880555
0.0019154422 0.15330005 0.88605821
0.0026092036 0.15690102 0.88777757
0.0068721203 0.15780509 0.88589996
0.010580983 0.15972656 0.8851335
0.023787264 0.15972656 0.8851335
0.025437085 0.15972053 0.88510019
0.0034417065 0.16095166 0.8888666
0.0075092567 0.1616791 0.88793731
0.012256707 0.16253708 0.8869887
0.017215779 0.16249417 0.88675529
0.022171848 0.16245539 0.88654423
0.0271281 0.16243511 0.88643312
0.032418691 0.16391885 0.88643312
0.037029471 0.16482733 0.88599986
0.040316354 0.16475296 0.88560003
0.046892967 0.16464756 0.88503349
0.051017523 0.16464137 0.88500017
0.05680145 0.16466202 0.88511115
0.060967304 0.16476846 0.8856833
0.0089732427 0.16545986 0.88939995
0.012837261 0.16648205 0.88896662
0.017256426 0.16701314 0.88885921
0.022219861 0.16694112 0.88847393
0.027177468 0.16685933 0.88803685
0.031903856 0.16730081 0.88787597
0.037103072 0.16763175 0.88775533
0.042023953 0.16744906 0.88678867
0.046970014 0.16739242 0.88648868
0.052176286 0.16777758 0.88665688
0.05691034 0.16780625 0.88680929
0.061939612 0.16763604 0.88777757
0.065159783 0.16822484 0.88653314
0.023077093 0.17045517 0.88956666
0.027221842 0.17044027 0.88948888
0.032599404 0.17077935 0.88909996
0.03716344 0.17121215 0.88919997
0.042132396 0.17118661 0.8890667
0.047301725 0.17176369 0.88884163
0.051847637 0.17213358 0.88861656
0.057004914 0.17206915 0.88828319
0.06227332 0.17155942 0.88916188
0.06613344 0.17190413 0.88849998
0.04878306 0.17538662 0.88939995
0.05210029 0.17621414 0.88940001
0.057060521 0.17616326 0.88914442
-0.030983053 0.11970107 0.89362508
-0.027578544 0.12436659 0.8913213
-0.028689271 0.12879737 0.89138889
-0.027568221 0.13260996 0.89100391
-0.024219807 0.13412607 0.89006889
-0.025998645 0.13723759 0.89415681
-0.022836978 0.13806427 0.89277524
-0.017603152 0.13844232 0.89120579
-0.014269438 0.13918653 0.89066684
-0.021832354 0.14141265 0.89426702
-0.017988438 0.14201288 0.89385366
-0.012356759 0.14277783 0.89240032
-0.0092854304 0.14414616 0.89060014
-0.0079185525 0.1477704 0.89247257
-0.0064028031 0.15257904 0.89390033
-0.0037524477 0.15366267 0.89134473
-0.0020953771 0.15730803 0.89321131
0.00068036123 0.15820773 0.8904835
-0.00098442018 0.16135065 0.89413375
0.002012962 0.16302821 0.89238691
0.0056661456 0.16410626 0.89103353
0.0040167915 0.16627841 0.89380044
0.00734276 0.16777679 0.89291924
0.011206839 0.16854958 0.89115572
0.0090243639 0.17139411 0.89446694
0.012902789 0.17232122 0.89351702
0.017322509 0.17263727 0.89228177
0.022075947 0.17309622 0.89220512
0.027315157 0.17351435 0.89252812
0.031952649 0.17355525 0.89188689
0.037251864 0.1741076 0.89132243
0.042211264 0.17399041 0.89072233
0.045533732 0.17399259 0.89073354
0.061308555 0.17397305 0.89063346
0.018204011 0.17643178 0.89470011
0.022369636 0.17638135 0.8944447
0.027380249 0.17642081 0.89464474
0.032782041 0.17672771 0.89409196
0.037546083 0.17762825 0.89338779
0.042296559 0.17766716 0.89253736
0.047046009 0.17774071 0.89186692
0.052203968 0.17905051 0.89116693
0.057139669 0.17889421 0.89038903
0.06203657 0.17737991 0.89213777
0.066382825 0.17586973 0.89185011
0.04322898 0.18140447 0.89460039
0.048206933 0.18130308 0.89410031
0.052389421 0.18201622 0.89433366
0.057667755 0.1818305 0.89342034
-0.026023164 0.13986371 0.89500016
-0.026077166 0.14265722 0.8968572
-0.023127217 0.14293166 0.89596665
-0.016852129 0.1441088 0.89551675
-0.014344205 0.1432468 0.89533347
-0.026165642 0.14565139 0.89990014
-0.022552 0.14680713 0.89800435
-0.017709561 0.14700325 0.89665419
-0.012926825 0.14720413 0.89624768
-0.0093396446 0.14998691 0.89579993
-0.017743463 0.15041667 0.89836693
-0.012503576 0.15181927 0.89800853
-0.0087924423 0.15292352 0.89673334
-0.011043509 0.15545313 0.8985002
-0.0078891497 0.15705639 0.89691669
-0.004327612 0.15831868 0.89579993
-0.0072069997 0.16173105 0.89756203
-0.0031360686 0.16195166 0.8961429
0.00068406685 0.16489819 0.89533347
-0.0060217255 0.16562876 0.89930028
-0.0024242273 0.16650608 0.89758587
0.0020215828 0.16775301 0.89634669
0.0029182064 0.17150517 0.89795017
0.0068145324 0.17232506 0.89642221
0.011259393 0.17433618 0.89533335
0.0079401163 0.17646062 0.89766693
0.012384459 0.17756349 0.89621115
0.016971083 0.17787522 0.89568323
0.021980884 0.1786918 0.89559996
0.027416719 0.17832382 0.89584446
0.032415286 0.17880397 0.89546674
0.035758022 0.17992783 0.89553338
0.064146832 0.1799158 0.89547366
0.065806575 0.17822213 0.89533335
0.009076152 0.18074486 0.89960009
0.012413528 0.18215868 0.89831501
0.017415008 0.18190123 0.8970446
0.022632161 0.18201935 0.89660007
0.027433673 0.18176858 0.89639258
0.032241609 0.18198699 0.89644176
0.037457306 0.18256944 0.89623338
0.042043097 0.18293834 0.89599997
0.047021959 0.18280575 0.89535022
0.052444197 0.18320495 0.89526683
0.05747078 0.18437044 0.89553338
0.062547959 0.18261926 0.89647746
0.017862342 0.18596095 0.89852524
0.022459006 0.18627584 0.89802814
0.027495913 0.18719631 0.89843369
0.032516256 0.18668202 0.89825737
0.03753892 0.18714599 0.89819282
0.042509034 0.18690394 0.89702976
0.0475014 0.18679738 0.89651847
0.052536801 0.18686563 0.89684457
0.057319544 0.18735553 0.89690959
0.062667705 0.1871489 0.89820606
0.066018328 0.18798548 0.89821434
0.043710887 0.19117339 0.89880019
0.047590673 0.19132531 0.89820576
0.052617162 0.19132769 0.8982169
0.057656795 0.19137503 0.89843911
0.065992795 0.19208741 0.8978669
0.066112824 0.19578393 0.89950013
-0.026787937 0.14823061 0.90201122
-0.024499105 0.14907116 0.90033358
-0.026284855 0.15220098 0.90399998
-0.022849398 0.15261841 0.90149266
-0.017800169 0.15341102 0.90122801
-0.014437662 0.15423815 0.90116704
-0.023483723 0.15702346 0.90433329
-0.017568858 0.15748306 0.90374994
-0.012973319 0.15786277 0.90152103
-0.017872777 0.16161031 0.90490001
-0.012215911 0.16230631 0.90252787
-0.0093955975 0.16345833 0.90116704
-0.011112342 0.16651283 0.9041
-0.0073918616 0.16759594 0.90268677
-0.0035118163 0.16924378 0.90073371
-0.0024381296 0.17251632 0.90282387
0.0012486241 0.17383653 0.9013781
0.0029321259 0.1773756 0.90232229
0.0062863356 0.17870553 0.900567
0.0040648794 0.18172933 0.90450001
0.0072087301 0.18316658 0.90225428
0.0082718423 0.1865567 0.90343332
0.012707053 0.1874871 0.90212876
0.017162265 0.18881427 0.90137351
0.022518659 0.18928023 0.90040022
0.032591358 0.18926972 0.90035027
0.011656319 0.1901421 0.90450001
0.017873198 0.19224487 0.90331334
0.022559362 0.19214056 0.90203339
0.027585333 0.19199742 0.90136147
0.032641206 0.19207215 0.90171129
0.037693541 0.1921104 0.90188903
0.042182166 0.19352114 0.90194458
0.047738697 0.19443448 0.90100044
0.052792806 0.19448005 0.9012115
0.057835314 0.19448245 0.90122265
0.062859103 0.19275118 0.90096325
0.020943174 0.19527602 0.90490001
0.026003251 0.19525446 0.90480006
0.038657047 0.19524369 0.90475005
0.0436824 0.1967634 0.90400004
0.048110548 0.19760521 0.9027223
0.052897692 0.19738601 0.90299988
0.057977494 0.19748078 0.90343326
0.064171053 0.19724943 0.90365553
0.066374965 0.19824013 0.90306669
0.049600307 0.20019314 0.90429991
0.051275514 0.20014887 0.9041
-0.02632653 0.1549684 0.90543342
-0.026347365 0.1576196 0.90615016
-0.022390826 0.15780677 0.90561122
-0.019569069 0.15831362 0.90530008
-0.022780331 0.16179457 0.90710849
-0.017894829 0.16205035 0.90601432
-0.014513497 0.16347402 0.90590006
-0.022472717 0.16683452 0.9089002
-0.017931411 0.16721036 0.90788174
-0.013317591 0.16721411 0.90659541
-0.0094355671 0.16836205 0.90500003
-0.017947163 0.17073447 0.90866691
-0.01229424 0.17179905 0.90833354
-0.0079760328 0.17230125 0.90690029
-0.011182401 0.17602466 0.90979993
-0.0072129965 0.17689823 0.90848917
-0.0028997282 0.1772497 0.90632522
0.00069191097 0.17858118 0.90560001
-0.006092926 0.18112841 0.90993321
-0.0024827744 0.18223843 0.90808368
0.0018991417 0.18231989 0.9062382
-0.0014249396 0.18730487 0.90910017
0.0023842202 0.18737349 0.90738541
0.0070253396 0.18827632 0.90564179
0.0036587697 0.19224678 0.90848362
0.0074578812 0.19233908 0.90692246
0.012518714 0.19296657 0.90591121
0.015885493 0.19365694 0.90520006
0.0040883962 0.1963191 0.90973336
0.0076849307 0.19758299 0.90873361
0.012547948 0.1976444 0.90804482
0.0175988 0.19731331 0.90652245
0.022870744 0.19742085 0.90605009
0.027937455 0.19740196 0.90596259
0.032801628 0.19723026 0.90614086
0.037634548 0.19773662 0.90625727
0.042497069 0.19839171 0.90567505
0.046278372 0.19873039 0.90530008
0.06207696 0.1982981 0.90588903
0.014263156 0.20132212 0.90940005
0.01821151 0.2023505 0.90895015
0.022719892 0.2025968 0.90847534
0.027806278 0.20282871 0.90856689
0.033128578 0.20232739 0.90848595
0.037941292 0.20266213 0.90782249
0.042964078 0.20239545 0.90662616
0.047770258 0.20276967 0.90614778
0.053305931 0.20255046 0.90637517
0.058156516 0.20230615 0.90622604
0.062814459 0.20229563 0.90725744
0.065608017 0.20270242 0.90800023
0.038419385 0.20675591 0.9091168
0.043266773 0.20768096 0.90853781
0.048133593 0.20787111 0.9084447
0.052985389 0.20743342 0.90864313
0.05829335 0.2073693 0.90836227
0.061766613 0.20757334 0.90961105
-0.024879159 0.16498981 0.91430014
-0.022672985 0.16867495 0.91123337
-0.02244574 0.17280224 0.91244012
-0.018008493 0.17273366 0.91177773
-0.014040503 0.1741333 0.91171116
-0.022030311 0.17627482 0.91402239
-0.018056838 0.17660125 0.91424471
-0.012918856 0.17741239 0.91258335
-0.0086444765 0.17871031 0.91054988
-0.011240577 0.18034282 0.91453367
-0.0083840601 0.18227595 0.91285563
-0.0043995949 0.18466918 0.9106999
-0.0066866777 0.18584637 0.91371125
-0.0035563791 0.18832886 0.91201675
-0.0022854726 0.19204894 0.91357523
0.00154562 0.19326168 0.91127497
-0.0010064392 0.19556814 0.91413361
0.002059422 0.19745836 0.91344011
0.0057918443 0.19993781 0.91079992
0.0035358418 0.20105796 0.91332239
0.0078435494 0.20266572 0.91240007
0.012259274 0.20286269 0.91176003
0.015981425 0.20329656 0.91066664
0.02276087 0.20486304 0.91009998
0.032094505 0.20485178 0.91004992
0.009230515 0.20594348 0.91490024
0.01320356 0.20695169 0.91433913
0.017515101 0.20746456 0.91316271
0.02282876 0.20802461 0.91282797
0.027934654 0.20800984 0.91276127
0.033041909 0.20801626 0.91278905
0.037221566 0.20843962 0.91093332
0.041436248 0.20996499 0.91019994
0.055870384 0.20998421 0.91028333
0.06270428 0.20843199 0.9109
0.065516926 0.20757729 0.91460001
0.014349937 0.21105692 0.91493374
0.017755041 0.21096976 0.91455585
0.022876315 0.21185659 0.91471153
0.027571272 0.21145931 0.91483366
0.034818675 0.21101077 0.91473371
0.038174253 0.21191685 0.9133954
0.043255847 0.2131114 0.91279459
0.047978144 0.21274212 0.91193998
0.052291531 0.21264999 0.91202784
0.056828346 0.21293591 0.91204453
0.061653566 0.21195512 0.91294014
-0.024949003 0.16800991 0.91686678
-0.024905464 0.17367718 0.91526675
-0.023228578 0.17786546 0.91638917
-0.018084705 0.17885652 0.91563356
-0.014659286 0.17873283 0.91500038
-0.022417039 0.18192235 0.9182083
-0.017917924 0.18252775 0.91802919
-0.013183819 0.18257892 0.91614592
-0.01730594 0.18647721 0.91961658
-0.012992748 0.18780261 0.91772962
-0.008404159 0.18785177 0.91520041
-0.011286465 0.19132787 0.91826642
-0.0076412754 0.1926537 0.91745824
-0.0038537933 0.19358306 0.91546702
-0.0078706779 0.19610085 0.91928881
-0.0027233653 0.19811593 0.91805696
0.00069960218 0.19930278 0.91566688
-0.001583533 0.20234238 0.91915542
0.0020671845 0.20324719 0.9165535
0.0058189756 0.20427874 0.91506696
0.06734515 0.20454669 0.9162668
0.0032714193 0.20765176 0.91869158
0.0075379084 0.20775385 0.91662782
0.01151228 0.20890443 0.91544467
0.004130342 0.21030067 0.91906655
0.0075517981 0.21183147 0.91829026
0.01266608 0.21286273 0.91660005
0.017770799 0.2137112 0.91536695
0.02288425 0.21448426 0.91503376
0.028362459 0.21393594 0.91560018
0.032925628 0.21309537 0.91546279
0.038243789 0.21448816 0.91505039
-0.019900518 0.18497081 0.92063344
-0.022333981 0.18658285 0.92182672
-0.018618017 0.18801185 0.92085004
-0.021680387 0.19238029 0.92331123
-0.018227305 0.19228154 0.92283714
-0.013381447 0.19291596 0.92095339
-0.018839987 0.19669396 0.92475539
-0.012730815 0.19656156 0.9235934
-0.0083202161 0.19843167 0.92150843
-0.0074157715 0.20250413 0.92360479
-0.0040219347 0.20270184 0.92143345
-0.0061938153 0.20649625 0.92499977
-0.0025257848 0.20774868 0.9238708
0.00070422882 0.2074808 0.92172241
0.0022079383 0.21298923 0.92237931
0.0058511943 0.21396795 0.92013341
-0.021186531 0.19770657 0.92681092
-0.016573548 0.19737789 0.92661655
-0.013099411 0.19882844 0.92534977
-0.013138049 0.20198949 0.92800945
-0.0096451314 0.20307687 0.92509973
-0.01185339 0.20698372 0.92911673
-0.0085127046 0.20751204 0.92697209
-0.01753436 0.20280768 0.93176126
-0.014903342 0.20420378 0.93023354
-0.01758242 0.2068381 0.93431664
-0.014068228 0.20813948 0.9323585
-0.020262584 0.20315796 0.93738323
-0.022100046 0.20398119 0.94118369
