# .PCD v0.7 - Point Cloud Data file format
VERSION 0.7
FIELDS x y z
SIZE 4 4 4
TYPE F F F
COUNT 1 1 1
WIDTH 709
HEIGHT 1
VIEWPOINT 0 0 0 1 0 0 0
POINTS 709
DATA ascii
-0.040684402 0.036553301 0.19863465
-0.040918112 0.033523686 0.19778147
-0.04151082 0.037206106 0.19371429
-0.041949272 0.033922747 0.19273344
-0.043322146 0.036500782 0.18946874
-0.04299432 0.034443155 0.18979654
-0.034628987 0.031478077 0.19438416
-0.033368468 0.018485747 0.1922586
-0.033241689 0.0080984309 0.19256243
-0.033108294 -0.0012937043 0.1922206
-0.032708764 -0.011677518 0.19266355
-0.032274723 -0.016292382 0.19224012
-0.031663716 -0.020670902 0.19119439
-0.031018019 -0.023929659 0.18938503
-0.035698593 0.032384567 0.19145459
-0.035605013 0.023634188 0.18883294
-0.035683274 0.018527269 0.19008064
-0.036703944 0.008326605 0.18972948
-0.037158966 -0.0015559592 0.18944547
-0.037019372 -0.011548765 0.18902948
-0.036302686 -0.016146496 0.18842518
-0.034014821 -0.020761292 0.18773597
-0.038825393 0.03316626 0.18891266
-0.037153244 0.024140954 0.18572944
-0.038003385 0.018553041 0.18535998
-0.038413048 0.0088351034 0.18457678
-0.038937688 -0.001350435 0.18421978
-0.038541019 -0.01134859 0.18364114
-0.038071632 -0.015957307 0.18319029
-0.035933256 -0.019569442 0.1832239
-0.039123774 0.016569842 0.1812638
-0.039240777 0.0086763231 0.17977643
-0.039466083 -0.00067843357 0.17928144
-0.039849699 -0.011175998 0.17901003
-0.040230989 0.0028601172 0.17603892
-0.04003334 -0.0071806242 0.17558965
-0.039736927 -0.014896923 0.17514983
-0.026819348 -0.011665575 0.19263631
-0.025971472 -0.01663759 0.19267526
-0.025208831 -0.021349642 0.19177315
-0.025019169 -0.025602244 0.19105801
-0.030452609 0.028785463 0.19077379
-0.030255377 0.023721766 0.1909402
-0.030238569 0.018483724 0.19139475
-0.029081166 0.013189144 0.19213799
-0.027146101 0.0039258446 0.19153696
-0.027265847 -0.0053988532 0.19130105
-0.028343618 -0.021699145 0.19142783
-0.028935075 -0.025715906 0.19007221
-0.026500881 -0.030933253 0.18815345
-0.034494102 0.031830586 0.1888535
-0.033341348 0.028769609 0.18893939
-0.033570647 0.024343528 0.19003168
-0.030983508 -0.025366101 0.18567067
-0.027299464 -0.029281374 0.1850512
-0.035969555 0.032630913 0.18488178
-0.036295295 0.028897345 0.18467006
-0.037593365 0.024319444 0.18235832
-0.037688196 0.021212775 0.18231905
-0.034081042 -0.021476578 0.18118507
-0.030994534 -0.024703313 0.18081805
-0.037509799 0.032893389 0.18021962
-0.037608147 0.029169582 0.17921749
-0.037863612 0.024511606 0.17886531
-0.038183928 0.019277602 0.178738
-0.038866401 0.0098088682 0.17720836
-0.035257459 -0.020529605 0.17609692
-0.031862736 -0.023544084 0.17712122
-0.039341211 0.033212721 0.1755009
-0.038036644 0.029435422 0.17452458
-0.03777951 0.025020428 0.17352116
-0.037622333 0.019319851 0.17317367
-0.0389117 0.0092133656 0.17353159
-0.040034533 -0.00034209574 0.17344022
-0.039244115 -0.010917307 0.17218828
-0.036647975 -0.019051254 0.17160898
-0.041041195 0.032572441 0.17197794
-0.038716793 0.017189804 0.16995299
-0.039078414 0.0093863038 0.16994661
-0.039483249 8.2104925e-05 0.16899395
-0.038635731 -0.010390569 0.16856587
-0.037382722 -0.018535998 0.16794297
-0.022703111 0.032112598 0.19338506
-0.022512138 0.018140152 0.19096819
-0.023625791 0.014160048 0.19152385
-0.022649765 0.0040111463 0.19149804
-0.022479355 -0.0053880499 0.19199353
-0.02164185 -0.011318795 0.19201002
-0.021839917 -0.015946805 0.19261459
-0.021528542 -0.020751394 0.19241568
-0.021444082 -0.025664266 0.19158995
-0.022013366 -0.03107832 0.19048053
-0.025883436 0.032066151 0.19168943
-0.025907636 0.028995074 0.19068769
-0.026079655 0.024596822 0.19083172
-0.02599144 0.01896368 0.1909554
-0.026638269 0.014848076 0.19158518
-0.025561988 -0.030934613 0.18756795
-0.026587367 -0.030867673 0.18251193
-0.024842978 -0.034286752 0.18104351
-0.03026402 -0.026197389 0.17846417
-0.027135909 -0.029858541 0.17757243
-0.025693417 -0.033031043 0.17839679
-0.036488235 0.03407412 0.17643347
-0.031579196 -0.025023863 0.17443013
-0.027483582 -0.030538898 0.17407453
-0.027525783 -0.03288158 0.17402607
-0.037865937 0.029619273 0.17163897
-0.038185537 0.023356572 0.17165175
-0.038054943 0.020249967 0.1714673
-0.035638988 -0.021107063 0.17004836
-0.03274864 -0.024686418 0.16943765
-0.037506282 0.033120826 0.165923
-0.037448168 0.029823203 0.16857845
-0.037497103 0.02518465 0.16753256
-0.037845254 0.020471398 0.16761625
-0.038306713 0.0095659234 0.1666514
-0.039397478 0.00020836992 0.16615587
-0.038316667 -0.010987412 0.16582775
-0.036011934 -0.020010963 0.16512564
-0.035117865 -0.023175564 0.16629618
-0.037295341 0.020717219 0.16352379
-0.038441122 0.0095382296 0.16260725
-0.038912952 0.00039230986 0.16210565
-0.038516641 -0.010193851 0.16132355
-0.036136985 -0.01833012 0.16152939
-0.038549066 -0.0056835474 0.15792596
-0.014539301 -0.00062815676 0.19278839
-0.013914883 -0.010046236 0.19209021
-0.014202952 -0.01633998 0.19205257
-0.014499903 -0.021056194 0.19207376
-0.013863981 -0.025759362 0.19152802
-0.014008999 -0.030467361 0.19145703
-0.019776285 0.02958354 0.19195658
-0.018241882 0.024567705 0.19130638
-0.018121839 0.019609421 0.19146091
-0.019317329 0.014278773 0.19162256
-0.019082129 0.0087991506 0.19129434
-0.017980218 -0.0002745988 0.19260576
-0.016937077 -0.010817621 0.19146094
-0.017344058 -0.016332541 0.1921334
-0.017765164 -0.021034498 0.1922321
-0.016492724 -0.025719136 0.19129717
-0.016858637 -0.030011505 0.19091859
-0.021807253 0.033874497 0.19105759
-0.021752119 0.029169314 0.19086641
-0.021753311 0.024463393 0.19071007
-0.021447122 0.020563703 0.19039056
-0.025819719 -0.033911485 0.17623073
-0.027437806 -0.029470079 0.17169216
-0.026984632 -0.032813419 0.1708923
-0.030875921 -0.026379108 0.16712108
-0.027416229 -0.029366516 0.1668556
-0.026096404 -0.032746568 0.16752219
-0.036489964 0.030074995 0.16514894
-0.033759713 -0.021484252 0.16171178
-0.031394064 -0.024900399 0.16270363
-0.027739406 -0.028668698 0.16311264
-0.034869194 0.033533081 0.16135564
-0.035865486 0.030356087 0.16098544
-0.036185622 0.025613312 0.16105339
-0.03690815 0.020901062 0.16045517
-0.037623107 0.015862413 0.16021839
-0.036126316 -0.016640149 0.15782493
-0.034433305 -0.019996271 0.15822208
-0.03219986 -0.0233403 0.15779108
-0.036198735 0.030286748 0.15668482
-0.03682816 0.02567986 0.15607315
-0.037213385 0.021139637 0.15596026
-0.037508667 0.015615955 0.15599144
-0.037878275 0.0053893286 0.1559279
-0.037676036 -0.0038048108 0.15527219
-0.036627948 -0.01495418 0.15445143
-0.034626186 -0.019438345 0.15318656
-0.033104777 -0.022811953 0.15370339
-0.040053368 0.032256842 0.15257379
-0.037384152 0.025277585 0.15241987
-0.037338495 0.021339804 0.15226847
-0.038086712 0.015855029 0.1510978
-0.038270533 0.0056335027 0.15053418
-0.038334668 -0.0038010874 0.15029249
-0.03719753 -0.014767192 0.14917496
-0.035650074 -0.017946105 0.14991054
-0.039003789 -0.0038381447 0.14560115
-0.038785577 -0.012765203 0.14463675
-0.0072187781 -0.018778242 0.19326544
-0.006814837 -0.02588696 0.19278026
-0.013378203 0.028616861 0.1930711
-0.012934089 0.024698772 0.19266856
-0.011846781 0.019673504 0.19257647
-0.01113534 0.014487065 0.19215322
-0.010848105 0.0089752786 0.19160768
-0.010487795 -0.00089602929 0.1928989
-0.011537552 -0.0056977402 0.19217417
-0.0098745823 -0.01003674 0.19221777
-0.010513842 -0.0155649 0.19214058
-0.010455489 -0.021098573 0.19237658
-0.010581255 -0.025823947 0.19229209
-0.010334492 -0.030547172 0.19198269
-0.016847074 0.032502905 0.19163603
-0.015696764 0.028597355 0.19172147
-0.015151381 0.024639387 0.19217539
-0.01500833 0.020705838 0.19195545
-0.014587104 0.01442194 0.19148642
-0.014388859 0.0089143179 0.19117972
-0.026404858 -0.031077873 0.16403329
-0.025110066 -0.032679677 0.1640698
-0.02695787 -0.029614903 0.16014808
-0.025623262 -0.032605994 0.16159171
-0.034737945 0.033721432 0.15844586
-0.030492008 -0.025292963 0.15658382
-0.027493119 -0.028806798 0.1556766
-0.035757065 0.031190079 0.15385598
-0.036710024 0.02758662 0.15392381
-0.034440041 -0.021135956 0.15087926
-0.031701505 -0.024529848 0.15127689
-0.028661191 -0.028077245 0.15179244
-0.037100911 0.030739427 0.15049186
-0.037307858 0.026439533 0.1499601
-0.037500799 0.02148645 0.1495361
-0.038313031 0.015959453 0.14898008
-0.035384357 -0.019643117 0.1475395
-0.032906115 -0.023221157 0.14634153
-0.037291586 0.030662879 0.14617488
-0.037182271 0.026469097 0.14565307
-0.037522018 0.021492004 0.14533001
-0.037819386 0.016190894 0.1448313
-0.037647307 0.0059307064 0.14440247
-0.039234042 -0.0027324953 0.14334497
-0.035351276 -0.018762264 0.14269811
-0.037200868 0.0045473496 0.14022276
-0.038995862 -0.0036015608 0.13987267
-0.039225876 -0.013413404 0.13936996
-0.037042499 -0.016997818 0.13754982
-0.039135396 -0.011901655 0.13533911
-0.0076448326 0.024773248 0.19500768
-0.0053223972 0.020167608 0.19345582
-0.0045955181 0.014642064 0.19283071
-0.0041472316 0.0090933442 0.1923722
-0.0041566491 0.0043161176 0.19221479
-0.0037559271 -0.0052155498 0.19164884
-0.0043861866 -0.010003306 0.19186389
-0.0044082999 -0.01518181 0.19216362
-0.0040255184 -0.020887118 0.19250941
-0.0026929972 -0.025498867 0.19322625
-0.0039377804 -0.030656733 0.19181523
-0.0089815855 0.024834014 0.19304579
-0.0086357594 0.020467453 0.19315016
-0.0078132153 0.0145442 0.19291392
-0.0071820617 0.00904686 0.19188455
-0.0074830055 0.0042483322 0.19236451
-0.0077414513 -0.0052720793 0.19219646
-0.0076755285 -0.010020275 0.19199517
-0.0075998306 -0.013184227 0.1918419
-0.023029745 -0.032545101 0.15704393
-0.026340604 -0.030805752 0.15362346
-0.027969301 -0.029606797 0.14937365
-0.024911284 -0.032247961 0.14689645
-0.03082329 -0.025356412 0.14541525
-0.027911425 -0.028940201 0.14426082
-0.027825952 -0.032613408 0.14281291
-0.035662115 0.030428059 0.14247668
-0.036234558 0.026711877 0.14212635
-0.036363959 0.022732627 0.14209777
-0.034049809 -0.020262863 0.13983008
-0.031620979 -0.02400573 0.14026201
-0.028345823 -0.030426864 0.14067778
-0.028659344 -0.032015651 0.14084661
-0.034598053 0.030199938 0.13819295
-0.036025107 0.026896279 0.13909897
-0.036251545 0.022160757 0.13815299
-0.036612391 0.016571175 0.13824153
-0.036843419 0.0064481902 0.13786501
-0.037345231 -0.002420329 0.13627321
-0.034923494 -0.019339386 0.13598436
-0.032782078 -0.022694215 0.1349256
-0.036119521 0.020789437 0.13415799
-0.036689937 0.016529847 0.13288933
-0.036846578 0.0065078321 0.13231924
-0.037422597 -0.00305621 0.13244846
-0.038968801 -0.012825508 0.13271594
-0.036584496 -0.017136101 0.13167995
-0.038214445 0.0069722454 0.12865955
-0.037633419 -0.0029051811 0.12873077
-0.038565755 -0.012435745 0.12815326
-0.037382901 -0.016128235 0.12751764
0.0048172479 -0.019652203 0.19346541
0.0036181214 -0.024459835 0.19400734
0.0040019755 -0.027651742 0.19367045
-0.0039573316 0.020261399 0.19263929
-0.0019381049 0.014705304 0.19309387
-0.0014949442 0.0094069764 0.19264874
-0.00018846994 0.004369691 0.19262403
0.00014656782 -0.00040931813 0.1922605
0.00012773281 -0.0052011274 0.19210711
-0.00013029564 -0.0099974684 0.19209635
0.0011790396 -0.014561567 0.19208807
0.00078791403 -0.019613188 0.19307253
0.0010883812 -0.025217146 0.19362614
0.001745582 -0.030355215 0.1916703
-0.021627665 -0.032430314 0.15136033
-0.022710741 -0.033375382 0.1476019
-0.025878131 -0.032171555 0.14468569
-0.027806878 -0.028578356 0.13819191
-0.027746379 -0.032915484 0.13787422
-0.030709982 -0.02544621 0.13476515
-0.027671814 -0.028412994 0.13309532
-0.026869357 -0.031850208 0.13284573
-0.033823311 0.030555602 0.13281164
-0.034390688 0.027308919 0.13311946
-0.035597205 0.02252993 0.13189796
-0.036571026 0.018574022 0.13053685
-0.034862041 -0.018822789 0.12821835
-0.032782435 -0.022315834 0.12995893
-0.030616462 -0.025277622 0.12888497
-0.034676135 0.027409732 0.12772948
-0.03544879 0.02301662 0.12735581
-0.036607087 0.017927568 0.12762457
-0.03797853 0.0063894684 0.12584537
-0.037128091 -0.0027657081 0.12545151
-0.037558019 -0.012305871 0.12451339
-0.036395371 -0.017637435 0.12481606
-0.0331918 -0.021482881 0.12527245
-0.036060631 0.018170781 0.12332916
-0.037950695 0.0069942283 0.12144601
-0.036925852 -0.0025565499 0.12042356
-0.037260532 -0.012158498 0.12039286
-0.036289334 -0.016721155 0.1201126
-0.034605265 -0.020227697 0.12214363
-0.037666142 0.0039854343 0.11722708
-0.037135959 -0.011213288 0.11640471
0.01018858 -0.0069025345 0.19633192
0.010256171 -0.0085096546 0.19623649
0.0092329979 -0.015766118 0.19658002
0.010363698 -0.021371394 0.19572538
0.0076202154 0.0061225966 0.19270089
0.0076750517 -0.0057318211 0.19350255
0.0072770119 -0.010052826 0.19420722
0.0070058703 -0.014873348 0.19419986
0.0070248847 -0.019692164 0.19425452
0.0069150333 -0.024522979 0.19484702
0.0079116821 -0.028967965 0.19280663
0.0040478706 0.019090991 0.18966436
0.0035630462 0.016169388 0.1912559
0.004180789 0.010105781 0.19207883
0.0058057904 0.0045145825 0.19185296
0.0047363639 -0.0051635616 0.19215375
0.0038852694 -0.0099984705 0.19249189
0.004029572 -0.014799163 0.19224098
0.0053920751 -0.03079715 0.19088194
0.0062648659 -0.032401394 0.19030917
-0.027646542 -0.028573677 0.1305759
-0.026686132 -0.032446615 0.13094974
-0.027462006 -0.027516183 0.12696666
-0.026046753 -0.031704925 0.12642497
-0.033267319 0.03211841 0.1263299
-0.034676671 0.029342845 0.12558758
-0.03164047 -0.02348512 0.12284082
-0.029611945 -0.02551835 0.12279129
-0.034338892 0.032380089 0.12122416
-0.035179853 0.027923904 0.12198853
-0.035720527 0.023061369 0.12224209
-0.036446333 0.018299509 0.1206724
-0.035978973 -0.016859524 0.11736
-0.033028543 -0.021942794 0.11874217
-0.030187428 -0.024963953 0.11781901
-0.035772085 0.033020295 0.11722177
-0.036318541 0.028140306 0.11748433
-0.036216259 0.023350395 0.1167087
-0.036107242 0.018530361 0.11649156
-0.038342774 0.0072474065 0.11584967
-0.03776145 -0.0025562574 0.11538857
-0.037781417 -0.012168013 0.11432248
-0.036471963 -0.017013609 0.115188
-0.034614325 -0.020782974 0.11427563
-0.039026797 0.033243582 0.11115867
-0.036260068 0.017115708 0.11261117
-0.038630545 0.0074467431 0.11146152
-0.038599849 -0.0021614176 0.11050922
-0.038468957 -0.011572361 0.10973555
-0.036963224 -0.016615443 0.11020327
-0.035199463 -0.020378761 0.11010683
-0.038658082 0.0025012339 0.10684758
-0.038668573 -0.0064183143 0.10630971
-0.03714174 -0.014877293 0.10641879
0.012918353 -0.0043966211 0.19482785
0.011953533 0.01519737 0.19139454
0.011117935 0.011101678 0.19174588
0.011154532 0.00531625 0.19165832
0.010881186 -0.0040924735 0.19354057
0.0084648132 0.020593718 0.18857962
0.008918941 0.015973017 0.19040167
0.0082800984 0.012701206 0.19066778
-0.025099576 -0.02841074 0.12290823
-0.023898125 -0.030830149 0.12197953
-0.025497139 -0.02722919 0.11929113
-0.022784114 -0.029971652 0.11923641
-0.027302027 -0.025994718 0.11470604
-0.03518641 0.031611353 0.11420727
-0.035226882 0.028377794 0.11414564
-0.031674623 -0.023163065 0.11204338
-0.030370712 -0.02476532 0.11103839
-0.035364687 0.032456908 0.11078906
-0.034846783 0.028639734 0.10989779
-0.034977138 0.023773376 0.1098581
-0.035013556 0.019133933 0.10950643
-0.03609103 0.015145272 0.10912138
-0.033070266 -0.021903414 0.10649318
-0.031221867 -0.024598815 0.10570484
-0.037841678 0.032596134 0.10667086
-0.036001325 0.028876398 0.10503179
-0.035555065 0.024029225 0.10488307
-0.035287559 0.01895342 0.1045413
-0.036629438 0.0091688782 0.10311013
-0.036514938 -0.0018053767 0.10232109
-0.036484897 -0.011498671 0.10203087
-0.035449386 -0.016581863 0.10285515
-0.033388078 -0.020918861 0.10263479
-0.037980199 0.032200515 0.10236514
-0.037156343 0.0082106031 0.099520862
-0.03681612 -0.0016524927 0.098545253
-0.036748767 -0.011361536 0.098228633
-0.036062002 -0.015747219 0.097872734
-0.037903011 -0.010824207 0.094603479
0.01669538 0.020931229 0.19350895
0.015942693 0.0013844057 0.19326621
0.014073789 0.020964578 0.19128498
0.013793468 0.016679775 0.19205344
0.014846861 0.011161633 0.19237044
0.01479739 0.0062881671 0.19222996
0.012355268 0.024307497 0.18865108
0.011482775 0.022114735 0.18846577
-0.023072422 -0.028300378 0.11751527
-0.021649122 -0.031019259 0.11707252
-0.025050938 -0.027829807 0.11341077
-0.023815215 -0.031087525 0.11301482
-0.023630977 -0.034631055 0.11178571
-0.027424574 -0.027176019 0.10880166
-0.02635324 -0.031245701 0.10856265
-0.025011539 -0.034503751 0.10781568
-0.028375924 -0.027013995 0.10351706
-0.027175128 -0.031342681 0.10393345
-0.026166677 -0.034425065 0.10567254
-0.035761237 0.029027332 0.10260218
-0.035288215 0.024192449 0.10211122
-0.035118043 0.020144694 0.10187089
-0.032715082 -0.021556742 0.099405229
-0.030147612 -0.025520969 0.099535763
-0.027788281 -0.030209139 0.10098487
-0.036393762 0.02898911 0.099312544
-0.035805404 0.024375211 0.098486722
-0.035505533 0.019517723 0.098125398
-0.036411107 0.010859445 0.097238421
-0.035277128 -0.017772157 0.095926881
-0.033687532 -0.02083043 0.095890045
-0.030701697 -0.024305295 0.095289588
-0.036185026 0.028643277 0.094858706
-0.035464525 0.024245113 0.093680143
-0.035431504 0.019789211 0.093027771
-0.037534595 0.0099374205 0.093367875
-0.037675798 -0.0014380445 0.093170583
-0.037863493 -0.01145428 0.091833711
-0.036812842 -0.016013529 0.092112124
-0.034567595 -0.019886915 0.090683281
-0.03717649 0.0097661056 0.088528931
-0.037638009 -0.00075595686 0.087953269
-0.038386226 -0.010969445 0.087392211
-0.037509143 -0.015612412 0.087166607
-0.035268545 -0.01910568 0.086783946
-0.027941823 -0.027661022 0.097145796
-0.026450098 -0.030948929 0.09694016
-0.028224826 -0.02592108 0.093366683
-0.025777757 -0.030837782 0.092050731
-0.034345448 0.028095573 0.09140265
-0.035071373 0.025585115 0.09189409
-0.035657704 0.019933622 0.090163946
-0.031152606 -0.022501457 0.089608252
-0.029604197 -0.024544965 0.088874578
-0.034256935 0.02833565 0.087266684
-0.034718156 0.02502111 0.087535799
-0.034993112 0.020118218 0.087036192
-0.035688281 0.01552283 0.086813331
-0.036790729 0.0053716446 0.086587131
-0.036974549 -0.0043376167 0.08443588
-0.036441982 -0.015735719 0.083717406
-0.032527208 -0.020972759 0.084605753
-0.035298824 0.028541725 0.082973003
-0.035570264 0.025074489 0.082325041
-0.036049426 0.020336028 0.082319438
-0.036413372 0.015394837 0.082475364
-0.035909951 0.0055982391 0.081821382
-0.036251962 -0.0050076586 0.080787599
-0.035799921 -0.015870076 0.080584586
-0.03393209 -0.018892538 0.079623044
-0.037124038 0.020529494 0.07804215
-0.037244916 0.015597954 0.07800889
-0.036575556 0.0057943682 0.077223361
-0.037057996 -0.0043527526 0.076518118
-0.036733031 -0.014258906 0.076310694
-0.037765324 -0.0096188523 0.072622716
-0.02650857 -0.027519785 0.091004074
-0.025995493 -0.030811414 0.091200948
-0.027713954 -0.026719354 0.086449265
-0.027069271 -0.030201867 0.0865587
-0.031066597 -0.022257864 0.081392527
-0.029580534 -0.024765115 0.082215846
-0.027304471 -0.029313609 0.081869006
-0.034705698 0.029825412 0.080146074
-0.035411417 0.027063847 0.079944253
-0.031938374 -0.020929754 0.07851851
-0.029982865 -0.022977807 0.077447593
-0.03453958 0.029782675 0.076236308
-0.036137998 0.025591411 0.076360643
-0.0375911 0.020659871 0.075327873
-0.037896752 0.015710309 0.075443089
-0.037554383 0.0058831978 0.074916005
-0.03569293 -0.016418196 0.074504256
-0.03352493 -0.019363105 0.073532104
-0.036914706 0.020432152 0.072199047
-0.037268102 0.015906483 0.071847439
-0.037433207 0.006074592 0.070691645
-0.038492143 -0.0037855622 0.070257127
-0.03682059 -0.013820034 0.069431901
-0.034882367 -0.017464548 0.069424987
-0.037664413 0.0013064905 0.066611588
-0.037874877 -0.0085738264 0.066530764
-0.026194453 -0.028037317 0.079503119
-0.028547764 -0.024170466 0.075259387
-0.025515437 -0.028752405 0.074828207
-0.025483847 -0.032006774 0.072648168
-0.034397781 0.02914656 0.073004186
-0.031763554 -0.020248383 0.069627166
-0.02866292 -0.023640309 0.071225703
-0.032813132 0.030226901 0.069690764
-0.034193635 0.026031334 0.069645703
-0.0354231 0.021088466 0.068427324
-0.035931587 0.01614888 0.067670166
-0.032918692 -0.018804539 0.066018522
-0.029915929 -0.022244357 0.066542208
-0.033835113 0.025756143 0.064833939
-0.035146296 0.021541771 0.06449306
-0.036093533 0.016294681 0.064679742
-0.036767304 0.0064340117 0.062889516
-0.036276698 -0.0034576398 0.062241673
-0.035541773 -0.013392318 0.062785029
-0.033174098 -0.018349126 0.062134743
-0.035694122 0.021066461 0.060815871
-0.036089242 0.016504496 0.06049937
-0.036947429 0.0066121216 0.05885607
-0.036714792 -0.0033085351 0.058417916
-0.035456002 -0.013433486 0.057921231
-0.034060836 -0.01658614 0.059063137
-0.03723973 0.0013733371 0.055292189
-0.03725028 -0.0081321746 0.054540038
-0.027477622 -0.025225595 0.068168461
-0.025079846 -0.0283885 0.068528116
-0.023712516 -0.031936396 0.068136632
-0.030457377 0.031380069 0.065746129
-0.027478218 -0.024433743 0.063597739
-0.024980009 -0.026815418 0.06405443
-0.025880575 -0.033363059 0.060413718
-0.032621145 0.029772066 0.063256562
-0.033473313 0.027562693 0.062494218
-0.030866921 -0.019916564 0.058481097
-0.029235721 -0.02245272 0.059194028
-0.02734834 -0.033280935 0.058446646
-0.033536017 0.030115295 0.056650937
-0.034062147 0.02667924 0.058047414
-0.034960032 0.022017162 0.057403564
-0.035777688 0.016683239 0.05709964
-0.032311082 -0.018148538 0.055496752
-0.029632747 -0.021500044 0.05533427
-0.033801556 0.025263149 0.05357939
-0.034649789 0.021573596 0.053340852
-0.035967588 0.016882248 0.05304271
-0.036757112 0.0069047767 0.052394986
-0.037229359 -0.0030373042 0.051487565
-0.036307871 -0.01325649 0.051980019
-0.034010589 -0.016991742 0.051015198
-0.036063135 0.015418589 0.048853874
-0.036190987 0.0071235294 0.047696769
-0.036355376 -0.0028787223 0.047590792
-0.036660552 -0.012832552 0.046541989
-0.03491962 -0.016157921 0.046070814
-0.037050188 -0.011030022 0.042663395
-0.022961497 -0.030196615 0.06445533
-0.020260751 -0.033591904 0.064323068
-0.023740053 -0.028778099 0.061757028
-0.021704137 -0.032650087 0.061293244
-0.026303411 -0.02495436 0.057815373
-0.024303198 -0.028312299 0.057170808
-0.025456071 -0.032039698 0.056952596
-0.030854642 0.030161425 0.057628274
-0.030649662 -0.01971985 0.051987529
-0.028610587 -0.0233595 0.053248465
-0.025222778 -0.028203174 0.053692997
-0.026565671 -0.032325219 0.052564859
-0.03341645 0.027369283 0.052043438
-0.034426868 0.022046197 0.050839663
-0.031955183 -0.019052837 0.048844337
-0.029723823 -0.023184616 0.048757255
-0.034144163 0.02676294 0.047836721
-0.034818172 0.022408567 0.047721803
-0.035471678 0.017524339 0.047137916
-0.036126316 0.007269531 0.044457495
-0.035932302 -0.0027366919 0.044053376
-0.033194721 -0.018351708 0.044580162
-0.031270802 -0.021574501 0.044495523
-0.035005271 0.026944295 0.042567074
-0.035605848 0.022464503 0.042251647
-0.036636829 0.01736898 0.042996466
-0.037060082 0.0073636505 0.042046368
-0.036570132 -0.0026349989 0.041394055
-0.036678791 -0.012976948 0.041024625
-0.034339547 -0.017646503 0.040223658
-0.036190748 0.020968154 0.038426459
-0.037315488 0.017373927 0.037762284
-0.037317336 0.0073678489 0.037182033
-0.036768675 -0.0024739807 0.03728801
-0.037152886 -0.012479797 0.036304533
-0.03568238 -0.016396612 0.036394179
-0.02470696 -0.028130639 0.050550044
-0.024783254 -0.03144354 0.049012363
-0.025869191 -0.02798203 0.045729458
-0.025304317 -0.032019362 0.045590699
-0.028709054 -0.023782991 0.041349053
-0.026391149 -0.026189964 0.041933239
-0.034796596 0.028459154 0.04064399
-0.032196641 -0.019219439 0.036237895
-0.029794395 -0.022315558 0.037577033
-0.034897089 0.027477916 0.037056446
-0.035702765 0.022776995 0.036263645
-0.035624087 0.018707417 0.03358835
-0.036896229 0.0093858019 0.034455121
-0.035321891 -0.0022903611 0.032837152
-0.033674896 -0.017754234 0.032793224
-0.030040264 -0.020870592 0.034377754
-0.034318388 0.027231861 0.032674253
-0.034519732 0.023036592 0.032027066
-0.035789371 0.017569054 0.031003237
-0.036290467 0.0078850761 0.030666471
-0.035465539 -0.0021679704 0.029724538
-0.036405802 -0.012231424 0.028946579
-0.034238398 -0.016161911 0.028706372
-0.035639763 0.0080652907 0.026863158
-0.03584832 -0.0031499048 0.026060402
-0.036749303 -0.011259813 0.025207162
-0.024739623 -0.028170206 0.039226711
-0.023683786 -0.032238234 0.039109051
-0.022816718 -0.034590315 0.03768748
-0.027560592 -0.024276827 0.03436178
-0.025696695 -0.027225278 0.035189271
-0.025237322 -0.031279802 0.034129441
-0.029044569 -0.022684623 0.031063318
-0.026200533 -0.026526757 0.029266059
-0.026106954 -0.030940648 0.029732645
-0.033497512 0.027477436 0.028725564
-0.034143686 0.023547392 0.028972447
-0.034564197 0.018999193 0.028360546
-0.031552911 -0.018507037 0.026529133
-0.029677689 -0.021297649 0.025834918
-0.02865231 -0.024042659 0.026633799
-0.032956839 0.026851568 0.02498281
-0.033735216 0.023240834 0.024013281
-0.034648418 0.018367372 0.024067879
-0.035705328 0.0082076117 0.023662508
-0.035330117 -0.0013582003 0.023480296
-0.035439849 -0.012434371 0.02241534
-0.03298825 -0.016605578 0.022138
-0.035810709 0.01811555 0.018831909
-0.035795093 0.0084470436 0.018286288
-0.036267161 -0.0017274288 0.01846993
-0.036016226 -0.011859726 0.018021226
-0.03401494 -0.015637212 0.016732872
-0.036416173 0.010306284 0.014487326
-0.036654413 -0.0015702047 0.014432371
-0.036576927 -0.011282176 0.013598084
-0.026433408 -0.027474348 0.026835918
-0.02644366 -0.030014437 0.026784718
-0.028771043 -0.022226959 0.022422493
-0.026455581 -0.026026811 0.023403347
-0.024960756 -0.030384127 0.023332179
-0.031550169 0.027936332 0.021606505
-0.029254496 -0.020774357 0.019374728
-0.026878297 -0.024453212 0.020014048
-0.031523824 0.027264982 0.018276334
-0.0331617 0.02401771 0.018256366
-0.035083234 0.020362925 0.017933726
-0.033182561 -0.016874272 0.015429318
-0.030066192 -0.019812781 0.015150428
-0.033575416 0.023499805 0.01301378
-0.035527349 0.019129898 0.013270736
-0.035903871 0.0083569735 0.012671828
-0.036284447 -0.0014692922 0.011909187
-0.034006476 -0.01605814 0.011333823
-0.031905651 -0.018414032 0.0098701119
-0.034756005 0.022542268 0.0088781714
-0.03545922 0.018783733 0.0085334778
-0.025050521 -0.025865726 0.01650399
-0.022259772 -0.028998498 0.016668022
-0.02997303 0.028365739 0.0147475
-0.028864861 -0.021942805 0.012639225
-0.026090503 -0.024825081 0.012362063
-0.029670954 0.028573118 0.011169553
-0.033004701 0.025367491 0.010342121
-0.030696213 -0.020951875 0.0087484717
-0.02164501 -0.028942063 0.013934851
-0.023037314 -0.027088866 0.0096505284
-0.020179391 -0.028884575 0.010456145
