# .PCD v0.7 - Point Cloud Data file format
VERSION 0.7
FIELDS x y z
SIZE 4 4 4
TYPE F F F
COUNT 1 1 1
WIDTH 994
HEIGHT 1
VIEWPOINT 0 0 0 1 0 0 0
POINTS 994
DATA ascii
0.032536857 -0.040383965 0.18893886
0.033785354 -0.04204306 0.18534082
0.023253534 -0.037644908 0.19158894
0.03207184 -0.033908054 0.19109789
0.024527092 -0.040898062 0.1893186
0.033662036 -0.036583088 0.18884072
0.025158528 -0.042487077 0.18464848
0.035516702 -0.038722385 0.18437132
0.02523981 -0.04352792 0.18023294
0.034897737 -0.041046947 0.17902705
0.038831584 -0.037549831 0.17793512
0.042137902 -0.036828049 0.17620337
0.039870806 -0.038978197 0.1739133
0.042462833 -0.037806477 0.17415491
0.02900647 -0.027413966 0.19302326
0.0074116206 -0.039861657 0.18954548
0.017017998 -0.036874104 0.19136241
0.025609532 -0.03209009 0.19255683
0.034106135 -0.028003916 0.18993205
0.0081960242 -0.041447118 0.18664914
0.01678858 -0.040809039 0.18795815
0.035940237 -0.03085921 0.18570465
0.01793414 -0.042769093 0.18334225
0.037173111 -0.032739677 0.18144554
0.039510775 -0.030046238 0.17871189
0.01941286 -0.043691732 0.17858422
0.027937945 -0.042436056 0.17651689
0.039223567 -0.034787484 0.17914063
0.041995626 -0.032759853 0.17668098
0.02470826 -0.042218752 0.1730929
0.033472113 -0.040664434 0.17277265
0.043720067 -0.035429344 0.17226195
0.046681978 -0.032427009 0.17148232
0.050550155 -0.030303538 0.16925475
0.0535236 -0.028702091 0.16818511
0.038815409 -0.038953163 0.16780287
0.043662436 -0.037202615 0.16763729
0.04732804 -0.034541573 0.16701782
0.05174695 -0.032198496 0.1665436
0.054388277 -0.031084618 0.16621244
0.040698614 -0.038343951 0.16399819
0.04343925 -0.036949068 0.16374052
0.054474968 -0.031518832 0.1628226
-0.0021578548 -0.037028745 0.19219172
0.0048109517 -0.033609916 0.19253618
0.013775132 -0.030257538 0.19188389
0.023342576 -0.025832124 0.19271991
0.027093083 -0.022794109 0.19261697
0.031527683 -0.022073034 0.19169119
0.034022391 -0.019603768 0.18945593
-0.0024847602 -0.039885871 0.18995768
0.0062655625 -0.037058655 0.19125587
0.014602847 -0.033006079 0.19150802
0.034876123 -0.023873586 0.18853474
0.035248011 -0.021415306 0.18775672
-0.0013164487 -0.041828953 0.18613461
0.0071226889 -0.04175758 0.18426701
0.035497304 -0.023870671 0.18229219
0.0077416142 -0.041687272 0.18070731
0.039175626 -0.026279349 0.17815623
0.012371775 -0.04233183 0.17637053
0.042247124 -0.02877113 0.17670304
0.044442371 -0.026682999 0.17383862
0.048484787 -0.023958258 0.17143798
0.05124332 -0.022554027 0.17118084
0.017762715 -0.041996621 0.17089307
0.026737716 -0.040279873 0.16939411
0.04716887 -0.029008262 0.17245156
0.04997715 -0.027263811 0.17068172
0.054110046 -0.024820432 0.16863787
0.057247933 -0.021719469 0.1680913
0.02352085 -0.040934607 0.16599542
0.033155836 -0.040088348 0.16521293
0.048628755 -0.033311777 0.16446161
0.050021831 -0.032664936 0.16437048
0.056489311 -0.028065905 0.16477528
0.059393696 -0.02417296 0.16420078
0.028557286 -0.040945657 0.16122192
0.038036853 -0.038674623 0.16157228
0.043330416 -0.036895826 0.16090602
0.04706287 -0.033792131 0.16070458
0.05131793 -0.032013111 0.16055298
0.05546052 -0.029440943 0.15963352
0.058741871 -0.026870741 0.15924269
0.03320159 -0.04100081 0.15653551
0.042830624 -0.037511166 0.15637493
0.046900325 -0.034273457 0.15563363
0.051233441 -0.032094557 0.15594092
0.054956034 -0.029962033 0.15590107
0.057997208 -0.028196406 0.15593898
0.043237839 -0.037298556 0.1527721
0.020701502 -0.019551506 0.19212139
0.025252709 -0.018337104 0.19234866
0.02888988 -0.015017845 0.19115865
-0.010018247 -0.035022926 0.19027805
-0.0057008937 -0.034705382 0.19170094
-0.00091338158 -0.03304065 0.19328257
0.0080230338 -0.028405651 0.19241327
0.016354453 -0.024182156 0.19133526
0.031050684 -0.018248066 0.19167474
0.034553602 -0.016230145 0.1896255
0.036702849 -0.013922814 0.18757248
-0.0093221515 -0.037906311 0.18710354
-0.0063397363 -0.038551454 0.18903151
0.036351871 -0.019044928 0.18597129
0.037380181 -0.015817851 0.18518108
-0.008905598 -0.039313175 0.1834504
-0.0047663404 -0.040470034 0.18353027
0.03612053 -0.020907575 0.18094492
-0.0083283409 -0.040118638 0.1799238
-0.0038395189 -0.040923867 0.17841464
0.038471624 -0.021945251 0.17780069
0.041796554 -0.020883828 0.17542899
0.045952328 -0.018345486 0.17339936
-0.0021074554 -0.041150738 0.17305475
0.0063365465 -0.041904438 0.1737988
0.044834442 -0.022934046 0.17367372
0.047570325 -0.021520097 0.17248598
0.051754996 -0.019019015 0.17117682
0.055549942 -0.017166777 0.17011493
0.058717545 -0.014764009 0.1686236
-0.0010650316 -0.042347908 0.16995299
0.0070416369 -0.04100845 0.16931343
0.058055028 -0.018901048 0.16858596
0.060694769 -0.01724196 0.16629407
0.062894195 -0.014354814 0.16405189
0.016513765 -0.040947836 0.16510257
0.060554832 -0.021450724 0.16335696
0.06187845 -0.019365186 0.16207212
0.063109584 -0.015037784 0.16174087
0.016652139 -0.041246578 0.16027182
0.026659351 -0.041150846 0.15881816
0.060016766 -0.024740545 0.15697333
0.061517216 -0.020863194 0.15741968
0.022273101 -0.040656351 0.15423456
0.048347861 -0.033371739 0.15328994
0.05103508 -0.031779237 0.15288892
0.055316806 -0.029132538 0.15292645
0.059129201 -0.026428821 0.1529566
0.061142847 -0.022461217 0.1520232
0.02826363 -0.041817997 0.1502769
0.037323289 -0.039331544 0.15081662
0.04209213 -0.037419386 0.15007874
0.046902344 -0.034175459 0.14972356
0.050868958 -0.031605083 0.14898479
0.055102948 -0.029686019 0.14873904
0.059143636 -0.027270125 0.14811963
0.06142243 -0.024529006 0.14780515
0.032773521 -0.040924706 0.1460686
0.041271664 -0.037147824 0.14522052
0.045652088 -0.034683846 0.14561963
0.050808229 -0.031691849 0.1452632
0.054960616 -0.029541686 0.14484432
0.05844748 -0.02781151 0.14454257
-0.012498727 -0.029511524 0.19110647
-0.0094694933 -0.028585739 0.19118911
-0.0040347893 -0.027150605 0.1923852
0.0053982963 -0.023387484 0.19212794
0.013982952 -0.019192383 0.19167385
0.018750858 -0.015569595 0.1918357
0.023552028 -0.014199525 0.19232517
0.027507767 -0.011567141 0.19160432
0.031821903 -0.010447904 0.19040135
0.034333926 -0.0078909509 0.1881167
-0.019366037 -0.037236214 0.18963522
-0.01683807 -0.034826975 0.18942949
-0.012734365 -0.03393032 0.19024622
-0.0085237613 -0.032457907 0.19182044
0.03643176 -0.010124814 0.18665078
-0.019927582 -0.036527786 0.18634278
-0.015931096 -0.036706436 0.18571341
-0.012194084 -0.036770441 0.18664476
0.037583508 -0.013366165 0.18239012
-0.014877833 -0.038786396 0.18139327
-0.011330798 -0.03927283 0.18207917
0.038319625 -0.014483114 0.17815489
0.041586619 -0.01231066 0.17569783
-0.014324758 -0.040589806 0.1770615
-0.01022348 -0.040513698 0.17767698
-0.006363201 -0.04126199 0.17551389
0.041015863 -0.016437624 0.17549223
0.044920355 -0.014015175 0.17398918
0.049223475 -0.012850888 0.1721366
0.05220383 -0.0097888522 0.17091137
0.056922056 -0.0068548303 0.17014778
-0.01342919 -0.04232832 0.17399639
-0.0097016739 -0.041563224 0.17243326
-0.0053888019 -0.041221153 0.17173371
0.054068394 -0.011706309 0.16990221
0.058729831 -0.0099239927 0.16792506
0.06207281 -0.0084170289 0.16555452
0.065152809 -0.0068987384 0.16455287
-0.0045397943 -0.0415507 0.16707689
0.0048513608 -0.0407268 0.16655415
0.063801944 -0.011043675 0.16337585
0.06568443 -0.008432582 0.16283149
-0.0035824925 -0.041460238 0.16323298
0.0064539434 -0.040893368 0.16329521
0.063844234 -0.0126315 0.1588316
0.0068812026 -0.041145995 0.15856403
0.062798738 -0.018983347 0.15484878
0.062908433 -0.014799172 0.15406266
0.016363256 -0.04190043 0.15340084
0.062344551 -0.020171855 0.15081912
0.063722663 -0.017185241 0.15014765
0.021533353 -0.041296568 0.14812782
0.062416561 -0.02155518 0.14568534
0.064078629 -0.018279653 0.14717257
0.027462333 -0.041910484 0.14354077
0.041104741 -0.03693819 0.1426115
0.045971796 -0.033549365 0.14235044
0.050589085 -0.031303793 0.14252117
0.054755475 -0.029186921 0.14172176
0.058971044 -0.026530199 0.14138508
0.061728828 -0.022971587 0.14136982
0.032642286 -0.04120332 0.13959658
0.041028351 -0.037047897 0.13887188
0.0448508 -0.034054406 0.13803953
0.049785323 -0.031721815 0.13745025
0.054808669 -0.029590432 0.13725704
0.058845378 -0.027066121 0.13679415
0.036730193 -0.039273277 0.13454455
0.040995181 -0.037333183 0.13429287
0.043762349 -0.03585789 0.13398227
0.050555296 -0.031785008 0.13387051
0.055018533 -0.030334463 0.13400048
0.057766125 -0.028797861 0.13364384
0.008759249 -0.011348452 0.19225556
0.021646272 -0.0054903473 0.19148499
0.024191948 -0.0054416917 0.19196987
-0.015594441 -0.025974561 0.19185883
-0.011019969 -0.025011294 0.19246238
-0.0064830328 -0.021688947 0.19237977
-0.00086758193 -0.020807778 0.19209233
0.0068292213 -0.015845995 0.19216269
0.015948482 -0.01160603 0.1914106
0.021597272 -0.0094771916 0.19193617
0.02580215 -0.0073569603 0.19156435
0.03013188 -0.0047834683 0.19022337
0.033219304 -0.0039527416 0.18880996
-0.021742851 -0.032290574 0.18898803
-0.019499149 -0.029637024 0.18912652
-0.015410663 -0.028951123 0.19017997
0.03611115 -0.0052181697 0.18415928
-0.021673108 -0.035245083 0.18244192
-0.018590014 -0.036084652 0.1835961
0.037901096 -0.0089918086 0.18031099
0.039284877 -0.0058709066 0.17874488
0.050975494 0.000475429 0.1765047
0.053268731 0.0010266118 0.17573339
-0.021115467 -0.036814794 0.17979497
-0.0183412 -0.037181836 0.17968297
0.041831587 -0.0091437986 0.1759218
0.045751479 -0.0052000163 0.17432356
0.050462775 -0.002246283 0.17315072
0.054750379 -0.00082506984 0.17344478
0.057960756 0.0010019969 0.17241302
-0.019387938 -0.039433457 0.17432311
-0.017825056 -0.038919188 0.17528132
0.047614478 -0.0085768169 0.17288408
0.051869042 -0.0060364623 0.17093688
0.055673514 -0.0034722183 0.17020282
0.059505429 -0.0016200207 0.16910917
0.062534504 0.00045149401 0.16690314
-0.015389597 -0.040960815 0.17148218
0.056369688 -0.0076777507 0.16867283
0.061291438 -0.0046661366 0.16657507
0.064360946 -0.0023644548 0.16530102
-0.014606298 -0.039548114 0.16704255
-0.011007888 -0.039974555 0.16592601
-0.0074519375 -0.040375486 0.1644814
0.065487646 -0.0079902895 0.15970698
-0.0098131821 -0.039297048 0.16233096
-0.005587182 -0.040597524 0.16035146
-0.001314464 -0.041207425 0.15984011
0.064050749 -0.011039775 0.15568194
0.066080183 -0.007923305 0.15567005
-0.0045377007 -0.040346295 0.1557191
-0.00030954834 -0.040657047 0.15578249
0.064304762 -0.011857523 0.15250072
0.067063525 -0.0086128209 0.1510607
0.0055982918 -0.040394634 0.15149736
0.065213934 -0.014501227 0.14875832
0.067758873 -0.011404516 0.1476202
0.010288469 -0.039917048 0.14660835
0.064726919 -0.015621722 0.14401031
0.015282284 -0.040070459 0.14220065
0.023899157 -0.040423591 0.14072698
0.062306125 -0.020595254 0.13878942
0.063602358 -0.01724004 0.14068687
0.019997481 -0.040109925 0.13741031
0.044561565 -0.033513248 0.13545865
0.058688268 -0.026773075 0.13441268
0.061897434 -0.022480397 0.13494241
0.026305756 -0.039922092 0.1321373
0.036378514 -0.038694248 0.13119048
0.04074683 -0.036966123 0.13110995
0.044987112 -0.033660784 0.1315631
0.048955716 -0.031636938 0.13097477
0.05425356 -0.02979327 0.13043231
0.058910899 -0.027010141 0.13056064
0.061348181 -0.023654928 0.13040918
0.031245708 -0.040169172 0.12744045
0.040611695 -0.036940742 0.12721342
0.044580285 -0.03423252 0.12635779
0.048739403 -0.03196821 0.12585664
0.053826921 -0.029895602 0.125723
0.057754792 -0.027434504 0.12541384
0.03614879 -0.038792368 0.12349248
0.040691823 -0.037460644 0.12325102
0.044474348 -0.035657808 0.12281018
0.050402958 -0.03213378 0.12253249
0.053256668 -0.030808702 0.12234586
0.028012455 0.0042182319 0.19365114
0.029956151 0.0053441087 0.19394875
0.035475038 0.0068157264 0.19365436
0.03872025 0.007194913 0.19408125
-0.024847832 -0.025064126 0.19336769
-0.022869889 -0.022017239 0.19201499
-0.017937504 -0.021150619 0.19343323
-0.013680014 -0.019543432 0.19376221
-0.0086030196 -0.016897572 0.19286901
-0.0040959674 -0.013549671 0.1916697
0.0047097453 -0.010720152 0.19218576
0.0094355671 -0.0081604002 0.19166696
0.013699144 -0.0068906867 0.19161141
0.018517811 -0.0040986715 0.19143879
0.023362957 -0.0013325261 0.19159287
0.027837735 0.00020195823 0.19130522
0.031897753 0.0027579227 0.19065496
0.036247861 0.0046091517 0.19046593
0.040201329 0.0062253121 0.19006926
-0.024470063 -0.027206082 0.19053349
-0.021615308 -0.024952386 0.19027057
-0.018190093 -0.024492122 0.1925419
-0.002515743 -0.01715102 0.1914804
0.033971362 -0.00015977491 0.18759254
0.037082143 0.0021904875 0.18649504
0.040992536 0.0051418915 0.18558028
-0.025128655 -0.027889069 0.18694276
-0.022265935 -0.027618637 0.1879912
0.035395972 -0.0022552079 0.18504396
0.037776336 0.00012005027 0.18229684
0.041825224 0.0035292059 0.18039221
0.039697122 -0.0024446948 0.17901915
0.043046478 -0.00073186308 0.17740884
0.047778644 0.0004959479 0.17725194
0.052283045 0.0014922544 0.17710268
0.048458837 -0.0018592533 0.17458096
0.059070475 0.0032205489 0.17006883
-0.020721328 -0.036500569 0.17504093
0.060268193 0.002151059 0.16817504
0.062520467 0.0028217919 0.16732237
-0.017669672 -0.038382247 0.16844976
-0.016619043 -0.03760552 0.1635026
-0.013895945 -0.037973821 0.1624603
-0.01582811 -0.037908737 0.16009444
-0.012023748 -0.038661543 0.15954268
-0.0081864214 -0.039503343 0.15906385
-0.011013093 -0.038696785 0.15458834
-0.0072649056 -0.039471764 0.1541211
0.068226852 -0.0066621285 0.15008062
-0.005518714 -0.040016137 0.14910841
-0.0018897122 -0.040659517 0.14927071
0.004663894 -0.040380903 0.14493269
0.064563558 -0.01303257 0.14004949
0.067044429 -0.010619683 0.14096612
0.0052530095 -0.040389851 0.14052799
0.064245619 -0.014014192 0.1365571
0.067460887 -0.011933167 0.136197
0.010266388 -0.040626448 0.13584185
0.062725663 -0.019740772 0.13258401
0.064519279 -0.015512247 0.13210547
0.067790195 -0.013451137 0.1319133
0.015196127 -0.040584464 0.13125485
0.024011116 -0.039771926 0.12977672
0.062120117 -0.021007977 0.12829107
0.065156586 -0.016859027 0.12763029
0.068265751 -0.015623428 0.12732679
0.024728842 -0.040370367 0.12636644
0.059326552 -0.025673788 0.12373203
0.061199982 -0.022814581 0.12369174
0.030637616 -0.040926658 0.12123066
0.040571459 -0.03737618 0.12054586
0.044900641 -0.034775365 0.120368
0.048798986 -0.033023588 0.12055743
0.053596631 -0.030728728 0.12019676
0.05768802 -0.027870543 0.11950529
0.060333222 -0.024121599 0.11855102
0.03546869 -0.03881079 0.11604053
0.040286057 -0.037060268 0.11557901
0.04425215 -0.034814693 0.11559355
0.048919119 -0.033096924 0.11602241
0.053196669 -0.031114977 0.11476946
0.057322636 -0.02868266 0.11413699
0.023925668 0.0081735756 0.19522247
-0.020273779 -0.014161434 0.19359329
-0.01659283 -0.012639187 0.19345871
-0.011087231 -0.009432314 0.19272932
-0.0069624446 -0.007001196 0.1921666
-0.0025027785 -0.0052673602 0.19206625
0.006204593 -0.0013610376 0.19157445
0.010570572 0.00056095747 0.1913487
0.015137903 0.0020184249 0.1914266
0.020357706 0.0040293136 0.1922453
0.025219325 0.0057099033 0.19344002
0.031774517 0.007528902 0.19251817
-0.023320293 -0.019816596 0.19189459
-0.019926453 -0.016856253 0.19334602
-0.014527706 -0.015254788 0.1935091
-0.010230904 -0.013228029 0.19321007
-0.0055941287 -0.010129487 0.19190609
-0.0011060142 -0.00844419 0.19230148
0.0075848736 -0.0045874696 0.19183499
0.011922829 -0.0026468884 0.19159326
0.016317502 -0.00083752349 0.19143772
0.023566855 0.0023393854 0.19107145
0.040577423 0.0048420103 0.18103677
0.043494854 0.0070892815 0.17939427
-0.021203965 -0.03340948 0.1636467
-0.019897206 -0.034710959 0.16096383
-0.021782104 -0.037256792 0.15452778
-0.017672006 -0.037543159 0.15691698
-0.01429643 -0.037922546 0.15666327
-0.017785855 -0.037369478 0.15201849
-0.013623718 -0.038386025 0.15293062
-0.018892948 -0.040883381 0.14604259
-0.012760331 -0.038669877 0.14796743
-0.0087405257 -0.038767383 0.14849651
-0.011675538 -0.0397764 0.14318916
-0.0071652886 -0.040025398 0.14346707
-0.0031172 -0.040126935 0.14226365
-0.0112997 -0.041121677 0.13934857
-0.0074990802 -0.04052398 0.1383552
-0.0016171858 -0.040034249 0.13790184
0.00031201448 -0.039566047 0.13292542
0.0079861479 -0.040211674 0.13283357
0.068793826 -0.01043402 0.12846363
0.0091858413 -0.040766023 0.12899119
0.063208446 -0.016802108 0.12492877
0.069142282 -0.012274187 0.12576038
0.014512287 -0.040216692 0.12477821
0.063044213 -0.015930081 0.12113386
0.067611165 -0.012826782 0.12138098
0.014608748 -0.040154029 0.12008208
0.023508459 -0.040247232 0.11995882
0.061174296 -0.022289481 0.11716962
0.024304654 -0.040378075 0.11545163
0.034636732 -0.038750239 0.1133374
0.044651009 -0.033307295 0.1121223
0.048551425 -0.032388262 0.11249733
0.060508922 -0.023730889 0.11279339
0.062940978 -0.021279894 0.11039639
0.029269898 -0.039092492 0.10981017
0.039611615 -0.035845645 0.10964656
0.043532338 -0.032872997 0.10876948
0.047804583 -0.030754214 0.10819751
0.052435227 -0.02950523 0.10853368
0.056805369 -0.027624542 0.10835332
0.06055598 -0.024083715 0.10814399
0.063076288 -0.021717779 0.10877407
0.033961084 -0.039216034 0.1051296
0.038628846 -0.036567297 0.10563189
0.042329788 -0.034412712 0.10540706
0.048839539 -0.031376351 0.10595864
0.052448153 -0.029710583 0.1057297
0.056721993 -0.027567983 0.1053372
0.012878459 0.0098372353 0.19399127
0.016679851 0.0090995841 0.19514108
-0.017473249 -0.0089528039 0.19212279
-0.014250733 -0.0063507147 0.19221461
-0.008934116 -0.0042359182 0.19268605
-0.0038593919 -0.0020716409 0.19277149
0.00042635249 6.6085784e-05 0.19240808
0.0048396881 0.0019255686 0.19222629
0.0091810441 0.0045414236 0.19200227
0.013288522 0.0065735038 0.19219333
0.018008709 0.0077917716 0.19335723
0.02113118 0.0085892761 0.1935198
-0.024053887 -0.031124758 0.16349727
-0.028695472 -0.033088654 0.15988007
-0.025669489 -0.031329386 0.16009682
-0.021608487 -0.033262074 0.15872046
-0.021360898 -0.034244284 0.15558237
-0.020449871 -0.035819422 0.14945641
-0.017548621 -0.038044948 0.14644116
-0.01721951 -0.039434031 0.14164603
-0.014466345 -0.039558142 0.14238247
-0.015790163 -0.041088477 0.13824508
-0.013097115 -0.040974777 0.1370779
-0.011764164 -0.03918666 0.13213933
-0.0078740977 -0.039446618 0.13253394
-0.0028527211 -0.039503068 0.1316199
-0.0065460531 -0.03947942 0.12874758
-0.0031773569 -0.039348312 0.12721783
0.003517814 -0.039709892 0.12208402
0.06325601 -0.014907971 0.11780351
0.066322431 -0.011721123 0.11736679
0.0088944621 -0.040121697 0.11741841
0.062510408 -0.015331391 0.1139856
0.014103675 -0.040556461 0.11316758
0.063255884 -0.016966006 0.10966295
0.019034008 -0.039797269 0.10856664
0.027138475 -0.039053429 0.10862797
0.043125607 -0.031984899 0.10684836
0.061190665 -0.02362637 0.10568798
0.063702762 -0.020063525 0.10629207
0.024171775 -0.039334029 0.10375178
0.032229431 -0.039353702 0.1032809
0.039446615 -0.035982765 0.10279465
0.0439048 -0.032968134 0.10352159
0.047640964 -0.03130934 0.10304916
0.052331954 -0.029595103 0.10265088
0.056561161 -0.027315442 0.10214782
0.060056534 -0.023616336 0.10166711
0.062905341 -0.021515038 0.10266048
0.02873737 -0.039695524 0.09861058
0.038420815 -0.037116237 0.099564493
0.043018907 -0.033942431 0.098131478
0.047937773 -0.031784002 0.098081231
0.052255351 -0.029693995 0.097736776
0.05608879 -0.02690788 0.097006857
0.033906154 -0.038919177 0.094964087
0.037950039 -0.037230019 0.094337523
0.041771684 -0.035297301 0.094305038
0.049220398 -0.030951886 0.09383738
0.0011391218 0.010183696 0.19757289
-0.011429643 0.0032119441 0.19297636
-0.0078031356 0.0049512521 0.19270819
0.0018468627 0.0091769267 0.19408458
0.0068711382 0.0096536763 0.19385901
0.011231612 0.010732495 0.19456497
-0.020374587 -0.0038783723 0.19110355
-0.016503736 -0.0021084975 0.19235858
-0.011145083 0.00053460989 0.19266585
-0.0059178965 0.0026211371 0.19251508
0.0032987578 0.0056020329 0.1926409
0.0070128064 0.0071047656 0.19252241
-0.026901696 -0.030960951 0.15768453
-0.026186921 -0.031316619 0.15383905
-0.022018217 -0.03464023 0.14319387
-0.020521279 -0.03827627 0.14010406
-0.014305785 -0.038898416 0.13007128
-0.010110113 -0.039275266 0.12968177
-0.012833335 -0.038961854 0.12619096
-0.0088972282 -0.03908287 0.12569714
-0.0050257854 -0.039414473 0.12517446
-0.007832801 -0.039250482 0.12082583
-0.0035225153 -0.039309219 0.12155807
-0.0032595452 -0.03925442 0.11633563
0.006837653 -0.039739341 0.11465722
0.065199666 -0.0097266585 0.11197323
0.0081109554 -0.040210493 0.11108363
0.065498836 -0.012119044 0.10759211
0.013403466 -0.039779667 0.10551238
0.063476108 -0.018440258 0.10260326
0.065821454 -0.015451897 0.10506874
0.018198065 -0.039674051 0.10148692
0.060371883 -0.019529168 0.096579552
0.062970847 -0.017201426 0.098934472
0.023513552 -0.040301055 0.097384036
0.057670671 -0.026135873 0.094633162
0.059228543 -0.022458801 0.094671965
0.023942783 -0.040408745 0.093023121
0.032912694 -0.038670108 0.091805458
0.037906732 -0.037362531 0.091419876
0.042088389 -0.034130123 0.09153533
0.046589456 -0.031580433 0.091389537
0.051924534 -0.029222898 0.091310441
0.056261905 -0.027130112 0.090969384
0.059481956 -0.0243633 0.089827597
0.0331662 -0.03885052 0.087180793
0.037680902 -0.037148658 0.087177217
0.041745238 -0.034317873 0.087222338
0.045897678 -0.03175395 0.086481035
0.051192671 -0.029630693 0.086045861
0.0561525 -0.027703878 0.085579157
0.059520222 -0.025425699 0.085924327
-0.0089954566 0.011911702 0.19422051
-0.026040487 0.00018526427 0.19276875
-0.022594212 0.0010439884 0.1936579
-0.018742207 0.0037580477 0.19312647
-0.014549941 0.0061799553 0.19227585
-0.0095292851 0.0089316387 0.19296145
-0.02636959 -0.00079859607 0.18981829
-0.023384074 -0.00075297803 0.1903758
-0.019898539 -0.033782296 0.12753147
-0.019576296 -0.03491468 0.12442726
-0.015134994 -0.036988162 0.12298024
-0.013583073 -0.037096359 0.11850148
-0.010898435 -0.038109813 0.11838567
-0.0090529732 -0.037548169 0.11341506
-0.0056309225 -0.038335659 0.11311436
-0.0046401154 -0.037979707 0.1087296
-0.00035515521 -0.038435314 0.10951084
-0.0030507669 -0.038494334 0.10526168
0.0051342547 -0.038159188 0.10367471
0.010767299 -0.038372722 0.099818468
0.061146803 -0.012351017 0.095647812
0.01224965 -0.038754765 0.095222235
0.06008637 -0.018959632 0.092083633
0.061030902 -0.016836599 0.092810452
0.01735352 -0.039677747 0.09081775
0.060614608 -0.020558685 0.088361204
0.061143227 -0.01738349 0.087194681
0.017943043 -0.039591171 0.086101711
0.027494298 -0.038631018 0.085440993
0.041195095 -0.03323086 0.083233178
0.045840375 -0.031816069 0.083480775
0.049406949 -0.029906172 0.083058894
0.05540647 -0.027574249 0.083003879
0.060628068 -0.023926435 0.08310324
0.061838455 -0.019504979 0.08185637
0.02756976 -0.039114978 0.08118552
0.037365716 -0.03582542 0.080542266
0.040905125 -0.032763619 0.079758286
0.045385174 -0.030917276 0.079639792
0.050083388 -0.02961766 0.079991817
0.055393197 -0.027705228 0.080057681
0.060235314 -0.025485624 0.079965174
0.062436517 -0.022440452 0.0786165
0.0323979 -0.03785206 0.077094674
0.036723658 -0.03562963 0.07665056
0.04023286 -0.033471689 0.077044189
0.049824983 -0.029163731 0.076526463
0.054189593 -0.027020238 0.076153338
0.057927493 -0.025489045 0.076062381
-0.016295947 0.010292697 0.19372058
-0.0087868143 0.013583596 0.19521114
-0.028298864 0.0009600576 0.19096121
-0.016427703 0.00847633 0.19282418
-0.022285845 -0.033639096 0.12636179
-0.021633172 -0.034727253 0.12181783
-0.016898699 -0.035444666 0.12050819
-0.020569511 -0.033897124 0.11655706
-0.017470799 -0.035117768 0.11677104
-0.015642814 -0.034711882 0.1127066
-0.011939087 -0.036433592 0.11151129
-0.0094159199 -0.037555281 0.10734749
-0.0067403736 -0.038113087 0.10603184
-0.0094369119 -0.037807524 0.10310894
-0.0050955471 -0.038255446 0.10255378
-0.00084572472 -0.037936907 0.10144043
-0.0047463942 -0.0383345 0.097672641
0.0034206957 -0.038006071 0.097596467
-0.0034637963 -0.039066963 0.093486488
0.0051974775 -0.039004732 0.093498647
0.060894608 -0.011921741 0.089226782
0.06142699 -0.0086545367 0.089040101
0.0057805842 -0.039060682 0.088551402
0.06138866 -0.013468761 0.084405124
0.016837839 -0.039938442 0.083441913
0.061795261 -0.016282255 0.081157625
0.02141664 -0.039666798 0.079939842
0.063165739 -0.018650431 0.07650423
0.022626117 -0.039914779 0.07484591
0.032263283 -0.037798788 0.073951125
0.036624767 -0.035637625 0.073563039
0.04104162 -0.032900885 0.074217558
0.045133948 -0.030648503 0.074268579
0.049728964 -0.029111631 0.073395669
0.054107934 -0.026981164 0.073035896
0.058560003 -0.024375254 0.07277602
0.0614921 -0.021338044 0.071904957
0.032074019 -0.037708733 0.069722116
0.036569506 -0.035827868 0.069585741
0.040926531 -0.033623777 0.069163382
0.045171827 -0.031148549 0.068502605
0.049662448 -0.029256862 0.068356812
0.054013643 -0.027023505 0.06790942
0.057870775 -0.024969639 0.068143189
0.060834356 -0.022068681 0.068162978
0.036361881 -0.035665035 0.065281391
0.040256418 -0.03442689 0.065464258
0.045241479 -0.031590145 0.064737618
0.048964065 -0.029948656 0.06456095
-0.024246207 -0.033495884 0.11835486
-0.021986363 -0.034013685 0.11478603
-0.021112069 -0.03375696 0.10932618
-0.017915411 -0.034102652 0.10970998
-0.016923962 -0.032965086 0.10515851
-0.014510588 -0.033064712 0.10450476
-0.011722418 -0.035816107 0.10009867
-0.011193879 -0.036446977 0.095627666
-0.0075107329 -0.03765586 0.096453369
-0.0096633323 -0.037496798 0.091708899
-0.0062027629 -0.038304847 0.09191215
-0.0017780401 -0.039270692 0.090032399
0.061732002 -0.0095805749 0.086748958
-0.0053800866 -0.038511369 0.086756766
-0.00085177086 -0.038571406 0.086519718
0.062443674 -0.0088224411 0.082934439
-0.0041309632 -0.038907375 0.083006263
-0.00044659153 -0.038718216 0.082087934
0.0095831845 -0.037779979 0.080848753
0.0045903372 -0.038426615 0.07744509
0.013371198 -0.038789041 0.07650882
0.015394678 -0.038652368 0.072133124
0.062168486 -0.016216237 0.069267869
0.021028036 -0.038397774 0.067251682
0.058927406 -0.023301592 0.065116048
0.061371937 -0.019917378 0.064617634
0.026319165 -0.038127586 0.062175274
0.036292352 -0.035743445 0.06221658
0.041037936 -0.033779953 0.062535405
0.044743381 -0.030593637 0.060718596
0.04917109 -0.028442718 0.061047018
0.05355265 -0.026200984 0.060945749
0.057662711 -0.023823382 0.060576022
0.061597656 -0.019755173 0.060760438
0.06546925 -0.020941611 0.058303356
0.025926169 -0.03886443 0.057947457
0.036098726 -0.035615329 0.057905614
0.040553316 -0.033561341 0.057625413
0.044899024 -0.030141234 0.056773722
0.04919859 -0.028154682 0.056425393
0.053487044 -0.026318546 0.055818677
0.057454847 -0.024069158 0.056285918
0.062047318 -0.021122644 0.057439208
0.065387174 -0.020800516 0.056088984
0.0315185 -0.037644323 0.055000007
0.036017932 -0.035670467 0.054795861
0.038968779 -0.034242641 0.0545578
0.048606951 -0.029709546 0.05388236
0.053807773 -0.027294587 0.053542197
-0.025589189 -0.031331029 0.11355782
-0.023509752 -0.032564066 0.10890234
-0.023658773 -0.031669285 0.10387826
-0.018841885 -0.032557331 0.10263145
-0.017712517 -0.031994499 0.09736371
-0.014687095 -0.033467047 0.098681271
-0.015936824 -0.035382949 0.093614221
-0.013668274 -0.036217786 0.094809771
-0.016185287 -0.035407867 0.089484692
-0.012501108 -0.036717229 0.089076281
-0.011666199 -0.036944423 0.085153699
-0.0077631166 -0.038607813 0.084863722
-0.0060196444 -0.038423061 0.080077887
-0.0024084458 -0.039166976 0.07956934
-0.0046190321 -0.03864219 0.076508522
-0.00098795351 -0.038808782 0.075580597
0.061938986 -0.010701733 0.072292864
0.0083187483 -0.038099404 0.07044214
0.061407857 -0.0094410349 0.067070484
0.013448199 -0.038744759 0.065834999
0.062061917 -0.016097156 0.0650177
0.063550659 -0.013948837 0.061392963
0.01815021 -0.039058331 0.061546326
0.062454775 -0.019810528 0.058627903
0.064819887 -0.016733075 0.059033692
0.023342729 -0.039259695 0.05592531
0.043880761 -0.030993655 0.055570543
0.058659673 -0.023096172 0.054494441
0.061887771 -0.020834027 0.054038227
0.06586767 -0.018980077 0.054818332
0.030971285 -0.038695499 0.052520931
0.036083736 -0.036065016 0.051984847
0.040549196 -0.033420853 0.052029908
0.04469505 -0.031098943 0.05170989
0.049521655 -0.029328406 0.051164746
0.053790197 -0.027420834 0.050495267
0.057888649 -0.024354953 0.050362945
0.061331369 -0.020677013 0.050085723
0.064812891 -0.019428596 0.050670445
0.030159306 -0.038698543 0.04762727
0.039457425 -0.033057339 0.047479451
0.045511916 -0.031204063 0.047839403
0.049064741 -0.030363658 0.047043443
0.053795233 -0.027661648 0.046484113
0.05705842 -0.025476905 0.046092868
-0.026868869 -0.029556978 0.10699493
-0.025207929 -0.030244596 0.099785686
-0.024227431 -0.030181296 0.096599042
-0.020936079 -0.031001311 0.096840441
-0.023278425 -0.031424835 0.092954397
-0.019980635 -0.032667212 0.092656136
-0.021380642 -0.036382381 0.086742461
-0.018404029 -0.034810524 0.08758533
-0.017654087 -0.036325358 0.083594024
-0.013519723 -0.036210191 0.082576454
-0.017085183 -0.036230419 0.078866601
-0.01289575 -0.036122829 0.078557909
-0.0087238047 -0.037308343 0.078512788
-0.011845732 -0.037116915 0.073366463
-0.0072507504 -0.037724689 0.073913336
-0.0032178247 -0.03824063 0.072466969
-0.0068433005 -0.037816044 0.069468379
-0.0019075461 -0.037526991 0.069188535
0.061578188 -0.01001009 0.064432442
-0.0053798184 -0.038318422 0.065674365
-0.0018305071 -0.037773918 0.064447343
0.007336108 -0.037366953 0.063026845
0.063119285 -0.0095769074 0.060590923
-0.00014687888 -0.038414977 0.060971856
0.0087890849 -0.037861038 0.059207559
0.065970369 -0.012779204 0.056333899
0.066713721 -0.010010673 0.055473983
0.0083910413 -0.0385812 0.054585993
0.017794244 -0.037614174 0.053703129
0.013774673 -0.038385533 0.050305307
0.022944791 -0.038957044 0.049273312
0.061292298 -0.019534884 0.046548724
0.064244911 -0.01799665 0.047278941
0.019040909 -0.038523842 0.046000063
0.028744847 -0.038349535 0.044210196
0.038115382 -0.032902144 0.04423666
0.042622011 -0.030841891 0.044219375
0.047486953 -0.029790048 0.043098211
0.051818393 -0.027320106 0.042450309
0.056939654 -0.024083143 0.04270184
0.060149632 -0.02042322 0.042467713
0.063682579 -0.017304553 0.042944849
0.029565252 -0.03789055 0.040460527
0.03807677 -0.033156846 0.039734304
0.042292114 -0.030339705 0.039480627
0.046913274 -0.028586138 0.038783014
0.051367242 -0.026374793 0.038377464
0.055803202 -0.024114525 0.03792727
0.059574883 -0.021152321 0.039372742
0.029404629 -0.038519401 0.036051631
0.037902381 -0.033890042 0.036225319
0.041109081 -0.032141335 0.035593569
0.048539206 -0.028389035 0.035930932
0.05002182 -0.027643371 0.035788059
-0.026060916 -0.029408697 0.092852294
-0.024956789 -0.029666252 0.089214742
-0.023793098 -0.032513887 0.086749673
-0.021247894 -0.032796066 0.086258829
-0.017453071 -0.0364208 0.07648927
-0.01680889 -0.036250297 0.073426306
-0.014898981 -0.036597177 0.072130561
-0.012283743 -0.036885381 0.067864358
-0.0092209866 -0.036490805 0.065995097
-0.0069844574 -0.036584783 0.061813891
-0.0038697254 -0.038117949 0.061770499
-0.0019883774 -0.0380366 0.058051288
-0.0013115415 -0.038444497 0.052656829
0.003489119 -0.038581081 0.048107445
0.01205731 -0.03883405 0.048031569
0.012976731 -0.038462181 0.043467104
0.064417355 -0.016341425 0.039678454
0.018968586 -0.037329294 0.039149582
0.041999649 -0.029762276 0.037156761
0.059841305 -0.019896232 0.035577476
0.063774638 -0.017140351 0.035856187
0.066097043 -0.01380769 0.036046982
0.02773805 -0.039030109 0.033813059
0.038408574 -0.033389211 0.033094823
0.042628281 -0.030349363 0.033244848
0.046765279 -0.029119242 0.033569992
0.051733539 -0.027047835 0.033434808
0.055901974 -0.024633091 0.033043504
0.058997363 -0.021620177 0.031570971
0.063921869 -0.017768977 0.029988587
0.028696138 -0.037999712 0.029598653
0.037693553 -0.033045132 0.028840363
0.041966178 -0.030983932 0.028037071
0.04688577 -0.029184815 0.028570592
0.051500242 -0.027307887 0.028484643
0.055942297 -0.025003225 0.027997673
0.058669314 -0.022859083 0.027106285
-0.027008943 -0.028404364 0.085714817
-0.022736318 -0.031250868 0.074376047
-0.018786253 -0.032670867 0.06814301
-0.018329129 -0.033948928 0.066074729
-0.01675673 -0.033615034 0.064163446
-0.013285083 -0.033578634 0.060905814
-0.010319858 -0.034805149 0.060216486
-0.0088233622 -0.035265014 0.056069911
-0.0049716923 -0.036378223 0.055919945
-0.0073642731 -0.035806116 0.050547063
-0.005179815 -0.036442947 0.051675737
-0.0026180185 -0.037778959 0.047517002
-0.00096998271 -0.038859788 0.042026818
0.0077705137 -0.038097911 0.040850937
0.0076190713 -0.038625736 0.037746608
0.016666496 -0.0359939 0.03653121
0.012495536 -0.037240479 0.033032238
0.021453412 -0.037032105 0.032398224
0.059960537 -0.018234402 0.029856503
0.063263908 -0.01597211 0.029626846
0.022725886 -0.037921984 0.02791959
0.033645786 -0.034413967 0.025458694
0.036609504 -0.032867391 0.025125563
0.043446314 -0.029778006 0.024748087
0.046523035 -0.028500747 0.024670541
0.051028147 -0.026314158 0.024298489
0.055660121 -0.024447661 0.024227798
0.059831522 -0.01970499 0.02490598
0.062379204 -0.016933981 0.025965989
0.023444936 -0.038355943 0.023312986
0.032767564 -0.035301473 0.02312988
0.037691746 -0.032877106 0.022694647
0.041759297 -0.030250603 0.02182287
0.046341822 -0.028260265 0.021172225
0.050987743 -0.026396314 0.021109045
0.055652 -0.024589989 0.021099091
0.059288435 -0.021953868 0.020733118
0.028483877 -0.037805572 0.019034207
0.037294965 -0.033549972 0.017855585
0.041266151 -0.031147121 0.017382324
0.046370257 -0.02853184 0.018150628
0.051025998 -0.026724333 0.017268717
0.055638038 -0.024772676 0.016906738
0.058581296 -0.023127733 0.016483724
-0.021692628 -0.030426238 0.067775905
-0.020619387 -0.031467419 0.06252712
-0.015511957 -0.031789638 0.05787003
-0.014092346 -0.032878183 0.05273062
-0.011676036 -0.034061618 0.053269148
-0.014151663 -0.033272557 0.048753083
-0.01039478 -0.034946956 0.049427152
-0.0092645437 -0.03512989 0.044133723
-0.0051754825 -0.036089156 0.043593347
-0.0047788108 -0.036400199 0.039380968
-0.0029368335 -0.03736702 0.034889162
-0.0020088321 -0.037705012 0.032201767
0.0067577916 -0.037894178 0.029419482
0.0077722701 -0.037025969 0.025276721
0.015956219 -0.036532041 0.0254336
0.06204927 -0.015368398 0.022072613
0.017319681 -0.037016109 0.020646274
0.06039945 -0.01830847 0.018526614
0.060752757 -0.014438542 0.01764816
0.022310417 -0.037209053 0.015918076
0.03110509 -0.035722613 0.014878213
0.038089164 -0.032875329 0.014750361
0.042210542 -0.029634982 0.014469743
0.046128452 -0.02814555 0.014487207
0.050760955 -0.026229348 0.013833463
0.055333428 -0.024161693 0.013035178
0.0596288 -0.020469153 0.013528526
0.028170649 -0.036806744 0.011775672
0.037140246 -0.033026449 0.011291385
0.041569591 -0.030569952 0.01066798
0.046189666 -0.028565804 0.010483563
0.05069717 -0.026284868 0.010031521
0.055118397 -0.023780765 0.0093650222
0.058758058 -0.021511497 0.009740591
0.060317725 -0.018456966 0.0098904967
-0.022139484 -0.027218457 0.054674208
-0.02019182 -0.027438732 0.054324389
-0.017143711 -0.03033871 0.052052081
-0.016811237 -0.032475557 0.046653926
-0.016157914 -0.03382764 0.042162299
-0.012222586 -0.034245685 0.042572916
-0.015426065 -0.035541832 0.037518144
-0.010415801 -0.035217792 0.038219988
-0.013888199 -0.035850886 0.033624709
-0.0099384086 -0.036422811 0.033101618
-0.0062572211 -0.036231875 0.034063756
-0.0081500728 -0.036718048 0.029542387
-0.0046146028 -0.036989853 0.028395414
-0.00038313214 -0.037673231 0.028343618
-0.0033050561 -0.037155546 0.024125874
0.0052470919 -0.037027556 0.023769081
0.0062446552 -0.037036799 0.018996119
0.060702663 -0.011932796 0.015584528
0.011541663 -0.037038945 0.014098942
0.012299243 -0.037094302 0.0099889636
0.021479184 -0.036418919 0.0094411969
-0.023198124 -0.025832847 0.047970712
-0.020271357 -0.027940126 0.049334943
-0.022455052 -0.027938325 0.044404745
-0.019461516 -0.030042466 0.046879411
-0.021842431 -0.029791713 0.040606558
-0.017755155 -0.035470195 0.034331024
-0.015484135 -0.036091175 0.031162739
-0.010950587 -0.03505189 0.026269436
-0.0094050467 -0.034846414 0.022203088
-0.0066932607 -0.035494883 0.021007955
-0.0013016276 -0.036515892 0.020588756
-0.004959302 -0.03588916 0.017057061
-0.00080639031 -0.035959791 0.017001808
-0.0035745148 -0.03646994 0.013246715
0.0043022586 -0.037587173 0.012250662
-0.025539156 -0.023889009 0.047444284
-0.025327651 -0.02609951 0.042164385
-0.02142776 -0.031531744 0.034491003
-0.016749276 -0.032905824 0.023880124
-0.013618943 -0.033671826 0.023255348
-0.016252499 -0.032262571 0.021321118
-0.012297623 -0.03365387 0.019253433
-0.011524631 -0.034359932 0.015214622
-0.0074538393 -0.035946697 0.014908433
-0.01034365 -0.035847578 0.011045039
-0.0055633942 -0.036501702 0.010802567
-0.0016729971 -0.036962874 0.0098353028
-0.020493574 -0.03069686 0.02537632
-0.017632702 -0.031708408 0.018247485
-0.017023891 -0.03167681 0.012876332
-0.014166504 -0.033764634 0.013242245
-0.019391909 -0.029890278 0.010695279
-0.023703329 -0.025429921 0.012457073
