# .PCD v0.7 - Point Cloud Data file format
VERSION 0.7
FIELDS x y z
SIZE 4 4 4
TYPE F F F
COUNT 1 1 1
WIDTH 900
HEIGHT 1
VIEWPOINT 0 0 0 1 0 0 0
POINTS 900
DATA ascii
0.065306984 0.0090536196 0.16572207
0.037653748 0.023217872 0.1906853
0.040700916 0.02025317 0.1882782
0.038764484 0.028571531 0.18889982
0.042353533 0.020801457 0.18488064
0.040905248 0.029300604 0.18494767
0.042578969 0.02488981 0.18138483
0.052075919 0.013635477 0.17385781
0.048969664 0.019011388 0.17494902
0.056736439 0.0092583541 0.17078021
0.05284543 0.017188467 0.17150158
0.063354343 0.0008452367 0.16673923
0.060184762 0.010235497 0.16818166
0.055045117 0.017582763 0.16695178
0.065729693 -0.00260913 0.1641511
0.066063412 0.0063098948 0.16446221
0.059800278 0.014768342 0.16256651
0.066892929 0.0027034525 0.15972012
0.064661503 0.011746611 0.15950263
0.066312104 0.0080967359 0.15601397
0.037828665 0.012658152 0.18914172
0.034171805 0.021801844 0.19191137
0.030405317 0.028833382 0.18889186
0.04050399 0.016797654 0.18741396
0.041992571 0.014010708 0.18226713
0.035206281 0.031822842 0.18292034
0.045643087 0.014710763 0.17792922
0.042456962 0.02447366 0.17780477
0.037879515 0.031150697 0.1798695
0.051552586 0.0068806699 0.17419252
0.048780065 0.014794623 0.1757021
0.04218835 0.024349444 0.1728093
0.067119598 -0.020223975 0.17013809
0.060578268 -0.0098290145 0.16836318
0.059451748 -0.0065615624 0.169137
0.057776615 -0.0025256965 0.17010522
0.054768104 0.0076708198 0.17163604
0.047552872 0.021460081 0.16911581
0.068499051 -0.019759633 0.16744429
0.063225597 -0.0095657799 0.1664308
0.063315608 -0.0052046832 0.16750655
0.061734151 -0.0013968255 0.16799027
0.050401218 0.02063011 0.16545552
0.070670515 -0.019080061 0.16253999
0.066320606 -0.012727756 0.16121161
0.065730505 -0.0091649331 0.16198137
0.06594599 -0.0044409018 0.16285038
0.065168299 -0.0012639295 0.16287416
0.051893484 0.020260449 0.1609312
0.067308798 -0.01240474 0.15914857
0.066063903 -0.0095930547 0.15900445
0.066368565 -0.0039895251 0.15709645
0.059610911 0.015621134 0.15663815
0.053251851 0.019972323 0.15674224
0.066417843 0.0059649218 0.15333381
0.061349217 0.014911683 0.15250978
0.066718802 0.0068286061 0.14894158
0.062757954 0.014435914 0.14773804
0.065008894 0.011058561 0.14467469
0.03193057 0.0090909414 0.19152993
0.028793367 0.019528368 0.1918574
0.023228437 0.026870027 0.19083014
0.039301224 -0.001900658 0.18874621
0.037045173 0.0061599528 0.18941182
0.033030253 0.013766497 0.19134665
0.026048807 0.028893575 0.18834224
0.023223866 0.030406719 0.18720499
0.040744949 -0.0012720255 0.18594804
0.040144317 0.0072989669 0.18514818
0.02922238 0.031057969 0.18366119
0.024685185 0.030872321 0.18361965
0.041467585 0.0076360479 0.18055043
0.030732369 0.031074785 0.17865175
0.044456095 0.0038399585 0.17582422
0.043606553 0.011823613 0.17821604
0.059296269 -0.02216319 0.17211115
0.057306241 -0.018860618 0.171608
0.054949872 -0.013933485 0.17216632
0.053122785 -0.0094055254 0.17273569
0.052346341 -0.0048727728 0.17258319
0.050140243 -0.00053846277 0.17350638
0.041124251 0.024588477 0.16943768
0.034127641 0.029246051 0.17070287
0.062796898 -0.02061937 0.1700615
0.059821993 -0.01763756 0.16845956
0.05828863 -0.012711607 0.16926521
0.056652389 -0.0083674714 0.17041993
0.038521271 0.027192451 0.1657992
0.065670356 -0.019559003 0.16566974
0.063091122 -0.016589312 0.16470417
0.062943816 -0.012313955 0.16560745
0.043346196 0.024144191 0.16173664
0.067558907 -0.018962426 0.16146913
0.065530948 -0.016205003 0.16098765
0.064441264 -0.011787761 0.16299415
0.044986278 0.023168785 0.15722054
0.069350556 -0.018419268 0.15718552
0.067387789 -0.015366627 0.15645728
0.066133916 -0.0099753123 0.15656412
0.065791972 -0.0065954048 0.15488902
0.050479989 0.020801133 0.15391988
0.067250311 -0.01419271 0.15261206
0.066333458 -0.0096109901 0.15150204
0.065790571 -0.0051839948 0.15055579
0.065405525 -0.0012528766 0.15088701
0.052137122 0.019830503 0.14889896
0.066270649 -0.0046951305 0.14598909
0.065989509 -0.00025959127 0.14627182
0.059942923 0.015630759 0.14613345
0.066053092 -0.00047120638 0.14249465
0.064816654 0.010800274 0.14165589
0.058258742 0.017137052 0.14065844
0.064655915 0.010448338 0.13673073
0.018702123 0.020325445 0.19154793
0.016822692 0.024626829 0.19224733
0.015393909 0.027359903 0.19106346
0.037134163 -0.014232418 0.18973035
0.035829205 -0.011015297 0.19036329
0.034123667 -0.0061294241 0.19055906
0.032254428 -0.00094553549 0.19144997
0.028592868 0.0076599931 0.19199359
0.023980519 0.016621323 0.19114232
0.020201156 0.026400775 0.1914041
0.018290903 0.029321659 0.18952295
0.038533725 -0.013761315 0.18699721
0.038649715 -0.010220684 0.18781504
0.037943274 -0.0051577371 0.18886873
0.035801791 -0.0011468688 0.18985781
0.020249847 0.030810539 0.18551832
0.040632952 -0.0130547 0.18289754
0.040593587 -0.0095917871 0.18361622
0.040442944 -0.0043135798 0.1840474
0.022528082 0.031158194 0.18100926
0.043502882 -0.012400584 0.17778119
0.042428508 -0.0090777166 0.17840427
0.041418634 -0.0036968412 0.17877725
0.024562422 0.030653313 0.17891988
0.050159235 -0.019630125 0.1725184
0.048802167 -0.016491096 0.17369974
0.047845148 -0.01195911 0.17464393
0.046402358 -0.0074773682 0.17474553
0.044293836 -0.0026990753 0.1746687
0.029360553 0.030269591 0.17211372
0.054610278 -0.019857643 0.17174712
0.052339654 -0.01510869 0.17303792
0.051466156 -0.012077348 0.17317298
0.05820537 -0.020266552 0.17000568
0.033224646 0.029816046 0.16404915
0.038637962 0.027537189 0.15973192
0.043129854 0.024538618 0.15524673
0.04437758 0.023971064 0.1507428
0.066141374 -0.015802795 0.14960176
0.066289425 -0.011886947 0.14924872
0.045494117 0.023116989 0.14652213
0.065629117 -0.01467341 0.14481694
0.065674908 -0.010971563 0.14505309
0.0662027 -0.006600596 0.14358276
0.06552808 -0.010786859 0.14069068
0.065238826 -0.0060093291 0.13888833
0.065294623 -0.0010463502 0.13899207
0.053548433 0.019612679 0.13806808
0.065591983 -0.005193796 0.13465643
0.065450154 -0.0012754183 0.1342842
0.060864579 0.015418024 0.1344313
0.054191168 0.019251417 0.13365924
0.065711096 -0.0002656132 0.1302669
0.064571477 0.010077297 0.13087034
0.058333449 0.016309077 0.1294046
0.064095296 0.0095657911 0.12561768
0.028247923 -0.0087646767 0.1911369
0.026657896 -0.00427402 0.19204852
0.022011768 0.0047976784 0.19211879
0.018745828 0.014094732 0.19175649
0.015297882 0.018731017 0.19243568
0.013219578 0.023194002 0.19350842
0.011822948 0.027780179 0.19205952
0.010075232 0.030169737 0.18853551
0.03613105 -0.021431476 0.18924183
0.035220057 -0.017042708 0.19007665
0.033495605 -0.012818925 0.19108376
0.030924879 -0.0075498121 0.19112307
0.015170441 0.030517321 0.18793368
0.011291159 0.030986506 0.1857475
0.038654946 -0.020472761 0.18588194
0.038290992 -0.016508762 0.18627262
0.01657681 0.030928373 0.18335477
0.040271509 -0.01937609 0.18132383
0.040059958 -0.015973311 0.18192607
0.016280212 0.030675791 0.17944455
0.042975925 -0.019031055 0.17725968
0.042775404 -0.015110078 0.17769578
0.020722322 0.029777512 0.17454913
0.051995613 -0.026825063 0.17267382
0.048151515 -0.022939608 0.17273164
0.045739353 -0.018452346 0.17486584
0.023334496 0.0303661 0.16917387
0.052176248 -0.02397364 0.17094645
0.025772845 0.031490386 0.16505191
0.030175399 0.030613929 0.16109961
0.027181933 0.031489283 0.16080323
0.036845617 0.027939282 0.1516442
0.038934398 0.027827239 0.148274
0.044272557 0.024385354 0.14389154
0.037484609 0.029590519 0.14395842
0.065477148 -0.016181506 0.14292103
0.045591701 0.022658048 0.140082
0.066982768 -0.015952749 0.1388219
0.065706342 -0.011666413 0.13802305
0.046654414 0.021254668 0.13664436
0.067340255 -0.015432838 0.13416478
0.066284597 -0.01107705 0.13389
0.065659046 -0.0071666483 0.13292506
0.052644134 0.019499879 0.13151044
0.06682004 -0.011283018 0.12979746
0.066344365 -0.0062129032 0.12813121
0.06649635 -0.0017341468 0.12851757
0.053781055 0.019158397 0.12664759
0.066877313 -0.004671514 0.12481445
0.066471875 -0.0012110677 0.12405604
0.063944288 0.0093249427 0.12256187
0.057828158 0.016634772 0.12263715
0.065900184 0.0037217177 0.11924779
0.061696827 0.01301023 0.11831564
0.063057788 0.01247021 0.11437672
0.011119161 0.010383308 0.19245094
0.0092694778 0.015080447 0.19270179
0.0076388726 0.020884104 0.19302571
0.0052963989 0.024668105 0.19271716
0.031776238 -0.027874243 0.19202819
0.029932249 -0.025364406 0.1905497
0.027078947 -0.018881194 0.19021702
0.025786299 -0.015613433 0.19087133
0.024315957 -0.011160187 0.19180176
0.021818521 -0.0068031754 0.19225857
0.020498898 -0.001014817 0.19188341
0.016040472 0.0073721125 0.19284233
0.011508109 0.01564271 0.19190204
0.0060793282 0.029011238 0.18918553
0.037047058 -0.030468393 0.18767047
0.035566557 -0.027020615 0.18864706
0.032214649 -0.023891984 0.18988186
0.029562607 -0.019497059 0.18969625
0.028172504 -0.014927414 0.18982473
0.028089944 -0.011462544 0.19048947
0.0081959115 0.03195978 0.18518147
0.0058880746 0.033389725 0.18306744
0.03918422 -0.030154441 0.18392271
0.037968319 -0.0263681 0.18399724
0.03839951 -0.022736456 0.1831767
0.011101104 0.031795792 0.18050832
0.0067931674 0.033625837 0.17902538
0.041872598 -0.029817717 0.17981809
0.039408073 -0.026015062 0.17937958
0.03967493 -0.022332452 0.18033028
0.015440764 0.030222626 0.17606831
0.012086052 0.030972656 0.17559767
0.043886192 -0.029144086 0.17584348
0.041941084 -0.025081156 0.17554334
0.041466128 -0.021656763 0.17785457
0.015990581 0.029857192 0.17121711
0.046804618 -0.028178863 0.17279252
0.044607148 -0.024822649 0.17350921
0.019052159 0.030746885 0.16853705
0.016551025 0.031990562 0.16502443
0.021353528 0.032205909 0.16431531
0.017104138 0.032163095 0.16353145
0.024367034 0.031501323 0.15761364
0.025735918 0.030661356 0.15405512
0.027082685 0.030628171 0.14971331
0.03494139 0.029869348 0.14170474
0.036048722 0.029552273 0.13632089
0.040767148 0.026000094 0.13208976
0.048529606 0.020042945 0.12996215
0.041943889 0.025429942 0.12734997
0.065671481 -0.015511783 0.12694377
0.066068992 -0.012298016 0.12660491
0.046791803 0.021945667 0.12373847
0.065722644 -0.015768941 0.12304336
0.065613613 -0.011860598 0.12349898
0.065205105 -0.0079422835 0.1221351
0.06519419 -0.0022815131 0.12038618
0.052288853 0.019999988 0.1207183
0.06407284 -0.0063934308 0.11850661
0.064929321 -0.0026086718 0.11719799
0.060007565 0.014025242 0.11519527
0.053149901 0.018617144 0.11580276
0.065408766 -0.0024434943 0.11242998
0.064844884 0.0074154828 0.1121698
0.05792582 0.015770055 0.11124349
0.064836621 0.0079920888 0.1072911
0.059613392 0.015162516 0.10740507
0.063777469 0.011982048 0.10220736
-0.0011302647 0.021568295 0.19320595
0.021444798 -0.022274923 0.19180587
0.020121895 -0.018114233 0.19262281
0.018918285 -0.013763368 0.19299114
0.01633345 -0.0087632947 0.192821
0.013621395 -0.004052009 0.19190434
0.01036177 0.0044701933 0.19220802
0.0073315371 0.0091266287 0.19260395
0.0054148156 0.013470996 0.1927458
0.0034480211 0.018168326 0.19250852
0.00090455171 0.023647161 0.19247788
-0.00038943533 0.027288385 0.18970376
-0.0030006301 0.03003213 0.18829432
0.027362876 -0.02917967 0.19105124
0.026350975 -0.02592493 0.19073173
0.025098313 -0.021744726 0.19056001
0.023599163 -0.017350428 0.19173661
0.022606101 -0.013857542 0.19233108
0.018630646 -0.0052957111 0.19177115
0.01715102 -0.0025157449 0.1914804
0.0017072251 0.029500021 0.18758011
-0.0010326253 0.030737491 0.18587542
0.0019299006 0.03293822 0.18249795
0.0080219926 0.032348972 0.17670381
0.0052967425 0.034350999 0.17773032
0.0081313234 0.031423844 0.17284632
0.006492815 0.033331539 0.17320102
0.010917813 0.030707076 0.16877216
0.0145076 0.031216368 0.16640165
0.016627615 0.031866714 0.16034704
0.01943697 0.031193022 0.15724736
0.021422826 0.03122386 0.15126663
0.023989402 0.031454809 0.14668253
0.026557691 0.030158646 0.14259821
0.027389493 0.030381061 0.13937289
0.034701735 0.030652279 0.1304968
0.037754938 0.029859485 0.12600988
0.06391827 -0.018239973 0.12502223
0.042804915 0.025797676 0.12167817
0.064631253 -0.018331766 0.11910474
0.063941166 -0.01374037 0.11920798
0.042971946 0.02484102 0.11765671
0.064916693 -0.01670528 0.11540562
0.063877568 -0.013110384 0.11529219
0.063926376 -0.0086166281 0.11562037
0.047913928 0.020718165 0.11322379
0.064760149 -0.01177201 0.1117034
0.064960547 -0.0082363989 0.11083072
0.065926984 -0.0034220107 0.11086291
0.052214559 0.017888039 0.10907203
0.065895036 -0.0068689883 0.10728788
0.065906763 -0.0030417461 0.10677773
0.061210997 0.013980019 0.10431856
0.053047895 0.01736879 0.10520524
0.065130778 -0.0025723334 0.10264271
0.065483093 0.0068067517 0.10097414
0.058009446 0.014663389 0.10018426
0.065279223 0.0080638509 0.095996678
-0.0078541758 0.019747285 0.19458646
-0.0095910076 0.023775581 0.1948598
-0.011594199 0.027393868 0.19459602
0.018699015 -0.028106218 0.19600266
0.0156569 -0.026155055 0.19486383
0.014037623 -0.022116033 0.19315773
0.012188459 -0.016818468 0.19315803
0.010067927 -0.011662136 0.19297624
0.0075268028 -0.0067110551 0.1925149
0.0051030777 -0.0025795044 0.19195771
0.0012032003 0.0061746119 0.19240525
-6.4042164e-05 0.010830957 0.19260895
-0.00029519852 0.015893437 0.19255498
-0.0040888721 0.020477822 0.19289491
-0.0076794615 0.024537187 0.19211233
-0.0099729197 0.027806459 0.19173741
-0.011888936 0.031731546 0.19096518
-0.013259557 0.036317706 0.19109446
0.023261711 -0.031137414 0.1910646
0.021564584 -0.028109752 0.19232002
0.019262373 -0.024374988 0.1925118
0.017339662 -0.020153526 0.19311473
0.015348805 -0.015364463 0.19339597
0.013339344 -0.010470674 0.19322574
0.010721824 -0.0052864049 0.19276679
0.0083145825 -0.0011664578 0.19221553
0.005766605 0.0063813999 0.19226742
-0.0046671145 0.026341328 0.18955863
-0.0071946504 0.030066371 0.18774733
-0.0095507968 0.034476958 0.18675157
-0.010396853 0.037281316 0.18550387
-0.0051438948 0.031607881 0.18366981
-0.0078355409 0.034239329 0.18326607
-0.0023650844 0.032875888 0.17996544
-0.0055209147 0.033869412 0.17832145
-0.001724178 0.033603862 0.17676389
0.001730226 0.033068426 0.17027926
0.0049343109 0.030791808 0.16608348
0.0045771366 0.032363258 0.16620687
0.010219595 0.031084538 0.16278931
0.011476272 0.031462453 0.15892932
0.01487105 0.030962717 0.1543133
0.015881443 0.031202385 0.14930114
0.017550595 0.031721819 0.14475778
0.023046782 0.030396257 0.14131168
0.020043354 0.030864999 0.14042026
0.024049979 0.029928576 0.13590226
0.027791686 0.030276541 0.13191724
0.029164799 0.03152952 0.12734479
0.03581671 0.029678304 0.11976647
0.042032812 0.025424756 0.11463577
0.064316802 -0.019199003 0.1133371
0.063912503 -0.015020782 0.11284912
0.041277878 0.024650423 0.10955018
0.064031482 -0.018819975 0.10830796
0.064212665 -0.014238358 0.10843402
0.045975942 0.0210672 0.10578674
0.063469537 -0.013774129 0.10431516
0.064897545 -0.009056678 0.10425842
0.051106501 0.018316539 0.10182899
0.068216838 -0.017961239 0.10067564
0.065053374 -0.0080993194 0.099079788
0.064719319 -0.004096128 0.099371731
0.064654358 -0.00040257908 0.098929107
0.052329309 0.017100757 0.097178221
0.064725593 -0.0035499334 0.094789028
0.06488689 0.0046743434 0.094554842
0.064842291 0.0013893843 0.09110111
0.061924569 0.012041423 0.0898543
0.063873142 0.0080738664 0.085756242
-0.0099677891 0.012403661 0.19429049
-0.0099043008 0.01687941 0.19547155
-0.010633578 0.022087822 0.19533339
-0.013176741 0.027923839 0.19504479
0.013968718 -0.024704199 0.1944598
0.010766654 -0.022338539 0.19265226
0.0079351757 -0.018813774 0.19220901
0.0061043706 -0.01397328 0.192873
0.0040131547 -0.0088087562 0.1932041
0.0015286573 -0.0042993496 0.19307625
6.5880646e-05 0.0001451385 0.1926128
-0.0029463363 0.0044190013 0.19249481
-0.0057855789 0.0087799113 0.19249496
-0.0064395159 0.013348051 0.19228101
-0.0074667041 0.017281402 0.19339767
-0.010182698 0.023943217 0.19409874
-0.01189374 0.029446857 0.19082063
-0.01384169 0.032675251 0.1907891
-0.010634285 0.03042255 0.18770868
-0.011534797 0.032633647 0.18763602
-0.0094644222 0.035247035 0.18066257
-0.010660319 0.037084714 0.1815879
-0.005962037 0.032022547 0.17955098
-0.0085055651 0.034383316 0.17694494
-0.0099547878 0.037252802 0.1773586
-0.0041049877 0.032545958 0.17231756
-0.0055642053 0.033749171 0.17452484
-0.0039179139 0.032515951 0.16865534
0.00083575863 0.032560103 0.16492057
0.0059481841 0.031009685 0.16013694
0.0038313419 0.032744374 0.16016373
0.0077153752 0.030996807 0.15553188
0.0047599636 0.032576971 0.15458685
0.009616443 0.030461822 0.15088114
0.0070191743 0.031549297 0.14996782
0.011382806 0.031022873 0.14638662
0.0095424345 0.031950388 0.14446282
0.01357365 0.031763274 0.1421999
0.016650699 0.031148097 0.13827121
0.018591342 0.030913495 0.13368726
0.024200993 0.030486375 0.1305303
0.020184577 0.030946154 0.12843972
0.022259682 0.031218041 0.12453854
0.028160304 0.031300999 0.12026989
0.029810634 0.030531364 0.1161015
0.033130266 0.030011335 0.11209899
0.033821024 0.030093603 0.10668308
0.06388364 -0.021235483 0.10854441
0.041336741 0.02467623 0.10441214
0.034817543 0.030383438 0.10350305
0.06408529 -0.018931178 0.10237116
0.06380152 -0.014936961 0.10168743
0.063160077 -0.011517305 0.10073316
0.04202763 0.024320807 0.099352479
0.06661579 -0.017170247 0.097725213
0.064963728 -0.014443897 0.097263515
0.064043581 -0.011326095 0.097447753
0.046531562 0.021267172 0.095317423
0.066056423 -0.014496051 0.092302501
0.064898103 -0.0094875898 0.092590988
0.064687923 -0.0054906569 0.092219114
0.051949129 0.0177183 0.090827227
0.065898098 -0.0134039 0.08888948
0.065051079 -0.0096810553 0.088634729
0.064372294 -0.0044700988 0.08815968
0.063906454 -5.9051439e-05 0.087280273
0.052191753 0.017829558 0.086435616
0.063743688 0.0047549959 0.083411276
0.057662122 0.014739334 0.08194834
0.062328324 0.010468902 0.078206241
0.062945433 0.0096556535 0.074384749
-0.010118616 0.00070647663 0.19706228
0.0041613686 -0.025718447 0.19432357
-0.000797885 -0.017830877 0.19354987
-0.0025174993 -0.011939428 0.19419801
-0.0042696171 -0.0067792744 0.19461897
-0.0088293282 0.0020045131 0.19430774
-0.0097220708 0.0066502988 0.19447562
-0.010543203 0.010896113 0.19506955
0.0062230313 -0.024862427 0.19284958
0.003457624 -0.020861534 0.19207814
0.0023156928 -0.016475635 0.19275934
0.0010228634 -0.011286982 0.19351193
-0.0019688956 -0.0038433773 0.19328576
-0.0055671236 0.0033146292 0.19266358
-0.0067413747 0.0062984237 0.19258693
-0.01029495 0.035325117 0.17394289
-0.0088997409 0.03377771 0.1706726
-0.011892769 0.03458488 0.16906658
-0.0064453571 0.033670977 0.16616893
-0.0099200904 0.035211358 0.16373101
-0.0051769894 0.033546552 0.16148108
-0.0033441316 0.033578243 0.15752214
0.0043132883 0.032603379 0.14898333
0.0057457322 0.032187816 0.14498457
0.0085782837 0.031393792 0.13888466
0.013015181 0.031308211 0.13496336
0.014102782 0.031611785 0.13088959
0.018008506 0.031370018 0.12855214
0.019251622 0.031672582 0.1226173
0.020869214 0.030418463 0.11750758
0.027231935 0.031072322 0.11219895
0.022567691 0.030945756 0.112885
0.028499652 0.030447792 0.1093629
0.029600678 0.030741842 0.10505795
0.033319194 0.030688658 0.10012305
0.038405668 0.028373996 0.097328067
0.063654825 -0.020593837 0.094605267
0.038992386 0.027979588 0.092139184
0.064848669 -0.019333888 0.0918172
0.042695649 0.023831839 0.087718427
0.066568375 -0.017786723 0.089500129
0.065611228 -0.015377223 0.085931301
0.064223401 -0.010255773 0.085835278
0.064023599 -0.0059775151 0.084880173
0.047822058 0.021109566 0.084425271
0.064822234 -0.01552823 0.08276391
0.063882425 -0.010060446 0.082259059
0.06361112 -0.0054891519 0.081672072
0.063218944 -0.0012498703 0.08157748
0.049591705 0.020347496 0.079972923
0.063423298 -0.0054765102 0.077673316
0.063500531 -0.00052305683 0.076927423
0.058120914 0.015204048 0.075679243
0.063646436 -0.00028126687 0.072522521
0.062495086 0.010473592 0.071558952
0.055447921 0.01677011 0.071700037
0.064281642 0.0049314052 0.067489088
0.059821278 0.014561739 0.066868603
0.061191499 0.01416307 0.0634408
-0.0023198342 -0.023204342 0.19680253
-0.011213608 -0.004219803 0.19551751
0.00090647023 -0.025374802 0.19537449
-0.00041214749 -0.022491047 0.19426385
-0.0030774162 -0.018357947 0.19451326
-0.0060776742 -0.014381475 0.19454628
-0.0096693467 -0.0053725783 0.19428486
-0.010154851 0.035430476 0.15886527
-0.0054463232 0.034403 0.15449685
-0.00940389 0.035176285 0.15447304
-0.0045922049 0.032907765 0.15085003
0.0012429869 0.032168057 0.14598274
0.0015545432 0.032155257 0.14133903
0.0030841399 0.030897859 0.13716805
0.0073907822 0.031180948 0.13320717
0.0091569675 0.031725287 0.12813932
0.013874431 0.031325426 0.1248033
0.014000861 0.031188097 0.11894804
0.011066824 0.031828865 0.12107956
0.018958196 0.030649915 0.1162591
0.020093311 0.030936748 0.11117256
0.022332493 0.031097082 0.10730231
0.027156593 0.030688984 0.10211617
0.023466567 0.03095733 0.10257536
0.028066058 0.030942267 0.098829746
0.02460712 0.031276982 0.098458588
0.031060852 0.031555679 0.094125688
0.027916841 0.032428455 0.093094289
0.032673772 0.031095661 0.089734137
0.037121151 0.027157107 0.085241973
0.042149782 0.02411391 0.081028998
0.06281466 -0.016330417 0.07847333
0.062541917 -0.012727881 0.078447819
0.0430336 0.023757191 0.07664603
0.062660247 -0.017030006 0.075941086
0.062444758 -0.011644771 0.074171722
0.062088184 -0.0071676169 0.073405683
0.047875077 0.020016508 0.072628736
0.063075013 -0.010008892 0.070772231
0.062544465 -0.006531436 0.069582224
0.062870555 -0.0021304972 0.069842875
0.04887658 0.019071488 0.068334877
0.063579798 -0.0047487952 0.065506637
0.063459538 -0.0014854036 0.065092623
0.057595093 0.015601583 0.064820886
0.064249828 -0.000572633 0.060735166
0.063139059 0.008530614 0.060359776
0.056048896 0.016868526 0.059341013
0.064271301 0.0039830599 0.057292759
0.060980946 0.013289536 0.055888951
-0.0053741052 0.032950997 0.14246893
-0.0039543854 0.033200227 0.13928837
-0.0001582345 0.031301454 0.13517591
-0.0030136211 0.033069711 0.13440534
0.0025071623 0.031522937 0.13068932
-0.00087332539 0.032621939 0.13012403
0.0046315519 0.032054327 0.12621439
0.0080471486 0.031724095 0.12258536
0.008959719 0.031791545 0.1186685
0.014432775 0.031211507 0.11430079
0.014038827 0.030915609 0.10997862
0.020445541 0.031556409 0.10460728
0.02212544 0.031651624 0.10030848
0.023904502 0.031771757 0.095575869
0.025557902 0.032312706 0.091865659
0.030680243 0.03157958 0.086790264
0.028402111 0.032429747 0.087382555
0.029330429 0.032621473 0.082019866
0.033867363 0.030838231 0.078769922
0.038732931 0.02722412 0.075520992
0.06298627 -0.017062765 0.073274672
0.042966198 0.023969136 0.0711357
0.063439369 -0.016603479 0.069420218
0.063121751 -0.012146998 0.068639338
0.06250158 -0.0087578204 0.066577971
0.043914415 0.023429679 0.066081345
0.064229451 -0.016172541 0.064697802
0.063991204 -0.012078404 0.064096391
0.063508473 -0.0069805086 0.063755631
0.048671946 0.020285254 0.061931193
0.064072981 -0.010836979 0.060284555
0.064053051 -0.0069630649 0.059449971
0.064376757 -0.002455594 0.058194935
0.050264489 0.019744067 0.05720669
0.064073354 -0.0060742889 0.055125117
0.064928733 -0.0008688923 0.054676533
0.063528687 0.006990457 0.053459704
0.056460481 0.017117012 0.053685725
0.064765692 -0.00068850257 0.050005972
0.062858462 0.0084731784 0.049462676
0.057798825 0.016414169 0.048774302
0.061232015 0.012157263 0.044310808
-0.0064437068 0.034098122 0.13571092
-0.005652823 0.033695683 0.13088864
-0.0040492928 0.033040747 0.12677807
0.0012111682 0.031581983 0.12631595
-0.0021224124 0.031909987 0.12222558
0.0029571829 0.032075495 0.11967605
0.029513925 0.032525487 0.077023566
0.031537883 0.029980682 0.071451008
0.032150034 0.028892677 0.068714559
0.038339455 0.026286002 0.062922776
0.063421011 -0.018180085 0.060879767
0.040040348 0.025871057 0.057697475
0.063482217 -0.017769624 0.056616008
0.063449107 -0.013151942 0.057017565
0.045018889 0.022106165 0.0537889
0.064123608 -0.016691748 0.05142343
0.063506186 -0.012888666 0.051561177
0.063463412 -0.0081688464 0.052122831
0.063404381 -0.0038723517 0.052128792
0.047132108 0.021476727 0.049507439
0.064349286 -0.011540474 0.047740281
0.063628621 -0.00745482 0.047275007
0.063350782 -0.0037392285 0.047406256
0.051865634 0.018812045 0.045943379
0.063120827 -0.0023954827 0.043105781
0.062429652 0.0072417315 0.042697847
0.056342211 0.01627503 0.041445971
0.063358903 0.0029506199 0.037654221
0.060664218 0.01202782 0.038003564
0.063933454 0.0042853374 0.033997834
0.061424013 0.011765696 0.033453345
-0.010236199 0.034244861 0.13036549
-0.0069689644 0.033676114 0.12740225
-0.0054025264 0.032976933 0.12231141
-0.0028946586 0.032533303 0.11748916
0.0017620204 0.031461384 0.11474746
-0.0017833533 0.030877262 0.11222601
0.0041221129 0.030431733 0.1080752
0.0039107809 0.030190261 0.10283548
0.028847985 0.0300199 0.063421428
0.036988899 0.0278407 0.058621407
0.04038953 0.025717892 0.052728355
0.064469427 -0.018506629 0.051323533
0.041257706 0.024475314 0.048738599
0.065647438 -0.015816176 0.047118068
0.064945772 -0.013016969 0.046360433
0.06424509 -0.0093641188 0.044812262
0.046385102 0.021374496 0.044144213
0.064421512 -0.01272087 0.042222619
0.062985733 -0.007886136 0.041608334
0.062547699 -0.0032018814 0.040062368
0.04758288 0.02074172 0.038559079
0.061755668 -0.007378038 0.037050784
0.062453486 -0.0034483876 0.036721289
0.055629302 0.015959185 0.035116136
0.061898991 -0.0021464806 0.032412827
0.06327115 0.0073760953 0.030172408
0.056152083 0.015433491 0.030691564
0.063237414 0.0071798321 0.026871502
0.058582943 0.014165392 0.027380526
0.06121853 0.011511041 0.023361802
-0.0063045826 0.033604935 0.11488503
-0.0043060486 0.031784393 0.11035407
-0.0069686007 0.033201121 0.10931826
-0.0025258809 0.031073866 0.10598606
-2.3803674e-05 0.031258825 0.10141677
0.0042130547 0.030163271 0.097972035
0.0013356861 0.031479798 0.096722543
0.0050284881 0.030320065 0.092473686
0.0029035155 0.031284548 0.093279302
0.0080123395 0.029562155 0.087221086
0.010076671 0.030274514 0.083752096
0.011181457 0.030580673 0.079481959
0.027595526 0.029758887 0.057693541
0.029892933 0.030106209 0.053794861
0.031104367 0.030449118 0.04957515
0.039026804 0.025189178 0.045079112
0.031971019 0.030678358 0.046097577
0.039502464 0.024615873 0.040691435
0.063401423 -0.013811383 0.038510501
0.061688676 -0.010061629 0.038288355
0.040559024 0.024661375 0.036497474
0.063108169 -0.013109321 0.034650385
0.061903372 -0.009549005 0.034089565
0.062453575 -0.005431978 0.033966601
0.046204105 0.021408375 0.031860888
0.063476719 -0.01342014 0.03014046
0.062661625 -0.0090143122 0.029331982
0.062592298 -0.0040232167 0.029980004
0.050818488 0.01779837 0.028079152
0.063134111 -0.0083485469 0.026094854
0.062896058 -0.003951624 0.02515161
0.055930696 0.015172211 0.024113119
0.062951028 -0.0031926334 0.022206903
0.061804254 0.0061462671 0.019591689
0.057158016 0.0143569 0.019433975
0.06191127 0.0064394288 0.015809178
0.057579562 0.014054425 0.015721262
-0.0086655207 0.03427076 0.10743392
-0.005072061 0.031971343 0.10220307
-0.0084290355 0.034239054 0.1025182
-0.00436727 0.032149628 0.098661661
-0.0074422345 0.033611126 0.097944438
-0.0023078443 0.031932916 0.093909025
0.0012890007 0.031450301 0.090145946
0.0037987623 0.029616665 0.085270345
0.0055560153 0.030167313 0.080483139
0.008841333 0.030761696 0.076806009
0.012077686 0.030765608 0.073977888
0.025141558 0.030026447 0.05536437
0.026015799 0.030260723 0.051893294
0.027853897 0.030803887 0.046082139
0.035157431 0.029020077 0.038565874
0.039492305 0.026128478 0.03368777
0.03259322 0.030498587 0.033759832
0.036960706 0.027643047 0.029963076
0.063480884 -0.014502266 0.027650297
0.041937113 0.024112262 0.025381386
0.062612958 -0.013909308 0.024242699
0.062589414 -0.010312002 0.023212969
0.046139598 0.019984135 0.021416247
0.062770687 -0.0089601856 0.019105554
0.06221674 -0.0046597607 0.018587768
0.061932232 -0.0002555009 0.017975032
0.050735384 0.016910441 0.017032921
0.061650757 -0.0042640176 0.014253199
0.0621868 0.0047989115 0.014054477
0.062465005 0.00096747093 0.0086596012
0.060722258 0.010583413 0.0096335411
-0.0085864831 0.034455311 0.095841765
-0.0046014125 0.031885192 0.092302203
-0.0081421919 0.034337163 0.091942728
-0.0035392623 0.031731389 0.087865829
-0.0074404245 0.033035446 0.087193787
-0.00099397451 0.030913636 0.083872199
0.00091070775 0.030995749 0.079451442
0.0074340431 0.030705336 0.07369107
0.0030293185 0.031260572 0.075331748
0.0084792785 0.030416217 0.070209563
0.0050412184 0.031448767 0.070064485
0.010454435 0.028975461 0.066038013
0.01203943 0.028573981 0.061855555
0.028201079 0.030698692 0.038876593
0.038440913 0.025401834 0.026160419
0.031483799 0.02982248 0.027276337
0.036358606 0.027462635 0.023663998
0.061229296 -0.015132459 0.020172834
0.0407665 0.024513278 0.01851058
0.061098028 -0.015108991 0.016803443
0.062078729 -0.010960463 0.016789973
0.061522886 -0.007005604 0.015429676
0.045295469 0.020782704 0.014904737
0.062325913 -0.010488749 0.012786567
0.061902154 -0.0056416094 0.012377262
0.045929402 0.01882253 0.010705829
-0.011544551 0.036276303 0.088613689
-0.0095062321 0.033978585 0.084961176
-0.0045407433 0.031598859 0.080921233
-0.0079283034 0.033279698 0.080700576
-0.0033253115 0.031957194 0.076682389
-0.0058576483 0.032704901 0.074027419
-0.00066251867 0.031675495 0.072260439
0.0020161364 0.032002032 0.06800741
0.0062206686 0.029940344 0.064227521
0.0038595377 0.030769398 0.062714994
0.0081093265 0.029634686 0.059222877
0.0046863053 0.030991349 0.059168935
0.010985192 0.028574735 0.056147754
0.013939207 0.028802976 0.045345247
0.014641371 0.028999595 0.042735219
0.033834249 0.02779966 0.019892395
0.034511983 0.027314641 0.015576005
0.06021224 -0.016844895 0.015500903
0.037093207 0.026710579 0.011691034
0.059762839 -0.016118187 0.010976195
0.060939714 -0.013255214 0.0085119009
-0.010969837 0.034447417 0.078165948
-0.009980632 0.032336038 0.074826658
-0.0039096829 0.031544108 0.069877744
-0.0035635186 0.031600397 0.066990495
-0.0033875294 0.031586248 0.063952088
-0.00016963016 0.030944096 0.060850084
0.0014888095 0.030874314 0.056761265
0.0063041141 0.029001703 0.052038014
0.0033144541 0.030292146 0.053707302
0.0079677403 0.029076401 0.048768461
0.0073944116 0.029854968 0.045989931
0.01027602 0.029107768 0.043690622
0.012680515 0.029010113 0.039074302
0.014050431 0.028502684 0.034598827
0.027002277 0.029471284 0.016997516
0.028602686 0.029059382 0.012704194
0.030376408 0.028719377 0.008567214
-0.011471618 0.032263994 0.070945799
-0.014632205 0.032813262 0.06883502
-0.0099414857 0.031559639 0.067640007
-0.013598045 0.033127636 0.065430284
-0.0088969879 0.032127697 0.062202334
-0.010804513 0.034101557 0.061353683
-0.0052029109 0.031639617 0.058399498
0.00010063406 0.030845327 0.053591669
-0.0037552249 0.031795166 0.054543495
0.00051305071 0.029670237 0.049296916
-0.0038046185 0.031063838 0.050740778
0.0035821712 0.030152956 0.045320928
0.0059770755 0.030367224 0.041117966
0.010860626 0.029119998 0.036614835
0.0069685467 0.030335775 0.037197769
0.010064607 0.028645318 0.03152281
0.023095954 0.029510301 0.01050967
-0.012708961 0.031625867 0.064607441
-0.01442 0.032795325 0.064750016
-0.013534249 0.034886286 0.061709166
-0.0093075242 0.032740179 0.056753755
-0.0098511325 0.034356911 0.056799293
-0.0085132066 0.032313719 0.051875651
-0.010095075 0.034153361 0.052287459
-0.0016763192 0.029984316 0.047741115
-0.0053536636 0.030980725 0.047414422
-0.0013467567 0.029999228 0.043692112
-0.0034091026 0.030991325 0.042415202
0.00038731005 0.030568004 0.039776385
-0.0011412967 0.031751521 0.037870884
0.0032602986 0.031073321 0.034006238
0.00016472116 0.032143172 0.033558607
0.005913062 0.030104034 0.030111134
0.0098919347 0.028400857 0.025868177
0.0076356987 0.029298611 0.024358094
0.010592748 0.028527532 0.020987153
-0.0099213729 0.032298885 0.048679888
-0.011283847 0.033592977 0.048029363
-0.0089456486 0.031662188 0.044917762
-0.011085485 0.033593968 0.044941008
-0.0082079396 0.032026403 0.040817559
-0.010479154 0.033707008 0.040017188
-0.0066762543 0.032135539 0.036362827
-0.0089176856 0.03423347 0.037002623
-0.0042662257 0.032953445 0.031906903
0.0029417826 0.031231262 0.027814984
0.00019804202 0.032007284 0.028092444
0.0035876669 0.030621439 0.023319364
0.0010588085 0.032243717 0.0244537
0.0059055015 0.029939273 0.019230783
0.0097498456 0.027995333 0.014643729
0.007248844 0.028867221 0.015118539
0.012540822 0.027596835 0.010688007
-0.011398177 0.035137925 0.037557423
-0.008469793 0.032448929 0.032468259
-0.0062545058 0.033186391 0.02781713
-0.0066609113 0.034934942 0.030206025
-0.0048725717 0.031833015 0.026293933
-0.00050795451 0.031533796 0.020811856
0.002901949 0.029936541 0.015294611
-0.00099345203 0.031241486 0.01702708
0.0044680769 0.028896073 0.011421919
-0.0037701922 0.03096951 0.012527883
5.4595992e-05 0.029617917 0.010705173
-0.0098356521 0.031354751 0.010070622
