# .PCD v0.7 - Point Cloud Data file format
VERSION 0.7
FIELDS x y z
SIZE 4 4 4
TYPE F F F
COUNT 1 1 1
WIDTH 915
HEIGHT 1
VIEWPOINT 0 0 0 1 0 0 0
POINTS 915
DATA ascii
0.03732891 -0.036188509 0.18542206
0.038574941 -0.037602618 0.18214324
0.057340264 -0.026582621 0.17101976
0.059852228 -0.023841808 0.17058766
0.062676094 -0.021568626 0.16964766
0.058712453 -0.028168641 0.1677312
0.061729372 -0.025039354 0.16731578
0.06405665 -0.022016909 0.16686288
0.062973768 -0.026493203 0.16315055
0.065239608 -0.023372788 0.16353261
0.03243503 -0.02977675 0.19141662
0.037733421 -0.023475267 0.19033694
0.031477198 -0.035835199 0.18975717
0.037128173 -0.027289152 0.18828028
0.029000141 -0.039578684 0.18558365
0.037530933 -0.03354897 0.18543813
0.029959012 -0.039879326 0.1821624
0.039034966 -0.035438936 0.1801261
0.034712747 -0.038468845 0.17630616
0.041765563 -0.032630369 0.17476851
0.048551477 -0.025707049 0.17423555
0.055310659 -0.01863919 0.17285404
0.057234079 -0.015853187 0.17161059
0.043224424 -0.03402257 0.17086783
0.051467717 -0.028958162 0.171868
0.057996608 -0.020426625 0.17084259
0.060686987 -0.017553996 0.16976494
0.061840527 -0.01419989 0.16738924
0.048236553 -0.032573368 0.16650885
0.05718898 -0.029154994 0.16546723
0.063688405 -0.018390385 0.16576999
0.064599894 -0.014984652 0.16446793
0.054016117 -0.03124797 0.16154522
0.065038487 -0.021299081 0.16072363
0.065441005 -0.01766921 0.16024685
0.058699265 -0.028639205 0.15694484
0.064946212 -0.022851063 0.15695217
0.062690347 -0.026188675 0.15290469
0.064422458 -0.022938523 0.15278184
0.023180308 -0.034899145 0.19133931
0.029608089 -0.026949778 0.19167978
0.036948331 -0.020031257 0.19078556
0.021760868 -0.039878979 0.18788713
0.039623186 -0.022299889 0.18697691
0.022516493 -0.039939824 0.18292961
0.038987197 -0.027337195 0.18186823
0.027646424 -0.040018149 0.17878142
0.039709803 -0.028213214 0.17897424
0.044358589 -0.022503085 0.17590469
0.047872175 -0.018157776 0.17494848
0.032343343 -0.038497329 0.17342752
0.050020058 -0.020375039 0.17425358
0.052627645 -0.015105458 0.17335063
0.055448692 -0.012433108 0.17146841
0.058641251 -0.0085874386 0.16864169
0.065668732 -0.00042190775 0.16776699
0.038021915 -0.037593745 0.16964355
0.058795635 -0.013163533 0.16915017
0.061789908 -0.01082439 0.16751224
0.063099205 -0.0053587407 0.16574478
0.066958137 -0.0018458366 0.16630033
0.038833555 -0.037835184 0.16502678
0.045980051 -0.033092074 0.16409248
0.065375432 -0.011392351 0.16392854
0.064992681 -0.0079391487 0.1616376
0.043483041 -0.035147637 0.16028029
0.051390927 -0.032284979 0.15883031
0.065634467 -0.014059745 0.1585547
0.066343367 -0.0099990722 0.15813383
0.048361465 -0.033786871 0.15508187
0.056679524 -0.029159697 0.15416935
0.064907908 -0.020082477 0.1543093
0.065087192 -0.016496463 0.15372887
0.065267108 -0.011570556 0.15472275
0.053067051 -0.031489223 0.15054947
0.061781906 -0.026358446 0.15004754
0.064199694 -0.021413788 0.14948589
0.065177709 -0.0183479 0.14888296
0.062406033 -0.026609033 0.14628577
0.064180821 -0.022977931 0.14523003
0.06235607 -0.026711596 0.14257157
0.01784637 -0.029292686 0.19261897
0.024244124 -0.022681585 0.19209966
0.031294718 -0.014811572 0.19208002
0.034235783 -0.011242604 0.19126073
0.037020341 -0.0080568092 0.19048923
0.013779303 -0.038080372 0.18929797
0.019456208 -0.031319533 0.19170088
0.026024785 -0.024816114 0.19142526
0.033490177 -0.018118132 0.19143638
0.03740162 -0.013596739 0.18915787
0.038858548 -0.0094944257 0.18784752
0.015360471 -0.040034141 0.18549937
0.039500099 -0.015620223 0.183377
0.039885953 -0.011489371 0.18315598
0.019227277 -0.039858643 0.1806325
0.041909911 -0.013047555 0.17807364
0.044849731 -0.0099313091 0.1767548
0.05830368 0.0054225363 0.17541215
0.042194918 -0.019526614 0.1769399
0.04454761 -0.015216538 0.17556837
0.047990832 -0.011042573 0.17445692
0.050405037 -0.0071293712 0.17317143
0.053785555 -0.0034008883 0.17127162
0.056875706 5.6864694e-05 0.17095363
0.059539981 0.0034394935 0.17186499
0.02578898 -0.039406125 0.17215392
0.054050632 -0.0087102409 0.17077485
0.055953592 -0.0057304278 0.16970068
0.059048533 -0.0021135416 0.16863677
0.06252452 0.00073336251 0.16909337
0.027020451 -0.039382245 0.16754732
0.06236707 -0.0040161572 0.16542834
0.066385709 -0.0024248362 0.16356432
0.065136135 -0.0050863363 0.16109443
0.066365473 -0.0024998635 0.15989307
0.03735232 -0.03763805 0.15827066
0.065849997 -0.006551126 0.15613979
0.066740245 -0.0041421577 0.1556364
0.042872932 -0.035634425 0.15384287
0.064925909 -0.013564413 0.15093449
0.065344684 -0.0092343315 0.15145865
0.065945178 -0.0056701507 0.15107289
0.047555801 -0.033623662 0.14815488
0.064118505 -0.014525155 0.14684039
0.065062217 -0.010819726 0.14801425
0.052288514 -0.031755585 0.14407066
0.06400761 -0.019546071 0.14332899
0.064405523 -0.016873496 0.14248532
0.056863107 -0.029242316 0.13915902
0.063686296 -0.021870628 0.13899574
0.064101405 -0.017587444 0.13856673
0.061135519 -0.026896689 0.13452083
0.064167835 -0.023390809 0.1341432
0.064381994 -0.023748159 0.13064766
0.018584931 -0.017523708 0.1922051
0.026100017 -0.0096571995 0.19168842
0.029146018 -0.0061197672 0.19131812
0.035437249 0.00076556578 0.19074738
0.0037769601 -0.036578476 0.18999872
0.0075206449 -0.033615943 0.19079691
0.011516748 -0.030461682 0.19212914
0.018380303 -0.023755923 0.19317728
0.024772868 -0.016465042 0.19168264
0.031909585 -0.0088712843 0.19191375
0.03559792 -0.0055872202 0.19120121
0.038537055 -0.0024520997 0.18988159
0.039628621 0.0016905591 0.1880483
0.0051269773 -0.03840591 0.18715155
0.0087392908 -0.03704264 0.18864864
0.039952211 -0.0040782671 0.18576634
0.040496543 0.00052505918 0.1850569
0.0066883955 -0.03961809 0.18334296
0.01008195 -0.039230619 0.18378857
0.040434424 -0.0092047853 0.18108588
0.040763885 -0.0051099267 0.18111169
0.0076156799 -0.040215179 0.17988777
0.011449929 -0.039341744 0.17882934
0.04355352 -0.0068965927 0.17746204
0.0460952 -0.0028485004 0.17575535
0.049732566 0.0012712758 0.17406249
0.053026516 0.0042469352 0.17459381
0.055963967 0.0056583323 0.1751948
0.014939047 -0.039821003 0.17404282
0.050064355 -0.0039291289 0.17264473
0.052264646 -0.0017727558 0.17217267
0.055279933 0.0017855484 0.17216745
0.057490647 0.0039421506 0.17209458
0.015306015 -0.039605513 0.17002663
0.021230221 -0.040855456 0.16588411
0.021642312 -0.040481973 0.16153994
0.029546991 -0.038861476 0.15939417
0.030642921 -0.038279399 0.15563771
0.065928824 -0.0022351891 0.15210554
0.067519665 -0.00054808334 0.15198833
0.035024181 -0.037327208 0.15144882
0.066716768 -0.003640987 0.14918727
0.068000123 -0.0011441372 0.14877403
0.039235003 -0.034666292 0.14618248
0.063588485 -0.012352463 0.14497843
0.064674698 -0.0082639586 0.14461631
0.066154733 -0.0047098733 0.1448532
0.067988813 -0.0012227111 0.14504811
0.047258344 -0.033423033 0.14124107
0.063879579 -0.01326154 0.14031836
0.064245291 -0.0095780324 0.14082116
0.050733782 -0.031844705 0.13731465
0.063482821 -0.019290045 0.13538513
0.064367056 -0.015452843 0.13542613
0.064286172 -0.011123974 0.1361621
0.05161671 -0.031663436 0.13233432
0.064269789 -0.020217357 0.13247913
0.064819217 -0.016639341 0.13105786
0.052353658 -0.031897388 0.12773907
0.06063354 -0.027024485 0.1279965
0.064351261 -0.022403304 0.12744647
0.064317539 -0.018235739 0.12665671
0.059821218 -0.027123934 0.12348908
0.063203514 -0.0235433 0.12356722
0.0026910612 -0.029433016 0.1911194
0.0066350671 -0.026165128 0.19202986
0.013011108 -0.018307623 0.19261673
0.019673763 -0.012056408 0.19196746
0.023157362 -0.0071753031 0.19152498
0.027266048 -0.0042087967 0.19171885
0.03067426 -0.0010161242 0.19142771
0.033137023 0.0031397659 0.19105664
0.036478911 0.0066552116 0.19006711
0.039279222 0.010820577 0.18901223
0.042905025 0.014828483 0.18827227
-0.0025186855 -0.038373515 0.18919426
0.00088807009 -0.036007114 0.19035721
0.0044361865 -0.032123167 0.19125399
0.040004037 0.0054872017 0.18706769
0.041327924 0.010154342 0.18519256
0.044662498 0.013161944 0.1854181
-0.0039242264 -0.04194928 0.18498483
-0.0007442981 -0.040551659 0.1856744
0.0025963485 -0.039305121 0.18650311
0.04062007 0.0025295205 0.18233517
0.042565994 0.007593805 0.18139306
0.046780057 0.0099648703 0.18206304
0.00047320686 -0.04141587 0.18133661
0.0042433161 -0.040348217 0.18181396
0.04209289 0.00056585297 0.17880356
0.044317819 0.0059322435 0.17756197
0.048629865 0.0083595626 0.17782718
0.0018984433 -0.042094268 0.1769236
0.0053055715 -0.040697545 0.1770387
0.010215938 -0.039723948 0.17616969
0.044706922 0.0006724 0.17637786
0.046844289 0.0035697613 0.17517933
0.050424192 0.0070437044 0.1758039
0.0070622638 -0.040295538 0.17227995
0.01036197 -0.039917532 0.17192778
0.013313319 -0.039722249 0.16733354
0.01595545 -0.039901428 0.16263908
0.021268923 -0.039862972 0.15512061
0.025037538 -0.038802464 0.14943051
0.030474173 -0.037940614 0.14458615
0.065576002 -0.0021336712 0.14153185
0.066760629 0.00074837729 0.14027852
0.035340711 -0.037007891 0.14048201
0.064025953 -0.0074009784 0.13786045
0.065433361 -0.0032326207 0.1372937
0.066794813 -0.00014845654 0.13632852
0.036213052 -0.037866522 0.13588744
0.064689249 -0.0087115932 0.13385198
0.066157952 -0.0041404553 0.13241065
0.040811155 -0.035614479 0.13140675
0.065065503 -0.014473265 0.12785941
0.065228768 -0.01030167 0.12913102
0.067287229 -0.0054443255 0.12888211
0.070576638 -0.0021393187 0.1277824
0.046310447 -0.034273736 0.1259799
0.064774178 -0.015894299 0.12437576
0.06552127 -0.011087282 0.12481028
0.071489513 -0.0031913258 0.12496668
0.051873188 -0.032130536 0.12176651
0.059541121 -0.026969833 0.12037534
0.06317611 -0.022149423 0.12021893
0.064922191 -0.017487874 0.12010014
0.059868932 -0.027451413 0.11695123
0.062677197 -0.023654886 0.11629146
0.064811252 -0.020483263 0.11601776
0.063292861 -0.024468511 0.11180359
0.064999551 -0.021744566 0.11158264
0.026789512 0.012107659 0.19578293
-0.0014056927 -0.022188388 0.19346872
0.012435311 -0.0071325442 0.1922555
0.021587852 0.0026122462 0.191549
0.024937451 0.0048355134 0.19190016
0.027339745 0.0094538033 0.19209218
0.030988293 0.012151266 0.19234806
0.035341963 0.015056179 0.19227222
0.038119309 0.018274046 0.19115335
-0.0045375424 -0.029501796 0.19123429
-0.001125671 -0.02687512 0.19204563
0.0027591139 -0.023286205 0.19260782
0.0060218964 -0.018879978 0.19241941
0.012963429 -0.01201136 0.19285399
0.019038681 -0.0048669251 0.19116172
0.022452462 -0.00049497839 0.19147801
0.027265795 0.00247839 0.19208691
0.029605215 0.0067657549 0.1910879
0.032920063 0.0095224064 0.19072646
0.037877124 0.013182106 0.18991253
0.040267702 0.015977629 0.19032598
-0.0081929322 -0.039687417 0.18789563
-0.0069232369 -0.035134062 0.18931076
-0.0026935181 -0.03201272 0.19008109
0.00046029594 -0.030599065 0.19073406
0.042845841 0.015422405 0.18705761
-0.0068272725 -0.041557204 0.18357301
-0.0052996613 -0.042034853 0.17926264
-0.002445735 -0.041672479 0.1790165
-0.0040857214 -0.043504827 0.17491034
-0.00093520992 -0.042528503 0.17506585
-0.0031851791 -0.043773774 0.17132816
0.00017774105 -0.042044464 0.17036462
0.0036848877 -0.040490486 0.17088723
0.0046409313 -0.039969571 0.16607046
0.0091686286 -0.039570831 0.16540062
0.010186465 -0.03906887 0.1609205
0.010792311 -0.038547907 0.15622312
0.01437559 -0.038917582 0.15578675
0.018125203 -0.038519233 0.1472894
0.024044137 -0.038968604 0.14367089
0.025079651 -0.038884599 0.13808015
0.066643134 0.0011220686 0.13463163
0.029883571 -0.039020881 0.13290888
0.067344293 0.00027044863 0.13064331
0.034897111 -0.037564278 0.12884355
0.066957854 -0.0051775742 0.12569338
0.068664007 -0.0023907721 0.12696308
0.039514989 -0.035752624 0.12439388
0.065424278 -0.0093500502 0.12236935
0.06698186 -0.0056142267 0.1226356
0.069082879 -0.0029702783 0.12170458
0.04049867 -0.036079627 0.11978233
0.049603596 -0.031475306 0.11775357
0.064900339 -0.014648546 0.11727816
0.064830765 -0.010638472 0.11821377
0.049729805 -0.031484138 0.11411357
0.065237112 -0.017377788 0.11411887
0.065191388 -0.013951283 0.11315817
0.054917064 -0.029429656 0.10964209
0.063255042 -0.024526048 0.10931385
0.064996563 -0.018930873 0.10874254
0.064840131 -0.014871359 0.10860991
0.055439658 -0.029861011 0.10484838
0.062898442 -0.024321083 0.10509777
0.064500354 -0.020916134 0.10450178
0.062728934 -0.024303293 0.10107201
0.020295419 0.010094534 0.19390613
0.024128148 0.011460492 0.19592619
0.02770998 0.014486406 0.19416812
-0.0090300711 -0.025964759 0.19254887
-0.0052794535 -0.02258849 0.19339585
-0.0016970579 -0.018440653 0.19349545
0.0023548659 -0.014930652 0.19262409
0.0078538675 -0.0076391455 0.19200933
0.011631605 -0.0037329439 0.19149402
0.015065059 -0.00090758502 0.19142085
0.018409792 0.0034089712 0.19147781
0.02260517 0.0072386819 0.19262421
0.02545956 0.0099905711 0.19345078
0.029319592 0.013914835 0.19323614
0.031682033 0.015998181 0.19324815
-0.0134688 -0.033028223 0.18794763
-0.010950822 -0.030874986 0.18984827
-0.0072175339 -0.029130355 0.19180748
-0.012075146 -0.03640905 0.18822676
-0.011841294 -0.042098854 0.18393236
-0.010006852 -0.040871579 0.18283367
-0.010657921 -0.0429199 0.17701396
-0.0079326965 -0.042456105 0.17796233
-0.005258061 -0.043936055 0.17236844
-0.0034896322 -0.043746699 0.16837308
-0.0021024514 -0.042857692 0.16855267
-0.0037106089 -0.043790322 0.16547886
-0.0012107957 -0.041588232 0.16416639
0.0016302224 -0.039608784 0.16266942
0.0037988685 -0.038822215 0.15932223
0.0062746443 -0.038456649 0.15884319
0.0084082773 -0.038606193 0.15462002
0.0097486153 -0.038748581 0.15015212
0.012918808 -0.038854465 0.14977497
0.015593138 -0.038827799 0.14498463
0.020245366 -0.037821528 0.13934389
0.024093777 -0.039270639 0.13187861
0.028392145 -0.039878156 0.12708879
0.030323857 -0.039238423 0.12217271
0.066691235 -0.0039190687 0.11907917
0.034895889 -0.038254432 0.11759543
0.065273523 -0.0048154201 0.11495942
0.067111358 -0.0018009357 0.11423832
0.039383564 -0.035722289 0.11313164
0.064515531 -0.010436906 0.11133879
0.064411476 -0.0066968277 0.11099905
0.048465218 -0.032372776 0.10830408
0.06442979 -0.011829194 0.10668546
0.049370978 -0.032793377 0.10426193
0.064605951 -0.01825298 0.1025508
0.064686798 -0.014906349 0.10265869
0.054402664 -0.030040147 0.099050283
0.061934657 -0.023598997 0.098020196
0.063802272 -0.019091476 0.097999513
0.0586363 -0.026609497 0.09376663
0.0612204 -0.023032494 0.093592823
0.014679244 0.013200311 0.19646582
-0.01965287 -0.028587159 0.19584817
-0.017454669 -0.024466723 0.19541058
-0.014566473 -0.021297915 0.19375864
-0.010319646 -0.01818037 0.19359702
-0.0067086555 -0.013910709 0.1937449
-0.0031979976 -0.0090662716 0.19282228
-0.00025457749 -0.0058328812 0.19255006
0.0063368548 0.0010385748 0.19164315
0.0095928935 0.0045239767 0.19138306
0.013304693 0.0081441486 0.19170821
0.016794536 0.010481866 0.19380954
-0.018965058 -0.029596433 0.19178909
-0.015127588 -0.026886474 0.19188398
-0.011640573 -0.023526574 0.19288313
-0.0089145992 -0.020592984 0.19339716
-0.0034691864 -0.01589551 0.19347209
-0.00078082038 -0.011928577 0.19276676
0.0025484564 -0.0085325399 0.1925765
0.0087560471 -0.0013292721 0.19182926
0.012000425 0.0021435414 0.19157028
0.015340794 0.0055233608 0.19139177
-0.01693359 -0.031640735 0.1883634
-0.0068003163 -0.041436594 0.16011196
-0.0036906097 -0.041018642 0.16035151
-0.0029351246 -0.040305808 0.15681273
0.00053974241 -0.03890878 0.15703961
-0.0023734868 -0.039614525 0.15264079
0.0017967261 -0.038860906 0.1524986
0.0059153549 -0.038638499 0.15213314
0.0030183271 -0.038453918 0.14783812
0.0069140717 -0.038459118 0.1477344
0.0080155171 -0.038736127 0.14328054
0.012029637 -0.038553491 0.1425201
0.0093305111 -0.03844665 0.13926336
0.01316835 -0.038134731 0.13803867
0.015407904 -0.037414316 0.13322151
0.017110046 -0.037747785 0.12910217
0.021659989 -0.038484491 0.12541825
0.027580127 -0.039520688 0.12066525
0.066594206 -0.00054133683 0.11132628
0.033782355 -0.037306651 0.11087185
0.064671807 -0.0047471672 0.10808802
0.066638365 -0.0020487793 0.10865206
0.0384259 -0.035451457 0.10634392
0.064089343 -0.0096576959 0.1033175
0.064402863 -0.005649833 0.10344702
0.066426955 -0.0010152534 0.1036337
0.043053247 -0.034335703 0.10156709
0.063638985 -0.010448929 0.099572778
0.064186864 -0.0075719375 0.099223614
0.047708035 -0.032014079 0.097189963
0.063454889 -0.017292993 0.095457852
0.063814186 -0.012584478 0.095216095
0.053471282 -0.03030131 0.09320122
0.06086028 -0.022750299 0.091243327
0.063029744 -0.017852167 0.091322184
0.063689142 -0.014213404 0.091818988
0.053051151 -0.029651923 0.08833617
0.060598083 -0.022643542 0.087040544
0.062329814 -0.019848442 0.087357581
0.060710464 -0.023487646 0.083086312
0.0073840963 0.013650659 0.19432253
0.012060647 0.013551044 0.19574088
-0.01677076 -0.018695438 0.19403201
-0.01390867 -0.015408508 0.19324085
-0.011359847 -0.010680609 0.19291893
-0.0067584473 -0.0077679488 0.19327226
-0.0026528621 -0.0034882971 0.19304791
0.00051620009 8.7819557e-05 0.19252747
0.003755487 0.0036113448 0.19224346
0.0069879792 0.0071416465 0.19195366
0.0095737856 0.011074383 0.19238794
0.012549095 0.012945613 0.19342777
-0.022423383 -0.031202991 0.1899564
-0.020767406 -0.030590404 0.1894199
-0.021347685 -0.032331914 0.18811503
-0.020430759 -0.031181492 0.18610117
-0.0090947002 -0.040387385 0.15427676
-0.0061482508 -0.040369384 0.15416613
-0.0083453171 -0.040841971 0.15053096
-0.004721364 -0.039868549 0.14977938
-0.00097947381 -0.039006971 0.14914727
-0.0036358498 -0.038995959 0.1459958
0.00024659187 -0.038601842 0.1456686
0.0013202429 -0.038318362 0.14062622
0.0051206704 -0.038663164 0.14220229
0.0064638369 -0.03876622 0.13682327
0.0073543843 -0.037834033 0.1325143
0.011372358 -0.037833918 0.13198915
0.012561825 -0.037686236 0.12698418
0.013730152 -0.037233986 0.12228799
0.019919928 -0.037892733 0.11787933
0.025419457 -0.037959792 0.11283743
0.026310924 -0.037938993 0.10933918
0.031690761 -0.037847579 0.10515547
0.066751048 0.00021028146 0.10113728
0.033290297 -0.03772933 0.10072088
0.0646457 -0.0051193833 0.097650826
0.066466898 -0.0010268949 0.097714543
0.03770541 -0.0356838 0.095607102
0.064053565 -0.0099488813 0.092551768
0.064994693 -0.0062871724 0.092952251
0.066612706 -0.0014702976 0.09325999
0.043057274 -0.033926476 0.09029901
0.063975006 -0.012020649 0.08845526
0.06463021 -0.007169893 0.089263141
0.047508284 -0.032419838 0.085324347
0.054764166 -0.028138347 0.08504945
0.062429681 -0.017094174 0.084511459
0.063312829 -0.012697831 0.0835163
0.051829949 -0.029875681 0.081428826
0.06112808 -0.022997534 0.080309451
0.062613353 -0.018397527 0.079876006
0.060159985 -0.023481701 0.075386167
0.062671438 -0.020660389 0.074928343
-0.02109112 -0.0078178141 0.19775343
0.00086605456 0.01397364 0.19748566
-0.020195868 -0.013271563 0.19491544
-0.018841593 -0.0098072477 0.19554833
-0.015959658 -0.0068105878 0.19419163
-0.01176524 -0.0013976209 0.1934486
-0.0081253201 0.001785259 0.19300586
-0.0013840473 0.0091223195 0.19365704
0.0023381361 0.011897041 0.19451195
0.0060875458 0.014258049 0.19555673
-0.019398725 -0.015725458 0.19399056
-0.016572839 -0.011941575 0.19314852
-0.013796721 -0.0089195725 0.19318348
-0.0091802496 -0.0038801995 0.19323596
-0.0064066052 9.9097844e-05 0.19256595
0.0010717285 0.0062809102 0.19277686
0.004364477 0.0097778179 0.19252592
-0.012213198 -0.04015993 0.15304378
-0.012432545 -0.044006519 0.14639619
-0.010807421 -0.041477177 0.14801416
-0.0071942937 -0.040029719 0.14680353
-0.0096939858 -0.041680999 0.14326251
-0.0058264583 -0.039675351 0.14315295
-0.0020607132 -0.038533583 0.142634
-0.0057267025 -0.039426565 0.13866332
-0.0019220691 -0.038461275 0.13830364
0.00098567829 -0.038711932 0.13446355
0.0015391055 -0.038421161 0.13067794
0.0052535757 -0.038278218 0.12978673
0.0062791929 -0.038083062 0.12561637
0.0095332107 -0.037549537 0.12431133
0.011287042 -0.037855256 0.12113166
0.012323693 -0.037788067 0.11664087
0.016946614 -0.037375361 0.11116511
0.024323747 -0.037356395 0.10600901
0.024659157 -0.037573699 0.10199416
0.028814642 -0.038011208 0.093762279
0.066235721 -0.00067264959 0.090067625
0.037580833 -0.036362864 0.089158714
0.064392321 -0.0050525367 0.086236537
0.065558255 -0.00073882192 0.085046232
0.03847805 -0.036727522 0.085158288
0.0634524 -0.010809077 0.081681311
0.064039834 -0.0063548461 0.082094729
0.04273269 -0.033936638 0.081010997
0.051788218 -0.02886492 0.077774644
0.063280165 -0.016598141 0.076906145
0.063461736 -0.011809165 0.077973366
0.063899994 -0.007883843 0.078187585
0.050537277 -0.028884243 0.074716628
0.058278307 -0.025389252 0.073253453
0.063219324 -0.017810527 0.073533118
0.063727483 -0.013694845 0.073398292
0.056195982 -0.027229995 0.069784701
0.062520027 -0.02100103 0.069196761
0.063719921 -0.016554484 0.068986654
0.059484821 -0.024693478 0.064326108
0.062718526 -0.021084586 0.064672291
-0.0059668901 0.012892138 0.19531497
-0.018295007 -0.0040424601 0.19439092
-0.016470149 -0.00052018184 0.19299471
-0.011907333 0.0040661534 0.19275975
-0.0047053238 0.011234445 0.19329399
-0.014278609 -0.0036238022 0.19110867
-0.01226755 -0.042385012 0.1417816
-0.011204445 -0.040932473 0.13813341
-0.0065725297 -0.039329648 0.13575011
-0.010409265 -0.040377274 0.13382789
-0.0071423408 -0.038665317 0.13213983
-0.0038344041 -0.037702851 0.13262552
-0.0063255876 -0.037939265 0.12862009
-0.0023600515 -0.037592374 0.12690085
0.00030884892 -0.03795914 0.12198222
0.0029813442 -0.037511408 0.12173712
0.0046376176 -0.037571102 0.11822087
0.0057510603 -0.037607759 0.11309248
0.0094608888 -0.037566394 0.11310822
0.010836165 -0.037378564 0.10930878
0.012490607 -0.037305638 0.10487342
0.014992364 -0.036915105 0.10444063
0.018905427 -0.037295539 0.096156836
0.024189424 -0.037237078 0.091290951
0.029447006 -0.036842652 0.086378098
0.06577675 0.0019820184 0.081569672
0.063159265 -0.0047508534 0.077973425
0.064839192 -0.00062126666 0.079020441
0.066562146 0.0034073703 0.077104986
0.036212701 -0.035490464 0.075877726
0.063242264 -0.0058874991 0.074206471
0.063934207 -0.0015267599 0.074982405
0.040352821 -0.032252543 0.071612716
0.048250984 -0.029000815 0.071803629
0.063181147 -0.008128617 0.070460796
0.063891917 -0.0033520348 0.071435273
0.045006558 -0.030223208 0.067191422
0.052974261 -0.027117819 0.067203343
0.06298551 -0.012917679 0.065971851
0.049804691 -0.028440762 0.06233722
0.062726915 -0.018877055 0.061619818
0.063082337 -0.015730245 0.061966956
0.05463177 -0.026141742 0.057944834
0.058140077 -0.023570856 0.057710469
0.06123013 -0.02008269 0.057620227
0.062482953 -0.016411567 0.057908416
0.058558367 -0.024145124 0.054163218
0.061149448 -0.021019036 0.053746045
-0.012193806 0.011372435 0.19328681
-0.011476772 0.0094672609 0.19205362
-0.010975483 -0.040144134 0.13049686
-0.0098273763 -0.038993333 0.13044655
-0.012047713 -0.039491296 0.12669218
-0.0080980575 -0.038720608 0.12620819
-0.0066055506 -0.039380793 0.12134355
-0.0032358114 -0.038223088 0.12197608
-0.0059963483 -0.03990113 0.11728579
-0.0020937789 -0.038625062 0.11694998
0.0019468572 -0.037819788 0.11479139
-0.0013584401 -0.037894197 0.11252546
0.0031956527 -0.037760042 0.11140013
0.0050733183 -0.037784211 0.10676199
0.008235299 -0.03768504 0.1059112
0.0056392122 -0.03773015 0.10260642
0.0096123097 -0.037373837 0.10243386
0.01171971 -0.037114829 0.097339988
0.014580971 -0.036958978 0.098237634
0.01154787 -0.037242163 0.093281448
0.017606895 -0.037696343 0.088624418
0.018546145 -0.037707336 0.085066974
0.023069687 -0.036360234 0.079930007
0.028673455 -0.03508427 0.075256288
0.064228527 -0.00011976063 0.072784722
0.066106819 0.0026238039 0.073230684
0.033770669 -0.035231646 0.070473969
0.063367106 -0.0052481275 0.068166733
0.064114511 -0.0012984052 0.06829077
0.065897726 0.0023449138 0.068494797
0.040387914 -0.033149652 0.066262066
0.062585793 -0.0065994356 0.064160287
0.063445747 -0.0022880845 0.063697517
0.040821791 -0.033870265 0.061706722
0.04807239 -0.029413156 0.059608757
0.062804721 -0.011962103 0.060552955
0.062533222 -0.0083937719 0.059683263
0.046029523 -0.032099098 0.056960404
0.053217854 -0.027114626 0.055648506
0.061699167 -0.018060455 0.054318726
0.062908359 -0.014300622 0.05530715
0.062847607 -0.0098453406 0.054101646
0.050558586 -0.029981259 0.052050114
0.058520652 -0.024230637 0.051073313
0.061147217 -0.019960258 0.050660729
0.062899962 -0.015310926 0.051241398
0.054843694 -0.027156033 0.046756804
0.061320186 -0.020281253 0.04678452
0.060614102 -0.022014037 0.043606937
-0.013827174 -0.039230511 0.12372351
-0.011074068 -0.038503997 0.12268555
-0.013365034 -0.039570089 0.11815959
-0.010225147 -0.039529681 0.11966377
-0.012385041 -0.04017524 0.11496252
-0.0084367245 -0.040137812 0.11421824
-0.0075379517 -0.04031539 0.10966891
-0.0035014059 -0.038362749 0.10970992
0.0003997311 -0.036790058 0.10947585
-0.0069009978 -0.040383384 0.10575277
-0.0033587255 -0.037827175 0.10470682
-0.00055397116 -0.036270641 0.10469884
0.0018231496 -0.036959875 0.1002332
0.0041637197 -0.03674772 0.097271919
0.0073052365 -0.036615655 0.096391857
0.0080847936 -0.036753554 0.091195285
0.01041565 -0.037181374 0.08706069
0.013967924 -0.037678234 0.08769685
0.015438275 -0.037530534 0.082130432
0.021250363 -0.036824875 0.077845097
0.021018572 -0.036332835 0.073319376
0.02245781 -0.036457833 0.069369376
0.030945707 -0.034912538 0.067672074
0.031089142 -0.035283461 0.063835621
0.063090675 -0.0012063663 0.060088515
0.03330598 -0.035823703 0.05918926
0.062192503 -0.0049200319 0.056448758
0.062574208 -0.0015435349 0.056532979
0.033623222 -0.035715926 0.054238021
0.062006682 -0.0072315708 0.052016675
0.062411025 -0.0022510868 0.053391576
0.043884665 -0.03176488 0.048616588
0.062190913 -0.012511929 0.047699749
0.062490869 -0.0088465475 0.04840517
0.049085245 -0.029162744 0.044840515
0.060918588 -0.017639767 0.043145597
0.061647654 -0.014320185 0.043905079
0.053422883 -0.026168911 0.040084302
0.057769988 -0.023905884 0.039940774
0.060410824 -0.019586761 0.039851844
0.060837526 -0.015313398 0.039528906
0.057596177 -0.023432819 0.035518467
0.060039215 -0.02052406 0.03599292
-0.016171072 -0.038512357 0.12023312
-0.015659498 -0.03909871 0.11879289
-0.012504469 -0.040237937 0.11293495
-0.0093494467 -0.041377172 0.10707688
-0.007470971 -0.041482046 0.10346979
-0.0042029694 -0.038687859 0.10215586
-0.0084120464 -0.044928581 0.10141331
-0.006893754 -0.041457541 0.098543346
-0.0034312289 -0.038576134 0.098437011
0.00012653507 -0.037448309 0.097610235
-0.0024121925 -0.037668116 0.093375683
0.0010440424 -0.036663055 0.093329251
0.0020526685 -0.035440493 0.088322699
0.006484611 -0.037312873 0.088632226
0.0075971382 -0.037480265 0.085226774
0.0096129999 -0.037239879 0.080418587
0.010733379 -0.037795514 0.074747145
0.013607685 -0.038123779 0.07649684
0.015429335 -0.03748966 0.071341693
0.016712241 -0.037234291 0.066295803
0.022144465 -0.037476551 0.062484324
0.026557304 -0.0371968 0.057837903
0.062971696 -0.00042070448 0.054690719
0.03227431 -0.03708693 0.053101122
0.061924141 -0.0041863061 0.051152825
0.063027933 -0.00029382482 0.050197959
0.033133905 -0.035893362 0.048666179
0.062016711 -0.005212063 0.04658854
0.062898181 -0.0011608154 0.046187699
0.041862193 -0.032457452 0.043930173
0.061740853 -0.011432229 0.041857898
0.061357409 -0.0080319811 0.042152703
0.043335941 -0.032029454 0.039603472
0.051361289 -0.026839156 0.036893427
0.060460001 -0.017399555 0.036385357
0.061542273 -0.012941405 0.037751853
0.062346831 -0.0097739268 0.039066613
0.047063924 -0.029128388 0.034909546
0.057332225 -0.023737067 0.032863319
0.060025427 -0.019442704 0.03282088
0.060854316 -0.014942998 0.03347224
0.056597687 -0.024013385 0.029218912
0.060293455 -0.021047939 0.029038489
0.059722669 -0.016881919 0.029226184
0.056660347 -0.023356704 0.025090694
0.059487831 -0.021543447 0.02512151
-0.0076790974 -0.040378731 0.092502713
-0.0052097812 -0.038534958 0.092413366
-0.0042611007 -0.038646266 0.087847888
-0.00040033646 -0.036592171 0.087686777
-0.0039313007 -0.038733304 0.083443344
0.00028015114 -0.036464229 0.082833588
0.0048243906 -0.036312953 0.081037223
0.0013855994 -0.036307085 0.078515232
0.005532667 -0.036490101 0.077391148
0.0059510795 -0.037026566 0.073368371
0.0088098506 -0.037502456 0.069383085
0.013176114 -0.037141323 0.068447649
0.0098423185 -0.03766131 0.064829707
0.013401744 -0.03725253 0.064471006
0.015011697 -0.03681257 0.05987817
0.020615757 -0.037162263 0.054855466
0.02492013 -0.036969818 0.050887406
0.026920587 -0.036911994 0.046029031
0.060815044 -0.0032440349 0.042564929
0.062606044 -0.00033117272 0.042868853
0.032154698 -0.035066742 0.04150486
0.061103981 -0.0060538165 0.039184391
0.061316639 -0.0014765207 0.038583457
0.063324213 0.00117312 0.037055492
0.036658213 -0.033104599 0.036655545
0.061648339 -0.0077219959 0.034815013
0.062253781 -0.002589399 0.034511209
0.06440562 -6.1608851e-05 0.034205496
0.036968224 -0.033638872 0.032552063
0.045848001 -0.029130649 0.031299889
0.060528375 -0.012912422 0.030388236
0.061276454 -0.0092518292 0.030194521
0.063412949 -0.0039608106 0.029656291
0.066062428 -0.00099287182 0.02936995
0.042249769 -0.03157001 0.02746141
0.050212819 -0.026404079 0.027124226
0.060371444 -0.015270436 0.026449025
0.061631694 -0.0098856073 0.026344836
0.050642993 -0.026448142 0.021849632
0.059248492 -0.021413153 0.021990776
0.060927719 -0.016020792 0.021543682
0.061555121 -0.011841085 0.022821605
0.058738314 -0.02105874 0.017345071
0.061132271 -0.017985452 0.017190099
-0.0047952421 -0.038740143 0.080410182
-0.0047965087 -0.038776983 0.075838149
-0.00043640658 -0.037079215 0.075911462
0.00049010292 -0.037255771 0.071224034
0.001839973 -0.036814503 0.067263007
0.0048715025 -0.036868293 0.066333115
0.0070841722 -0.036437001 0.061535954
0.012577515 -0.036879703 0.058553994
0.014226926 -0.03690799 0.053180456
0.018709429 -0.038018625 0.049011409
0.021601357 -0.03753674 0.040122151
0.026857845 -0.03614933 0.034944177
0.027386919 -0.036009021 0.030451238
0.035080604 -0.034267142 0.029671252
0.066422418 6.7267567e-05 0.028915703
0.036434218 -0.033491701 0.025692761
0.062110551 -0.008380726 0.023810148
0.06366732 -0.0043932628 0.023639739
0.066124365 -0.0011991598 0.023522317
0.041133553 -0.030595496 0.020943284
0.061960481 -0.0096662361 0.019239962
0.062447898 -0.0056378916 0.019378006
0.049737263 -0.026119899 0.016131639
0.061025526 -0.014544111 0.01505816
0.061631359 -0.011353074 0.015346229
0.054593556 -0.024164908 0.011363804
0.058317024 -0.020841833 0.011515856
0.060444146 -0.016585037 0.010363221
-0.0062466171 -0.039155804 0.07260263
-0.0056255106 -0.038829133 0.069613397
-0.0017830003 -0.03794618 0.068042696
-0.0046298839 -0.038501028 0.066118896
-0.00063143857 -0.036968261 0.064956009
-7.7303499e-05 -0.035470877 0.06122905
0.0035778768 -0.0359267 0.059997261
0.0057016714 -0.035529494 0.056014597
0.0088715646 -0.035113394 0.055427015
0.0084407208 -0.035023469 0.050893188
0.011325255 -0.036492534 0.047041655
0.014669398 -0.037624218 0.043257415
0.019304637 -0.037628759 0.037407935
0.015576635 -0.03837993 0.033534884
0.023779904 -0.036244623 0.032749951
0.024671456 -0.036602642 0.028482258
0.026385743 -0.036615025 0.023754597
0.034326322 -0.033928141 0.022530615
0.031319275 -0.035822421 0.019740224
0.039161958 -0.030741289 0.018020988
0.062864482 -0.0032298677 0.016781509
0.06410791 -0.00018913299 0.015800774
0.035710853 -0.033046927 0.014740348
0.04414133 -0.028252117 0.014045656
0.061481699 -0.0080520883 0.012380421
0.062155962 -0.0036710054 0.013040841
0.044912215 -0.028915916 0.010323822
-0.0080738822 -0.037632227 0.061911821
-0.0043608099 -0.036064934 0.061338723
-0.0024295822 -0.034712803 0.05737561
-0.0013552383 -0.034906488 0.052773297
0.0021156222 -0.03523365 0.053307831
0.0040373653 -0.034983873 0.048688591
0.005521846 -0.035069533 0.043932855
0.008024442 -0.035163939 0.043278039
0.0097551132 -0.035919931 0.039374411
0.011645569 -0.036812685 0.035643041
0.013113202 -0.037338346 0.031439304
0.014344419 -0.037581339 0.027985871
0.020133918 -0.036583856 0.021042228
0.024614127 -0.036914539 0.017651975
0.030313957 -0.035280194 0.012227893
0.061939314 -0.0024423618 0.0091584325
0.06247218 0.0022536069 0.0099446774
-0.012575177 -0.038193043 0.054892361
-0.0094816294 -0.036659263 0.056151092
-0.0064918948 -0.034488864 0.056067586
-0.0086300764 -0.036844358 0.051246226
-0.0050508836 -0.034998495 0.051838338
-0.0069325799 -0.037118912 0.04669565
-0.0030095968 -0.036095291 0.047216356
0.00090518221 -0.035158526 0.046720803
-0.002237631 -0.036921792 0.041976154
0.0018908363 -0.03544908 0.042737067
-0.000240108 -0.037009522 0.038590193
0.0035823788 -0.035694435 0.038097084
0.0051356405 -0.036068298 0.033011734
0.0081763677 -0.035948433 0.034165978
0.0095245205 -0.036440831 0.028763711
0.011829497 -0.036268145 0.023490787
0.014245144 -0.035531968 0.022288501
0.01888147 -0.036343459 0.015210927
0.019588869 -0.036780771 0.0098766088
-0.0068734633 -0.03740894 0.043678582
-0.0051584877 -0.037117515 0.038001716
-0.0024064854 -0.037465412 0.036542892
0.001129197 -0.036261126 0.034597456
-0.0019940361 -0.036617756 0.03228581
0.001213342 -0.035843346 0.030771554
0.0029040743 -0.035680942 0.027011693
0.0075873332 -0.036021337 0.025181234
0.0041249488 -0.035267688 0.022663295
0.0077723395 -0.035279572 0.021549284
0.009836996 -0.035444565 0.016961515
0.014320052 -0.036019634 0.016075075
0.011534575 -0.035976555 0.012155473
0.014522811 -0.035680659 0.012314677
0.012017022 -0.036686946 0.008484304
-0.0030775331 -0.036648847 0.028771758
-0.0030735098 -0.036568452 0.024712265
-6.8172812e-05 -0.035203133 0.023072898
0.0012673978 -0.034726687 0.01887542
0.0059492635 -0.034893729 0.019123495
0.0030985791 -0.034831896 0.015178859
0.0056063477 -0.034818463 0.015567303
0.0040768106 -0.036130019 0.0099472404
0.0074348096 -0.035903275 0.011392295
-0.0049301144 -0.035128333 0.017660856
-0.0025487095 -0.03418877 0.015831828
-0.00048251636 -0.03438805 0.01275748
0.0022165403 -0.03588615 0.0086663365
-0.0072268993 -0.034886021 0.011265814
-0.0023917332 -0.034791533 0.0096444488
