# .PCD v0.7 - Point Cloud Data file format
VERSION 0.7
FIELDS x y z
SIZE 4 4 4
TYPE F F F
COUNT 1 1 1
WIDTH 1155
HEIGHT 1
VIEWPOINT 0 0 0 1 0 0 0
POINTS 1155
DATA ascii
-0.03280839 -0.02301671 0.18846941
-0.026986254 -0.029278271 0.1902
-0.019916117 -0.036348492 0.19077808
-0.015907127 -0.038593724 0.189596
-0.028312666 -0.030686768 0.18615797
-0.021927131 -0.038120665 0.18615118
-0.025324944 -0.035222713 0.18216279
-0.032082405 -0.014660892 0.19185692
-0.026317339 -0.021006742 0.19273886
-0.018314911 -0.028784109 0.19181666
-0.011337911 -0.034647003 0.19215816
-0.00802809 -0.037266962 0.19142237
-0.0047805831 -0.039378442 0.19010288
-0.032236353 -0.020086512 0.18992457
-0.024614342 -0.026941031 0.19171679
-0.012517986 -0.037638538 0.19056392
-0.010623736 -0.039779007 0.18840447
-0.0060134586 -0.040608376 0.1873174
-0.034053173 -0.021835567 0.18491563
-0.029896751 -0.028571462 0.18401855
-0.016156472 -0.040160909 0.18306765
-0.011386849 -0.040503345 0.18306848
-0.0072637051 -0.040823914 0.18398786
-0.034462392 -0.022195276 0.18001512
-0.028475758 -0.030195182 0.18039259
-0.022100743 -0.037905496 0.17886159
-0.013962231 -0.040636994 0.17795789
-0.032632776 -0.026382588 0.17523259
-0.025381064 -0.034444872 0.1752643
-0.018034257 -0.039875597 0.17431733
-0.014546433 -0.041063976 0.17475578
-0.030231874 -0.030375209 0.17215019
-0.022614267 -0.03692288 0.17133313
-0.013518602 -0.022266939 0.1918824
-0.010180132 -0.026649304 0.19215658
-0.0064816056 -0.030006275 0.19256988
-0.0033628466 -0.032993704 0.19163913
-0.00030563772 -0.03541787 0.19123301
-0.032599971 -0.0086669307 0.19019461
-0.030316386 -0.011352597 0.19199365
-0.023029448 -0.017581735 0.19250947
-0.016415052 -0.024719428 0.19163737
-0.010534509 -0.031409614 0.19247532
-0.0050560925 -0.035751503 0.19174531
-0.0016039871 -0.039339744 0.19004944
0.0022427514 -0.039675228 0.18817589
-0.034485571 -0.010076458 0.18740454
-0.033665277 -0.012811145 0.18999952
-0.0030288976 -0.041090764 0.18575609
0.00036498532 -0.040974915 0.18411344
-0.035490923 -0.011268639 0.18411195
-0.0097053545 -0.040863283 0.17967877
-0.0052730329 -0.040930204 0.18126065
-0.035193332 -0.020253794 0.17745459
-0.010942715 -0.0408572 0.17659846
-0.0066560954 -0.040610507 0.17596257
-0.034996532 -0.021397213 0.17391536
-0.016478842 -0.040660992 0.17183596
-0.012348752 -0.041204218 0.171675
-0.034613106 -0.022065213 0.16935548
-0.029425582 -0.029317766 0.1685071
-0.020878008 -0.036403608 0.1678682
-0.014181399 -0.041136004 0.16845629
-0.02897615 -0.028647948 0.16519889
-0.021074258 -0.035524745 0.16392139
-0.029414462 -0.0026695682 0.19110194
-0.026099747 -0.0065622861 0.19197011
-0.018985594 -0.013389256 0.19256181
-0.011398937 -0.019324768 0.19266346
-0.0073685851 -0.023202382 0.19231179
-0.0035180179 -0.026631903 0.19273907
-0.00053796452 -0.030245256 0.19233623
0.002777542 -0.033492487 0.1911512
0.0061578965 -0.036674161 0.18968976
0.010765001 -0.039315622 0.18852931
0.016079813 -0.043335684 0.18833262
0.018847391 -0.044512302 0.18937883
-0.034295686 -0.0010415744 0.18864843
-0.032537352 -0.0050547663 0.19028103
0.005675802 -0.03956845 0.18714753
0.0094082654 -0.040820993 0.18558961
0.014240149 -0.042878013 0.18669915
0.01757464 -0.045107584 0.18700135
-0.035264485 -0.002672812 0.18463746
-0.035086572 -0.0060393903 0.18597838
0.0038624946 -0.040212724 0.18168882
0.006259894 -0.040628042 0.18211955
-0.035380866 -0.0076716263 0.1810641
-0.0025602262 -0.040316693 0.17786917
0.00071248598 -0.040412717 0.17819542
-0.035489056 -0.0091963764 0.17720047
-0.035323475 -0.011240948 0.17634553
-0.0034259371 -0.040467482 0.17419565
-0.00056940317 -0.040374581 0.17324483
-0.035554342 -0.013417005 0.17185187
-0.0059974547 -0.040914692 0.16971606
-0.035017651 -0.020048384 0.16679376
-0.01154206 -0.040564682 0.16504368
-0.0085620936 -0.041339442 0.16640729
-0.034615062 -0.020832321 0.16259426
-0.029189944 -0.028699005 0.16253313
-0.02109386 -0.036425292 0.16182348
-0.013075094 -0.03983935 0.16087195
-0.032807335 -0.025418196 0.15816706
-0.025722843 -0.03268443 0.15794346
-0.017655103 -0.038271829 0.15671957
-0.030253569 -0.029251037 0.15395042
-0.022895716 -0.035497144 0.153431
-0.009277381 -0.011278142 0.19275913
-0.0025784839 -0.016777121 0.19195154
0.0019604731 -0.021130886 0.19165933
0.0046990793 -0.02507717 0.19201878
0.0083619701 -0.026951179 0.1911172
0.011195759 -0.029672692 0.19093609
0.016368657 -0.033962782 0.19078976
0.019459154 -0.03725373 0.1916925
-0.029412201 0.0042677345 0.19099703
-0.026879285 0.0011209892 0.19204959
-0.022786047 -0.0021947222 0.1921491
-0.018581597 -0.0056609297 0.19176856
-0.012697414 -0.012552256 0.19299886
-0.0040952363 -0.019413857 0.19187874
-0.0015218453 -0.023523586 0.19238284
0.002232343 -0.027517337 0.19230166
0.0069603594 -0.029944561 0.19068018
0.010082253 -0.032897867 0.19000456
0.013577795 -0.037130896 0.18968117
0.016602766 -0.04073488 0.18977398
0.020120259 -0.044926386 0.18942398
-0.034348439 0.0051185954 0.18646878
-0.032887444 0.0028681876 0.1885736
-0.030300941 -0.00011651777 0.19045448
0.011915118 -0.040665261 0.18317726
0.015411681 -0.041656703 0.18288678
0.018985124 -0.044812389 0.18530935
-0.035435967 0.0043513225 0.18174639
-0.035350915 0.00082709081 0.18319732
0.0094016781 -0.040058039 0.17948323
-0.03577131 -0.00069253333 0.17871845
-0.035489995 -0.0046856403 0.17821476
0.0048089065 -0.039631985 0.17591572
0.0076875426 -0.039880157 0.17502731
-0.035983771 -0.001976287 0.17402628
-0.03559893 -0.0054186303 0.1744996
0.0030627307 -0.040059663 0.17136437
0.0065882914 -0.039906055 0.17053902
-0.035594761 -0.0071127163 0.17028835
-0.035615452 -0.011046919 0.16990292
-0.0031402986 -0.040445618 0.16708425
0.0011410266 -0.040036082 0.16695476
-0.035983164 -0.0078524202 0.16529778
-0.035971973 -0.011817322 0.16512585
-0.0047985129 -0.040016577 0.16290021
-0.00081533752 -0.04021471 0.1630412
-0.035864018 -0.013593785 0.15993109
-0.010005179 -0.039669354 0.15842286
-0.0060212743 -0.039728545 0.15747339
-0.035050225 -0.019467901 0.1561828
-0.015160238 -0.038513608 0.15436584
-0.011506559 -0.039290089 0.15382418
-0.0076569282 -0.039883882 0.15310624
-0.032951131 -0.024364281 0.15147406
-0.026359076 -0.031769183 0.15031153
-0.016854089 -0.038051881 0.15005302
-0.012352902 -0.039174069 0.14915454
-0.032268241 -0.024409153 0.14663067
-0.026650544 -0.031853411 0.14671007
-0.017832059 -0.038241882 0.14542711
-0.026872622 -0.032278121 0.14246097
-0.019808821 -0.03848828 0.14099354
-0.0221413 -0.037980758 0.13776159
0.016225027 -0.022837199 0.19696116
0.01460385 -0.023737583 0.19390583
0.017167643 -0.02621877 0.19420838
0.019711042 -0.030326242 0.19379112
0.020673364 -0.034860004 0.1942552
-0.038542219 0.021095205 0.19289613
-0.025743 0.0093289167 0.19186467
-0.02273256 0.0054903738 0.19297996
-0.018823437 0.0015731575 0.19279587
-0.014459968 -0.0018176488 0.19200835
-0.0074261967 -0.0076226727 0.19181919
-0.0032371287 -0.010683808 0.1916222
-0.00024552085 -0.014417876 0.19177878
0.0036509414 -0.018335918 0.19160181
0.0074672084 -0.021911023 0.1920574
0.011224844 -0.02559389 0.19163722
0.014408956 -0.029044287 0.19129631
0.01748267 -0.031957928 0.19195604
-0.041402869 0.020684332 0.18882149
-0.033037387 0.013457908 0.18795633
-0.030589927 0.010530226 0.1892727
-0.028540336 0.0073048202 0.19101167
-0.01568789 -0.0053466726 0.19142175
-0.034687743 0.011853601 0.1856716
-0.033795126 0.0086982865 0.18683475
0.020426858 -0.040087193 0.17990544
-0.035303354 0.0078622233 0.18152761
0.012164235 -0.039111167 0.17592812
0.016115496 -0.039431732 0.1771284
-0.036169782 0.0056942459 0.17647132
-0.036419854 0.0014509559 0.17601475
0.010807807 -0.039753597 0.17265558
0.01377189 -0.039620645 0.17165655
-0.0366145 0.0046932418 0.17221573
-0.036684122 0.00054328889 0.17242786
0.009257324 -0.040073086 0.16812921
0.013447242 -0.039819125 0.16815293
-0.036127739 -0.00050823204 0.16763985
-0.036023676 -0.0044240598 0.1681098
0.0039140396 -0.040074021 0.16442066
0.0071498416 -0.040018156 0.16413909
-0.036074549 -0.0018243995 0.1641649
-0.036076467 -0.004885965 0.16364497
0.0019840021 -0.040226288 0.16046518
0.0057352018 -0.040349741 0.15989256
-0.036077276 -0.0074891578 0.15953425
-0.036424361 -0.010905025 0.15710148
-0.0027629752 -0.039679918 0.15717921
0.00039237924 -0.040349364 0.1561867
-0.036306225 -0.0083701862 0.15588653
-0.036035717 -0.012036471 0.15325975
-0.0050316844 -0.040084835 0.15147322
-0.0012552869 -0.040749196 0.1517106
-0.035246804 -0.014433113 0.14927983
-0.010909597 -0.039857633 0.14683917
-0.0072381161 -0.040293753 0.14644018
-0.032600064 -0.023096405 0.14373258
-0.012238867 -0.0388797 0.14288497
-0.0082987789 -0.040080834 0.14306706
-0.031970289 -0.023619715 0.14006752
-0.027247695 -0.031484865 0.13969895
-0.014037622 -0.038875896 0.13875529
-0.029075926 -0.027333751 0.13549116
-0.024528116 -0.035458315 0.13532904
-0.017327741 -0.039592341 0.13216877
-0.021406036 -0.038044877 0.13164163
0.016409498 -0.018167028 0.19549644
-0.028622542 0.019528527 0.19533396
-0.024986153 0.016929368 0.1949288
-0.020648293 0.014236837 0.19437051
-0.017681388 0.010890188 0.19314462
-0.01409053 0.0077532493 0.19278947
-0.0078264056 0.0028248411 0.19195223
-0.0056373887 0.00050095306 0.19190052
0.0027193637 -0.0068700705 0.19110245
0.005086238 -0.010155157 0.19135594
0.0075453375 -0.013330333 0.191524
0.011632084 -0.01753661 0.19260824
0.014308745 -0.02103682 0.19379005
-0.038620461 0.023494557 0.19195729
-0.034127768 0.020810556 0.19147128
-0.030895032 0.017747331 0.19263637
-0.027434502 0.014481941 0.19239193
-0.023668127 0.011493089 0.19282174
-0.019740045 0.0086877123 0.19310424
-0.015908562 0.0046469276 0.19300407
-0.011585567 0.0011966247 0.19198364
-0.0084176846 -0.0023581672 0.19152546
-0.001147219 -0.0085605495 0.19166863
0.0020384644 -0.012111226 0.19166216
0.0053779352 -0.015492171 0.19151819
0.010939356 -0.021122882 0.19127849
-0.039015129 0.021809446 0.18850049
-0.035690419 0.019972187 0.18835151
-0.032847431 0.01624858 0.18880916
-0.030013395 0.013478437 0.18965185
-0.039819174 0.02122391 0.18539411
-0.03670878 0.019220544 0.1844779
-0.034367114 0.015931252 0.18382734
0.025294095 -0.037599802 0.17660758
-0.041736986 0.019825611 0.18189716
-0.034449968 0.014087231 0.17978647
0.018812131 -0.039293401 0.17474121
0.021670818 -0.038783796 0.17505199
-0.034125231 0.013425995 0.17541581
-0.035901345 0.0091193086 0.1752781
0.017925598 -0.038942724 0.17126948
0.021409474 -0.038879015 0.16959521
-0.036294583 0.0072767381 0.17006829
0.01640052 -0.039553646 0.16530728
-0.036184207 0.005591671 0.16518497
-0.036371179 0.0024410337 0.16524893
0.010359333 -0.039818134 0.16164526
0.014111961 -0.039830312 0.16067955
-0.035607137 0.00079941005 0.16125679
-0.035166979 -0.0028656591 0.16040733
0.0088219531 -0.039861262 0.15721565
0.012307644 -0.040544018 0.1567592
-0.03517532 -0.00019768253 0.15636459
-0.035172757 -0.0031114109 0.15625334
0.0032954607 -0.040270898 0.15349215
0.0069562253 -0.039478257 0.15274107
-0.035238259 -0.0054992754 0.1517573
0.0026716795 -0.039596707 0.14873791
-0.035150629 -0.006487756 0.14777189
-0.035236292 -0.010276908 0.14746904
-0.0029631499 -0.039414585 0.14576721
-0.0010413658 -0.039727457 0.14493769
-0.034667768 -0.012043836 0.1427685
-0.0095224446 -0.03894281 0.14028713
-0.0056584198 -0.039612278 0.14053532
-0.00085223466 -0.039384775 0.14084744
-0.034348242 -0.013421245 0.13812208
-0.032651074 -0.021568907 0.137281
-0.011454034 -0.038816288 0.13642353
-0.0075513218 -0.03965408 0.13534614
-0.032601774 -0.023233188 0.13365251
-0.02717386 -0.029277461 0.13234815
-0.012911775 -0.038320839 0.13154486
-0.032968745 -0.023613144 0.12877721
-0.026327889 -0.030459592 0.1286059
-0.019836392 -0.037740421 0.12817436
-0.015837532 -0.038997632 0.12721914
-0.029956289 -0.027060386 0.12400913
-0.023800077 -0.034388535 0.12336528
-0.016146444 -0.039128732 0.12356055
-0.010865908 0.01563997 0.19564316
-0.0089709144 0.014083921 0.19634563
0.016881589 -0.01092203 0.19382128
0.019175379 -0.013149397 0.19368309
-0.0183337 0.016294051 0.19498929
-0.014471905 0.01430779 0.19343933
-0.010950123 0.011009554 0.19379789
-0.0080422079 0.0063332394 0.19267288
-0.0035706859 0.0026235629 0.19221672
0.0001051971 -0.0007459136 0.19191676
0.0033114653 -0.0037422916 0.19167769
0.0071285325 -0.0066490723 0.1914281
0.010890591 -0.0099923611 0.19147629
0.014591982 -0.013139438 0.19293022
-0.035847444 0.024579579 0.1883983
-0.037435632 0.023634657 0.18017396
-0.035410754 0.021081934 0.18029928
-0.038757712 0.022418231 0.17754424
-0.035585418 0.02125887 0.17654788
-0.034474861 0.016450599 0.17711577
0.026006714 -0.037919279 0.17266127
0.030308606 -0.037163801 0.17221642
-0.035660878 0.019945592 0.17273927
-0.034541119 0.015928827 0.17242694
0.025474887 -0.038282484 0.16741645
-0.034759715 0.014997739 0.1681267
-0.034840677 0.011006221 0.16737068
0.022334449 -0.039420202 0.16400021
-0.035014354 0.013462909 0.16448817
-0.034927685 0.01069039 0.16328388
0.016543537 -0.040430356 0.15891129
0.020388762 -0.040655926 0.15951812
-0.035339903 0.0074247904 0.15893447
-0.035040762 0.0037289485 0.15802449
0.011140442 -0.039369904 0.15395698
0.014999874 -0.040480096 0.15445918
0.019525234 -0.040790014 0.15476388
-0.035200402 0.0070585366 0.15406281
-0.034880567 0.0030892063 0.15378064
0.0098940926 -0.039563965 0.15046439
0.012973223 -0.039710857 0.15034103
-0.035138369 0.00043052807 0.14937234
-0.034627426 -0.0014217794 0.14996457
0.004359303 -0.038963135 0.14568746
0.0083156927 -0.038965225 0.14589179
-0.035102356 0.00080916099 0.1453343
-0.034849122 -0.0032202657 0.14514518
0.0035145432 -0.038538747 0.14207685
0.0069196839 -0.038561352 0.14132595
-0.034845069 -0.0046332031 0.14040288
-0.034869481 -0.0079577826 0.14062703
-0.0027753096 -0.038909361 0.13775918
0.0016220398 -0.038707562 0.13733637
-0.034540739 -0.010019096 0.13660249
-0.0034383629 -0.039421447 0.13448182
-0.0010364428 -0.039263368 0.13316184
-0.034218159 -0.010504364 0.13213947
-0.011701541 -0.038332168 0.12858874
-0.0075376406 -0.039100379 0.13009864
-0.0031222161 -0.038902242 0.12921834
-0.012263356 -0.038730457 0.12519014
-0.0083832759 -0.038767081 0.12537873
-0.03366293 -0.022971978 0.12221366
-0.025540214 -0.03148051 0.12090468
-0.014376881 -0.038649507 0.11986238
-0.010148298 -0.038709849 0.12112391
-0.03046813 -0.02717603 0.11749572
-0.024210561 -0.034191821 0.11738205
-0.015457485 -0.038079724 0.11581594
-0.031174459 -0.027263748 0.11258537
-0.023947692 -0.03393957 0.11244184
-0.011506487 0.017339448 0.1952582
-0.0074941604 0.014517599 0.19583464
-0.0021064421 0.011010725 0.19359156
0.0012523951 0.0099305138 0.1925317
0.0092622815 0.002000367 0.19210899
0.012682953 -0.0019155317 0.19288278
0.016026456 -0.0052876966 0.19331583
0.018590536 -0.0092566153 0.1942707
-0.012185351 0.016718503 0.19394344
-0.004552735 0.0096292403 0.19335705
0.001171357 0.0075806901 0.19162658
0.0074195759 0.00014510774 0.19179112
0.010582011 -0.0035169374 0.19183433
0.013804277 -0.0071036057 0.19182134
-0.037714481 0.023895048 0.17454824
0.029985806 -0.037402902 0.16963938
-0.036060501 0.022171102 0.17008528
0.029134236 -0.038099639 0.1656076
-0.040084355 0.022205168 0.16502145
-0.036046308 0.020966429 0.16616303
-0.035385896 0.016929463 0.165692
0.025935391 -0.038776115 0.16077757
0.028791917 -0.038288202 0.16014993
-0.036532778 0.019344039 0.16074115
-0.035551269 0.015840545 0.16156426
0.025401242 -0.039166246 0.15643957
0.027699977 -0.039213158 0.15630579
-0.03725902 0.018854514 0.15747818
-0.036397368 0.014715943 0.15721372
-0.035129182 0.010993292 0.1575298
0.023083277 -0.040343095 0.15196666
0.025421211 -0.041199401 0.15062755
-0.035618164 0.013853285 0.15313694
-0.035224222 0.010249695 0.15236282
-0.035095517 0.00506033 0.15107882
0.016589249 -0.039160833 0.14830256
0.021088421 -0.039913066 0.14814666
-0.034834828 0.0079334285 0.14868015
-0.034983721 0.0043053748 0.14752001
0.011312939 -0.038851529 0.14309907
0.015641171 -0.03889798 0.14336193
-0.0353144 0.0022449754 0.14245805
-0.034889311 -0.0010643043 0.14223537
0.0089877537 -0.039108343 0.1395666
0.012178903 -0.039514177 0.13765249
-0.035473481 0.0010539275 0.13766545
-0.035290409 -0.001769647 0.13841486
0.0064886771 -0.038748644 0.13486052
0.010207096 -0.039619196 0.13433647
-0.035361372 -0.0032378882 0.13379928
-0.034612954 -0.007190478 0.134323
0.0017340332 -0.038746983 0.1314806
0.0040055439 -0.0387429 0.13030183
-0.035217535 -0.0044657402 0.12894404
-0.034778573 -0.0085574854 0.12954712
-0.00057350472 -0.038946338 0.12693208
0.0037108548 -0.038892269 0.12662083
-0.035401072 -0.0096635967 0.12519509
-0.0058240388 -0.039037999 0.12289983
-0.0023782756 -0.038798362 0.12232941
-0.035572615 -0.011263064 0.12067127
-0.007763288 -0.038899012 0.11896217
-0.034097709 -0.021524748 0.11465722
-0.013857557 -0.038294621 0.11407298
-0.009612767 -0.039000172 0.11409885
-0.034014903 -0.022846924 0.11104929
-0.027565802 -0.03060966 0.10977
-0.019066576 -0.036454648 0.10939932
-0.014225719 -0.037994649 0.10992223
-0.010594457 -0.038678668 0.11051643
-0.033589378 -0.023228617 0.10653335
-0.027725087 -0.030541413 0.10585588
-0.020186525 -0.036303654 0.10489702
-0.015541662 -0.037685931 0.10577518
-0.030484829 -0.027358092 0.10176319
-0.024373952 -0.033779427 0.10168803
0.011831778 0.0091404933 0.19380054
0.016896453 0.0027207104 0.19407603
0.019631386 -0.00026356336 0.1940378
0.0045801392 0.011081799 0.19217092
0.012243523 0.0050384537 0.19200921
0.014766617 0.0011920314 0.19326836
0.017855868 -0.0020161578 0.19362894
0.037976217 -0.032141253 0.16844133
0.035832908 -0.034085259 0.16645151
0.034193851 -0.035508085 0.16210708
-0.036080126 0.026706086 0.16497517
-0.035817869 0.023970652 0.16284442
0.034384057 -0.03524049 0.15807727
-0.036267027 0.023172855 0.15931788
0.028248981 -0.038620993 0.15290657
-0.037321951 0.021511417 0.15440792
-0.037146933 0.016854668 0.15446997
0.027809458 -0.040060632 0.14990973
-0.037082739 0.020569276 0.15020329
-0.035779677 0.016703602 0.14976478
0.022830423 -0.039081164 0.14517552
0.025415724 -0.03997511 0.14526448
-0.035437144 0.015535582 0.14584583
-0.034774683 0.011330424 0.14585993
0.02036427 -0.039090544 0.14157182
-0.034266386 0.0098120347 0.14123887
-0.034005925 0.0071310783 0.14088809
0.01578619 -0.038873233 0.13795227
0.018732226 -0.03883468 0.13693404
-0.034258686 0.0063134804 0.13613582
0.0093657505 -0.03809052 0.13112694
0.013914469 -0.039608881 0.13301897
0.017236616 -0.03959528 0.13366029
-0.03509298 0.0025475267 0.13188785
0.0077911587 -0.038168341 0.12845838
0.011879862 -0.038730785 0.12856942
-0.035013668 0.0024487413 0.12698567
-0.034984894 -0.00078985095 0.12616736
0.0017027985 -0.038478121 0.12355393
0.0064083133 -0.037982378 0.1235984
-0.035086058 -0.0034429803 0.12238628
0.0015806295 -0.037860222 0.11889064
0.0044438429 -0.037905157 0.11887819
-0.035257958 -0.0041867644 0.11750507
-0.03517925 -0.0074349195 0.11768067
-0.0053699035 -0.038283698 0.11540526
-0.0014850087 -0.037869789 0.11509281
-0.034701187 -0.0094231023 0.11325872
-0.034054033 -0.012007659 0.11281335
-0.0055138506 -0.038262144 0.11151409
-0.0030350704 -0.038045809 0.11006522
-0.034672711 -0.010029495 0.1091699
-0.034377296 -0.013214669 0.10862517
-0.0081112757 -0.038630005 0.10690206
-0.0046326183 -0.03941986 0.1056509
-0.033628702 -0.018728808 0.10371083
-0.013482867 -0.037551913 0.10277563
-0.0088921776 -0.03847827 0.10271585
-0.03029127 -0.02525389 0.099059761
-0.023719572 -0.032967605 0.098901331
-0.014985785 -0.037934475 0.098607063
-0.030340161 -0.025611887 0.094753683
-0.023817852 -0.03284606 0.094878018
-0.016712911 -0.03805827 0.094015837
-0.021034088 -0.036230329 0.090253472
0.010112545 0.012053664 0.19342259
0.0086630285 0.011798592 0.19228104
0.039864045 -0.030396191 0.16874313
0.043669187 -0.031262942 0.16734317
0.040758867 -0.032423835 0.16472411
0.039073482 -0.034404632 0.15987781
0.034292534 -0.035261501 0.15524983
0.037468344 -0.035077788 0.15509459
0.034305334 -0.03516135 0.15134406
0.036970355 -0.034895729 0.15091023
-0.037748672 0.020873424 0.14781108
0.027685877 -0.038878322 0.14170927
-0.037701879 0.020676501 0.14372721
-0.03643205 0.017060522 0.14370358
0.024447974 -0.037370376 0.13777047
0.026973384 -0.038394012 0.13989931
-0.036219776 0.01664426 0.13882744
-0.034870118 0.012566942 0.13939452
0.02154918 -0.037753727 0.13354695
-0.03612183 0.01585789 0.13432306
-0.035183381 0.011201494 0.13471076
0.019420028 -0.038549483 0.13010317
-0.035282455 0.010732769 0.12974083
-0.034428868 0.0066424701 0.13018847
0.01463009 -0.039063383 0.12642431
0.018441321 -0.039114274 0.12536663
-0.034156416 0.005954871 0.12485498
0.009910943 -0.037247058 0.1216085
0.012843381 -0.0382061 0.12218237
0.016902307 -0.039575804 0.12204272
-0.034257382 0.0037674308 0.12101299
-0.035112932 -0.0003013704 0.12047344
0.0084166629 -0.03741581 0.11753094
0.011738504 -0.037623338 0.11786562
-0.035066962 -0.0014818497 0.11607242
0.0026120991 -0.037224278 0.11357665
0.0060896762 -0.037633818 0.11358011
-0.035469547 -0.0027753375 0.11194789
-0.035148434 -0.0065395152 0.11116201
0.00059400685 -0.037873745 0.10901546
0.0039389022 -0.038004518 0.10827368
-0.0357005 -0.0038709193 0.10762334
-0.035112076 -0.0079066996 0.10633802
-0.00021932647 -0.03845825 0.10375553
0.0033632461 -0.038431622 0.10479838
-0.035221089 -0.0093080616 0.10243082
-0.034880091 -0.012677651 0.10212785
-0.0079085259 -0.038395692 0.099425614
-0.0039691422 -0.03932672 0.10057175
-0.035158664 -0.009797602 0.099293053
-0.033628177 -0.018294966 0.097470224
-0.0091098808 -0.038569503 0.09591049
-0.0039401148 -0.038387295 0.096720874
-0.034008939 -0.019291731 0.093211353
-0.014085175 -0.038436543 0.091825902
-0.010583652 -0.038368482 0.090827048
-0.030824168 -0.024542123 0.088397741
-0.024331778 -0.032940056 0.087143838
-0.015840746 -0.038241588 0.087151885
-0.011540649 -0.038563527 0.08690846
-0.024307489 -0.03268449 0.082925975
-0.016907576 -0.03755711 0.082652032
0.049076363 -0.030656599 0.1645903
0.046208471 -0.030476667 0.16200295
0.049168263 -0.030536752 0.16257545
0.044530265 -0.032492377 0.15786317
0.047019601 -0.032399967 0.15664992
0.041692827 -0.03447064 0.15377936
0.045473829 -0.033753313 0.15312099
0.040365696 -0.03507122 0.15031925
-0.038038317 0.023327645 0.14034098
0.028397938 -0.035831641 0.13508964
-0.037547227 0.022125453 0.13737643
-0.03703637 0.018742539 0.13606533
0.025915574 -0.035828017 0.13142732
0.029147713 -0.03503884 0.13140303
-0.038081516 0.021721302 0.13126922
-0.03692494 0.017633747 0.13193399
0.024304967 -0.036642876 0.12622261
-0.036516733 0.0170363 0.12701631
-0.035417691 0.01329035 0.12662351
0.022082746 -0.038623538 0.12236524
-0.034500703 0.012217672 0.12269086
-0.034131162 0.0085883271 0.12258554
0.01562522 -0.037693739 0.11850613
0.020097401 -0.038246688 0.11815679
-0.034884319 0.010684616 0.11699003
-0.034411274 0.0069328854 0.11827928
0.014669457 -0.037242305 0.11389989
0.018676396 -0.037677556 0.11424553
-0.034504049 0.0057118563 0.11388814
-0.033649825 0.0026643984 0.11326647
0.0085533513 -0.037405826 0.11016124
0.012593862 -0.037448034 0.1097582
-0.034465231 0.00089055113 0.10958278
0.0074157054 -0.037988614 0.1063922
0.011015821 -0.037905771 0.10541677
-0.034715731 -0.0013950933 0.10483962
0.0057977252 -0.037850074 0.1011737
-0.035221867 -0.0028983522 0.10184538
-0.034870245 -0.0054034255 0.10040677
0.00045814365 -0.0381376 0.097691894
0.0036739744 -0.037859373 0.097295165
-0.034431055 -0.0072818436 0.095163524
-0.034398124 -0.01108717 0.095497966
-0.0020795707 -0.037797421 0.092958391
-0.034842432 -0.0087983487 0.090492964
-0.034625314 -0.011991117 0.091636598
-0.0067271814 -0.037958264 0.089454889
-0.0037412439 -0.037851885 0.088228047
-0.034788553 -0.013226651 0.086681247
-0.013126292 -0.037671961 0.083266139
-0.0080828415 -0.037740733 0.084509313
-0.0044112429 -0.038364612 0.084799826
-0.03517564 -0.014519957 0.082479894
-0.03056033 -0.02270123 0.082173526
-0.018490855 -0.035951752 0.080317676
-0.014800509 -0.037455432 0.080026507
-0.010376774 -0.037698116 0.080173016
-0.031035591 -0.022885904 0.077425301
-0.024862247 -0.032050077 0.077028394
-0.015191603 -0.037075631 0.07594496
-0.028528491 -0.027411081 0.072849095
-0.020816069 -0.034377001 0.071828187
0.049609523 -0.031191025 0.1597532
0.048738889 -0.033048052 0.1570822
0.032028664 -0.034551673 0.12973005
0.03010531 -0.034552652 0.12525666
-0.038560878 0.021249073 0.12645477
-0.037374072 0.019424833 0.12505096
0.027513206 -0.036303364 0.12094963
-0.036981381 0.02258529 0.12234944
-0.036041312 0.018328685 0.12109685
-0.034939501 0.014428579 0.11986732
0.022338394 -0.03800422 0.11514437
0.025960291 -0.037639953 0.1164071
-0.035165895 0.017637871 0.11777353
-0.035433892 0.013561034 0.11628246
0.020602252 -0.038035043 0.11140573
0.025311871 -0.038134638 0.11198193
-0.03530091 0.01247385 0.11232919
-0.03452814 0.0083931396 0.11057562
0.015429119 -0.03773088 0.10748392
0.019823089 -0.038278192 0.10725582
-0.034072489 0.0067554405 0.10711718
-0.033555984 0.0032929517 0.10688603
0.013775119 -0.038105913 0.10273707
0.017659888 -0.038313791 0.10305649
-0.033039011 0.0030699102 0.10167068
0.0083909854 -0.037926577 0.098789632
0.012238013 -0.038028184 0.098430991
-0.033281848 0.00035976805 0.097095132
0.0062791891 -0.03792347 0.094884396
0.0097473599 -0.037565637 0.092793405
-0.034578905 -0.0039895857 0.093947887
0.0013502203 -0.037604019 0.091355979
0.004563868 -0.037305735 0.089924514
-0.034938797 -0.0064136619 0.089298904
-0.0005156491 -0.038083535 0.0865376
0.0037582498 -0.037359744 0.085807383
-0.035244294 -0.0078076134 0.084478438
-0.03566378 -0.011589408 0.084266245
-0.0066027734 -0.038087979 0.081808686
-0.0030263662 -0.038262211 0.081504524
0.00024798326 -0.038320251 0.082140744
-0.034965973 -0.0081344824 0.0799734
-0.03532901 -0.012320017 0.079541206
-0.0076196929 -0.037779719 0.078123212
-0.0044472534 -0.038148127 0.078559577
-0.035440899 -0.013917858 0.075799286
-0.01374129 -0.037830859 0.073456585
-0.010291236 -0.037333697 0.073760986
-0.031605612 -0.022242801 0.070533395
-0.022812039 -0.032788422 0.069803059
-0.012000115 -0.037115548 0.069986522
-0.028125096 -0.026264651 0.066214502
-0.021543104 -0.033322062 0.065463483
0.03487286 -0.03408641 0.12709099
0.038187161 -0.033216793 0.12501878
0.033161677 -0.033301365 0.12162524
0.035884582 -0.033034962 0.1221112
-0.036755823 0.024467668 0.11833
-0.035934336 0.021673622 0.11823833
-0.037388347 0.022908725 0.11438477
-0.036090709 0.019646622 0.11503047
0.024991892 -0.03836501 0.10925096
-0.038739465 0.021774529 0.11060822
-0.036515124 0.01895541 0.11037368
-0.035208758 0.015060971 0.1096676
0.020599253 -0.03786784 0.1052978
0.02471748 -0.03794283 0.10465497
-0.034356996 0.014050063 0.10528165
-0.03404893 0.010234788 0.10469854
0.020196687 -0.03755749 0.10081136
0.022498103 -0.038241055 0.10143441
-0.034280099 0.012709098 0.10155851
-0.033630289 0.0088865552 0.10083598
0.017358817 -0.037839834 0.09639883
-0.034358911 0.0078885918 0.096139193
-0.033237152 0.0038621528 0.096808195
0.012785775 -0.037511401 0.092623055
0.015629267 -0.037659518 0.092669308
-0.03506751 0.0059763286 0.091629922
-0.033726361 0.0022091232 0.092059791
0.0067224307 -0.036875643 0.087992668
0.011044225 -0.037307534 0.087862253
-0.033914331 0.0014211386 0.086972654
-0.033341158 -0.0021418435 0.087191761
0.0055283662 -0.037318982 0.084281504
0.009121717 -0.037620582 0.083350837
-0.034163892 -0.00022683106 0.082537055
-0.034117319 -0.0026195534 0.082740486
0.0038526412 -0.037427925 0.07963109
-0.034234468 -0.004776312 0.077762306
-0.003010463 -0.037192158 0.075165451
0.001389049 -0.037540428 0.075414956
-0.035360679 -0.0080995429 0.073981822
-0.035152506 -0.011381908 0.072533309
-0.0081083039 -0.036833897 0.071709454
-0.0037214365 -0.036763903 0.071205199
-0.035979398 -0.0084013967 0.069311917
-0.034830421 -0.01200172 0.069222093
-0.0096145077 -0.036168098 0.066690803
-0.0049366672 -0.036618445 0.066982269
-0.034614902 -0.013231122 0.064387321
-0.030736793 -0.021643898 0.06290108
-0.019513804 -0.033744641 0.062157214
-0.010394413 -0.035960045 0.062169135
-0.031077271 -0.021756498 0.059192717
-0.024728609 -0.029432705 0.0586676
-0.015626334 -0.034627378 0.057985961
-0.011953874 -0.035395078 0.058591187
-0.031654347 -0.022372853 0.05490005
-0.025545763 -0.030009178 0.054238975
-0.017250801 -0.035444733 0.053643644
-0.029525325 -0.026751842 0.050575197
-0.022581883 -0.033499811 0.049772024
0.041906405 -0.030585269 0.12758934
0.044072792 -0.032321841 0.12663537
0.041079935 -0.03222397 0.12460089
0.042821407 -0.03341762 0.12377292
0.039151657 -0.032842964 0.11907369
0.04039773 -0.035573445 0.11999935
0.034424379 -0.031976078 0.11534894
0.036930554 -0.031927314 0.11605144
0.033933252 -0.032298893 0.10971016
0.030375833 -0.035547934 0.10706788
-0.036255717 0.021197332 0.10653341
0.028755166 -0.036973052 0.10355431
-0.03487942 0.020842424 0.10271674
-0.034016259 0.017900579 0.10188007
0.025198448 -0.036761701 0.098238528
-0.0343953 0.01534375 0.098261595
0.020779584 -0.037409812 0.094834924
0.024105798 -0.03650111 0.092573285
-0.035368755 0.013461594 0.09360218
-0.035431005 0.0097082006 0.093501329
0.019322347 -0.03699436 0.088992536
-0.036260728 0.012779715 0.090334535
-0.035250939 0.009009392 0.089657128
0.01322907 -0.037408892 0.084650874
0.017022897 -0.037746593 0.085069597
-0.034744419 0.0069027273 0.084801495
-0.034370802 0.004274589 0.084416926
0.01245092 -0.037445441 0.080468595
0.015761796 -0.037184879 0.081063569
-0.034076985 0.0025080759 0.080012977
0.0056260191 -0.037526809 0.076614201
0.0095123975 -0.037657395 0.07724005
-0.033854026 0.0007379055 0.074598014
-0.03417328 -0.0020923913 0.075254619
0.0049536601 -0.036877714 0.072506905
0.0081695281 -0.037262917 0.072955072
-0.034723341 -0.0035733851 0.071166873
-0.00064180605 -0.036345936 0.068159282
0.0019037947 -0.036785711 0.068489254
-0.034586068 -0.0050280029 0.065611362
-0.035091698 -0.0096585555 0.066354096
-0.0028080977 -0.036427587 0.063829839
0.0012789797 -0.0366439 0.064075649
-0.034782227 -0.0099563962 0.061730146
-0.0076856501 -0.035896387 0.059488237
-0.0047446843 -0.03627567 0.059432566
-0.03463421 -0.012397117 0.057536542
-0.0099516334 -0.035615437 0.055423081
-0.034337737 -0.012722759 0.052900255
-0.033179525 -0.021123063 0.052739859
-0.012101375 -0.036354356 0.05079782
-0.032325607 -0.022039779 0.048252642
-0.025875516 -0.02993669 0.047011733
-0.017907005 -0.036419779 0.047397494
-0.01441757 -0.037263572 0.046364665
-0.028920528 -0.025692513 0.043236673
-0.022291847 -0.033480067 0.042884171
0.039303571 -0.031931594 0.11315596
0.042851981 -0.033158641 0.1115731
0.034679804 -0.031586405 0.10898012
0.039438326 -0.031990565 0.10847515
0.042476326 -0.03434065 0.10786784
0.038059797 -0.032144159 0.10477829
0.041181624 -0.034569047 0.10499191
0.035885725 -0.032549389 0.10067838
-0.034758974 0.02342182 0.10055721
-0.034729403 0.022154311 0.096732616
-0.034709722 0.017753381 0.095171154
0.028333966 -0.034797534 0.091478765
-0.035675429 0.020707574 0.092147171
-0.035718068 0.016934663 0.092027068
0.024128322 -0.036342487 0.087348282
-0.035985015 0.019425109 0.088842511
-0.035470527 0.015149686 0.08730495
-0.034538392 0.01133049 0.086004198
0.019966109 -0.03785383 0.083200753
0.022955919 -0.037335761 0.0833444
-0.033671599 0.014957817 0.083646536
-0.034500085 0.01082798 0.082794964
0.018854104 -0.037250288 0.078680933
0.023216253 -0.036974091 0.078873277
-0.034460343 0.0091561405 0.078803658
-0.033735566 0.0054670898 0.078258693
0.012006264 -0.037081961 0.073797166
0.017035836 -0.037176475 0.074956119
-0.035190467 0.0079867067 0.073582351
-0.034307748 0.0041634869 0.074696958
0.0067550959 -0.036177311 0.069019675
0.011875739 -0.036697377 0.069847226
0.016112514 -0.036524072 0.070130169
-0.035745688 0.0064064292 0.070561051
-0.035114776 0.0025220364 0.069931328
0.0059674103 -0.036054198 0.065923572
0.0093134549 -0.036866963 0.06624788
-0.035393342 0.0014696047 0.06533289
-0.034796041 -0.001960136 0.065105498
-0.00028165802 -0.035689503 0.060270071
0.004498085 -0.036166556 0.061944127
0.0087581202 -0.036317531 0.061655045
-0.034013636 -0.0036051171 0.060291827
-0.0016239043 -0.036091208 0.057072997
0.0016348977 -0.036042325 0.05723393
-0.034004573 -0.0053859511 0.057051122
-0.033912931 -0.0083410507 0.054416358
-0.0074717496 -0.035352573 0.051685631
-0.0032064859 -0.036259152 0.053277493
0.00087352097 -0.03660664 0.052713454
-0.034000907 -0.01054679 0.050055206
-0.0082938382 -0.036058389 0.049399793
-0.0049861725 -0.036825359 0.049212098
-0.035135262 -0.01315617 0.04726088
-0.010461067 -0.036812443 0.044766903
-0.0068617463 -0.036842514 0.045797169
-0.035697222 -0.013478618 0.04352653
-0.032707933 -0.020753235 0.042342842
-0.022878895 -0.031237828 0.039546788
-0.012270876 -0.037228242 0.04042536
-0.032575034 -0.021933481 0.037959933
-0.025585096 -0.028742697 0.037008941
-0.018294029 -0.035932612 0.036248147
-0.014082783 -0.037402377 0.036003947
-0.02937085 -0.025585942 0.03382653
-0.022720069 -0.033042658 0.031931698
-0.022923646 -0.033610702 0.027545393
0.045301639 -0.033116829 0.1082626
0.039380755 -0.032000013 0.10197794
0.041565828 -0.034920633 0.10224235
0.038232688 -0.032867748 0.097289264
0.040376827 -0.035167493 0.097533464
0.034317896 -0.031488169 0.090725899
0.039717332 -0.033404421 0.092909396
-0.035220057 0.024793863 0.093959928
0.032673933 -0.032958854 0.088214517
-0.035600886 0.024745975 0.090059936
0.029226787 -0.034379084 0.085116029
0.031855144 -0.033591185 0.08276242
-0.0348696 0.022295013 0.084685385
-0.034927018 0.018481832 0.084600031
0.028169993 -0.035581864 0.079981506
-0.033599347 0.017855488 0.080025017
0.02523683 -0.03635855 0.074931026
-0.034054302 0.015881265 0.075564027
-0.034152083 0.012642532 0.075752914
0.019607611 -0.036716036 0.071387351
0.024086561 -0.036708962 0.070600629
-0.035636812 0.013965922 0.070654988
-0.035252053 0.011810659 0.071582913
0.018052647 -0.037194658 0.067026734
0.024179339 -0.039187334 0.065911174
0.026345206 -0.040630218 0.066496909
-0.03522405 0.0092508113 0.067055106
0.012563425 -0.03679711 0.063395739
0.016081635 -0.037250996 0.062561691
-0.035566825 0.0071735131 0.063738346
-0.035000719 0.0046893852 0.061241925
0.0070018265 -0.03555489 0.058045566
0.010598596 -0.036781996 0.058731377
0.014908967 -0.03731719 0.058633149
-0.03330636 0.0026904726 0.057465672
-0.033532776 2.460368e-05 0.056948364
0.0057078097 -0.035511117 0.054548919
0.008951473 -0.035870083 0.053902507
-0.033380877 -0.0023649577 0.052878976
0.0038942639 -0.035906658 0.049470901
-0.032953821 -0.0036735535 0.049097896
-0.03300868 -0.0061298059 0.048379838
-0.0016492661 -0.036442555 0.045625508
0.0012438949 -0.03656397 0.045558631
-0.033544861 -0.0082069803 0.044006944
-0.0042111333 -0.036041558 0.0416044
-0.034663539 -0.011293716 0.039495826
-0.0094306683 -0.036618643 0.036546052
-0.0056994986 -0.036151316 0.037570417
-0.035241172 -0.012401114 0.035114408
-0.010028893 -0.036241777 0.032391727
-0.0060468381 -0.035551429 0.033849537
-0.032295883 -0.02079186 0.030046105
-0.026068639 -0.02791743 0.028832972
-0.013692102 -0.036340341 0.028786421
-0.031016722 -0.020738088 0.025500357
-0.025515117 -0.028690957 0.025233567
-0.018524058 -0.035569988 0.023959816
-0.022654215 -0.032835566 0.020074546
0.0385167 -0.031045761 0.091354728
0.04135653 -0.033374101 0.090642333
0.03793633 -0.031481467 0.086707294
0.040880963 -0.033117611 0.086350441
0.03522126 -0.033316743 0.081827581
0.033830579 -0.03510157 0.078285336
0.036545314 -0.036013518 0.077256262
-0.033929966 0.023947665 0.078094244
-0.033970017 0.020235803 0.076902568
0.031178571 -0.034931254 0.073809922
-0.035152256 0.022980595 0.074033737
-0.034766991 0.018662436 0.073560476
0.025087081 -0.036487054 0.068523169
0.028411517 -0.036479868 0.069447696
-0.037490115 0.021330431 0.069904268
-0.035924248 0.017465793 0.070011437
0.022912238 -0.036904834 0.065419555
0.027049843 -0.039200116 0.066042781
-0.037521861 0.01991258 0.06539613
-0.036582325 0.016209897 0.065518677
-0.034953881 0.012742668 0.064597547
0.01988427 -0.037349425 0.062117815
0.022538379 -0.037787288 0.060527742
0.025377773 -0.039648704 0.059668422
-0.036023293 0.015606693 0.061550975
-0.034762908 0.011511764 0.060614049
0.016801193 -0.037216209 0.056951821
0.020752676 -0.038018566 0.055930316
0.025899336 -0.041371793 0.055527747
-0.033857103 0.0095685571 0.057201624
-0.032727629 0.0067972103 0.055222452
0.012004413 -0.036038913 0.053268135
0.015544342 -0.036788635 0.051340401
0.019153895 -0.038306106 0.050860584
-0.032887582 0.0036235144 0.051381886
-0.032936312 0.0011532977 0.050652444
0.006687548 -0.035488352 0.047579408
0.009778603 -0.036054134 0.048196316
0.01351128 -0.036537714 0.046792746
-0.033491239 0.0033654375 0.046533883
-0.033217117 -0.00048712268 0.04674983
0.0052845078 -0.036122687 0.043960869
0.0087749334 -0.036609054 0.043113053
-0.033596449 -0.0020893645 0.042468309
-0.033091102 -0.0057276562 0.041781127
-0.00091550313 -0.035484962 0.039290011
0.002521595 -0.035914548 0.039174855
0.0059416741 -0.036466874 0.038392305
-0.033979088 -0.0032353941 0.037122548
-0.033563666 -0.0065368647 0.037690699
-0.0017760545 -0.035564709 0.035016477
0.0014821775 -0.036270022 0.034406364
0.0047947336 -0.036841601 0.034447491
-0.03460072 -0.0079116216 0.033182204
-0.0049038762 -0.035720211 0.030651987
-0.00089991465 -0.03590019 0.030169785
-0.035136685 -0.010598036 0.028582871
-0.034900695 -0.014004564 0.02827698
-0.009007873 -0.035174169 0.026262224
-0.0053131348 -0.035299823 0.026031315
-0.03528044 -0.011638946 0.02384764
-0.031643443 -0.019436006 0.023486316
-0.011528847 -0.035286866 0.021923304
-0.031685811 -0.019785097 0.018811345
-0.025774661 -0.027458662 0.018957675
-0.01687485 -0.035445068 0.018305123
-0.01313346 -0.035253569 0.016907394
-0.028998425 -0.024022138 0.014185488
-0.022750197 -0.032139245 0.014028966
-0.022060286 -0.032404568 0.0093522668
0.040785175 -0.033085126 0.080137849
0.035707377 -0.034437504 0.074818194
0.038000505 -0.034684233 0.077869833
0.032924011 -0.034607705 0.070150137
0.030048138 -0.037007097 0.058232725
-0.035755359 0.017003983 0.057659626
0.023092113 -0.038743779 0.053600967
0.025437273 -0.040717877 0.053526223
-0.035565924 0.016756218 0.054266751
-0.033129182 0.01321725 0.052997172
-0.032452308 0.0089828419 0.052434266
0.02197966 -0.038727902 0.048476815
0.025622873 -0.039733987 0.048395097
-0.032615706 0.01282659 0.049336791
-0.032132268 0.0081226453 0.048864961
0.01602288 -0.037021037 0.045040667
0.020069294 -0.037847348 0.044181824
-0.033017132 0.0065329894 0.044477165
0.0097331246 -0.037000287 0.040182054
0.014962501 -0.036734309 0.04085356
0.018984314 -0.037626296 0.041473925
-0.03342602 0.0052000284 0.040076196
-0.033617884 0.0013290197 0.039149821
0.0087398114 -0.036648616 0.03626883
0.012806505 -0.036277927 0.035768867
-0.034061786 0.0035999892 0.0359568
-0.03370215 0.00074812211 0.034843743
0.0081223147 -0.036693163 0.031617343
-0.034180082 -0.0018239431 0.030934751
0.0019030105 -0.03561645 0.027703583
0.0059080999 -0.036115259 0.027381718
-0.034269102 -0.0032296181 0.024797142
-0.034804877 -0.0064406991 0.02701813
-0.0046573114 -0.034925751 0.022862375
9.6905977e-05 -0.035062779 0.023260653
-0.034771767 -0.0072730808 0.02202785
-0.0051643569 -0.034872457 0.019138157
-0.034319159 -0.0095291547 0.017053545
-0.033576231 -0.012858634 0.017593861
-0.010905157 -0.03474595 0.014640152
-0.0074298903 -0.034692686 0.015043139
-0.012398633 -0.035097074 0.010962427
-0.0085064871 -0.034612019 0.010831773
-0.034776509 0.017907578 0.051029861
-0.034797408 0.017978467 0.047126472
-0.033237293 0.014454556 0.04700762
0.024157714 -0.037446037 0.041544259
0.026057849 -0.038012393 0.041814089
-0.033098988 0.013468005 0.042022765
-0.032943062 0.0092427135 0.042908549
0.017850894 -0.03623081 0.037047803
0.020944517 -0.03707733 0.037407875
-0.033120103 0.011959695 0.038235724
-0.033423893 0.0085330661 0.0376423
0.01676812 -0.035969473 0.033210397
0.019588165 -0.036796901 0.031983674
-0.034176275 0.0066240467 0.033207953
0.013705899 -0.036383353 0.028767645
-0.034354921 0.0049114767 0.028190553
-0.033997994 0.0017777458 0.028260171
0.0086818542 -0.036563687 0.024957359
0.012058217 -0.036633886 0.024457574
-0.034396175 0.0042128833 0.023801029
-0.033935629 0.00043276884 0.024995267
0.003342215 -0.034791019 0.020541131
0.0070244754 -0.036012746 0.021169603
0.011640887 -0.036940724 0.021604955
-0.033793882 -0.0015482698 0.020219743
-0.033944201 -0.0048554232 0.017874658
0.00063348189 -0.034697246 0.016866148
-0.033796869 -0.0020749811 0.016125083
-0.034296833 -0.0062207794 0.014503956
-0.0045057964 -0.034942731 0.012351573
-0.00011960976 -0.034852162 0.012287199
-0.034740962 -0.0076635657 0.010864496
-0.034408305 -0.012246651 0.010482311
-0.0068378402 -0.035262737 0.0083206892
-0.033984791 0.018431518 0.040547192
-0.03318036 0.016820565 0.039884567
0.025160333 -0.036370985 0.036021292
0.026585152 -0.037376527 0.03573668
-0.03277887 0.015601678 0.035539806
0.023346845 -0.036393497 0.031678379
0.025950527 -0.036266401 0.030043662
-0.033668246 0.0118871 0.032068372
-0.034364812 0.0087896045 0.029895246
0.017098805 -0.036678553 0.027968943
0.020451764 -0.037258759 0.026923358
-0.034148026 0.01189888 0.025775015
-0.034433398 0.0089939907 0.026531577
0.01580051 -0.036816962 0.02292943
0.01866024 -0.037392672 0.021949828
-0.034411024 0.0076263733 0.021497965
-0.032868862 0.0035457062 0.021046102
0.0092344349 -0.03556636 0.017891586
0.013856658 -0.036627006 0.018294752
-0.033605654 0.0056019453 0.016980171
-0.033151686 0.0025603287 0.016945124
0.003898018 -0.034610517 0.014036477
0.0081442157 -0.034998089 0.014096141
-0.033701189 -0.00017559901 0.012273431
0.0036044922 -0.03411258 0.0089414716
0.0067039691 -0.034143936 0.0097839236
-0.035313636 -0.0055761328 0.0081143975
-0.033233698 0.019842809 0.033851445
-0.032648183 0.018057121 0.032320797
0.027611788 -0.036234707 0.027935028
-0.033538893 0.020854641 0.028338015
-0.032405607 0.017096194 0.028768599
0.025549436 -0.0363033 0.024277449
-0.032983623 0.016663954 0.024519801
0.02165989 -0.036877949 0.01981616
0.025374068 -0.036546957 0.019566
-0.034637019 0.011805238 0.020616412
0.016529411 -0.036880784 0.016351402
0.019207634 -0.036705665 0.015699446
-0.034533888 0.012320315 0.015817523
-0.034499548 0.0077972524 0.015576124
0.010590171 -0.035206132 0.010198295
0.014779114 -0.035072997 0.011501014
0.017736044 -0.035636157 0.012660444
-0.034167252 0.0075017037 0.011096656
-0.033438466 0.0036994051 0.011345685
-0.033931922 0.022326292 0.026266217
-0.033823073 0.020786304 0.023211658
-0.033223666 0.018275369 0.022632539
0.027091691 -0.036493652 0.018487334
-0.033141311 0.017219 0.018092453
0.022800837 -0.035625372 0.012852252
0.025383649 -0.035596684 0.013466775
-0.033944156 0.015721975 0.01345551
0.020592144 -0.034733769 0.0085764527
-0.034308203 0.013983649 0.0091186166
-0.034398358 0.0092347562 0.0086458325
-0.031958476 0.023240324 0.011170447
-0.032025486 0.020736629 0.00931108
