# .PCD v0.7 - Point Cloud Data file format
VERSION 0.7
FIELDS x y z
SIZE 4 4 4
TYPE F F F
COUNT 1 1 1
WIDTH 1075
HEIGHT 1
VIEWPOINT 0 0 0 1 0 0 0
POINTS 1075
DATA ascii
0.030950595 0.030604392 0.18920457
0.024346519 0.032784667 0.18955913
0.028295746 0.034106113 0.18686873
0.032238167 0.033190392 0.18378782
0.018859347 0.027411787 0.19135955
0.011547634 0.029905239 0.19079521
0.0015303614 0.034077369 0.19135797
-0.0026243944 0.035298135 0.19074509
-0.0057173176 0.036643524 0.18994373
0.031008046 0.026946431 0.18939245
0.021652073 0.030999996 0.1899817
0.012101587 0.033189047 0.1891765
0.002655006 0.036526211 0.18851101
-0.002061964 0.037160121 0.18759036
-0.0052491296 0.037576359 0.18787211
0.035885617 0.026441094 0.18405491
0.033824611 0.028620198 0.18573123
0.018731287 0.034691289 0.18457428
0.0083809122 0.036109287 0.18327701
-0.00022660289 0.037258785 0.18450186
0.037581421 0.028336968 0.18033621
0.033893541 0.031950459 0.18132988
0.02405552 0.03510512 0.18081236
0.014829166 0.036233082 0.17913917
0.037902534 0.029977493 0.17651677
0.034140252 0.03276955 0.17675337
0.024484947 0.03551279 0.1756742
0.016977165 0.037437659 0.17471099
0.034152269 0.033568889 0.17318761
0.025739383 0.036211435 0.17276388
-0.00080665853 0.028481126 0.19213313
-0.004987075 0.030575676 0.19218481
-0.0096747093 0.031381756 0.19138128
-0.014042662 0.032999732 0.19111663
-0.01972967 0.034982726 0.19174343
0.031941853 0.017796159 0.18945366
0.028022872 0.020056028 0.19028297
0.023365695 0.022378771 0.19132778
0.014689177 0.025322901 0.19178841
0.0057237376 0.029150441 0.19098458
-0.0040617594 0.033772174 0.1919505
-0.00824349 0.035183083 0.1904842
-0.013328573 0.036516108 0.18963861
-0.019124374 0.036059346 0.18842891
0.034073256 0.020174436 0.18711478
0.030137543 0.022782655 0.18960202
0.026199957 0.024718814 0.18999928
-0.0074330401 0.037360072 0.18598294
-0.012129068 0.037812985 0.18540761
-0.015777927 0.037618473 0.18412262
0.036250304 0.022881676 0.18464324
-0.0020944206 0.037059821 0.18181607
-0.0069442457 0.036936317 0.18064207
-0.011702931 0.037698925 0.18115535
0.039925132 0.02322324 0.17861527
0.038447749 0.024980538 0.18070588
0.0088672191 0.036826491 0.17743278
-0.0015946273 0.036786996 0.17674235
0.044968702 0.023189463 0.17224175
0.042012542 0.025100065 0.17416912
0.039632048 0.028400533 0.17523557
0.014302715 0.036875915 0.17362523
0.0045964494 0.036894161 0.17214516
0.046043642 0.02363717 0.17095801
0.042367555 0.026034102 0.16976619
0.038818285 0.028693862 0.17009568
0.034673169 0.032181587 0.16996634
0.024512881 0.035362124 0.16952908
0.015548477 0.036744226 0.16887823
0.038982019 0.028505202 0.16631439
0.03417749 0.032008391 0.16558284
0.025305025 0.034730915 0.16495219
0.029747181 0.03422761 0.16156924
-0.019933909 0.027401514 0.19374675
0.021121662 0.015972853 0.19147122
0.012283584 0.019140678 0.19133487
0.0036162743 0.023278726 0.19155556
-0.0020038644 0.024736026 0.19191697
-0.0065613491 0.026826959 0.19241261
-0.01111607 0.028018108 0.19186115
-0.015918944 0.029235337 0.19165078
-0.019090053 0.031214783 0.19242552
-0.023865536 0.033726655 0.18980905
0.035004936 0.012297162 0.18809035
0.032383211 0.014495237 0.18954173
0.028401986 0.016545925 0.1907233
0.024158452 0.016539412 0.19092342
-0.01986919 0.036166441 0.18646127
-0.02401806 0.035916913 0.18616056
0.036102429 0.014803639 0.18521166
0.034473665 0.016746156 0.18710041
-0.018939393 0.036758073 0.18277204
-0.023176735 0.037386023 0.18197826
0.03791976 0.017258463 0.18122101
-0.011635557 0.037668888 0.17867452
-0.016916554 0.03718695 0.17804909
-0.021848895 0.037572909 0.17784268
0.040741786 0.019253258 0.17706659
-0.0017928248 0.037546311 0.1736733
-0.0066741835 0.037129421 0.17530388
-0.01143482 0.037812643 0.1743843
-0.01479602 0.037831359 0.17346293
0.048978195 0.018740695 0.17133358
0.045287929 0.020139901 0.17319626
0.042835355 0.022347331 0.17484617
0.0029228833 0.036678221 0.16969308
-0.0012431312 0.037483975 0.16962123
-0.0060092472 0.038229529 0.16965443
-0.01058269 0.03843309 0.169424
0.05558496 0.017481817 0.16783085
0.05131124 0.02075094 0.16866833
0.047239013 0.023610217 0.1688914
0.0443042 0.025297079 0.16867766
0.0092794709 0.036340442 0.16606134
-0.0010051206 0.037733383 0.16611731
-0.0056034559 0.038840279 0.16548169
0.056845281 0.018800341 0.16411248
0.051789597 0.021675175 0.16436574
0.047521915 0.024194062 0.16426498
0.043267127 0.026231293 0.16428936
0.039079297 0.028279556 0.16340649
0.035831392 0.030687779 0.16301447
0.019991061 0.035746168 0.16289642
0.010876849 0.035434335 0.16250271
0.050575405 0.022705525 0.16048419
0.047684558 0.023920631 0.16039854
0.043267682 0.026366996 0.15987942
0.039266065 0.028652966 0.15924141
0.034916189 0.031565379 0.1597183
0.025152791 0.03493771 0.15880838
0.016095445 0.035347994 0.15832436
0.038373798 0.029584358 0.15556628
0.035246387 0.031234287 0.15521294
0.024953309 0.034643181 0.15405762
-0.019697988 0.020147983 0.19533855
-0.010527946 0.019316889 0.19179195
-0.014102853 0.020958889 0.19174963
-0.01897971 0.022782113 0.19303578
-0.020566715 0.026003774 0.19464001
0.028762704 0.0070114266 0.18989661
0.025273921 0.0091254888 0.19106263
0.020547263 0.011952231 0.19150478
0.015298909 0.013886238 0.19105041
0.0063560265 0.016171353 0.19195858
-0.003151936 0.019772522 0.19137356
-0.0085566435 0.022008579 0.19195938
-0.012780092 0.024100244 0.19199392
-0.016803313 0.024589695 0.19119835
0.034925971 0.0088309962 0.18703431
0.030768124 0.0089156339 0.1891923
0.026390009 0.011971034 0.1901868
0.036589116 0.011211108 0.1832945
0.040180717 0.01064999 0.17653161
0.038386218 0.011955034 0.17911813
-0.022685636 0.037427183 0.17475429
0.042409338 0.013345286 0.17437404
0.039989457 0.014867372 0.17707214
-0.017827801 0.036635119 0.17192233
-0.021912415 0.037014775 0.17101219
-0.025902588 0.037267312 0.17042622
0.053494297 0.011432564 0.16949219
0.048308253 0.01360095 0.17088568
0.045483369 0.015343052 0.17237034
-0.011842269 0.038299859 0.16713062
-0.016682632 0.036963023 0.16684461
-0.021236576 0.0369558 0.16619015
0.069008693 0.0096136704 0.16528684
0.063527368 0.010282705 0.16601217
0.059709944 0.012441155 0.16691369
0.055073995 0.01460949 0.16856259
0.051006719 0.016334018 0.16984645
-0.0015125182 0.036165312 0.16222572
-0.0060690232 0.037426103 0.1616925
-0.011039036 0.038406242 0.16344935
-0.015615426 0.037816063 0.16266257
0.064719275 0.011781238 0.16302931
0.061166652 0.015364252 0.16278499
0.056290165 0.01864576 0.16151461
0.052844428 0.019847164 0.16126075
0.0095070824 0.034351211 0.15903988
-0.001161539 0.036095288 0.157821
-0.0060354508 0.037181813 0.15779546
-0.010370091 0.037762966 0.15848064
-0.014146616 0.03831036 0.15899232
0.064016968 0.012939751 0.1583508
0.061470471 0.015727822 0.15768009
0.056764834 0.018421793 0.15774649
0.051803067 0.020217028 0.15718529
0.047588602 0.023008835 0.15698528
0.043805335 0.025229137 0.15679318
0.040707164 0.027001472 0.15652281
0.014906726 0.034713745 0.15517014
0.0054668719 0.035765752 0.15362889
0.060816847 0.017143004 0.15340105
0.057372209 0.019107299 0.15267485
0.052172415 0.020880418 0.15226549
0.048008353 0.023358772 0.15259957
0.043703996 0.025352146 0.15258935
0.039721642 0.027642783 0.15262246
0.035694633 0.029903401 0.15196323
0.025500819 0.033697691 0.15107623
0.01549275 0.035011191 0.15039414
0.0073639615 0.035917945 0.15048784
0.058716632 0.01997499 0.1498161
0.051960438 0.022035375 0.14913017
0.048387054 0.02377345 0.14917606
0.043836117 0.025899285 0.14841861
0.039557088 0.027981523 0.14847416
0.035457097 0.030048821 0.14767057
0.02520562 0.033402484 0.14653504
0.034473211 0.030745972 0.14377677
0.026522484 0.034079142 0.1425913
-0.016606946 0.014368375 0.19338375
-0.019772062 0.01763894 0.19616169
0.02246738 0.0028972831 0.19195086
0.017987574 0.0046742349 0.1920734
0.01255891 0.0068066046 0.19101912
0.004007793 0.011139426 0.19206306
-0.00034879846 0.01299676 0.19193229
-0.0050661704 0.014575407 0.19194898
-0.010258457 0.01565697 0.19190389
-0.015533557 0.017627411 0.19230753
-0.018067667 0.019762676 0.19280589
0.031717923 0.0017951075 0.18840149
0.028477862 0.0033450546 0.19016141
0.024009887 0.0058427784 0.19167206
0.01891565 0.0079846866 0.19150376
0.013601733 0.0094880471 0.19092527
0.034173202 0.0041800709 0.18643653
0.038073 0.005311151 0.17939976
0.036794316 0.0068753064 0.18180764
0.040311981 0.0071708066 0.17604369
0.048940275 0.0057493486 0.17048359
0.04585845 0.0075401366 0.17201948
0.042785004 0.0096727433 0.17419532
-0.027975557 0.036697332 0.16727746
0.057244685 0.0059592593 0.16804156
0.052189969 0.0077012554 0.16972557
0.047976837 0.01030329 0.17102191
-0.022574818 0.037708696 0.16438943
-0.026376259 0.037093967 0.16447702
0.066338249 0.0048960447 0.16545108
0.062729955 0.0058889762 0.16596854
0.059815597 0.0073932372 0.16698575
-0.017480865 0.037286568 0.15993759
-0.021307666 0.037741046 0.1603817
-0.024332415 0.038674071 0.16008765
0.06716761 0.0085448679 0.16317517
0.06552384 0.010364568 0.1600399
-0.0028495947 0.03643186 0.15542209
-0.0058046961 0.037512809 0.15523544
-0.011138257 0.038109992 0.15595907
-0.016185295 0.037862625 0.15601766
-0.021337535 0.037431937 0.1564151
-0.023690101 0.039960515 0.15727571
0.064185537 0.011082461 0.15536076
0.062928021 0.013842419 0.15480679
-0.00081502181 0.036434591 0.15180522
-0.0057280939 0.037373595 0.15138492
-0.010520449 0.038236856 0.15179828
-0.014238459 0.038603369 0.15205896
0.062294506 0.014639856 0.1510464
0.005685227 0.036251951 0.1480695
-0.0048033362 0.037116159 0.14642325
-0.0099367285 0.03826049 0.14738911
0.061664008 0.016017847 0.14818755
0.057567447 0.018585658 0.14651883
0.052937634 0.021219708 0.14645129
0.048437729 0.0233275 0.14605084
0.044221796 0.024256382 0.14491791
0.040028758 0.026655126 0.1452027
0.037061527 0.028891154 0.14526972
0.015531171 0.034385413 0.14430517
0.0061891982 0.035897456 0.14274901
-0.0019547008 0.037468139 0.14302078
0.057703823 0.018686071 0.14233214
0.052627392 0.021142667 0.14226633
0.048516713 0.022764977 0.14189053
0.043938383 0.023990814 0.14131448
0.039732847 0.02689576 0.14120275
0.036135174 0.029755823 0.14148569
0.025059296 0.03392851 0.14033794
0.016577352 0.034336068 0.13980165
0.035216276 0.02972232 0.13605478
0.026163824 0.033875193 0.13588315
0.030733071 0.032552026 0.13230252
0.015206887 -0.0015878412 0.19268531
0.0047601312 0.0022641253 0.19204193
-0.0033004992 0.0056804959 0.19178617
-0.0077811987 0.0073611094 0.191989
-0.011728336 0.010309024 0.19209111
-0.017565534 0.011309528 0.1936942
0.029731993 -0.0040659793 0.19051301
0.026033759 -0.0018045143 0.19117531
0.021757284 -0.0010133251 0.19212219
0.015988538 0.0017784871 0.19249845
0.011287827 0.0036180378 0.19171292
0.0070010903 0.0057496596 0.19174904
-0.0020589982 0.008767833 0.19193828
-0.0056177257 0.010546742 0.19197312
-0.0092724003 0.012066429 0.19184172
0.032140449 -0.0016935579 0.18843466
0.03431394 0.00077444687 0.18605337
0.037283745 0.00055604707 0.17833918
0.042978819 0.0018944582 0.17372739
0.039867036 0.0020601852 0.17559662
0.05392291 0.00027808361 0.16865414
0.049498104 0.0019763838 0.1705184
0.045573249 0.0028975364 0.17226759
0.059894927 0.0006258525 0.16549006
0.056530323 0.0015619714 0.16777924
0.065525226 0.0012127794 0.1639564
0.063400723 0.002686128 0.16518313
-0.021444505 0.03700012 0.15327999
0.064613894 0.0087105297 0.15401936
-0.017234962 0.036879167 0.14927915
-0.021612069 0.036302306 0.14804432
-0.024641391 0.037291419 0.14778072
0.063459978 0.0091426913 0.14918095
-0.0058636311 0.037477799 0.14427131
-0.010749775 0.038300559 0.14451903
-0.015856018 0.03735172 0.14462441
-0.0192766 0.037391167 0.14365429
-0.023690969 0.039187592 0.14348868
0.064076215 0.010299232 0.14625001
0.061914787 0.013433605 0.14439511
0.0012032147 0.036577374 0.14051339
-0.0042969184 0.036951944 0.14063647
-0.0097666495 0.037945654 0.13992822
-0.014240346 0.038169183 0.14113438
-0.01878985 0.03830231 0.14052609
0.061460361 0.013556415 0.13984913
0.057553172 0.01756629 0.14004803
0.053222466 0.020061025 0.13915625
0.048532538 0.022197202 0.1386494
0.044130333 0.024021817 0.13850912
0.041151069 0.025092194 0.13830841
0.010890683 0.035380285 0.13726902
0.0015926454 0.037106834 0.13615695
-0.0034211921 0.036817849 0.13641313
-0.0080348104 0.036856048 0.13699996
0.059956703 0.015709948 0.13595313
0.057469901 0.017259689 0.13491896
0.052689321 0.019411031 0.13447344
0.048735071 0.022027958 0.13473961
0.044534031 0.024526725 0.13509884
0.040136147 0.026371874 0.13497457
0.037023801 0.028232526 0.13476416
0.020526081 0.034202632 0.13351911
0.011226857 0.035016265 0.13189581
0.0031128591 0.036241144 0.13219291
0.048653897 0.022180934 0.13045526
0.044783317 0.024344694 0.13021427
0.040257335 0.026496448 0.12983692
0.036408834 0.029218152 0.12990016
0.026196398 0.034234922 0.12985492
0.01691304 0.034493662 0.12809986
0.036344226 0.029802907 0.12508285
0.02685573 0.034126461 0.12464261
-0.017151672 0.0016563074 0.19437593
-0.018807849 0.0032369555 0.19448063
0.027976625 -0.01100282 0.19185409
0.023726054 -0.0087507609 0.19103122
0.019679217 -0.0057452903 0.19160184
0.014814127 -0.0049688038 0.19199175
0.009419431 -0.0027466337 0.19223738
0.0045772595 -0.00092732615 0.19265577
-0.00020585547 0.00064055395 0.19265282
-0.0050149891 0.0021415991 0.19260857
-0.0097582135 0.0025810292 0.19237557
-0.014068449 0.0046887076 0.19215611
-0.018190144 0.0065131304 0.19317567
0.032644697 -0.010006101 0.1885871
0.030077238 -0.0073320563 0.19048995
0.025712796 -0.0056066965 0.1913988
0.033993062 -0.0073553477 0.18517321
0.034951743 -0.005484981 0.18085471
0.040265482 -0.0051036384 0.17561394
0.037282646 -0.0035489481 0.17757058
0.057671126 -0.010411565 0.17197067
0.050821863 -0.0071374793 0.17179212
0.046546817 -0.0048939912 0.1725086
0.0429033 -0.0027780272 0.17389637
0.061052836 -0.0090568569 0.16705325
0.057938743 -0.0078921802 0.16849902
0.053073391 -0.0045458637 0.16937637
0.048904929 -0.0024158144 0.17072415
0.06297946 -0.0064272378 0.16438729
0.059735268 -0.0043493938 0.16544706
0.055641375 -0.0023546182 0.16758499
0.064606771 0.0032924265 0.15258685
0.063647486 0.0041715782 0.14709553
-0.021866253 0.037385263 0.1428974
0.063900039 0.0064541753 0.14281362
-0.016234314 0.037367515 0.13811934
-0.020864964 0.037368383 0.13772306
-0.023295885 0.039891936 0.14020455
0.063925646 0.0079163928 0.13794512
0.063299499 0.011318112 0.13896352
-0.0055524502 0.036387172 0.13453969
-0.0096315714 0.037213452 0.13460833
-0.014990513 0.037230119 0.13324463
-0.019248506 0.036824696 0.13366511
0.061830319 0.012897111 0.13388854
0.056658458 0.016840322 0.13246378
0.054474343 0.018644163 0.13233215
0.0013657343 0.035971802 0.12987864
-0.0038000224 0.036052383 0.13000005
-0.008544676 0.036566988 0.12915516
-0.012850388 0.037248094 0.1300106
0.062172182 0.014136661 0.12933576
0.057603303 0.017139915 0.1286456
0.053324826 0.019451471 0.12862092
0.049331598 0.021386229 0.1275112
0.044745933 0.023635667 0.1268186
0.041197971 0.025610827 0.12704068
0.011448993 0.034379803 0.12596315
0.0014230013 0.03573028 0.12584513
-0.0031722542 0.036348417 0.12570786
-0.0075748162 0.037031122 0.12560654
0.061311103 0.01553487 0.12456268
0.058193918 0.017133273 0.12382853
0.053599302 0.019251198 0.12368774
0.048948068 0.02110967 0.12307805
0.044803441 0.023028307 0.12252331
0.040687066 0.025879998 0.12315667
0.037694216 0.028467536 0.12265712
0.021082142 0.034462102 0.12207419
0.011249065 0.033921268 0.12144899
0.043754559 0.024234824 0.11908007
0.040977612 0.025896423 0.11854988
0.036855612 0.028604962 0.11847603
0.032711819 0.031223245 0.11839306
0.021971051 0.034388356 0.11744732
0.032402873 0.030828893 0.11360461
-0.0095330765 -0.0069734394 0.1973449
-0.012744451 -0.0042279004 0.19703782
-0.016354889 -0.0024413774 0.19705442
0.025828876 -0.016370755 0.19493556
0.02239464 -0.016541848 0.19395885
0.0056186696 -0.010895388 0.19263819
0.0034825974 -0.0096984077 0.1927245
-0.0079141231 -0.0049562473 0.19394174
-0.011789834 -0.0021416587 0.19466946
-0.015613865 5.6559686e-05 0.19511613
-0.020615563 0.0016938839 0.19443202
0.033751819 -0.018925004 0.19095165
0.030682731 -0.017123621 0.19152385
0.026536303 -0.014731152 0.19319928
0.022350207 -0.013062826 0.19154334
0.017312028 -0.011107491 0.19041795
0.012983548 -0.0098868925 0.19135037
0.0079392781 -0.0085218698 0.19226584
0.0022067567 -0.0063800886 0.19230002
-0.005581934 -0.0020115289 0.1926204
0.042462103 -0.019190628 0.18746167
0.035482064 -0.015705856 0.18734139
0.032937195 -0.014082515 0.18868226
0.036275309 -0.014610892 0.18270397
0.035198897 -0.011518663 0.18318835
0.037919395 -0.011640184 0.17782277
0.036321934 -0.0091278628 0.17918038
0.052853275 -0.011489082 0.17476442
0.048846096 -0.012645232 0.17437005
0.044599295 -0.010726926 0.17485002
0.040757496 -0.0085308943 0.17568535
0.060790401 -0.011375423 0.17132312
0.05528082 -0.010458104 0.17223543
0.050678395 -0.0095514506 0.17291746
0.046500381 -0.0080587305 0.17310563
0.061942924 -0.010287211 0.1684798
0.057496712 -0.0091267517 0.16887692
0.065166391 -0.0023474582 0.14347821
0.063969105 -0.00065386109 0.14418617
0.06404037 0.0019773748 0.14003471
-0.022087369 0.036383893 0.13448671
0.063872129 0.0022873823 0.13629031
-0.020656224 0.036992632 0.13098061
-0.02470798 0.03806106 0.1289463
0.063217305 0.0043082815 0.13152653
-0.010188732 0.037124172 0.12683237
-0.014060603 0.036823712 0.12686956
-0.019034363 0.036824703 0.12593788
-0.023505272 0.038114037 0.12567675
0.064278804 0.0089684241 0.12702698
0.062941164 0.012554791 0.12701267
-0.0036956407 0.036744304 0.12317032
-0.0085521145 0.037152193 0.12287551
-0.013105989 0.036967263 0.12221831
0.063943952 0.0096831843 0.12346631
0.062824212 0.013354456 0.1231882
0.057923988 0.016747409 0.12236947
0.053827409 0.019340515 0.12087423
0.050068274 0.020715602 0.12063682
0.011499836 0.034287583 0.11915314
0.0016873293 0.035799112 0.11977303
-0.0030314513 0.036938798 0.11908674
-0.0077983998 0.037312765 0.11853546
-0.011840792 0.036708489 0.11822009
0.062089145 0.014694726 0.11982107
0.058161225 0.017255653 0.1185984
0.054106701 0.019598313 0.11817974
0.049887206 0.022006854 0.11750847
0.045671437 0.023890048 0.11722547
0.041158151 0.025957577 0.11598903
0.036797851 0.027984507 0.11551207
0.016723635 0.033975024 0.11563271
0.007037105 0.035707209 0.11544895
-0.0029721092 0.036731895 0.1150291
0.058243852 0.017233299 0.11441129
0.054532912 0.019891316 0.11357009
0.050353073 0.022466976 0.1130265
0.045796476 0.024690829 0.11269212
0.041405879 0.026075993 0.11268926
0.037160143 0.028387662 0.11194569
0.033230141 0.030588552 0.11103034
0.022301562 0.034462418 0.11144239
0.012303844 0.035370994 0.11092424
0.0036083255 0.036750685 0.11047828
0.053326424 0.020557122 0.10967916
0.050902784 0.022141986 0.10950541
0.046102859 0.024254955 0.10928071
0.041598011 0.025922732 0.10867822
0.037021767 0.028466143 0.10749358
0.033061042 0.030466467 0.10712445
0.022482526 0.034283593 0.10642004
0.031727329 0.031056907 0.10412502
0.022565844 0.034102634 0.10333532
-0.0080510546 -0.0098925196 0.1961931
0.019324504 -0.017169366 0.19345635
0.015256064 -0.018063756 0.19264668
0.010374337 -0.016554061 0.19272822
0.0062031769 -0.014660439 0.19234824
-0.0046129161 -0.011276128 0.19279617
0.03792423 -0.021994747 0.18944618
0.03542269 -0.020854833 0.19003448
0.02998673 -0.01958137 0.19242984
0.020246265 -0.015696865 0.19198635
0.016537609 -0.015237003 0.19052392
0.012571749 -0.013256744 0.19130522
0.038720232 -0.021745756 0.18555591
0.03659492 -0.019400919 0.18712282
0.04062596 -0.020834567 0.18136567
0.037412219 -0.018181143 0.18159956
0.046277188 -0.017176401 0.17607388
0.042002086 -0.017914541 0.17634729
0.038529344 -0.016163636 0.17740816
0.048638441 -0.016433768 0.17460001
0.065116078 -0.0045701507 0.14208096
0.065680638 -0.0018662792 0.13906986
0.064497761 -0.00038400106 0.13868159
0.06496875 -0.0012994707 0.13433456
0.063715391 0.00090276822 0.13242859
0.064831533 -0.001392182 0.13031083
0.063431911 0.002537081 0.12849051
0.064167194 0.0052998476 0.12361068
-0.016067471 0.035107069 0.11884159
-0.019301891 0.035796493 0.11929816
-0.023186259 0.036546685 0.11861485
0.064273663 0.0076088235 0.12121296
-0.008998286 0.036322303 0.11554337
-0.013569256 0.03587871 0.1151709
-0.017861582 0.034788094 0.11512381
-0.024000339 0.036878664 0.11463398
0.06390322 0.0079368446 0.11636585
0.061837085 0.011698708 0.11526734
-0.0033476856 0.035505604 0.11112452
-0.008395629 0.036001191 0.11089194
-0.012412786 0.036442775 0.11034912
0.060982831 0.013305506 0.11111486
0.058765493 0.015782204 0.11091077
0.0013742009 0.035232238 0.10676867
-0.0029735202 0.035424106 0.10678113
-0.0076874187 0.036311317 0.10684365
-0.011269611 0.037201762 0.10683262
0.06150417 0.013860719 0.10666704
0.059059735 0.016090967 0.10699761
0.054788247 0.018614525 0.10656404
0.049791399 0.020395454 0.10526806
0.045870412 0.021915901 0.10507959
0.041046247 0.023626011 0.10393912
0.037719291 0.02644949 0.10483408
0.011932503 0.033655919 0.10367173
0.0024733534 0.0352754 0.10301596
0.050172314 0.019934257 0.10226876
0.044850077 0.021871578 0.10192603
0.040795993 0.023983151 0.10076594
0.037096784 0.026425347 0.10061693
0.032979995 0.028721988 0.10065448
0.023215257 0.033098482 0.099845827
0.012829497 0.033269599 0.099685609
0.036557667 0.027416775 0.096447885
0.0333611 0.02954109 0.095571756
0.023548804 0.033339027 0.095097959
0.03229899 0.030802831 0.092085063
0.02550707 0.03345833 0.091776848
-0.0045816735 -0.015594582 0.19455743
0.038362496 -0.026124379 0.18733293
0.039070949 -0.02444217 0.185597
0.040156811 -0.022401065 0.18037763
0.041015428 -0.02066699 0.17682281
0.065682977 -0.0038430411 0.13096428
0.065659806 -0.0037249271 0.1274842
0.063628905 -0.00078358687 0.12640196
0.065095827 -0.0023961645 0.12282819
0.064124599 -9.1822818e-05 0.12304157
0.063879877 0.0030761678 0.11777455
-0.016066976 0.034685642 0.11262816
-0.019517101 0.03491145 0.11304808
-0.023213496 0.035892937 0.11290085
0.063784808 0.0044975989 0.11403656
0.062601231 0.0082104709 0.11216754
-0.014926705 0.036002666 0.10838461
-0.019394519 0.035432607 0.10887122
-0.023990998 0.036556087 0.10845774
-0.027143378 0.037333332 0.10601097
0.063576683 0.0056876671 0.11077386
0.061845697 0.0081594903 0.10830063
-0.0038623698 0.035774536 0.10417593
-0.0083160624 0.036478937 0.10406595
-0.013046204 0.036985978 0.10413802
-0.018611044 0.036406972 0.1040203
-0.023258496 0.036978666 0.10446966
-0.026950002 0.037676521 0.10429889
0.062324744 0.010561686 0.10366541
0.057916179 0.0152453 0.10348505
0.0017851228 0.035244606 0.10007393
-0.0028293328 0.035825666 0.10052681
-0.007427766 0.036904082 0.10007352
-0.012446104 0.037269406 0.10010827
0.06190782 0.01201818 0.10050881
0.059019767 0.0151645 0.099754155
0.054626536 0.01744552 0.09994483
0.050298616 0.019696523 0.099129558
0.045911126 0.021257753 0.099253237
0.042266622 0.022884969 0.098460555
0.0072921594 0.034423444 0.096721232
-0.0022841506 0.036131971 0.09512502
-0.0078293756 0.036149539 0.095823824
0.054510251 0.017077951 0.094808102
0.050369743 0.019587772 0.094281256
0.046220325 0.021914061 0.094333053
0.041735921 0.023877885 0.094276667
0.037999738 0.026257776 0.094079256
0.012734585 0.034397613 0.092382967
0.0030838149 0.035452794 0.091558039
0.04562439 0.021913681 0.090089321
0.041702971 0.023920309 0.089433491
0.038033627 0.027139992 0.08931309
0.034099337 0.030064844 0.089866102
0.024674425 0.033858899 0.0891909
0.013370182 0.034401111 0.088030875
0.037708662 0.028282911 0.084327042
0.034362268 0.030520704 0.084434867
0.025167434 0.03377727 0.08377713
0.033320211 0.031863298 0.080982029
0.026321512 0.03402723 0.080253422
0.065824755 -0.0050417557 0.12430972
0.065832198 -0.0040980093 0.12095094
0.065336645 -0.0032198429 0.11638862
0.064608194 -0.00028309971 0.11610508
0.064509273 1.0319054e-06 0.11126244
0.063722983 0.0034626983 0.10664535
-0.023982888 0.03698995 0.10154492
-0.026691504 0.038117699 0.10166788
0.063645698 0.0040299986 0.10263783
0.062635683 0.0064705368 0.10398442
-0.014854982 0.036490694 0.098217905
-0.018829886 0.035483565 0.097290874
-0.023702592 0.036533974 0.096484363
-0.026530061 0.038225729 0.09675467
0.061798766 0.0076495148 0.097457051
-0.0040302714 0.036488917 0.092546403
-0.0083592283 0.035745665 0.093187869
-0.013254086 0.035731904 0.09314853
-0.024209652 0.03719639 0.092731953
-0.025869865 0.039439157 0.091725528
0.061107531 0.010146335 0.09491086
0.058700662 0.012809666 0.092954993
0.05472558 0.016144184 0.091992378
0.0519922 0.018138638 0.091503203
0.0027061887 0.035383794 0.08919251
-0.0024676137 0.035737064 0.089478135
-0.0078008706 0.035665546 0.088742495
-0.012174439 0.03583315 0.088484943
0.058156297 0.013309855 0.088447392
0.055091366 0.015898282 0.088627636
0.050494522 0.018141452 0.087970436
0.046758361 0.021138303 0.088380158
0.042215247 0.023965791 0.087054551
0.00826356 0.034446683 0.085763752
-0.0021468522 0.036092196 0.084741175
-0.006341951 0.035980009 0.084675431
0.054743011 0.015875159 0.084156036
0.050693072 0.018446304 0.083396554
0.04656845 0.020965159 0.08360213
0.042436566 0.023260314 0.083317339
0.039261371 0.026315186 0.083013356
0.014260637 0.033156671 0.081572413
0.0036380356 0.034725878 0.08103925
-0.00074775703 0.036233246 0.080522358
0.050647516 0.020433286 0.078394473
0.04766582 0.021205898 0.078799129
0.042263169 0.024021357 0.078534663
0.038835667 0.026928226 0.078633904
0.034686528 0.030533228 0.078760803
0.025337206 0.033380628 0.077412784
0.015255008 0.033998646 0.076862514
0.038821481 0.027008293 0.075161994
0.03491956 0.029799934 0.073591828
0.025251769 0.033128534 0.072828948
0.017105157 0.034350343 0.073351622
0.033718832 0.031211542 0.069325387
0.026605349 0.033345729 0.069565535
0.064900242 -0.00064084306 0.10356456
0.063879557 0.0015349574 0.10000074
0.061608709 0.0039562061 0.094845057
-0.018951625 0.034789994 0.090699255
-0.023247708 0.036618069 0.090023935
0.061146911 0.006759854 0.090524793
-0.013415098 0.036556982 0.086761534
-0.017986488 0.035049379 0.085883856
-0.023820579 0.036685172 0.085883975
-0.026148811 0.038574129 0.086969793
0.061359938 0.0084144417 0.083556116
0.059662376 0.010329068 0.085905671
-0.0078293383 0.036503199 0.082521737
-0.012003612 0.036669478 0.082270563
-0.014485255 0.036156904 0.080818653
0.061707713 0.0091151539 0.082108259
0.059043098 0.012032215 0.081522167
0.055849545 0.016383648 0.082109928
0.05261758 0.017952112 0.081361592
0.0041753324 0.034469772 0.078259885
-0.001133726 0.036134798 0.078372061
-0.0058552679 0.036333442 0.077273428
-0.010365446 0.036120087 0.077497005
0.056027852 0.016997527 0.077672005
0.052526057 0.019010723 0.077980816
0.046502344 0.022050403 0.077176154
0.044249438 0.023072364 0.077177346
0.0092789233 0.033889782 0.074274004
-0.00031535793 0.035273049 0.07397455
-0.0038480563 0.035324674 0.073374271
0.055407964 0.01683875 0.073220551
0.051652171 0.01957115 0.073144197
0.047360938 0.021212377 0.072717965
0.042850368 0.023200976 0.072235942
0.038602009 0.025777794 0.071090996
0.015067864 0.033859197 0.069993198
0.037036743 0.025731832 0.067425311
0.035529144 0.029754855 0.067518234
0.025559207 0.033162609 0.066414654
0.016208131 0.033505782 0.066223681
0.034288678 0.029472742 0.063031137
0.026995156 0.032622397 0.062233627
0.065142274 -0.002871532 0.098403871
0.062045634 0.00083228201 0.086670399
-0.019092133 0.034046978 0.084014177
-0.022424247 0.034618482 0.083351433
0.061920617 0.0045481659 0.084433734
-0.017580707 0.034482658 0.079669356
-0.022455979 0.034293693 0.078999579
-0.025526712 0.035512406 0.078871846
0.063022867 0.00735512 0.079904914
0.060681082 0.010466198 0.078615487
-0.010957411 0.035580717 0.074685514
-0.016439851 0.034728415 0.075054288
-0.021263834 0.034742072 0.07557255
0.063004002 0.0090784654 0.076307118
0.059750423 0.012159355 0.075393796
3.0966476e-05 0.034435216 0.071242392
-0.0058902465 0.035431616 0.071541369
-0.0109424 0.035351597 0.071074963
-0.01452788 0.035389215 0.070969701
0.063648015 0.010470016 0.071711838
0.060294911 0.012776073 0.070831001
0.056324285 0.015221011 0.070785403
0.052102886 0.017890466 0.069263101
0.047201887 0.020059366 0.06870991
0.042659439 0.022086974 0.068691671
0.0044758115 0.033288997 0.06737411
-0.00064380188 0.03443446 0.067299187
-0.0052101472 0.035236038 0.067232788
-0.0090901097 0.035197183 0.067415595
0.064336151 0.012241483 0.067090213
0.060915302 0.013653606 0.066468239
0.056127451 0.015712475 0.06665355
0.051936995 0.017968604 0.065617442
0.047404937 0.020076165 0.065663815
0.042809699 0.021963187 0.065525949
0.038716987 0.024489729 0.064723313
0.01518526 0.032799803 0.062930048
0.0050226292 0.033632882 0.062855721
0.06479992 0.013933882 0.062743485
0.062220067 0.014175532 0.063106775
0.05537241 0.016998507 0.061862111
0.051981986 0.018396735 0.06197536
0.047701105 0.020178711 0.061655998
0.043006331 0.022317994 0.060887098
0.038847208 0.024669981 0.059933662
0.034863532 0.028184121 0.059823215
0.025169492 0.032083333 0.0591259
0.015209132 0.033013206 0.058662951
0.0068533104 0.033909548 0.059223771
0.038836185 0.025322283 0.05674392
0.03537596 0.028234575 0.055586457
0.026154239 0.032589301 0.055294514
0.016889416 0.033181909 0.055055678
0.034608155 0.029458407 0.051938534
0.026791871 0.033072531 0.050875902
0.030211164 0.03280466 0.047350585
0.061912838 -0.008693344 0.092401445
0.063264586 -0.0059755426 0.089981973
0.060627189 -0.0026036948 0.090006828
0.062789552 -0.0038084015 0.085217714
0.061241087 -0.0012279935 0.088067889
0.063623138 -0.00078100525 0.081913769
0.064961016 0.00095422752 0.077868462
0.063272074 0.0024753548 0.077885687
-0.01883743 0.033910248 0.0726583
-0.022364927 0.034705456 0.072526872
-0.026029496 0.035654988 0.072194159
0.064977378 0.0012970604 0.073434293
-0.012890416 0.034793209 0.06795758
-0.017156716 0.034507614 0.068138659
-0.021958055 0.034782793 0.068108976
-0.025335997 0.035324506 0.067396581
0.065037787 0.0075628236 0.069635391
-0.0064401729 0.034792766 0.063823521
-0.011348092 0.034402549 0.063744843
-0.015150798 0.034481566 0.06333375
0.057788156 0.014219822 0.063753307
-0.00059368368 0.034225311 0.059904873
-0.005341013 0.03441735 0.059984624
-0.0099302782 0.034037013 0.05931896
0.064695731 0.012743762 0.058669329
0.061167262 0.013686594 0.059688568
0.056995228 0.014657747 0.059310913
0.052750297 0.017744301 0.058912337
0.047917821 0.02023617 0.058623314
0.044815175 0.021408489 0.058455288
0.0050558252 0.033625841 0.056308448
-7.5031072e-05 0.033165649 0.055824459
0.064644285 0.011736948 0.05472976
0.062497757 0.012373039 0.054834425
0.055308394 0.015577292 0.055516958
0.052218769 0.017329181 0.054278672
0.048030764 0.019734809 0.054067433
0.043527551 0.022018742 0.054262578
0.039562777 0.024635771 0.053627789
0.010639911 0.033636171 0.05187434
0.046778806 0.020453323 0.049952507
0.044134155 0.021644127 0.04942435
0.039280742 0.024809368 0.049189746
0.035863705 0.027623257 0.048853159
0.032823689 0.030515365 0.048610985
0.021001503 0.033741772 0.048435271
0.011509167 0.033104565 0.047534287
0.034581676 0.027565263 0.04483062
0.031794734 0.031292856 0.04434377
0.022212557 0.033180717 0.043467581
0.031883642 0.031580158 0.040604293
0.023745477 0.033513881 0.039279938
0.064391278 -0.0061802343 0.085006535
0.06457483 -0.005302852 0.080423236
0.065018669 -0.0031144563 0.076556146
0.062695175 0.0018270314 0.070982277
-0.022249594 0.033898592 0.064243376
-0.026897926 0.034435041 0.065203249
-0.01820587 0.033270266 0.061621547
-0.022074934 0.034122374 0.061316967
-0.026405692 0.035053659 0.061199069
-0.0076042181 0.033588298 0.056254983
-0.012361612 0.033892501 0.057703555
-0.016924717 0.033656038 0.057155252
-0.021740967 0.034596033 0.056510389
-0.024910204 0.035680585 0.056254566
-0.0015248517 0.032732449 0.053433359
-0.0056948001 0.033614285 0.053746998
-0.01075225 0.034530837 0.053789079
-0.014680881 0.0348824 0.053264916
-0.021409843 0.03512584 0.052784204
0.060179099 0.012148824 0.053175151
0.056865737 0.013502426 0.053213656
0.053277388 0.016541274 0.051321208
-0.00023250282 0.033361778 0.050105512
-0.0052927686 0.03417743 0.049008548
-0.010004831 0.035353623 0.04856497
-0.013695312 0.03576912 0.048427224
0.061567582 0.011893177 0.049101293
0.056998223 0.01394606 0.04849416
0.052922532 0.017556703 0.048784733
0.048410363 0.019737313 0.048194468
0.043567333 0.022104716 0.046925187
0.040244803 0.023822431 0.046035528
0.010408279 0.033550311 0.045904219
0.00042057876 0.03389132 0.044616163
-0.0041568857 0.034410864 0.045317173
0.056663476 0.015611283 0.044673562
0.053472511 0.018222757 0.044154346
0.049218662 0.020656109 0.044293463
0.044345435 0.022459568 0.043658614
0.039792921 0.024559733 0.043248653
0.035642914 0.026528079 0.042799711
0.016296087 0.033173613 0.041778505
0.0059320563 0.034286238 0.041202247
0.053013273 0.019477876 0.039972603
0.049311247 0.021342397 0.039317489
0.044888731 0.023069298 0.03850925
0.040299498 0.02516938 0.03854692
0.035825886 0.027606344 0.038885415
0.031576201 0.031246927 0.037244022
0.021339606 0.033280373 0.037548304
0.011976423 0.033141796 0.037052333
0.039192565 0.026416076 0.034839153
0.035838112 0.027847148 0.033925593
0.032093376 0.031144252 0.033551812
0.022725901 0.033189051 0.032951236
0.027496193 0.032611892 0.029141605
0.065065563 -0.0081197117 0.077209353
-0.027741961 0.03465962 0.053154826
-0.017508775 0.033878673 0.050619543
-0.021272175 0.035307333 0.050579131
-0.025397789 0.036320869 0.050216317
-0.012072448 0.035081878 0.045268178
-0.016291294 0.034696043 0.046108544
-0.021059055 0.035510018 0.045748413
-0.024371363 0.036354996 0.046331763
0.063990705 0.0085672494 0.048929513
0.059877861 0.011374319 0.045387328
-0.0016182922 0.033619341 0.0413118
-0.0055289967 0.033631932 0.041512549
-0.010373208 0.034567576 0.042252481
-0.014842374 0.034063429 0.041421294
0.060481075 0.0096449871 0.041054487
0.057594176 0.013191469 0.041281044
0.00057767518 0.033688635 0.038099229
-0.0047348253 0.033484392 0.037460029
-0.0097158896 0.033699181 0.038603008
0.057120945 0.013355877 0.037372887
0.053932205 0.017079579 0.036567748
0.050158236 0.019862153 0.035698533
0.010535219 0.032686707 0.034588099
0.00047304947 0.033634555 0.034169674
0.05250302 0.018239692 0.032010555
0.049579307 0.020160664 0.032493293
0.045130167 0.022589551 0.031759202
0.040701002 0.024520494 0.031453848
0.036341827 0.026476704 0.030112803
0.033170737 0.028812077 0.030299067
0.016535167 0.031544209 0.030070603
0.048160762 0.020599535 0.029094636
0.038891379 0.024340395 0.0266155
0.035893813 0.025996929 0.026869118
0.031934597 0.029768744 0.026651859
0.022860713 0.032695085 0.026128113
0.03145691 0.030250926 0.022159398
-0.02968052 0.032840747 0.04833287
-0.02659465 0.03392252 0.042333722
-0.017261662 0.033343673 0.040053248
-0.02036982 0.033690803 0.038951635
-0.025098639 0.033733428 0.03741473
0.062067963 0.0068105981 0.042657197
-0.0062460918 0.03295555 0.034920633
-0.010774195 0.033754259 0.035515964
-0.014935549 0.034122929 0.034985483
-0.019326866 0.033961497 0.0339728
-0.023281228 0.033996686 0.034189761
0.060807712 0.0094569791 0.035630941
0.058218181 0.011269594 0.034696877
-8.5094944e-05 0.033136591 0.031252146
-0.0049830284 0.033491202 0.031450093
-0.0099618658 0.034129195 0.030491292
-0.013924527 0.034645557 0.029247999
0.060417481 0.010092551 0.031656563
0.057648741 0.012139846 0.030116498
0.054316748 0.015051667 0.030797303
0.010433217 0.03126955 0.027968824
0.00078315474 0.033752363 0.027158499
-0.0040675607 0.033778448 0.02621001
-0.008359124 0.033785764 0.026169419
0.057439614 0.013623681 0.025112569
0.053986959 0.016138135 0.025447547
0.049720898 0.018726284 0.025718749
0.044953119 0.020972837 0.024999619
0.040624157 0.022893436 0.024775803
0.035834786 0.025452092 0.024242759
0.016110634 0.031244576 0.023773372
0.0062739891 0.033279452 0.022187173
-0.0025613885 0.034081273 0.021892428
0.053562023 0.016710013 0.021383882
0.049872436 0.019425059 0.020325184
0.045442563 0.021482162 0.020121157
0.040716555 0.023339096 0.019924998
0.036218487 0.025884379 0.020360172
0.033032659 0.02824663 0.020570993
0.021968799 0.03176273 0.019719362
0.012106478 0.033110119 0.017834961
0.049805351 0.020417612 0.016438305
0.045966715 0.022205884 0.015955806
0.041287974 0.024132399 0.015284419
0.036633346 0.026767433 0.014919162
0.032450672 0.029538266 0.015383422
0.02275956 0.032527175 0.014321506
0.032473546 0.029842664 0.010361612
0.024945637 0.032899726 0.0099127889
-0.027556965 0.032950103 0.038412869
0.061191477 0.0031407792 0.037396491
-0.020229749 0.034444582 0.031252205
-0.023976155 0.034811176 0.031977832
-0.019048201 0.034873936 0.028737068
-0.023056317 0.036263637 0.028425395
0.06024335 0.006115742 0.027404904
-0.0045480784 0.033846006 0.023192048
-0.0089330301 0.033362973 0.024005353
-0.014019079 0.033329122 0.023477674
-0.018801708 0.034115452 0.024425924
-0.022714082 0.036116589 0.024439394
0.059652276 0.0063312855 0.02408272
0.059378773 0.010747053 0.024177909
-0.00044194702 0.034458846 0.018565953
-0.0038951226 0.03364915 0.019624889
-0.0082794763 0.032856651 0.019542634
-0.013119437 0.032992605 0.019518554
0.058008749 0.011823112 0.019065678
0.054662131 0.015593823 0.019239962
0.0054038535 0.033566974 0.016274512
-0.0027084257 0.033153672 0.014896214
0.05709764 0.012731923 0.015064776
0.054256782 0.01542463 0.014282584
0.050819166 0.018329496 0.014236569
0.045946334 0.021819104 0.013986886
0.011848217 0.032365941 0.011377513
0.0030399477 0.033318207 0.011198759
-0.00057793316 0.033500988 0.011157513
0.049948659 0.018408718 0.0099024177
0.045963697 0.021138947 0.0096560121
0.041357215 0.023348754 0.0091596246
0.037090048 0.025804657 0.0089882016
0.034118835 0.028143171 0.0082446933
0.012763443 0.032009099 0.0081053376
0.061018102 0.0011327378 0.030355632
0.060891144 0.0024379641 0.02585113
-0.016198929 0.032365095 0.020141363
-0.019953774 0.033153117 0.020322323
-0.024996839 0.034378935 0.01995784
0.060660221 0.0033701882 0.021009922
-0.0093068648 0.033007503 0.016479731
-0.013979116 0.032955796 0.016625345
-0.019572452 0.032917812 0.016097307
-0.023621611 0.033593297 0.015575349
0.060497425 0.0076812617 0.018853724
0.059393868 0.0092081688 0.016370833
-0.0034971246 0.033246104 0.012120128
-0.0083156461 0.032931313 0.013466537
-0.013811522 0.033051409 0.012353182
-0.017896237 0.032280661 0.012876391
0.058213618 0.010203814 0.012326896
0.056072883 0.014271542 0.011518896
0.0026943255 0.033337437 0.008328259
-0.0024625175 0.033192519 0.0083935261
-0.0080126608 0.033245355 0.0082989931
0.054885857 0.015512962 0.0087741017
-0.028029181 0.030801009 0.016991436
0.058847781 0.0029602889 0.018948138
-0.026522543 0.032560017 0.013008714
0.059243307 0.0038079973 0.017547667
-0.015917212 0.032289498 0.0091564059
-0.0199125 0.032289382 0.009678781
-0.024094112 0.032220121 0.0099034905
0.059090998 0.0068074483 0.0087957382
0.059511863 -0.00154333 0.01340884
0.058069669 -0.0014245939 0.0085309148
0.058788948 -0.004675407 0.0084384084
