# .PCD v0.7 - Point Cloud Data file format
VERSION 0.7
FIELDS x y z
SIZE 4 4 4
TYPE F F F
COUNT 1 1 1
WIDTH 1207
HEIGHT 1
VIEWPOINT 0 0 0 1 0 0 0
POINTS 1207
DATA ascii
0.037604872 0.062670015 0.81491137
0.028884538 0.058669996 0.8190335
0.032687232 0.057879083 0.81863713
0.037237801 0.057832375 0.81797785
0.041342806 0.058391944 0.81870013
0.028545132 0.06267225 0.81870478
0.032590549 0.062265858 0.81623721
0.036857586 0.061933119 0.81518912
0.041769005 0.062327843 0.81705195
0.029036712 0.066743538 0.81901348
0.032644991 0.066933021 0.81760007
0.037164178 0.067385443 0.81636977
0.041813556 0.066959381 0.81791866
0.033005558 0.070700131 0.81896007
0.03727302 0.071215175 0.81875014
0.040852088 0.070608094 0.81906676
0.033684958 0.053685129 0.82436663
0.038071811 0.053583395 0.82282656
0.041698001 0.05398868 0.82316655
0.013952733 0.059302259 0.82428902
0.01752311 0.058223739 0.82350379
0.022246046 0.057603016 0.82261205
0.026942061 0.056836028 0.82191652
0.032809213 0.055039216 0.82168865
0.036617301 0.055004232 0.8211664
0.042899117 0.05622863 0.82121325
0.045659143 0.057940122 0.82309991
0.014464595 0.062109552 0.82423347
0.017525272 0.062637396 0.82360846
0.022095671 0.062723301 0.82222962
0.025728166 0.062299579 0.82067978
0.044989299 0.061807774 0.82023323
0.04616842 0.062782913 0.82304448
0.019089328 0.065987639 0.82480019
0.022322984 0.067228533 0.82355011
0.026222801 0.06743852 0.82111406
0.045169089 0.067418016 0.82351106
0.023695484 0.071331963 0.8245002
0.027620804 0.072087854 0.82168704
0.032556426 0.073741026 0.82082832
0.037379339 0.074090607 0.82107759
0.042548548 0.072418727 0.82232207
0.027663022 0.0756981 0.82361346
0.032878119 0.076597437 0.82340002
0.037533641 0.076696627 0.82446688
0.041741133 0.075508572 0.82405007
0.0099107558 0.05399121 0.82906699
0.0133122 0.05337473 0.82908028
0.017843286 0.052831389 0.82817161
0.022227773 0.05309378 0.82711118
0.027293842 0.053199854 0.82705724
0.032538526 0.052367736 0.82780021
0.037325568 0.051374841 0.82668
0.042270098 0.051540744 0.82687777
0.046529911 0.052612532 0.82819062
0.0037291714 0.058669727 0.82980025
0.0080735888 0.057577383 0.82823032
0.01262062 0.057072416 0.82655561
0.017580112 0.055341408 0.82619995
0.02064593 0.055296753 0.82553327
0.047839429 0.056637783 0.82717341
0.0080746068 0.062205222 0.82829094
0.012519357 0.063255548 0.82632381
0.01755674 0.064474188 0.8250668
0.046880133 0.064594008 0.82660002
0.0099107549 0.067100212 0.82906699
0.013183324 0.067614555 0.8282752
0.01739681 0.067864612 0.82662499
0.020640928 0.069100864 0.82533342
0.047027588 0.067883238 0.82920003
0.014555264 0.071755782 0.82940018
0.017631093 0.072457604 0.82860023
0.021765096 0.072476104 0.82630473
0.046163935 0.072365843 0.82755572
0.018415613 0.075585395 0.82910037
0.022456488 0.076876037 0.82845008
0.027093818 0.0779173 0.82656664
0.032951649 0.078304112 0.82524461
0.037906095 0.078979641 0.82588005
0.042253271 0.078172445 0.82655531
0.046184912 0.077020988 0.82794458
0.027791644 0.081061311 0.82876205
0.032627031 0.082437053 0.82819539
0.037526734 0.082850799 0.82771337
0.042348705 0.082458943 0.82842016
0.045490265 0.081009768 0.82936692
0.033895854 0.086426511 0.82953352
0.038071606 0.087039806 0.82949352
0.040854864 0.086419567 0.82946694
0.017767463 0.04971581 0.83496642
0.022436811 0.049711179 0.8348887
0.027085764 0.04967016 0.83420008
0.032504115 0.049631458 0.83355004
0.03790028 0.048796054 0.83254439
0.04272747 0.048184719 0.8320334
0.047267511 0.048071809 0.83342218
0.050422739 0.04967016 0.83419991
-0.0014380933 0.053841148 0.8347109
0.0021894604 0.053479165 0.83311111
0.007705749 0.052812029 0.83211106
0.012658036 0.051459968 0.83178324
0.016907519 0.051025465 0.83100009
0.022320079 0.050995443 0.83051109
0.02698347 0.051028192 0.83104444
0.031627327 0.051020008 0.83091116
0.04866191 0.051779211 0.83070004
0.051950127 0.052743524 0.83372593
-0.0055911704 0.056707487 0.83499974
-0.0024758182 0.057446215 0.83445174
0.0019917854 0.05706083 0.83166659
0.0060543804 0.055618275 0.83033347
0.051409688 0.056854721 0.83336663
-0.0015414817 0.061782964 0.83431995
0.0021856341 0.061900359 0.83171844
0.0056724949 0.063787848 0.83111656
0.048691209 0.061862003 0.83120012
0.050438866 0.060551934 0.83446658
-0.00091894885 0.065224357 0.83466643
0.002347328 0.067023881 0.83386004
0.0071554021 0.068308458 0.83250666
0.011482775 0.069569722 0.83093321
0.047159925 0.068073153 0.83153337
0.0086119045 0.072769403 0.83438313
0.012597986 0.072934374 0.83152378
0.048838314 0.072902329 0.83371109
0.0099808853 0.076117165 0.8349331
0.013515259 0.07730978 0.83341891
0.017489037 0.077872314 0.83233327
0.020790983 0.078881875 0.83133328
0.048708778 0.0765782 0.83150005
0.014653536 0.080783039 0.83499974
0.018276613 0.081773348 0.83453321
0.022376889 0.08210963 0.83268887
0.026582614 0.083451077 0.83063334
0.044012368 0.084999405 0.83066666
0.046783786 0.082402751 0.83173329
0.023051631 0.086333834 0.83459979
0.027042814 0.087292999 0.83288157
0.031948887 0.08822763 0.83195758
0.037438583 0.089273848 0.83089989
0.042715348 0.088402122 0.83178329
0.04568591 0.085231349 0.83293343
0.027416999 0.091324851 0.83481312
0.032745264 0.092987783 0.83427262
0.037899211 0.092932165 0.83251119
0.042606216 0.093036294 0.83344436
0.034898266 0.097092271 0.83499974
0.038001075 0.097839631 0.83474785
0.041109338 0.097049914 0.83463311
0.038791455 0.10097544 0.83499974
0.047621194 0.043747917 0.83966672
-0.01500643 0.049955979 0.83899999
0.0037717149 0.049971845 0.83926678
0.0072893966 0.049558729 0.8388834
0.012667147 0.048622515 0.83756667
0.017807571 0.048659664 0.83684993
0.022507921 0.048310678 0.8375333
0.027197173 0.047537055 0.83764452
0.032320995 0.0476349 0.8374095
0.037827976 0.046456963 0.83782673
0.042374093 0.04553001 0.83654994
0.047471642 0.045167144 0.83702207
0.051982712 0.04791148 0.83739984
-0.015935102 0.05273338 0.8384937
-0.012176691 0.053171713 0.83803338
-0.0071655214 0.052943468 0.83689618
-0.0029988096 0.052361447 0.83588868
0.0021965432 0.051307917 0.83559984
0.0060905381 0.05128745 0.83526647
0.055388052 0.053058762 0.83871126
-0.015775291 0.057714004 0.83831912
-0.012428144 0.057531878 0.83774561
-0.0076080794 0.057812445 0.83654273
0.053112179 0.05856961 0.83571094
0.055426944 0.056999866 0.8393001
-0.011491944 0.061300118 0.83940005
-0.007169364 0.062317781 0.83732587
-0.0036473761 0.062580206 0.8356331
0.052370887 0.062513694 0.83734155
-0.0066596041 0.066582948 0.83873338
-0.002677446 0.06713067 0.83664989
0.0014169803 0.069943681 0.83539975
0.04900885 0.066934288 0.83662218
0.051094122 0.06672059 0.83883327
-0.0019662369 0.071226202 0.83830005
0.0021994775 0.073178194 0.83683699
0.0057029813 0.073456854 0.83558303
0.048999742 0.070032991 0.83646661
0.050741088 0.072626472 0.83946663
0.0029866095 0.07646057 0.83870006
0.0074081048 0.077748649 0.83762223
0.011038285 0.078846544 0.8364222
0.048929438 0.079255082 0.83526647
0.050769303 0.076572999 0.83993328
0.0084721511 0.081240945 0.83973324
0.012349601 0.08256308 0.83729333
0.016757682 0.083511621 0.83639985
0.049157903 0.081967056 0.83916652
0.014197086 0.086343087 0.83871108
0.018011842 0.08704447 0.83732504
0.021688757 0.087886781 0.83608329
0.04683619 0.087496415 0.83681333
0.019416427 0.090527028 0.83893353
0.022725085 0.091469444 0.8373524
0.026832948 0.093633972 0.8360132
0.030236049 0.094792612 0.83526641
0.046903323 0.092298299 0.83730841
0.027602782 0.096671775 0.83808339
0.032168418 0.098253459 0.83694667
0.043187495 0.098220609 0.83610469
0.046629552 0.097992592 0.83872002
0.033437036 0.10127101 0.83744448
0.037518319 0.1031653 0.83700836
0.042629316 0.10266858 0.83771664
0.046018641 0.10145911 0.83900011
0.038946528 0.10683697 0.83833331
0.041871708 0.10672653 0.83951122
-0.0087978393 0.043180928 0.84383339
0.0069493516 0.044025782 0.84499997
0.010100429 0.044022311 0.84493321
0.024280814 0.044018839 0.84486669
0.027789803 0.043568656 0.84376681
0.032119837 0.043179277 0.84383345
0.037272006 0.043270256 0.84341919
0.042916607 0.04252388 0.84296298
0.047783375 0.042131402 0.84252501
0.052567203 0.042383902 0.84363717
0.056577854 0.044015359 0.84479988
-0.011542507 0.048243739 0.84317863
-0.0075380234 0.048040424 0.8437441
-0.0021869533 0.048009541 0.84320009
0.002216435 0.047066901 0.84319276
0.0067277346 0.046802517 0.84195828
0.011902314 0.045971364 0.8422668
0.017920407 0.04622535 0.84214449
0.022618817 0.046199422 0.84166676
0.027312845 0.045392584 0.84119987
0.032011304 0.045380592 0.84097749
0.036712434 0.045375794 0.84088868
0.053486034 0.045935441 0.84160012
0.05687942 0.047351655 0.84425724
-0.018179152 0.053986121 0.84100002
-0.011900141 0.050054174 0.84064913
-0.0072048102 0.050109688 0.84158158
-0.0024938418 0.050047267 0.84053326
0.0014260627 0.050047271 0.8405332
0.057743832 0.0522613 0.842637
-0.017890994 0.058286257 0.84210265
0.057659533 0.058223356 0.84248561
-0.017204873 0.062817246 0.84213352
-0.012221607 0.063541159 0.84115982
0.05627016 0.062393703 0.84254664
-0.022100341 0.065719284 0.84100002
-0.017176969 0.067108542 0.84315658
-0.011939703 0.067477465 0.84340757
-0.0082526812 0.068384863 0.84171104
0.053340465 0.067592591 0.84094679
-0.016687706 0.070739083 0.84490013
-0.011172678 0.07073909 0.84489989
-0.0070197736 0.071932748 0.84276676
-0.0035402477 0.073016115 0.84095544
0.053252917 0.0720663 0.84203339
-0.0064402521 0.076172583 0.84415019
-0.0023430712 0.077127546 0.84256011
0.0019889111 0.078769252 0.84192383
0.0053450144 0.079754807 0.8405332
0.051853202 0.077725753 0.84226167
-0.0021906898 0.081415638 0.84478664
0.0024158191 0.083048888 0.84420836
0.0067301206 0.083250612 0.84227508
0.010049422 0.084458865 0.84066653
0.049234051 0.084438778 0.84046656
0.050934523 0.083092518 0.8426668
0.0037974806 0.086466081 0.84499991
0.0074678529 0.087439694 0.84427768
0.011811193 0.088087209 0.84212613
0.016314371 0.089114919 0.84033322
0.049223632 0.087547034 0.84028882
0.05090766 0.08774846 0.84222215
0.013066637 0.092328027 0.84429622
0.017723564 0.092638478 0.84215844
0.021827318 0.093927249 0.84143353
0.049230136 0.092247978 0.84039998
0.050988246 0.092596091 0.84355539
0.018494612 0.09688697 0.84448886
0.022662643 0.09727522 0.84331131
0.026279787 0.098123252 0.84162217
0.048268821 0.097103961 0.8418445
0.019556841 0.10061287 0.84499991
0.023095991 0.10097792 0.84476662
0.027374081 0.10195761 0.84311116
0.032023858 0.10330655 0.84133327
0.035112794 0.10472181 0.84013331
0.044535145 0.10477167 0.84053332
0.046975911 0.10340218 0.84211677
0.028485609 0.10584681 0.84495544
0.032108966 0.10671876 0.84356201
0.036750734 0.10845343 0.84179997
0.043535616 0.1085318 0.84140009
0.046641998 0.10745381 0.8431834
0.033732284 0.11001796 0.84479988
0.038423039 0.11243043 0.84402674
0.042362332 0.11306719 0.84409344
0.046333119 0.11158066 0.84473336
0.038468074 0.11633151 0.84499991
0.041304089 0.11695839 0.84498656
0.053889792 0.034190752 0.84796745
0.056526195 0.034190457 0.84796423
0.033140738 0.039535057 0.84983349
0.037056137 0.039484914 0.84875566
0.042555563 0.039448991 0.84798342
0.048075903 0.038645592 0.84768885
0.052785765 0.037833642 0.84717047
0.057349175 0.038045093 0.84746623
0.060674433 0.039403237 0.84700006
-0.010385939 0.044025782 0.84500003
-0.0064715832 0.043414593 0.84842265
-0.0022003544 0.04357978 0.84857339
0.0022278239 0.0433775 0.84771127
0.0069732638 0.041969713 0.84794676
0.012492111 0.042942334 0.84691674
0.018024635 0.043343592 0.84704447
0.022584703 0.042391747 0.84772497
0.027186695 0.041610241 0.84703988
0.032251447 0.040992793 0.84728885
0.036948483 0.040944412 0.84628874
0.040894814 0.040944953 0.84629989
0.057680916 0.04205998 0.84612
0.060626682 0.04252008 0.84633332
-0.01039823 0.045651607 0.84600008
-0.0068454519 0.046029303 0.84571457
-0.0029031036 0.046030253 0.84573311
0.059034299 0.046445608 0.84613323
0.061242502 0.04754623 0.84612292
0.061744478 0.051959287 0.84619617
-0.021468179 0.058310233 0.847
-0.019324068 0.058196116 0.8453334
0.061400902 0.056506436 0.84830058
-0.021518871 0.060027223 0.84900004
-0.019841552 0.061316274 0.84500003
0.058233947 0.062959775 0.84596646
-0.015120897 0.069208331 0.84539992
0.056669939 0.067697324 0.84616661
-0.017312661 0.072261378 0.84661418
-0.012211741 0.072913371 0.84666669
-0.0088148685 0.073931977 0.84546649
0.056797307 0.072582655 0.84806681
-0.018330466 0.076520607 0.84800005
-0.011491024 0.076869257 0.84895581
-0.0078826165 0.077832162 0.84682667
0.054324392 0.077174447 0.84651119
-0.010441658 0.080608755 0.84953362
-0.0067309323 0.081476577 0.84760004
-0.0035598322 0.082861893 0.84564441
0.00064601784 0.084947795 0.84553331
0.053601492 0.081997059 0.84754223
-0.005683355 0.086062551 0.84876692
-0.0025158026 0.086762339 0.84788162
0.0022256654 0.088215522 0.84669542
0.0059030927 0.089156516 0.84566665
0.052747019 0.087408558 0.84653354
-0.00093560998 0.090118863 0.84979999
0.002231725 0.091622129 0.84908026
0.007167798 0.092848748 0.84765017
0.010636446 0.093893021 0.84582216
0.052744254 0.092917711 0.84648913
0.0085636284 0.096328475 0.84880036
0.012709263 0.097566746 0.84707886
0.016947741 0.098620832 0.84588879
0.049680233 0.098614633 0.8480835
0.051273003 0.096267946 0.8482669
0.014105649 0.10107719 0.84890032
0.018021094 0.10241808 0.84692389
0.022405183 0.10318337 0.84545314
0.049742706 0.10189655 0.84915018
0.019641701 0.1065754 0.84866691
0.022970276 0.10700832 0.84740019
0.026952626 0.10759047 0.84630007
0.030590801 0.10848068 0.84506649
0.047950141 0.1077458 0.84546661
0.023621462 0.11063005 0.84950024
0.027771814 0.11161212 0.84838134
0.032039322 0.11206724 0.84691679
0.036126636 0.11325932 0.84553325
0.04478946 0.1148049 0.84533316
0.047378555 0.11276264 0.84652007
0.032852683 0.11638629 0.84922248
0.036756057 0.11751662 0.84706676
0.043017909 0.11865916 0.84665561
0.047097292 0.11688892 0.84904462
0.037378769 0.12129056 0.84890687
0.04234869 0.12263956 0.84810328
0.045020834 0.12409144 0.84970021
0.048041783 0.033166114 0.85272628
0.051833335 0.033256091 0.85097504
-0.005718396 0.038934581 0.85400003
-0.0028497407 0.039080594 0.8537159
0.0022457105 0.039744388 0.8543334
0.007025457 0.03974051 0.85425007
0.012597101 0.03972888 0.85399997
0.018564364 0.039318521 0.85371673
0.022931581 0.038902111 0.85330009
0.027666315 0.038846865 0.85209447
0.032447126 0.03780267 0.85240573
0.03753604 0.037434258 0.85243338
0.041941289 0.038030121 0.85153335
0.047056846 0.03678935 0.8521601
-0.0056916121 0.041123964 0.85000002
-0.0029202504 0.041561618 0.85087514
0.0022370357 0.041176647 0.85108894
0.0069910223 0.041127186 0.85006672
0.01333584 0.041137934 0.85028893
0.018095603 0.041143313 0.85040015
0.064084977 0.053794358 0.85033339
0.063451029 0.057096828 0.85245001
0.059351746 0.06410291 0.85068345
0.062416583 0.061392166 0.85228407
0.059421901 0.068140261 0.85168904
-0.015210843 0.074365869 0.8504287
0.059648272 0.071579129 0.8549335
-0.016359065 0.077831492 0.85124648
-0.013103503 0.078628272 0.85090017
0.057025012 0.077625521 0.85146666
-0.016075103 0.081049815 0.85418141
-0.012070315 0.082486354 0.8526001
-0.0083422018 0.083369218 0.85082239
0.056744054 0.082148328 0.85321212
-0.017664004 0.08739128 0.8540417
-0.011024985 0.086305678 0.85377783
-0.0075636455 0.087231569 0.85247231
0.054591089 0.087046184 0.8506667
0.056428518 0.085845307 0.85446668
-0.0057215211 0.091408893 0.8544668
-0.0027259439 0.092127554 0.85191655
0.0022365134 0.093924858 0.85086662
0.0054073315 0.094920762 0.85033327
0.054758657 0.092076331 0.85327786
-0.0017368671 0.096130133 0.8540501
0.0020413036 0.096921131 0.85226661
0.0069988305 0.098165728 0.85103327
0.010172154 0.09973643 0.85093325
0.052406382 0.09850812 0.85125333
0.0038392763 0.10092574 0.85430014
0.0067931782 0.10211026 0.85376197
0.012244254 0.10330852 0.85166341
0.016509805 0.10441964 0.85040003
0.049858887 0.10450969 0.85113335
0.052199494 0.10284153 0.85305327
0.01379228 0.10685062 0.85402513
0.017339686 0.10822175 0.85229999
0.021264488 0.10914824 0.85026675
0.049995568 0.1063838 0.85346681
0.050999939 0.10839392 0.85429335
0.018703056 0.11227632 0.85400563
0.022653056 0.11291445 0.85139996
0.026824776 0.11393789 0.8506
0.050603822 0.11184724 0.85477787
0.023398666 0.11731125 0.85376197
0.027661934 0.11729292 0.85197407
0.031331237 0.11820045 0.85091108
0.048295148 0.11802547 0.85154998
0.023757748 0.12080429 0.85440016
0.027959293 0.12189708 0.85410011
0.032431222 0.12205721 0.8520444
0.036736626 0.12342158 0.85053337
0.047519997 0.12203339 0.85187769
0.029344352 0.12561153 0.85466689
0.032705341 0.12654059 0.85327148
0.037001424 0.12701227 0.85205406
0.041917991 0.12745433 0.85104442
0.04614849 0.12726226 0.85294664
0.03411293 0.13033018 0.85433352
0.03728734 0.1302878 0.85405564
0.042375766 0.13089576 0.85387343
0.045766663 0.13077182 0.85375565
0.032730214 0.027205663 0.85986656
0.036718871 0.02878955 0.85940003
0.033521578 0.033593304 0.85960001
0.037696149 0.032165695 0.85885
0.04221461 0.031899799 0.85708183
0.045392603 0.031885333 0.85671687
-0.0020070423 0.036117665 0.85627776
0.0022538854 0.038683638 0.8572619
0.0070551741 0.038709123 0.85783327
0.012171477 0.037665587 0.85768014
0.017529802 0.036861531 0.85714841
0.023055153 0.035918728 0.85788912
0.027865095 0.0359319 0.85820007
0.032236956 0.035500091 0.8574
0.036998983 0.035466865 0.85659182
0.042150032 0.035830546 0.85575575
0.045331661 0.03502721 0.85556698
0.063779667 0.063772045 0.85687673
0.062070221 0.066693485 0.85754001
0.0597785 0.074126497 0.85680014
0.061502203 0.071883135 0.85855561
0.059798438 0.078137182 0.85708588
0.061600376 0.076796003 0.85992593
-0.016108857 0.083613284 0.85602427
-0.013698558 0.084311716 0.85503352
0.058097292 0.083569504 0.85557413
-0.016405763 0.088028677 0.85765666
-0.012657672 0.088175811 0.85651129
-0.0089212153 0.089149289 0.855667
0.057373524 0.087659128 0.856664
-0.016965633 0.091890521 0.85897148
-0.011959712 0.092488676 0.85895836
-0.0077961842 0.092724741 0.85718101
0.056691449 0.092634045 0.85844833
-0.016966196 0.095888175 0.85900009
-0.010569485 0.095992357 0.8599335
-0.0070328144 0.09650968 0.85883999
-0.0031811954 0.097857915 0.85665351
0.054889843 0.097069152 0.85532236
0.056771923 0.0967623 0.85966676
-0.0009451519 0.10141815 0.85846674
0.0017949002 0.10223597 0.85671437
0.054959003 0.10037718 0.85640019
0.055065975 0.10296699 0.8580668
0.0033238623 0.10594267 0.8584668
0.0070487219 0.10685335 0.85722232
0.011827567 0.10854629 0.85591131
0.053429663 0.10688583 0.85748893
0.0074663907 0.11069905 0.85923338
0.011852402 0.11196569 0.85771114
0.016091974 0.11364447 0.85633343
0.052370086 0.11301037 0.8575778
0.012948266 0.11568252 0.85964465
0.017926058 0.11789574 0.85751331
0.021407045 0.11863753 0.85596699
0.051398426 0.11764907 0.85788572
0.019355001 0.1220412 0.85937786
0.022813797 0.12328943 0.85746682
0.026979227 0.12414258 0.85550034
0.051079918 0.12295239 0.85829997
0.023606827 0.12725444 0.85859996
0.02761222 0.12768546 0.85657501
0.031763546 0.1289067 0.8554337
0.04852714 0.12734669 0.85564089
0.050263748 0.12770399 0.85804445
0.024708064 0.13115394 0.85973346
0.02785884 0.13089298 0.85802221
0.032425847 0.13246807 0.85787624
0.037412077 0.13311683 0.85692233
0.041758876 0.13335831 0.85591692
0.047501136 0.13275617 0.85631126
0.050704435 0.13219897 0.85872602
0.037888732 0.13618276 0.85866666
0.042245783 0.137229 0.85771114
0.047061563 0.13727385 0.85799265
0.043139059 0.14072233 0.85956681
0.046334781 0.14068958 0.85936677
0.028873615 0.028154522 0.86444598
0.032373205 0.028444646 0.86106491
-0.00094757392 0.032835111 0.86066669
0.0014654528 0.032132667 0.86330581
0.017552415 0.033716746 0.86275834
0.023177417 0.03306241 0.86246669
0.028197188 0.032291241 0.86223334
0.032534391 0.031579822 0.860762
0.035948683 0.030414127 0.86013341
0.002265271 0.036068037 0.86143732
0.0070920191 0.036106382 0.86236125
0.011503433 0.035670936 0.86151671
0.015898965 0.035219625 0.8602668
0.066620134 0.064199857 0.86262506
0.064523771 0.067721084 0.8614834
0.067552753 0.067537673 0.86426431
0.063997805 0.072168581 0.86197346
0.066699043 0.071504302 0.86363798
0.062686279 0.076947033 0.86161721
0.06503959 0.075465187 0.86300004
-0.018589858 0.084001571 0.86000001
0.06138324 0.082640655 0.862499
0.058411464 0.089621618 0.86020005
0.061871018 0.086771779 0.8636893
-0.016734717 0.092890173 0.86082989
-0.013786669 0.094458565 0.86053348
0.058508024 0.092975669 0.86162251
0.060307205 0.09220136 0.86437768
-0.015428078 0.097892225 0.8625741
-0.01239422 0.097952828 0.86133939
-0.0077742944 0.098927841 0.86111671
0.058144882 0.0982484 0.86218339
0.060241304 0.09718518 0.86343342
-0.015467891 0.10136171 0.86479998
-0.011998569 0.10239758 0.86383909
-0.0073856539 0.10270686 0.86258149
-0.0030127286 0.10273256 0.8608762
0.057659857 0.10247678 0.86334676
-0.0063203885 0.10658854 0.86370015
-0.0023580841 0.10732965 0.86265838
0.0017268587 0.10778895 0.86045557
0.055715483 0.1070346 0.86190832
-0.0014892184 0.11149582 0.86437792
0.0024658593 0.11202126 0.86171669
0.0067567392 0.11304871 0.86069334
0.010280537 0.11359721 0.86000019
0.055374 0.11237147 0.86286682
0.0033457456 0.11626882 0.86400014
0.0070935842 0.11716262 0.86268902
0.011359605 0.11743653 0.86077768
0.015092262 0.11839653 0.86000019
0.053673349 0.11778857 0.86139989
0.055423204 0.11568372 0.86363351
0.0081808539 0.12110617 0.86411142
0.011922477 0.12199578 0.86281866
0.016707992 0.12260392 0.86065727
0.053794522 0.12206952 0.86334461
0.013550044 0.12536633 0.8639335
0.017763229 0.12702881 0.86232722
0.022056693 0.12914531 0.86055565
0.052508183 0.12749335 0.86203074
0.019183241 0.13095045 0.86366689
0.02317409 0.13288872 0.86233884
0.027942695 0.13368952 0.86061114
0.032735288 0.13439418 0.86000019
0.052115593 0.13393703 0.86220688
0.024024945 0.13582282 0.8640002
0.028547538 0.13749175 0.86270005
0.032777768 0.13777512 0.86112601
0.037234593 0.13858598 0.86020023
0.051124386 0.13755138 0.86173999
0.029675109 0.14149718 0.86430013
0.033078849 0.14243247 0.8630048
0.037608147 0.14262922 0.86142224
0.042134173 0.14286609 0.86009544
0.047437508 0.14296266 0.86067617
0.050498072 0.14273216 0.86204439
0.038105939 0.14660275 0.86359173
0.042662784 0.1473527 0.86210006
0.047305893 0.14761515 0.86246312
0.050554041 0.14610048 0.86300009
0.044204637 0.15121959 0.86473358
0.047402788 0.15113409 0.86424464
0.0039008448 0.029077647 0.86800009
0.0071412553 0.029087326 0.86828905
0.012009379 0.029111302 0.86900467
0.016068198 0.029124545 0.86940002
0.023767253 0.028717376 0.8693167
0.026571102 0.028276924 0.86821651
0.0038911582 0.032226522 0.86584455
0.0071270596 0.032253932 0.86658901
0.011980323 0.032265004 0.86691123
0.016833866 0.031466611 0.86711669
0.022224858 0.031197315 0.86711121
0.026494075 0.030610967 0.86570019
0.063645698 0.088608131 0.86593348
0.065449074 0.08805567 0.86843336
0.062542036 0.092132188 0.86660767
0.065435261 0.090460293 0.86825007
0.062407661 0.097363316 0.86740923
-0.015543011 0.10347049 0.86900002
-0.013056418 0.10464431 0.8653394
0.058877707 0.10485322 0.86706668
0.061904062 0.10199437 0.86790609
-0.011464941 0.10806628 0.86695522
-0.0079553993 0.10852405 0.86632234
-0.004184131 0.10956965 0.86610013
0.0577683 0.10801652 0.86657786
-0.01068411 0.11158629 0.86925924
-0.006896127 0.11257607 0.86857241
-0.0031132756 0.11352586 0.86760014
0.00066129869 0.11432813 0.86553359
0.05732777 0.11224325 0.86808336
-0.0014970641 0.1169414 0.86899996
0.0017417812 0.11843089 0.86806661
0.055560119 0.11838589 0.86576688
0.0028247226 0.1223364 0.86904448
0.0065950975 0.12320144 0.86754441
0.055736244 0.12280065 0.86851114
0.0076110656 0.12751122 0.8691619
0.011782378 0.12767285 0.86731678
0.01518177 0.12875411 0.86510003
0.05398491 0.12814237 0.8664
0.055813104 0.12782201 0.8697089
0.012412157 0.13134269 0.86891669
0.016636686 0.13252617 0.86739594
0.020059073 0.13382903 0.86670017
0.054075163 0.13239296 0.86784846
0.017955335 0.13637078 0.86919999
0.02188688 0.13762015 0.86801112
0.02651244 0.13860165 0.86630023
0.054155044 0.13662991 0.86913049
0.023901483 0.14177525 0.86928886
0.027703628 0.14225058 0.86748582
0.032925595 0.1448299 0.86500013
0.052342378 0.14257495 0.86595845
0.029437408 0.14674369 0.8691833
0.032790057 0.14732988 0.8675335
0.037836235 0.14886498 0.86663342
0.041001264 0.14969176 0.86520022
0.051313441 0.14834513 0.86674458
0.03349049 0.15078811 0.86919999
0.037933078 0.1519396 0.86884767
0.042725865 0.15331152 0.86746675
0.047535282 0.15397349 0.86665016
0.050732709 0.15225618 0.86605006
0.039569769 0.15604308 0.86919999
0.04279403 0.15705656 0.86884433
0.04732142 0.15739934 0.8686533
0.050912343 0.15602842 0.8691166
0.043647371 0.16017719 0.86970007
0.046068154 0.16013418 0.86946672
0.018512879 0.029144645 0.87000006
0.021367457 0.027951181 0.87063348
0.065793246 0.092579126 0.87300003
0.064051792 0.097278893 0.87145835
0.065751374 0.096578017 0.87244445
0.063980043 0.10202846 0.87048227
0.065853536 0.1016048 0.87380004
0.059231449 0.10872833 0.87227583
0.061725996 0.106387 0.87302732
-0.011513039 0.11338241 0.87063527
-0.0085333437 0.11442554 0.87035561
0.059377629 0.11062331 0.87442845
-0.011531025 0.11681435 0.87206745
-0.0074620941 0.11755577 0.87155575
-0.0029070172 0.11855306 0.87054682
0.057563931 0.11675934 0.87165952
-0.0072768903 0.1217133 0.8737582
-0.0025867659 0.12272502 0.8718074
0.0012068826 0.12421893 0.87091136
0.057652462 0.12181018 0.87299997
-0.0066674268 0.12520611 0.87403321
-0.0025912772 0.12701578 0.87343311
0.0022913525 0.12813272 0.87181485
0.0055362089 0.12876335 0.87060022
0.057208799 0.12822151 0.87242508
-0.00096203352 0.13004901 0.87379998
0.0027033358 0.13206799 0.87371659
0.0073726214 0.13278928 0.87177509
0.011710013 0.13383697 0.87094676
0.056548703 0.13204955 0.87269735
0.0071890983 0.13607442 0.8742221
0.012524716 0.13777803 0.87274283
0.016367713 0.13826875 0.87096685
0.054209221 0.13919362 0.87000006
0.056136616 0.13914013 0.8747499
0.013711071 0.1423054 0.87419993
0.016942326 0.14288035 0.87274069
0.021242997 0.14314525 0.87106687
0.054331079 0.14275156 0.87195563
0.017789917 0.14639828 0.87436664
0.02203715 0.14759985 0.87304991
0.026458895 0.14769338 0.87120849
0.053505518 0.14757656 0.87173343
0.028165843 0.15231937 0.87308145
0.032813471 0.15321513 0.87058687
0.036374975 0.15381788 0.87033355
0.05269748 0.1524639 0.87183332
0.032882221 0.15727785 0.87246001
0.037548006 0.15734577 0.87065738
0.041231882 0.15862621 0.87006682
0.049349111 0.15863837 0.87013352
0.052346393 0.15789516 0.8727417
0.034093671 0.16102131 0.87428331
0.038327135 0.16186078 0.87253803
0.042677488 0.16253774 0.87120008
0.047988601 0.16227739 0.87120008
0.051951528 0.1624005 0.87295002
0.043464743 0.16628978 0.87419158
0.047606841 0.1664771 0.87389314
0.051237475 0.16597304 0.87466675
0.065969095 0.10422458 0.87533331
0.06347172 0.108329 0.87691373
0.066113546 0.10853267 0.87725008
-0.014026454 0.11401603 0.87550002
0.059507519 0.11331093 0.87634152
0.062408771 0.11227085 0.87883043
-0.014018442 0.11557858 0.87500006
0.05954944 0.11746797 0.87695903
0.061388314 0.11785907 0.87987328
-0.011171536 0.12259026 0.87566674
-0.0091248704 0.12374517 0.87520003
0.059466969 0.12219291 0.87574458
0.061383866 0.12276033 0.8798095
-0.011191946 0.12730321 0.8772704
-0.0077375947 0.1276557 0.87649053
-0.0042305086 0.12870279 0.87570012
0.059621647 0.12741172 0.87802237
0.061397161 0.12606087 0.87999994
-0.01081121 0.13091221 0.87960005
-0.0071965987 0.13146368 0.87890661
-0.0028073266 0.13237549 0.87709177
0.0014851436 0.13356683 0.87555003
0.058849186 0.13241103 0.87870002
-0.00096841878 0.13582088 0.87959981
0.0025139633 0.13711727 0.87872493
0.006798171 0.13817996 0.87640011
0.010459844 0.13836595 0.875
0.057329398 0.13688123 0.87800008
0.0077718869 0.14167963 0.87872791
0.011133797 0.14222632 0.87672013
0.057334162 0.14244629 0.87808007
0.0088737002 0.14562722 0.87953317
0.01213792 0.14707839 0.8784222
0.016603811 0.14795315 0.8763501
0.020258101 0.14981097 0.87530011
0.054571643 0.14908513 0.8758167
0.056800194 0.14671575 0.87870002
0.013252531 0.15113443 0.87984419
0.017058529 0.15202869 0.87870002
0.021938292 0.15259317 0.87725013
0.025989566 0.15398711 0.87590009
0.05469523 0.1518717 0.87780005
0.017494764 0.15593554 0.87999976
0.021985967 0.15700941 0.87913322
0.026633495 0.15726052 0.87792873
0.030089393 0.15896037 0.87636679
0.023649314 0.16043715 0.87999976
0.027323272 0.16074005 0.87941653
0.032242082 0.16307284 0.87782383
0.036621645 0.16464873 0.87627786
0.032172978 0.16660252 0.87970656
0.03753148 0.16750509 0.87843341
0.042895604 0.16913196 0.87754691
0.048525684 0.16932127 0.87725854
0.052236915 0.16737416 0.87775004
0.037593901 0.17023322 0.87986642
0.04250915 0.1722483 0.87970811
0.048224777 0.17255992 0.87921095
0.051497176 0.17008489 0.87909985
0.047172148 0.17571117 0.87997752
0.06419266 0.11416314 0.88082212
0.066410795 0.11311892 0.88119429
0.063868858 0.11786883 0.88239557
0.066601768 0.1175542 0.88372827
0.062472295 0.12296312 0.88126212
0.065044612 0.12018751 0.88496679
-0.012457337 0.12933478 0.88000005
0.062568083 0.12840489 0.88261002
-0.01167066 0.13217735 0.88258332
-0.0079601128 0.13408609 0.88163769
0.059820451 0.13357183 0.88094974
0.061692506 0.13242467 0.88423342
-0.0067478619 0.13657746 0.88450015
-0.0026191154 0.13794485 0.88271427
0.00067370135 0.13943599 0.88176662
0.059948329 0.13796239 0.8828333
-0.00097392412 0.1415295 0.8846001
0.0025250544 0.14266761 0.882725
0.0061475434 0.14363086 0.88066655
0.059976622 0.14213499 0.88325
0.060054719 0.14478782 0.88440013
0.0039754468 0.14646611 0.8846001
0.0072561023 0.14774604 0.8824144
0.058178596 0.14832318 0.88096654
0.0078201918 0.15186773 0.88411117
0.011631045 0.15303499 0.88136101
0.054969389 0.15427405 0.8822
0.057161827 0.15153617 0.88217777
0.012667461 0.15741098 0.8826952
0.016781326 0.15838674 0.88133991
0.055063546 0.15782632 0.8837111
0.013877323 0.16131234 0.88480014
0.01714405 0.16100849 0.88313341
0.022085058 0.16264327 0.88308096
0.026636591 0.16326401 0.88111985
0.0550857 0.16117862 0.88406658
0.023780994 0.16626881 0.88490015
0.027012065 0.16667317 0.88267779
0.030833468 0.16847365 0.88207769
0.053229377 0.1687434 0.88063323
0.055098161 0.16697259 0.88426673
0.033046547 0.17130812 0.88258886
0.036607452 0.17266798 0.88154751
0.040064462 0.17354611 0.88006645
0.052628767 0.17252864 0.88155997
0.055110622 0.17112327 0.88446671
0.037711896 0.17651749 0.88264167
0.04207911 0.1768527 0.88103658
0.047908578 0.17761286 0.88094985
0.052363008 0.17700659 0.88262671
0.042942237 0.18124242 0.88300008
0.046987712 0.18211958 0.88293344
0.050622284 0.1812218 0.88290006
0.06661763 0.12219156 0.88757372
0.066131786 0.12727584 0.88847774
0.063489676 0.13273394 0.88630009
0.066202454 0.13237618 0.88943332
-0.010885775 0.13511015 0.88566667
-0.0080004446 0.13806953 0.88615704
0.062733613 0.13700803 0.88728327
0.06706439 0.1357509 0.88986671
-0.0075990846 0.14199962 0.88753301
-0.0031802009 0.1423641 0.88637757
0.062775411 0.14205383 0.88787204
-0.0071292152 0.14678855 0.88797235
-0.0026315153 0.14688328 0.88711816
0.0017780848 0.14724834 0.8860054
0.0056279921 0.14983054 0.88503343
0.061261576 0.14728223 0.88753331
-0.0059556598 0.15140289 0.88943338
-0.0026362946 0.15210694 0.88871109
0.0023321328 0.15187654 0.88736284
0.0072846026 0.1535923 0.88583994
0.057649814 0.15402198 0.88546658
0.06089155 0.1509815 0.88857776
-0.0026388953 0.15557784 0.88965559
0.0028888693 0.15654346 0.88887221
0.0070596808 0.15727578 0.88722831
0.010584171 0.1581277 0.88540006
0.057744343 0.15757027 0.88689995
0.0076423734 0.16108266 0.88898009
0.011711995 0.16235596 0.88749987
0.017617835 0.1636285 0.88619989
0.020493401 0.16472816 0.88546675
0.056603502 0.16272938 0.88715333
0.013524361 0.16657607 0.88873333
0.017023753 0.16697371 0.88754976
0.022169793 0.16821453 0.88647598
0.027108839 0.16973765 0.88582224
0.056517638 0.16751085 0.88712502
0.01767518 0.17077601 0.88908333
0.021979438 0.17234418 0.8883332
0.0273831 0.17279971 0.88703787
0.031523574 0.17363109 0.88606662
0.056182396 0.1726982 0.88834989
0.022571374 0.1760221 0.88926667
0.026995383 0.17714013 0.88885832
0.032349788 0.17777283 0.88715219
0.036378019 0.1787205 0.88623983
0.053515494 0.17953208 0.88536662
0.05535676 0.17767185 0.88841653
0.028870573 0.18112981 0.88916671
0.032179151 0.18191303 0.88895231
0.037330292 0.18280587 0.88755214
0.041429896 0.18348129 0.88587761
0.045240644 0.18439658 0.88500017
0.052229166 0.18327376 0.88593996
0.055432562 0.18039726 0.8896333
0.033867072 0.18538275 0.88973337
0.0371635 0.18609881 0.88920009
0.042065237 0.18743072 0.88767213
0.046967067 0.18799484 0.88643682
0.052004393 0.18744266 0.88773322
0.043239895 0.19076651 0.8891111
0.047106344 0.19268636 0.88906664
0.0517519 0.19153717 0.88910675
0.048794027 0.19528398 0.88960004
0.068794981 0.12346312 0.89078569
0.068887226 0.12777837 0.89198035
0.068932742 0.13284262 0.89256936
0.066702724 0.13780095 0.89241713
0.06655366 0.14222628 0.89415014
0.063818373 0.14750759 0.89088899
-0.0070682629 0.15237617 0.89028782
0.062660836 0.15268992 0.89212519
-0.0065222806 0.15641679 0.8912912
-0.0026447738 0.15843099 0.89173907
0.0012343746 0.1585757 0.89100021
0.060566273 0.15763645 0.89193362
-0.0023188717 0.16237538 0.89427966
0.0023471541 0.16202308 0.89325023
0.0073431041 0.16388272 0.8928225
0.058880813 0.16338235 0.89160001
0.060733769 0.16139875 0.89440018
0.0090243639 0.16640241 0.89446676
0.011337817 0.16808042 0.89276695
0.059072308 0.16973647 0.89450008
0.013177972 0.17118651 0.89338368
0.016976971 0.17351219 0.89166689
0.057262871 0.17429861 0.89230001
0.018329695 0.1773694 0.89271367
0.021876767 0.1786814 0.89139187
0.057425454 0.17645809 0.89483351
0.022668961 0.18177208 0.89313352
0.026799917 0.18261576 0.89122397
0.030571233 0.18386532 0.89040017
0.055511478 0.18314013 0.89090019
0.027684072 0.18687893 0.89372033
0.032314472 0.1876601 0.89268601
0.036856845 0.1887221 0.8918252
0.055606335 0.18760329 0.89242226
0.034059927 0.19143194 0.89480019
0.037353877 0.19121329 0.89377809
0.041944824 0.19285657 0.89214689
0.053293098 0.19334771 0.89084464
0.055677649 0.1911681 0.89356673
0.043461025 0.19673093 0.89366698
0.047040951 0.19762558 0.89175862
0.052031226 0.19705299 0.89225256
0.049086548 0.20144905 0.8949337
0.070868731 0.13251969 0.89600003
0.069159061 0.13827606 0.8955
0.070900366 0.13508007 0.89639997
0.069333099 0.14196479 0.89775372
0.06602218 0.14705683 0.89826685
-0.0076627308 0.15485993 0.89507145
0.062448341 0.1548591 0.89506686
0.066080973 0.15137029 0.89906681
0.063463397 0.15696633 0.89760011
-0.0060043163 0.16098008 0.89670014
-0.0043310765 0.16178083 0.8965174
0.0056943372 0.16492273 0.89546663
0.061753903 0.16188027 0.89708352
-0.0024230869 0.16652735 0.89769548
0.0023591348 0.1669578 0.89744461
0.0070369309 0.16776046 0.89638674
0.059144944 0.16744637 0.89560014
0.06098501 0.16540775 0.8981002
0.004043757 0.17074223 0.8998003
0.0079394924 0.17144252 0.89762241
0.011959455 0.17287685 0.89568329
0.059162553 0.17249605 0.89586675
0.0090771616 0.17574412 0.89970022
0.012400386 0.17696586 0.89740384
0.016278155 0.17832381 0.89584446
0.058705688 0.17695822 0.89737797
0.013261245 0.18062432 0.89900029
0.017410593 0.18214305 0.89687234
0.022388836 0.18430613 0.89522225
0.057580888 0.18194447 0.89725572
0.019098774 0.18700911 0.89753348
0.022182805 0.18728077 0.89655238
0.027414067 0.18913928 0.89576662
0.030742904 0.18989474 0.89539999
0.057690691 0.1856344 0.89896691
0.022463037 0.1913252 0.89820582
0.027245661 0.19213466 0.89710426
0.032138467 0.19291621 0.89705342
0.037464518 0.19344662 0.89642221
0.055802267 0.19326195 0.89556676
0.028357565 0.19571866 0.89920032
0.03286472 0.19626158 0.89862025
0.037725467 0.19684276 0.89765024
0.04178676 0.19766507 0.89589339
0.05243833 0.19983631 0.89516675
0.056012034 0.19566059 0.89893347
0.039234452 0.20145032 0.89865023
0.042317871 0.20221789 0.89742094
0.04712224 0.20261402 0.89566672
0.052794229 0.20242441 0.89714766
0.043685347 0.20610072 0.898278
0.047559656 0.2070635 0.89761859
0.052426692 0.20706613 0.89853776
0.068766832 0.14825074 0.90350008
0.068085268 0.15327549 0.90339869
0.064509258 0.15915526 0.90053344
0.067053445 0.15759671 0.90311992
0.063795365 0.16282403 0.90230006
-0.0035087764 0.16911227 0.90003371
0.061823308 0.16783626 0.90217781
-0.0026770383 0.17124832 0.9024666
0.0023712812 0.17255466 0.90197796
0.0062917159 0.17383021 0.90134472
0.061241549 0.1728161 0.90187788
0.0077566551 0.17760116 0.90233344
0.059446521 0.17918418 0.90016669
0.06135397 0.17733383 0.90353334
0.0082797464 0.18084751 0.90429997
0.012468169 0.18323608 0.90225011
0.015810024 0.18435772 0.90090024
0.059559524 0.18288128 0.90187788
0.012491742 0.18583253 0.90399992
0.01684026 0.18762916 0.90212011
0.058749363 0.18800741 0.90233344
0.018366072 0.19228777 0.90272504
0.022536354 0.19446804 0.90115589
0.058392212 0.19241452 0.90332496
0.01923638 0.19508182 0.90399998
0.023009773 0.19701512 0.90322506
0.027606061 0.19829397 0.90203357
0.032219883 0.19919668 0.90169191
0.035944346 0.19928534 0.90020025
0.056820121 0.19819756 0.90287781
0.026003253 0.20030381 0.90480006
0.033551089 0.20255405 0.903575
0.037394866 0.20291628 0.90145022
0.056199666 0.20302612 0.90194458
0.0380813 0.20698664 0.90311325
0.042367388 0.20820865 0.90113354
0.054438267 0.20943351 0.90063375
0.056800287 0.2065243 0.90256673
0.03949859 0.21037912 0.9047001
0.043241017 0.21179858 0.90357494
0.047746513 0.21206997 0.90115577
0.052795149 0.21245234 0.90125263
0.056338143 0.2119378 0.90416676
0.048711985 0.21513417 0.90346664
0.052964978 0.21529292 0.90413338
0.071648374 0.14493054 0.90585721
0.069962241 0.14662255 0.90590012
0.072128735 0.14841788 0.90657878
0.069892749 0.15152733 0.90500003
0.071603179 0.15157516 0.90528572
0.069942713 0.15753232 0.90564716
0.070223734 0.15562774 0.90928584
0.067637086 0.16222043 0.90642691
0.070203088 0.16234729 0.90901858
0.064462945 0.16724467 0.90578341
0.067157477 0.16679741 0.90794188
-0.0018410987 0.1734699 0.90530014
0.064071931 0.17196012 0.90621686
0.06671305 0.17223555 0.90766692
-0.0018463916 0.1773483 0.90790582
0.0021709211 0.17724736 0.9063127
0.0057587773 0.17858118 0.90560013
0.063652039 0.1770246 0.90625858
0.06678661 0.17773519 0.90865719
-0.001001742 0.18111512 0.90986663
0.0025993814 0.18231726 0.90847516
0.0068900175 0.1826667 0.90636683
0.062426504 0.18220448 0.90686136
0.066410109 0.18142694 0.90930831
0.0035213819 0.18666583 0.90942222
0.0074639893 0.18744102 0.90771133
0.01218003 0.18806911 0.90586013
0.062524624 0.18756019 0.90828919
0.065753132 0.18678427 0.90999991
0.0086077861 0.19169438 0.90920001
0.012539568 0.19245891 0.90748912
0.015895048 0.19208919 0.90574455
0.059818543 0.19294283 0.90580004
0.061707079 0.1927226 0.90873361
0.01425714 0.19701053 0.90901685
0.017402012 0.19769692 0.90731692
0.02181128 0.19886576 0.90591681
0.059467159 0.1978112 0.90687519
0.061761402 0.19712198 0.90953344
0.018780703 0.20183456 0.90916681
0.022909572 0.20240781 0.9076252
0.027722217 0.20306148 0.90583897
0.031089667 0.20298576 0.90550005
0.058155622 0.20230164 0.90621132
0.060057387 0.20301855 0.90941679
0.02442687 0.2062912 0.90893364
0.028038891 0.2073497 0.9082765
0.032838508 0.20758158 0.90717804
0.036171295 0.2081268 0.90588343
0.058181643 0.20829529 0.90661681
0.034019258 0.21184431 0.9085781
0.037714601 0.21292263 0.90746695
0.041820366 0.21355341 0.90626687
0.058298215 0.21293765 0.90843338
0.039683413 0.21643597 0.90893346
0.043227397 0.21762623 0.90772533
0.047786336 0.21801612 0.90646207
0.053146239 0.21856336 0.90723354
0.056575939 0.21705507 0.90798366
0.071986839 0.1633921 0.91013634
0.068683468 0.16869602 0.91135001
0.070553064 0.16740415 0.91355014
-0.0044102217 0.17492619 0.91290009
0.068698384 0.17297155 0.91154796
0.07063929 0.17016035 0.91466695
0.0686993 0.17636517 0.91156
0.070459105 0.17990896 0.91233337
-0.0020217956 0.18332934 0.9107734
0.00069557817 0.18460827 0.91040003
0.067258254 0.18394312 0.91045988
0.071371928 0.18176338 0.9131251
-0.0018546311 0.18749833 0.91210008
0.0019709915 0.18820375 0.91140842
0.067612417 0.18838856 0.91065991
0.071202077 0.18652008 0.91313016
-0.0014308542 0.19155911 0.91325861
0.002189575 0.19236052 0.91403776
0.0071531138 0.19358842 0.91121995
0.063594915 0.19246191 0.91149998
0.067120068 0.19245696 0.91320008
0.070591673 0.19130006 0.91405022
0.0024049047 0.1957155 0.91482258
0.0075154621 0.19749846 0.91388363
0.011752704 0.19766964 0.91205835
0.063177362 0.19756901 0.91159999
0.066042207 0.19610672 0.91400009
0.0092301797 0.20083043 0.91486704
0.013308348 0.20160262 0.9137336
0.016588604 0.20323682 0.91293341
0.061981563 0.20248702 0.91275018
0.018313169 0.20688754 0.91405582
0.022251477 0.20765783 0.9124611
0.060843777 0.20715074 0.91272241
0.023543883 0.21189956 0.91416013
0.027704684 0.21234246 0.91222501
0.031822484 0.21282603 0.91036659
0.060360078 0.21084161 0.91400027
0.072379053 0.16683556 0.91509539
0.071649879 0.17223775 0.9166714
0.072371528 0.18383899 0.91500002
-0.0010120175 0.19665208 0.91920024
0.0032665427 0.19881268 0.91733313
0.0058210948 0.19924477 0.91540027
0.067445539 0.19802071 0.91762227
0.0035574369 0.20224684 0.91872215
0.0075430549 0.20305827 0.91723806
0.011798269 0.20354122 0.91557527
0.063913517 0.20279799 0.91606659
0.0092705339 0.20683631 0.91886669
0.01267862 0.20739526 0.91755557
0.016638 0.20895517 0.915667
0.063170038 0.20656499 0.91766667
0.013978518 0.211465 0.91854984
0.017804069 0.21241693 0.91712785
0.022336602 0.21355207 0.91590029
0.061452322 0.21251246 0.91755849
0.002430029 0.20462064 0.92430007
0.066646658 0.20247783 0.92236668
0.0041489173 0.20695466 0.92320001
0.0070103877 0.20816638 0.9222278
0.064365856 0.20852476 0.92255002
0.0079444256 0.21216004 0.92418659
0.011698926 0.21284342 0.92118675
0.068023816 0.20316467 0.92549986
0.070238486 0.20285614 0.93198347
