# .PCD v0.7 - Point Cloud Data file format
VERSION 0.7
FIELDS x y z
SIZE 4 4 4
TYPE F F F
COUNT 1 1 1
WIDTH 1252
HEIGHT 1
VIEWPOINT 0 0 0 1 0 0 0
POINTS 1252
DATA ascii
0.018978227 0.059502181 0.81999981
0.022318443 0.058828492 0.81912005
0.027359197 0.058673467 0.81908339
0.017866073 0.062484462 0.81910485
0.022269528 0.06250231 0.81736004
0.027529245 0.062255669 0.8179214
0.031206371 0.061777756 0.81983316
0.018341642 0.066733882 0.81889355
0.022764327 0.067084745 0.81659496
0.027471039 0.067406967 0.81782675
0.018978229 0.070179693 0.81999987
0.022198111 0.071989916 0.81890023
0.026583534 0.072608516 0.81871867
0.022934977 0.053713329 0.82480013
0.028308863 0.053694516 0.82451129
0.032909159 0.053674262 0.82420015
0.037537802 0.053698137 0.82456672
0.013423793 0.058720935 0.82331115
0.017499609 0.057376884 0.8223666
0.021874893 0.056160036 0.82213324
0.027443685 0.055800006 0.82164991
0.032790095 0.057296071 0.82119423
0.037458107 0.057408016 0.8227945
0.013089982 0.062552184 0.82249987
0.015924141 0.062571004 0.82023317
0.033207934 0.062824979 0.82070452
0.037475012 0.062794261 0.82315564
0.014065715 0.067025036 0.82340002
0.01632037 0.067587562 0.8209331
0.029707534 0.068710163 0.82066643
0.032839563 0.067327112 0.82240736
0.036500618 0.066457935 0.82428908
0.017502727 0.071931295 0.82258087
0.021042943 0.07433787 0.8209998
0.029417446 0.073024005 0.82110643
0.031975947 0.071739465 0.82389343
0.01830014 0.07511434 0.82393348
0.022640703 0.077623852 0.82344443
0.027027648 0.077933401 0.82293338
0.031400427 0.075205266 0.8249312
0.0099107558 0.05399121 0.82906699
0.013306478 0.053351779 0.82872027
0.017607527 0.05311754 0.82747769
0.02183483 0.052690782 0.8268165
0.027174314 0.052649915 0.82738668
0.03336712 0.051760633 0.82793343
0.037644953 0.051872768 0.82692385
0.042324439 0.052376509 0.82793343
0.045493316 0.05247125 0.82942247
0.0093798162 0.057751548 0.82772225
0.012450762 0.056394327 0.82663339
0.01603481 0.055323545 0.82593328
0.042125963 0.057244379 0.82705337
0.045496974 0.057105009 0.82948905
0.0092706308 0.062176574 0.82717323
0.011400779 0.064468972 0.82500017
0.04248739 0.06263151 0.82836986
0.0099083642 0.067856036 0.8288669
0.012043694 0.068005115 0.82693326
0.038114388 0.068126798 0.8259334
0.041461036 0.067574963 0.82921362
0.013175522 0.072199494 0.8278501
0.016021866 0.073700748 0.82526684
0.034150846 0.072644018 0.82633328
0.037503801 0.07221704 0.82804173
0.014157625 0.076712318 0.82876682
0.017389644 0.077432297 0.82763809
0.021411911 0.079086214 0.82540005
0.029878888 0.078318872 0.82539999
0.033050608 0.076996379 0.82768929
0.018300196 0.081735052 0.82889539
0.022069579 0.0827768 0.82697994
0.027403576 0.082636289 0.82669681
0.030781012 0.082512483 0.82896698
0.022496138 0.08746165 0.82889545
0.026893508 0.087835431 0.82825941
0.03002248 0.087180883 0.82936698
0.023843974 0.091070421 0.82966691
0.026926883 0.091028936 0.8292892
0.01387431 0.04971581 0.83496642
0.017766343 0.049712505 0.83491087
0.022436254 0.049709857 0.83486646
0.027085684 0.04967016 0.83419991
0.032505661 0.049633443 0.8335833
0.03792483 0.048827346 0.83307773
0.042549033 0.048784509 0.83234447
0.047289785 0.04887126 0.83382225
0.050446916 0.049693979 0.83459979
0.0037519431 0.054368906 0.83486646
0.0077145002 0.052883159 0.83322221
0.012648733 0.051424116 0.8312
0.017668515 0.050984532 0.83033341
0.022326134 0.051009089 0.8307333
0.02698504 0.05103093 0.83108884
0.030870084 0.051047988 0.8313666
0.047947984 0.052618429 0.83174443
0.051034074 0.052451808 0.83401328
0.0031275295 0.057451386 0.83453321
0.0063977232 0.057052176 0.83194292
0.047966171 0.057281796 0.83205557
0.050454978 0.057466123 0.83473319
0.0033623218 0.061741032 0.83479983
0.0066467095 0.062499333 0.83198333
0.047243044 0.061992738 0.83296287
0.050471101 0.060590629 0.83499974
0.0068547344 0.067473076 0.83367318
0.043649852 0.068427473 0.83113337
0.046051931 0.067030139 0.83393323
0.0091801034 0.072848856 0.83307761
0.011470795 0.07412941 0.8300668
0.039431099 0.074308023 0.8320666
0.042601604 0.072873764 0.83334804
0.0099721197 0.076050311 0.83419991
0.01212014 0.077721693 0.83214664
0.034733865 0.078856573 0.83106649
0.037748087 0.077337652 0.83342499
0.041906036 0.076123245 0.83499974
0.013503595 0.081895724 0.83277142
0.016655134 0.083001412 0.83128881
0.033398792 0.082576685 0.83155835
0.036390524 0.082189769 0.83351117
0.014125864 0.085910499 0.83451098
0.017720819 0.087288342 0.83284444
0.02155623 0.089667365 0.83096659
0.0329437 0.087677516 0.83208489
0.036429327 0.086934529 0.83439988
0.018536264 0.090828329 0.8345331
0.022382773 0.092716366 0.83288884
0.027017357 0.09365797 0.83207774
0.032210588 0.092468485 0.83391988
0.027422851 0.096935406 0.83498639
0.058577593 0.042962685 0.83958745
0.060101356 0.042932823 0.83900005
0.0076809376 0.049950015 0.83890015
0.012365709 0.048350807 0.83825004
0.017824775 0.048318367 0.83766669
0.022502506 0.048299145 0.83733338
0.027203025 0.047546893 0.83782226
0.032303859 0.047609862 0.8369714
0.037888031 0.04625776 0.83798885
0.042748187 0.045901958 0.8362444
0.047433008 0.045907538 0.83634442
0.052162297 0.047767218 0.83714062
0.057088222 0.047804713 0.83861828
0.061345078 0.047919948 0.83888817
-0.001550342 0.053395145 0.83909339
0.0020037999 0.052738294 0.83673322
0.0060983049 0.051357035 0.83639997
0.053286016 0.053301744 0.83639991
0.056744128 0.052852448 0.83851683
0.061662927 0.05151394 0.8389557
-0.0017056885 0.0577171 0.83838892
0.0010283594 0.057574518 0.83631659
0.052943107 0.057631586 0.83713335
0.056474518 0.057524007 0.83935565
-0.00092310767 0.062400937 0.83844453
0.0012629025 0.062574156 0.83660001
0.052201051 0.062347721 0.83774281
-0.00092426973 0.066383347 0.83950007
0.0021997662 0.066981845 0.83721477
0.0053166095 0.069999501 0.83606654
0.048198387 0.067668714 0.83608872
0.051053882 0.066667497 0.83816671
0.0033772332 0.071376696 0.8385334
0.0061015543 0.073179655 0.83685559
0.047635034 0.072892234 0.83713329
0.050728984 0.071048357 0.8392669
0.0080555156 0.077699766 0.83734161
0.039576419 0.07924246 0.83513314
0.04299425 0.078279614 0.83669519
0.047089275 0.077747956 0.83815247
0.0084728245 0.081247412 0.83979994
0.01063733 0.082906127 0.83761328
0.0388676 0.082497947 0.83663327
0.042414598 0.082454465 0.83844775
0.012820745 0.087565906 0.8374933
0.038928602 0.08730188 0.83793336
0.04133755 0.085879423 0.83926684
0.014708529 0.092001401 0.83813334
0.017273726 0.092310257 0.83623314
0.02168664 0.094875842 0.83599997
0.034395844 0.094289832 0.83539981
0.037540235 0.092120402 0.83745837
0.01851509 0.096734025 0.83861911
0.022490494 0.098095536 0.83692592
0.026744952 0.09911719 0.83569992
0.032405641 0.097893529 0.83641189
0.036622472 0.097535811 0.83881676
0.023056911 0.10244855 0.83857793
0.027199371 0.10286102 0.83769631
0.031911179 0.10293945 0.83833337
0.035075173 0.10226838 0.8392334
0.049487907 0.0393009 0.84479994
0.052100245 0.038242791 0.84457779
0.056502506 0.038464062 0.84368336
0.0085252859 0.044025782 0.84499991
0.011677158 0.044025782 0.84499997
0.022708712 0.044025782 0.84499991
0.027790528 0.043569461 0.84378338
0.032124933 0.04318608 0.84396672
0.037259433 0.043255813 0.84314287
0.042928059 0.04253497 0.84318513
0.047790423 0.042333689 0.84265196
0.052544482 0.042365614 0.84326673
0.056736834 0.042085495 0.84214842
-0.0017177539 0.048716363 0.84456658
0.0024424102 0.047542572 0.84366673
0.0069235023 0.046997122 0.8419407
0.011903376 0.045976389 0.84235573
0.017923899 0.046235319 0.84232211
0.022621928 0.046205517 0.8417778
0.027322143 0.045408171 0.84148884
0.032012064 0.045381788 0.84099978
0.0359318 0.045379989 0.8409664
0.053180691 0.045376401 0.84089994
0.055526007 0.045371 0.84079975
-0.0062806485 0.053068321 0.84382677
-0.0031717974 0.05172566 0.84242862
0.0022119314 0.050122693 0.84179997
0.0053458619 0.05005521 0.84066647
0.058634274 0.054729257 0.8403998
0.061593868 0.054225452 0.84227163
-0.0062806485 0.057463069 0.84382677
-0.0040628738 0.057897136 0.84099978
0.058134962 0.058400866 0.84073323
0.061748225 0.057824396 0.84277976
-0.0056576869 0.062097363 0.84493327
-0.0032826576 0.062647089 0.84175563
0.053966437 0.064149775 0.84093314
0.057184204 0.062674381 0.84211111
0.06113752 0.062549405 0.84466666
-0.0029506662 0.067655213 0.84283817
0.053403281 0.067672119 0.84193343
0.057107568 0.067099877 0.84430486
-0.0014545512 0.071194865 0.84408885
0.0012707083 0.072351471 0.84170663
0.052783117 0.072136946 0.84287769
0.0026059239 0.075633153 0.84251672
0.0061357236 0.079072386 0.84160006
0.049255531 0.07900162 0.84083319
0.051439498 0.077054717 0.84234452
0.0072460608 0.082492188 0.84294683
0.044554569 0.08370091 0.84089988
0.047776237 0.083065093 0.84237784
0.051013105 0.082436398 0.84396678
0.0085252859 0.087252021 0.84499991
0.010458509 0.088126034 0.84208333
0.04327964 0.088001966 0.8427667
0.047504958 0.086813003 0.84455001
0.012096249 0.092302382 0.84292394
0.039829165 0.093037948 0.8404665
0.042695593 0.092418335 0.84399062
0.013763201 0.096843481 0.8441112
0.016863467 0.098131202 0.84168881
0.039252549 0.097382665 0.8415333
0.041980259 0.096998148 0.84431672
0.017917026 0.10182793 0.84204769
0.021554718 0.1043058 0.84097767
0.037816301 0.10201398 0.84214818
0.018908592 0.10648888 0.84422666
0.022828061 0.10791342 0.84216672
0.02731174 0.10797867 0.84114796
0.032039016 0.10804921 0.84169626
0.036391992 0.10720044 0.84382868
0.022886716 0.11250784 0.84431672
0.027387012 0.11298422 0.84347415
0.031598568 0.11252105 0.84392232
0.035316184 0.11161589 0.84499991
0.024284655 0.11633151 0.84499991
0.027435794 0.11632845 0.84497768
0.030588388 0.11633151 0.84499991
0.048879571 0.034715153 0.8479445
0.051879101 0.03460484 0.84525001
-0.012025577 0.037939303 0.84950006
0.02917954 0.039536607 0.84986693
0.033138134 0.039531954 0.84976685
0.03705271 0.039480779 0.84866697
0.043042056 0.039143104 0.8482002
0.047994345 0.038056668 0.84626263
0.053741548 0.036717098 0.84562206
-0.017305048 0.042676032 0.84941268
-0.0072735487 0.044264276 0.84957796
-0.0025190916 0.044244587 0.84920031
0.0022278333 0.043381095 0.84777802
0.0067409361 0.042556949 0.84709531
0.012761999 0.042042911 0.84731126
0.018027533 0.042758118 0.84718347
0.022782488 0.042139355 0.84774303
0.02717706 0.041594978 0.84673345
0.032246206 0.040986329 0.84715563
0.036951724 0.040947631 0.84635562
0.040907826 0.040957846 0.84656662
-0.019935476 0.04581349 0.84900004
-0.010438382 0.048987482 0.84926695
-0.007264134 0.04735795 0.84839284
-0.0027372597 0.046816681 0.84676206
0.0014339206 0.045617443 0.84536666
-0.010436743 0.051348995 0.84913361
-0.0078903371 0.051412921 0.84756023
-0.0080511887 0.057190914 0.84793359
-0.0064646234 0.0630484 0.84720016
0.063291289 0.063545235 0.84677786
-0.0056642345 0.067677803 0.84591103
0.058229856 0.069249265 0.84589988
0.062065378 0.067575783 0.84710336
-0.0056826859 0.071054436 0.84866691
-0.0030408809 0.073025391 0.84711123
0.054244552 0.073914491 0.84526652
0.057514343 0.072488792 0.84697044
0.061210278 0.07226304 0.84895027
-0.001461728 0.076285087 0.84831142
0.001909034 0.07815472 0.84690678
0.053917836 0.077548988 0.84631664
0.057070106 0.076801047 0.84820014
0.0034167061 0.081679404 0.8483336
0.0059083118 0.083462752 0.84642226
0.05303362 0.082193233 0.84687781
0.05609832 0.080602437 0.84946704
0.0065199337 0.087890618 0.84792387
0.048280548 0.089057252 0.84571999
0.051856857 0.087347336 0.84745342
0.0081552621 0.092639238 0.84755015
0.010110389 0.09362492 0.8457666
0.044814188 0.093628697 0.84579998
0.047870997 0.09283603 0.84754181
0.051353596 0.091678038 0.84960026
0.0085602663 0.096290641 0.84846687
0.011378277 0.097932495 0.84629333
0.044100787 0.098118313 0.84721678
0.01425118 0.1022496 0.84813356
0.016445085 0.10401035 0.84706676
0.042508915 0.10262126 0.84697509
0.045022603 0.10117642 0.84973353
0.017250912 0.10726514 0.84790021
0.038487807 0.1077414 0.84543324
0.041321486 0.10706552 0.84808588
0.019198321 0.11143185 0.84658337
0.021156944 0.11410466 0.84596658
0.033241529 0.11432608 0.84566659
0.037444886 0.11214691 0.84730494
0.040225662 0.11133331 0.84883356
0.019645557 0.11607016 0.84883362
0.022756653 0.11815768 0.8468191
0.027458623 0.1187849 0.84567779
0.032230493 0.11814442 0.84672397
0.035465725 0.11682459 0.84857816
0.022814428 0.12108711 0.84895587
0.027549021 0.12312403 0.84847426
0.0323148 0.12266468 0.84894109
0.027576158 0.1264043 0.84931135
0.03154137 0.12642248 0.84943354
0.046039123 0.033369858 0.85389447
-0.011019108 0.038643554 0.8534357
-0.0077104559 0.03933344 0.85404569
-0.0025342975 0.039750591 0.85446674
0.0022460539 0.039732493 0.85407799
0.0070265532 0.039746717 0.85438347
0.012583326 0.039685074 0.85305834
0.018560706 0.039311588 0.85356665
0.02292341 0.038546868 0.85298574
0.027322685 0.038652018 0.85127991
0.032004047 0.03841158 0.85121667
0.0375912 0.037647791 0.85187501
0.042012107 0.037299205 0.85296661
0.046710197 0.036449667 0.85161656
-0.015637472 0.043206021 0.85211831
-0.012046686 0.04275636 0.85102582
-0.0072871945 0.041972995 0.85118884
-0.0025250982 0.042320948 0.85138088
0.0022371428 0.04117557 0.85106659
0.006990476 0.041123968 0.85000002
0.018104322 0.04116267 0.85079992
-0.021569567 0.04750444 0.85100001
-0.017407499 0.047713462 0.8521601
-0.012246759 0.047310621 0.85107076
-0.020817433 0.052358564 0.8527016
-0.017153978 0.052185453 0.85246432
-0.012506622 0.05250426 0.85139036
-0.020050088 0.057195771 0.85388094
-0.016855808 0.057166047 0.85344064
-0.012068635 0.057097416 0.85241103
-0.0088656079 0.058539722 0.85033333
-0.016874257 0.060404945 0.85434246
-0.011554428 0.061416581 0.85367227
-0.0082372958 0.062698096 0.85095328
-0.010498197 0.065156735 0.85413337
-0.0080938889 0.067408659 0.85247225
0.064338133 0.069887184 0.85369235
-0.0065108212 0.073036134 0.85337508
0.063488878 0.073000081 0.852961
-0.0028424202 0.077922106 0.85125315
0.058890101 0.078697264 0.85164446
0.06162006 0.07668779 0.85278893
-0.0017362341 0.0825762 0.85352224
0.0012849325 0.082659096 0.8511132
0.054552574 0.083821975 0.85006696
0.057869989 0.082446098 0.85219532
-0.00094126136 0.085892186 0.85493356
0.0024377117 0.087020986 0.85235828
0.054287113 0.087590188 0.85210842
0.056769829 0.086951189 0.85360831
0.0038365796 0.091326728 0.85370004
0.0060485522 0.092820711 0.85137999
0.049792506 0.094883531 0.85000014
0.053141516 0.092027254 0.85284007
0.0066932612 0.097097754 0.85279334
0.010174545 0.099759862 0.85113329
0.047366787 0.097727142 0.85115713
0.051599286 0.096880652 0.85365999
0.0086187813 0.10092172 0.85426676
0.011511928 0.10306873 0.85230559
0.047236569 0.10268496 0.85289055
0.050572455 0.10065407 0.85424453
0.014341067 0.10765986 0.85350668
0.016518865 0.10843401 0.85086662
0.043490656 0.10842129 0.8507666
0.045970559 0.1078613 0.85259438
0.01498697 0.11121608 0.85400003
0.017180508 0.11289139 0.85225332
0.042426664 0.11278532 0.85213327
0.045904845 0.11253394 0.85435343
0.018543988 0.11780272 0.85280001
0.037937444 0.11712585 0.8507666
0.041585069 0.11727535 0.85350001
0.019762438 0.1215256 0.85388339
0.022860924 0.12344396 0.85068667
0.033945221 0.12494527 0.85013348
0.037201397 0.12205616 0.85204071
0.040485233 0.12238128 0.85431117
0.022894293 0.12679684 0.85194767
0.02763507 0.12904893 0.85112208
0.032411445 0.12831005 0.85147321
0.036611311 0.1263369 0.85311997
0.0237455 0.13027169 0.85395002
0.028056446 0.13254698 0.85428011
0.032109976 0.13147777 0.8540417
0.039150935 0.027209882 0.85999995
0.04075484 0.028809646 0.85999995
0.038718246 0.032382037 0.85930008
0.042236995 0.031916242 0.85754079
0.04530165 0.030232616 0.85500002
-0.010514996 0.03820727 0.85550004
-0.0070141479 0.037303664 0.85669458
-0.0027727969 0.037159298 0.85758978
0.0022571634 0.038332816 0.85831112
0.0070580784 0.038726334 0.85821676
0.012170029 0.037660848 0.85757339
0.017431092 0.037063949 0.85669184
0.0230464 0.035745513 0.85756016
0.027838076 0.035896622 0.85736674
0.032639299 0.035901394 0.85747796
0.037093338 0.035719931 0.85693341
0.042153686 0.035038587 0.85584468
-0.022534406 0.049462397 0.85750008
-0.022518564 0.05341018 0.856875
-0.021670951 0.055680048 0.85500002
-0.02065091 0.061642308 0.85680556
-0.016924441 0.062972456 0.85682935
-0.013174559 0.063140176 0.85551137
-0.020937204 0.066222429 0.85766673
-0.016651042 0.066186987 0.85925162
-0.012130494 0.066956528 0.85682869
-0.010959339 0.071523376 0.85903341
-0.0085313432 0.072511561 0.85655016
0.06444744 0.074778117 0.85514289
-0.0063796402 0.077824399 0.85714674
-0.0041388799 0.079698257 0.85673344
0.06344609 0.078566253 0.85597163
-0.0057505369 0.081488043 0.85880005
-0.0041460716 0.083030604 0.85822219
0.059662223 0.084321581 0.85513347
0.062563471 0.083180748 0.857418
-0.0022264239 0.087476298 0.8580001
0.00065386196 0.089163184 0.85580033
0.059165847 0.088031471 0.85717344
0.063184187 0.087699175 0.85965461
-0.00094581256 0.091900989 0.85906672
0.0017950208 0.092693873 0.85689539
0.054941885 0.093179695 0.85613358
0.057824802 0.092386469 0.85827625
0.0032166441 0.097092882 0.85834676
0.0054408233 0.098691814 0.85560018
0.053322349 0.097915605 0.85576677
0.055895697 0.097431324 0.85851103
0.0065926793 0.10231177 0.85735244
0.052300233 0.10250495 0.85643363
0.055113029 0.10065845 0.85879987
0.0081359996 0.1060552 0.8593778
0.011304577 0.10757668 0.85664463
0.048549414 0.10750039 0.85603356
0.051431876 0.10677676 0.85844749
0.012057215 0.11215137 0.85811669
0.015014465 0.11380785 0.85556698
0.048067436 0.1131879 0.85691118
0.050745077 0.11152241 0.85941672
0.013484173 0.11676053 0.85973346
0.015843276 0.11802607 0.8573001
0.04377351 0.11868402 0.85630023
0.046847969 0.11748753 0.85774171
0.017968819 0.12276759 0.85701114
0.043020327 0.12279228 0.85717791
0.045524176 0.12148298 0.85920012
0.019216571 0.12737857 0.8580001
0.021409547 0.12900214 0.856067
0.038188837 0.12825666 0.85640013
0.041283049 0.12732612 0.85764009
0.023354705 0.13267729 0.85717356
0.026174791 0.13365445 0.85526675
0.033402 0.13305376 0.85651684
0.037009291 0.1322809 0.85814291
0.0407422 0.13115396 0.85973346
0.024667837 0.13652933 0.85833329
0.027829455 0.13713278 0.85711122
0.032646954 0.13721897 0.85765183
0.035929173 0.13674107 0.85966671
0.028113957 0.14174311 0.85882854
0.03249938 0.14203669 0.85904998
0.033704672 0.028149672 0.86430299
0.037281696 0.028212342 0.86130792
-0.0025528483 0.033639256 0.86077577
0.0020684164 0.032308288 0.86264461
0.0063041798 0.033787407 0.86456692
0.01033911 0.033800431 0.86490023
0.017556647 0.033724885 0.86296672
0.022721333 0.032792915 0.86261433
0.028008075 0.032907385 0.86260009
0.033021126 0.032291792 0.86223751
0.036612075 0.0317127 0.8606534
-0.0057585724 0.035208713 0.86000007
-0.0017490236 0.035211861 0.86007696
0.0022647495 0.036057994 0.86118895
0.0070911944 0.036102142 0.86224443
0.011504143 0.035672486 0.86154991
0.016702708 0.035223264 0.86035568
-0.025005503 0.053606015 0.86000001
-0.023401592 0.054405898 0.86000001
-0.025005503 0.056005664 0.86000001
-0.023401592 0.056005664 0.86000001
-0.020258343 0.064209163 0.86275005
-0.020228013 0.068119422 0.86145842
-0.017413337 0.068509445 0.86132371
-0.013782395 0.068825118 0.86026669
-0.020223122 0.070505887 0.86125004
-0.017057439 0.071502529 0.86360878
-0.013009723 0.072186053 0.86218339
-0.011413932 0.077079557 0.86309451
-0.0089763552 0.076889187 0.86095554
-0.01115962 0.081465781 0.86421132
-0.0075775236 0.082345024 0.86150002
-0.0073920288 0.08646486 0.86330009
-0.0036234839 0.08914379 0.86073345
0.063221268 0.088550158 0.86015576
-0.0057851332 0.090014011 0.86396688
-0.0030195506 0.093330465 0.86278099
0.062683843 0.093030922 0.86078811
-0.0013536552 0.097608402 0.86360836
0.0010586838 0.098085374 0.86075008
0.05847181 0.097724296 0.86108893
0.061939493 0.09748847 0.86215472
0.065125644 0.098873526 0.86414176
0.0030676553 0.10259091 0.86160558
0.057105295 0.1027963 0.86165017
0.060903974 0.10251822 0.86369336
0.065892801 0.10122609 0.86364293
0.003881895 0.10686697 0.86378348
0.0065478757 0.10791111 0.86143345
0.053642206 0.10811119 0.86090016
0.056047417 0.10729158 0.86332005
0.0076278266 0.11178135 0.86244446
0.010285319 0.11365005 0.86040002
0.053069286 0.11257945 0.86200666
0.0087171495 0.11653876 0.86401689
0.011440645 0.11718357 0.86116189
0.048774395 0.11839653 0.86000019
0.051275283 0.11701309 0.86158878
0.012120842 0.12177113 0.8626501
0.015632363 0.12324041 0.86031121
0.047445901 0.12262849 0.8608287
0.051224642 0.12176281 0.86344671
0.013551872 0.12618724 0.86405015
0.016271332 0.12780911 0.86182863
0.043465346 0.12810427 0.86073345
0.04734854 0.12687179 0.86323816
0.018886028 0.1326315 0.8624056
0.021522086 0.13368285 0.86056685
0.039163079 0.13363597 0.86026686
0.042463832 0.13266233 0.86211437
0.018397974 0.13511305 0.86460018
0.022368919 0.13797155 0.86236262
0.03806046 0.13801937 0.86122859
0.041547369 0.13777332 0.86312675
0.024134658 0.14243653 0.86219347
0.02712262 0.14399841 0.86003351
0.034339193 0.14399284 0.86000019
0.037638538 0.14273337 0.86205196
0.040960185 0.14230689 0.86433351
0.024856556 0.1464221 0.86490017
0.028170982 0.14724101 0.86145002
0.032780048 0.14739254 0.86116302
0.037045427 0.14710353 0.86323339
0.029121576 0.15159607 0.8638224
0.032470699 0.15142605 0.86361676
0.0039037047 0.029098963 0.86863649
0.0055321059 0.029143123 0.86995465
0.013639249 0.029131938 0.8696208
0.016075464 0.029137943 0.86980015
0.028619476 0.028706396 0.86898327
0.031379946 0.028233163 0.86686677
0.003899721 0.030683452 0.86775017
0.0073624956 0.031814206 0.86718464
0.012189325 0.032082453 0.86742914
0.016833929 0.031467065 0.86713338
0.022513727 0.030687574 0.86786675
0.028140342 0.030646713 0.8667112
0.031312369 0.030586207 0.86500013
-0.017128648 0.074220248 0.8672111
-0.013865708 0.074070953 0.86546683
-0.017143054 0.077513367 0.86795783
-0.01389116 0.077432968 0.86705565
-0.016352866 0.081646331 0.86898464
-0.012816913 0.082556628 0.86722231
-0.011321137 0.086921148 0.86838019
-0.0082217176 0.088609815 0.86595011
-0.0071600024 0.092019551 0.86772227
-0.0058188364 0.097005151 0.86900002
-0.0033766471 0.098279253 0.86599183
0.063577108 0.099776059 0.86500013
-0.0025786171 0.10110404 0.86950004
0.00066286488 0.10249533 0.86758333
0.06328205 0.10357518 0.86648345
0.066171259 0.10326521 0.86727589
0.0019572577 0.10725806 0.8682667
0.058444932 0.10842842 0.86663347
0.061659738 0.10769286 0.86828357
0.066484153 0.10641253 0.86926156
0.0034974068 0.11228903 0.8684417
0.0060464679 0.11388931 0.86627787
0.056849983 0.11278796 0.86783344
0.062293362 0.11001242 0.86960012
0.0039080358 0.11648293 0.86960006
0.0066721542 0.11807567 0.86771911
0.053971659 0.11763813 0.86618716
0.05576976 0.11721542 0.86903328
0.0083548008 0.12236071 0.86825836
0.01035027 0.12403147 0.8658334
0.053608052 0.12296513 0.86683345
0.055825375 0.12380493 0.86990005
0.011525071 0.12773421 0.86753809
0.049137373 0.1289476 0.86640012
0.052477147 0.1275973 0.86817044
0.055823248 0.1262273 0.86986661
0.013221079 0.13213402 0.86880004
0.015619906 0.13267231 0.86703342
0.044248931 0.13365917 0.86560017
0.047604281 0.13239889 0.86788529
0.051457588 0.13152038 0.86919993
0.017183412 0.13700733 0.86845332
0.020061387 0.13868167 0.86680013
0.044276193 0.13696471 0.86613351
0.046843838 0.13738759 0.86881107
0.018493727 0.14147481 0.86909992
0.020726036 0.14235763 0.86758006
0.043170605 0.14241251 0.86707634
0.04604343 0.14145845 0.8689999
0.022524029 0.14700045 0.86831665
0.026530802 0.14998585 0.86690015
0.038360026 0.14880407 0.86627793
0.042772502 0.1470118 0.86838096
0.024427727 0.15084954 0.86877775
0.02776764 0.15335047 0.86769176
0.033296771 0.15406539 0.86626017
0.038136721 0.15228333 0.86817628
0.041200291 0.15041839 0.86939996
0.028538251 0.15648675 0.86897337
0.033051822 0.15749905 0.86831111
0.03696432 0.15647778 0.86891997
0.029863942 0.1601956 0.86980003
0.033096101 0.16054167 0.86948329
0.0039103949 0.027530231 0.87012506
0.0075800009 0.028407114 0.87225008
0.011221159 0.029169887 0.87075365
0.01800238 0.028112844 0.87148887
0.021777824 0.028361142 0.87080026
0.026884997 0.026975531 0.87185001
-0.01638248 0.084219813 0.87052393
-0.016254444 0.087320283 0.87236917
-0.01355205 0.087935001 0.87122738
-0.011142353 0.092214406 0.87338322
-0.0090859467 0.093227938 0.87146676
-0.0082839355 0.097387932 0.87243325
-0.0063936985 0.10132074 0.87368888
-0.0029137421 0.10318991 0.87209338
-0.0021256267 0.10696661 0.87302858
0.00066537334 0.10855271 0.87086689
0.063944601 0.10844465 0.87
0.067766979 0.10688323 0.87046671
-0.00096125063 0.11207787 0.87308866
0.001314591 0.1121114 0.87082684
0.059126701 0.11339527 0.87073344
0.062650092 0.11231668 0.87133348
0.06570629 0.11191972 0.87184614
-0.00096173986 0.11538487 0.87353319
0.0020212624 0.116839 0.87225556
0.058078479 0.11751172 0.87123346
0.062337641 0.11653588 0.87345701
0.065870449 0.11626302 0.87402415
0.0035192538 0.12152521 0.87386662
0.0063522984 0.12318803 0.8712585
0.058077861 0.12172438 0.87238079
0.061015751 0.12121078 0.87453318
0.0081420457 0.12776609 0.87153339
0.057406899 0.12757657 0.87278086
0.0082679456 0.13160691 0.87335539
0.011071588 0.13332018 0.87180007
0.053204026 0.13345079 0.87124461
0.055996493 0.13230079 0.8725667
0.013034636 0.13766661 0.8726266
0.015823027 0.13878173 0.8708002
0.04937306 0.13766372 0.8705557
0.052251995 0.13768102 0.87213337
0.013708981 0.14147021 0.87406647
0.016467486 0.14302614 0.87221909
0.048262034 0.14289454 0.87141913
0.051176935 0.14221303 0.87363315
0.017753197 0.14772236 0.87257773
0.020158587 0.14826488 0.87100023
0.044545427 0.14914347 0.87140018
0.047632556 0.14744022 0.8721084
0.018594097 0.15199584 0.87381649
0.021603886 0.15269546 0.87200838
0.025014622 0.15382963 0.87040007
0.042952258 0.15249456 0.87202388
0.046838503 0.1517119 0.87374443
0.022506634 0.15704863 0.87389326
0.026129572 0.15781109 0.87152237
0.039265383 0.15766013 0.87143338
0.042048268 0.15730926 0.87353325
0.028333575 0.1623484 0.87267619
0.033145063 0.16296677 0.87077349
0.037891455 0.1621155 0.87250841
0.029996697 0.16578326 0.87366647
0.033255078 0.16694163 0.87364751
0.036546338 0.16674256 0.87443322
-0.017290993 0.089581363 0.87544453
-0.016516773 0.09307754 0.87768626
-0.013384196 0.093246952 0.87621337
-0.01572763 0.098156512 0.87932187
-0.012427198 0.097987287 0.87780309
-0.011792734 0.10241979 0.87940466
-0.0080570793 0.10336744 0.87727243
-0.010816126 0.10887265 0.87999976
-0.0075236293 0.10788857 0.87864816
-0.0042350991 0.10845898 0.87665009
-0.0067108655 0.11210413 0.87966651
-0.0034184244 0.11251857 0.8765223
-0.0022776937 0.11726701 0.87789333
0.00066904078 0.11892447 0.87566674
0.063549995 0.11893354 0.87573338
0.066072091 0.11906482 0.87670016
-0.00096863892 0.12112243 0.87979978
0.0013255564 0.12286513 0.87821341
0.063336506 0.12268778 0.87761438
0.066658981 0.12224572 0.87904435
0.0035416624 0.12719882 0.87937486
0.005581995 0.12737978 0.87780017
0.059423208 0.12780057 0.87510002
0.062983185 0.12758382 0.87921095
0.066320784 0.12769783 0.87999976
0.0064038099 0.13236845 0.87840819
0.058945626 0.13258852 0.87769336
0.061397173 0.13179021 0.87999976
0.008856996 0.13719012 0.87787789
0.010478375 0.13779706 0.87655014
0.05452491 0.13837649 0.8750667
0.056726024 0.13672733 0.87754172
0.011661082 0.14231341 0.87783331
0.053545088 0.14273097 0.87681675
0.056422208 0.14066556 0.8792001
0.013122641 0.14676706 0.87852001
0.015365056 0.14822485 0.87554449
0.04966671 0.14988512 0.87573338
0.052730612 0.14663984 0.87776673
0.013793675 0.15052411 0.87946665
0.01669801 0.15304306 0.87702674
0.044734571 0.15466028 0.87510002
0.048489533 0.15328804 0.87656677
0.051501732 0.1521111 0.87917775
0.017878618 0.15693177 0.87870002
0.021100808 0.1581566 0.87643337
0.04426514 0.15818036 0.87656683
0.047852945 0.15655042 0.87840003
0.021976586 0.16184673 0.87876195
0.025592869 0.1634357 0.87632513
0.039938509 0.16484079 0.8773002
0.042937033 0.16210307 0.87838012
0.046626251 0.16043715 0.87999976
0.023627814 0.16601613 0.87919998
0.027068727 0.16800201 0.87782514
0.031712998 0.16909268 0.87607515
0.038588554 0.1681598 0.87758905
0.041685779 0.1669182 0.87964422
0.027341004 0.17188951 0.87996638
0.031994998 0.17297795 0.87822098
0.036506623 0.17300656 0.87836689
0.04005738 0.1718788 0.87991095
0.028572934 0.17516993 0.87999976
0.031843256 0.17701501 0.87967759
0.037007671 0.17724593 0.87985688
0.032675959 0.18008088 0.87999976
0.035958387 0.18008088 0.87999976
-0.012461587 0.1039972 0.88029969
-0.012060108 0.1077597 0.88093197
-0.011671731 0.11247396 0.88256454
-0.0079511851 0.11346858 0.88073313
-0.010873076 0.11520544 0.88463342
-0.0071487855 0.11665238 0.88312501
-0.003436638 0.11887588 0.8813498
0.067962006 0.11951296 0.88000005
-0.0022915513 0.12255058 0.88302672
0.068868153 0.12375759 0.88108319
0.0013318002 0.12838662 0.88248003
0.068496861 0.1278194 0.88083792
0.07140635 0.12798803 0.88200003
0.0027889668 0.13276041 0.88256198
0.0055972552 0.13427617 0.88019967
0.063627236 0.13309309 0.88165706
0.068095788 0.13286984 0.88172954
0.071388364 0.13451689 0.88177782
0.0039753723 0.13741344 0.88458347
0.0064299763 0.13782406 0.88193887
0.059191514 0.13805996 0.88135988
0.062221725 0.13703828 0.88393348
0.069091216 0.13649254 0.88395011
0.071298398 0.13762338 0.88066673
0.0085052513 0.14265272 0.88390839
0.057985693 0.14278285 0.88217777
0.060047932 0.14312653 0.88430017
0.010944291 0.14795159 0.88119149
0.054328654 0.14855106 0.88069981
0.057087984 0.14745873 0.88314998
0.012850341 0.15298514 0.88233328
0.053717852 0.15217316 0.88190824
0.055081539 0.15294443 0.88400012
0.013855364 0.15694988 0.88340008
0.015872482 0.15776585 0.88107485
0.049390558 0.15834664 0.88051087
0.05212732 0.15725638 0.88281673
0.01779094 0.16188845 0.88255328
0.020383857 0.16384755 0.88073313
0.046762746 0.16282161 0.88256669
0.050067484 0.16094773 0.88280004
0.018828521 0.16625626 0.88483346
0.021766951 0.16724247 0.88135535
0.043413345 0.16725354 0.88141108
0.045209125 0.16699484 0.88438344
0.023300549 0.17194274 0.8823334
0.025863176 0.173162 0.88088876
0.042219654 0.17191839 0.88221669
0.026992559 0.17721476 0.88202858
0.030216433 0.17845742 0.88006634
0.040809486 0.17687432 0.88196659
0.028147787 0.18141395 0.88383341
0.031698216 0.18263696 0.88217628
0.037101675 0.18261507 0.88207144
0.04024807 0.18091986 0.88410014
0.03366024 0.18589567 0.88430017
0.036097139 0.1857065 0.88340008
-0.011728086 0.11715309 0.88691664
-0.0086859586 0.11811725 0.88590002
-0.010926746 0.12156244 0.88899994
-0.0076040351 0.12226885 0.88811845
-0.004283648 0.12289731 0.88669986
-0.0059529822 0.12652802 0.88903332
-0.0028377904 0.12721407 0.88660824
-0.0021608893 0.13186024 0.88755226
0.00067678303 0.13348277 0.88579994
-0.00097737357 0.13542542 0.88773322
0.0015054706 0.13704899 0.88754982
0.062601037 0.1391893 0.88541681
0.066446669 0.1378068 0.88605338
0.070096262 0.1384937 0.88623333
0.0035775565 0.14171168 0.88831657
0.0061903917 0.14298844 0.88684422
0.06242004 0.14269717 0.88674432
0.066752158 0.14194407 0.88847494
0.070250496 0.14127749 0.88818324
0.0075762328 0.14699778 0.88781101
0.058515389 0.14835718 0.88606662
0.062175356 0.14726344 0.88816655
0.0089687593 0.15214877 0.88895553
0.010599114 0.15257859 0.88664985
0.057465915 0.1526124 0.88684988
0.06091674 0.15104578 0.88895553
0.011705534 0.15760535 0.88710004
0.053541698 0.15819912 0.88579994
0.056315176 0.15724258 0.88783979
0.013101947 0.16193482 0.8882165
0.016652843 0.16375968 0.88616657
0.048549023 0.16466616 0.88513345
0.052177664 0.16259538 0.88666648
0.056059383 0.16175468 0.88903999
0.013943196 0.16538544 0.889
0.016906332 0.16716875 0.88793314
0.020484146 0.1695929 0.88506681
0.047241267 0.1681997 0.88639981
0.05204203 0.16692506 0.88839042
0.055442944 0.16553427 0.88980007
0.018362045 0.17088081 0.88891107
0.021338424 0.17312647 0.88629991
0.043603245 0.17374803 0.88526672
0.047316957 0.17238648 0.88855231
0.050438005 0.17041048 0.88933343
0.022437248 0.17742331 0.88776648
0.025442837 0.17951855 0.88529998
0.043221809 0.17840467 0.88589996
0.046619561 0.17668545 0.88879997
0.023060385 0.18108204 0.8889333
0.026806885 0.18344069 0.88674641
0.042037554 0.18316838 0.8870284
0.045458749 0.18032289 0.88926673
0.027602885 0.1867611 0.88841653
0.03209066 0.18800892 0.88650453
0.037268221 0.18838511 0.88605702
0.042099059 0.18701857 0.88833326
0.02886516 0.19019113 0.889
0.032514025 0.19218196 0.88902664
0.037153788 0.19266456 0.88896662
0.040878139 0.19139579 0.88883328
0.037175655 0.19525962 0.88948894
-0.010951329 0.12432172 0.89100009
-0.010986507 0.12721455 0.89386201
-0.0081031043 0.12787099 0.89098114
-0.0065348595 0.13179985 0.8930003
-0.0043036984 0.13341582 0.89085031
-0.0026488372 0.13703065 0.8928085
0.00068057765 0.13920215 0.89076686
0.0015129563 0.14278087 0.8924253
0.068785787 0.14415693 0.89066678
0.070457466 0.14417852 0.89080018
0.0033457794 0.14751653 0.8929469
0.0056660394 0.14835736 0.89101684
0.067228742 0.14769523 0.89202255
0.07068418 0.14630489 0.89366692
0.0040197875 0.15225992 0.894467
0.006505175 0.15272939 0.89235026
0.062776409 0.15318929 0.89180583
0.066435114 0.15110309 0.89255023
0.0078096953 0.15741172 0.89200974
0.058887411 0.15759589 0.89170027
0.061312921 0.1575112 0.89310694
0.0084643299 0.16188954 0.8940447
0.011075556 0.16299598 0.89175022
0.058448013 0.16288714 0.89344478
0.0607564 0.16145894 0.89473355
0.013170123 0.1669284 0.89283359
0.015626933 0.1689712 0.89046687
0.053851977 0.16905969 0.89093357
0.056616683 0.16804704 0.89259356
0.017873114 0.17370677 0.89210027
0.052271277 0.17263719 0.89229071
0.055704627 0.17130469 0.89400035
0.018597189 0.17745537 0.89356697
0.020623786 0.17903711 0.89110023
0.048845217 0.17809509 0.89053345
0.0514846 0.17777474 0.89308357
0.021752685 0.1830952 0.89202803
0.047462877 0.18271111 0.89183778
0.05072096 0.18301244 0.89432245
0.023177322 0.18699262 0.89346695
0.026160739 0.18841441 0.89102244
0.043890554 0.18898273 0.89110023
0.046850111 0.18752851 0.8931908
0.027653292 0.1923134 0.89270687
0.030601561 0.19316715 0.89128351
0.043108501 0.19251168 0.89209187
0.045738205 0.19141769 0.89473343
0.029043745 0.19635969 0.89450008
0.032770578 0.19727306 0.89217651
0.037234943 0.19805783 0.89091128
0.041448329 0.19750951 0.89217252
0.033208959 0.20132148 0.89436686
0.037353572 0.20201577 0.89375591
0.040701795 0.20125397 0.89406711
-0.012701981 0.12686782 0.89728183
-0.01145441 0.13153444 0.89780778
-0.0087854676 0.13280462 0.89604455
-0.0070189973 0.13633688 0.89808017
-0.0026600654 0.13921934 0.89621675
-0.0028746459 0.14221747 0.89803344
0.00068442331 0.14498784 0.89579999
-0.0021872392 0.14736377 0.8986764
0.00068470347 0.14754783 0.89616662
0.07082127 0.14825429 0.89540023
-0.002247755 0.15093529 0.89896691
0.001520763 0.15182498 0.89681119
0.067525409 0.15334937 0.89597338
0.071388073 0.15232056 0.89726675
0.003361515 0.15653563 0.89704019
0.005695397 0.1591225 0.89563334
0.06416782 0.15747985 0.89576668
0.067841895 0.15714146 0.89740014
0.071037464 0.15706064 0.89813358
0.0040358165 0.16038392 0.8980335
0.0065354742 0.16257533 0.89630008
0.06308721 0.1621705 0.89735252
0.066603363 0.16103618 0.8985669
0.0090603475 0.16539547 0.89803356
0.011968078 0.16842756 0.89639175
0.059237391 0.16687477 0.89700007
0.061430048 0.16672969 0.89847529
0.013247687 0.17207856 0.89803356
0.015727252 0.1725572 0.89618337
0.054146126 0.17498229 0.89579999
0.058135867 0.17247164 0.89718908
0.061022356 0.17136037 0.89865029
0.01630784 0.17698903 0.89753342
0.054156199 0.1775149 0.89596665
0.056716163 0.1768465 0.89680004
0.01851009 0.18170138 0.89606667
0.053541362 0.18219534 0.89685333
0.056412593 0.18180516 0.89863354
0.019099483 0.18701623 0.89756685
0.021842169 0.18828042 0.89564443
0.049104836 0.18820113 0.89526683
0.052577708 0.18700497 0.89751923
0.022434976 0.19192448 0.89710015
0.026566986 0.19405146 0.89536673
0.044085938 0.19481896 0.89506686
0.04805119 0.19232333 0.89636666
0.051382869 0.19182779 0.89860022
0.024158567 0.19650123 0.89895022
0.026888574 0.19742836 0.89683342
0.0307492 0.19909658 0.89558333
0.044131912 0.19752231 0.89599997
0.047531858 0.19692452 0.89707047
0.028475717 0.20172465 0.89764023
0.032022834 0.20298073 0.89618337
0.039104208 0.20494626 0.89566678
0.043024272 0.20227249 0.89612222
0.04703461 0.20163356 0.89822799
0.033054221 0.20652796 0.89771134
0.03727404 0.20709676 0.89685845
0.042336486 0.20689146 0.89777941
0.046002321 0.20591496 0.89990026
0.03424263 0.21086669 0.89960009
0.037532624 0.21049945 0.89803362
0.040899053 0.21058537 0.89840025
-0.012756437 0.13327846 0.90112865
-0.011493839 0.137025 0.90096343
-0.0085538067 0.13828753 0.9009999
-0.0071651991 0.14268292 0.90229231
-0.0071668946 0.14803535 0.90253615
-0.0043522501 0.14665046 0.90090024
-0.0064652767 0.15239552 0.90265727
-0.0030111789 0.15363938 0.90158689
-0.0024403294 0.15755013 0.90367621
0.0011080473 0.15796518 0.90090847
0.072944574 0.15588567 0.90100002
0.0027096705 0.16258267 0.90282011
0.0057248627 0.16413212 0.90026683
0.068458073 0.16313566 0.9009282
0.072102629 0.16258587 0.90097803
0.0082586221 0.16780698 0.90201676
0.063870534 0.16795306 0.90100032
0.067978844 0.16780138 0.90198547
0.071390726 0.16791655 0.90260005
0.0091217216 0.17240296 0.90411675
0.011194653 0.17313007 0.90133357
0.063393459 0.17302282 0.9017145
0.067841053 0.17281073 0.90295422
0.012952012 0.17773592 0.9025287
0.015798911 0.17920412 0.90026695
0.05947734 0.17760241 0.90063375
0.062734582 0.1776949 0.90216678
0.06723848 0.17645709 0.90335
0.014172188 0.18154852 0.90359998
0.016669247 0.18289825 0.90196675
0.058791593 0.18310621 0.90299177
0.061365295 0.18156861 0.90369999
0.016979994 0.18658793 0.90358883
0.054476552 0.18946244 0.90126699
0.05665895 0.18763377 0.90255004
0.019172542 0.19192083 0.90100002
0.020832088 0.19424026 0.90010029
0.053665873 0.19292063 0.90175843
0.056383841 0.19190949 0.90490001
0.019242764 0.19514658 0.90429997
0.022281939 0.19804911 0.90219456
0.052303046 0.19725502 0.90240568
0.023714969 0.2022271 0.90336674
0.026439495 0.20270443 0.90051144
0.048891846 0.20406543 0.9015891
0.051207449 0.20156266 0.90290004
0.028183604 0.20737416 0.90260559
0.031486951 0.20890613 0.90076703
0.044363398 0.20944901 0.90070027
0.047116488 0.20839474 0.90193832
0.02936843 0.21201517 0.90450001
0.032332975 0.21255901 0.90252006
0.038089074 0.21335737 0.90128362
0.043054741 0.21230134 0.90142691
0.046136089 0.21239018 0.90251684
0.033551715 0.21516593 0.90359998
0.037418064 0.21611898 0.90336657
0.042402878 0.21560033 0.90365827
-0.0077494429 0.1448254 0.90520006
-0.0086003691 0.14662588 0.90592068
-0.0088919662 0.15184326 0.90689856
-0.0069242371 0.15702695 0.90760016
-0.0060841106 0.16142806 0.9086169
-0.0029008249 0.16214336 0.90670025
0.00069206383 0.16345596 0.9058001
-0.0022697374 0.1660075 0.90823364
0.0021752187 0.16745523 0.90806276
0.0057634404 0.16776738 0.90633345
0.0040862998 0.17084719 0.90926683
0.0066160969 0.17220007 0.90747803
0.071625523 0.17267945 0.90556824
0.0083100572 0.17729361 0.90762806
0.010825646 0.17858119 0.90560001
0.06827876 0.17753267 0.90597796
0.070070364 0.17722863 0.90730029
0.0091678537 0.18257184 0.90868902
0.011962886 0.18269467 0.90650576
0.063237958 0.18252985 0.90638351
0.067007475 0.1828001 0.90877521
0.012755685 0.18725216 0.90782106
0.015899533 0.18792945 0.90600008
0.059455834 0.18765327 0.90670025
0.062532574 0.18758558 0.90841132
0.066523112 0.18683434 0.90969324
0.013827975 0.19229257 0.90870023
0.016753362 0.19225542 0.906528
0.058203645 0.19234276 0.90694684
0.060938995 0.19297342 0.90991658
0.017895965 0.19749327 0.90735573
0.054745521 0.19797969 0.90571678
0.057245065 0.19726187 0.90784025
0.019328943 0.20193508 0.90835029
0.021543464 0.20236661 0.90650016
0.053593878 0.20263556 0.90662396
0.056589432 0.20105644 0.90820038
0.024375504 0.20754604 0.90702242
0.026040617 0.20817688 0.90610003
0.049685337 0.20811972 0.90585005
0.052699964 0.20749833 0.90787166
0.024426868 0.21136349 0.9089337
0.027284099 0.21292546 0.90735251
0.049042191 0.21280758 0.90644014
0.051567271 0.21312827 0.90924454
0.028813655 0.21763578 0.9082936
0.032567766 0.21799412 0.90637153
0.037861284 0.21908392 0.90590006
0.043267008 0.21840516 0.90588009
0.048092052 0.21781634 0.9076373
-0.007815076 0.15963684 0.91286677
-0.0061005158 0.16440636 0.91106695
-0.0061168093 0.16654477 0.91350025
-0.0030451356 0.16893807 0.91174001
-0.0015752306 0.17233305 0.91415578
0.0023972632 0.17279738 0.91211671
0.0032557878 0.17688414 0.91424191
0.0057920567 0.17707233 0.9108333
0.070286617 0.17946863 0.91009986
0.0066509061 0.1824532 0.91232795
0.070465319 0.18247037 0.91241384
0.0083490899 0.18746608 0.91194177
0.010886607 0.18975139 0.91069996
0.066973895 0.18900752 0.91119999
0.071247593 0.18731946 0.91370964
0.0092187459 0.19123372 0.9137336
0.011473938 0.19294627 0.91245562
0.062975578 0.19314663 0.91073328
0.067308962 0.19211513 0.91287512
0.070639305 0.19227916 0.91466695
0.01374795 0.19696052 0.91270012
0.01597265 0.19810571 0.91016662
0.058458649 0.19996709 0.91093332
0.062006097 0.19733359 0.91312236
0.067190193 0.19557051 0.91414469
0.016860643 0.20197357 0.91234171
0.02107355 0.2049606 0.91053325
0.057945419 0.20297463 0.91175556
0.061261687 0.20080116 0.91473365
0.018874679 0.20624542 0.91372246
0.021963369 0.20789668 0.91226673
0.056878466 0.20717315 0.91282004
0.022842906 0.21240947 0.91343343
0.053393196 0.21280119 0.91146666
0.056108784 0.21257842 0.91415578
0.024556758 0.21588708 0.9137668
0.026201546 0.21794283 0.91170001
-0.0035803285 0.17335971 0.91810012
-0.0010108437 0.17592901 0.91813308
0.0012704161 0.17738001 0.91680002
0.0034395098 0.18237105 0.91788656
0.004132139 0.18644677 0.91946673
0.0058271722 0.18752165 0.91635555
0.0075454204 0.19288819 0.91755992
0.072400518 0.19157496 0.91536689
0.0084137619 0.19660215 0.91896659
0.011819943 0.19793896 0.91723341
0.063848384 0.19918673 0.91513366
0.067053922 0.19855335 0.91810817
0.07077574 0.1960602 0.91643322
0.013825282 0.2020732 0.91793329
0.016089059 0.20466569 0.91680014
0.062289216 0.20306814 0.91728669
0.067612216 0.20022415 0.9199
0.014426263 0.20533544 0.91980004
0.017464507 0.20853034 0.91730005
0.058768831 0.20869452 0.91576695
0.06150952 0.20673883 0.91843313
0.018672388 0.21256305 0.91775829
0.021198921 0.21384767 0.91595036
0.060743112 0.21046846 0.91979998
-0.0010130823 0.17803031 0.92016673
0.00070382992 0.17994384 0.9212001
-0.0017076951 0.18263729 0.92441988
0.00070561247 0.18297705 0.92353344
0.002999624 0.18722601 0.92332214
0.0041491175 0.19236703 0.92324448
0.0058558569 0.19358267 0.92086679
0.006903307 0.19819972 0.92322004
0.071288019 0.19919638 0.92306674
0.008749201 0.20172857 0.92417765
0.011459885 0.20297688 0.92268336
0.06779141 0.20275368 0.92232227
0.013610008 0.20769487 0.92268336
0.063876398 0.20789975 0.92168337
0.066204622 0.20631771 0.92420006
0.016155945 0.21236753 0.9206112
-0.0027487804 0.18103121 0.92676675
-0.0018856769 0.18799527 0.92709988
0.0011383505 0.18807548 0.92537475
-0.0010224404 0.19263142 0.92866671
0.0015743177 0.19250697 0.92806667
0.0033025073 0.19718631 0.92775005
0.0041755326 0.20223258 0.92912245
0.0071817553 0.20323595 0.92582476
0.071698621 0.20293494 0.92838329
0.007919359 0.20715411 0.92794442
0.011637668 0.20831199 0.92542201
0.068456627 0.20721447 0.92667323
-0.0010255598 0.19581799 0.93150008
0.001144712 0.1973711 0.93065017
0.0024529609 0.20308143 0.9330222
0.0041910107 0.20731869 0.93256676
0.0059240074 0.20883343 0.9315834
-0.0010325692 0.19890101 0.93786663
-0.001034294 0.20098074 0.93943334
0.00071633467 0.20319763 0.93756658
