# .PCD v0.7 - Point Cloud Data file format
VERSION 0.7
FIELDS x y z
SIZE 4 4 4
TYPE F F F
COUNT 1 1 1
WIDTH 1266
HEIGHT 1
VIEWPOINT 0 0 0 1 0 0 0
POINTS 1266
DATA ascii
0.022146156 0.053667028 0.82408905
0.027526315 0.053666655 0.82408345
0.032874916 0.053617831 0.82333332
0.037510332 0.053658348 0.8239556
0.01447025 0.058298338 0.8245557
0.017644744 0.057608593 0.82268482
0.022077633 0.057319298 0.82152766
0.027425596 0.057289425 0.82108724
0.032784842 0.057288721 0.82107192
0.037421599 0.057352696 0.82199436
0.040608585 0.057526045 0.82446682
0.014471031 0.0613699 0.82460016
0.017698942 0.062574759 0.82278323
0.022065768 0.062635556 0.82108116
0.02742284 0.062629186 0.8209998
0.032792732 0.062650025 0.82126641
0.037457358 0.062765785 0.82277769
0.040631577 0.06139471 0.82493359
0.019081613 0.065960974 0.82446682
0.022309018 0.067184791 0.8230083
0.027480306 0.067351997 0.82271105
0.032872181 0.066630013 0.82325554
0.035972379 0.066685304 0.82393336
0.027293438 0.070590511 0.82480019
0.0099139428 0.053236954 0.82933366
0.013210087 0.052833967 0.82820958
0.017595785 0.05231221 0.82693332
0.022238972 0.051579136 0.82750005
0.027320066 0.051710319 0.82783806
0.032613564 0.05149233 0.82786667
0.037636619 0.05153209 0.82673317
0.042281378 0.052323461 0.82709622
0.04547381 0.052448634 0.82906693
0.0099099586 0.057071071 0.82900029
0.01257731 0.057092663 0.82653326
0.016019277 0.055269949 0.8251335
0.043027937 0.056907684 0.82662225
0.045857996 0.056686874 0.8290168
0.0099123484 0.060169779 0.82920033
0.012783498 0.06273587 0.82744163
0.016017983 0.064474188 0.8250668
0.042619653 0.062676013 0.82766664
0.013929556 0.067557767 0.82900029
0.01739507 0.067859679 0.82656664
0.020632589 0.069072954 0.82500017
0.032945398 0.069080405 0.82508904
0.038037539 0.067829587 0.8258667
0.041922685 0.067623436 0.82872409
0.017625019 0.072434165 0.8283335
0.022188149 0.072200596 0.82565939
0.027651262 0.072678059 0.82527423
0.033008069 0.072285384 0.82662958
0.037482705 0.071981788 0.82819068
0.018667568 0.07607621 0.82884473
0.022249332 0.077019654 0.82792592
0.027431119 0.076843917 0.82753944
0.032209668 0.076879635 0.82879061
0.023061037 0.080234811 0.8293336
0.025379071 0.080228366 0.82926697
0.013849048 0.049626492 0.83346677
0.017722202 0.049589444 0.8328445
0.022761561 0.049179677 0.83248317
0.027037511 0.048806474 0.83272219
0.032364815 0.04892103 0.83279037
0.037881259 0.048770804 0.83211112
0.042748604 0.048208382 0.83244157
0.047290277 0.048871342 0.83382219
0.050459009 0.049705885 0.83479989
0.0081481859 0.052724209 0.83342212
0.012254359 0.051009096 0.8307333
0.047928184 0.052595723 0.8314001
0.050397214 0.052746892 0.83377784
0.0076274495 0.057356656 0.83314425
0.048108846 0.057576228 0.83184004
0.050424747 0.05665569 0.83423346
0.0090252459 0.06231042 0.83306658
0.011482774 0.064932622 0.83093327
0.047059491 0.062264465 0.83245993
0.0094604632 0.065754272 0.834822
0.011885826 0.068504497 0.83206666
0.044019431 0.068785906 0.83079994
0.046593506 0.067774005 0.83327621
0.013821707 0.072741978 0.8318556
0.038590334 0.074183002 0.8306666
0.042535529 0.072761022 0.8320592
0.045784634 0.072993815 0.83473319
0.014238498 0.077152081 0.8335166
0.017179603 0.077883653 0.83167785
0.034239337 0.078391768 0.83159995
0.037941243 0.077529386 0.83339995
0.042641114 0.076044239 0.83413333
0.045799252 0.076123245 0.83499974
0.014653536 0.080783039 0.83499974
0.018179942 0.081970997 0.83353323
0.022122307 0.082427442 0.83143806
0.027187835 0.082173213 0.83137494
0.032504246 0.082186528 0.83346659
0.036833208 0.081922181 0.83473313
0.019325396 0.085442789 0.83499974
0.022614606 0.08672674 0.83426654
0.02708466 0.086909927 0.83416289
0.031389534 0.085817471 0.8348664
0.023997249 0.090102598 0.83499974
0.026333183 0.090102598 0.83499974
0.0072882869 0.049549825 0.83873343
0.01203693 0.047978483 0.83719999
0.017815121 0.047511753 0.83721113
0.022118583 0.047530927 0.83754992
0.027596071 0.04638198 0.83788335
0.032473397 0.046373323 0.83774996
0.037676699 0.045857016 0.83745706
0.042381257 0.045537237 0.83668321
0.047457412 0.045930859 0.83676654
0.052197739 0.047800079 0.83771855
0.056157492 0.049146846 0.83851683
0.0030976976 0.052601457 0.83854288
0.0057065398 0.052500859 0.83604985
0.052845899 0.05286314 0.83561087
0.056732621 0.052449364 0.83833337
0.0033773333 0.057340637 0.83858347
0.0053175986 0.057568923 0.83622217
0.052614573 0.057860553 0.83722848
0.055930432 0.056720566 0.8390224
0.0037706657 0.061663788 0.83903354
0.0061000381 0.062270608 0.83668882
0.051678125 0.061825972 0.83771116
0.0072781239 0.067218602 0.83775836
0.048929449 0.067602172 0.83526635
0.050640341 0.067027897 0.83780003
0.0084598223 0.071764968 0.83851117
0.010673262 0.072740659 0.83692372
0.048212077 0.073132724 0.83632225
0.050708838 0.071020499 0.83893335
0.011836189 0.077934034 0.83776665
0.042749543 0.07857161 0.83625537
0.047512151 0.077931322 0.83773339
0.050769284 0.075010575 0.83993345
0.013911039 0.082551703 0.83718324
0.016232181 0.083223239 0.83609986
0.039018709 0.082799248 0.83653325
0.04282767 0.082610987 0.83777779
0.046044238 0.081996389 0.83946681
0.014713209 0.085790746 0.83840007
0.017617339 0.087413892 0.83713329
0.020884339 0.088556424 0.83506638
0.033165827 0.087629512 0.83548301
0.038106315 0.087207422 0.83702219
0.041854914 0.08639089 0.83917791
0.019019427 0.091671109 0.83868349
0.022293456 0.092052378 0.83683324
0.027367437 0.092213072 0.83601886
0.032641377 0.091877632 0.83701652
0.038171761 0.092037067 0.83846676
0.022939883 0.095614359 0.8390668
0.027447011 0.096267864 0.83843815
0.031933561 0.096770555 0.83893341
0.036106531 0.096250914 0.83894461
0.0069448682 0.044002626 0.84455556
0.012109751 0.043290548 0.84380966
0.017952653 0.043956321 0.84366685
0.022686586 0.043984104 0.84420007
0.02775866 0.043520525 0.84283346
0.032472789 0.0435156 0.84274995
0.03725744 0.04325309 0.84309518
0.042675514 0.043056302 0.84362847
0.047769397 0.043099184 0.84227782
0.052543838 0.0433072 0.84326667
0.057299566 0.043178964 0.8438223
0.062084701 0.043223727 0.84468883
0.066439614 0.04284608 0.84498322
-0.0014550012 0.04818425 0.84442216
0.0022154576 0.047061466 0.84308892
0.006723837 0.046775844 0.84147495
0.012412911 0.045406971 0.84146643
0.017913921 0.045427356 0.84184438
0.022626849 0.045824714 0.84196675
0.026524507 0.045385383 0.84106642
0.053190574 0.045385391 0.84106648
0.057359785 0.046520736 0.84139985
0.062008884 0.047093477 0.84364456
0.06620454 0.046855144 0.84499991
-0.0016034002 0.052232955 0.84337151
0.00095629011 0.051954657 0.84105319
0.058680788 0.053990588 0.84106654
0.061658271 0.051975284 0.8436296
0.068369433 0.051853467 0.84449995
-0.0015592834 0.057148993 0.84382677
0.0012700174 0.058241516 0.84145325
0.057739113 0.058526579 0.84255552
0.060497716 0.056569424 0.84453326
-0.00093032554 0.062888138 0.84499997
0.0017637543 0.06288936 0.84200954
0.053438157 0.063621648 0.84084421
0.057063993 0.062560648 0.843225
0.0024120118 0.067263581 0.84319174
0.0053467099 0.068831764 0.84079987
0.053257402 0.067373216 0.84211117
0.055788677 0.067586228 0.84477776
0.003401475 0.07188867 0.84455001
0.0061361231 0.072032027 0.84163332
0.05298385 0.072380289 0.84309536
0.05580334 0.070747465 0.84499991
0.0072800345 0.077018119 0.84289634
0.010053407 0.079016872 0.84099972
0.049277015 0.079818055 0.84119976
0.051699832 0.076789849 0.84231675
0.007998853 0.081739701 0.84488875
0.011191589 0.083293431 0.84242857
0.048226815 0.083291464 0.84240955
0.050998993 0.080058448 0.84373367
0.013212675 0.087781645 0.84254283
0.043552097 0.088217266 0.8417111
0.04744184 0.087754615 0.8444286
0.014420965 0.092272095 0.84418333
0.016964376 0.092682466 0.84149325
0.043089252 0.092522569 0.84288901
0.046347741 0.09196759 0.84499991
0.018131951 0.097032271 0.8429085
0.022306379 0.098032132 0.84173328
0.026498012 0.098482281 0.84023345
0.038808618 0.097528368 0.84098881
0.042347852 0.097329862 0.84378904
0.018756203 0.10133319 0.84445006
0.022660725 0.10197335 0.84324461
0.027345605 0.10184713 0.84219998
0.032046765 0.10181317 0.84191853
0.037348326 0.10172123 0.84233952
0.041598618 0.1017401 0.84456658
0.022899779 0.10667779 0.84479165
0.027414136 0.10681427 0.84431106
0.032141153 0.10682455 0.84439254
0.036861021 0.105237 0.84426659
0.025860589 0.11004401 0.84499991
0.057604592 0.034730557 0.84832078
0.0085740546 0.039535049 0.84983331
0.012519454 0.039481942 0.8486917
0.02124531 0.039519548 0.84950012
0.027581304 0.039518774 0.84948361
0.032341227 0.039526269 0.84964484
0.037087221 0.039517999 0.84946698
0.043413401 0.039508697 0.84926683
0.048122611 0.039473027 0.84850025
0.053517394 0.038535573 0.8487336
0.057576135 0.037867218 0.84790391
0.06204785 0.03801889 0.84688616
0.066136844 0.038576186 0.84614998
-0.0021223088 0.04383482 0.84891701
0.0024253691 0.042776387 0.8475334
0.0069605019 0.041739564 0.8464666
0.012945333 0.041221 0.84550655
0.018004868 0.041721392 0.84609985
0.022743145 0.04172964 0.84626657
0.027149629 0.041553598 0.84587991
0.031898614 0.041573443 0.84629333
0.036986243 0.040986329 0.84715563
0.042507838 0.040978808 0.84700012
0.047964711 0.040916461 0.84571105
0.052713584 0.041323494 0.84599996
0.057442743 0.040927213 0.84593326
0.06212971 0.040897116 0.84531099
0.067216381 0.042180642 0.84582615
-0.0063138753 0.047671318 0.84834701
-0.0030391309 0.046751756 0.84693342
0.067702428 0.047617547 0.84598339
0.070045054 0.047995411 0.84570372
-0.0063071041 0.051713783 0.84734678
-0.0040850942 0.051922735 0.84559995
0.063768432 0.053528666 0.84613341
0.067244656 0.05210663 0.84575564
0.070011325 0.050330877 0.84529632
-0.0056840982 0.056860585 0.84887809
-0.0035638337 0.05801006 0.84645563
0.062269066 0.057197992 0.84719056
0.06781359 0.055712271 0.8474111
-0.0033072748 0.063117534 0.84807801
0.059085477 0.06460242 0.84686673
0.061566856 0.062351882 0.84840012
-0.0020642213 0.067599818 0.84776199
0.0006456612 0.069181055 0.84506649
0.058315825 0.067775927 0.84714454
-0.00093458249 0.071071185 0.84886706
0.0012787685 0.072819233 0.84714681
0.057571143 0.072558694 0.84780014
0.0027551251 0.076779313 0.84795564
0.0053827432 0.078743197 0.84646672
0.053917564 0.077549458 0.84631658
0.056666743 0.077037111 0.84848022
0.0038187525 0.080627747 0.84973347
0.0061777094 0.081979118 0.84736681
0.052532446 0.081971504 0.84728891
0.0081585012 0.086366922 0.84788352
0.010503607 0.088504806 0.84569991
0.049523056 0.088866189 0.84539992
0.051951598 0.08725033 0.84825718
0.0085669914 0.090048142 0.84913367
0.011706135 0.092999145 0.84723818
0.04845921 0.093141027 0.84647614
0.051332444 0.092430502 0.8492502
0.013489062 0.09756767 0.84755844
0.016426966 0.099173807 0.84613329
0.044842448 0.09762422 0.84633332
0.047487114 0.09723682 0.84845364
0.014900396 0.10109701 0.84906703
0.017395264 0.10309055 0.84728014
0.043868292 0.10305195 0.84782243
0.046600062 0.10116053 0.84960037
0.018964555 0.10680342 0.84672004
0.021157777 0.10860051 0.8459999
0.036926705 0.10778549 0.84577775
0.041302588 0.10701761 0.84770501
0.045015536 0.10590184 0.8496002
0.01964324 0.11131999 0.8487336
0.022757646 0.11186184 0.84685194
0.027683515 0.11201547 0.84652501
0.032261923 0.11195436 0.84754831
0.037020762 0.11121702 0.84794468
0.041019253 0.11054757 0.84886694
0.023139331 0.11596747 0.84924018
0.027173756 0.11571154 0.84910023
0.030742835 0.11533903 0.84926695
-0.0033293152 0.034963071 0.85400003
0.048483264 0.034998551 0.8548668
0.053153381 0.034130901 0.85306948
0.05639771 0.033374466 0.85400003
-0.010496559 0.03972888 0.85399997
-0.007106063 0.038308393 0.8533361
-0.00253085 0.038111694 0.85337859
0.0019240857 0.039051123 0.85309571
0.0059456546 0.039099179 0.8518483
0.014190769 0.038140286 0.85400009
0.018130166 0.038843356 0.85202783
0.02322704 0.038704194 0.85244668
0.02766824 0.038453571 0.85215837
0.032407932 0.038024168 0.8513999
0.03717041 0.038022678 0.85136658
0.041576229 0.038453389 0.85215831
0.047545791 0.037273038 0.85236245
0.052266009 0.037237778 0.8515501
-0.011883174 0.04307659 0.85344481
-0.0072869244 0.042760357 0.85111308
-0.002840946 0.041795924 0.85080659
0.00065009278 0.041165896 0.85086656
-0.015266472 0.047646221 0.85353899
-0.0120606 0.047554437 0.85190749
-0.0084695769 0.047073521 0.85036659
-0.01527472 0.050849117 0.85400003
-0.011873089 0.052162807 0.85273099
-0.0084800301 0.052677527 0.85143334
-0.011300303 0.055649761 0.85453486
-0.0077085379 0.056801531 0.85391676
0.064122654 0.058574136 0.85083336
0.066967733 0.058238313 0.85170001
0.070613191 0.057901144 0.85256314
-0.0057089096 0.061074734 0.85258347
0.063843004 0.062645115 0.85239166
0.06697236 0.061391365 0.85480022
-0.0041169003 0.068971887 0.85218334
0.062678531 0.06769383 0.85274076
-0.0018915158 0.073212154 0.85171998
0.059394784 0.074442074 0.85129994
0.061741143 0.072686791 0.85299337
-0.00093973847 0.077021077 0.85355002
0.0011808772 0.078805633 0.8528223
0.059090883 0.07812801 0.85263336
0.061168689 0.07625784 0.85390007
0.0030362308 0.082507588 0.85283327
0.0054107229 0.083900876 0.85086656
0.054593228 0.083093464 0.8506999
0.057440121 0.082254894 0.85255718
0.0038387768 0.087406754 0.85418892
0.0060553015 0.087543555 0.85243338
0.054653127 0.08714509 0.85163331
0.056771919 0.086952515 0.8536334
0.0078066508 0.092008717 0.85266668
0.010172951 0.094995178 0.85099989
0.053393036 0.092267759 0.85262227
0.056450535 0.090649083 0.85480016
0.0086185569 0.096946836 0.85424453
0.010704047 0.098180495 0.85116655
0.049057033 0.098951101 0.85098332
0.052100211 0.096823514 0.85316664
0.012975994 0.10273113 0.85280001
0.048072562 0.10306698 0.8522889
0.051116794 0.10173967 0.85446674
0.01499165 0.10727833 0.85426676
0.016928786 0.10812574 0.85154992
0.043466799 0.10836194 0.85030001
0.04613436 0.10818845 0.85268003
0.018138031 0.11259925 0.85244668
0.037127044 0.11390812 0.8503778
0.042169493 0.11293073 0.85152382
0.045869883 0.11244831 0.85369998
0.019224674 0.11645558 0.85358888
0.022472665 0.11834252 0.8509832
0.027953077 0.1181253 0.85112655
0.032597881 0.11737905 0.85116661
0.037176359 0.11722834 0.85150731
0.041827761 0.11726663 0.85322917
0.023387877 0.12201905 0.8533572
0.027715111 0.12148077 0.85356671
0.032705471 0.12213582 0.8539834
0.037291177 0.12235676 0.85414082
0.04112507 0.12207019 0.85435998
0.032921668 0.12597479 0.85443348
0.037311498 0.12560174 0.85460019
0.040514722 0.12565073 0.85493356
0.037544105 0.033606324 0.85993356
0.042328496 0.033585485 0.85940003
0.046891548 0.032154422 0.85857505
0.051341593 0.033054359 0.85601991
-0.01131322 0.039003432 0.85550004
-0.00094353699 0.035085887 0.85700005
0.0022535906 0.036691595 0.85730678
0.0078568403 0.03831818 0.85798335
0.011854705 0.037513457 0.85785007
0.017718563 0.03617936 0.85775572
0.023054373 0.03607624 0.85784018
0.027878998 0.03595018 0.85863346
0.032628436 0.035890147 0.85720015
0.037403319 0.035869904 0.85671121
0.042178262 0.035854671 0.85633355
0.046125419 0.035024483 0.85550022
-0.015310492 0.044598896 0.85600007
-0.013708218 0.054129843 0.85563642
-0.015314965 0.055761449 0.85625005
-0.012366794 0.057889219 0.85741717
-0.0089198258 0.058102276 0.8555336
-0.011090763 0.061257392 0.85886669
-0.0077969213 0.062432878 0.85723823
0.068471074 0.062881358 0.85560036
0.070855968 0.06207798 0.85549474
-0.010569487 0.067198798 0.8599335
-0.0073462892 0.067036383 0.85785192
0.067718998 0.066905469 0.85617059
0.071046278 0.067033552 0.8577922
-0.0061535118 0.071530327 0.85911667
-0.0041429056 0.072597258 0.85756665
0.064190768 0.072940223 0.8559736
0.06782078 0.071790576 0.85745186
0.071182325 0.071156934 0.85943472
-0.0028667331 0.07726828 0.85808009
0.06320969 0.078353494 0.85726672
0.066964999 0.076374903 0.8587867
-0.00094485824 0.083029158 0.85820007
0.0010533569 0.083242714 0.85630018
0.059708718 0.083591327 0.85580033
0.0631079 0.083066523 0.8585999
0.0014545621 0.087786645 0.85789996
0.059159528 0.088021562 0.8570801
0.061557926 0.086334229 0.85933334
0.0034577716 0.092245467 0.85855001
0.0058452785 0.092816383 0.8564502
0.054882001 0.093873158 0.85520017
0.057591535 0.092853405 0.85753345
0.0062538008 0.097353227 0.85782236
0.053862184 0.097133011 0.85588914
0.055864438 0.097376443 0.8580333
0.0080192108 0.10188489 0.85836011
0.010240288 0.10279535 0.85663348
0.052999485 0.10243784 0.85698336
0.05516652 0.10155594 0.85963345
0.012111451 0.10685194 0.85722226
0.015018559 0.10985857 0.85580033
0.048537482 0.10826991 0.85582322
0.051039327 0.1069032 0.85762233
0.012930843 0.11074147 0.85853332
0.015675653 0.11350091 0.85685337
0.04819981 0.11358625 0.8569001
0.050281972 0.11178356 0.85835546
0.017330501 0.11827862 0.85749531
0.043761574 0.11944747 0.856067
0.046570487 0.11780749 0.85737145
0.019218585 0.1226006 0.85806674
0.021421215 0.12349647 0.85653353
0.027772248 0.1241184 0.85533363
0.03095763 0.12409905 0.85520023
0.043397434 0.12312907 0.85675013
0.046037287 0.12195883 0.85879993
0.019898597 0.12716082 0.85976684
0.023020277 0.12749887 0.85665941
0.027783521 0.12735204 0.85567433
0.032263529 0.12835363 0.85598689
0.037417654 0.12835152 0.85703343
0.042252451 0.12767088 0.85781914
0.024286 0.13223919 0.8589834
0.027678497 0.1323829 0.85861683
0.032404665 0.13200471 0.85832232
0.037471719 0.13093027 0.85826653
0.040694814 0.13100143 0.8587333
0.038803492 0.028413065 0.8641668
0.042110968 0.028219229 0.86151278
0.0022671088 0.033683848 0.86191672
0.0071050934 0.033757146 0.86379224
0.010338712 0.03379913 0.86486685
0.017551735 0.033714462 0.86270005
0.023163743 0.033684503 0.86193329
0.028330859 0.033068545 0.86262006
0.033041056 0.032539494 0.8619858
0.037642468 0.031288765 0.86219996
0.042399917 0.031240175 0.86085558
0.0030673852 0.035251357 0.86104172
0.0070890873 0.036087696 0.86190295
0.011502592 0.035667524 0.86143333
0.016700272 0.035218261 0.86023349
0.023115406 0.035214167 0.86013341
-0.015916673 0.053872645 0.85999995
-0.016346768 0.057934564 0.86013335
-0.016201697 0.062475741 0.86096668
-0.012722948 0.063005246 0.86091477
-0.016072588 0.067091629 0.86265534
-0.012397172 0.067319877 0.8614772
-0.011757895 0.07202448 0.86298972
-0.0083336672 0.072396427 0.86086673
0.072136492 0.073710062 0.8612501
-0.01061414 0.075514726 0.86356676
-0.0071798866 0.076786295 0.86205006
-0.0041559488 0.078426689 0.86026675
0.069298096 0.077285498 0.86091667
0.072659381 0.077333711 0.86337245
-0.0033604742 0.08177074 0.86176676
0.068001054 0.081617899 0.86227083
0.072123148 0.080938764 0.86430502
-0.0022933255 0.086733729 0.86331123
0.063288413 0.088110618 0.8610667
0.067994222 0.087096132 0.86371785
-0.00095120701 0.090014011 0.86396676
0.0014608294 0.092949502 0.86138344
0.06176196 0.093034051 0.86215925
0.065138832 0.092462301 0.86431682
0.0030694173 0.09783861 0.86209446
0.058061332 0.098108284 0.86095005
0.060889751 0.097674645 0.86348677
0.0038815707 0.102842 0.86371118
0.0058764457 0.10292259 0.86103344
0.0574008 0.102892 0.86221427
0.060313392 0.1021267 0.86446685
0.0075531821 0.10730372 0.86268103
0.010280537 0.10799807 0.86000019
0.053669199 0.1073655 0.86133337
0.056056548 0.10730882 0.86346018
0.0081777284 0.11142698 0.86384457
0.011363047 0.11267187 0.86107785
0.052913874 0.11226999 0.86208898
0.055498078 0.11101384 0.86480021
0.012118952 0.11694413 0.86255842
0.015092262 0.11839653 0.86000019
0.048774395 0.11839653 0.86000019
0.051261593 0.11698144 0.8613556
0.013546648 0.12131894 0.86371672
0.016194122 0.12265492 0.86182237
0.047722433 0.12297402 0.86031127
0.051341116 0.12197762 0.86269444
0.017814076 0.12754993 0.8624
0.043989934 0.12967522 0.86053348
0.0472867 0.1275062 0.86210001
0.051439553 0.1254268 0.8643502
0.019171122 0.1316717 0.86312509
0.02219383 0.13338295 0.86172664
0.029527472 0.13439418 0.86000019
0.033269923 0.13386093 0.86000019
0.037561901 0.13364638 0.86033344
0.042647667 0.13326851 0.86176676
0.046836395 0.1312217 0.86368895
0.024149016 0.13770489 0.86269349
0.027970612 0.13782708 0.86145186
0.032790471 0.1378258 0.86144447
0.037640855 0.13793676 0.86214072
0.042318244 0.13791308 0.8632459
0.024850812 0.14156267 0.86470008
0.028242456 0.14279471 0.86363339
0.032859974 0.1429349 0.86326671
0.037188429 0.14253454 0.86408901
0.040963348 0.14151356 0.86440015
0.029689988 0.14639391 0.86473352
0.032107748 0.14638826 0.8647002
0.0039053389 0.029111143 0.86900002
0.012010191 0.028709937 0.86909938
0.016873719 0.029116357 0.86915559
0.033032928 0.029072436 0.86784452
0.037581645 0.027145226 0.86819905
0.0039053389 0.032344159 0.86900002
0.0071397522 0.031505432 0.86818004
0.012185788 0.032074042 0.86720419
0.016833987 0.03146692 0.8671279
0.022498984 0.031472243 0.86727917
0.027772244 0.031087074 0.86778337
0.032156669 0.030622749 0.86603349
-0.015525126 0.071866728 0.86800003
-0.013900789 0.073452592 0.86765635
-0.012290579 0.07752604 0.86810017
-0.0090289498 0.078949377 0.86600006
-0.010688298 0.0808952 0.86960006
-0.0074301604 0.082335807 0.86772597
0.070914179 0.083776444 0.86594099
-0.0068999766 0.086773299 0.86906666
-0.0041875932 0.08789257 0.86681676
-0.0025761698 0.09205085 0.86801904
0.00066104397 0.09497083 0.8652001
0.067822933 0.092020385 0.86771661
0.070223629 0.091179058 0.86739135
-0.0013615928 0.096567415 0.86870003
0.00066268665 0.097627729 0.8673501
0.0636959 0.097544938 0.86661679
0.066825457 0.096462153 0.86826664
0.0014741065 0.10186086 0.86905825
0.061791703 0.10257205 0.86824167
0.0034985186 0.1074765 0.86871672
0.0055120438 0.10885207 0.86680019
0.058485862 0.10850476 0.86724174
0.060587842 0.10743809 0.86840004
0.006813732 0.11336358 0.86801338
0.057044815 0.11302099 0.86786121
0.060685523 0.1100377 0.86980003
0.0083573759 0.11754993 0.86851662
0.010357042 0.11927761 0.86640012
0.053993225 0.11768494 0.86653334
0.055736244 0.11795355 0.86851114
0.011532528 0.12297081 0.86809051
0.054053556 0.12265704 0.86750174
0.055778317 0.12208387 0.86916661
0.012976619 0.12735425 0.86871994
0.015212573 0.12740327 0.86685568
0.052679606 0.12798555 0.86768109
0.013638926 0.13104156 0.86960006
0.016388459 0.13265297 0.86804289
0.048186354 0.13286567 0.86672008
0.051708151 0.13173933 0.86886668
0.018087178 0.13702118 0.86904997
0.020712763 0.13742772 0.86702013
0.047400661 0.13703559 0.86786258
0.022241291 0.14207548 0.86783338
0.026497142 0.14496385 0.86580008
0.039405864 0.14332023 0.86560017
0.04323259 0.1424429 0.86678904
0.046701215 0.14197217 0.86917335
0.024151819 0.1470456 0.86857778
0.027826393 0.14774235 0.8669802
0.033399031 0.14795457 0.86680847
0.038109086 0.14718969 0.86823338
0.042240676 0.14650421 0.86856109
0.028754272 0.15141942 0.86895555
0.032872982 0.15175128 0.86892492
0.036347114 0.15046453 0.8696667
0.031486139 0.15534161 0.86979997
0.0074898093 0.028536504 0.8712222
0.012032098 0.027548496 0.87070251
0.016906114 0.027552286 0.87082243
0.021777898 0.028360754 0.87078238
0.02717567 0.027913775 0.87204665
0.032730728 0.026666207 0.87214291
0.036400046 0.025935696 0.87093353
-0.015578785 0.077784985 0.87100005
-0.013951988 0.079391688 0.87085199
-0.012533113 0.08284568 0.87096941
-0.012349408 0.087636299 0.87228394
-0.0085354121 0.088543914 0.87057787
-0.010745659 0.091087155 0.87426662
-0.0074669132 0.092485726 0.87211108
-0.0042065149 0.093958467 0.8707335
0.070434824 0.093879357 0.87
-0.0062569263 0.097112343 0.87359995
-0.0035598814 0.097583391 0.87128007
0.068061441 0.098821715 0.87076914
0.07057099 0.097306639 0.87168187
-0.0021237645 0.10201998 0.8723858
0.00066547527 0.10370866 0.87100023
0.06400504 0.10206816 0.87082237
0.067408562 0.102303 0.8728292
-0.00096159318 0.1056191 0.87339979
0.0013168771 0.10744505 0.87238675
0.063092932 0.1067067 0.87166673
0.067461006 0.10563254 0.87351102
0.0029469612 0.11244486 0.87341326
0.059158403 0.11345606 0.8712002
0.061837804 0.11230369 0.87231332
0.0039284085 0.11627771 0.87413323
0.0061915317 0.11771307 0.87152016
0.058563955 0.11713047 0.87201327
0.060952198 0.11702237 0.87362212
0.0081405705 0.12287824 0.87136012
0.058113359 0.12226144 0.8729142
0.0081573622 0.12735489 0.87315989
0.010819471 0.12843463 0.87111688
0.057232287 0.12746103 0.87277901
0.008827622 0.13185023 0.87496668
0.012055477 0.1330996 0.8724857
0.053328037 0.13359687 0.87149346
0.05606924 0.13247252 0.87369984
0.013704102 0.13817023 0.87375546
0.015942257 0.13812336 0.87141341
0.049352884 0.13922562 0.8702001
0.052234348 0.13763429 0.87183815
0.017140079 0.14263196 0.87246668
0.020157045 0.14420329 0.87093353
0.049022462 0.14308727 0.87153351
0.05159096 0.14263716 0.87374157
0.018584756 0.14785792 0.87337762
0.020976445 0.1474988 0.87125564
0.043994989 0.14857338 0.87122226
0.047667932 0.14754908 0.87275004
0.02230319 0.15247402 0.87322855
0.026108796 0.15282083 0.8708002
0.034773096 0.15391214 0.87086684
0.038238548 0.15255044 0.87118351
0.042792905 0.15244816 0.87291658
0.046311881 0.15203944 0.87406659
0.023486264 0.1560798 0.8739332
0.02773664 0.15730338 0.87251514
0.033371098 0.15744576 0.8713668
0.038099859 0.1574737 0.87264431
0.042085789 0.15744933 0.87431324
0.032995258 0.16150731 0.87397766
0.037081998 0.1615566 0.87424445
0.028414927 0.026060781 0.87513334
-0.015689082 0.088127442 0.87716675
-0.015721872 0.093215406 0.87900007
-0.012640479 0.09293773 0.87637269
-0.010803686 0.098120607 0.87898797
-0.0084840413 0.098155923 0.87638682
-0.0069767274 0.10244041 0.87864447
-0.004237433 0.10362403 0.87713343
0.071782455 0.10329976 0.8785404
-0.0023317274 0.1077904 0.87784451
0.064407662 0.10922993 0.8763001
0.067725614 0.10849467 0.87693334
0.07173904 0.10688484 0.87935543
-0.001624272 0.11251305 0.87902659
0.00066958409 0.11250138 0.87637788
0.064485244 0.11262792 0.87735558
0.067396954 0.11257055 0.87873799
-0.00096878572 0.11623025 0.87993306
0.0020337694 0.1175839 0.87781668
0.063706532 0.11759243 0.87787771
0.067118794 0.11619943 0.87969983
0.0032944537 0.12234104 0.87914658
0.0055797338 0.12243151 0.87744457
0.062041834 0.12243856 0.87749451
0.0063974983 0.12735072 0.87763321
0.059429996 0.12781537 0.87520003
0.061731871 0.12713246 0.87891662
0.008853185 0.13386436 0.87750018
0.058782794 0.13226351 0.87770832
0.061397173 0.13097171 0.87999976
0.01114716 0.13750401 0.87780678
0.054560222 0.13846609 0.87563336
0.056782171 0.1368639 0.8784166
0.01278273 0.14238539 0.87770003
0.015360766 0.14492632 0.87530005
0.054252654 0.14239398 0.87725013
0.056469243 0.14078289 0.87993306
0.013382066 0.14682989 0.87938321
0.016201261 0.14760038 0.87667513
0.052211251 0.1468924 0.87731677
0.017043823 0.15190028 0.87796199
0.020268517 0.15396085 0.87575006
0.044761833 0.15475453 0.87563342
0.048632268 0.15249439 0.87668896
0.051509544 0.15213417 0.87931103
0.018049192 0.15666755 0.87905329
0.021925526 0.15793933 0.87673348
0.02517556 0.15970796 0.87600011
0.044291001 0.15827212 0.877078
0.048178259 0.15686981 0.87835723
0.018725671 0.16043715 0.87999976
0.021972315 0.16181491 0.87859052
0.02683867 0.16315451 0.87700391
0.031389456 0.16397531 0.87616003
0.038023431 0.16373004 0.87717229
0.043500759 0.1622494 0.87841433
0.047137961 0.1608613 0.8793332
0.023088507 0.16579765 0.87948877
0.026906507 0.16764957 0.87918878
0.031812958 0.16758174 0.87883335
0.037207805 0.1672722 0.87904757
0.041673377 0.16605052 0.87938315
0.032675959 0.17025901 0.87999976
0.035956994 0.17025256 0.87996638
-0.015739759 0.091684483 0.88000005
-0.012467721 0.099952564 0.88073337
-0.011669245 0.10261113 0.88245273
-0.0086375577 0.10434788 0.88095528
0.074032709 0.10321706 0.88062507
-0.010865702 0.10526047 0.88403338
-0.0072259428 0.10735877 0.88235331
-0.0042553069 0.10897636 0.88083315
0.074058555 0.10762265 0.88093501
-0.0065810056 0.11153648 0.88424671
-0.0038484226 0.11357592 0.88156658
0.069706976 0.11395279 0.88131177
0.071979292 0.1114219 0.88398522
-0.0022904228 0.11791046 0.88271332
0.00067265722 0.1195673 0.88039976
0.06808231 0.11835509 0.88153762
0.071621403 0.11603111 0.88465655
-0.00097287825 0.12247467 0.88365006
0.0010843113 0.12341487 0.88155836
0.064726964 0.12287793 0.88064432
0.067629702 0.12235492 0.88278884
0.0033095144 0.12783282 0.8831867
0.0055991635 0.1285895 0.88049984
0.064033113 0.12804489 0.88239169
0.0039766454 0.13169611 0.88486677
0.006431906 0.13294756 0.88223886
0.059764985 0.13426599 0.88013303
0.062498115 0.13318233 0.88162935
0.0084992079 0.1376251 0.88330007
0.059197348 0.13807353 0.88144654
0.062088117 0.13773268 0.88399172
0.010529183 0.14256108 0.88079977
0.057982128 0.14277589 0.88213331
0.060025297 0.14307259 0.88396674
0.011638924 0.14766143 0.8819111
0.054469232 0.14787871 0.88075823
0.057265062 0.14687677 0.88376683
0.013425879 0.15224265 0.88231665
0.015444428 0.153901 0.88006645
0.053283107 0.15251721 0.88152212
0.055063888 0.15207416 0.88371676
0.013841073 0.15760811 0.88248891
0.015864909 0.15768799 0.88064146
0.049920019 0.15883628 0.88019973
0.052321576 0.15717795 0.88191986
0.01387314 0.16126372 0.88453346
0.017402953 0.16249993 0.88230556
0.020368427 0.16372351 0.88006634
0.048314728 0.16264418 0.88086647
0.050899591 0.16261785 0.88295007
0.018793765 0.16594934 0.88320005
0.021497341 0.1678236 0.88153332
0.042695865 0.16767293 0.88017309
0.046782028 0.16726607 0.88292223
0.050175238 0.16623122 0.88470012
0.023318287 0.17207126 0.88299167
0.026986513 0.1722499 0.88180363
0.031669524 0.17262922 0.88135237
0.037037011 0.17247398 0.88056177
0.04180995 0.17233329 0.88223332
0.027873039 0.17593294 0.88383347
0.032222208 0.1770694 0.8836382
0.036897015 0.17737813 0.88283342
0.041029759 0.17662233 0.88316673
-0.011881039 0.10747041 0.88597786
-0.0092284316 0.10868447 0.8851335
-0.01172619 0.11218435 0.88676429
-0.008824436 0.11249615 0.88597494
0.073386714 0.11291775 0.88604999
0.075034983 0.11043905 0.88600004
-0.011471444 0.11624861 0.88841015
-0.0073930379 0.11704402 0.88764572
-0.0042828429 0.11875118 0.88653308
0.072631195 0.11880091 0.88690472
-0.0059536514 0.12075334 0.88913333
-0.0034600243 0.12215066 0.88726109
0.07204175 0.1223569 0.8872692
-0.0024285349 0.12700433 0.88802487
0.00067680847 0.12772104 0.88583326
0.067790225 0.12729892 0.88633329
0.071931779 0.12727621 0.88847852
-0.0013930119 0.13185127 0.88868332
0.0018580715 0.13222127 0.88680935
0.06689769 0.13210645 0.88762218
0.070336185 0.13152407 0.88926667
-0.00097935507 0.13570005 0.8895334
0.002884777 0.13652648 0.88773316
0.0061847842 0.13791822 0.88606662
0.063477747 0.13847807 0.88613331
0.065913066 0.13675137 0.88775998
0.0039967173 0.14145997 0.88933337
0.0070905369 0.14219375 0.88745815
0.062403645 0.14266007 0.88651109
0.065326393 0.14137521 0.88879991
0.0082980711 0.1467344 0.88821328
0.010590147 0.1483293 0.88589978
0.05768051 0.14915881 0.88593316
0.06170246 0.14708267 0.88832211
0.0089729074 0.15139169 0.88936675
0.01125716 0.15271047 0.88646662
0.057514217 0.15274145 0.88759995
0.06038747 0.15138027 0.88929999
0.011432927 0.15764259 0.88731116
0.053503413 0.15973257 0.88516682
0.056181911 0.15700144 0.88834989
0.012272142 0.16192645 0.88817769
0.01554445 0.16396078 0.88576663
0.053006571 0.16318975 0.88605547
0.055367488 0.16200428 0.88858867
0.013930652 0.16523661 0.88819981
0.017220801 0.16805524 0.88708872
0.047770999 0.16977176 0.88599986
0.052352171 0.16718665 0.8880266
0.018355059 0.17191434 0.88855553
0.021170795 0.17343587 0.88619316
0.046787433 0.17288487 0.88747603
0.050415322 0.17033382 0.8889333
0.018929951 0.17542605 0.88959998
0.022430716 0.17784116 0.88749504
0.026879644 0.17848876 0.8860237
0.031226195 0.17954561 0.88543332
0.042644832 0.17865744 0.8859266
0.046802472 0.17686595 0.88852221
0.022507163 0.18190457 0.88891107
0.027357152 0.18298815 0.88714963
0.032093011 0.18307596 0.88657379
0.037038635 0.18300229 0.88621467
0.042071298 0.18249394 0.88775539
0.045445122 0.18026881 0.889
0.023892961 0.18524383 0.88906664
0.02696299 0.18731059 0.88878095
0.032147776 0.1875167 0.88807768
0.037135612 0.18761043 0.88852215
0.041583117 0.18636084 0.88913327
0.028038209 0.1902054 0.8890667
0.032182854 0.19020064 0.88904446
0.035523761 0.19033377 0.88966668
-0.010948654 0.11932034 0.89078271
-0.0092812609 0.11924228 0.89020008
-0.0078508584 0.12308929 0.89257419
-0.0068150405 0.12795787 0.8932392
-0.0043032961 0.12926012 0.89076692
-0.0059884703 0.1314414 0.89433366
-0.003644004 0.13306871 0.89185363
0.072640486 0.13290164 0.89137125
-0.003483162 0.13625938 0.89320028
0.0012344251 0.13876428 0.89150023
0.068420373 0.13804422 0.89130849
0.071039222 0.1374575 0.8928836
0.0023463096 0.14286801 0.89296693
0.06755548 0.14282283 0.89268285
0.0040131966 0.14702725 0.8930003
0.0060844738 0.14802592 0.89150864
0.063820362 0.14834075 0.89091688
0.065657146 0.14790803 0.89330029
0.0068624867 0.15298863 0.89248121
0.062727317 0.15294611 0.8922289
0.0081675528 0.15766333 0.89208913
0.058484107 0.15804228 0.89188361
0.06134649 0.15759811 0.89360029
0.0090210009 0.16135065 0.89413375
0.011484552 0.16330805 0.89120024
0.057706844 0.16234088 0.89271694
0.01344376 0.16770618 0.89254457
0.053886227 0.16916724 0.89150023
0.056051228 0.16735105 0.89286685
0.016747683 0.17243147 0.89123344
0.051984053 0.17260437 0.89212251
0.055758636 0.17147078 0.89486694
0.017984642 0.17791975 0.89214694
0.048852522 0.17812164 0.8906669
0.051313739 0.1774282 0.8930136
0.019001596 0.18273604 0.89296699
0.020612216 0.18307868 0.89060009
0.047452405 0.18267016 0.89163768
0.05072033 0.18301003 0.89431149
0.022094915 0.18768853 0.89183772
0.043380987 0.18862112 0.89200026
0.047001936 0.18680361 0.89336032
0.022758182 0.19154306 0.8933754
0.027071763 0.19304624 0.89236212
0.03231274 0.19345526 0.89261127
0.037332058 0.19248842 0.89325571
0.041186012 0.19149929 0.89252239
0.029043751 0.19635966 0.8945002
0.03155414 0.19641089 0.89473349
-0.011023707 0.12848021 0.89688885
-0.0093356501 0.12743634 0.89541686
-0.011609579 0.13157816 0.89905232
-0.0082357824 0.13234951 0.89672786
-0.0065650153 0.13574032 0.897089
-0.0026622203 0.1384768 0.8968001
0.073647887 0.13778664 0.89592576
0.075924218 0.13759711 0.89649999
-0.0014081527 0.1416101 0.89815861
0.00068457617 0.14335345 0.89599997
0.069187373 0.14499862 0.89586657
0.07283859 0.14206827 0.89709175
0.07604333 0.14198852 0.89790678
-0.0009898881 0.14552191 0.89910024
0.001798383 0.14760035 0.8964889
0.068413876 0.14763033 0.89666677
0.072147541 0.14646426 0.89803904
0.076113537 0.14629939 0.89873552
0.0023566519 0.15183137 0.89685249
0.067624785 0.15190384 0.89728111
0.071106017 0.15135959 0.89900017
0.0033646438 0.15668866 0.89791346
0.0056956094 0.15746237 0.89566672
0.064184539 0.15752083 0.89599997
0.066642798 0.15663245 0.8975935
0.0070435056 0.16224104 0.89721346
0.01069893 0.16483679 0.89500022
0.05913613 0.16325703 0.89546663
0.062816747 0.16213585 0.8973251
0.066065058 0.16136631 0.89885032
0.0090690907 0.1655551 0.89890021
0.011280496 0.16800089 0.89707786
0.058805548 0.16725081 0.89678347
0.061439056 0.1667548 0.89860857
0.013233455 0.17189628 0.89708346
0.01571526 0.17325789 0.89549994
0.054097768 0.17316119 0.89500016
0.057876725 0.17197646 0.89750576
0.014101605 0.17562692 0.89910024
0.015744707 0.17692119 0.89717793
0.053729676 0.17748475 0.89581668
0.056332123 0.1765347 0.89734173
0.016843492 0.1817569 0.89634448
0.053541768 0.18219671 0.89686
0.056021374 0.18147747 0.8990835
0.018505344 0.18665147 0.89582223
0.047456518 0.18939583 0.89566666
0.052282799 0.18695003 0.8972556
0.019078916 0.19181819 0.89660007
0.022410735 0.19393493 0.89611107
0.037433762 0.19494958 0.89566678
0.043560918 0.19273786 0.89571118
0.047744282 0.19228992 0.89658099
0.05139298 0.19186482 0.89877522
0.019129984 0.19567512 0.89900017
0.02245952 0.19714631 0.89808112
0.027087679 0.19769521 0.89602661
0.032844793 0.19789499 0.89579999
0.037687365 0.19716944 0.89601898
0.042475894 0.19675772 0.8963111
0.047575988 0.19711107 0.89792252
0.024157222 0.20066978 0.89890021
0.027700091 0.20199169 0.89826685
0.032505408 0.20213218 0.89796323
0.037516009 0.20205648 0.89762986
0.042552646 0.2021246 0.89793366
0.047047574 0.20169105 0.89848357
0.037557323 0.2056251 0.89863366
0.041783653 0.20580055 0.89940023
-0.011066555 0.13400419 0.90037501
-0.011093009 0.13684295 0.90252733
-0.0080567915 0.13791806 0.90186292
-0.0060482882 0.14283651 0.90326661
-0.0036837577 0.14290456 0.90158015
-0.0060554305 0.14973344 0.90433347
-0.0028868108 0.1478779 0.90199596
0.074050874 0.14859505 0.90083128
-0.0021178741 0.15228246 0.90282226
0.00068816711 0.15415828 0.90070027
0.069583803 0.15420963 0.90100032
0.07345973 0.15284593 0.90142721
-0.00099605368 0.15652579 0.90470004
0.0012503768 0.15778773 0.90228909
0.069158241 0.15796745 0.90092528
0.072884679 0.15767509 0.90284592
0.0034942506 0.16176544 0.90263343
0.005742243 0.16463043 0.90299994
0.068467952 0.16302881 0.90210027
0.072359681 0.16232349 0.90418327
0.0082657356 0.16795699 0.90282506
0.063907728 0.16805044 0.90152037
0.067076422 0.16773503 0.90343332
0.0091197044 0.17236461 0.9039166
0.011191474 0.1730846 0.90110028
0.059488349 0.1742834 0.90080047
0.062729739 0.1726459 0.90209192
0.012464381 0.17788784 0.90208584
0.058842283 0.1780479 0.90119362
0.061978083 0.17769369 0.90280008
0.013745392 0.18273897 0.90324998
0.015812948 0.1835542 0.90106702
0.057902228 0.1825356 0.90225011
0.061439984 0.18178961 0.90480006
0.016663823 0.18787536 0.90170014
0.054459427 0.18856542 0.90098357
0.056250896 0.1872597 0.90276682
0.016957812 0.19138478 0.90243345
0.053698175 0.19303648 0.90230012
0.05633606 0.19006506 0.90413326
0.018365636 0.19647786 0.90270007
0.020853689 0.19946983 0.90103364
0.052299779 0.1972398 0.90233898
0.019231414 0.20007506 0.90376669
0.022896541 0.20272402 0.90208685
0.02590937 0.2046117 0.90153366
0.048891496 0.2040659 0.9015891
0.051228248 0.20248546 0.90326667
0.027970199 0.20728305 0.90294009
0.032647315 0.20720975 0.90188903
0.037678629 0.20880483 0.9015336
0.042957634 0.20841952 0.90141934
0.046958443 0.20726533 0.90213346
0.033055097 0.21085179 0.90383995
0.037747234 0.21170266 0.90316659
0.042842414 0.21190841 0.90404439
0.046165921 0.21000706 0.90309995
-0.011134668 0.13988449 0.90591675
-0.0094441799 0.13987051 0.90582615
-0.0084309997 0.14290781 0.90585119
-0.0077591222 0.1469539 0.90621501
-0.0074288673 0.1515898 0.90738106
-0.0043770494 0.15338571 0.90603346
-0.0060931486 0.15574428 0.90996659
-0.0029732489 0.15694337 0.90711135
0.076898158 0.15709674 0.90800005
-0.001000843 0.16150662 0.90905011
0.0011152934 0.16237064 0.90679193
0.075500384 0.16231112 0.90645844
0.0029512625 0.16669416 0.90813905
0.0057666195 0.16786033 0.90683359
0.069949389 0.1668136 0.90573341
0.072255798 0.16736545 0.9074145
0.075683057 0.16693175 0.90866268
0.0040892949 0.17097251 0.90993321
0.0066171414 0.17222488 0.90761131
0.067663036 0.17240487 0.90678024
0.070775785 0.17138202 0.90911126
0.0083084647 0.17725968 0.90745586
0.06489291 0.17695309 0.90588897
0.067438163 0.17708746 0.90830696
0.0084912237 0.18227406 0.90889347
0.011256439 0.18251322 0.90630013
0.059811935 0.18365529 0.90570003
0.062834911 0.18258743 0.90666687
0.065789774 0.18228224 0.90893346
0.0091757011 0.18611082 0.9094668
0.012536561 0.18735225 0.90728599
0.059031334 0.1872267 0.90667242
0.062540933 0.18761081 0.90853363
0.065175489 0.18703227 0.90983331
0.013819858 0.19217984 0.908167
0.015892513 0.19290063 0.90560007
0.057958785 0.19246519 0.9075225
0.060941197 0.1929805 0.9099499
0.016603474 0.1978849 0.90760022
0.054774731 0.19808528 0.90620017
0.057042256 0.19735506 0.9086585
0.018756615 0.2026993 0.90798908
0.021001039 0.20425524 0.90740025
0.053816896 0.20217125 0.90713346
0.022481441 0.20785858 0.90747094
0.026031997 0.20895001 0.90580004
0.049711257 0.20822753 0.90632254
0.052194674 0.20751055 0.90834683
0.024413133 0.21293558 0.90842247
0.027742719 0.21249087 0.90652615
0.032367632 0.21358773 0.90581679
0.037858624 0.21401279 0.90583342
0.04292528 0.21400492 0.90580004
0.048272323 0.21282586 0.90705436
0.051610112 0.21161164 0.90999991
0.028052568 0.21759824 0.90874308
0.032848001 0.21776854 0.90743721
0.037921295 0.21774197 0.90732628
-0.0095195239 0.14947863 0.91305274
-0.0089358725 0.15373482 0.91142863
-0.0078166937 0.15795532 0.91295892
-0.0044020102 0.1593454 0.91119999
-0.0061257361 0.16168258 0.91483366
-0.0030496679 0.16267645 0.91277349
-0.0010043108 0.16715682 0.91220003
0.00126187 0.16892612 0.91106659
-0.0010072833 0.17020373 0.91490036
0.0027390379 0.17285886 0.91274679
0.07243114 0.17329186 0.91144669
0.076004893 0.17170672 0.91083074
0.0032543368 0.17594209 0.91376686
0.00579566 0.17718288 0.91139996
0.068604328 0.17950806 0.91029996
0.071790457 0.17664678 0.9130168
0.075664036 0.17504989 0.91354555
0.0062309019 0.18259519 0.91304177
0.068158902 0.18321502 0.91189998
0.070659883 0.18042168 0.91493374
0.0080688726 0.18781304 0.91225559
0.010879436 0.18962638 0.91010004
0.068098843 0.18709418 0.91261339
0.0086487914 0.19092 0.913589
0.011471133 0.19289242 0.91220003
0.063026123 0.19330245 0.9114666
0.066280104 0.19200444 0.91335565
0.0129625 0.19677874 0.91344011
0.058520682 0.19848296 0.91189998
0.061712511 0.19754457 0.9138335
0.065516911 0.19566798 0.91460037
0.014332164 0.2005963 0.91380024
0.016582526 0.20317452 0.91265565
0.057190716 0.20265493 0.91236007
0.018009214 0.20723498 0.91309458
0.05605536 0.20727818 0.91328347
0.018593568 0.21081465 0.91388357
0.021972757 0.21307749 0.91265011
0.053018227 0.21257436 0.91231674
0.055272419 0.21094157 0.9144336
-0.0084130522 0.16247594 0.91610575
-0.0068301102 0.16698143 0.91776645
-0.0035723301 0.16704297 0.91622788
-0.0061540832 0.17097893 0.91906667
-0.0027241267 0.17228003 0.91840547
0.00069909293 0.17362647 0.91500038
0.002407596 0.17768359 0.91617513
0.073659189 0.17852946 0.91686678
0.075950146 0.17827147 0.91700006
0.0034397696 0.18238001 0.91793329
0.072767727 0.18280512 0.91728741
0.076032981 0.18188027 0.91799998
0.004130092 0.18806483 0.91901094
0.0058220136 0.18735541 0.91554475
0.072643384 0.18794502 0.9184258
0.076159954 0.18902639 0.91953331
0.0072001256 0.19316794 0.91727334
0.06903895 0.19257484 0.91606683
0.072690889 0.19217005 0.91902655
0.076082669 0.19139732 0.91859984
0.0086911563 0.19697018 0.91802222
0.011530747 0.19902377 0.917
0.063915834 0.19854566 0.9161002
0.06712573 0.19774917 0.91793984
0.071046062 0.19509766 0.91993338
0.013008808 0.20260513 0.91674006
0.058783807 0.20448709 0.91600025
0.062073149 0.20285052 0.91726232
0.066754445 0.20107974 0.91990006
0.013547138 0.20672725 0.91838324
0.016068876 0.20866749 0.91565013
0.05828784 0.20815368 0.91714436
0.062056411 0.20718856 0.91891319
0.014403264 0.21098709 0.91833317
0.017797045 0.21319374 0.9168067
-0.0078975474 0.16990161 0.92249995
-0.0070347171 0.17324892 0.92205006
-0.0027304899 0.17468919 0.92060006
-0.0070468457 0.17612627 0.92365003
-0.0029834809 0.17729843 0.92271912
0.00070291315 0.17799808 0.92000002
-0.0025272663 0.18256477 0.92470813
0.00070506916 0.18197876 0.9228223
0.0019978029 0.18692505 0.92394149
0.07648392 0.18553565 0.92344463
0.0041414276 0.19286691 0.92153347
0.072767012 0.19340043 0.92000002
0.076198608 0.19340044 0.92000008
0.0041521639 0.19766347 0.92392224
0.006286826 0.19749334 0.92112505
0.069388136 0.19868562 0.92070007
0.072629258 0.19703993 0.92261344
0.0041570063 0.20219463 0.92499977
0.0075884741 0.20260498 0.92294461
0.010997781 0.20366873 0.92000008
0.06832812 0.20292883 0.92182231
0.0087493015 0.20689082 0.9242
0.011442207 0.20781109 0.92129171
0.06424959 0.20814744 0.92088342
0.066821091 0.20746656 0.92318678
-0.0044752802 0.18095309 0.92636645
-0.0022564346 0.18771882 0.92695224
0.00070688577 0.18846993 0.92519975
-0.0018895987 0.19267625 0.92888343
0.0015716152 0.19220832 0.92662489
-0.0010237617 0.19547467 0.92986691
0.0017479291 0.19655088 0.92841327
0.074987449 0.19815683 0.92623329
0.076830842 0.19673069 0.9276334
0.0024435255 0.20143521 0.92943347
0.072645612 0.20215647 0.92719316
0.0041710888 0.20546927 0.92813325
0.0064707771 0.20809264 0.92699987
-0.0016079493 0.1978467 0.93290013
0.0007105532 0.19896266 0.93000025
0.077316724 0.19971141 0.93350011
0.0011457797 0.20331511 0.93210852
-0.0027817029 0.19890101 0.93786657
-0.0019079415 0.20234655 0.93766665
