# .PCD v0.7 - Point Cloud Data file format
VERSION 0.7
FIELDS x y z
SIZE 4 4 4
TYPE F F F
COUNT 1 1 1
WIDTH 1078
HEIGHT 1
VIEWPOINT 0 0 0 1 0 0 0
POINTS 1078
DATA ascii
0.037902396 0.058527149 0.81916016
0.042009722 0.058206096 0.81846678
0.034247179 0.062509209 0.81942242
0.037287824 0.062482979 0.8190816
0.042549532 0.062356967 0.8174333
0.038443066 0.066689216 0.81928349
0.041864485 0.066662423 0.81895012
0.04189745 0.070145458 0.81960005
0.032898508 0.053656895 0.82393354
0.037939746 0.053795889 0.82217771
0.041241255 0.054278098 0.82174999
0.027699368 0.057734728 0.82277137
0.032790773 0.057298899 0.82122755
0.036450006 0.056815237 0.82085311
0.043553174 0.055823684 0.82199991
0.046787322 0.057177182 0.82248479
0.027935073 0.062599562 0.82261992
0.032016367 0.062629186 0.82099968
0.047324166 0.062622987 0.82092208
0.029446028 0.06707906 0.82406676
0.03281213 0.067275144 0.82177758
0.036455568 0.067514099 0.8209731
0.043475457 0.067936242 0.82053316
0.046364695 0.06729272 0.82199979
0.033103932 0.071581267 0.82358092
0.037423003 0.071886599 0.82205909
0.042007592 0.072367661 0.82174057
0.045781489 0.071701929 0.82346678
0.038293801 0.075147763 0.82430005
0.042104188 0.075599521 0.82364446
0.045166656 0.075071804 0.82346666
0.041618302 0.049376428 0.82926691
0.0099171298 0.054025941 0.82960021
0.013308793 0.053360462 0.82885373
0.017812893 0.052576236 0.82805002
0.022053555 0.052560188 0.82780004
0.027299808 0.053212345 0.82724762
0.032817814 0.051890582 0.82836676
0.037306625 0.051349081 0.82626659
0.04246385 0.05183756 0.82636184
0.046937533 0.052354481 0.82760012
0.050873738 0.052821286 0.8288669
0.0099115521 0.057080243 0.82913369
0.012992816 0.057034492 0.82846695
0.017597338 0.056931838 0.82697749
0.02233196 0.057407692 0.82579398
0.026026994 0.055281118 0.82530022
0.0499392 0.057646185 0.82619995
0.052277248 0.056767236 0.82906705
0.0099195195 0.060213305 0.82980001
0.013514783 0.061172042 0.82884479
0.01761777 0.062391773 0.82796115
0.022061955 0.062757522 0.82670653
0.025248487 0.063701637 0.82500017
0.049963377 0.063056365 0.8265999
0.050857931 0.060895912 0.82860005
0.019194245 0.067121983 0.82933354
0.022257859 0.067806095 0.8282668
0.026632817 0.067829281 0.82619995
0.048347563 0.068333521 0.82533342
0.023055352 0.072503947 0.82913369
0.027625978 0.072328366 0.82712215
0.032174967 0.073682882 0.8250668
0.048035115 0.072663032 0.82656664
0.050060082 0.073962696 0.82820016
0.023840141 0.075624898 0.82953358
0.027677523 0.076059043 0.82865572
0.032504234 0.07717973 0.82813954
0.037432197 0.077380873 0.82708561
0.042226575 0.077765211 0.82604009
0.046890683 0.076910518 0.8267619
0.051139116 0.07608965 0.82898903
0.038188774 0.081540525 0.82916224
0.042050373 0.082172021 0.82863349
0.045451865 0.080941603 0.82866681
0.013867354 0.049691994 0.83456659
0.017738197 0.049634431 0.8336001
0.022379734 0.04958415 0.83275563
0.027071586 0.049022667 0.83375996
0.032776769 0.049131244 0.83384436
0.03788906 0.048782408 0.83231115
0.042755902 0.047551598 0.83206666
0.047428671 0.048452627 0.83235228
0.051523514 0.049218066 0.83311671
0.0027113494 0.053297102 0.83429986
0.0074144662 0.052554168 0.83297575
0.012646169 0.051412795 0.83101654
0.016130572 0.051017284 0.83086658
0.023866963 0.05099272 0.83046663
0.026959581 0.050983172 0.83031112
0.030849136 0.051013194 0.83079994
0.052817356 0.052575737 0.83106667
0.055857643 0.053539671 0.83403331
0.0026382359 0.057231773 0.83455217
0.006843057 0.057291057 0.83219266
0.054130569 0.057235032 0.83139998
0.056370173 0.057411883 0.8339529
0.0037525424 0.061367273 0.83499974
0.0076317834 0.06204636 0.83368653
0.012723625 0.063703321 0.83102667
0.052791677 0.062253237 0.83229333
0.056121171 0.061043683 0.83411115
0.0089428285 0.066281579 0.83494419
0.013070751 0.067711078 0.8334074
0.017248092 0.068284072 0.83139992
0.051003523 0.067510009 0.8327809
0.013874894 0.072240099 0.83499974
0.017736873 0.072895169 0.83359993
0.020789871 0.072693139 0.83128881
0.051271111 0.072514452 0.8328042
0.018153189 0.07649485 0.8348164
0.022187628 0.077674262 0.83288336
0.026604721 0.078495599 0.83133328
0.048659962 0.078818612 0.8306666
0.051265363 0.077311456 0.83105963
0.023218606 0.080783039 0.83499974
0.027284592 0.08207757 0.83433318
0.032448292 0.082053743 0.83212227
0.036267791 0.082685024 0.83069992
0.044030029 0.083487727 0.83099991
0.047660384 0.082312115 0.83250469
0.028150016 0.085960545 0.83499974
0.032755554 0.086806461 0.83452708
0.038034268 0.087287426 0.83237576
0.042536095 0.087724887 0.83208156
0.046137985 0.086513594 0.8340832
0.034898266 0.090102598 0.83499974
0.038205102 0.092621163 0.83494973
0.042015214 0.092174254 0.83406657
0.0037714154 0.049967878 0.83920008
0.007287309 0.04954375 0.83863342
0.012245997 0.048544075 0.83773339
0.017829131 0.047549397 0.83786672
0.022507891 0.047530916 0.83754444
0.027509278 0.046755612 0.8376134
0.032314796 0.046956789 0.8372286
0.037866604 0.0459725 0.83753341
0.042844418 0.045225903 0.8381111
0.046611361 0.046644792 0.83559978
0.052499183 0.047375333 0.83754653
0.056157582 0.049146995 0.83851671
-0.0015481811 0.053316455 0.83785343
0.0011585093 0.05185163 0.83602208
0.057156902 0.052646644 0.83709735
-0.0017055306 0.057703849 0.83818889
0.00063883601 0.058339823 0.8361333
0.058395095 0.058397964 0.83697164
-0.00092384167 0.062450066 0.83911127
0.0017532277 0.062489126 0.83664757
0.00531025 0.063702218 0.83506638
0.056472629 0.062712312 0.83740002
-0.00092474674 0.06563592 0.83993334
0.0022016009 0.067031845 0.83784449
0.0063567478 0.067422748 0.83625549
0.01155371 0.069999501 0.8360666
0.053363621 0.06753692 0.83640003
0.055979107 0.066663258 0.83975554
0.0032489102 0.07076741 0.8390224
0.0068910401 0.072500296 0.83798891
0.011387843 0.073162809 0.83667397
0.053715933 0.0731939 0.8370297
0.0076854592 0.076521337 0.83936679
0.013128542 0.077203915 0.83708566
0.017492112 0.078770339 0.83671987
0.052902982 0.078592986 0.83650005
0.01472374 0.081170008 0.83900017
0.018356806 0.082131729 0.83818895
0.022260739 0.082943089 0.83663803
0.025566779 0.083929747 0.83539987
0.051372558 0.082533002 0.83698589
0.019419519 0.085858956 0.83906686
0.022712089 0.087103024 0.8378917
0.026638189 0.087664567 0.83643323
0.030238463 0.088584699 0.83533299
0.048370689 0.087450758 0.83637321
0.051465932 0.087362491 0.83851117
0.023596516 0.091078423 0.83922237
0.027202262 0.091965161 0.83780742
0.032625437 0.092224412 0.83662766
0.036493365 0.094083712 0.83586651
0.043663379 0.093614325 0.83583987
0.047472086 0.091879092 0.83702958
0.05135544 0.091811866 0.83926678
0.028038081 0.095265478 0.83943343
0.032689247 0.096694402 0.83828008
0.037807696 0.098304205 0.83738005
0.042805206 0.098142117 0.83732593
0.047061339 0.09625604 0.83898908
0.037902642 0.10189741 0.83832234
0.042073578 0.10215907 0.83833343
0.0037974806 0.044025782 0.84499991
0.0073424941 0.043628473 0.84491658
0.012116722 0.043314911 0.84428567
0.017178696 0.043987576 0.84426671
0.022704238 0.044017676 0.84484434
0.027393425 0.043171648 0.84368891
0.032101061 0.043153618 0.84334439
0.037255622 0.043250199 0.84303802
0.041563552 0.043181024 0.84386671
0.047908552 0.044011887 0.8447333
0.05259943 0.043982942 0.84417778
0.056517623 0.043968476 0.84390008
-0.0013227855 0.047504384 0.84398353
0.0022158779 0.047061905 0.84309649
0.0067287711 0.046809275 0.84207505
0.012084487 0.046105471 0.84199053
0.017929258 0.045465726 0.8425557
0.022637324 0.045456138 0.8423779
0.026516221 0.045371 0.84079981
0.031978827 0.045335032 0.84013325
0.036676738 0.045331433 0.84006667
0.047706053 0.045390189 0.84115571
0.052476317 0.045446545 0.8422001
0.057433788 0.046580348 0.84248579
0.060521595 0.04637615 0.84486663
-0.0064333938 0.053344741 0.84324247
-0.0031707531 0.051697731 0.84198099
0.0014258649 0.050051242 0.84059978
0.058657534 0.050840646 0.84073329
0.060459521 0.052609168 0.8440001
-0.0064303372 0.058024704 0.8428418
-0.0040645911 0.057922315 0.84135538
0.060515113 0.057371028 0.84477597
-0.0056500961 0.06279958 0.84380007
-0.0032844183 0.062683493 0.84224457
0.058695402 0.062610969 0.84127599
-0.0025026149 0.067448974 0.84307617
0.056547504 0.067760289 0.84044433
-0.0014549033 0.071215592 0.84433335
0.0016888432 0.072559178 0.84170002
0.056452643 0.072142929 0.84292227
0.0027415364 0.076387294 0.84362221
0.0069298712 0.078646459 0.84261131
0.011305838 0.079159603 0.8408531
0.054099072 0.079988852 0.84300005
0.055761527 0.076192051 0.84436667
0.0037974806 0.080178641 0.84499991
0.0071684239 0.082360454 0.84434289
0.012213569 0.083224595 0.84255767
0.016843624 0.083937973 0.84066653
0.054174855 0.082456037 0.84418094
0.0085252859 0.086466081 0.84499991
0.012669126 0.087827042 0.84433943
0.017718559 0.087914832 0.84193331
0.021017738 0.089121982 0.84039998
0.054054141 0.088540286 0.84229994
0.055642985 0.087784931 0.84257138
0.014041064 0.091181673 0.84499991
0.018405717 0.092402861 0.84383827
0.022102678 0.092941798 0.84195548
0.053648278 0.092824392 0.84208328
0.023213083 0.096860386 0.84425551
0.027126955 0.097619198 0.84240955
0.03043877 0.098556548 0.84086639
0.048760984 0.098087035 0.84131104
0.052013516 0.096735954 0.84316427
0.028462926 0.1010521 0.84428889
0.03225106 0.10164551 0.84214997
0.037486106 0.10400435 0.84064984
0.043397799 0.10368939 0.84126663
0.047603898 0.10172552 0.84280831
0.033710983 0.105237 0.84426659
0.037517935 0.10721789 0.84300005
0.043086618 0.10767075 0.84282964
0.046347741 0.10690027 0.84499997
0.03845593 0.11000928 0.84473318
0.043175448 0.11156303 0.84459996
0.0085643018 0.039490085 0.848867
0.029168095 0.039521102 0.84953368
0.032339409 0.039524201 0.84960026
0.036299251 0.039522648 0.84956694
0.043398246 0.03949422 0.84895587
0.053721562 0.039517999 0.84946692
0.057908278 0.038388215 0.84944791
0.06147936 0.038250353 0.84938699
0.067184605 0.037936188 0.84942216
-0.0056776037 0.043388098 0.8479079
-0.002513787 0.042574201 0.84740949
0.0020296294 0.042363241 0.84714711
0.0066442639 0.041570883 0.84624004
0.012962532 0.041277073 0.84666669
0.018254993 0.042114459 0.84723818
0.022785282 0.041807979 0.84785575
0.027501285 0.040978804 0.84700012
0.03224045 0.040978801 0.84700006
0.036975738 0.040974502 0.84691119
0.043271206 0.041852284 0.84647614
0.048038878 0.042357028 0.84702504
0.052756499 0.041751031 0.84670001
0.057688467 0.042064726 0.84622854
0.062314443 0.042593885 0.84780014
0.066233486 0.04235949 0.84941369
-0.0068025277 0.047517043 0.84720558
-0.003455671 0.046902258 0.84585315
0.062254079 0.04728011 0.84698677
0.06637013 0.045820676 0.84913361
-0.01039823 0.052734293 0.84600008
-0.0078752767 0.051321805 0.84608096
0.06249265 0.05198634 0.84665728
-0.010426909 0.056823958 0.84833336
-0.0088307448 0.057523668 0.84698951
0.062497217 0.057320476 0.84790748
-0.007884372 0.063042313 0.84704435
0.059041835 0.064554714 0.84624141
0.06147562 0.063050948 0.84715813
-0.0060714241 0.067413576 0.84754753
-0.0040841284 0.069208339 0.84539992
0.059003294 0.067658126 0.84568888
0.061135396 0.067440808 0.84790838
-0.0056897653 0.071142979 0.84972441
-0.0030428115 0.073068924 0.84762233
0.059073061 0.072465084 0.84668916
0.060769524 0.071815982 0.84832776
-0.0014622627 0.076305009 0.84853363
0.0011735203 0.078272007 0.84704447
0.057123818 0.077617906 0.84705579
0.0024921391 0.082041971 0.84801131
0.0061673815 0.08420036 0.84593326
0.054291598 0.084994681 0.84599984
0.055926289 0.08193066 0.84686154
0.0038151578 0.086079046 0.8489337
0.0067438046 0.087630153 0.84757167
0.010118756 0.08976534 0.84646672
0.054259505 0.08651723 0.84549993
0.055953488 0.087220967 0.84727341
0.0077738864 0.090823591 0.84900033
0.012414869 0.0932163 0.847615
0.016426319 0.093662076 0.84609997
0.055985283 0.09305609 0.84775496
0.014372555 0.096885383 0.84906703
0.018236348 0.097592287 0.84776682
0.021705762 0.098734893 0.84686667
0.053804506 0.098703116 0.84659702
0.055978693 0.096987702 0.84765518
0.019132866 0.10167677 0.84951133
0.022989864 0.10236812 0.84814197
0.026957383 0.10288656 0.84645557
0.030598043 0.10378934 0.84526658
0.04961678 0.10400216 0.84700006
0.052632291 0.10233202 0.84784174
0.023616597 0.10665674 0.84931695
0.027560005 0.10659329 0.84881145
0.032054394 0.10739172 0.84731686
0.04882108 0.10713857 0.84687781
0.052141912 0.10668368 0.84953362
0.033126406 0.11062571 0.84946692
0.036998067 0.11194026 0.84744775
0.042462464 0.11307145 0.84608883
0.04757921 0.11163782 0.84686673
0.038131978 0.11585945 0.84922248
0.042556524 0.11713648 0.84797806
0.047190409 0.11654165 0.84881353
0.043020628 0.12127061 0.84931695
0.04501377 0.12170142 0.84956688
0.052755348 0.034054574 0.85399282
0.057799026 0.034055367 0.85117859
0.062557325 0.03484479 0.85111111
0.065785535 0.034873746 0.85181814
0.0025584975 0.03899746 0.85193682
0.0059445058 0.039091691 0.85169679
0.013097819 0.039100688 0.85188335
0.01847633 0.039059415 0.85327339
0.02291953 0.038881272 0.8528555
0.027348489 0.038687594 0.85207999
0.03242097 0.038671769 0.85173333
0.037622191 0.038474694 0.85263336
0.041577112 0.038454846 0.85219169
0.04754151 0.038854957 0.85227776
0.052232172 0.037542142 0.85247034
0.056939505 0.036389027 0.85020012
0.063707247 0.037592057 0.85058331
0.066733338 0.038506638 0.85040003
0.068501636 0.043152858 0.85101676
-0.0088621341 0.047448616 0.85000002
0.064172901 0.048325464 0.85150003
0.067457922 0.04813851 0.85287219
0.070732199 0.049260512 0.85400003
0.064283438 0.05078759 0.85296667
0.067410685 0.052332833 0.85227865
0.07060796 0.051551316 0.85250002
0.065843023 0.055521321 0.85256261
-0.010463919 0.061778635 0.85134441
-0.0088621331 0.063260257 0.84999996
0.064172909 0.060203981 0.85150003
-0.010498403 0.065952763 0.85415006
-0.0082520004 0.068517558 0.85244763
0.062489793 0.068020299 0.85020709
-0.0070448131 0.073068514 0.85375571
-0.005721298 0.076305471 0.85443336
-0.002845217 0.077961452 0.85169333
-0.0015758084 0.082181543 0.85272664
0.00064999086 0.08309669 0.85073328
0.057758421 0.083082221 0.85058331
0.0019747776 0.087231211 0.85247773
0.058328226 0.087692499 0.85310602
0.0033048429 0.091056071 0.85364443
0.0064750873 0.09244328 0.85178882
0.010170559 0.094972841 0.85079992
0.057981838 0.092139266 0.85387373
0.0072177686 0.096671499 0.85356671
0.012160152 0.098388962 0.85125405
0.016520159 0.09973643 0.85093325
0.057569593 0.097670883 0.85365015
0.0078228069 0.1001388 0.85436672
0.012855541 0.10233691 0.85354817
0.017589761 0.10350273 0.85152769
0.021266161 0.10441146 0.85033333
0.054749388 0.10475526 0.85313332
0.056889404 0.10267182 0.85340357
0.018613573 0.10773688 0.85340005
0.022233438 0.10828422 0.85093319
0.027617842 0.10919104 0.85059994
0.053522941 0.10825225 0.85256672
0.019765137 0.11121608 0.85400003
0.023096437 0.11234891 0.85203743
0.027643159 0.11245901 0.85137767
0.032162908 0.11284965 0.85091412
0.03556418 0.11398255 0.85093325
0.049865723 0.11323429 0.85125005
0.052158851 0.11227528 0.85238665
0.024013028 0.11651447 0.85402226
0.027731683 0.11758402 0.85409635
0.032470953 0.11744171 0.85305554
0.036618765 0.11766589 0.85086107
0.049090013 0.11723163 0.85154998
0.0508333 0.11759551 0.85417509
0.028540432 0.12081373 0.85446674
0.032738369 0.12189747 0.85410482
0.037223358 0.12213977 0.85262221
0.041270204 0.12250918 0.85078657
0.047572132 0.12216822 0.85281664
0.05007758 0.12087028 0.85486692
0.037295401 0.12554948 0.85424453
0.042200662 0.12672114 0.85276246
0.046267617 0.12645061 0.85317779
0.043666176 0.13030984 0.85420012
0.045262795 0.13032 0.85426682
0.039141834 0.028802954 0.8598001
0.04072009 0.028785085 0.8592667
0.038715143 0.032379836 0.85923338
0.042265877 0.031939052 0.85811836
0.046966475 0.032667603 0.85628343
0.0074564843 0.037524197 0.85811299
0.011532361 0.037346758 0.85769349
0.017787214 0.036465876 0.85735244
0.02304489 0.035903011 0.85750008
0.027846664 0.035907682 0.85762239
0.03265864 0.03592249 0.85797787
0.037429586 0.035895627 0.85732228
0.042190541 0.035865236 0.85658908
0.046952903 0.035842288 0.85603362
0.05010492 0.035017658 0.85533357
0.069266304 0.047759347 0.85556692
0.067652218 0.055701759 0.85533339
-0.01050885 0.068403766 0.85500002
-0.010529335 0.071725167 0.85666674
-0.0089173671 0.073996022 0.85529768
-0.011095176 0.075668655 0.85923082
-0.0075432942 0.078384124 0.85760242
-0.0041343723 0.079611436 0.85580033
-0.0062857843 0.082034916 0.85894871
-0.0037441505 0.083383709 0.85775
-0.0023466046 0.087600775 0.85803336
0.00065396406 0.089177079 0.85593361
0.059670351 0.0875149 0.8552503
-0.0009458859 0.091908365 0.85913336
0.0017195921 0.093051277 0.85740012
0.05969942 0.0923324 0.85566694
0.061371662 0.09324418 0.85673356
0.0030536428 0.097328119 0.85760003
0.0054420936 0.098714873 0.85580033
0.059697058 0.097104073 0.85563296
0.061432753 0.095730379 0.85758644
0.0038596494 0.10146187 0.85883331
0.0068158177 0.10245542 0.85664785
0.010231124 0.10349879 0.85586703
0.058894817 0.10107576 0.85557103
0.0078622373 0.10543881 0.85870004
0.012051761 0.10671207 0.85769171
0.015822418 0.10830878 0.85613358
0.054929044 0.10987569 0.85593361
0.056833781 0.10698937 0.85576743
0.013486264 0.11038062 0.8598668
0.017530248 0.11270816 0.85729629
0.021394541 0.11458977 0.85546696
0.054148249 0.11309431 0.85620022
0.055070248 0.11335064 0.85813338
0.019331226 0.11709979 0.858311
0.022481665 0.11843211 0.85640019
0.053015787 0.11841704 0.85725015
0.023590386 0.12237672 0.85798901
0.027579185 0.12314176 0.85643828
0.031769641 0.1241571 0.85560024
0.052012224 0.12298765 0.85715854
0.024713812 0.12638561 0.8599335
0.02787859 0.12699498 0.85864443
0.032619257 0.12754589 0.85697055
0.037405733 0.12831339 0.85677791
0.040549468 0.12894186 0.85566694
0.048012931 0.12845464 0.8559559
0.051000927 0.12754588 0.85697794
0.032714158 0.13111328 0.85946673
0.037483335 0.13097434 0.8585555
0.042515006 0.13244939 0.85775566
0.047243487 0.13263658 0.85767514
0.05090915 0.13218829 0.85813332
0.043942221 0.13593072 0.85960007
0.045490623 0.13656616 0.85856664
0.0038693866 0.028843148 0.86100006
0.0062886449 0.02889137 0.86243945
0.032817431 0.028080478 0.86217093
0.036745057 0.028809654 0.86000019
0.0024657249 0.032252803 0.8611542
0.0070995698 0.032126613 0.86315656
0.010733922 0.032566883 0.86419183
0.01756105 0.032928325 0.86314601
0.023148358 0.032859597 0.8613556
0.028204596 0.032524515 0.86157143
0.032785311 0.032057136 0.86131859
0.036584668 0.031689223 0.86000025
0.0038648925 0.036008593 0.86000001
0.0070867077 0.03567661 0.86165297
0.011905287 0.035270579 0.86151117
0.015894808 0.035210073 0.86003351
-0.012174215 0.073603086 0.86000001
-0.012195449 0.07693658 0.86150002
-0.010582709 0.081697404 0.86100936
-0.0079057021 0.083821408 0.86088437
-0.010598984 0.085831419 0.86233336
-0.0073741591 0.08813379 0.8612985
-0.0041553047 0.089614667 0.86013341
-0.0064201294 0.092770748 0.86269438
-0.0030136066 0.093163632 0.86123812
-0.0057913098 0.096545547 0.86488891
-0.0023597672 0.097761817 0.86319178
0.00065737631 0.097645707 0.86040014
0.0019952427 0.10253841 0.86117226
0.0032334947 0.10723007 0.8628267
0.0068468293 0.10771874 0.86050481
0.010280537 0.10879795 0.86000019
0.0038837681 0.11174071 0.86420023
0.0070908344 0.1123012 0.86232591
0.01169188 0.11227974 0.86062509
0.015092262 0.11359721 0.86000019
0.0079121171 0.11655001 0.86410022
0.011918581 0.11713859 0.86251116
0.016701443 0.11743787 0.86030012
0.013555795 0.12140045 0.86430019
0.017536715 0.12187465 0.86196673
0.022310764 0.12400059 0.86003351
0.018839078 0.12671635 0.86374295
0.022952156 0.12782633 0.86155832
0.027929207 0.12962164 0.86017793
0.053685125 0.12823267 0.8615889
0.022804372 0.13133846 0.8635751
0.028224889 0.13268268 0.86223823
0.032792259 0.13382941 0.86151117
0.037559278 0.13363943 0.8602891
0.04075484 0.13359429 0.86000019
0.052893635 0.1330685 0.86177874
0.029133804 0.13665505 0.86417794
0.032844815 0.13805754 0.86289269
0.037626192 0.13788567 0.86182225
0.042169735 0.13783278 0.86024177
0.047696155 0.13801692 0.86120951
0.051157761 0.13764516 0.86232007
0.03322003 0.14213714 0.8642801
0.037879575 0.14269334 0.8630209
0.042445585 0.14268659 0.86177039
0.047328759 0.1428681 0.86286306
0.050630182 0.14230153 0.86430013
0.04316986 0.14713076 0.86338675
0.046297967 0.14674942 0.86366683
0.0087290891 0.028983854 0.86520016
0.012318695 0.028427938 0.86790675
0.016460758 0.028697526 0.8687166
0.022892743 0.028421044 0.86908567
0.028171739 0.028259622 0.86769265
0.012944427 0.031928886 0.86652011
0.016833201 0.030658111 0.86703342
0.022492103 0.030658104 0.86703336
0.02733092 0.030644555 0.8666501
-0.0068841423 0.09732642 0.8670519
-0.0058157933 0.10018504 0.86854559
-0.0025745779 0.10198154 0.86778897
0.00066203723 0.10478465 0.86650014
-0.0017680123 0.10511926 0.86926663
0.0012014821 0.10818254 0.86791104
0.0016754746 0.11294939 0.86886662
0.0035000611 0.11762387 0.86906666
0.0064841183 0.11841731 0.86718005
0.0073470012 0.12263522 0.86877489
0.011523007 0.12286351 0.86732388
0.015197559 0.12405536 0.86600024
0.012548354 0.12717278 0.86895543
0.01587547 0.12786104 0.86777341
0.017405102 0.13198705 0.86872214
0.021678964 0.13305284 0.866889
0.053959988 0.13372092 0.86599994
0.023792604 0.13705246 0.86814755
0.027166549 0.13735411 0.86655349
0.05402315 0.13710457 0.86701393
0.024974389 0.14065021 0.8689999
0.028395617 0.14195658 0.86833751
0.032972716 0.14423329 0.8662501
0.036164623 0.14488013 0.86530024
0.051945619 0.14259201 0.86606675
0.029836474 0.14630795 0.8689999
0.032841004 0.1471674 0.86810416
0.037866142 0.14764172 0.86733341
0.042126011 0.14879292 0.86621124
0.047920071 0.14827093 0.86630011
0.051643886 0.14691037 0.86778343
0.033087123 0.15039147 0.8692444
0.038598381 0.15135893 0.86922657
0.042538531 0.15231597 0.86836189
0.047801159 0.15195808 0.8678
0.050885975 0.15190773 0.86866659
0.043780599 0.15651383 0.86911994
0.046052855 0.15684749 0.86917782
0.017228046 0.026575351 0.8706668
0.02013544 0.027526267 0.87
-0.0068088369 0.10243461 0.87118471
-0.0042055487 0.10365308 0.87053353
-0.0066558542 0.10550128 0.87242603
-0.0025870751 0.10733638 0.87194997
-0.0025899773 0.11201485 0.87260365
-0.0021249617 0.11669607 0.87291664
0.0013152922 0.11862753 0.87109345
-0.0016148109 0.12162372 0.87399209
0.002291101 0.1224554 0.87181115
0.0055387523 0.12477159 0.87100023
0.0027047032 0.12561394 0.87404156
0.0073720478 0.12793587 0.87185848
0.010950419 0.1290561 0.87075573
0.0082698064 0.13217278 0.8735109
0.012250316 0.13279308 0.87180001
0.015824832 0.13393591 0.87088913
0.013705843 0.1373747 0.87386656
0.016934888 0.13795102 0.87237042
0.020798728 0.1379946 0.8706001
0.018047646 0.14194752 0.87366658
0.021813974 0.14280622 0.87228519
0.025557553 0.14358647 0.87046689
0.054295074 0.14265715 0.87137789
0.023491042 0.1479824 0.87411112
0.027007777 0.14777324 0.87191999
0.053490005 0.14753458 0.87148333
0.028677832 0.15173295 0.87323999
0.032704931 0.15331875 0.87143821
0.037213601 0.15311974 0.87096685
0.052653823 0.15233572 0.87111109
0.03290987 0.15740725 0.87317657
0.038029261 0.15718573 0.87105209
0.041670345 0.15753639 0.87075019
0.04860739 0.15724552 0.87137789
0.051803529 0.15724877 0.87319994
0.038123023 0.16163664 0.87321097
0.042963915 0.16228202 0.87231117
0.047698829 0.16226545 0.87331665
0.044709016 0.1659604 0.87460005
0.046324238 0.16590348 0.8743
-0.0066959984 0.10857701 0.87760532
-0.0042280923 0.10909284 0.87520003
0.063002549 0.10635675 0.87949997
-0.0067028445 0.11277655 0.87853211
0.061257608 0.11107513 0.87800008
-0.0058813319 0.11601889 0.87833345
-0.0042428719 0.11845993 0.8782593
0.059661113 0.11850513 0.87860346
-0.0036955308 0.12244964 0.87759733
0.059524771 0.12231175 0.87659568
0.061397165 0.1244239 0.87999988
-0.0017855522 0.12741256 0.87802714
0.0019778151 0.12825039 0.87706012
0.058959346 0.12772125 0.87790775
-0.0017853397 0.13231193 0.87803108
0.0023089421 0.1323736 0.87843716
0.0059813806 0.13248199 0.87645012
0.058579843 0.1324227 0.87876487
0.0039547752 0.13588263 0.87999976
0.007224015 0.13729732 0.87857032
0.011128163 0.13726524 0.87628013
0.056339476 0.13719283 0.87791127
0.0088784089 0.14079358 0.87999976
0.01213721 0.1421749 0.87841487
0.015916707 0.14286643 0.87597793
0.05631524 0.1420332 0.87753338
0.013252184 0.1462207 0.87982196
0.017052369 0.14707404 0.87839627
0.021098908 0.14754602 0.8763501
0.054560222 0.14905417 0.87563336
0.056436449 0.14724529 0.87942213
0.017626392 0.15166487 0.87975532
0.021766668 0.15220872 0.87856251
0.026412183 0.15325978 0.87640011
0.054641224 0.15253809 0.87693334
0.022232065 0.15662622 0.87960929
0.026664898 0.15700904 0.8779918
0.030083671 0.15893058 0.87620014
0.054261677 0.15751094 0.87739164
0.02731763 0.16070665 0.87923318
0.032255881 0.16244443 0.87820476
0.03746438 0.16435273 0.87687516
0.049704511 0.16467169 0.87640011
0.052434921 0.16224274 0.87648898
0.032947805 0.16588537 0.87995529
0.037289325 0.16737045 0.87915546
0.042880006 0.16743977 0.87723351
0.048164617 0.167987 0.87810558
0.052302733 0.16595288 0.87886655
0.037599601 0.17025901 0.87999976
0.042735413 0.171702 0.87976646
0.047438033 0.17104493 0.8798331
0.064062975 0.10100624 0.8827939
0.067400336 0.10107701 0.88339174
0.062572181 0.10928562 0.88113099
0.05986432 0.11398973 0.88159585
0.062470127 0.11345301 0.8812418
0.066090047 0.11241227 0.88423347
-0.0064425096 0.11792529 0.88037044
0.059796683 0.11631831 0.88059986
0.062301677 0.11803334 0.88117462
0.065836601 0.1160142 0.88452518
0.062497944 0.12268613 0.88162011
0.061960295 0.12760085 0.88216013
0.059867978 0.1336779 0.88164997
0.06166305 0.13318396 0.88381118
-0.0017950998 0.13710976 0.88262284
0.002316603 0.13773851 0.88139856
0.058918051 0.1378617 0.88219339
0.06087292 0.13901444 0.88430011
0.0031481674 0.14144686 0.88408345
0.0072510545 0.14271446 0.88174754
0.058891762 0.14304875 0.8817932
0.060043402 0.14147085 0.88423347
0.0089127105 0.14626744 0.88340014
0.011631227 0.14812015 0.88138324
0.058201347 0.14756133 0.88131094
0.060086414 0.14651027 0.88486677
0.01267357 0.15256283 0.88314772
0.016004832 0.15348727 0.88082212
0.057453364 0.15185378 0.8824333
0.013850659 0.15607421 0.88310009
0.017333526 0.15736875 0.88229167
0.021214861 0.15901072 0.88116658
0.056738786 0.15790147 0.88413346
0.02247818 0.16127984 0.88236666
0.026646663 0.16332716 0.88145989
0.054902934 0.16310287 0.88113332
0.027358303 0.16660948 0.8832134
0.031350441 0.16775995 0.8811999
0.052730843 0.16835272 0.88144445
0.055021312 0.16591802 0.88303334
0.032389708 0.17132978 0.88340837
0.036837589 0.17244339 0.88139993
0.040088747 0.17365128 0.8805998
0.04778491 0.17321859 0.88117766
0.050876465 0.17239366 0.88254446
0.037739579 0.17664611 0.88328344
0.041983973 0.17692575 0.88160819
0.046516575 0.17696337 0.88179576
0.050112855 0.17588654 0.88360012
0.043538399 0.18171206 0.88395011
0.046277463 0.18140459 0.883789
0.066363685 0.1034397 0.88604152
0.066818506 0.10721448 0.88659543
0.066382647 0.11212371 0.88628531
0.06745676 0.11772879 0.8862834
0.066366881 0.12233035 0.88685709
0.06351117 0.12865557 0.88659984
0.066127695 0.12726827 0.88842219
0.063429989 0.13178508 0.88546675
0.066005558 0.13264357 0.88901329
0.00067624822 0.13996308 0.88510007
0.062867962 0.1372702 0.88684654
0.066191062 0.1356619 0.88928324
-0.0016394723 0.1416568 0.88745177
0.0019172335 0.14312157 0.88681644
0.062894844 0.14228065 0.88722658
0.002888375 0.14659424 0.88869995
0.0070505394 0.14766349 0.88614285
0.061205328 0.14780599 0.88671988
0.0039967173 0.15221344 0.88933343
0.0070923315 0.15213819 0.88769144
0.010582977 0.15399271 0.88530004
0.057667669 0.15489191 0.88573325
0.061096516 0.15190813 0.88754988
0.0073001129 0.15690504 0.88779992
0.012238662 0.15818033 0.88569528
0.015531002 0.15970249 0.88500017
0.057660937 0.15775596 0.88562506
0.060396522 0.15636596 0.88943338
0.0084155044 0.16095556 0.88888884
0.012271509 0.16217197 0.88799983
0.017210746 0.16245553 0.88654429
0.022143699 0.16389853 0.88543344
0.05748206 0.16173355 0.88711101
0.013947902 0.16626869 0.88929999
0.017250385 0.1669617 0.88858509
0.022179181 0.16773552 0.88685155
0.026686039 0.16926114 0.88548338
0.056357995 0.16661994 0.88677782
0.018917892 0.17117992 0.88903332
0.021980071 0.17235124 0.88837129
0.02734109 0.17298618 0.8866331
0.031742785 0.17406514 0.88603991
0.035340097 0.17453216 0.88506687
0.053560838 0.17226742 0.88611662
0.055315211 0.17093289 0.88774991
0.022567606 0.17599292 0.88911998
0.026950413 0.17730704 0.88836181
0.032337446 0.17770207 0.88679975
0.036379866 0.17872867 0.88627988
0.040289041 0.17945771 0.88500017
0.048541706 0.17945771 0.88500017
0.052204099 0.1775246 0.88709527
0.028314665 0.18083371 0.8890667
0.032174721 0.18188763 0.88882858
0.037102241 0.18249403 0.88775533
0.041522454 0.18322845 0.88617134
0.047220185 0.18350391 0.88598889
0.051341347 0.18199363 0.8877331
0.033859458 0.18534108 0.88953334
0.037485205 0.18588617 0.88897336
0.042073522 0.18746705 0.88784432
0.046824094 0.18803954 0.88762486
0.050829913 0.1864565 0.8889333
0.042140175 0.19024344 0.8892445
0.047109306 0.19187017 0.88911676
0.068813175 0.12183826 0.89102149
0.070597179 0.12370943 0.89256692
0.068874396 0.12775472 0.89181441
0.070636019 0.12710163 0.89305782
0.068509802 0.13241223 0.89246672
0.066933371 0.13815509 0.89255476
-0.0026408555 0.14411043 0.89037943
0.06563019 0.14120178 0.89293361
-0.0016489472 0.14745548 0.89257365
0.0012342513 0.14864032 0.89105576
0.063783355 0.1457701 0.89040005
-0.00098449353 0.15138243 0.89420038
0.0015126645 0.15272658 0.89232796
0.0033430748 0.15736589 0.8922869
0.004018289 0.16135065 0.89413375
0.0070065768 0.16303635 0.89242685
0.01064155 0.16395278 0.89020008
0.0090257088 0.16642722 0.89460027
0.012054664 0.1676874 0.89244479
0.014031025 0.17141965 0.89460027
0.017034946 0.17253746 0.89177245
0.055540562 0.1741163 0.89136678
0.018342288 0.17749119 0.89332694
0.02186504 0.17858931 0.89093351
0.055649247 0.17778043 0.89311129
0.022665206 0.1817425 0.89298707
0.026734566 0.18302487 0.89167804
0.030589545 0.18397544 0.89093357
0.053852648 0.18232055 0.89094466
0.055732682 0.1830374 0.89445013
0.02845948 0.18674743 0.89362258
0.032308906 0.187628 0.8925336
0.036848534 0.1886798 0.89162529
0.053237539 0.18779559 0.89176017
0.034054853 0.19140345 0.89466691
0.037346277 0.19117524 0.89360023
0.042597361 0.19313449 0.89190024
0.047752682 0.19333796 0.89080024
0.051791549 0.19230469 0.89222401
0.043359172 0.19754836 0.89385366
0.047070302 0.19732916 0.89229608
0.050715916 0.19713305 0.89423364
0.047413968 0.20143403 0.89486682
-0.0026559441 0.14993112 0.89546674
-0.002100142 0.15274136 0.89566678
-0.0016578939 0.15662739 0.89756024
0.0012416821 0.1584128 0.8963334
0.0020239842 0.1623278 0.89770013
0.0040386631 0.16551213 0.89866698
0.0070443368 0.1672768 0.8973735
0.0090628127 0.17212522 0.898278
0.011830673 0.1723357 0.89647776
0.05934966 0.17220525 0.89870018
0.061111767 0.17077388 0.89996696
0.012617916 0.17686406 0.89795023
0.016142027 0.17752472 0.8960166
0.057627946 0.17708141 0.89798903
0.014106312 0.18070467 0.89940012
0.017412737 0.18216433 0.8969779
0.022394013 0.1840719 0.89543343
0.056729712 0.18188772 0.89700007
0.019099249 0.18701345 0.89755577
0.022214219 0.1870247 0.89660835
0.026293023 0.18769753 0.89551115
0.03075435 0.18996543 0.89573324
0.055831343 0.18752885 0.89603341
0.01914346 0.19079249 0.89963353
0.022460634 0.1913027 0.89810032
0.027453162 0.19191702 0.89706314
0.032120865 0.1928127 0.89657336
0.037452057 0.19337948 0.89611107
0.040783737 0.19499311 0.89586663
0.054127991 0.19324757 0.8955
0.055891573 0.19023401 0.89700019
0.028611809 0.19610178 0.89840025
0.032757591 0.19671798 0.898305
0.037490051 0.19691774 0.8970409
0.041342612 0.19833581 0.89591104
0.049108498 0.19987352 0.89533347
0.053062852 0.19675708 0.89631122
0.038545724 0.20185649 0.89822692
0.042261221 0.20235692 0.89684767
0.047507372 0.20282504 0.89660013
0.051525217 0.20117028 0.89864469
0.039262827 0.20577763 0.89930034
0.043123335 0.20664154 0.89820576
0.04709569 0.20688426 0.89787638
0.06639456 0.14956786 0.90333343
0.066431299 0.15133196 0.90383333
-0.0026730488 0.15927896 0.90123343
0.064772718 0.1581226 0.9042111
-0.0021967213 0.16306412 0.90229529
0.0006883709 0.16425973 0.90096688
0.063848048 0.16295733 0.90304172
0.0023729571 0.16797996 0.90294296
0.005731645 0.16935652 0.90133363
0.061815362 0.16781311 0.90205568
0.0040597855 0.1730997 0.90336663
0.0065751742 0.17281069 0.90185565
0.059466336 0.17421889 0.90046692
0.06132907 0.17390218 0.90316671
0.0040648794 0.17668174 0.90450001
0.008093901 0.17729814 0.90250015
0.010768262 0.17931028 0.90080041
0.059558786 0.17700657 0.90186685
0.061367553 0.17653199 0.90373331
0.012463709 0.18289776 0.90196198
0.015810024 0.18435772 0.90090042
0.05875615 0.18215063 0.90243345
0.012486441 0.18576036 0.90364993
0.016834946 0.18756667 0.90182018
0.057898194 0.1871421 0.9022001
0.01753591 0.19200097 0.90335834
0.022527501 0.19439131 0.90080041
0.058065057 0.19020517 0.90480006
0.019229997 0.19501711 0.90369999
0.022914022 0.19717149 0.90278673
0.027032861 0.19848429 0.90162802
0.031757828 0.19935545 0.90051693
0.05445338 0.19859941 0.90088344
0.028791649 0.20237924 0.90404439
0.032669444 0.202317 0.90251684
0.036389835 0.20319855 0.90084195
0.053405654 0.20361666 0.90208346
0.033570282 0.20519425 0.90409994
0.038041469 0.20777631 0.90216684
0.041594625 0.20904799 0.90137798
0.049433924 0.2087428 0.90126699
0.052640129 0.20775573 0.90270001
0.03861776 0.21101491 0.90381664
0.043127306 0.21232951 0.90297335
0.047819432 0.2123851 0.90249461
0.052399363 0.21136133 0.9041
0.047887284 0.21521354 0.90379995
0.068468682 0.14788879 0.90850025
0.070882693 0.14746833 0.90903044
0.067710966 0.1529405 0.90740681
0.071398258 0.15216519 0.90881336
0.067692675 0.15728942 0.90716684
0.070850156 0.1572032 0.90861857
0.067092367 0.16157335 0.90705854
-0.0018442378 0.16783227 0.90668356
0.064502649 0.16734798 0.90634179
0.066834725 0.16747475 0.90932232
-0.0016769033 0.17192523 0.90781367
0.0013677251 0.17221268 0.90577346
0.064072989 0.17196332 0.90623337
0.06676776 0.1723768 0.90841126
-0.00099998061 0.17657255 0.9082669
0.0019010786 0.17744267 0.90715736
0.006604129 0.17861405 0.90576673
0.062846482 0.1775568 0.90682524
0.065764457 0.1778183 0.90858686
0.003517051 0.18135799 0.90825582
0.0072472747 0.18246843 0.90712523
0.059792127 0.18359447 0.9054001
0.062459186 0.18230022 0.90733916
0.065173097 0.18194824 0.90979993
0.0079514673 0.18729226 0.90816212
0.012179497 0.18806626 0.90584677
0.059883844 0.18725045 0.90678906
0.062384717 0.18731028 0.9087202
0.0091676293 0.19101803 0.90866685
0.012536971 0.19242446 0.90732616
0.015899533 0.19298545 0.90600008
0.059036337 0.19229919 0.90674192
0.061324179 0.19327211 0.90933335
0.014248513 0.1968911 0.90846694
0.017395334 0.19761859 0.90695852
0.020961691 0.19881819 0.90570009
0.057399344 0.19754814 0.90760022
0.060093712 0.19636944 0.90996665
0.018661482 0.20255461 0.90885353
0.022690363 0.20255333 0.9073298
0.026598996 0.20336334 0.90593338
0.05747642 0.20288484 0.90882248
0.024410745 0.20784521 0.90833372
0.02776856 0.20762521 0.90737069
0.032559846 0.20782554 0.90614301
0.03613602 0.20876542 0.90499997
0.056524366 0.20757626 0.90715581
0.028379982 0.21247821 0.90887803
0.032858834 0.21277559 0.90774113
0.037316218 0.21301001 0.90634459
0.041245054 0.21405217 0.90600008
0.053770673 0.21312615 0.90636015
0.056618508 0.21130152 0.90866691
0.033783194 0.21664628 0.90981662
0.038536925 0.21747321 0.90855581
0.042975757 0.21763599 0.90688545
0.048012275 0.21767084 0.90615427
0.052858114 0.21691474 0.90810698
0.073729895 0.14909349 0.91069996
0.073691912 0.15070993 0.9102307
0.071976051 0.15744279 0.91000003
0.068660855 0.16355649 0.91104996
0.07028918 0.16085188 0.91013324
0.068943478 0.16678174 0.91480035
0.068493247 0.17738745 0.9133352
0.0023982446 0.18382439 0.91282505
0.067354396 0.18284437 0.91174001
-0.0010055439 0.18604979 0.9133203
0.0021558639 0.18729055 0.912862
0.0057884529 0.18796784 0.91026664
0.063532129 0.18973057 0.91059995
0.066356778 0.18698233 0.91206664
0.0028307978 0.19099104 0.9146086
0.0072545265 0.19264981 0.9118191
0.063693762 0.19276062 0.91291678
0.066133752 0.19173551 0.91369343
0.0075178449 0.19613992 0.91415578
0.012256207 0.19808231 0.91162002
0.062124021 0.1980167 0.91171253
0.01297299 0.20202741 0.91412032
0.015999563 0.20268045 0.91170001
0.061088882 0.20193094 0.91215003
0.018018164 0.20732443 0.91348344
0.021934276 0.2076191 0.91105002
0.058426566 0.2074787 0.91043329
0.019432146 0.21065702 0.91320008
0.022812681 0.21213329 0.91224289
0.026161311 0.21337472 0.91029996
0.057977006 0.21269983 0.9122445
0.027711954 0.21748821 0.91245836
0.068973616 0.17281333 0.91520035
0.00069998432 0.18407343 0.9161669
0.070765436 0.18239725 0.91630012
0.069003768 0.18736626 0.91560012
0.002976333 0.19360423 0.91556692
0.06822522 0.19269004 0.91661674
0.003440364 0.19775091 0.91794664
0.0071884482 0.19863753 0.91574031
0.065600492 0.19591758 0.91576684
0.0041321395 0.20184031 0.91946661
0.0077888337 0.2026213 0.91746658
0.011521497 0.20396423 0.91620016
0.063871659 0.20096222 0.91546673
0.008419889 0.2061241 0.91949993
0.012678471 0.20740031 0.91757774
0.016057467 0.20851913 0.91500038
0.013716173 0.21147048 0.91820651
0.01777833 0.2126729 0.91578358
0.021176932 0.21447644 0.91500038
0.058753856 0.21289831 0.91553348
0.0041390308 0.2038901 0.92100012
0.0072443509 0.20805974 0.92277336
0.0087432722 0.2119054 0.92357779
0.011438278 0.21287411 0.92095006
