# .PCD v0.7 - Point Cloud Data file format
VERSION 0.7
FIELDS x y z
SIZE 4 4 4
TYPE F F F
COUNT 1 1 1
WIDTH 870
HEIGHT 1
VIEWPOINT 0 0 0 1 0 0 0
POINTS 870
DATA ascii
0.042658255 0.059468325 0.81953335
0.049532212 0.057939131 0.81946677
0.052087668 0.058456805 0.81960005
0.04341894 0.060987845 0.81946671
0.052588843 0.061749853 0.81946683
0.037525401 0.053681504 0.82431108
0.042123541 0.053662691 0.82402223
0.048194461 0.053796589 0.82274288
0.052808546 0.053586159 0.82287616
0.055989522 0.053695973 0.8245334
-0.0039783297 0.058224287 0.82350004
0.0021666707 0.059206016 0.82437336
0.0078478996 0.058533203 0.82354671
0.013092924 0.058351789 0.82260835
0.01763968 0.05758705 0.82238787
0.022096181 0.057366908 0.82222199
0.02747466 0.057391167 0.82256651
0.032808218 0.057328481 0.821661
0.037388559 0.057303414 0.82129413
0.04234137 0.057142228 0.82080549
0.047243606 0.057335392 0.82075119
0.05312017 0.057387471 0.8209272
0.056906447 0.057675533 0.82297093
-0.0039831609 0.064429902 0.82450008
0.0023871977 0.06245663 0.8244763
0.0081362892 0.062471967 0.82339263
0.012908679 0.062788658 0.8230741
0.017503658 0.06274841 0.82254815
0.022107232 0.062754132 0.82262963
0.027455432 0.06270536 0.8219943
0.032789361 0.062644213 0.82119238
0.037379269 0.062636293 0.82108861
0.041769467 0.062808193 0.82084149
0.047322065 0.062621273 0.82089418
0.052686121 0.062845908 0.82098073
0.05741528 0.062776357 0.82292587
0.017545333 0.065964527 0.82451123
0.022154929 0.065955639 0.82440013
0.02750358 0.065876961 0.82341677
0.032883588 0.066654526 0.82355565
0.037658568 0.067185454 0.82301664
0.042045292 0.067335278 0.82250357
0.04739536 0.067307889 0.82217211
0.052722167 0.067256041 0.82154667
0.05728548 0.06725055 0.82382059
0.060490109 0.065843627 0.82300001
0.039061476 0.070544861 0.82426679
0.042904261 0.070544861 0.82426673
0.048269559 0.071289115 0.82400012
0.052844904 0.07200852 0.82345933
0.056786001 0.07060191 0.82493335
-0.0040049003 0.053986859 0.82900006
0.002179458 0.053995553 0.82913357
0.0075863809 0.053958651 0.82856691
0.013299403 0.053323127 0.82828009
0.017836334 0.052809916 0.82783806
0.022012115 0.052775536 0.82730472
0.027310466 0.053231847 0.82755244
0.032860957 0.052754089 0.82783347
0.037682723 0.051595259 0.82775563
0.04232179 0.051604271 0.82790011
0.046949092 0.051599126 0.82782227
0.052180804 0.051120818 0.82754672
0.056980431 0.051594336 0.8277365
-0.0022995465 0.05742212 0.82742631
0.0021743041 0.056502845 0.82715237
0.0070544141 0.055873498 0.82649994
0.012568907 0.05570833 0.82594991
0.016017985 0.05526549 0.82506675
-0.0070869201 0.064677358 0.82766676
-0.0022795692 0.062523469 0.82633072
0.0014002749 0.064495027 0.82533348
0.0057603866 0.063973047 0.82520008
-0.0024559917 0.067765653 0.82776266
0.0021736089 0.067685992 0.82679248
0.0075667645 0.067656636 0.82643336
0.012959559 0.067645282 0.82628888
0.017583949 0.068417549 0.82634443
0.022200858 0.068398356 0.82611108
0.0275857 0.068378806 0.82587498
0.032955423 0.069102727 0.82535559
0.036018956 0.069072954 0.82500017
0.059241742 0.069240406 0.82700002
-0.0020730132 0.071752653 0.82936627
0.002179544 0.071725853 0.82905596
0.0075915842 0.072502077 0.8291114
0.013000774 0.072485104 0.82891881
0.017625056 0.072430775 0.82828897
0.022237686 0.072360605 0.82748878
0.027627023 0.072327055 0.82711095
0.033022001 0.072319463 0.82701468
0.037445407 0.072491378 0.82677501
0.042017758 0.072693221 0.82626665
0.046815068 0.072950192 0.82545561
0.056889843 0.073036596 0.82642978
0.0099131456 0.075600594 0.82926691
0.013006124 0.075600594 0.82926685
0.017640436 0.075576283 0.82900029
0.022281859 0.075972654 0.82911694
0.02692683 0.076375291 0.82930022
0.032004155 0.076253995 0.82918119
0.03773956 0.075576283 0.82900029
0.04265869 0.076143607 0.82845342
0.047279481 0.076893039 0.82821339
0.052542672 0.077120543 0.82749707
0.056897841 0.076792434 0.82880008
0.050920576 0.080263823 0.82963347
0.013874894 0.049717795 0.8349998
0.017766692 0.049713831 0.83493322
0.022436297 0.049709857 0.83486646
0.027090902 0.049679425 0.83435553
0.032537006 0.049680088 0.83436656
0.037916381 0.049592093 0.8328889
0.042608082 0.048852179 0.83349985
0.047297221 0.048879117 0.83395553
0.052333616 0.049249101 0.83365005
0.056636903 0.049661744 0.83405876
-0.0021560132 0.053214889 0.83140451
0.0021878013 0.052394923 0.83232218
0.0076210387 0.051881153 0.83235002
0.012651147 0.051433172 0.83134997
0.016902404 0.051009092 0.8307333
0.023095861 0.050998859 0.83056664
0.026998483 0.051055491 0.83148885
0.031661328 0.051074591 0.83180004
0.05952828 0.051025465 0.83100003
-0.0027727147 0.073251262 0.83060753
0.0021835316 0.07418301 0.83066672
-0.00091755413 0.0759774 0.83340007
0.002637177 0.077357359 0.83393317
0.0074160593 0.077644438 0.83312112
0.013053976 0.07820297 0.83233339
0.017704377 0.078171857 0.83199996
0.022332553 0.078233644 0.83101332
0.027014375 0.078945138 0.83200002
0.032894518 0.078595534 0.83157331
0.03784487 0.078108169 0.83132225
0.042093076 0.078465424 0.8310166
0.059135016 0.077682965 0.8309167
0.0088119879 0.081156835 0.83484977
0.013276028 0.082051381 0.83406657
0.017558016 0.082070991 0.83426654
0.022222999 0.082061216 0.83416653
0.027086481 0.081328213 0.83421326
0.032752752 0.082139947 0.83443016
0.037989337 0.082286805 0.83448869
0.042617042 0.082208626 0.8336888
0.047202706 0.082072169 0.8323037
0.052874506 0.082267724 0.83115995
0.058104258 0.082119837 0.83279139
0.048377801 0.085930996 0.8347109
0.052161012 0.086699918 0.83400822
0.05572322 0.086619623 0.83435994
0.053585656 0.090102598 0.83499974
0.003769618 0.049944058 0.83880001
0.007420104 0.048905354 0.83884448
0.012048515 0.048022229 0.83795995
0.017843144 0.04758675 0.8385222
0.022525378 0.047567979 0.83818895
0.027195007 0.047533367 0.83757788
0.03232903 0.047646485 0.83760959
0.037668984 0.047405101 0.83728582
0.042834908 0.045995098 0.83794445
0.047514111 0.045986231 0.83777767
0.051833548 0.047336947 0.83686656
0.057036947 0.047970127 0.83614826
-0.001701992 0.051366024 0.8365463
0.0021954302 0.051275175 0.8350665
-0.005597868 0.079324655 0.83600003
-0.002221382 0.078323476 0.83637047
0.00063830114 0.078494139 0.83543324
-0.0056179562 0.081170015 0.83900005
-0.0020393862 0.082410976 0.83800453
0.0022006708 0.082547463 0.83713329
0.0070692664 0.083014458 0.83595824
0.011542657 0.083916344 0.83526647
0.019328481 0.083902955 0.83513314
0.024001081 0.083902955 0.83513314
0.027115554 0.083512925 0.83511639
0.03022881 0.083896257 0.83506638
-0.00092466298 0.085939832 0.83985722
0.0025182716 0.086469844 0.83893335
0.0068911687 0.087310523 0.83800739
0.012341366 0.087168783 0.83664984
0.017800342 0.087155201 0.83651841
0.022478126 0.087144479 0.83641464
0.027163778 0.087163478 0.83659989
0.032624003 0.087161846 0.83658332
0.038079627 0.087149836 0.83646655
0.04274787 0.087126024 0.83623689
0.046883225 0.087600619 0.83582205
0.050475128 0.088556416 0.83506644
0.058617178 0.087144293 0.83642149
0.060774416 0.088814445 0.83750004
0.0084667709 0.090555795 0.83920014
0.012638486 0.09106084 0.8390556
0.018166954 0.091163114 0.8390401
0.02275146 0.09157107 0.83827633
0.027208008 0.09198302 0.8379705
0.031917907 0.092043363 0.83851856
0.03732061 0.091903567 0.83853954
0.04283629 0.091982812 0.83797044
0.047498211 0.0919315 0.83750367
0.051913183 0.091992609 0.83629155
0.056828849 0.091861218 0.83686662
0.060841735 0.092032589 0.8384282
0.030404979 0.095322222 0.83993334
0.039803885 0.095322222 0.83993334
0.044496283 0.095307089 0.8398
0.049187183 0.095291957 0.83966672
0.052196492 0.095070027 0.83771116
0.056918502 0.095125504 0.83820009
0.060906816 0.095252976 0.83932316
0.0077353003 0.044015363 0.84479988
0.012452659 0.043978892 0.84409994
0.023496684 0.044025782 0.84499991
0.027378423 0.043933164 0.84322244
0.032100495 0.043937799 0.84331137
0.037621047 0.043956321 0.84366697
0.043446105 0.043331169 0.84373343
0.0474911 0.043289296 0.84292001
0.052584272 0.043340873 0.84392011
0.056978822 0.04301722 0.84373343
-0.0056514358 0.047113687 0.84400004
-0.00092926831 0.04868599 0.8440401
0.0024121001 0.047257032 0.8430835
0.0064027323 0.046486288 0.84214449
0.012422163 0.045441143 0.84210014
0.017937602 0.045487314 0.84295577
0.022635946 0.045452535 0.8423112
0.027302535 0.045375794 0.84088874
0.032022204 0.045394983 0.84124428
0.03753328 0.045421362 0.84173328
0.052407909 0.045386586 0.84108871
0.056296539 0.045360211 0.84059995
-0.0056514358 0.050253693 0.84400004
-0.0028922181 0.050553869 0.84246665
0.0014266229 0.050090931 0.84126669
-0.0040604565 0.083660215 0.84050006
-0.0024990533 0.087776549 0.84248072
0.0018185396 0.088803597 0.84108329
-0.0014543124 0.091633081 0.84432834
0.0022152746 0.092524536 0.84290379
0.0067287311 0.09263055 0.84208339
0.012151904 0.093416065 0.84152222
0.017522531 0.093582943 0.84185004
0.021809807 0.093849123 0.84073347
0.038249541 0.093789577 0.84020001
-0.0025050745 0.095851861 0.84460002
0.0025337832 0.096427344 0.84413338
0.0071658529 0.096906073 0.84400004
0.01244704 0.097331256 0.84379458
0.017965496 0.097386472 0.8442741
0.022678569 0.097340889 0.84388155
0.02735441 0.097181506 0.84249651
0.032241434 0.097305641 0.84187502
0.03731402 0.097218253 0.84158176
0.04284104 0.097307704 0.84189171
0.047580339 0.097367048 0.8424086
0.052435774 0.097853743 0.84154439
0.057175536 0.097905576 0.84198886
0.06117614 0.098026544 0.8430258
0.013253096 0.10061287 0.84499997
0.018768873 0.10061287 0.84499991
0.021132769 0.10061287 0.84499991
0.027736053 0.10118592 0.84453326
0.032338027 0.10157467 0.84365737
0.037603091 0.10197713 0.84327793
0.04311803 0.10200107 0.84347427
0.047857862 0.10204532 0.84383714
0.052545223 0.10197933 0.84329647
0.05683567 0.10179283 0.84360969
0.060512047 0.10058112 0.84473324
0.037680097 0.1053284 0.84499991
0.041619927 0.1053284 0.84499991
0.052644577 0.10531455 0.84488875
0.057379279 0.1053284 0.84499991
0.044175841 0.039482329 0.84870028
0.048107367 0.039460104 0.84822249
0.052880839 0.038691763 0.84868908
0.057571609 0.038652644 0.84782791
0.060817704 0.039496277 0.84900004
-0.0056893802 0.044268921 0.84966666
-0.00093548856 0.044270113 0.84968996
0.0025442454 0.043531898 0.84764016
0.0067427852 0.042122293 0.84740013
0.012493841 0.041759599 0.84688342
0.018026661 0.042756166 0.84714168
0.022563567 0.042150505 0.8479715
0.02750743 0.041775253 0.8472001
0.032251652 0.041779574 0.84728891
0.036976434 0.041762281 0.84693336
0.041969281 0.041492142 0.84676671
0.048357323 0.041308083 0.84568328
0.052720886 0.041329078 0.84611654
0.057837434 0.041713674 0.84594423
-0.005658132 0.047169507 0.84500003
-0.0027121007 0.047108278 0.8474521
0.00064637436 0.045651611 0.84599984
-0.005658132 0.051885098 0.84500003
-0.0040879934 0.089737065 0.84620011
-0.0028259568 0.093182638 0.84604615
-0.0014565611 0.097041585 0.84583932
0.0018297842 0.098764554 0.8459962
0.0061659347 0.099119112 0.84566665
0.0024266033 0.10233488 0.84785753
0.0069674123 0.10246239 0.84728169
0.01222939 0.10293349 0.84683716
0.017780488 0.10277833 0.84618092
0.022929372 0.10248826 0.84587491
0.027074659 0.10348637 0.84600002
0.031394523 0.10381798 0.84549999
0.059006397 0.10306068 0.8457334
0.061402611 0.10232507 0.84615254
0.013327332 0.10591844 0.84973347
0.018378329 0.1064357 0.84881365
0.022792736 0.10650713 0.84812242
0.027541792 0.10652251 0.84824473
0.032478437 0.10709169 0.84805858
0.03674043 0.10756706 0.84670484
0.042618521 0.10734913 0.8460533
0.048004568 0.1070817 0.84642231
0.052720662 0.10782839 0.84611112
0.057546008 0.10740642 0.84743345
0.061471738 0.1077589 0.84928244
0.037853412 0.11055191 0.8489002
0.042837936 0.11100187 0.84831136
0.047882795 0.11160985 0.84893352
0.052881747 0.11165365 0.84869546
0.057116996 0.11107983 0.84891135
0.04688891 0.034998558 0.85486686
0.052892249 0.034644481 0.85398322
0.057448089 0.034426179 0.85383135
0.0070233457 0.039732497 0.85407782
0.012576137 0.039661817 0.85255837
0.018554138 0.039296981 0.85325003
0.022948748 0.038930003 0.8539111
0.027708495 0.038906001 0.8533833
0.032456342 0.038873579 0.85268331
0.037199866 0.038844522 0.85204989
0.041671429 0.038706012 0.85249341
0.047359921 0.03708405 0.85259163
0.052326515 0.036490683 0.85257494
0.05782098 0.036444131 0.85148734
-0.0025266535 0.042805962 0.85203952
0.0018408496 0.041585624 0.8513667
0.018090134 0.041130409 0.85013336
-0.0041111824 0.094995156 0.85100001
-0.00093671092 0.099720791 0.85080004
-0.0015761418 0.10219045 0.8529278
0.00065019459 0.10449331 0.85099995
-0.00093965814 0.10797312 0.853477
0.0022390718 0.10777972 0.85194594
0.0069989413 0.10766914 0.85107398
0.012478129 0.10777492 0.85077262
0.017710501 0.10883819 0.85093325
0.022847548 0.10913399 0.85015565
0.027624959 0.10921672 0.85079986
0.030786281 0.10917393 0.85046661
0.0022448602 0.11201888 0.85406119
0.0072481809 0.11230846 0.85367149
0.012589295 0.11273044 0.85342783
0.018135441 0.11258043 0.85228884
0.022879235 0.11245419 0.85134071
0.02766316 0.11253811 0.85197031
0.032436743 0.11256167 0.85214806
0.036942672 0.1129091 0.8513571
0.041897584 0.11331065 0.85064
0.047833864 0.11351574 0.85039997
0.052979782 0.11389324 0.85026664
0.058101263 0.11302947 0.85170555
0.061763145 0.11239711 0.85331136
-0.005718396 0.11915911 0.85400003
0.0149975 0.11606337 0.85460013
0.018574391 0.11640194 0.85416675
0.023148082 0.11736352 0.85393763
0.027732452 0.11679145 0.85411114
0.032319404 0.11741469 0.85430849
0.037277255 0.11754809 0.85383344
0.041992586 0.11737487 0.85256666
0.0473116 0.11715861 0.85204238
0.052789062 0.11750017 0.85232323
0.057432454 0.11713304 0.85246181
0.061214056 0.1160543 0.85453337
-0.005718396 0.12074772 0.85400003
-0.0041111824 0.12348959 0.85100001
0.042077243 0.1207886 0.854289
0.047173146 0.12141748 0.85424012
0.052689306 0.12182502 0.85412604
0.057055391 0.12206268 0.8543067
0.042358752 0.028809644 0.8599999
0.03833089 0.033593297 0.85960007
0.041866481 0.032211147 0.8593049
0.046903819 0.032162704 0.85879624
0.051989343 0.032080226 0.85719055
0.056476962 0.03342136 0.85520011
-0.0020877996 0.038545456 0.85799801
0.0022542879 0.039101541 0.85769445
0.0070638414 0.038359609 0.8589111
0.01216851 0.037656415 0.85747349
0.017521471 0.036845099 0.85675937
0.023034582 0.035886738 0.85711122
0.027841603 0.035902202 0.8574779
0.032634225 0.035896372 0.85734445
0.03741686 0.035882972 0.85702229
0.042210054 0.035881218 0.85697788
0.045368746 0.035055868 0.85626692
-0.0041332669 0.041393511 0.85557145
-0.0057451804 0.10375679 0.85800004
-0.0025381453 0.10348469 0.85575002
-0.0025420999 0.10683677 0.85708332
-0.0017439366 0.11241146 0.85705733
0.002248754 0.11457191 0.85533357
0.0062355716 0.11455405 0.85520029
0.062866591 0.1145719 0.85533333
-0.0017424265 0.11846545 0.85760319
0.0022541604 0.11803976 0.85740012
0.0070507876 0.11803179 0.85734081
0.01184408 0.1179971 0.85708898
0.017079029 0.11879323 0.85626686
0.021389538 0.11933586 0.85526693
0.027772928 0.11934826 0.85535592
0.034152854 0.11934516 0.85533363
0.05967617 0.11854991 0.85533351
0.062089086 0.11779271 0.85561132
-0.0041353377 0.12103049 0.85600007
0.0022596114 0.12151125 0.85940009
0.0070694261 0.12153953 0.85960013
0.013485219 0.12156781 0.8598001
0.017810229 0.12207357 0.85853332
0.023026373 0.12274589 0.8568446
0.02781605 0.12272285 0.85668904
0.032607913 0.12271828 0.85665941
0.037380163 0.12265003 0.85618544
0.042158458 0.12340964 0.85593367
0.046544954 0.12379806 0.85586691
0.051730733 0.12419257 0.85584468
0.059338968 0.12305219 0.85621685
0.062170345 0.12272795 0.85672873
-0.0057518762 0.12624839 0.85900003
-0.0041498304 0.12624839 0.85900003
0.024679333 0.12700804 0.8587333
0.027878972 0.12699328 0.85863334
0.032685339 0.12700178 0.85868889
0.037497412 0.12686861 0.85886669
0.042306278 0.12703831 0.85893339
0.047317028 0.12731731 0.85850477
0.052221283 0.12735754 0.85808897
0.057066601 0.12751044 0.85807508
0.062077284 0.12680027 0.85912722
0.028841406 0.028926346 0.86348355
0.032783926 0.028452804 0.86128843
0.037569046 0.028826775 0.86051124
0.042363398 0.028812695 0.86009097
-0.00094904186 0.033687104 0.86200005
0.0018675153 0.033313151 0.86268598
0.0079192314 0.032592516 0.86486679
0.01141177 0.033255212 0.86466676
0.017549995 0.032104652 0.86260551
0.023170998 0.032088 0.86218524
0.027977712 0.032069717 0.86167037
0.032769039 0.032041907 0.86089635
0.037319083 0.031553127 0.86002874
0.043962672 0.031209294 0.86000019
0.048780076 0.030412953 0.86009991
-0.0057585724 0.03520871 0.86000001
-0.0029520676 0.035615474 0.86016679
0.0022659122 0.036077011 0.86164349
0.0070954822 0.036123708 0.86277229
0.011504921 0.035675928 0.86163342
0.015900657 0.035223719 0.86036688
-0.0057585724 0.043207537 0.86000001
-0.0041594924 0.10411957 0.86100006
-0.0041643237 0.10744747 0.86200005
-0.0041594929 0.11212707 0.86100006
-0.0025509626 0.11760621 0.86007142
-0.0017518324 0.12258327 0.86131167
0.0022638347 0.12334225 0.86102223
0.0070752054 0.12260369 0.86033344
0.011564294 0.12256169 0.86004019
0.01702117 0.1245105 0.86024016
-0.0017530728 0.12674586 0.86237955
0.0022673029 0.12674712 0.86238849
0.0070898309 0.12670363 0.86209619
0.012072677 0.12700827 0.86198664
0.017524103 0.12819272 0.86132216
0.022656951 0.12824373 0.86013353
0.027923556 0.12959486 0.86000019
0.032738753 0.12960826 0.860089
0.03758182 0.12931545 0.86080003
0.042388018 0.12968527 0.86059999
0.04637029 0.12959988 0.86003351
0.051982202 0.12959486 0.86000019
0.058402408 0.12960491 0.86006683
0.06129431 0.12898348 0.86125565
-0.001488983 0.13131131 0.86427689
0.0022719346 0.13103478 0.86421901
0.0071043265 0.13097723 0.86383909
0.011613841 0.1311249 0.8637535
0.017566619 0.13251656 0.86339599
0.023377869 0.1329691 0.86242092
0.027760243 0.13265623 0.86206198
0.032829192 0.13237339 0.86246127
0.037670236 0.13242853 0.86282229
0.042712737 0.13272658 0.86252373
0.047264252 0.13306123 0.86171848
0.052063264 0.13300267 0.86134076
0.056908753 0.13306335 0.86173332
0.061860926 0.13173851 0.86356181
0.021622948 0.13511305 0.86460024
0.028867356 0.13505834 0.86425018
0.043095041 0.13609783 0.86404467
0.047701556 0.13724014 0.86381352
0.052203592 0.13737582 0.86365575
0.05738277 0.13727523 0.86403352
0.023699747 0.028635429 0.86683339
0.026487958 0.028993901 0.86550021
0.0038886359 0.031401012 0.86528343
0.0064712078 0.031888079 0.86540014
0.012231622 0.031681437 0.86562687
-0.0041884785 0.12903695 0.86700004
-0.0025709718 0.13167119 0.8666501
0.0022782143 0.13385646 0.86687797
0.0071252813 0.13378613 0.86642241
0.01196703 0.13372952 0.86605573
0.062810555 0.13365144 0.8655501
0.065421447 0.13242523 0.86806673
-0.000954822 0.1363354 0.86725003
0.0022823093 0.13730624 0.86829108
0.0071440884 0.13736738 0.86867785
0.012003742 0.13736545 0.86866665
0.016850686 0.137251 0.86794072
0.022235824 0.13772614 0.86754447
0.028163865 0.13797353 0.86741114
0.032994598 0.13707358 0.86681491
0.037835602 0.13704103 0.86661118
0.042004459 0.13757625 0.86592674
0.045842092 0.13842565 0.8652001
0.055587925 0.13858564 0.86620015
0.062107317 0.13710219 0.86700368
0.065284535 0.13778868 0.86625004
0.013641017 0.14076887 0.86973339
0.016876966 0.14150925 0.86931109
0.022546487 0.14147887 0.86912495
0.028451208 0.14182375 0.86911428
0.033084266 0.14229491 0.86917031
0.037939638 0.1422655 0.86899251
0.042781506 0.1422006 0.86859256
0.047597524 0.14206971 0.86778891
0.052453164 0.14206976 0.86778897
0.057326555 0.14211504 0.86806685
0.062699862 0.14200649 0.86881906
0.065357804 0.14197521 0.86722231
0.037969064 0.1456113 0.86966676
0.042497307 0.1462139 0.86940002
0.047678821 0.14594874 0.86926663
0.05255051 0.14556666 0.86939996
0.056999244 0.1459461 0.86924994
0.063849352 0.14706607 0.86870432
0.065431491 0.14536574 0.8682
0.065567143 0.13433853 0.87000006
0.065642513 0.13611318 0.87100005
0.0032689634 0.14242908 0.87196225
0.0071670166 0.1426819 0.87152982
0.011829869 0.14275599 0.87075019
0.016907699 0.14419593 0.87088913
0.021780193 0.14419593 0.87088913
0.026646435 0.14416282 0.87068909
0.060720399 0.14328924 0.87030005
0.0022993055 0.14643346 0.87457693
0.0077312631 0.14743064 0.87405545
0.012062057 0.14777468 0.87288141
0.016929764 0.14763036 0.87202966
0.021807982 0.14762539 0.87200004
0.027488751 0.14756675 0.8716557
0.03315356 0.14745416 0.87099266
0.038033351 0.14828993 0.87114459
0.043295678 0.14863321 0.87078351
0.047755666 0.14837047 0.8706668
0.05263789 0.14823855 0.87084466
0.057818402 0.14835912 0.8706001
0.06157887 0.14744963 0.87096673
0.016980095 0.1513219 0.87462229
0.022693507 0.15134978 0.87478328
0.027563136 0.15122002 0.87403321
0.032801233 0.15214007 0.87397617
0.038543165 0.15153034 0.87347484
0.043016907 0.15191783 0.87336659
0.047882058 0.15266328 0.87297773
0.052768964 0.15266882 0.87301105
0.057877094 0.1521809 0.87287611
0.061709054 0.15182164 0.8728143
0.0026315874 0.14774835 0.87659615
0.0063849492 0.14905651 0.87565005
0.0027760379 0.15187819 0.87783337
0.0069806562 0.15224372 0.87725252
0.012102761 0.1523447 0.87582237
0.017006865 0.15318982 0.87600011
0.021500271 0.15278286 0.87600011
0.026793884 0.15310238 0.87550002
0.032527387 0.15482229 0.87601674
0.037933316 0.15422568 0.87632674
0.043107297 0.15467794 0.87520003
0.056994744 0.1547133 0.87540007
0.061873555 0.15466619 0.87513334
0.0034037933 0.15589099 0.8789776
0.0074599455 0.15644705 0.8786
0.012134657 0.15683006 0.87812972
0.017050611 0.15685254 0.87825561
0.021965187 0.15685685 0.87828159
0.026875267 0.156835 0.87815946
0.03176995 0.15756015 0.87765008
0.037503771 0.15757801 0.87775016
0.04322077 0.15753341 0.87750012
0.048120353 0.15750067 0.87731689
0.05301914 0.15747081 0.87715024
0.057993174 0.15765204 0.87816125
0.061328419 0.15780544 0.87901485
0.013802042 0.16043715 0.87999976
0.017084463 0.16043715 0.87999982
0.022007542 0.1604331 0.87997752
0.026925229 0.1604007 0.87979984
0.032153375 0.16094127 0.87917328
0.036926713 0.1615618 0.87918514
0.042769436 0.161791 0.87944424
0.048230361 0.16148318 0.87932366
0.053139511 0.16109972 0.87914437
0.058083698 0.16117056 0.87953329
0.061384499 0.16122252 0.87981844
0.00067264144 0.14904261 0.88037938
0.00067428709 0.15433234 0.88253325
0.0017688308 0.15797071 0.88146043
0.0064177746 0.15883026 0.88016647
0.063139498 0.15905495 0.88141185
0.0031495714 0.16122517 0.88432181
0.0072576492 0.16089708 0.88252228
0.012191996 0.16248986 0.88224757
0.017124133 0.16326945 0.88203335
0.022042014 0.16314527 0.88136101
0.026961396 0.16307323 0.88097209
0.031483009 0.16350012 0.8810665
0.038452219 0.16384755 0.88073319
0.042543527 0.16379175 0.88043308
0.048307814 0.16384757 0.88073313
0.053203274 0.16374832 0.88019973
0.058165859 0.16385581 0.88077754
0.063638955 0.16264331 0.88181585
0.017164806 0.16611846 0.8841002
0.022505352 0.16639687 0.88339174
0.02700747 0.16581154 0.88246661
0.031954452 0.16586374 0.88274449
0.036890216 0.16584288 0.88263339
0.041841667 0.16672564 0.88295561
0.046999212 0.16701086 0.88260001
0.052311637 0.16683978 0.88247085
0.057477921 0.167115 0.88284171
0.061948035 0.16773725 0.88395733
0.065010317 0.16619363 0.88450021
0.00067630823 0.14820851 0.88517869
-0.00097774586 0.15695278 0.88807142
0.0019187296 0.16291329 0.88679045
0.0072886185 0.16389057 0.88627994
0.010584172 0.16471577 0.88540006
0.0033295925 0.16657844 0.88830298
0.0072997548 0.1672537 0.88762838
0.012246743 0.16735445 0.88628882
0.017201338 0.16859818 0.88601428
0.021831915 0.16914257 0.88615322
0.027112102 0.16892727 0.88588887
0.032069378 0.16893356 0.88592219
0.037015088 0.16888042 0.88564444
0.04198423 0.16976321 0.88595551
0.046084367 0.16964719 0.88535011
0.051047899 0.16968231 0.88553339
0.057623953 0.1695929 0.88506687
0.063427597 0.16966319 0.88543344
0.06510096 0.16889729 0.88573343
0.0039969678 0.17207593 0.88938886
0.0073118871 0.17201811 0.88908887
0.012275264 0.17186658 0.88830352
0.017241929 0.17265511 0.88811094
0.022205772 0.1726141 0.88789988
0.027167274 0.17257293 0.88768864
0.03211781 0.17248827 0.88725537
0.037074368 0.17245139 0.88706636
0.042050403 0.17250349 0.8873331
0.047009569 0.17248629 0.88724422
0.052193347 0.17278285 0.8869521
0.056914773 0.17323902 0.88687372
0.061642461 0.17277209 0.88689506
0.066291779 0.17221475 0.8883999
0.013952607 0.17542605 0.88959998
0.01750019 0.1765326 0.88921899
0.022236142 0.17698519 0.88911849
0.027209692 0.17697784 0.88908142
0.032181635 0.17696446 0.88901478
0.037145674 0.17691755 0.88877773
0.04211634 0.17690736 0.88872588
0.047091346 0.17691922 0.88878512
0.051845636 0.1770858 0.8885833
0.05701369 0.17767322 0.88842219
0.061732661 0.17691542 0.88876671
0.040477198 0.18029585 0.88913333
0.057903819 0.18034318 0.88936675
0.0023466526 0.17269419 0.89258617
0.0040093018 0.17592563 0.89213359
0.0073391371 0.17682338 0.89247251
0.012114663 0.17771392 0.89172941
0.016466059 0.17900696 0.8909502
0.063859761 0.17828237 0.89146686
0.06626787 0.17733774 0.8925482
0.014023704 0.18130986 0.89413375
0.017552601 0.18262146 0.89342535
0.022308651 0.18254216 0.89201885
0.027301706 0.18255664 0.89208913
0.032286823 0.18252285 0.89192253
0.037279837 0.18253562 0.89198536
0.042475194 0.18273038 0.89192522
0.047245935 0.18247679 0.89170021
0.052248079 0.18252015 0.89191139
0.057015564 0.18304336 0.89215267
0.062062934 0.18243411 0.89250863
0.019042032 0.1864523 0.89486694
0.02236554 0.18633191 0.89428926
0.027375238 0.18637359 0.89448923
0.031557914 0.18644536 0.89483356
0.042369559 0.18628792 0.89407808
0.04737157 0.1862856 0.89406705
0.050736714 0.18639673 0.89460027
0.059087697 0.18642451 0.89473355
0.0023595921 0.17114332 0.89750797
0.0081988759 0.17990103 0.89540011
0.0082093161 0.18263067 0.89653337
0.012047124 0.18268023 0.89595997
0.064155884 0.18493924 0.89560014
0.066739604 0.18181741 0.89664054
0.0082298964 0.18727402 0.8988058
0.012404736 0.1870437 0.89770019
0.01684007 0.18726987 0.89612228
0.022406107 0.1883366 0.89591104
0.027418593 0.1883366 0.89591104
0.032842796 0.18788645 0.89575005
0.037427187 0.18741989 0.89551115
0.042443756 0.18828052 0.89564449
0.04745644 0.18828519 0.89566678
0.052811962 0.18765518 0.89583999
0.057160955 0.18767193 0.89591998
0.062540248 0.18759882 0.89636678
0.065952264 0.18696372 0.89731532
0.0085175866 0.19191992 0.8996892
0.012420942 0.19147067 0.89888912
0.017626572 0.19173419 0.89718348
0.022431958 0.19189112 0.89694077
0.02744831 0.19187766 0.89687783
0.032257956 0.19158447 0.89773828
0.037505496 0.19115163 0.89738899
0.042520083 0.19196051 0.89726311
0.04750891 0.19183093 0.89665931
0.05255023 0.19191797 0.89706677
0.057588194 0.19198376 0.89737415
0.062619589 0.19201349 0.897515
0.066388734 0.19201961 0.89755011
0.019115089 0.19552276 0.89830029
0.022485724 0.19569449 0.89908928
0.026680727 0.19571865 0.89920026
0.04427968 0.19567512 0.89900017
0.047606237 0.19676054 0.89850026
0.051528245 0.19616719 0.8987003
0.066007502 0.19547199 0.89806694
0.0032085553 0.17765746 0.90091676
0.0057470123 0.18241993 0.90375006
0.0057385699 0.18634494 0.90242243
0.0079792961 0.19354646 0.90206677
0.012464765 0.19466226 0.90205568
0.01580476 0.19434814 0.90060031
0.033444874 0.19436973 0.90070033
0.037636351 0.19433136 0.90052253
0.067903437 0.19443446 0.90099996
0.0085557522 0.19726379 0.90372229
0.012820606 0.19730118 0.90338004
0.017506653 0.19767594 0.90176678
0.022547012 0.19874525 0.90154457
0.02783671 0.19842587 0.90172398
0.03265892 0.19720764 0.90218335
0.037916172 0.19783737 0.90218341
0.042499542 0.19805351 0.90125853
0.047708899 0.19933704 0.9004336
0.053338557 0.1983397 0.90097243
0.057669405 0.19777736 0.90190852
0.062920667 0.19749251 0.90183824
0.066267163 0.19791818 0.90160012
0.018405691 0.20110098 0.90460002
0.022613568 0.2018529 0.90420002
0.026559869 0.20250328 0.90459996
0.031021001 0.20001605 0.90349996
0.039485496 0.20189753 0.90439999
0.043159805 0.20240085 0.90364009
0.047825783 0.20234364 0.90263337
0.052907482 0.20162219 0.90316659
0.058022507 0.20100126 0.90415001
0.063091293 0.20018575 0.90426666
0.068280265 0.18877205 0.90600014
0.0057568704 0.19031025 0.90530026
0.068280265 0.19045742 0.90600014
0.0074436213 0.1986865 0.90510005
0.010819668 0.1986865 0.90510005
0.068483755 0.19778639 0.90870005
0.0079480093 0.20262583 0.90765744
0.012535481 0.20251209 0.90714848
0.017026495 0.20282538 0.906039
0.022642186 0.20379747 0.90536672
0.028850123 0.2033509 0.90587783
0.033004552 0.20244715 0.90591681
0.037291963 0.20275974 0.90574455
0.041208632 0.20375998 0.90520006
0.05304971 0.20385002 0.90560007
0.058481734 0.20327194 0.90602672
0.062370967 0.20311239 0.90606678
0.065885425 0.2026881 0.90793347
0.0091783907 0.20647278 0.90973336
0.012799853 0.20746027 0.9087621
0.017622942 0.20771292 0.90775597
0.022692963 0.20762855 0.90738553
0.027789822 0.20777455 0.90802258
0.032885 0.20787278 0.90845227
0.037912264 0.20757096 0.90713352
0.042961396 0.2074405 0.9065631
0.048029445 0.20742205 0.90648162
0.053147219 0.20760185 0.90726691
0.058024917 0.20743836 0.90747535
0.0619733 0.20788263 0.90849465
0.017658193 0.21151341 0.90957785
0.022744175 0.21215692 0.90943336
0.027846983 0.21158838 0.90989989
0.037981879 0.21133251 0.9088003
0.043402728 0.21198936 0.90871352
0.048570864 0.21173052 0.90869188
0.05214398 0.21204664 0.90944451
0.058390193 0.21158065 0.90986657
0.0057935407 0.19491206 0.91106689
0.0058130408 0.19896904 0.91413337
0.0057905717 0.20497558 0.91060001
0.066923752 0.20496057 0.91053331
0.0074959118 0.20775345 0.91164166
0.012578161 0.20996499 0.91019994
0.06529963 0.20688888 0.91156679
0.0087967049 0.21215808 0.91417521
0.012365893 0.21267307 0.91247612
0.017676907 0.21343462 0.91055554
0.022760868 0.21332784 0.91009992
0.027885083 0.21314666 0.91113329
0.032995824 0.212813 0.91151667
0.038086195 0.21360129 0.91126662
0.041436244 0.21335128 0.91019994
0.047393426 0.21342158 0.91049993
0.053354148 0.2134919 0.91079992
0.056443878 0.21293494 0.91131324
0.061632745 0.21256582 0.91264009
0.013062178 0.21646211 0.91440028
0.017982727 0.21709463 0.91373354
0.038178284 0.21581614 0.91346687
0.005837841 0.20323338 0.91803354
0.0041340874 0.20878012 0.91989988
0.0058270302 0.20967525 0.91633356
0.065614834 0.20959134 0.91596675
0.006692321 0.21345767 0.91794163
0.067771465 0.20927188 0.92206663
0.0041446234 0.21274461 0.92224455
0.0041622501 0.20847958 0.92616659
0.0041800761 0.20764224 0.9301334
