# .PCD v0.7 - Point Cloud Data file format
VERSION 0.7
FIELDS x y z
SIZE 4 4 4
TYPE F F F
COUNT 1 1 1
WIDTH 1297
HEIGHT 1
VIEWPOINT 0 0 0 1 0 0 0
POINTS 1297
DATA ascii
0.024158355 0.063625038 0.81420004
0.026460273 0.063682348 0.81493366
0.024142228 0.067367241 0.81365836
0.026444584 0.067431346 0.81445014
0.024923071 0.071969792 0.81436688
0.026455944 0.072766133 0.81480026
0.017813588 0.059064481 0.81921679
0.022554375 0.058404718 0.81800008
0.027548725 0.05773348 0.81853348
0.032199398 0.058425549 0.81916684
0.01760697 0.062247984 0.8185001
0.022376027 0.061919648 0.81568021
0.028211176 0.062064767 0.81609184
0.032695889 0.062464084 0.81883717
0.035767663 0.062495153 0.81924462
0.018341394 0.066734135 0.81889343
0.021174168 0.067581832 0.81624174
0.028753541 0.067502953 0.81530869
0.032522313 0.067293242 0.81829339
0.035779301 0.067089081 0.81951123
0.02272521 0.072992086 0.81733346
0.028766667 0.072846293 0.81568909
0.03249868 0.071969002 0.81866682
0.023539335 0.076194294 0.81906688
0.027346734 0.077381089 0.81872016
0.019080071 0.053687286 0.82440013
0.022130363 0.053627964 0.82348889
0.027508073 0.053633023 0.82356668
0.032478418 0.053976867 0.82298326
0.037520345 0.053674262 0.82420015
0.040621724 0.053708982 0.82473356
0.0098613463 0.059860166 0.82493347
0.013046462 0.057630278 0.82299995
0.017291278 0.056369394 0.82159978
0.021760408 0.055610694 0.82110655
0.027436245 0.055020981 0.82141638
0.033700537 0.056214094 0.8209998
0.037394356 0.057311017 0.82141089
0.041339073 0.057471249 0.82369179
0.013085774 0.062529959 0.82219988
0.015923494 0.064093895 0.82019991
0.038141072 0.062629186 0.82099968
0.041330628 0.062822171 0.82352227
0.013941812 0.06640736 0.82366675
0.016328294 0.067620605 0.82133305
0.038154241 0.067234039 0.82127744
0.040565893 0.06665808 0.82360005
0.017692067 0.071732193 0.82249159
0.020525884 0.074059516 0.82073319
0.033812117 0.074358128 0.82122201
0.037214238 0.07165806 0.82164156
0.018298659 0.07510826 0.82386672
0.022098748 0.078030691 0.82236183
0.027421819 0.07942535 0.82096642
0.032342717 0.077560224 0.82277775
0.035931632 0.075029269 0.82300001
0.023063734 0.082470462 0.82392007
0.027436504 0.082525484 0.82141656
0.031394169 0.082861736 0.82476681
0.02762668 0.086708389 0.8238287
0.0093832789 0.053409431 0.82802242
0.013179786 0.052573461 0.8280167
0.017415987 0.052154969 0.82750005
0.022232452 0.052333683 0.82724434
0.026885981 0.052384287 0.82804465
0.033077873 0.05202467 0.82845008
0.037654694 0.051557738 0.82714432
0.042485859 0.052146271 0.82734168
0.046963204 0.052383542 0.82805204
0.050148726 0.054030258 0.82966655
0.0083482657 0.056977026 0.82764447
0.011422888 0.055368204 0.82659978
0.043726254 0.057581183 0.82526672
0.046881244 0.056906462 0.82660717
0.050142009 0.057109673 0.82955551
0.0091163674 0.062333778 0.82719994
0.011409991 0.064521074 0.82566667
0.043720376 0.062946267 0.82515568
0.046961319 0.062394563 0.82801121
0.00990956 0.067092024 0.82896698
0.012451415 0.068194829 0.82675558
0.042659856 0.067830332 0.82588571
0.046583805 0.067658357 0.82915258
0.013753575 0.072382696 0.82774448
0.01601669 0.073676929 0.82500017
0.039108861 0.073700756 0.82526684
0.042284511 0.07233128 0.82714808
0.04549209 0.071755901 0.8294003
0.014156163 0.076704659 0.8286835
0.017382419 0.077400185 0.82729524
0.020637592 0.079834945 0.82520014
0.033984076 0.079342686 0.82540011
0.037854258 0.077149116 0.82725006
0.041996397 0.075971194 0.82910031
0.018152546 0.081220023 0.82888913
0.021066515 0.083465301 0.82694995
0.033441063 0.083031371 0.82645702
0.037226204 0.082262009 0.82902986
0.022448672 0.087634414 0.82818341
0.02742281 0.088477291 0.82562673
0.033028699 0.087716818 0.82714069
0.036219783 0.086433455 0.82960027
0.023838222 0.091820389 0.82946682
0.027441887 0.092277639 0.82789701
0.031802427 0.092508905 0.82872248
0.013867265 0.049690008 0.8345331
0.017761638 0.049697947 0.83466643
0.022439962 0.049717795 0.83499974
0.027111826 0.049717795 0.83499974
0.032544911 0.049692985 0.83458316
0.037896115 0.04879098 0.83245558
0.042749856 0.048209716 0.83246666
0.047262598 0.048842769 0.83333343
0.052003797 0.049693976 0.83459973
0.0029703025 0.053549424 0.83419991
0.0072299773 0.052444078 0.8320666
0.011477247 0.050996818 0.83053327
0.022361562 0.051088244 0.83202225
0.027057832 0.051168755 0.83333349
0.031681735 0.051493704 0.83233351
0.052574236 0.052590281 0.83130664
0.056206428 0.052338086 0.83345008
0.0026363416 0.057203207 0.83414268
0.005284531 0.057210226 0.83102208
0.052888431 0.056988984 0.83101898
0.056003939 0.057720114 0.83390665
0.0033618719 0.061733812 0.83469981
0.0063977423 0.062362436 0.83199054
0.051843025 0.061920807 0.83199257
0.055142973 0.060590629 0.83499974
0.0076324558 0.067476399 0.83372492
0.048685342 0.068810716 0.83109987
0.050702471 0.067009322 0.83367985
0.0099721188 0.072947502 0.83419991
0.011481546 0.07265342 0.8308444
0.047620226 0.072959766 0.83181912
0.0099769002 0.076086774 0.83459979
0.012119205 0.077716552 0.83209336
0.042830318 0.07830368 0.83175993
0.046853859 0.076325737 0.83296669
0.013505846 0.081909098 0.83290482
0.017304452 0.08353582 0.8314833
0.039361596 0.082674906 0.83060002
0.042060707 0.081611186 0.83288884
0.014641835 0.085374594 0.83433318
0.01791865 0.087175921 0.83300835
0.020800985 0.089750081 0.83173335
0.038094006 0.087897636 0.83249998
0.04110441 0.085395053 0.83453315
0.01854521 0.09087193 0.8349331
0.02211394 0.092934281 0.8325333
0.034341592 0.093143441 0.8309499
0.037034784 0.092786886 0.83399999
0.023456484 0.096746065 0.83424431
0.027017098 0.097532019 0.832111
0.032457296 0.097551495 0.83228344
0.036442913 0.097835459 0.8347109
0.028149256 0.1014905 0.83497757
0.032367367 0.1019452 0.83499134
0.066434175 0.043761805 0.8399334
0.0022056245 0.049963906 0.8391335
0.0073372223 0.049233053 0.83809525
0.012357298 0.047927726 0.83767503
0.018223155 0.047946025 0.83798331
0.022835897 0.047718454 0.8380934
0.027206564 0.04755291 0.83792228
0.032400027 0.047271907 0.83755559
0.03787319 0.045981105 0.83768892
0.042377874 0.045533609 0.83661664
0.047436431 0.045910519 0.83639985
0.051971536 0.04720426 0.83767623
0.057424162 0.048437107 0.83729702
0.063079409 0.047728047 0.83871675
0.067762025 0.047813412 0.83874869
0.070885196 0.048279915 0.83700001
-0.00170552 0.053033173 0.8383112
0.001574692 0.052280478 0.83625317
0.0053127934 0.051299732 0.83546638
0.059123304 0.052901421 0.83622211
0.062958568 0.052817665 0.83796668
0.067712463 0.052869666 0.83879596
-0.0015486997 0.057382412 0.83805341
0.00063845399 0.058305092 0.83563322
0.058411021 0.057636779 0.83719999
0.060473487 0.057351463 0.83873349
-0.00092386612 0.062451761 0.8391335
0.0012628979 0.062576294 0.83662665
0.056851454 0.062308524 0.83720958
0.060106143 0.060885735 0.83906686
0.0023965084 0.066826314 0.83770835
0.0053178817 0.067683451 0.83626658
0.053062301 0.067240253 0.83656007
0.055798382 0.06673377 0.83900017
0.0037705158 0.070245117 0.83900017
0.0068851113 0.072444394 0.83735335
0.052000277 0.072353363 0.83731121
0.0079390537 0.076972045 0.8386001
0.010005592 0.078641027 0.83699995
0.047767729 0.07877095 0.83671987
0.051473834 0.07645449 0.8386333
0.010794654 0.082602628 0.83770001
0.04380041 0.083518326 0.83646655
0.046774816 0.0819038 0.83851671
0.013385191 0.087197304 0.8369332
0.016212119 0.088556424 0.83506638
0.042590708 0.087332755 0.83823329
0.014714379 0.091257587 0.83846676
0.017587889 0.09277153 0.83705711
0.020897681 0.094830438 0.83559996
0.039231267 0.092550598 0.83606654
0.041827928 0.091013558 0.83862227
0.018892359 0.096756719 0.83882236
0.021974171 0.098630369 0.83706665
0.039040547 0.097768784 0.8379429
0.023050129 0.10242078 0.8383556
0.026633183 0.10320476 0.83627772
0.03296306 0.1037289 0.8352831
0.037936043 0.10264947 0.83756661
0.024110293 0.10613284 0.83893359
0.027416635 0.10742869 0.83838344
0.0321902 0.10735112 0.83747327
0.035838198 0.10767201 0.83876675
0.031168789 0.11087621 0.83940011
0.05659131 0.039310206 0.84499991
0.061693907 0.038905345 0.84474444
0.065104514 0.039217152 0.84300005
-0.011947718 0.042403679 0.84400004
0.0030095135 0.044025782 0.84499991
0.0069482308 0.044019993 0.84488887
0.012617293 0.04369057 0.84460002
0.016404964 0.044025782 0.84499991
0.022708712 0.044025782 0.84499991
0.027706739 0.043325711 0.8436268
0.032108601 0.043163564 0.84353328
0.037105724 0.043592077 0.8427068
0.043332927 0.042814367 0.84328568
0.047803611 0.042345062 0.8428815
0.052788548 0.042600397 0.84403324
0.05729546 0.042390365 0.84376305
0.062478997 0.04245998 0.84230918
0.065807439 0.041516721 0.84194148
-0.013529799 0.045570664 0.84450001
-0.007034468 0.047345806 0.84464991
-0.0022784492 0.04754775 0.84376198
0.0022143116 0.047028527 0.84251118
0.0069225091 0.046206281 0.84178895
0.012267816 0.04576055 0.84222686
0.017610092 0.04607787 0.84230673
0.022238716 0.045831848 0.8421002
0.027299011 0.0453698 0.84077758
0.032770239 0.045345817 0.8403331
0.036679648 0.045335028 0.84013313
0.053186543 0.045381792 0.84099984
0.057112247 0.045385387 0.84106642
0.061028879 0.045381788 0.84099972
-0.006871941 0.05195966 0.8433854
-0.003279709 0.051652029 0.84122211
0.064893439 0.054720566 0.84026659
-0.0064401268 0.057325687 0.8441112
-0.003669821 0.058268744 0.84071654
0.062769562 0.058224749 0.84119999
0.066625677 0.057208713 0.84236544
-0.0056581334 0.062102199 0.84499991
-0.0032841007 0.062675923 0.84214443
0.058634285 0.064109087 0.84039992
0.061947856 0.062726676 0.84281909
-0.0020518613 0.067193426 0.84266669
0.00064199395 0.068788104 0.84026653
0.058091931 0.067646101 0.84161329
0.060878541 0.067159645 0.84435004
-0.0009293711 0.071460813 0.84413338
0.002016841 0.072273597 0.84216666
0.053940769 0.073500589 0.8405332
0.057059798 0.071967147 0.84316665
0.0027437024 0.076441973 0.84423333
0.0063966699 0.078018554 0.84147763
0.052470118 0.077708818 0.84208
0.055790134 0.076231062 0.84479988
0.0071578557 0.082246773 0.84318107
0.010050219 0.084465556 0.84073323
0.048338842 0.083577797 0.84123993
0.051667612 0.082318433 0.84437311
0.0085246135 0.086459264 0.84493327
0.010701673 0.08811304 0.84270668
0.044559874 0.088403419 0.84099972
0.047798738 0.087807789 0.84278536
0.012776724 0.092795648 0.84333342
0.043539703 0.092889078 0.84147769
0.047397088 0.092379048 0.8436287
0.01419117 0.097106256 0.84457332
0.016963303 0.097373709 0.84145325
0.04307374 0.097189486 0.84257042
0.046871837 0.096418656 0.84497768
0.018129567 0.10172575 0.84281671
0.021555029 0.10430834 0.8409999
0.039807048 0.10470518 0.83999997
0.042575311 0.10143109 0.84308934
0.019142024 0.1063944 0.84410012
0.022423182 0.10824889 0.84173334
0.025717769 0.10943628 0.84033328
0.038763516 0.10826237 0.84161901
0.041566454 0.10676361 0.84391433
0.023120908 0.11278325 0.84364766
0.027334113 0.1127685 0.8418594
0.03227115 0.1132231 0.8419143
0.036836896 0.11301654 0.84371114
0.040043999 0.11161589 0.84499991
0.024280822 0.11631315 0.84486657
0.027622689 0.1176621 0.84467489
0.031944569 0.117623 0.84439164
0.035316184 0.1171174 0.84499991
0.049626958 0.034683608 0.84717405
0.05274716 0.034657881 0.84654552
0.055803359 0.034594607 0.84500003
-0.0072694286 0.039504033 0.84916669
0.029170385 0.039524198 0.84960014
0.03234702 0.039533503 0.84980011
0.035511233 0.039527301 0.84966683
0.044098295 0.039412543 0.84720016
0.047842175 0.038225133 0.84709173
0.052730773 0.037794873 0.84627414
0.057664644 0.037327889 0.84588879
0.06210709 0.037738327 0.84500021
-0.010790609 0.042889595 0.84586
-0.007242504 0.042507254 0.84607846
-0.0025145733 0.042589009 0.84771878
0.0020031673 0.042145699 0.84786683
0.0069636926 0.041757926 0.84684443
0.012373428 0.041623209 0.84639043
0.018264731 0.042589486 0.8477335
0.022778269 0.042131841 0.84759063
0.027091879 0.041349292 0.84653342
0.032254484 0.040996008 0.84735566
0.037277013 0.041587684 0.84658682
0.041320488 0.04137082 0.8469668
0.051079594 0.040885281 0.84506661
-0.015113746 0.047955438 0.84500003
-0.011773548 0.047401048 0.84562933
-0.0088106971 0.04560126 0.84506649
-0.0032949094 0.04560665 0.84516656
-0.01516973 0.051289208 0.84813005
-0.011789628 0.051796969 0.84675026
-0.0088294661 0.053575061 0.84686673
-0.010968278 0.055841375 0.84938878
-0.008446401 0.057593159 0.84803367
0.066892356 0.059794676 0.84571099
-0.0072635505 0.062337264 0.84823352
0.063688055 0.064465098 0.84506649
0.066936038 0.062983535 0.84627604
-0.0056756916 0.067814879 0.84762239
-0.0040863827 0.068460532 0.84586668
0.063163444 0.06803748 0.84648001
0.066858903 0.067407072 0.84816211
-0.0027787636 0.072542101 0.84760016
0.059034307 0.07399027 0.84613335
0.062119585 0.072366029 0.84784186
-0.0014624489 0.07632684 0.84877807
0.0011740426 0.078315169 0.84751129
0.054231714 0.078612961 0.84506649
0.057960141 0.07743381 0.84689528
0.060791444 0.076577283 0.84863365
0.0026787489 0.081781313 0.84763825
0.0061660958 0.084171414 0.84563327
0.053953789 0.082326494 0.84688336
0.056812901 0.082070343 0.84830022
0.0038171052 0.086123258 0.84936684
0.0067697209 0.087889463 0.84735852
0.052777637 0.087457985 0.84700012
0.056476932 0.086500779 0.84920031
0.0085558947 0.092298515 0.84803361
0.010120085 0.092928462 0.84657782
0.049509391 0.093557931 0.84516656
0.052363694 0.092589028 0.8476097
0.011443398 0.097726695 0.84723347
0.048576098 0.098248482 0.84720016
0.051846594 0.096880473 0.84902239
0.013616388 0.10161076 0.84808016
0.01644638 0.10401854 0.84713346
0.04431352 0.10338759 0.84626669
0.047579706 0.10204852 0.84821695
0.017497079 0.10716055 0.8470667
0.044117834 0.10722419 0.84755564
0.046600062 0.10590184 0.84960026
0.019195296 0.11141443 0.84644997
0.021156941 0.11410435 0.8459667
0.04225634 0.11225292 0.84717786
0.019643627 0.11605894 0.84875035
0.022748904 0.11811776 0.84653336
0.025862629 0.1194846 0.84506649
0.033758894 0.11954115 0.84546661
0.037406772 0.11833149 0.84644777
0.041516844 0.11677613 0.84823346
0.023214262 0.12163233 0.8490836
0.027503446 0.12292418 0.84709644
0.032235812 0.12288969 0.84685928
0.036851205 0.12294108 0.84857523
0.040227242 0.12081157 0.848867
0.027875954 0.12696032 0.8488003
0.03178985 0.12741508 0.84902245
0.03550566 0.12643737 0.84953368
-0.0041111824 0.034840245 0.85100001
0.043683216 0.034984905 0.85453343
0.046632733 0.033566132 0.8538453
-0.0068961857 0.037659384 0.85212505
-0.002525934 0.038045097 0.85189795
0.0019224783 0.039018009 0.85237998
0.0066149365 0.039272189 0.85272503
0.012572547 0.039650578 0.85231662
0.0186901 0.038642522 0.85341674
0.022921788 0.038544279 0.85292381
0.027389521 0.038300369 0.85170555
0.032431819 0.038315792 0.8520444
0.037662569 0.038059358 0.85222858
0.04183279 0.037560295 0.85291487
0.046737567 0.03647178 0.85213327
0.018101485 0.041156221 0.85066664
-0.016414091 0.052659221 0.85114998
-0.013622493 0.053791348 0.85028583
-0.015877137 0.056766897 0.85219699
-0.01258259 0.057556048 0.85138029
-0.016047768 0.060299642 0.85285294
-0.011881915 0.061720431 0.8532933
-0.0084730089 0.063709497 0.85071659
-0.010898665 0.066360757 0.85429174
-0.0080917226 0.068187907 0.8522833
0.068103358 0.069666758 0.85099995
0.070545852 0.068936661 0.85175002
-0.0071108718 0.072872907 0.85378331
-0.0041111838 0.07441584 0.85099989
0.064135201 0.07441584 0.85099989
0.067219444 0.072527684 0.85271901
0.070732191 0.071500964 0.85399997
-0.0057206284 0.076296538 0.85433352
-0.0028437644 0.07793919 0.85144663
0.062896572 0.077685677 0.85212773
0.06599009 0.07710363 0.8544668
-0.0015757906 0.082196541 0.85288
0.00065006735 0.083106548 0.8508333
0.059365321 0.082319349 0.85087776
0.061158348 0.082598098 0.85375553
0.0019749345 0.087239675 0.85256106
0.058696195 0.087251619 0.85267502
0.0038372539 0.091342814 0.85385013
0.0064756633 0.092722677 0.85193342
0.054582532 0.092569947 0.85053337
0.056684569 0.091573469 0.85230839
0.007648956 0.09710598 0.85285997
0.010172155 0.099736437 0.85093319
0.053623974 0.098022692 0.85208893
0.056391101 0.095318869 0.85390002
0.0086160908 0.10009582 0.85400003
0.012039319 0.10358388 0.85220557
0.049346764 0.10401752 0.85142213
0.05234886 0.10234725 0.85289997
0.014579579 0.10757667 0.85347497
0.016525984 0.10848095 0.85123324
0.047681391 0.10809343 0.85191995
0.050028764 0.10645445 0.85403341
0.01499633 0.11128555 0.85453349
0.017341288 0.11258435 0.85233331
0.046507139 0.11263197 0.85269994
0.018697431 0.11753517 0.85374451
0.043532401 0.11803053 0.85158324
0.045868289 0.11720816 0.85366666
0.019771308 0.12158021 0.85426676
0.02247085 0.12347965 0.85093319
0.042432539 0.12231056 0.85223812
0.022901233 0.12683609 0.85220951
0.027230926 0.1294107 0.85089993
0.033450786 0.12929404 0.85099989
0.037397701 0.1276162 0.85137129
0.041234639 0.12700178 0.85331678
0.023747833 0.1302844 0.85403335
0.027727237 0.13265626 0.85396117
0.032478742 0.13254352 0.85323334
0.036960967 0.13153091 0.85387337
0.040473651 0.13028948 0.85406673
0.029321449 0.13504511 0.85400003
0.032115418 0.13547158 0.85418344
0.042276654 0.028753811 0.85833329
0.0022596673 0.033589404 0.85950005
0.038013797 0.032484636 0.85848898
0.042195924 0.03188543 0.85671127
0.045333438 0.030253831 0.85560006
0.0024818759 0.036229629 0.85715771
0.0070570689 0.036987815 0.85799366
0.011852424 0.037167281 0.85777152
0.017105743 0.036698397 0.85747635
0.023052119 0.035754569 0.85778683
0.027835393 0.035733707 0.85728008
0.032634459 0.03573785 0.85737342
0.036990765 0.035459962 0.85641688
0.040549468 0.035031307 0.855667
-0.015314052 0.062925741 0.85619909
-0.013720452 0.063736565 0.85640013
-0.015330465 0.066979997 0.8571167
-0.013080033 0.067231908 0.8562746
-0.015340303 0.070212536 0.85766667
-0.011681231 0.071553998 0.85735506
-0.0089239953 0.074847251 0.85593355
0.068500705 0.074850172 0.85596699
0.070874184 0.073236294 0.85571426
-0.011091438 0.07563965 0.85890549
-0.0073398128 0.077890329 0.85728908
-0.0041398462 0.079716854 0.85693341
0.064512022 0.07963004 0.8560003
0.068266459 0.07838656 0.85731441
0.071110822 0.075077936 0.85857147
-0.0057581239 0.081595562 0.8599335
-0.0036141574 0.083057605 0.85851103
0.063772447 0.082891107 0.85677797
0.066273257 0.081424803 0.8581332
-0.001344688 0.087334588 0.85738343
0.00065401493 0.089184023 0.8560003
0.059708726 0.089163184 0.85580027
0.062609747 0.087572932 0.85803825
-0.0009467667 0.091193445 0.8599335
0.00198638 0.092494838 0.85716677
0.059148598 0.092786789 0.85692006
0.061573848 0.092752814 0.85955566
0.0032179505 0.097142071 0.85878658
0.0054432247 0.097143136 0.85597801
0.057938207 0.097274095 0.85713339
0.0068471809 0.1022515 0.85708338
0.054923344 0.10190435 0.85584474
0.057352394 0.10193051 0.85874671
0.0086604804 0.10540198 0.85839993
0.011613688 0.10773676 0.85700971
0.05196755 0.10735308 0.85644192
0.05512587 0.10627495 0.85899997
0.012653545 0.11171093 0.85779995
0.015558918 0.11416908 0.85628909
0.048545569 0.11386047 0.85596567
0.05093025 0.11243874 0.85848457
0.013478945 0.1151166 0.85940009
0.016377395 0.11803538 0.85737783
0.048222966 0.11842596 0.85731494
0.050308008 0.1166338 0.85879999
0.017977916 0.12282962 0.85744447
0.046846785 0.12267024 0.8577168
0.019221235 0.12741013 0.85821342
0.021412881 0.12902223 0.85620028
0.043796804 0.12751341 0.85675573
0.045524176 0.12707722 0.8592
0.023353072 0.13266872 0.85712022
0.038417697 0.13317285 0.85557795
0.041968103 0.132404 0.85746676
0.024674542 0.13656642 0.85856658
0.02760946 0.13723406 0.85650009
0.032895643 0.13788146 0.85582697
0.037433211 0.13717294 0.8573631
0.041246139 0.13638288 0.8590889
0.028407453 0.14161094 0.85848886
0.03265309 0.1420363 0.85783714
0.036289953 0.14178176 0.85871661
0.0087114787 0.028925382 0.86345476
0.0111374 0.028952392 0.86426103
0.033686988 0.028134895 0.86385012
0.037599966 0.028050298 0.86124444
0.040784005 0.028029237 0.86061555
0.0022609816 0.032009177 0.86000001
0.0070914645 0.032090686 0.86220425
0.011923468 0.032111838 0.86277783
0.017547652 0.032904703 0.86252517
0.02316731 0.032886188 0.86205006
0.027979052 0.032873534 0.86171669
0.032810941 0.032081287 0.86200011
0.036505606 0.030966243 0.86066675
0.0078792833 0.035228267 0.86047781
0.011885243 0.035211436 0.86006677
0.015898904 0.035219625 0.8602668
-0.015382037 0.07200332 0.86000001
-0.013789875 0.072865844 0.86073333
-0.012520432 0.077272631 0.86167556
0.071816131 0.077925615 0.86061984
-0.011153442 0.080883838 0.86372042
-0.0075798826 0.082379453 0.86185002
-0.0041546603 0.084801443 0.86000019
0.068123601 0.083058208 0.86127782
0.071854062 0.081457213 0.86268991
-0.0071269427 0.086781621 0.86378342
-0.0035198231 0.088480599 0.8615467
0.064861223 0.088866681 0.86063331
0.068351731 0.08765626 0.86232734
0.071401417 0.087411672 0.8620801
-0.0025604272 0.093110681 0.8628763
0.0006570706 0.094400011 0.86000019
0.064108126 0.092939697 0.86128885
0.068306714 0.093189314 0.86360753
0.071522944 0.093182862 0.86354727
-0.00095098681 0.098027848 0.86376685
0.0010589911 0.098139949 0.86123341
0.061965056 0.098049439 0.86218762
0.067041211 0.096756704 0.86390018
0.0027223215 0.10233449 0.86138099
0.058461249 0.10411151 0.86093342
0.061014045 0.10275187 0.86296123
0.003880247 0.10682164 0.86341679
0.0068815965 0.10756646 0.86134177
0.057419542 0.10774008 0.86250007
0.060285486 0.10609777 0.86406684
0.0076320074 0.11183812 0.86288339
0.010687095 0.11245903 0.86046678
0.053250313 0.11253461 0.86104995
0.056085028 0.11218426 0.86390018
0.0087183276 0.11735839 0.86413354
0.011699933 0.11716805 0.86125839
0.015092262 0.1199963 0.86000019
0.052379865 0.11708441 0.8621223
0.01214934 0.12151074 0.86263812
0.015635483 0.12326586 0.86048895
0.048778173 0.1248053 0.86006683
0.051261023 0.12178645 0.86134458
0.013554226 0.12540503 0.86420023
0.016206002 0.12755553 0.86243898
0.047703393 0.12842263 0.86133343
0.051390279 0.12691407 0.86352235
0.018585712 0.13229249 0.8626858
0.021524588 0.13369846 0.86066681
0.04396949 0.13361506 0.86013353
0.047066264 0.13268676 0.86226672
0.050638966 0.13106951 0.86445016
0.019998897 0.13664228 0.86410022
0.022890734 0.13788012 0.86178899
0.042934667 0.13825747 0.86081123
0.046547119 0.13731863 0.86330009
0.024262533 0.1418073 0.86292243
0.026871959 0.1435563 0.86057788
0.038520895 0.14275536 0.86025345
0.042468149 0.14275752 0.86219627
0.045778509 0.14144807 0.8640002
0.028432937 0.14723147 0.86156189
0.032762632 0.14731653 0.86071855
0.03763476 0.14753236 0.86197782
0.041447733 0.14668511 0.86328906
0.029254809 0.15226068 0.86379182
0.032851767 0.15253219 0.86305195
0.036107033 0.15268527 0.86392242
0.03289998 0.15597308 0.86433345
0.013569912 0.02898385 0.8652001
0.016829064 0.029038796 0.86684036
0.023340872 0.029094025 0.86848885
0.028603148 0.028689772 0.8684833
0.031369481 0.027417116 0.86657786
0.01680878 0.030614501 0.86580014
0.02250817 0.03067703 0.86756855
0.028140778 0.030647891 0.86674452
-0.015516183 0.079086132 0.86750001
-0.013864786 0.078895509 0.86540926
-0.015530237 0.080772936 0.86828572
-0.012819987 0.082839251 0.86737686
-0.011319648 0.086910293 0.86826974
-0.0090325978 0.087845564 0.86635005
-0.0074292133 0.092011325 0.86763716
-0.0063598976 0.095939137 0.86911106
-0.0035450521 0.097180411 0.86768007
0.067713685 0.098316431 0.8663168
0.070961259 0.097536027 0.86653334
-0.001496147 0.10177853 0.86835557
0.00066188438 0.10314903 0.86629999
0.063723274 0.10323236 0.8669889
0.067047626 0.10175508 0.86815178
0.07041683 0.10194532 0.86977786
0.0022804206 0.1073535 0.86772507
0.061484654 0.10843541 0.86733341
0.067169197 0.10517568 0.86973339
0.0039036411 0.11312169 0.86862224
0.0060508773 0.113974 0.86692238
0.05848068 0.11333431 0.86716676
0.061021931 0.1127411 0.86880839
0.0064916536 0.11758421 0.8681733
0.053910147 0.11911242 0.8652001
0.056836523 0.1176024 0.86762387
0.0083561679 0.12238054 0.86839998
0.011157777 0.12404102 0.8659001
0.053955842 0.12243525 0.86593342
0.055736244 0.12280035 0.86851114
0.011996286 0.12759958 0.86819524
0.05407767 0.12755556 0.86788893
0.055801854 0.12617894 0.8695333
0.013626903 0.1317344 0.8688333
0.015635028 0.13279973 0.86786664
0.052720893 0.13237555 0.86773896
0.018063281 0.136843 0.8679167
0.020062929 0.13869233 0.86686683
0.049117845 0.13695256 0.86605579
0.051293176 0.13696605 0.86869991
0.018505786 0.14075808 0.8696667
0.021432722 0.14207335 0.86781669
0.047852024 0.14202063 0.86749452
0.050952371 0.14077964 0.86980003
0.023791403 0.14673536 0.86810952
0.026478779 0.14808227 0.86520004
0.043807253 0.14793856 0.86750007
0.046551872 0.14593805 0.86839992
0.024974389 0.15034916 0.8689999
0.02696459 0.15217283 0.86787498
0.038504314 0.15292409 0.86710012
0.04156917 0.15149836 0.86863327
0.029241689 0.15652747 0.86741114
0.033406287 0.15846933 0.86699176
0.037889995 0.15741009 0.8678208
0.041193973 0.15524635 0.86926663
0.033080086 0.16086872 0.8690666
0.037400816 0.16113009 0.86902213
-0.015560899 0.082550772 0.87000006
-0.013556439 0.087961927 0.87149829
-0.012122425 0.09207499 0.87261903
-0.010738105 0.095898598 0.87365216
-0.0080046514 0.09783297 0.87157792
-0.0066608819 0.10151864 0.87305832
-0.0035616904 0.10249335 0.87168008
0.072204649 0.1021801 0.87177771
-0.0016128186 0.10686629 0.87295997
0.00066537334 0.10774289 0.87086689
0.064005852 0.10773928 0.8708334
0.067422234 0.10800827 0.87301087
0.071416169 0.10545784 0.87206662
-0.00096309761 0.1122935 0.87476665
0.0014781564 0.11189581 0.87166673
0.063555107 0.1119464 0.87206668
0.067506291 0.11058033 0.87408876
0.0025654873 0.11694309 0.87303334
0.0055370568 0.11987422 0.87073344
0.059138034 0.11908722 0.87090021
0.061824936 0.11714692 0.87213337
0.0039266096 0.12028723 0.8737331
0.0063574966 0.12329821 0.87204182
0.058191992 0.12287281 0.87132013
0.061603941 0.12157073 0.87361318
0.0081471633 0.12784657 0.87208003
0.010408847 0.12959255 0.8707335
0.05761189 0.12774734 0.87236178
0.060964596 0.1251727 0.87379986
0.0080062747 0.13095132 0.8743999
0.011781771 0.1330664 0.87226671
0.054342151 0.13466798 0.87213308
0.056500245 0.13193727 0.87195557
0.013297495 0.13777696 0.87384152
0.015942026 0.13812141 0.87140006
0.053704064 0.13826595 0.87231332
0.056116305 0.1350231 0.8744334
0.016941318 0.14287306 0.8727048
0.020153958 0.14418122 0.8708002
0.049356665 0.1440929 0.8702668
0.052093513 0.1431801 0.87259328
0.018177632 0.14745489 0.87339985
0.020811405 0.14780408 0.8711468
0.048356432 0.14811935 0.87172788
0.051151551 0.14701578 0.87319994
0.022283971 0.15234454 0.87248576
0.025023241 0.15307312 0.87070024
0.04390661 0.1527476 0.87161332
0.046915606 0.15236786 0.87315321
0.023468349 0.15596071 0.87326646
0.026674768 0.15729178 0.87163818
0.043166742 0.15760338 0.87224174
0.046315413 0.15611549 0.87413323
0.029566057 0.16200334 0.87299991
0.032731049 0.16317068 0.87056684
0.038691651 0.16274254 0.87130678
0.042065959 0.16225328 0.87390649
0.032971263 0.1662664 0.87335545
0.037615046 0.1669292 0.87398887
-0.013209578 0.09447284 0.87550002
-0.011773611 0.098321036 0.87787235
-0.012439631 0.10218466 0.8787927
-0.0081622731 0.10342801 0.87685871
-0.0069806087 0.10741234 0.87920541
-0.0038283658 0.10810021 0.87704182
0.072353385 0.10840277 0.87751341
-0.0058924914 0.11132812 0.87999976
-0.0034262163 0.11279208 0.87865001
0.064348847 0.11401603 0.87550008
0.067751318 0.11342893 0.87725568
0.072059646 0.11131968 0.87993312
-0.001377792 0.11732416 0.87892491
0.00067028869 0.11833085 0.8773002
0.06433741 0.11725271 0.87534446
0.067358121 0.11740527 0.87822384
0.002101999 0.12273834 0.8781876
0.064022399 0.12272327 0.87661684
0.066776611 0.12152801 0.87878889
0.0034042075 0.12649484 0.87922215
0.0055827014 0.12739526 0.87791127
0.059423208 0.12861459 0.87510002
0.062884003 0.12738131 0.87781906
0.0072205542 0.13274717 0.87821656
0.059170678 0.13262677 0.87739998
0.0613553 0.13170093 0.8793999
0.0088679837 0.13654146 0.87896669
0.010896331 0.13751328 0.87735021
0.057336677 0.13755123 0.87811327
0.012132729 0.1421255 0.87811905
0.015357255 0.1448932 0.87510002
0.054658875 0.1427964 0.87721682
0.056392238 0.14222658 0.87873322
0.013377523 0.14678115 0.87909162
0.016196968 0.1483728 0.87642515
0.053371321 0.14758131 0.87753999
0.056452129 0.14564928 0.87966639
0.01704227 0.15216041 0.87789458
0.020269673 0.15397008 0.87580001
0.049150854 0.15323056 0.8762334
0.052300643 0.1520474 0.87881678
0.018159337 0.15591054 0.87908888
0.021607803 0.15763175 0.87714016
0.025155446 0.15958036 0.87530005
0.0483752 0.15768015 0.87767154
0.051540136 0.15631528 0.8798331
0.02308099 0.16083699 0.87919998
0.026854454 0.16325235 0.87753814
0.044352245 0.16339239 0.87828892
0.047404874 0.16111585 0.87923324
0.026904101 0.16709308 0.87913322
0.031990964 0.16899644 0.87628341
0.039383173 0.16914512 0.8770557
0.042428944 0.16742927 0.8780334
0.027750885 0.1718874 0.87995529
0.03200423 0.17302942 0.87848341
0.036696907 0.1731448 0.87802982
0.040602382 0.17186993 0.87986642
0.028572934 0.17516993 0.87999976
0.031847741 0.17703955 0.87979978
0.036434017 0.17737864 0.87958652
0.040061425 0.17516993 0.87999976
0.033496562 0.18008088 0.87999976
0.035958387 0.18008088 0.87999976
-0.012465232 0.10484701 0.88056082
-0.012266152 0.10797439 0.88101691
-0.0086384499 0.10927363 0.88103318
0.074611522 0.10981582 0.88099992
-0.01084253 0.11159987 0.88214821
-0.0075451671 0.11285479 0.88126653
0.073241338 0.11361923 0.8814469
-0.0075699999 0.11569589 0.88418895
-0.003438646 0.11812735 0.88187498
0.069616392 0.11871707 0.88016641
0.072868228 0.11797506 0.88226831
-0.0020705652 0.12230521 0.8824389
0.068655275 0.12359355 0.88186115
0.073139295 0.12074764 0.88304794
0.0017689342 0.12851533 0.88186663
0.064713903 0.12940332 0.8804664
0.067598961 0.12749909 0.88239449
0.003308075 0.13270299 0.8828001
0.0055985274 0.13348815 0.88039982
0.063443489 0.13288158 0.88181108
0.0039761961 0.13661864 0.88476676
0.0069820215 0.13789523 0.88240004
0.059855524 0.13774961 0.88146663
0.062465575 0.13806666 0.88349456
0.008924311 0.14234456 0.88455015
0.010520417 0.14407842 0.88006634
0.059049264 0.1427054 0.88169438
0.061715771 0.14152417 0.88456684
0.011355575 0.14754538 0.88121659
0.054861393 0.14905742 0.88046652
0.057618249 0.14807907 0.88243997
0.060034346 0.14638333 0.88410014
0.013427392 0.15225518 0.88238335
0.015449105 0.15394764 0.88033313
0.054370265 0.1524881 0.88136655
0.055899311 0.15292761 0.88390011
0.013878892 0.15639232 0.88490015
0.016780067 0.1577242 0.88130653
0.052930441 0.15801804 0.8824833
0.017973915 0.16106622 0.88345009
0.021709651 0.16262837 0.88122666
0.048335519 0.16271526 0.8812499
0.050636802 0.16265862 0.88316679
0.02306781 0.16720727 0.88290006
0.025298174 0.16867313 0.88026643
0.04622069 0.16694611 0.88267779
0.023750534 0.17263335 0.88376671
0.025331393 0.17217487 0.88142222
0.042774405 0.172572 0.88177997
0.027003389 0.17728664 0.88238567
0.030250765 0.17866018 0.88106644
0.038423114 0.17845742 0.88006634
0.04181334 0.17727174 0.8823095
0.028667103 0.18067425 0.88290006
0.031737529 0.18243217 0.88245827
0.037100155 0.18260916 0.88204283
0.040257175 0.18096079 0.88430011
0.033675469 0.18597977 0.88470012
0.036130011 0.18587469 0.8842001
-0.010911447 0.11726525 0.88775539
-0.0079247104 0.11815212 0.88698328
-0.010934937 0.1208258 0.88966662
-0.0070541161 0.12175766 0.88841313
-0.0042825211 0.12286459 0.88646644
0.072784543 0.12299469 0.88542229
0.075064875 0.12284954 0.88635302
-0.0059538744 0.12654713 0.88916671
-0.002838728 0.12724541 0.88682491
0.069998711 0.12842341 0.88500017
0.072544172 0.12689845 0.88584447
0.075119674 0.12541361 0.88700002
-0.0024279675 0.13194646 0.88793314
0.0006768466 0.1326721 0.88588321
0.067775786 0.13221745 0.88614655
0.071703978 0.13198982 0.88821977
-0.001808549 0.13562377 0.88903344
0.0020556203 0.13699518 0.88719994
0.0056294757 0.13998942 0.88526672
0.066687368 0.13684769 0.88758326
0.07034409 0.13650209 0.88936669
0.0035783676 0.14173833 0.88848329
0.0069582262 0.14314064 0.88642657
0.062621087 0.14335304 0.88569999
0.065963298 0.14181408 0.88843995
0.0075785951 0.14703839 0.88805538
0.062448461 0.14743759 0.88714439
0.0089702159 0.15134603 0.88910002
0.01126114 0.15276179 0.88675988
0.057993438 0.15282734 0.88649988
0.060737364 0.15163213 0.88834989
0.011940737 0.15730019 0.88817328
0.015531002 0.15970249 0.88500017
0.05696911 0.15688625 0.88769519
0.013268301 0.16161442 0.88826656
0.017212683 0.16329961 0.88665313
0.020482602 0.16464137 0.88500017
0.052750219 0.16324884 0.88637489
0.055930864 0.16093121 0.88875556
0.013945287 0.16541024 0.88913333
0.017038291 0.16712375 0.88834989
0.020915294 0.16851082 0.88586664
0.048039991 0.16920154 0.88588881
0.052012041 0.16710033 0.88786101
0.018917182 0.17117348 0.889
0.021511719 0.17286107 0.88662654
0.046801373 0.17309371 0.88718724
0.050432339 0.17121869 0.88923335
0.022438576 0.17743166 0.88780934
0.025466777 0.17968751 0.88613337
0.043675486 0.17980924 0.88673311
0.04705305 0.17704402 0.88803309
0.02278918 0.18139859 0.88913327
0.027133223 0.18308507 0.88661897
0.042018745 0.18308826 0.88663805
0.045874201 0.18156746 0.88928342
0.027605437 0.18677862 0.88849992
0.032099027 0.18805729 0.88673317
0.037276443 0.1884276 0.88625711
0.042086124 0.18696254 0.88806647
0.02886516 0.19019113 0.889
0.032181408 0.19129384 0.88899994
0.037162106 0.19270796 0.88916665
0.040880322 0.19140685 0.88888329
-0.0087328851 0.12372404 0.89067507
-0.0081161195 0.1280639 0.89232403
-0.0068152519 0.13211596 0.89326692
-0.0043041012 0.13425632 0.89093357
0.073796727 0.13426636 0.89100021
-0.0026449587 0.13697346 0.89243364
0.00068093423 0.13927509 0.89123356
0.068811536 0.13923861 0.89100021
0.072248116 0.1377957 0.89238703
0.0015130885 0.14279541 0.89251691
0.068484902 0.14315315 0.89215028
0.070672318 0.14212567 0.89351702
0.0033463736 0.14753774 0.89307368
0.0056670997 0.14838544 0.89118356
0.066220842 0.14734305 0.89190024
0.0040188883 0.15139371 0.89426702
0.0068624727 0.15298949 0.89248598
0.063232139 0.15299858 0.89198029
0.065725736 0.15138806 0.89423358
0.0081779081 0.15786105 0.89320588
0.010642348 0.15899681 0.89026666
0.058861002 0.15918136 0.8913002
0.061239965 0.15732422 0.89204693
0.0090216734 0.16136268 0.89420038
0.01121223 0.16254637 0.89156693
0.057561945 0.16291097 0.89175355
0.060725845 0.16220984 0.89428365
0.013451032 0.16779782 0.89303356
0.053888243 0.16917355 0.89153355
0.056288648 0.1673997 0.89268017
0.017306382 0.17247581 0.89145356
0.05253556 0.17259346 0.8920669
0.018577721 0.1772714 0.89264196
0.02059987 0.17882946 0.8900668
0.048834249 0.17888306 0.89033341
0.051263094 0.1772517 0.89212686
0.019025007 0.18129632 0.89406711
0.021627575 0.18308012 0.89141351
0.048219707 0.18271278 0.89124024
0.050700169 0.18293703 0.89395589
0.022894954 0.18723227 0.89328915
0.026154434 0.18836729 0.89080018
0.043836378 0.18874949 0.8900001
0.047074519 0.18738192 0.89235437
0.027664453 0.1923897 0.89306033
0.031852733 0.19361562 0.89144188
0.043270569 0.19282648 0.89200699
0.046253651 0.1918035 0.8939448
0.029053487 0.19642554 0.89480019
0.032653723 0.1966691 0.89288026
0.037296366 0.19755666 0.89238179
0.041318394 0.19735298 0.89296705
-0.0076742806 0.1333888 0.89625001
-0.0068540312 0.13706136 0.89845014
-0.002658736 0.13891535 0.89604455
0.074128017 0.13819885 0.8950001
0.075870588 0.13833269 0.89586663
-0.0026637479 0.14194062 0.89760971
0.00068411772 0.14492308 0.89539999
0.073610708 0.14215171 0.89682674
0.076684602 0.14226952 0.89756966
-0.0021080875 0.1474179 0.89876133
0.0012414764 0.14834626 0.89595556
0.068627 0.14832449 0.89582223
0.072110049 0.14638811 0.89757234
0.076051243 0.14534383 0.8980003
-0.00098977797 0.15135968 0.89900017
0.001799015 0.1523833 0.89682788
0.067984454 0.1522948 0.8976202
0.071034826 0.15037203 0.89810026
0.0033641241 0.15666635 0.89778692
0.0056977286 0.15752065 0.89599997
0.063600905 0.15828706 0.89562225
0.066648751 0.1566464 0.89767361
0.0040406105 0.16057442 0.89910018
0.0070397407 0.16215026 0.89671344
0.010704509 0.16492273 0.89546674
0.059149336 0.16495958 0.89566678
0.063432053 0.1618979 0.89716679
0.0660173 0.1604137 0.89820021
0.0090751434 0.16566561 0.89950025
0.011281342 0.16801535 0.8971557
0.058648515 0.16844958 0.89651114
0.061419208 0.16670083 0.89831686
0.013242565 0.17201746 0.89771676
0.01572228 0.17333528 0.89589995
0.054121949 0.17490414 0.89540011
0.057583764 0.17221062 0.89727789
0.016305042 0.17696233 0.8974002
0.053590942 0.17831887 0.89582229
0.05663367 0.17677742 0.89814693
0.017957332 0.1817445 0.89627773
0.05355262 0.18223311 0.89704007
0.019091209 0.18693514 0.89717793
0.020737192 0.18835528 0.89599997
0.049093865 0.18982403 0.89506686
0.052277166 0.18692911 0.89715558
0.019131757 0.1915125 0.8990835
0.022421828 0.19181058 0.89656675
0.025750341 0.19335552 0.89599997
0.047880422 0.1933087 0.89578336
0.051577549 0.19169882 0.89760685
0.024153192 0.19645731 0.89875019
0.026969749 0.19712134 0.89688104
0.032425672 0.19913691 0.89576668
0.043557834 0.19827665 0.89564449
0.047707871 0.19699824 0.89645839
0.050956011 0.19723098 0.89846689
0.028484017 0.20178136 0.89789361
0.032240655 0.20199555 0.89643329
0.037435591 0.20245743 0.89571118
0.042716384 0.20224321 0.89634287
0.047335874 0.20163907 0.8978954
0.032929394 0.20592257 0.8981086
0.037508164 0.20702532 0.89745206
0.042006385 0.20663917 0.89819473
-0.0088526346 0.13886318 0.902924
-0.0071690665 0.14219402 0.90275121
-0.0043503176 0.14407343 0.90050024
-0.0070574945 0.14849061 0.90291083
-0.0037914042 0.14688492 0.90062255
0.074040025 0.14857362 0.90070033
0.076225929 0.14735202 0.90006244
-0.0066136862 0.15187769 0.90374231
-0.0031547009 0.15287133 0.90157163
0.06956064 0.15415828 0.90070039
0.073176913 0.1527894 0.90127122
-0.0018389045 0.15638739 0.90390003
0.0011099884 0.15825099 0.90253341
0.069179341 0.15801606 0.90120029
0.072095871 0.15757464 0.90299338
0.0032155286 0.16208974 0.90288329
0.0057380036 0.16450889 0.90233344
0.064471059 0.1640835 0.90000033
0.06799569 0.16280866 0.90220976
0.071501464 0.16144952 0.90399998
0.0085487021 0.16799183 0.90301114
0.06392543 0.16809635 0.9017669
0.066414148 0.16642074 0.90359992
0.011203966 0.17327552 0.9020918
0.059501555 0.17432208 0.90100032
0.062471513 0.17265034 0.90227157
0.013481627 0.17764117 0.90253335
0.015797157 0.1791842 0.90016687
0.059091836 0.17812276 0.90115023
0.062005065 0.17777129 0.9031933
0.016392158 0.18293373 0.90214461
0.057321802 0.18233256 0.90193337
0.017531957 0.18731794 0.90304995
0.054444313 0.1885131 0.90073359
0.056898445 0.18670119 0.90413338
0.019223612 0.19495238 0.90339988
0.020834403 0.19426183 0.90020013
0.053956594 0.19295771 0.90193349
0.022275405 0.19799064 0.90192789
0.052886479 0.1973463 0.90281665
0.023706784 0.20215958 0.90306669
0.026317926 0.20326613 0.90114188
0.048629515 0.20469871 0.9019168
0.051128034 0.20125014 0.90150017
0.028466657 0.20739061 0.90267515
0.032288063 0.20890899 0.9012602
0.043804556 0.20889598 0.9007225
0.046773959 0.2076973 0.90182221
0.029355984 0.21108493 0.90411663
0.033005994 0.21221848 0.90250003
0.037675548 0.21214092 0.9014557
0.042446721 0.21228907 0.90280008
0.038638238 0.2153326 0.90429997
-0.0088776387 0.14431114 0.90549487
-0.0083206296 0.14778215 0.90612245
-0.0086102569 0.15354052 0.90694797
-0.0070889541 0.15626104 0.90706789
-0.003109023 0.15796834 0.90573347
0.074989371 0.15664691 0.90540004
0.075976893 0.1586284 0.90710008
-0.0060813213 0.16051017 0.90820032
-0.0026937788 0.16215856 0.90796542
0.0012557899 0.16301049 0.90644461
0.072952092 0.16228379 0.90630847
0.075920179 0.16190627 0.90844917
-0.0018498169 0.16583985 0.90963334
0.002809312 0.16592512 0.90778363
0.0063295425 0.16814072 0.90683359
0.067728348 0.16801308 0.90614462
0.071354099 0.16703632 0.90824789
0.075359307 0.16588239 0.90986657
0.0077413414 0.17214702 0.90720576
0.06487938 0.17354655 0.90570003
0.067537084 0.17217654 0.90735579
0.070829161 0.17151171 0.90979999
0.0087401681 0.17700967 0.90834188
0.010830229 0.17781439 0.90598345
0.064888932 0.17694223 0.90583342
0.067437381 0.17708462 0.90829355
0.0091757011 0.1810355 0.90946668
0.012317976 0.18239981 0.90678346
0.059842758 0.1837499 0.90616685
0.062587917 0.182522 0.90676022
0.065531678 0.18218805 0.90888345
0.013564529 0.18717894 0.90808028
0.015901482 0.18711089 0.90611124
0.059035812 0.1872399 0.90674198
0.061991867 0.18765883 0.90876693
0.065187424 0.18622001 0.90999991
0.014270478 0.19127031 0.90986657
0.016762191 0.19235842 0.90701693
0.057399813 0.19248565 0.90761137
0.060091507 0.19128433 0.90993321
0.017900594 0.19754498 0.90759468
0.054825794 0.19742817 0.90704465
0.056687042 0.1963263 0.90976661
0.019320786 0.20184989 0.90796691
0.021540552 0.2023394 0.90637797
0.052729506 0.20297703 0.90734184
0.024366543 0.20746966 0.90668911
0.026031997 0.20810786 0.9058001
0.049733788 0.20832178 0.90673357
0.051532373 0.20791399 0.90862924
0.02442015 0.21215104 0.90868366
0.027279628 0.21288979 0.90720028
0.031099968 0.21400492 0.90580004
0.044589974 0.21388677 0.90530008
0.04805512 0.21258689 0.90693837
0.028937735 0.21693061 0.90864468
0.032846328 0.21775903 0.90739661
0.037654374 0.21807848 0.90671933
0.042995758 0.2177314 0.90728176
0.046879631 0.21766415 0.90876687
-0.0077962433 0.15755816 0.910667
-0.0061085508 0.1629259 0.91226685
0.077076286 0.16423252 0.91010338
-0.0027062644 0.16808565 0.91263342
0.0020551104 0.16887382 0.91139334
0.073697507 0.1685015 0.91029996
0.076535396 0.16826113 0.91174668
-0.0035660591 0.17017892 0.91476703
0.00274149 0.17233765 0.91358012
0.0057905735 0.17363879 0.91059995
0.072589591 0.1731241 0.9123584
0.075635418 0.17243579 0.91320002
0.0041060741 0.17507313 0.91366678
0.0066477293 0.17811829 0.91185832
0.068604328 0.17950805 0.91029996
0.071402356 0.17674232 0.91350853
0.075778954 0.1753159 0.91493374
0.008350064 0.18323924 0.91201669
0.068227433 0.18283284 0.91281122
0.0083654532 0.1869701 0.91366684
0.011454037 0.18808265 0.91082221
0.067106038 0.18683124 0.91299343
0.0092281615 0.19057782 0.91466707
0.01260636 0.19264846 0.91239452
0.062521316 0.19235855 0.91235012
0.065495424 0.19135223 0.91430032
0.013761252 0.19715841 0.91362244
0.015974991 0.19813471 0.91029996
0.058011446 0.19811316 0.91280013
0.061172642 0.19541126 0.91340017
0.016861536 0.20198455 0.91239178
0.021074321 0.20496808 0.91056657
0.056039441 0.20212252 0.9130168
0.019024707 0.20703955 0.91410023
0.021949284 0.20776524 0.91169161
0.053376596 0.20765039 0.91118336
0.055234134 0.20654593 0.91380012
0.022427408 0.21207151 0.91380018
0.052787162 0.21258707 0.91273338
-0.0023762968 0.17288031 0.91645354
0.00069916929 0.17364545 0.9151004
-0.0018687628 0.17605036 0.9187665
0.0024078214 0.17732218 0.91650498
0.073823377 0.1778734 0.91714162
0.076053679 0.1785139 0.91824985
0.0036984091 0.18235859 0.91825819
0.0058200345 0.18218382 0.91523361
0.071310446 0.1822696 0.91780823
0.0041333376 0.18650086 0.91973329
0.0062586749 0.18810056 0.9171083
0.068996221 0.18819734 0.91550028
0.071012586 0.18730912 0.91949999
0.0078319572 0.19292577 0.91773874
0.010941601 0.19411506 0.91530031
0.067899965 0.19304466 0.91714758
0.0092651527 0.19646667 0.91833317
0.011821383 0.19796386 0.91735005
0.062286511 0.19822867 0.91726106
0.066376142 0.19709884 0.91862208
0.01381643 0.20194118 0.91733336
0.016069753 0.20442012 0.91570014
0.058270782 0.20298034 0.91688871
0.062445343 0.20129915 0.91960001
0.014416854 0.20520148 0.91920006
0.016675213 0.20772167 0.9177444
0.05755825 0.2073718 0.91822004
0.017823907 0.21180578 0.91818088
0.02118272 0.21368396 0.91525042
0.056077894 0.21183251 0.91829991
-0.0018722494 0.17810446 0.92055011
0.00070352439 0.1798657 0.92080009
-0.0018787073 0.18217671 0.92382783
0.0012764969 0.18298894 0.92215562
0.073796496 0.18347445 0.91999996
0.076884933 0.18278992 0.91999996
0.0024255023 0.18680474 0.9233582
0.073694959 0.1875895 0.92087507
0.076293863 0.18764569 0.92115009
0.0041466709 0.19225298 0.92270011
0.0058528902 0.19348451 0.92040002
0.072971843 0.19222665 0.92257798
0.076950118 0.19249499 0.92386675
0.0041565569 0.19701138 0.92489982
0.0070149261 0.19799201 0.92278343
0.068570942 0.19795185 0.92126679
0.073060729 0.19589885 0.92371124
0.0081785154 0.20239902 0.92462206
0.01145469 0.2028901 0.92229176
0.063047774 0.20371057 0.9221251
0.066699348 0.20149131 0.92308885
0.013043183 0.20781751 0.92322779
0.059130363 0.20912054 0.92140019
0.061704278 0.20762913 0.9239133
-0.0022557189 0.18774 0.9270522
0.0012825254 0.18886584 0.92573309
-0.0016006804 0.19239855 0.92893344
0.0015733393 0.19241025 0.92759991
0.0024396183 0.19721761 0.9283067
0.069777504 0.19980064 0.92586648
0.072416961 0.19821033 0.92648315
0.075952835 0.19756228 0.9274832
0.0041708644 0.20286894 0.9280833
0.0058859587 0.20318662 0.92559981
0.068556167 0.20346057 0.92684984
0.072219118 0.2018839 0.92950845
0.0076347208 0.20725162 0.92838091
0.011074288 0.20853214 0.92639989
-0.0027616322 0.19400191 0.93110019
-0.0010263306 0.19770163 0.93220013
0.00071070599 0.19814035 0.93020022
0.077267036 0.19958307 0.93290013
0.0020134656 0.20231187 0.93148351
0.073658131 0.20356539 0.9312669
0.075552821 0.20225559 0.93321681
0.0033212765 0.20741329 0.93299174
-0.0016176488 0.20263506 0.93900013
0.0007147555 0.20361964 0.93549991
