# .PCD v0.7 - Point Cloud Data file format
VERSION 0.7
FIELDS x y z
SIZE 4 4 4
TYPE F F F
COUNT 1 1 1
WIDTH 874
HEIGHT 1
VIEWPOINT 0 0 0 1 0 0 0
POINTS 874
DATA ascii
0.038846627 0.059482846 0.81973338
0.043162521 0.058952872 0.81943345
0.038856108 0.061022583 0.8199333
0.043418936 0.061750352 0.81946677
0.033689015 0.053691633 0.82446676
0.037873842 0.053246289 0.82351667
0.042331692 0.054148823 0.82210654
0.047421031 0.053568117 0.82260001
0.052903634 0.053685833 0.82437795
0.0090847285 0.05904362 0.8242501
0.012927551 0.059043899 0.8242557
0.017538127 0.058272507 0.82419264
0.022326265 0.058424726 0.82363337
0.027708512 0.05775138 0.82301426
0.032807443 0.057327542 0.82164425
0.037242576 0.05708513 0.82114524
0.041438047 0.056746777 0.82059985
0.047950961 0.057624951 0.82092118
0.052807525 0.057414379 0.82287216
0.056566857 0.058564506 0.82398671
0.0085083228 0.062689677 0.82430017
0.012925961 0.062870622 0.82415569
0.017532352 0.06285122 0.8239038
0.02213992 0.062847048 0.82385194
0.027481116 0.062764563 0.82277226
0.032790501 0.062646441 0.82122201
0.037184693 0.062821433 0.82101637
0.041951202 0.062603682 0.82065821
0.047566008 0.062805168 0.82148463
0.052829359 0.062798455 0.82321477
0.055993207 0.062136136 0.8245877
0.016007628 0.065966316 0.82453346
0.023706023 0.065992989 0.82486689
0.027530733 0.065943643 0.82425022
0.03307702 0.067231767 0.82358336
0.037451275 0.067349523 0.82268149
0.042032655 0.067314692 0.82225192
0.047231138 0.067230605 0.82293338
0.053212933 0.066569194 0.82440007
0.037531715 0.070560075 0.82444459
0.042130072 0.070535362 0.82415575
0.046756584 0.070558183 0.82442242
0.043192774 0.049408186 0.82980013
0.0021800257 0.054008577 0.8293336
0.0080546644 0.053680103 0.829027
0.012998638 0.053202692 0.82880026
0.017824268 0.052608132 0.82855844
0.022249974 0.053146496 0.82793331
0.027313745 0.053238664 0.82765722
0.032617778 0.052156717 0.82794303
0.037322737 0.051370598 0.82661331
0.042238638 0.051503211 0.82627779
0.046497907 0.051142246 0.8266499
0.052617099 0.051425185 0.82679045
0.056105699 0.052269068 0.82624441
-0.0067898268 0.058010478 0.82920426
-0.0024586404 0.057065077 0.82892621
0.002174068 0.057708964 0.82712227
0.0070558474 0.05716886 0.82672209
0.012960454 0.056120466 0.8263666
0.017594486 0.05538458 0.82684427
0.02180817 0.055699401 0.82581675
0.026031077 0.055290051 0.82543337
0.056825407 0.056062773 0.82550013
-0.011718688 0.064691253 0.82784444
-0.0070872474 0.06237632 0.82779568
-0.0024529807 0.062318459 0.82702208
0.0021699308 0.062975682 0.82554078
0.0056373216 0.063392431 0.82596672
0.056790523 0.06446898 0.82500011
-0.010934548 0.066930369 0.82698244
-0.0070921639 0.067820445 0.82843804
-0.0024554005 0.067769706 0.82781488
0.0021739569 0.067697912 0.82694066
0.0075688288 0.067675419 0.82666653
0.012961574 0.067654878 0.82641476
0.017768847 0.06781254 0.82599163
0.022006091 0.067814574 0.8260166
0.027583489 0.068374507 0.82582498
0.031413201 0.069095284 0.82526678
0.049870703 0.06907855 0.82506675
0.052581519 0.06871859 0.82535017
0.056716017 0.06763383 0.82614672
-0.0071006515 0.070990674 0.82947594
-0.0024601056 0.071602605 0.82941359
0.0023732798 0.072311282 0.82913369
0.0075891041 0.072482929 0.82888913
0.012991739 0.072434954 0.82834083
0.017610824 0.072371654 0.82761467
0.022232689 0.07234358 0.82729614
0.027623212 0.07231728 0.82699972
0.032988146 0.072245657 0.82617021
0.037613463 0.073019236 0.82623321
0.042220175 0.072991632 0.82592219
0.047869045 0.072734967 0.82591861
0.05304506 0.072281666 0.82658517
0.057009757 0.072420239 0.82817197
0.0099107558 0.075582355 0.82906699
0.013002804 0.075580329 0.82904482
0.017640002 0.075574256 0.82897812
0.022587176 0.076190807 0.82897359
0.027351901 0.076219313 0.8288002
0.032325808 0.076342538 0.82894462
0.038096614 0.07590282 0.82835007
0.042552609 0.076893821 0.82864183
0.046963766 0.077033877 0.82807416
0.052406661 0.076317184 0.82866675
0.057328362 0.076096676 0.8290692
0.023210172 0.049699932 0.83469975
0.027078899 0.049658254 0.83400005
0.032497227 0.049620539 0.83336675
0.037889972 0.048782397 0.83231115
0.042358007 0.047601152 0.83294278
0.047234949 0.04803881 0.83285922
0.052341502 0.048928741 0.83291435
0.055971649 0.048500732 0.83189636
-0.0071252719 0.053417861 0.83215863
-0.00246928 0.052665636 0.83252388
0.0021889943 0.05190574 0.8327443
0.0072883191 0.051772285 0.83237129
0.013033827 0.05102684 0.83102208
0.016130572 0.051017288 0.83086658
0.022319874 0.050995458 0.83051109
0.026978215 0.051018644 0.83088881
0.030860309 0.051031612 0.83109987
-0.010845734 0.056965657 0.83197153
-0.0074995132 0.056029901 0.83071434
-0.010826829 0.062114894 0.83046371
-0.010204031 0.069508329 0.83020002
-0.0071167182 0.073462337 0.83124715
-0.0024651575 0.073835522 0.83109999
0.00063450646 0.074165151 0.83046663
0.05952828 0.073439851 0.83100003
-0.0065156044 0.07694374 0.83378094
-0.0024743134 0.07760483 0.83421469
0.0021904251 0.07751596 0.83325177
0.0074104248 0.077584438 0.83247888
0.013042554 0.078136198 0.83162218
0.017685 0.078085296 0.83107775
0.021937743 0.078437328 0.83071661
0.026986398 0.078862898 0.83113337
0.032873303 0.078545168 0.83104002
0.037510991 0.078212231 0.83078659
0.040930383 0.078850247 0.83099997
0.052538555 0.078826524 0.83074999
0.058204789 0.077776819 0.83054203
-0.00091931585 0.080783039 0.83499974
0.0021952558 0.080783039 0.83499974
0.0081085311 0.081054986 0.83459985
0.013272409 0.082031786 0.8338666
0.017741727 0.082214974 0.83375555
0.022389917 0.082154334 0.83314067
0.027083371 0.08225058 0.83411849
0.032195039 0.081363864 0.83412367
0.037984982 0.082277477 0.83439243
0.042597156 0.082170963 0.83330369
0.047174186 0.082021818 0.83179265
0.052416075 0.081918031 0.83216959
0.057557959 0.082082272 0.83240539
0.021661317 0.085442789 0.83499974
0.026333183 0.085442789 0.83499974
0.042684678 0.085442789 0.83499974
0.047339018 0.085800424 0.83469987
0.050463039 0.085429177 0.8348667
0.05952828 0.086579323 0.83100003
0.048406139 0.043749649 0.83969998
-0.0017071514 0.049977235 0.8393572
0.0022060261 0.049975816 0.83933342
0.0072884858 0.049550757 0.83875012
0.012349472 0.049072437 0.83725828
0.017804245 0.04903942 0.83669996
0.022507189 0.048304424 0.83745337
0.027187737 0.047521215 0.83736664
0.032298651 0.04760189 0.83682835
0.037797667 0.046419226 0.83714658
0.042796519 0.045176733 0.83720011
0.047469798 0.045165941 0.83699995
0.052190334 0.045976203 0.83760005
0.055287123 0.045953739 0.83718276
-0.0071664266 0.051382642 0.83681703
0.0022078748 0.050003603 0.83980006
-0.011820314 0.059037376 0.83500004
-0.011820314 0.060590636 0.83500004
-0.010275319 0.074659288 0.83600003
-0.010263029 0.077676512 0.83500004
-0.0079299025 0.078481518 0.83530009
-0.0071712788 0.082585156 0.83751404
-0.0026769373 0.082705662 0.83676654
0.0021989557 0.083265968 0.83653325
0.0073183882 0.0833003 0.83576173
0.0115445 0.083929747 0.83539987
0.03303431 0.083590932 0.83511984
0.059886456 0.083990023 0.83600003
-0.0063970974 0.085806809 0.83855712
-0.002173594 0.086404368 0.83829337
0.0024262369 0.086862341 0.83798093
0.0068883607 0.087270245 0.83762228
0.012340521 0.087163441 0.83659989
0.01779115 0.087111413 0.83609617
0.02269298 0.087559409 0.8361333
0.027375873 0.087574251 0.83627617
0.032628845 0.087173909 0.83669996
0.038092714 0.087179497 0.83675545
0.042752285 0.087329604 0.83632487
0.047392242 0.08799576 0.83563977
0.052314777 0.087344229 0.83646643
0.057380877 0.087171078 0.83666766
0.0037738117 0.09061335 0.83973342
0.008465426 0.090541407 0.83906686
0.012710588 0.091191091 0.83888584
0.017848454 0.091293156 0.83880013
0.02251138 0.091169812 0.83766669
0.027208375 0.091983944 0.83797783
0.031922355 0.092056118 0.83863711
0.037458822 0.091894083 0.8384546
0.04281104 0.091928229 0.83747411
0.047481075 0.091897905 0.83719993
0.05225851 0.092061363 0.83868897
0.05697687 0.092102222 0.83906299
0.060654126 0.092296928 0.83800012
0.039791241 0.095291957 0.83966672
0.042899381 0.095239006 0.8392002
0.048352346 0.095189817 0.83876669
0.052331626 0.095314652 0.83986676
0.055437956 0.095269255 0.83946681
0.060157068 0.095304579 0.83977771
0.011676239 0.044022307 0.84493327
0.022706795 0.044022307 0.84493315
0.027779456 0.04355216 0.84345013
0.032116894 0.04317506 0.84375554
0.037256807 0.04325239 0.84307617
0.04287795 0.042725023 0.84263337
0.047578473 0.041896589 0.84285706
0.052511971 0.043123618 0.8427555
0.055629179 0.043103248 0.84236252
-0.0056536682 0.048702914 0.84433335
-0.0021081576 0.048239797 0.84311169
0.0024117113 0.047236338 0.84271669
0.0067283539 0.04680559 0.84201664
0.012419639 0.046214059 0.84193331
0.017923301 0.046234135 0.8423
0.022313083 0.04605832 0.84194678
0.027300717 0.045373399 0.84084439
0.031999625 0.045363802 0.84066659
0.036694884 0.045354217 0.84048885
-0.0056273309 0.05003934 0.84040004
-0.0040600309 0.050040033 0.84041172
-0.0068855584 0.087929152 0.84094828
-0.0028866772 0.088798426 0.84103322
0.0014252737 0.089104332 0.84023321
-0.0064320983 0.090986088 0.84318757
-0.0023051533 0.092388555 0.84345007
0.0020179227 0.092658535 0.84234178
0.0067244037 0.092569128 0.8415249
0.011936296 0.093576573 0.84109324
0.017903533 0.093921073 0.84137756
0.022594601 0.093851604 0.84075546
0.036673829 0.093767256 0.83999997
-0.00722836 0.095821597 0.84433335
-0.0017175901 0.095863178 0.84469998
0.0022177901 0.096546195 0.84380013
0.0071632885 0.096867964 0.84366673
0.012439922 0.097276829 0.84332234
0.017957142 0.097341225 0.84388155
0.022673588 0.097319707 0.84369636
0.027356613 0.097189203 0.84256309
0.032041162 0.097096987 0.84176296
0.037295587 0.097170971 0.84117562
0.043025602 0.097866297 0.84165549
0.047549035 0.097611248 0.84234297
0.052514683 0.097665742 0.84280968
0.057321653 0.097235255 0.84126669
0.061561212 0.097546071 0.84113628
0.0085252859 0.10061287 0.84499991
0.012463558 0.10060097 0.84489989
0.017980579 0.10100385 0.84498322
0.022314727 0.10100583 0.84499991
0.027417539 0.10133109 0.84443337
0.032330051 0.10154945 0.8434478
0.037586596 0.1019322 0.8429057
0.043115802 0.10199564 0.84342986
0.047848985 0.10202634 0.84368169
0.052841403 0.10166824 0.84443814
0.057256248 0.10196681 0.84319282
0.061440188 0.10142779 0.84306186
0.038468074 0.1053284 0.84499991
0.057360921 0.10529516 0.84473324
0.060509119 0.10529009 0.84469247
0.029170385 0.039524198 0.84960014
0.033133246 0.039525747 0.84963357
0.037061151 0.039490085 0.84886694
0.042568062 0.039460622 0.84823352
0.047658455 0.03856086 0.84830487
0.052526638 0.039116934 0.84934169
0.056513697 0.037950806 0.84975797
-0.00093472929 0.044234172 0.84900022
0.0022264293 0.043360624 0.84737784
0.0069646891 0.042547856 0.84691858
0.012650689 0.042231329 0.84688008
0.018026929 0.042757638 0.84716672
0.022776401 0.042128261 0.84751445
0.02716578 0.041578133 0.84638673
0.032240491 0.040978804 0.84700012
0.036954474 0.040950861 0.8464222
0.041666083 0.040928286 0.84595555
0.052756842 0.040963236 0.84667784
0.055963371 0.04099929 0.84742302
-0.0066217468 0.046989907 0.84747332
-0.0028314064 0.046376821 0.84775621
0.00064581406 0.045612048 0.84526652
-0.0064477734 0.093567275 0.84525007
-0.0040821959 0.094325386 0.84499997
-0.0061904024 0.097064406 0.8460393
-0.0025107905 0.097947866 0.84685546
0.0022261785 0.099306643 0.84726667
0.0061638402 0.09908396 0.8453666
0.0024269735 0.10238139 0.84825015
0.0067663873 0.10260076 0.84680009
0.012484611 0.10313206 0.8463167
0.018011862 0.1033076 0.84646672
0.023057627 0.10328154 0.84625328
0.027482359 0.10393123 0.8464222
0.031393379 0.10381389 0.84546649
0.051897842 0.10382617 0.84556663
0.062107097 0.10375657 0.84500003
0.0077760536 0.10585614 0.84923363
0.012683997 0.10615645 0.84910697
0.018058943 0.10657807 0.84868926
0.022794085 0.10651413 0.84817809
0.027543744 0.10652944 0.84830022
0.032478437 0.10709152 0.84805858
0.03677398 0.10732953 0.84682512
0.042454977 0.10701918 0.84593338
0.047984771 0.10703743 0.84607399
0.052778501 0.1071602 0.84704447
0.057532322 0.10797536 0.84726238
0.060638614 0.10787785 0.84650004
0.037869737 0.11059967 0.84926701
0.042595446 0.11132149 0.84874177
0.047874276 0.11158923 0.84877819
0.053745095 0.11067345 0.84983349
-0.0080896979 0.034097582 0.85224998
0.049229808 0.034963071 0.85400009
0.053169221 0.034935776 0.85333341
0.056163572 0.034817915 0.85045451
-0.0073066526 0.038118072 0.85349232
-0.0025346372 0.03935378 0.85448343
0.0022465631 0.039752141 0.85450006
0.0070217163 0.039719064 0.85378891
0.012579863 0.039675772 0.8528583
0.018480923 0.039072715 0.85356009
0.022915535 0.038873602 0.85268337
0.027333617 0.038667399 0.85162657
0.032102723 0.038036767 0.85171998
0.03723602 0.037294906 0.85287219
0.04202975 0.037314918 0.85332227
0.047575682 0.036505301 0.8529166
0.053397346 0.037094209 0.85188007
0.057824913 0.038034089 0.8515625
-0.0065021683 0.042821806 0.85235095
-0.0027242724 0.042582236 0.8515209
0.0022358911 0.04116321 0.85081118
0.0180873 0.041123968 0.85000008
-0.0057007442 0.099786848 0.85136372
-0.0041076848 0.099659339 0.85027593
-0.0065008313 0.10223519 0.85198313
-0.0025226166 0.10284893 0.85049033
0.000649889 0.1044442 0.85060012
-0.0057066781 0.10702504 0.85224998
-0.0025292216 0.10788981 0.85281253
0.002238289 0.10773413 0.85158139
0.0067705405 0.10809194 0.85084283
0.012434689 0.10851569 0.85061902
0.018104238 0.10921672 0.85079986
0.022849096 0.10914256 0.85022217
0.027612982 0.10916822 0.85042214
0.030779038 0.10914826 0.8502667
-0.0025315473 0.11171922 0.85379452
0.0022448834 0.11200851 0.8539834
0.0072155464 0.11250214 0.85319996
0.012580436 0.11265239 0.85283333
0.018128209 0.11253332 0.85193324
0.022878308 0.1124504 0.85131097
0.027651863 0.11249182 0.85162216
0.032431886 0.11254498 0.85202217
0.036949765 0.1129306 0.85151899
0.041905925 0.11396617 0.85081106
0.047829479 0.11350448 0.85031676
0.052841481 0.11295243 0.85168093
0.057703037 0.11243567 0.85269624
0.061118565 0.1111119 0.85319996
0.012600072 0.11600451 0.85416675
0.018172629 0.1167777 0.85401112
0.022949211 0.11756488 0.85395563
0.027535094 0.1173958 0.85417092
0.032313567 0.11739345 0.85415423
0.037274607 0.1175393 0.85377032
0.041987088 0.11735898 0.85245544
0.04731293 0.11716101 0.8520605
0.052259021 0.11693981 0.85403335
0.023767333 0.12085143 0.85473347
0.038917229 0.12087028 0.85486686
0.041671801 0.12116513 0.85414171
0.046858996 0.12158817 0.85432237
0.050030716 0.12075718 0.85406673
0.026317596 0.033606332 0.85993344
0.034331206 0.033601116 0.85980022
0.037108868 0.033175811 0.85914999
0.042327743 0.031985097 0.85937047
0.046870895 0.03241659 0.85871428
0.051264301 0.032425154 0.85695004
-0.007326379 0.038217708 0.85572225
-0.0025412645 0.037320781 0.85710251
0.0022564812 0.038326859 0.85817766
0.0070590801 0.038330834 0.85826659
0.012169266 0.037658446 0.85751998
0.017443191 0.036688838 0.85725003
0.023038967 0.03589344 0.85728908
0.027824389 0.035879377 0.85694456
0.032624103 0.035726085 0.85709345
0.037428405 0.035097707 0.8572889
0.042206895 0.035082247 0.85691124
0.046129078 0.035027213 0.85556686
-0.0089403288 0.042283915 0.85750008
-0.0014782638 0.11324225 0.85732388
0.0022501922 0.11466417 0.85602254
0.0054399753 0.11458976 0.85546684
0.059655603 0.11453242 0.85503864
0.061277948 0.11378849 0.855425
-0.0017474195 0.11670154 0.85929465
0.0022559066 0.11817045 0.85834819
0.0070456192 0.11795453 0.85677791
0.011839171 0.11874285 0.85672235
0.016937319 0.11911625 0.8559736
0.029360371 0.11931728 0.85513347
0.034144875 0.11931727 0.85513359
0.053643923 0.11877348 0.85580027
0.058148462 0.11788997 0.85631877
0.062171061 0.11794773 0.85674077
0.0038630946 0.12153953 0.85960007
0.0070662922 0.12148926 0.85924453
0.011867515 0.12142328 0.85877776
0.017783929 0.12263998 0.85834008
0.022805218 0.12323643 0.85709542
0.02780913 0.12269229 0.85647422
0.032593705 0.12266522 0.85628915
0.037158612 0.12277585 0.85567522
0.042454526 0.12350152 0.85546684
0.046948671 0.12420869 0.85595584
0.052566983 0.12268847 0.85645342
0.057907145 0.12299504 0.85747993
0.06177596 0.12313646 0.85680562
0.023319114 0.12742251 0.85921913
0.027878337 0.1277889 0.85860753
0.032679804 0.12778041 0.8585481
0.037493184 0.12781352 0.85877037
0.042048663 0.12729481 0.85835236
0.047059249 0.12689652 0.85797781
0.051588476 0.12685421 0.85877335
0.057533801 0.12625822 0.85906667
0.061569866 0.1263219 0.85949999
0.027921394 0.13118444 0.85993356
0.028847827 0.028932489 0.86366677
0.032776643 0.028446482 0.8611064
0.037567135 0.028824916 0.86045569
0.042368311 0.028816352 0.86020017
-0.0057815304 0.033742934 0.86342859
-0.0041732611 0.0337594 0.86385012
0.011712207 0.032625679 0.86422867
0.017639952 0.032639932 0.86260533
0.022940606 0.032547031 0.86218578
0.028196847 0.031890634 0.86225432
0.032570079 0.0318437 0.86094189
0.037871365 0.031052198 0.86008036
0.047972444 0.030409409 0.86000013
-0.0065737823 0.035285473 0.86187506
-0.0025612416 0.035357174 0.8636263
0.0022686408 0.036132801 0.86300021
0.007096 0.036127407 0.86286682
0.011502101 0.03566613 0.86140007
0.015902663 0.035227813 0.86046672
-0.0025520404 0.11845639 0.86043471
-0.0017514048 0.12177148 0.8612352
0.0019407978 0.12260751 0.86036003
0.0070757545 0.12405378 0.8604002
0.011885961 0.12401187 0.86011124
0.015894223 0.12479562 0.86000019
-0.0019550221 0.12695931 0.86246866
0.0022659677 0.12667978 0.86193377
0.0070889392 0.12828971 0.86197776
0.011907645 0.12824935 0.86170369
0.017510558 0.12809111 0.86063892
0.0223141 0.12961997 0.86016679
0.043162353 0.12959988 0.86003351
0.047170479 0.12959486 0.86000019
0.052431345 0.12931292 0.86078346
0.056860257 0.12894537 0.86100006
0.062308881 0.1288047 0.86140102
-0.0014868077 0.13158686 0.8625834
0.002039568 0.13122708 0.86321837
0.0071007758 0.13171673 0.86342221
0.01233476 0.13212551 0.86346668
0.017553767 0.13241868 0.8627584
0.023164036 0.1330996 0.86196667
0.027998611 0.13395351 0.86231112
0.032807011 0.1330868 0.86188149
0.037636153 0.13311155 0.86204457
0.042441588 0.13305633 0.86168885
0.047241081 0.13299462 0.86128891
0.051898107 0.13289055 0.86191678
0.0569943 0.13246097 0.86303335
0.062828571 0.13259043 0.86213714
0.022691628 0.13615017 0.86437792
0.028048212 0.13660185 0.86384457
0.032902893 0.13668974 0.86440015
0.037716176 0.13660713 0.86387795
0.04284377 0.13716079 0.86331338
0.047338426 0.13808568 0.86306667
0.051952034 0.13720253 0.86329067
0.057407271 0.13572527 0.86440021
0.062848255 0.1356418 0.86387491
0.066069581 0.13853209 0.863846
0.0030852268 0.029022377 0.86635017
0.0071232417 0.029016234 0.86616677
0.016851492 0.029077645 0.86800003
0.023721982 0.028662477 0.86765838
0.026526215 0.028229382 0.86675006
-0.00095351908 0.033846024 0.86606675
0.0022781692 0.032255732 0.86661124
0.0071244594 0.032246809 0.86637795
0.012769729 0.030608309 0.86562502
0.016001407 0.030613115 0.86576092
0.024067871 0.030605655 0.8655501
-0.0025774445 0.13256761 0.86900002
0.0030817753 0.13361971 0.86534458
0.0071174479 0.13363515 0.86544466
0.01115795 0.1337029 0.86588341
0.0025136874 0.13680974 0.8680687
0.0071414518 0.13731925 0.86837411
0.011997164 0.13729067 0.86819267
0.016836746 0.13713977 0.86723346
0.021955105 0.1381969 0.86712795
0.028129712 0.13861232 0.86636668
0.032980472 0.13862298 0.86643344
0.037826132 0.13861766 0.86640018
0.041005991 0.13844165 0.86530018
0.054022305 0.13871366 0.8670001
0.056829143 0.13825406 0.86664176
0.061746784 0.13798746 0.86648673
0.01241906 0.14111397 0.86936665
0.016872047 0.14146756 0.86905545
0.022536194 0.14141722 0.8687458
0.028023746 0.14221136 0.86865556
0.033049885 0.1421463 0.86825919
0.037903257 0.14213079 0.86816293
0.042714462 0.14197946 0.86723721
0.047523443 0.14265418 0.86643893
0.052626256 0.14218979 0.86729181
0.057158347 0.14181009 0.86902857
0.062418107 0.14198838 0.86852914
0.065808438 0.14232433 0.86606622
0.033914208 0.14561129 0.86966681
0.038281865 0.14621396 0.86940002
0.042803455 0.14631386 0.86903334
0.047649622 0.14626352 0.86873335
0.051716968 0.14631094 0.86901665
0.063466176 0.14671345 0.86900949
0.06537874 0.14524855 0.86750001
0.0022876766 0.13921824 0.87015384
0.0032718934 0.14258094 0.8728922
0.0071634734 0.14261065 0.87109637
0.011709066 0.14353563 0.87081355
0.016897984 0.14411132 0.87037784
0.021773441 0.14415179 0.87062234
0.0266318 0.14408188 0.87020004
0.058274686 0.14407083 0.87013352
0.060732022 0.14412603 0.87046689
0.0073898854 0.14774464 0.87390822
0.01205187 0.14764792 0.87213337
0.016920976 0.14755352 0.87157798
0.021802017 0.14758374 0.87175566
0.027493216 0.14759049 0.87179452
0.032919552 0.14790693 0.87093353
0.03761629 0.14865027 0.87088358
0.04290067 0.14907502 0.87100023
0.04775542 0.14901797 0.8706668
0.053297978 0.14810577 0.87101346
0.057546649 0.14752327 0.87140012
0.061407439 0.14775181 0.87084019
0.012086668 0.15132958 0.87466669
0.016565042 0.15166438 0.87424994
0.021872355 0.15131228 0.87456656
0.027573688 0.15127623 0.87435824
0.032717094 0.15226543 0.87380546
0.038149651 0.15199427 0.87380546
0.043011982 0.1519005 0.87326652
0.047878481 0.15265137 0.8729111
0.052560929 0.1524528 0.8729375
0.058025081 0.15181416 0.87370646
0.061951727 0.15202466 0.87242222
0.031668339 0.15624054 0.87483335
0.0023018201 0.14496496 0.87553328
-0.00096764253 0.14797395 0.87889493
0.0020708756 0.14727738 0.87683237
0.0055654598 0.14979385 0.87520003
-0.00096739369 0.15202297 0.87866884
0.0023084523 0.15193135 0.87813956
0.0072106807 0.15252663 0.87686676
0.012101367 0.15395817 0.87573338
0.017331611 0.15415053 0.87590009
0.021587199 0.15388429 0.87624013
0.026816061 0.15363702 0.87622511
0.032664176 0.15404318 0.87529343
0.038232151 0.15476435 0.87568897
0.043124571 0.15473883 0.87554455
0.054624613 0.15493719 0.87666667
0.057828121 0.15394336 0.87565005
0.0027219346 0.15584825 0.87950677
0.0072262874 0.15693477 0.8787148
0.012133327 0.15762572 0.87801689
0.017045284 0.1576197 0.87798351
0.022188023 0.15724476 0.87784302
0.026856262 0.15693009 0.87755013
0.032249745 0.15723908 0.87586117
0.037808742 0.1575027 0.87668121
0.043210123 0.1574946 0.87728351
0.048122335 0.15750659 0.87735015
0.053060457 0.15759142 0.87782234
0.057702988 0.15628281 0.87872666
0.061305292 0.15774643 0.87868333
0.012156855 0.16038857 0.87973315
0.017083293 0.16042501 0.87993306
0.021994123 0.16033588 0.8794443
0.026908761 0.16095829 0.87926656
0.031815056 0.16105299 0.87888885
0.037058633 0.16170073 0.87885332
0.042707168 0.16207319 0.87918168
0.048020314 0.16172951 0.87923324
0.05191464 0.16152509 0.87923324
-0.00096905371 0.15555751 0.88017654
0.0019868258 0.1582979 0.88084733
0.058129329 0.15884028 0.88022202
0.063099779 0.1589549 0.88085717
0.0023236473 0.16115737 0.88395005
0.0076672928 0.16125123 0.88220835
0.012184595 0.16322455 0.88178879
0.017108565 0.16311957 0.88122219
0.022029111 0.16304962 0.88084435
0.026950952 0.16341968 0.88063318
0.031866372 0.16376899 0.88031083
0.049912456 0.16372351 0.88006645
0.054216433 0.16252255 0.8806532
0.058234666 0.16240972 0.88181847
0.063142084 0.16234121 0.88144565
0.066471525 0.16408321 0.88200003
0.013048077 0.16619676 0.88451684
0.016756983 0.16658169 0.8843751
0.022100212 0.16686623 0.88370007
0.027021607 0.16672254 0.88293892
0.031935062 0.16658616 0.88221663
0.036910158 0.16757992 0.88312221
0.04180821 0.16741188 0.88223702
0.047053885 0.16717909 0.88187665
0.052165639 0.16745806 0.88248098
0.057043124 0.16638118 0.88374674
0.062641978 0.16669926 0.88368684
0.066108055 0.16748793 0.88265008
0.066471525 0.17064597 0.88200003
-0.00097849302 0.15872598 0.88875008
0.0031574662 0.16326213 0.88644969
0.0069530345 0.16409795 0.88561994
0.0033283993 0.16650783 0.88792497
0.0072976011 0.16755997 0.88737756
0.012251586 0.16850848 0.88657761
0.017536871 0.16916916 0.88629311
0.022165298 0.16982712 0.88628864
0.027095674 0.16964827 0.88535571
0.032044243 0.16962272 0.88522243
0.050192244 0.16958013 0.88500017
0.057267874 0.16893713 0.88594168
0.061832227 0.1694064 0.88624167
0.065081358 0.16966955 0.88546675
0.003996118 0.17038493 0.88920003
0.0075488617 0.17154489 0.88908565
0.012042011 0.17238471 0.88854277
0.017234346 0.17258151 0.88773316
0.022184767 0.17245169 0.88706636
0.027138269 0.17238903 0.8867442
0.032098431 0.17300262 0.88671643
0.037053268 0.17317897 0.88656276
0.042023554 0.17321841 0.88676643
0.047219049 0.17274065 0.88673311
0.051951326 0.17276466 0.88685691
0.05700931 0.17234597 0.88834274
0.061974276 0.17268725 0.88827759
0.065791123 0.17283235 0.88760728
0.013398831 0.17596899 0.88955563
0.017468607 0.17677836 0.88911664
0.022225527 0.17690156 0.88869631
0.027190605 0.17685463 0.88845921
0.032158915 0.17731299 0.88839042
0.037126292 0.17765106 0.88831097
0.04211108 0.17771082 0.88861102
0.046874739 0.17708907 0.88859993
0.052048005 0.17707025 0.88850415
0.057064671 0.17601164 0.88921326
0.062037442 0.1753428 0.8891778
0.066214867 0.17542604 0.88960004
0.023079595 0.18040404 0.8896668
0.027222006 0.18036799 0.889489
0.032197166 0.18035896 0.88944459
0.037167978 0.1803319 0.88931113
0.042145133 0.1803364 0.88933343
0.047971666 0.18041754 0.88973343
0.00068104709 0.1641703 0.89138097
0.001513432 0.16760865 0.89203
0.0030086762 0.17284477 0.8916477
0.0064928532 0.17395027 0.89051676
0.0040131966 0.17609648 0.89300036
0.0073403218 0.1768675 0.89269471
0.011773006 0.17812876 0.89207798
0.015636293 0.17901702 0.89100021
0.057151705 0.17851588 0.89056677
0.062154535 0.17815854 0.89085025
0.066135108 0.17816372 0.89225721
0.014021614 0.1812828 0.89400035
0.017541653 0.18250912 0.89287531
0.022061497 0.18293448 0.89162397
0.027279407 0.18323547 0.89136142
0.032270808 0.18325871 0.89147258
0.03726748 0.1833031 0.89168924
0.042239513 0.18322845 0.89132792
0.047005508 0.18293561 0.8916288
0.052248541 0.18252274 0.89192241
0.057551704 0.18228643 0.89309072
0.062548138 0.18263765 0.8935045
0.066164851 0.1834708 0.89453119
0.019037776 0.18641064 0.89466679
0.022366608 0.18634117 0.8943336
0.027352402 0.18622082 0.89375585
0.032365333 0.18629022 0.89408922
0.037365407 0.18627866 0.89403367
0.042355243 0.18664095 0.89377528
0.047048617 0.18699315 0.89426696
0.050744276 0.18642452 0.89473355
0.0081974696 0.17987426 0.89526677
0.067468017 0.17986532 0.89522225
0.00713694 0.18236721 0.89699525
0.012042871 0.1826205 0.89566672
0.015719354 0.18496677 0.89573342
0.056625873 0.1848945 0.89538336
0.060774509 0.18481532 0.89500022
0.067499712 0.1824486 0.89564288
0.0079480596 0.18694073 0.89854473
0.012402999 0.1870167 0.89757049
0.017060505 0.18768877 0.89600003
0.022398882 0.18827586 0.89562225
0.027394071 0.18816842 0.89511114
0.032429803 0.18832725 0.89586657
0.037429687 0.18826652 0.89557785
0.04242561 0.18820111 0.89526677
0.049112149 0.18822914 0.89540011
0.052807204 0.18763846 0.89575994
0.057575688 0.18776883 0.89717788
0.062570803 0.18769461 0.89682227
0.066489153 0.18745892 0.89702731
0.0090785064 0.19250883 0.89983344
0.013254195 0.19138789 0.89850026
0.017624356 0.1917101 0.897071
0.022424916 0.19183259 0.89666677
0.027441122 0.19182783 0.89664447
0.032472719 0.19191295 0.89704078
0.03751912 0.19205652 0.8977111
0.042507425 0.19190155 0.89698899
0.047504198 0.19181177 0.89657044
0.052544802 0.19189909 0.89697796
0.057658296 0.19138126 0.89846689
0.062886208 0.19198212 0.89834607
0.066560313 0.19212763 0.89649343
0.019110832 0.19547923 0.89810026
0.022473725 0.19559531 0.89863354
0.027506754 0.19562434 0.89876693
0.043433875 0.19564247 0.89885026
0.047602128 0.19674374 0.89842409
0.052651282 0.19646682 0.89879465
0.064406611 0.19569691 0.89910024
0.066875838 0.19639939 0.89848351
0.0062931231 0.18841773 0.90161133
0.068082765 0.18990649 0.9033795
0.0080884052 0.1929101 0.9017002
0.011788508 0.19358222 0.9017067
0.015794232 0.19421868 0.90000027
0.057802487 0.19436973 0.90070033
0.061181925 0.19443448 0.90100032
0.068152152 0.19178221 0.90430015
0.0082819518 0.19687228 0.90450001
0.012913915 0.19719142 0.9040333
0.01717006 0.19728427 0.90176678
0.022555828 0.19882625 0.90191126
0.027598798 0.19879925 0.90178901
0.032392386 0.19741197 0.90147156
0.037903845 0.19777271 0.90188766
0.042455982 0.19825959 0.90097171
0.047698844 0.19929646 0.90025026
0.052788574 0.19949447 0.9011448
0.057642527 0.19751823 0.90195739
0.062926367 0.19798999 0.90192401
0.067096598 0.19956209 0.90145028
0.018399999 0.20020419 0.90434998
0.023456398 0.20185287 0.90419996
0.025977381 0.20178589 0.90389997
0.033557132 0.2000677 0.90373331
0.037793454 0.20102689 0.90426672
0.043166108 0.20242937 0.90376663
0.04784194 0.2024135 0.90294456
0.053353868 0.20213792 0.90359163
0.05889925 0.20027062 0.90464997
0.063657165 0.20188482 0.90434438
0.067299023 0.20184545 0.9041667
0.0082930652 0.19881819 0.90570009
0.011673709 0.19886211 0.90590012
0.0083163613 0.20191999 0.90828365
0.012544868 0.20266765 0.90784478
0.017355364 0.20282646 0.90640014
0.02223726 0.20353201 0.90605843
0.028052876 0.20317654 0.90560007
0.032795884 0.20309384 0.90598345
0.037517074 0.20320928 0.90574676
0.041217744 0.20380498 0.9054001
0.052216582 0.20389503 0.90580004
0.058188763 0.20325875 0.90671682
0.06239289 0.20318556 0.9063918
0.067400768 0.20383501 0.90553343
0.014259667 0.20803855 0.90917784
0.017632045 0.20781955 0.90822262
0.022703175 0.20772298 0.90780038
0.027789487 0.20777418 0.90802258
0.032874249 0.20780417 0.90815216
0.037920143 0.2076135 0.90731877
0.042976107 0.20751181 0.90687424
0.048043236 0.20748219 0.90674472
0.05314061 0.20757636 0.90715575
0.057827704 0.20767638 0.90864784
0.062533014 0.20765783 0.90843356
0.065926924 0.20703807 0.90850031
0.019354831 0.21151088 0.9095667
0.022740746 0.21229626 0.90930575
0.027842797 0.21155734 0.90976667
0.034633432 0.21158059 0.90986669
0.037999753 0.21143071 0.90922236
0.043410487 0.2120281 0.90888023
0.04857336 0.2117421 0.90874195
0.052909564 0.21205592 0.90900022
0.056699511 0.21160381 0.90996683
0.0091817537 0.20485553 0.91006672
0.0086416062 0.2071594 0.91275567
0.011736864 0.20756252 0.91079998
0.060098112 0.20992655 0.91003323
0.067892663 0.20786008 0.91211677
0.012621448 0.21239766 0.91337633
0.017346092 0.21286288 0.91100657
0.027875928 0.21350233 0.91084439
0.03262658 0.21278663 0.91067994
0.038078919 0.21356225 0.91109991
0.041454453 0.21344505 0.91059995
0.047375977 0.2133435 0.91016674
0.057211053 0.2131954 0.91134161
0.061925933 0.21291304 0.91194445
0.066122338 0.21209443 0.91353357
0.01434053 0.21602091 0.91433358
0.01807927 0.21655044 0.91369355
0.0075371023 0.20885427 0.91646659
0.0086896876 0.21232086 0.91794437
0.010951163 0.21473426 0.9161002
