# .PCD v0.7 - Point Cloud Data file format
VERSION 0.7
FIELDS x y z
SIZE 4 4 4
TYPE F F F
COUNT 1 1 1
WIDTH 1313
HEIGHT 1
VIEWPOINT 0 0 0 1 0 0 0
POINTS 1313
DATA ascii
0.0061862618 -0.013112269 0.19386192
0.0070754439 -0.013112269 0.1938419
0.0061862618 -0.012223087 0.19379006
0.0070754439 -0.012223087 0.19376116
0.007964626 -0.013112269 0.1938349
0.008853808 -0.013112269 0.19379133
0.007964626 -0.012223087 0.19378628
0.008853808 -0.012223087 0.19380774
0.0097429901 -0.019336537 0.19387595
0.0097429901 -0.018447354 0.19389683
0.010632165 -0.019336537 0.19386917
0.010632165 -0.018447354 0.19387713
0.0097429901 -0.017558172 0.19396351
0.010632165 -0.017558172 0.19393051
0.011521347 -0.019336537 0.1938692
0.011521347 -0.018447354 0.19387849
0.012410529 -0.019336537 0.19387041
0.012410529 -0.018447354 0.19391148
0.011521347 -0.017558172 0.19394495
0.012410529 -0.017558172 0.19393851
0.0097429901 -0.016668998 0.19397901
0.010632165 -0.016668998 0.19393468
0.0097429901 -0.015779816 0.19397226
0.010632165 -0.015779816 0.19392502
0.011521347 -0.016668998 0.19395514
0.012410529 -0.016668998 0.19394782
0.011521347 -0.015779816 0.19389145
0.012410529 -0.015779816 0.19391125
0.013299704 -0.019336537 0.1938702
0.013299704 -0.018447354 0.19391939
0.014188886 -0.019336537 0.19387443
0.014188886 -0.018447354 0.1938905
0.013299704 -0.017558172 0.19394298
0.014188886 -0.017558172 0.19393001
0.015078068 -0.019336537 0.19385293
0.015078068 -0.018447354 0.19383942
0.01596725 -0.019336537 0.19382577
0.01596725 -0.018447354 0.19381247
0.015078068 -0.017558172 0.19389054
0.01596725 -0.017558172 0.19385895
0.013299704 -0.016668998 0.19392245
0.014188886 -0.016668998 0.19395506
0.013299704 -0.015779816 0.19390182
0.014188886 -0.015779816 0.19392176
0.015078068 -0.016668998 0.19396684
0.01596725 -0.016668998 0.1939372
0.015078068 -0.015779816 0.19394173
0.01596725 -0.015779816 0.19394511
0.0097429901 -0.014890634 0.19396412
0.010632165 -0.014890634 0.1939297
0.0097429901 -0.014001451 0.19389644
0.010632165 -0.014001451 0.19388631
0.011521347 -0.014890634 0.19388841
0.012410529 -0.014890634 0.19388637
0.011521347 -0.014001451 0.19388343
0.012410529 -0.014001451 0.19386379
0.0097429901 -0.013112269 0.19380365
0.010632165 -0.013112269 0.19381647
0.0097429901 -0.012223087 0.19376908
0.010632165 -0.012223087 0.19377685
0.011521347 -0.013112269 0.19385323
0.012410529 -0.013112269 0.19383076
0.011521347 -0.012223087 0.19382735
0.012410529 -0.012223087 0.19381189
0.013299704 -0.014890634 0.19390155
0.014188886 -0.014890634 0.19389623
0.013299704 -0.014001451 0.19385383
0.014188886 -0.014001451 0.19386394
0.015078068 -0.014890634 0.19388142
0.01596725 -0.014890634 0.19389862
0.015078068 -0.014001451 0.19383237
0.01596725 -0.014001451 0.19388138
0.013299704 -0.013112269 0.19380943
0.014188886 -0.013112269 0.19386111
0.013299704 -0.012223087 0.19380119
0.014188886 -0.012223087 0.19386536
0.015078068 -0.013112269 0.1938494
0.01596725 -0.013112269 0.19385608
0.015078068 -0.012223087 0.19387226
0.01596725 -0.012223087 0.19379817
0.016856432 -0.019336537 0.19380613
0.016856432 -0.018447354 0.19381258
0.017745614 -0.019336537 0.19382708
0.017745614 -0.018447354 0.19382265
0.016856432 -0.017558172 0.19383565
0.017745614 -0.017558172 0.19382764
0.016856432 -0.016668998 0.19387537
0.017745614 -0.016668998 0.19385365
0.016856432 -0.015779816 0.19390249
0.017745614 -0.015779816 0.19389203
0.018634796 -0.017558172 0.19383337
0.018634796 -0.016668998 0.193847
0.019523978 -0.017558172 0.19383994
0.019523978 -0.016668998 0.19385678
0.018634796 -0.015779816 0.19389196
0.019523978 -0.015779816 0.19386987
0.016856432 -0.014890634 0.19389141
0.017745614 -0.014890634 0.19389199
0.016856432 -0.014001451 0.19391395
0.017745614 -0.014001451 0.19392356
0.018634796 -0.014890634 0.19390401
0.019523978 -0.014890634 0.19387834
0.018634796 -0.014001451 0.19389977
0.019523978 -0.014001451 0.19385913
0.016856432 -0.013112269 0.19390814
0.017745614 -0.013112269 0.19391836
0.016856432 -0.012223087 0.19383851
0.017745614 -0.012223087 0.19388586
0.018634796 -0.013112269 0.19390182
0.019523978 -0.013112269 0.19388533
0.018634796 -0.012223087 0.193873
0.019523978 -0.012223087 0.19387713
0.0026295409 -0.011333913 0.19377585
0.003518723 -0.011333913 0.19379255
0.0026295409 -0.010444731 0.19371536
0.003518723 -0.010444731 0.19369817
0.004407905 -0.011333913 0.19371513
0.0052970797 -0.011333913 0.19371825
0.004407905 -0.010444731 0.19363716
0.0052970797 -0.010444731 0.19364782
0.0020059645 -0.0086663663 0.19354185
0.0026295409 -0.0089645162 0.19354185
0.0026295409 -0.0086663663 0.19352047
0.003518723 -0.0090316683 0.19354185
0.003518723 -0.0086663663 0.19351101
0.0026295409 -0.0095555484 0.19359899
0.003518723 -0.0095555484 0.19359609
0.0061862618 -0.011333913 0.19375657
0.0070754439 -0.011333913 0.19370745
0.0061862618 -0.010444731 0.19367126
0.0070754439 -0.010444731 0.19363883
0.007964626 -0.011333913 0.19369704
0.008853808 -0.011333913 0.19370908
0.007964626 -0.010444731 0.19363102
0.008853808 -0.010444731 0.19361889
0.0097429901 -0.011333913 0.19370462
0.010632165 -0.011333913 0.19370095
0.0097429901 -0.010444731 0.1936229
0.010632165 -0.010444731 0.19361635
0.011521347 -0.011333913 0.19371614
0.012410529 -0.011333913 0.19372876
0.011521347 -0.010444731 0.19360806
0.012410529 -0.010444731 0.19364227
0.010632165 -0.0095555484 0.19360489
0.011521347 -0.0095555484 0.19357172
0.012410529 -0.0095555484 0.1935683
0.010632165 -0.0086663663 0.19355465
0.011521347 -0.0086663663 0.19354852
0.012410529 -0.0086663663 0.19354449
0.013299704 -0.011333913 0.19374865
0.014188886 -0.011333913 0.19380559
0.013299704 -0.010444731 0.19367298
0.014188886 -0.010444731 0.19372341
0.015078068 -0.011333913 0.19380143
0.01596725 -0.011333913 0.1937581
0.015078068 -0.010444731 0.19372724
0.01596725 -0.010444731 0.19370943
0.013299704 -0.0095555484 0.19359016
0.014188886 -0.0095555484 0.19364104
0.013299704 -0.0086663663 0.19355692
0.014188886 -0.0086663663 0.19357626
0.015078068 -0.0095555484 0.1936789
0.01596725 -0.0095555484 0.19366069
0.015078068 -0.0086663663 0.19361877
0.01596725 -0.0086663663 0.19361228
0.013405278 -0.0077771842 0.19354185
0.014188886 -0.0078415722 0.19354185
0.014188886 -0.0077771842 0.19353843
0.012410529 -0.0077429414 0.19354185
0.013299704 -0.0076853633 0.19354185
0.012410529 -0.0068880022 0.19349335
0.013299704 -0.0068880022 0.19350077
0.014188886 -0.0068880022 0.19351006
0.012410529 -0.0077771842 0.19354324
0.013299704 -0.0077771842 0.19354749
0.014382496 -0.0077771842 0.19354185
0.015078068 -0.0072842315 0.19354185
0.015078068 -0.0068880022 0.19352914
0.015513867 -0.0068880022 0.19354185
0.015078068 -0.0077771842 0.19356483
0.01596725 -0.0077771842 0.19359799
0.01596725 -0.0068880022 0.19356698
0.014188886 -0.0059988275 0.19350401
0.015078068 -0.0059988275 0.19351932
0.01596725 -0.0065137073 0.19354185
0.01596725 -0.0059988275 0.19351988
0.014188886 -0.0051096454 0.19344868
0.015078068 -0.0051096454 0.1934721
0.01596725 -0.0051096454 0.19347219
0.014188886 -0.0042204633 0.19341202
0.015078068 -0.0042204633 0.19341643
0.01596725 -0.0042204633 0.19342986
0.014188886 -0.0033312812 0.19339614
0.015078068 -0.0033312812 0.19340411
0.01596725 -0.0033312812 0.19342883
0.016856432 -0.011333913 0.19377652
0.017745614 -0.011333913 0.19381066
0.016856432 -0.010444731 0.19373034
0.017745614 -0.010444731 0.19374128
0.018634796 -0.011333913 0.19381644
0.019523978 -0.011333913 0.1938277
0.018634796 -0.010444731 0.19373795
0.019523978 -0.010444731 0.19375588
0.016856432 -0.0095555484 0.19370231
0.017745614 -0.0095555484 0.19372903
0.016856432 -0.0086663663 0.19365875
0.017745614 -0.0086663663 0.19370708
0.018634796 -0.0095555484 0.19371791
0.019523978 -0.0095555484 0.19372763
0.018634796 -0.0086663663 0.19372083
0.019523978 -0.0086663663 0.19373061
0.016856432 -0.0077771842 0.19361688
0.017745614 -0.0077771842 0.19367921
0.016856432 -0.0068880022 0.19360018
0.017745614 -0.0068880022 0.19361778
0.018634796 -0.0077771842 0.19370276
0.019523978 -0.0077771842 0.19368172
0.018634796 -0.0068880022 0.19362897
0.019523978 -0.0068880022 0.19365691
0.016856432 -0.0060516894 0.19354185
0.016856432 -0.0059988275 0.19353659
0.017745614 -0.0060848743 0.19354185
0.017745614 -0.0059988275 0.19353293
0.016856432 -0.0051096454 0.19346356
0.017745614 -0.0051096454 0.19349597
0.018599972 -0.0059988275 0.19354185
0.018616527 -0.0051096454 0.19354185
0.018634796 -0.0059988275 0.19354297
0.019523978 -0.0059988275 0.1936311
0.018634796 -0.0051096454 0.19354291
0.019523978 -0.0051096454 0.19360347
0.016856432 -0.0042204633 0.19348167
0.017745614 -0.0042204633 0.19352435
0.016856432 -0.0033312812 0.1934863
0.017745614 -0.0033312812 0.19350283
-0.017821617 0.0028929859 0.19417518
-0.016932443 0.0028929859 0.19420962
-0.016043261 0.0028929859 0.19422138
-0.017821617 0.003782168 0.19412924
-0.016932443 0.003782168 0.19416112
-0.016043261 0.003782168 0.19415882
-0.017821617 0.0046713501 0.19409893
-0.016932443 0.0046713501 0.19410437
-0.016043261 0.0046713501 0.19412918
-0.017821617 0.0055605248 0.19406125
-0.016932443 0.0055605248 0.19408995
-0.016043261 0.0055605248 0.19411026
-0.015154079 0.0028929859 0.19414912
-0.014264897 0.0028929859 0.19410901
-0.015154079 0.003782168 0.19410987
-0.014264897 0.003782168 0.19409551
-0.013375714 0.0028929859 0.1941016
-0.012486532 0.0028929859 0.19408005
-0.013375714 0.003782168 0.19410174
-0.012486532 0.003782168 0.19407293
-0.015154079 0.0046713501 0.19413546
-0.014264897 0.0046713501 0.194086
-0.015154079 0.0055605248 0.19410643
-0.014264897 0.0055605248 0.19406511
-0.013375714 0.0046713501 0.19405542
-0.012486532 0.0046713501 0.19403838
-0.013375714 0.0055605248 0.19402866
-0.012486532 0.0055605248 0.19401273
-0.019599982 0.0055605248 0.19401599
-0.019599982 0.0064497069 0.19395399
-0.0187108 0.0055605248 0.19402164
-0.0187108 0.0064497069 0.19396432
-0.017821617 0.0064497069 0.19400935
-0.019599982 0.0073388889 0.19392432
-0.0187108 0.0073388889 0.19395146
-0.017821617 0.0073388889 0.19399036
-0.016932443 0.0064497069 0.19405973
-0.016043261 0.0064497069 0.19411367
-0.016932443 0.0073388889 0.19404744
-0.016043261 0.0073388889 0.19408558
-0.019599982 0.008228071 0.19389451
-0.0187108 0.008228071 0.19393161
-0.017821617 0.008228071 0.19400527
-0.019599982 0.0091172531 0.19386883
-0.0187108 0.0091172531 0.19392194
-0.017821617 0.0091172531 0.19401631
-0.016932443 0.008228071 0.19406341
-0.016043261 0.008228071 0.1940535
-0.016932443 0.0091172531 0.19405735
-0.016043261 0.0091172531 0.19404791
-0.015154079 0.0064497069 0.19410203
-0.014264897 0.0064497069 0.19407479
-0.015154079 0.0073388889 0.19408792
-0.014264897 0.0073388889 0.19409631
-0.013375714 0.0064497069 0.19405028
-0.012486532 0.0064497069 0.19401705
-0.013375714 0.0073388889 0.19408251
-0.012486532 0.0073388889 0.19403237
-0.015154079 0.008228071 0.19404292
-0.014264897 0.008228071 0.19406722
-0.015154079 0.0091172531 0.1940496
-0.014264897 0.0091172531 0.19405669
-0.013375714 0.008228071 0.19409053
-0.012486532 0.008228071 0.19404462
-0.013375714 0.0091172531 0.19407864
-0.012486532 0.0091172531 0.19404973
-0.016043261 0.010006435 0.19405828
-0.015154079 0.010006435 0.19406989
-0.014264897 0.010006435 0.19407342
-0.016043261 0.01089561 0.19405295
-0.015154079 0.01089561 0.19405676
-0.014264897 0.01089561 0.19406196
-0.013375714 0.010006435 0.19404937
-0.012486532 0.010006435 0.19405419
-0.013375714 0.01089561 0.19405606
-0.012486532 0.01089561 0.19406921
-0.016043261 0.011784792 0.19401228
-0.015154079 0.011784792 0.19402094
-0.014264897 0.011784792 0.1940679
-0.016043261 0.012673974 0.19400448
-0.015154079 0.012673974 0.19401623
-0.014264897 0.012673974 0.19406292
-0.013375714 0.011784792 0.19408602
-0.012486532 0.011784792 0.19408153
-0.013375714 0.012673974 0.19408597
-0.012486532 0.012673974 0.19409592
-0.014264897 0.013563149 0.19403639
-0.013375714 0.013563149 0.19407038
-0.012486532 0.013563149 0.1940687
-0.014264897 0.014452331 0.19401632
-0.013375714 0.014452331 0.19401775
-0.012486532 0.014452331 0.19402076
-0.016043261 0.014452331 0.19400208
-0.016043261 0.015341513 0.1939901
-0.015154079 0.014452331 0.19402528
-0.015154079 0.015341513 0.19401455
-0.014264897 0.015341513 0.19401568
-0.016043261 0.016230695 0.19399452
-0.015154079 0.016230695 0.19400732
-0.014264897 0.016230695 0.19401585
-0.013375714 0.015341513 0.1939999
-0.012486532 0.015341513 0.19400881
-0.013375714 0.016230695 0.19402559
-0.012486532 0.016230695 0.19400837
-0.011597358 0.0028929859 0.19403018
-0.010708176 0.0028929859 0.1939263
-0.011597358 0.003782168 0.19399258
-0.010708176 0.003782168 0.19390997
-0.011597358 0.0046713501 0.19398384
-0.010708176 0.0046713501 0.19392142
-0.011597358 0.0055605248 0.1939874
-0.010708176 0.0055605248 0.19396384
-0.011597358 0.0064497069 0.19400001
-0.010708176 0.0064497069 0.19397932
-0.011597358 0.0073388889 0.194019
-0.010708176 0.0073388889 0.19398615
-0.0098189935 0.0055605248 0.1939075
-0.0098189935 0.0064497069 0.19392781
-0.0089298114 0.0055605248 0.19380896
-0.0089298114 0.0064497069 0.19382876
-0.0098189935 0.0073388889 0.19390436
-0.0089298114 0.0073388889 0.19381747
-0.011597358 0.008228071 0.19399236
-0.010708176 0.008228071 0.19395666
-0.011597358 0.0091172531 0.19398895
-0.010708176 0.0091172531 0.19396155
-0.0098189935 0.008228071 0.19390197
-0.0089298114 0.008228071 0.19384247
-0.0098189935 0.0091172531 0.19394179
-0.0089298114 0.0091172531 0.19389838
-0.0080406293 0.0073388889 0.19372013
-0.0080406293 0.008228071 0.19376816
-0.0071514472 0.0073388889 0.19367726
-0.0071514472 0.008228071 0.19372441
-0.0080406293 0.0091172531 0.1938294
-0.0071514472 0.0091172531 0.19374706
-0.0062622726 0.0073388889 0.193638
-0.0062622726 0.008228071 0.19366902
-0.0053730905 0.0073388889 0.19357663
-0.0053730905 0.008228071 0.19360341
-0.0062622726 0.0091172531 0.19368947
-0.0053730905 0.0091172531 0.19361937
-0.011597358 0.010006435 0.19402716
-0.010708176 0.010006435 0.1939826
-0.011597358 0.01089561 0.19404466
-0.010708176 0.01089561 0.19397809
-0.0098189935 0.010006435 0.19397344
-0.0089298114 0.010006435 0.19393161
-0.0098189935 0.01089561 0.19395438
-0.0089298114 0.01089561 0.1939254
-0.011597358 0.011784792 0.19405012
-0.010708176 0.011784792 0.19400491
-0.011597358 0.012673974 0.19404978
-0.010708176 0.012673974 0.19400051
-0.0098189935 0.011784792 0.19396593
-0.0089298114 0.011784792 0.1939351
-0.0098189935 0.012673974 0.1939777
-0.0089298114 0.012673974 0.1939595
-0.0080406293 0.010006435 0.19385487
-0.0071514472 0.010006435 0.19377315
-0.0080406293 0.01089561 0.19387363
-0.0071514472 0.01089561 0.1938069
-0.0062622726 0.010006435 0.19371888
-0.0053730905 0.010006435 0.19365828
-0.0062622726 0.01089561 0.19374765
-0.0053730905 0.01089561 0.19373089
-0.0080406293 0.011784792 0.19389792
-0.0071514472 0.011784792 0.19383526
-0.0080406293 0.012673974 0.19392429
-0.0071514472 0.012673974 0.19384886
-0.0062622726 0.011784792 0.19379376
-0.0053730905 0.011784792 0.19377469
-0.0062622726 0.012673974 0.19381596
-0.0053730905 0.012673974 0.19378647
-0.011597358 0.013563149 0.19402649
-0.010708176 0.013563149 0.19400333
-0.011597358 0.014452331 0.19403502
-0.010708176 0.014452331 0.19403274
-0.0098189935 0.013563149 0.19397795
-0.0089298114 0.013563149 0.19397247
-0.0098189935 0.014452331 0.19399147
-0.0089298114 0.014452331 0.19399236
-0.011597358 0.015341513 0.19404592
-0.010708176 0.015341513 0.19405873
-0.011597358 0.016230695 0.1940247
-0.010708176 0.016230695 0.19401687
-0.0098189935 0.015341513 0.19399463
-0.0089298114 0.015341513 0.19397071
-0.0098189935 0.016230695 0.19396132
-0.0089298114 0.016230695 0.1939448
-0.0080406293 0.013563149 0.19392821
-0.0071514472 0.013563149 0.19385843
-0.0080406293 0.014452331 0.19395883
-0.0071514472 0.014452331 0.19391949
-0.0062622726 0.013563149 0.19382475
-0.0053730905 0.013563149 0.19381966
-0.0062622726 0.014452331 0.19387127
-0.0053730905 0.014452331 0.19386013
-0.0080406293 0.015341513 0.1939809
-0.0071514472 0.015341513 0.19394043
-0.0080406293 0.016230695 0.19394523
-0.0071514472 0.016230695 0.19394058
-0.0062622726 0.015341513 0.19390541
-0.0053730905 0.015341513 0.19387411
-0.0062622726 0.016230695 0.19391257
-0.0053730905 0.016230695 0.19385806
-0.0044839084 0.0091172531 0.19356628
-0.0044839084 0.010006435 0.1935948
-0.0035947263 0.0091172531 0.1935526
-0.0035947263 0.010006435 0.19358061
-0.0044839084 0.01089561 0.19368663
-0.0035947263 0.01089561 0.19364087
-0.0032157302 0.0091172531 0.19354185
-0.0027055442 0.0093887597 0.19354185
-0.0027055442 0.0091172531 0.19352685
-0.0018487424 0.010006435 0.19354185
-0.0018163621 0.0091172531 0.19349352
-0.0018163621 0.010006435 0.19354078
-0.0018163621 0.010024384 0.19354185
-0.0027055442 0.010006435 0.19357057
-0.0027055442 0.01089561 0.19361033
-0.0018163621 0.01089561 0.19357954
-0.0044839084 0.011784792 0.19372036
-0.0035947263 0.011784792 0.19367525
-0.0044839084 0.012673974 0.19372024
-0.0035947263 0.012673974 0.1936892
-0.0027055442 0.011784792 0.1936478
-0.0018163621 0.011784792 0.19359748
-0.0027055442 0.012673974 0.19368044
-0.0018163621 0.012673974 0.19363919
-0.0009271875 0.0091172531 0.19347477
-0.0009271875 0.010006435 0.19351143
-3.8005412e-05 0.0091172531 0.19348137
-3.8005412e-05 0.010006435 0.19349916
-0.0009271875 0.010639071 0.19354185
-0.00070752949 0.01089561 0.19354185
-3.8005412e-05 0.01089561 0.19351386
-0.0009271875 0.01089561 0.19355322
0.00085117668 0.0091172531 0.19347648
0.00085117668 0.010006435 0.19348657
0.0017403588 0.0091172531 0.19345495
0.0017403588 0.010006435 0.19348334
0.00085117668 0.01089561 0.19349271
0.0017403588 0.01089561 0.1934983
-3.8005412e-05 0.011357151 0.19354185
-0.0009271875 0.011784792 0.19356865
-3.8005412e-05 0.011784792 0.19357033
-0.0009271875 0.012673974 0.19361274
-3.8005412e-05 0.012673974 0.19362146
0.00081719458 0.011784792 0.19354185
0.00085117668 0.011784792 0.19353992
0.0017403588 0.011784792 0.19353513
0.00085117668 0.011827096 0.19354185
0.0017403588 0.011927687 0.19354185
0.00085117668 0.012673974 0.1935848
0.0017403588 0.012673974 0.19356653
-0.0044839084 0.013563149 0.19381092
-0.0035947263 0.013563149 0.19373843
-0.0044839084 0.014452331 0.19383913
-0.0035947263 0.014452331 0.19375925
-0.0027055442 0.013563149 0.19368504
-0.0018163621 0.013563149 0.19367512
-0.0027055442 0.014452331 0.19375135
-0.0018163621 0.014452331 0.19372752
-0.0044839084 0.015341513 0.19381578
-0.0035947263 0.015341513 0.19377442
-0.0044839084 0.016230695 0.19384913
-0.0035947263 0.016230695 0.19383065
-0.0027055442 0.015341513 0.19378255
-0.0018163621 0.015341513 0.19375446
-0.0027055442 0.016230695 0.19380291
-0.0018163621 0.016230695 0.19375858
-0.0009271875 0.013563149 0.19365442
-3.8005412e-05 0.013563149 0.19365184
-0.0009271875 0.014452331 0.19367701
-3.8005412e-05 0.014452331 0.19367859
0.00085117668 0.013563149 0.19364311
0.0017403588 0.013563149 0.19361749
0.00085117668 0.014452331 0.19366683
0.0017403588 0.014452331 0.19365793
-0.0009271875 0.015341513 0.19370431
-3.8005412e-05 0.015341513 0.19369906
-0.0009271875 0.016230695 0.19373234
-3.8005412e-05 0.016230695 0.19372717
0.00085117668 0.015341513 0.1936745
0.0017403588 0.015341513 0.19365878
0.00085117668 0.016230695 0.19368385
0.0017403588 0.016230695 0.19367838
-0.016043261 0.017119877 0.19394988
-0.015154079 0.017119877 0.19397902
-0.014264897 0.017119877 0.1940226
-0.016043261 0.018009059 0.19392341
-0.015154079 0.018009059 0.19394267
-0.014264897 0.018009059 0.19396046
-0.013375714 0.017119877 0.19401771
-0.012486532 0.017119877 0.19398098
-0.013375714 0.018009059 0.19395979
-0.012486532 0.018009059 0.19394864
-0.016043261 0.018898241 0.19392346
-0.015154079 0.018898241 0.19392885
-0.014264897 0.018898241 0.19393297
-0.016043261 0.019787423 0.1939227
-0.015154079 0.019787423 0.1939308
-0.014264897 0.019787423 0.19395709
-0.013375714 0.018898241 0.19392093
-0.012486532 0.018898241 0.19393922
-0.013375714 0.019787423 0.19393179
-0.012486532 0.019787423 0.19392833
-0.011597358 0.017119877 0.19400495
-0.010708176 0.017119877 0.19398788
-0.011597358 0.018009059 0.19397323
-0.010708176 0.018009059 0.19398278
-0.0098189935 0.017119877 0.19395079
-0.0089298114 0.017119877 0.19395056
-0.0098189935 0.018009059 0.19395404
-0.0089298114 0.018009059 0.1939355
-0.011597358 0.018898241 0.19395672
-0.010708176 0.018898241 0.19394575
-0.011597358 0.019787423 0.19392805
-0.010708176 0.019787423 0.19391158
-0.0098189935 0.018898241 0.19393358
-0.0089298114 0.018898241 0.19390294
-0.0098189935 0.019787423 0.19390449
-0.0089298114 0.019787423 0.19388455
-0.0080406293 0.017119877 0.1939234
-0.0071514472 0.017119877 0.19392326
-0.0080406293 0.018009059 0.19391015
-0.0071514472 0.018009059 0.19388939
-0.0062622726 0.017119877 0.19388433
-0.0053730905 0.017119877 0.1938556
-0.0062622726 0.018009059 0.19386366
-0.0053730905 0.018009059 0.19385931
-0.0080406293 0.018898241 0.19389699
-0.0071514472 0.018898241 0.19389026
-0.0080406293 0.019787423 0.19388685
-0.0071514472 0.019787423 0.19387119
-0.0035947263 0.017119877 0.19383135
-0.0027055442 0.017119877 0.19381401
-0.0018163621 0.017119877 0.19380306
-0.0035947263 0.018009059 0.19382732
-0.0027055442 0.018009059 0.19380976
-0.0018163621 0.018009059 0.19379523
-0.0035947263 0.018898241 0.19382606
-0.0027055442 0.018898241 0.19380833
-0.0018163621 0.018898241 0.19377559
-0.0035947263 0.019787423 0.19376266
-0.0027055442 0.019787423 0.19371924
-0.0018163621 0.019787423 0.19372432
-0.0009271875 0.017119877 0.19377017
-3.8005412e-05 0.017119877 0.19375834
-0.0009271875 0.018009059 0.19377086
-3.8005412e-05 0.018009059 0.19374682
0.00085117668 0.017119877 0.19370617
0.0017403588 0.017119877 0.19367589
0.00085117668 0.018009059 0.1937132
0.0017403588 0.018009059 0.19368403
-0.0009271875 0.018898241 0.19375521
-3.8005412e-05 0.018898241 0.19369584
-0.0009271875 0.019787423 0.19370975
-3.8005412e-05 0.019787423 0.19366434
0.00085117668 0.018898241 0.19365993
0.0017403588 0.018898241 0.19366913
0.00085117668 0.019787423 0.19363333
0.0017403588 0.019787423 0.19361295
-0.0035947263 0.020676605 0.19374183
-0.0027055442 0.020676605 0.19369672
-0.0018163621 0.020676605 0.19366896
-0.0035947263 0.021565787 0.19370167
-0.0027055442 0.021565787 0.1936717
-0.0018163621 0.021565787 0.19363822
-0.0009271875 0.020676605 0.19367544
-3.8005412e-05 0.020676605 0.19365744
-0.0009271875 0.021565787 0.19362836
-3.8005412e-05 0.021565787 0.19359642
0.00069888681 0.021565787 0.19354185
0.00085117668 0.02135139 0.19354185
0.00085117668 0.021565787 0.19352828
0.0017403588 0.020714067 0.19354185
0.0017403588 0.021565787 0.19348568
0.00085117668 0.020676605 0.19359052
0.0017403588 0.020676605 0.19354516
0.0017403588 0.0073388889 0.19337498
0.0017403588 0.008228071 0.19341005
0.0026295409 0.0073388889 0.19334757
0.0026295409 0.008228071 0.19340652
0.003518723 0.0073388889 0.19333947
0.003518723 0.008228071 0.19340417
0.0026295409 0.0091172531 0.19344957
0.003518723 0.0091172531 0.19343574
0.004407905 0.0073388889 0.19334882
0.004407905 0.008228071 0.19340983
0.0052970797 0.0073388889 0.19333661
0.0052970797 0.008228071 0.19340059
0.004407905 0.0091172531 0.19344449
0.0052970797 0.0091172531 0.19345534
0.0070754439 0.0055605248 0.19328788
0.0070754439 0.0064497069 0.19333845
0.007964626 0.0055605248 0.1932961
0.007964626 0.0064497069 0.1933514
0.008853808 0.0055605248 0.19331296
0.008853808 0.0064497069 0.19334649
0.0070754439 0.0073388889 0.19336227
0.007964626 0.0073388889 0.19336981
0.008853808 0.0073388889 0.19335479
0.0061862618 0.0073388889 0.19333488
0.0061862618 0.008228071 0.19339834
0.0070754439 0.008228071 0.19341172
0.0061862618 0.0091172531 0.1934308
0.0070754439 0.0091172531 0.19345331
0.007964626 0.008228071 0.19340235
0.008853808 0.008228071 0.19340995
0.007964626 0.0091172531 0.19346988
0.008853808 0.0091172531 0.19346468
0.0097429901 0.0055605248 0.19332545
0.0097429901 0.0064497069 0.19335374
0.010632165 0.0055605248 0.19334115
0.010632165 0.0064497069 0.19337794
0.0097429901 0.0073388889 0.19337378
0.010632165 0.0073388889 0.19340059
0.011521347 0.0055605248 0.19336769
0.011521347 0.0064497069 0.19340731
0.012410529 0.0055605248 0.19339691
0.012410529 0.0064497069 0.19341545
0.011521347 0.0073388889 0.19343421
0.012410529 0.0073388889 0.19344303
0.0097429901 0.008228071 0.19342589
0.010632165 0.008228071 0.19344164
0.0097429901 0.0091172531 0.19347143
0.010632165 0.0091172531 0.19346662
0.011521347 0.008228071 0.19344446
0.012410529 0.008228071 0.19345443
0.011521347 0.0091172531 0.19345433
0.012410529 0.0091172531 0.19348627
0.013299704 0.0055605248 0.19341297
0.013299704 0.0064497069 0.19341761
0.014188886 0.0055605248 0.19344129
0.014188886 0.0064497069 0.19344573
0.013299704 0.0073388889 0.19341861
0.014188886 0.0073388889 0.19344476
0.015078068 0.0055605248 0.19348982
0.015078068 0.0064497069 0.19350345
0.015553191 0.0064497069 0.19354185
0.01596725 0.005674541 0.19354185
0.01596725 0.0055605248 0.19353494
0.015078068 0.0073388889 0.19350253
0.015721872 0.0073388889 0.19354185
0.01596725 0.0064497069 0.19356763
0.01596725 0.0073388889 0.19355409
0.013299704 0.008228071 0.19347793
0.014188886 0.008228071 0.19348677
0.013299704 0.0091172531 0.19353361
0.014188886 0.0091172531 0.19352558
0.015078068 0.008228071 0.19352418
0.015608504 0.008228071 0.19354185
0.014836773 0.0091172531 0.19354185
0.015078068 0.008626692 0.19354185
0.01596725 0.008228071 0.19354571
0.015078068 0.0091172531 0.19356117
0.01596725 0.0091172531 0.19356681
0.0026295409 0.010006435 0.19348539
0.003518723 0.010006435 0.19345306
0.0026295409 0.01089561 0.19350933
0.003518723 0.01089561 0.19348969
0.004407905 0.010006435 0.19344985
0.0052970797 0.010006435 0.19346538
0.004407905 0.01089561 0.19348621
0.0052970797 0.01089561 0.19348051
0.0026295409 0.011784792 0.193538
0.003518723 0.011784792 0.19350985
0.0026295409 0.011832513 0.19354185
0.003518723 0.01229585 0.19354185
0.0026295409 0.012673974 0.19357859
0.003518723 0.012673974 0.19356728
0.004407905 0.011784792 0.19351484
0.0052970797 0.011784792 0.19351207
0.004407905 0.01248271 0.19354185
0.0052970797 0.012326136 0.19354185
0.004407905 0.012673974 0.19355258
0.0052970797 0.012673974 0.19355993
0.0061862618 0.010006435 0.19346079
0.0070754439 0.010006435 0.19346553
0.0061862618 0.01089561 0.19351506
0.0070754439 0.01089561 0.1934966
0.007964626 0.010006435 0.19346614
0.008853808 0.010006435 0.19346648
0.007964626 0.01089561 0.19346057
0.008853808 0.01089561 0.19348396
0.0061862618 0.011784792 0.1935236
0.0070754439 0.011784792 0.19352414
0.0061782449 0.012673974 0.19354185
0.0061862618 0.012673974 0.1935413
0.0070617422 0.012673974 0.19354185
0.0070754439 0.012583464 0.19354185
0.0070754439 0.012673974 0.19354321
0.007964626 0.011784792 0.19351593
0.008853808 0.011784792 0.19351169
0.007964626 0.012225948 0.19354185
0.0083182678 0.012673974 0.19354185
0.008853808 0.012673974 0.19353946
0.007964626 0.012673974 0.19355804
0.0026295409 0.013563149 0.19362168
0.003518723 0.013563149 0.19360027
0.0026295409 0.014452331 0.19366005
0.003518723 0.014452331 0.19361037
0.004407905 0.013563149 0.19357593
0.0052970797 0.013563149 0.19358642
0.004407905 0.014452331 0.19358796
0.0052970797 0.014452331 0.19358411
0.0026295409 0.015341513 0.19363864
0.003518723 0.015341513 0.19360472
0.0026295409 0.016230695 0.19364502
0.003518723 0.016230695 0.19360273
0.004407905 0.015341513 0.19361909
0.0052970797 0.015341513 0.19360428
0.004407905 0.016230695 0.19362606
0.0052970797 0.016230695 0.19361955
0.0061862618 0.01270514 0.19354185
0.0061862618 0.013563149 0.19355237
0.0070754439 0.013563149 0.19356906
0.0061862618 0.014452331 0.19355248
0.0070754439 0.014452331 0.19358197
0.008853808 0.012746252 0.19354185
0.007964626 0.013563149 0.19357239
0.008853808 0.013563149 0.19355389
0.007964626 0.014452331 0.1935923
0.008853808 0.014452331 0.19355008
0.0061862618 0.015341513 0.19355302
0.0070754439 0.015341513 0.19356361
0.0061862618 0.016230695 0.1935814
0.0070754439 0.016230695 0.19357066
0.0087520331 0.016230695 0.19354185
0.008853808 0.015794538 0.19354185
0.008853808 0.016230695 0.19353917
0.007964626 0.015341513 0.19358699
0.008853808 0.015341513 0.1935453
0.007964626 0.016230695 0.19356379
0.0097429901 0.010006435 0.19346316
0.010632165 0.010006435 0.19348155
0.0097429901 0.01089561 0.19348851
0.010632165 0.01089561 0.19353746
0.011521347 0.010006435 0.19349344
0.012410529 0.010006435 0.19350934
0.011521347 0.01089561 0.1935413
0.012410529 0.01089561 0.19352089
0.0097429901 0.011784792 0.19353409
0.0098567009 0.011784792 0.19354185
0.010632165 0.010977738 0.19354185
0.0089907572 0.012673974 0.19354185
0.0097429901 0.012074314 0.19354185
0.010632165 0.011784792 0.19355874
0.0097429901 0.012673974 0.1935648
0.010632165 0.012673974 0.19355877
0.011521347 0.010918923 0.19354185
0.01212848 0.011784792 0.19354185
0.012410529 0.011784792 0.19353516
0.011823669 0.012673974 0.19354185
0.012410529 0.012673974 0.19352463
0.011521347 0.011784792 0.19354761
0.011521347 0.012673974 0.1935439
0.013299704 0.010006435 0.19353679
0.014188886 0.010006435 0.19353707
0.013299704 0.01089561 0.19352837
0.014188886 0.01089561 0.19353974
0.014570162 0.010006435 0.19354185
0.015638873 0.010006435 0.19354185
0.01596725 0.0098697767 0.19354185
0.01596725 0.010006435 0.19353022
0.014248028 0.01089561 0.19354185
0.015240118 0.01089561 0.19354185
0.01596725 0.01089561 0.193523
0.015078068 0.010006435 0.19354717
0.015078068 0.01089561 0.19354518
0.013299704 0.011784792 0.19350715
0.014188886 0.011784792 0.19353674
0.013299704 0.012673974 0.19350426
0.014188886 0.012673974 0.19353513
0.014258921 0.011784792 0.19354185
0.01596725 0.011165202 0.19354185
0.014389396 0.012673974 0.19354185
0.015078068 0.011784792 0.19357298
0.01596725 0.011784792 0.1935664
0.015078068 0.012673974 0.19355011
0.01596725 0.012673974 0.19354917
0.0091135651 0.014452331 0.19354185
0.0097429901 0.014068447 0.19354185
0.0097429901 0.014452331 0.1935301
0.010632165 0.013679169 0.19354185
0.010632165 0.014452331 0.19352706
0.0097429901 0.013563149 0.19356565
0.010632165 0.013563149 0.19354707
0.011888251 0.013563149 0.19354185
0.012410529 0.013563149 0.19353467
0.011521347 0.01364883 0.19354185
0.011521347 0.014452331 0.19352742
0.012410529 0.014452331 0.19352417
0.011521347 0.013563149 0.19354358
0.0089128837 0.015341513 0.19354185
0.0097429901 0.015341513 0.19352491
0.010632165 0.015341513 0.1935333
0.0097429901 0.016230695 0.19351996
0.010632165 0.016230695 0.19351354
0.011521347 0.015341513 0.19351588
0.012410529 0.015341513 0.19350021
0.011521347 0.016230695 0.1934904
0.012410529 0.016230695 0.19346552
0.013299704 0.013563149 0.19352639
0.014188886 0.013563149 0.1935233
0.013299704 0.014452331 0.19351459
0.014188886 0.014452331 0.1934973
0.015078068 0.012868986 0.19354185
0.015078068 0.013563149 0.19351326
0.01596725 0.012834072 0.19354185
0.01596725 0.013563149 0.19351359
0.015078068 0.014452331 0.19348761
0.01596725 0.014452331 0.19349967
0.013299704 0.015341513 0.19348262
0.014188886 0.015341513 0.19346648
0.013299704 0.016230695 0.19345354
0.014188886 0.016230695 0.19343734
0.015078068 0.015341513 0.19346128
0.01596725 0.015341513 0.19346893
0.015078068 0.016230695 0.19342594
0.01596725 0.016230695 0.19342384
0.019523978 0.003782168 0.19359283
0.019523978 0.0046713501 0.19358343
0.02041316 0.003782168 0.19364807
0.02041316 0.0046713501 0.19362642
0.021302342 0.003782168 0.19366322
0.021302342 0.0046713501 0.19369218
0.019523978 0.0055605248 0.19364394
0.02041316 0.0055605248 0.19363658
0.021302342 0.0055605248 0.19364323
0.022191525 0.003782168 0.19366938
0.022191525 0.0046713501 0.19366209
0.023080707 0.003782168 0.19360954
0.023080707 0.0046713501 0.19357266
0.022191525 0.0055605248 0.19362198
0.023080707 0.0055605248 0.19358294
0.016289979 0.0055605248 0.19354185
0.016856432 0.0055605248 0.19354343
0.016856432 0.0064497069 0.19355391
0.017745614 0.0055605248 0.19356373
0.017745614 0.0064497069 0.19354741
0.016856432 0.0073388889 0.19354913
0.017745614 0.0073388889 0.19354658
0.018634796 0.0055605248 0.19359893
0.018634796 0.0064497069 0.1935719
0.019523978 0.0064497069 0.19366126
0.018634796 0.0073388889 0.19360627
0.019523978 0.0073388889 0.19365075
0.016856432 0.008228071 0.19357122
0.017745614 0.008228071 0.1935834
0.016856432 0.0091172531 0.19356063
0.017745614 0.0091172531 0.19357511
0.018634796 0.008228071 0.19361272
0.019523978 0.008228071 0.19367458
0.018634796 0.0091172531 0.1936105
0.019523978 0.0091172531 0.19367728
0.02041316 0.0064497069 0.19370224
0.021302342 0.0064497069 0.1936291
0.02041316 0.0073388889 0.19366291
0.021302342 0.0073388889 0.19363825
0.022191525 0.0064497069 0.19361559
0.023080707 0.0064497069 0.19359817
0.022191525 0.0073388889 0.19361651
0.023080707 0.0073388889 0.19359136
0.02041316 0.008228071 0.1936335
0.021302342 0.008228071 0.19363615
0.02041316 0.0091172531 0.19366443
0.021302342 0.0091172531 0.19364311
0.022191525 0.008228071 0.19365731
0.023080707 0.008228071 0.19362688
0.022191525 0.0091172531 0.19363098
0.023080707 0.0091172531 0.19364211
0.024548799 0.0020038038 0.19354185
0.024859056 0.0028899834 0.19354185
0.024859056 0.0020038038 0.19350064
0.023080707 0.0020038038 0.19363371
0.023080707 0.0028929859 0.19363236
0.023969874 0.0020038038 0.19359715
0.023969874 0.0028929859 0.19362335
0.024859056 0.0028929859 0.19354215
0.023969874 0.003782168 0.1936035
0.024859056 0.003782168 0.19358839
0.024860665 0.0028929859 0.19354185
0.025748238 0.0020038038 0.19338998
0.025748238 0.0028929859 0.19341196
0.02663742 0.0020038038 0.19329615
0.02663742 0.0028929859 0.19332027
0.025133803 0.003782168 0.19354185
0.025748238 0.003782168 0.19343595
0.02663742 0.003782168 0.1933053
0.023969874 0.0046713501 0.19359615
0.024859056 0.0046713501 0.1935901
0.023969874 0.0055605248 0.19364519
0.024859056 0.0055605248 0.19359644
0.025152311 0.0046713501 0.19354185
0.025748238 0.0046713501 0.19341597
0.02663742 0.0046713501 0.19327496
0.025183678 0.0055605248 0.19354185
0.025748238 0.0055605248 0.19342078
0.02663742 0.0055605248 0.19327834
0.023969874 0.0064497069 0.19365378
0.024859056 0.0064497069 0.19361562
0.023969874 0.0073388889 0.19360232
0.024859056 0.0073388889 0.19357508
0.025243536 0.0064497069 0.19354185
0.025748238 0.0064497069 0.1934402
0.02663742 0.0064497069 0.19329843
0.02511017 0.0073388889 0.19354185
0.025748238 0.0073388889 0.19344702
0.02663742 0.0073388889 0.19330153
0.024799243 0.0091172531 0.19354185
0.024859056 0.0089669898 0.19354185
0.024859056 0.0091172531 0.19353336
0.023969874 0.008228071 0.19361879
0.024859056 0.008228071 0.19355032
0.023969874 0.0091172531 0.19362763
0.016856432 0.0094131008 0.19354185
0.016856432 0.010006435 0.19352043
0.017325088 0.010006435 0.19354185
0.016856432 0.01089561 0.1935364
0.0169577 0.01089561 0.19354185
0.017745614 0.010006435 0.19357425
0.017745614 0.01089561 0.19358094
0.018634796 0.010006435 0.19364804
0.019523978 0.010006435 0.19363798
0.018634796 0.01089561 0.1936186
0.019523978 0.01089561 0.19360496
0.016856432 0.011011049 0.19354185
0.016856432 0.011784792 0.19357239
0.017745614 0.011784792 0.19358109
0.016856432 0.012673974 0.19357622
0.017745614 0.012673974 0.19357117
0.018634796 0.011784792 0.19359678
0.019523978 0.011784792 0.19360673
0.018634796 0.012673974 0.19358395
0.019523978 0.012673974 0.19360931
0.02041316 0.010006435 0.19364525
0.021302342 0.010006435 0.19364297
0.02041316 0.01089561 0.1935989
0.021302342 0.01089561 0.19362502
0.022191525 0.010006435 0.19359168
0.023080707 0.010006435 0.19360425
0.022191525 0.01089561 0.19363908
0.023080707 0.01089561 0.19362517
0.02041316 0.011784792 0.1936215
0.021302342 0.011784792 0.19359666
0.02041316 0.012673974 0.19360541
0.021302342 0.012673974 0.19357224
0.022191525 0.011784792 0.193616
0.023080707 0.011784792 0.19367111
0.022191525 0.012673974 0.19357677
0.023080707 0.012673974 0.19360578
0.016772881 0.013563149 0.19354185
0.016860574 0.013563149 0.19354185
0.017745614 0.013496481 0.19354185
0.017745614 0.013563149 0.19353981
0.016856432 0.013662361 0.19354185
0.016856432 0.014452331 0.19350173
0.017745614 0.014452331 0.19349574
0.016856432 0.013563149 0.19354641
0.018512905 0.013563149 0.19354185
0.018634796 0.013669439 0.19354185
0.018634796 0.014452331 0.19352233
0.019523978 0.014091052 0.19354185
0.019523978 0.014452331 0.19352731
0.018634796 0.013563149 0.19354777
0.019523978 0.013563149 0.19357754
0.016856432 0.015341513 0.1934675
0.017745614 0.015341513 0.19347095
0.016856432 0.016230695 0.19343674
0.017745614 0.016230695 0.19345449
0.018634796 0.015341513 0.1935046
0.019523978 0.015341513 0.19349955
0.018634796 0.016230695 0.19345976
0.019523978 0.016230695 0.19347939
0.02036722 0.014452331 0.19354185
0.02041316 0.013563149 0.19356671
0.021302342 0.013563149 0.19357638
0.02041316 0.014452331 0.19354418
0.021302342 0.014452331 0.19361062
0.022191525 0.013563149 0.19362268
0.023080707 0.013563149 0.19356647
0.022191525 0.014452331 0.19364589
0.023080707 0.014452331 0.19356607
0.02041316 0.014479212 0.19354185
0.02041316 0.015341513 0.19352302
0.020640805 0.015341513 0.19354185
0.02041316 0.016230695 0.19353551
0.021302342 0.015886076 0.19354185
0.021302342 0.016230695 0.19352329
0.021302342 0.015341513 0.19357118
0.022895351 0.015341513 0.19354185
0.023080707 0.015174665 0.19354185
0.023080707 0.015341513 0.19353604
0.022191525 0.015532114 0.19354185
0.022191525 0.016230695 0.1934936
0.023080707 0.016230695 0.19351582
0.022191525 0.015341513 0.19356167
0.024147481 0.010006435 0.19354185
0.024859056 0.010006435 0.19347852
0.023877546 0.01089561 0.19354185
0.023969874 0.010290667 0.19354185
0.023969874 0.01089561 0.19353114
0.024859056 0.01089561 0.19347459
0.023969874 0.010006435 0.19355811
0.023969874 0.011309989 0.19354185
0.024108618 0.011784792 0.19354185
0.024859056 0.011784792 0.19348082
0.024158299 0.012673974 0.19354185
0.024859056 0.012673974 0.19351013
0.023969874 0.011784792 0.19356337
0.023969874 0.012673974 0.19355208
0.023225158 0.013563149 0.19354185
0.023969874 0.012809597 0.19354185
0.023969874 0.013563149 0.19349097
0.024859056 0.013563149 0.1935048
0.023240924 0.014452331 0.19354185
0.023969874 0.014452331 0.19348595
0.024859056 0.014452331 0.19348587
0.0026295409 0.017119877 0.19364953
0.003518723 0.017119877 0.19360833
0.0026295409 0.018009059 0.19365093
0.003518723 0.018009059 0.19360341
0.004407905 0.017119877 0.1936087
0.0052970797 0.017119877 0.19359843
0.004407905 0.018009059 0.1935713
0.0052970797 0.018009059 0.19356419
0.0060588494 0.018009059 0.19354185
0.0061862618 0.017817982 0.19354185
0.0061862618 0.018009059 0.19353625
0.0070754439 0.017308868 0.19354185
0.0070754439 0.018009059 0.19351614
0.0061862618 0.017119877 0.19357266
0.0070754439 0.017119877 0.19355249
-0.023298711 -0.026449986 0.007703051
-0.023744345 -0.026449986 0.0094814133
-0.023156703 -0.026549429 0.007703051
-0.023156703 -0.026898757 0.0094814133
-0.023909099 -0.026449986 0.011259776
-0.023156703 -0.027018748 0.011259776
-0.02046641 -0.028228343 0.007703051
-0.02104748 -0.028228343 0.0094814133
-0.019599982 -0.028643958 0.007703051
-0.019599982 -0.028928019 0.0094814133
-0.021378346 -0.02773869 0.007703051
-0.021378346 -0.028055191 0.0094814133
-0.021219529 -0.028228343 0.011259776
-0.019599982 -0.02902995 0.011259776
-0.021378346 -0.028144471 0.011259776
-0.023997948 -0.026449986 0.013038136
-0.023156703 -0.027064018 0.013038136
-0.024078622 -0.026449986 0.014816498
-0.023156703 -0.027113818 0.014816498
-0.021257162 -0.028228343 0.013038136
-0.019599982 -0.02904845 0.013038136
-0.021378346 -0.02816461 0.013038136
-0.021321066 -0.028228343 0.014816498
-0.019599982 -0.029076457 0.014816498
-0.021378346 -0.028198354 0.014816498
-0.016817987 -0.030006707 0.0094814133
-0.016043261 -0.030281208 0.0094814133
-0.016043261 -0.030006707 0.0078643411
-0.017129831 -0.030006707 0.011259776
-0.016043261 -0.030365683 0.011259776
-0.015928276 -0.030006707 0.007703051
-0.014264897 -0.030460104 0.007703051
-0.014264897 -0.030763999 0.0094814133
-0.012486532 -0.030785359 0.007703051
-0.012486532 -0.031086817 0.0094814133
-0.014264897 -0.030834794 0.011259776
-0.012486532 -0.031152822 0.011259776
-0.017821617 -0.029368535 0.007703051
-0.017821617 -0.029648595 0.0094814133
-0.016043261 -0.029968947 0.007703051
-0.017821617 -0.029759213 0.011259776
-0.017228924 -0.030006707 0.013038136
-0.016043261 -0.030380987 0.013038136
-0.017312877 -0.030006707 0.014816498
-0.016043261 -0.030406415 0.014816498
-0.014264897 -0.030834079 0.013038136
-0.012486532 -0.031150535 0.013038136
-0.014264897 -0.03084591 0.014816498
-0.012486532 -0.031157076 0.014816498
-0.017821617 -0.029793374 0.013038136
-0.017821617 -0.029822774 0.014816498
-0.010708176 -0.031018667 0.007703051
-0.010708176 -0.031319305 0.0094814133
-0.0089298114 -0.03118284 0.007703051
-0.0089298114 -0.031478092 0.0094814133
-0.010708176 -0.031373657 0.011259776
-0.0089298114 -0.03152357 0.011259776
-0.0071514472 -0.031242028 0.007703051
-0.0071514472 -0.031554438 0.0094814133
-0.0053730905 -0.031255797 0.007703051
-0.0053730905 -0.031573042 0.0094814133
-0.0071514472 -0.03159342 0.011259776
-0.0053730905 -0.031635404 0.011259776
-0.010708176 -0.031379543 0.013038136
-0.0089298114 -0.031526305 0.013038136
-0.010708176 -0.031383216 0.014816498
-0.0089298114 -0.031518616 0.014816498
-0.0071514472 -0.031590067 0.013038136
-0.0053730905 -0.031644076 0.013038136
-0.0071514472 -0.031591557 0.014816498
-0.0053730905 -0.031634957 0.014816498
-0.0035947263 -0.031272724 0.007703051
-0.0035947263 -0.031588234 0.0094814133
-0.0018163621 -0.03127221 0.007703051
-0.0018163621 -0.031586386 0.0094814133
-0.0035947263 -0.031653866 0.011259776
-0.0018163621 -0.031681001 0.011259776
-3.8005412e-05 -0.031357072 0.007703051
-3.8005412e-05 -0.031650104 0.0094814133
0.0017403588 -0.031454198 0.007703051
0.0017403588 -0.031724192 0.0094814133
-3.8005412e-05 -0.031723991 0.011259776
0.0017403588 -0.031762138 0.011259776
-0.0035947263 -0.031672493 0.013038136
-0.0018163621 -0.031690173 0.013038136
-0.0035947263 -0.031670183 0.014816498
-0.0018163621 -0.031706102 0.014816498
-3.8005412e-05 -0.031726077 0.013038136
0.0017403588 -0.031774469 0.013038136
0.0016350076 -0.031785071 0.014816498
0.0017403588 -0.03178829 0.014816498
0.0017403588 -0.031785071 0.014509922
-3.8005412e-05 -0.031737626 0.014816498
-0.027131572 -0.022893257 0.007703051
-0.026713431 -0.023407966 0.007703051
-0.026713431 -0.022893257 0.0061949976
-0.027789831 -0.021114901 0.0059246905
-0.026713431 -0.022717111 0.0059246905
-0.026713431 -0.021114901 0.0041654352
-0.028681591 -0.019336537 0.0059246905
-0.028491788 -0.019785546 0.0059246905
-0.028491788 -0.019336537 0.0055337846
-0.027672462 -0.019336537 0.0041463282
-0.026713431 -0.021091521 0.0041463282
-0.02827587 -0.021114901 0.007703051
-0.029212043 -0.019336537 0.007703051
-0.028491788 -0.02073364 0.007703051
-0.030363619 -0.015779816 0.007703051
-0.030270152 -0.016218118 0.007703051
-0.030270152 -0.015779816 0.0073647276
-0.029304169 -0.017558172 0.0059246905
-0.028491788 -0.017558172 0.0043433998
-0.028370567 -0.017558172 0.0041463282
-0.02886495 -0.015779816 0.0041463282
-0.029771335 -0.015779816 0.0059246905
-0.028491788 -0.017175503 0.0041463282
-0.029870644 -0.017558172 0.007703051
-0.027282842 -0.022893257 0.0094814133
-0.026713431 -0.02360744 0.0094814133
-0.027425528 -0.022893257 0.011259776
-0.026713431 -0.02378583 0.011259776
-0.028445974 -0.021114901 0.0094814133
-0.029397696 -0.019336537 0.0094814133
-0.028491788 -0.021034449 0.0094814133
-0.028587766 -0.021114901 0.011259776
-0.028491788 -0.021280371 0.011259776
-0.028491788 -0.021114901 0.010020135
-0.02953238 -0.019336537 0.011259776
-0.027557202 -0.022893257 0.013038136
-0.026713431 -0.023926497 0.013038136
-0.02769842 -0.022893257 0.014816498
-0.026713431 -0.024069741 0.014816498
-0.028712802 -0.021114901 0.013038136
-0.028491788 -0.021495514 0.013038136
-0.029657058 -0.019336537 0.013038136
-0.028844401 -0.021114901 0.014816498
-0.028491788 -0.021722563 0.014816498
-0.02980186 -0.019336537 0.014816498
-0.030697219 -0.015779816 0.0094814133
-0.030270152 -0.017162129 0.0094814133
-0.030838206 -0.015779816 0.011259776
-0.030270152 -0.017552353 0.011259776
-0.030128479 -0.017558172 0.0094814133
-0.030268051 -0.017558172 0.011259776
-0.030705251 -0.014001451 0.007703051
-0.031115547 -0.014001451 0.0094814133
-0.03096588 -0.012223087 0.007703051
-0.031380601 -0.012223087 0.0094814133
-0.031254165 -0.014001451 0.011259776
-0.031531371 -0.012223087 0.011259776
-0.030378476 -0.017558172 0.013038136
-0.030270152 -0.017854966 0.013038136
-0.030270152 -0.017558172 0.01129747
-0.030952886 -0.015779816 0.013038136
-0.030524127 -0.017558172 0.014816498
-0.030270152 -0.018254615 0.014816498
-0.031098835 -0.015779816 0.014816498
-0.031369373 -0.014001451 0.013038136
-0.031648986 -0.012223087 0.013038136
-0.031514838 -0.014001451 0.014816498
-0.031768471 -0.012223087 0.014816498
-0.031122409 -0.010444731 0.007703051
-0.031530082 -0.010444731 0.0094814133
-0.031221896 -0.0086663663 0.007703051
-0.031602859 -0.0086663663 0.0094814133
-0.031695016 -0.010444731 0.011259776
-0.031793691 -0.0086663663 0.011259776
-0.03133174 -0.0068880022 0.007703051
-0.0317045 -0.0068880022 0.0094814133
-0.031462438 -0.0051096454 0.007703051
-0.031829804 -0.0051096454 0.0094814133
-0.031906568 -0.0068880022 0.011259776
-0.032026105 -0.0051096454 0.011259776
-0.03184098 -0.010444731 0.013038136
-0.031947181 -0.0086663663 0.013038136
-0.031966828 -0.010444731 0.014816498
-0.03209766 -0.0086663663 0.014816498
-0.032048516 -0.0094869062 0.014816498
-0.032048516 -0.0086663663 0.014269141
-0.032049708 -0.0068880022 0.013038136
-0.032048516 -0.006904155 0.013038136
-0.032048516 -0.0068880022 0.013020493
-0.032151617 -0.0051096454 0.013038136
-0.032048516 -0.0051096454 0.011524552
-0.032196619 -0.0068880022 0.014816498
-0.032276317 -0.0051096454 0.014816498
-0.031573556 -0.0033312812 0.007703051
-0.031936869 -0.0033312812 0.0094814133
-0.031681165 -0.0015529171 0.007703051
-0.032037191 -0.0015529171 0.0094814133
-0.032122456 -0.0033312812 0.011259776
-0.032048516 -0.0047069043 0.011259776
-0.032048516 -0.0033312812 0.010428077
-0.032198757 -0.0015529171 0.011259776
-0.032048516 -0.0015529171 0.0095835831
-0.032073013 0.00022543967 0.0094814133
-0.032048516 -0.0010671392 0.0094814133
-0.032048516 0.00022543967 0.0092746653
-0.031717904 0.00022543967 0.007703051
-0.032075696 0.0020038038 0.0094814133
-0.032048516 0.0020038038 0.0092867967
-0.03171315 0.0020038038 0.007703051
-0.032236904 0.00022543967 0.011259776
-0.03225214 0.0020038038 0.011259776
-0.032230332 -0.0033312812 0.013038136
-0.03230083 -0.0015529171 0.013038136
-0.032332115 -0.0033312812 0.014816498
-0.032379448 -0.0015529171 0.014816498
-0.032341145 0.00022543967 0.013038136
-0.032350719 0.0020038038 0.013038136
-0.032404758 0.00022543967 0.014816498
-0.032410793 0.0020038038 0.014816498
-0.023464665 -0.024671622 0.0041463282
-0.024819039 -0.024671622 0.0059246905
-0.023156703 -0.024924204 0.0041463282
-0.023156703 -0.025943667 0.0059246905
-0.025306821 -0.022893257 0.0041463282
-0.026567101 -0.022893257 0.0059246905
-0.024935067 -0.023285121 0.0041463282
-0.024935067 -0.02457121 0.0059246905
-0.025520287 -0.024671622 0.007703051
-0.024935067 -0.025197007 0.007703051
-0.024935067 -0.024671622 0.0061146598
-0.023156703 -0.026449986 0.0073807538
-0.026698478 -0.021114901 0.0041463282
-0.02574005 -0.024671622 0.0094814133
-0.024935067 -0.025442787 0.0094814133
-0.025901727 -0.024671622 0.011259776
-0.024935067 -0.025590077 0.011259776
-0.026016153 -0.024671622 0.013038136
-0.024935067 -0.025682032 0.013038136
-0.026126631 -0.024671622 0.014816498
-0.024935067 -0.02575583 0.014816498
-0.026837043 -0.026449986 0.037935201
-0.026713431 -0.026564181 0.037935201
-0.026713431 -0.026449986 0.0366081
-0.027003296 -0.026449986 0.039713562
-0.026713431 -0.026714638 0.039713562
-0.027174726 -0.026449986 0.041491926
-0.026713431 -0.026864171 0.041491926
-0.027294897 -0.026449986 0.043270286
-0.026713431 -0.026966035 0.043270286
