# .PCD v0.7 - Point Cloud Data file format
VERSION 0.7
FIELDS x y z
SIZE 4 4 4
TYPE F F F
COUNT 1 1 1
WIDTH 1020
HEIGHT 1
VIEWPOINT 0 0 0 1 0 0 0
POINTS 1020
DATA ascii
0.024870165 -0.030033607 0.19122297
0.031856164 -0.023286832 0.19207454
0.026571609 -0.031219307 0.1882984
0.034316685 -0.026006332 0.18901101
0.027697941 -0.032632746 0.1840418
0.035429053 -0.027398242 0.18475324
0.032281112 -0.031967882 0.17917672
0.03729561 -0.025204457 0.17994922
0.023314295 -0.0210429 0.19291478
0.031301454 -0.015131899 0.19336689
0.033196192 -0.012471939 0.19287825
0.018426957 -0.031112028 0.19082794
0.024731563 -0.023596374 0.19289756
0.032695796 -0.017529173 0.19237092
0.035599198 -0.014028546 0.19009358
0.036168687 -0.010197564 0.18940422
0.023791641 -0.031730931 0.18738562
0.021541968 -0.033052444 0.18255326
0.037436232 -0.021971606 0.1811398
0.02634668 -0.033175375 0.17854893
0.035612687 -0.027517648 0.17628327
0.026632899 -0.03323729 0.17479321
0.034386963 -0.027758058 0.1723721
0.010349271 -0.029169299 0.19269848
0.01645189 -0.023560306 0.19343159
0.023722645 -0.015291852 0.19253772
0.031458084 -0.0091993762 0.19295257
0.033943202 -0.0054748068 0.19168821
0.036541604 -0.0015503801 0.18998447
0.0088912817 -0.033130392 0.18823409
0.012354672 -0.032098789 0.18970945
0.036246844 -0.0080973739 0.18803453
0.037202865 -0.0031412784 0.18707547
0.0094255339 -0.033817552 0.18605256
0.013729094 -0.033544242 0.18474722
0.037028763 -0.013686284 0.18237457
0.036703367 -0.0088187689 0.18291783
0.018733602 -0.03319848 0.18026736
0.036952808 -0.014674382 0.17881688
0.036346063 -0.010924158 0.17800826
0.023262188 -0.033036139 0.17598361
0.036613919 -0.016153429 0.17450699
0.024458718 -0.032678753 0.17121437
0.034249697 -0.025572192 0.16938236
0.036432445 -0.016983373 0.17094022
0.030295288 -0.030918119 0.16604561
0.034952246 -0.022803267 0.16553107
0.034142677 -0.028166294 0.16080582
0.033899363 -0.0295748 0.15770766
0.0058984673 -0.024372917 0.192891
0.0086572077 -0.021634828 0.19271708
0.01530267 -0.015097936 0.1923255
0.023917384 -0.0078667328 0.19312531
0.02723445 -0.0050441353 0.19331646
0.029702153 -0.00092436001 0.19238195
0.03250283 0.0028700558 0.19173217
0.034695029 0.0058029462 0.19093719
0.0049884543 -0.029946227 0.19113755
0.0075401412 -0.02853908 0.19307968
0.017448822 -0.017284984 0.19239405
0.03608948 0.0012240093 0.19030961
0.037477259 0.0042158104 0.18855512
0.0050456766 -0.031983361 0.18701985
0.037745234 -0.00032744557 0.18498826
0.037953727 0.0029263236 0.18343171
0.0071533201 -0.033146903 0.18259594
0.011085887 -0.033570383 0.18206015
0.03638728 -0.0075267013 0.17911896
0.037037954 -0.0024799407 0.18061137
0.0374684 0.001624193 0.18065155
0.008323567 -0.033259019 0.17891827
0.012369053 -0.033717595 0.17747936
0.036250155 -0.0080354763 0.17537913
0.036323443 -0.0036289021 0.17582279
0.01750977 -0.034030769 0.17308709
0.036824748 -0.013998451 0.17146659
0.036738962 -0.0094045904 0.17099833
0.018180784 -0.033534072 0.16882473
0.037152614 -0.010570935 0.16759744
0.01935453 -0.033628777 0.16471007
0.035358328 -0.020126984 0.16420346
0.020694301 -0.033685755 0.16041523
0.034706727 -0.025935084 0.15805638
0.035201922 -0.01739195 0.15949571
0.029575545 -0.032294761 0.15475947
0.035008285 -0.023321014 0.15423295
0.033624835 -0.028336847 0.14963257
0.037575334 0.0205271 0.19558236
-0.0013523018 -0.025752965 0.19124222
0.0022040363 -0.022931078 0.19256598
0.0055836025 -0.018566035 0.19261253
0.012453108 -0.012174391 0.192559
0.019533819 -0.0045089354 0.19272712
0.022971433 -0.00055333506 0.19316864
0.025997899 0.0030384036 0.19270509
0.029692564 0.0059031984 0.19193071
0.033171233 0.0097471951 0.19072136
0.035589471 0.013207218 0.18906015
-0.0035675056 -0.031549726 0.18856859
0.00055169407 -0.029804066 0.18990195
0.0363423 0.0082512572 0.18665427
0.037218925 0.011281502 0.18512541
-0.0016142819 -0.032927707 0.1847423
0.0016940897 -0.032214735 0.18621615
0.036605291 0.0071878042 0.18130812
0.037037067 0.0090357969 0.18152583
-0.00046492182 -0.033824153 0.18058532
0.0029498888 -0.033274651 0.18127766
0.037726767 0.0031612981 0.17818397
0.0047354773 -0.033554934 0.17663306
0.037050217 -0.002013592 0.17396128
0.037702978 0.002219798 0.17309591
0.0058789225 -0.033591937 0.17158163
0.0088124033 -0.033355854 0.17139503
0.037441261 -0.0033958312 0.16925818
0.0378781 0.0007619001 0.17018032
0.010937942 -0.034182452 0.16662142
0.036923259 -0.0094488133 0.1644336
0.037541024 -0.0052159429 0.16494295
0.013394547 -0.034719367 0.16237479
0.035524566 -0.013915543 0.1603604
0.036101766 -0.010577892 0.16054317
0.017980918 -0.033961616 0.15814695
0.034861192 -0.01530013 0.15640974
0.023279179 -0.033041403 0.15376413
0.035122577 -0.017106723 0.1522935
0.028120402 -0.031647284 0.14804003
0.03560641 -0.022114456 0.14735031
0.02461171 -0.031965628 0.14533275
0.033171907 -0.028803516 0.14401641
0.032659031 -0.028922487 0.1391201
0.025794975 0.017173499 0.19527072
0.030177437 0.020505492 0.19454017
0.032838799 0.022252353 0.19477767
-0.009746735 -0.023248479 0.19346949
-0.0074362899 -0.02109937 0.19338933
-0.0034943805 -0.017205678 0.19375968
0.00051097944 -0.013461122 0.19300044
0.00352278 -0.0098155178 0.19250771
0.011106331 -0.0040381276 0.19283178
0.01514929 -0.00031228177 0.19270751
0.018586718 0.0045027584 0.1925779
0.021555582 0.0073014335 0.19245738
0.024634402 0.011348705 0.19198978
0.028126156 0.014251666 0.1927132
0.031448729 0.017874913 0.19258147
0.034748018 0.021476399 0.19181421
-0.01121275 -0.028701331 0.18990096
-0.0088899694 -0.02642525 0.19160607
-0.0047535505 -0.024075015 0.1923874
-0.0014532516 -0.020030066 0.19281375
0.0024620243 -0.015455529 0.19240028
0.0093796216 -0.009032229 0.19262332
0.016281195 -0.0026426548 0.19239902
0.02729121 0.0084743295 0.19161472
0.031229366 0.013409593 0.1908915
0.034933895 0.016282063 0.18998429
0.03741511 0.02048531 0.18823823
0.039493371 0.022851858 0.18796515
-0.012838997 -0.034078311 0.1853174
-0.0099826939 -0.032099336 0.18713331
-0.0067627802 -0.029190719 0.18961242
-0.0036760401 -0.02720199 0.19037801
0.037526548 0.0148024 0.18481633
0.03857673 0.018320194 0.18321019
0.041578375 0.022051066 0.18260884
-0.011926007 -0.035185672 0.18251729
-0.0087180408 -0.033628851 0.18239668
-0.0049612243 -0.033064492 0.18343589
0.036941171 0.011769892 0.17926633
0.038549021 0.018981842 0.1801945
0.040759403 0.021216247 0.18003654
-0.0070469361 -0.034606084 0.17739606
-0.003586866 -0.033915147 0.1785019
0.036832109 0.006710602 0.17517951
0.037122432 0.0096425191 0.17518309
-0.0063277856 -0.035418805 0.1741254
-0.0022498611 -0.034252807 0.17403167
0.0020429343 -0.034050614 0.17388886
0.036994494 0.0063684862 0.17077854
0.036774855 0.0089182332 0.17037657
-0.0011561867 -0.034041181 0.16926938
0.0023821006 -0.033577338 0.17008314
0.037329175 0.0031544864 0.16691309
0.0040164674 -0.033962142 0.1651701
0.0082102511 -0.034210466 0.16451791
0.03678821 -0.0022267867 0.16219276
0.037374947 0.0019195862 0.16231412
0.0049425494 -0.034255028 0.16030398
0.0088632433 -0.034319319 0.15980315
0.036009766 -0.0075060949 0.15811044
0.036098383 -0.0032232776 0.15739608
0.011415481 -0.033985104 0.15550101
0.034765005 -0.012659723 0.15407914
0.035722837 -0.0091219153 0.15363827
0.036491856 -0.0054147523 0.15208849
0.012414118 -0.033428922 0.15125906
0.035402313 -0.014434987 0.15019366
0.036243625 -0.010178095 0.14899001
0.021503674 -0.032453395 0.14668268
0.036218755 -0.011177146 0.14547101
0.022313761 -0.032346994 0.14233613
0.036145631 -0.021673104 0.13955471
0.023655342 -0.032894433 0.13753545
0.03175097 -0.0291648 0.13625127
0.035959948 -0.019366052 0.13633221
0.028327929 -0.031761505 0.13226801
0.034073852 -0.025235949 0.13157111
0.032151666 -0.029491978 0.12799722
0.020135779 0.017582271 0.19748169
0.02310887 0.017892778 0.19847867
0.014193941 0.009859981 0.19318399
0.017479181 0.012150976 0.19341597
0.021036899 0.015629204 0.19481909
0.024657212 0.018027935 0.19535786
0.027994288 0.021160768 0.19476962
-0.015977809 -0.024655594 0.19228166
-0.01298447 -0.02229926 0.19360232
-0.0095868595 -0.018926179 0.19430423
-0.0055621141 -0.015110821 0.1944364
-0.0019444698 -0.010958584 0.19364434
0.0015628815 -0.0077909371 0.1931721
0.0081324633 -0.00096130907 0.19300643
0.011482982 0.002376229 0.19278827
0.014773587 0.0061593615 0.19264829
0.019799843 0.010229053 0.1929014
0.022795048 0.013374469 0.19309014
0.027166665 0.017908603 0.19272327
-0.017950846 -0.029686721 0.18829027
-0.014768111 -0.027736107 0.19011185
-0.01818523 -0.035354845 0.18745142
-0.015937086 -0.032347806 0.18639463
-0.013943032 -0.030626863 0.18786585
-0.014087897 -0.035301417 0.18261647
-0.010448317 -0.034619786 0.18007672
0.036159292 0.014453582 0.17581555
0.036936782 0.017982503 0.17683616
0.040459078 0.020988919 0.17668974
-0.01291716 -0.035683285 0.17584822
-0.010073056 -0.034688756 0.17701504
0.036465108 0.013411796 0.17226067
0.036784612 0.018359104 0.17271739
0.040105075 0.021762263 0.17332867
-0.014991894 -0.03978385 0.17136177
-0.011934085 -0.036975548 0.17165509
-0.0079946723 -0.036190242 0.17193595
0.036607388 0.011744036 0.16800058
-0.0074366266 -0.035626885 0.16752976
-0.0038122172 -0.034572504 0.16755617
0.036735285 0.0064016087 0.16412526
0.036598492 0.0098059932 0.16370222
-0.0023490153 -0.034264546 0.16340381
0.00069451332 -0.033659719 0.16191316
0.03679011 0.0054087471 0.15995243
0.036462914 0.0088819312 0.15996653
-0.0013757981 -0.034055788 0.15932629
0.0027873293 -0.034192905 0.15857619
0.036342539 -0.0012527015 0.15556794
0.036996193 0.0023124553 0.15594122
0.0041210894 -0.033915684 0.15411049
0.0076407883 -0.033923082 0.15331334
0.036771975 -0.0022684801 0.15155399
0.037378419 0.00055008382 0.15133324
0.0094274869 -0.033430379 0.14837924
0.037032336 -0.0085521787 0.1463756
0.037091859 -0.0042609405 0.14679566
0.011590299 -0.033258416 0.14421171
0.035631463 -0.0095535805 0.14213744
0.036403313 -0.0057282764 0.14272204
0.035482783 -0.014191408 0.1381411
0.035459686 -0.01129314 0.1380353
0.020898659 -0.033307329 0.13574341
0.018922504 -0.033798818 0.1321944
0.027342336 -0.032363392 0.12965459
0.035508744 -0.018864397 0.13037246
0.0280455 -0.032464646 0.12595254
0.034127485 -0.025154589 0.1253767
0.024568032 -0.033339124 0.1230551
0.031953722 -0.02970585 0.12077141
0.029736534 -0.032181147 0.11716813
0.012862641 0.017135151 0.19490221
0.016589148 0.017850349 0.19600534
-0.020136857 -0.021153608 0.19520733
-0.017498009 -0.017861314 0.19442683
-0.014201096 -0.014996323 0.19394001
-0.0098304162 -0.010199201 0.19360757
-0.006567793 -0.0063469438 0.19342858
-0.0029486686 -0.0032138566 0.19340646
0.00077121618 -0.00018981623 0.19347289
0.0037460842 0.0035569293 0.19292277
0.0072676102 0.0067683384 0.19282773
0.010181196 0.010145539 0.1926063
0.013880467 0.014829613 0.19357094
0.017400756 0.01693124 0.19489354
-0.021804757 -0.025777183 0.1911265
-0.018618543 -0.024269171 0.1929135
-0.016249023 -0.021338422 0.1937269
-0.02037444 -0.028852109 0.18817326
-0.020066317 -0.031692442 0.18405566
-0.020448044 -0.031825248 0.17837313
-0.015082216 -0.035040937 0.17464021
0.03676118 0.018683555 0.16968852
0.038534902 0.022624973 0.16946283
-0.014140359 -0.037537675 0.16875049
0.036360271 0.013866329 0.16498864
0.036805533 0.018094525 0.16499114
0.03876102 0.022656541 0.16547722
-0.012772555 -0.036374032 0.16546673
-0.0094416793 -0.036109 0.16503286
0.036216997 0.013299482 0.1609734
0.036072168 0.016374588 0.15986952
-0.012714838 -0.037000105 0.16092116
-0.0088195996 -0.035317492 0.16073912
-0.0051555559 -0.034011479 0.16017908
0.035936721 0.0070015602 0.15690356
0.035896163 0.011278019 0.15702251
-0.0077579757 -0.034718808 0.15687573
-0.0040586488 -0.033916488 0.15619123
1.665391e-05 -0.033465981 0.15585703
0.035619587 0.0071965139 0.15288007
0.035306141 0.0099050784 0.1532827
-0.00248829 -0.033623938 0.15102819
0.00034222566 -0.033216693 0.15169713
0.036494531 0.0043575559 0.14948088
0.0024559787 -0.032927986 0.14753681
0.005955263 -0.033350382 0.14608705
0.036862403 -0.001534218 0.14361748
0.036739506 0.0021428447 0.14452863
0.0031880261 -0.033107996 0.14279273
0.0074354773 -0.033301137 0.14233711
0.035452928 -0.0071840035 0.13922465
0.036242686 -0.0033669211 0.1395067
0.036726855 0.00082001649 0.1404233
0.0097449301 -0.032883234 0.13813418
0.035365377 -0.0083961999 0.1359854
0.03591121 -0.0043669287 0.13507652
0.034553736 -0.010300792 0.13122559
0.03493461 -0.016432621 0.12754852
0.035289381 -0.013158251 0.1265316
0.020811586 -0.033961616 0.12448829
0.035493411 -0.014161727 0.12303203
0.026940079 -0.032616027 0.11895603
0.0348818 -0.019772124 0.11894625
0.027841693 -0.032936338 0.11553794
0.033907965 -0.024920858 0.11494046
0.027413229 -0.0324165 0.1115858
0.033461384 -0.025537882 0.11090249
0.0036624894 0.020037636 0.19750434
-0.022509461 -0.010667631 0.19573247
-0.020919731 -0.0099528674 0.19601727
0.0017113122 0.01418425 0.19443834
0.0045607393 0.016943989 0.19529006
0.0088435225 0.018356994 0.19589809
-0.028328143 -0.023204688 0.19173294
-0.021770217 -0.013708453 0.19460124
-0.018309474 -0.010473025 0.19323516
-0.015199512 -0.00679855 0.19308126
-0.011320471 -0.0027070884 0.19365144
-0.0072493418 0.0011391449 0.19347966
-0.00091984053 0.0083528878 0.19265595
0.0030936841 0.011120214 0.19294745
0.0070859971 0.013892965 0.19322801
0.0095759723 0.015949756 0.19417861
-0.029078849 -0.026741132 0.18859473
-0.026309922 -0.027873822 0.18536168
0.038844313 0.025288034 0.16329348
0.036773074 0.01912459 0.15881506
0.038269505 0.02314393 0.15960717
-0.015449027 -0.036638357 0.15715426
-0.011576706 -0.035433508 0.15747175
0.03557881 0.013570065 0.15410036
0.036352832 0.017915439 0.15408117
0.037669148 0.022802018 0.15548795
-0.015194203 -0.03665622 0.15460443
-0.010552525 -0.034803145 0.15355316
-0.0064828442 -0.034021512 0.15327871
0.035368368 0.012377096 0.14992613
0.035508513 0.016675364 0.14997685
-0.0095220711 -0.033597112 0.14981318
-0.0059971437 -0.033682987 0.14950091
0.035351168 0.0072340807 0.14607862
0.035209704 0.01067948 0.14560103
-0.0041778162 -0.033154532 0.14557141
-0.0011019185 -0.032659456 0.14493787
0.035307728 0.0071035642 0.14133358
0.035246171 0.0095260562 0.14102346
0.00018027425 -0.03323324 0.14025304
0.036117218 0.0037248377 0.13767686
0.0016659778 -0.033044733 0.13570327
0.0051637273 -0.032733873 0.13628322
0.035938412 -0.0025293529 0.13315725
0.036201499 0.0020432509 0.13318977
0.0066146581 -0.03217848 0.13161743
0.010228004 -0.031877033 0.13190117
0.034170978 -0.0086567122 0.12784719
0.034833945 -0.0043006679 0.12915766
0.035407454 -0.00056648254 0.1289669
0.0080311513 -0.032285344 0.1272034
0.011390368 -0.032262385 0.12683338
0.034922242 -0.0095964642 0.12482411
0.034612298 -0.0057707857 0.12456447
0.035426408 -0.011916472 0.11982942
0.035253324 -0.0078265723 0.12012511
0.018698659 -0.03234404 0.11672682
0.035107013 -0.012888891 0.11554819
0.034796566 -0.018016383 0.11138856
0.026677502 -0.032301787 0.10866469
0.03315502 -0.02437079 0.10743743
0.022890585 -0.032831341 0.10429728
0.03058826 -0.029257989 0.10417145
0.033963583 -0.021269269 0.10332423
0.030494427 -0.029444965 0.099274695
-0.022893306 -0.0040617576 0.19882658
-0.020554438 -0.001099959 0.19870231
-0.017008919 0.0015979875 0.19837436
-0.0025539724 0.018013604 0.1973052
0.0010717846 0.018890712 0.19765717
-0.023680469 -0.010613767 0.19619054
-0.021935685 -0.0060889758 0.19576031
-0.018854838 -0.0030076234 0.19555253
-0.014664857 0.00076088915 0.19545841
-0.0079057412 0.0086752502 0.19355917
-0.0042607691 0.012193359 0.19376907
-0.001355811 0.015078762 0.19473079
0.0013128947 0.01776576 0.19577786
-0.032981362 -0.023225717 0.19180226
-0.019766686 -0.0078898743 0.19367698
-0.017993035 -0.0062576663 0.1936214
-0.033584468 -0.027259152 0.18967712
-0.032110512 -0.024956424 0.1898213
-0.031204522 -0.025570329 0.18422973
0.038338885 0.025671057 0.1562618
0.03763894 0.024290951 0.15228695
0.039112248 0.027055047 0.15018296
-0.015801203 -0.035920251 0.15128976
0.035608992 0.019189086 0.14804086
0.037590668 0.023538068 0.14799225
0.039965611 0.027214503 0.14663696
-0.016660478 -0.03531383 0.14752907
-0.011954612 -0.033730622 0.14688224
0.035368122 0.013631224 0.14330643
0.035427518 0.018360067 0.1438182
0.03697281 0.022053499 0.1440751
-0.011992569 -0.033466555 0.14287356
-0.0066298572 -0.033250228 0.1425947
0.035576679 0.010874329 0.13903403
0.035505783 0.014512859 0.1385805
-0.0050385566 -0.033716284 0.13868016
0.035392851 0.0086786626 0.13515842
0.035779186 0.01347246 0.13439763
-0.0042343047 -0.034192033 0.13358784
-0.00072304718 -0.033857971 0.13415709
0.036236294 0.0033050217 0.13021722
0.035299502 0.0066854153 0.12994665
0.0003368482 -0.03358968 0.1291579
0.004113283 -0.032760236 0.12950918
0.035756066 0.0019934084 0.1265198
0.035234656 0.0066102883 0.12605834
0.0016047005 -0.033624753 0.12521386
0.0056651011 -0.032994937 0.12521166
0.035145484 -0.0028768722 0.12326252
0.035459381 0.00026237965 0.12172478
0.0066140974 -0.033346593 0.12050319
0.011041409 -0.032762315 0.12010485
0.035121646 -0.0042473851 0.11811864
0.03543029 -0.0010228567 0.1184836
0.007986038 -0.032986093 0.11678958
0.011646228 -0.032595485 0.11598659
0.035117548 -0.011552329 0.11229068
0.035710786 -0.0074038403 0.11423135
0.034841064 -0.012866805 0.10918558
0.03566727 -0.007941735 0.10990578
0.019242924 -0.032690167 0.10595411
0.03517111 -0.013520975 0.10484934
0.024853187 -0.032729357 0.10126257
0.034571134 -0.019440051 0.10035789
0.022081513 -0.032431051 0.097690761
0.030738818 -0.029849129 0.096646786
0.034451284 -0.020610537 0.095898807
0.030632384 -0.029969558 0.092665315
0.029486563 -0.030616105 0.087762356
-0.013296085 0.014189559 0.1937311
-0.0071147755 0.02038225 0.1964176
-0.011108821 0.01195267 0.1936788
0.037709214 0.024871117 0.1449039
0.039086439 0.026965007 0.14541635
-0.017601803 -0.035183616 0.14511687
0.034719948 0.019667031 0.14139506
0.036588985 0.02330295 0.14110118
0.038692482 0.027309716 0.14153147
-0.017791793 -0.034265228 0.14068612
-0.0137088 -0.034020714 0.14109772
0.034697887 0.018583208 0.13671035
0.035270743 0.022546524 0.13726848
-0.017217517 -0.034780107 0.13666764
-0.012902725 -0.033660974 0.13674188
-0.0087005189 -0.033231501 0.13648397
0.034463331 0.011249942 0.13203895
0.034833241 0.016844459 0.13222116
-0.012208381 -0.033503413 0.13307586
-0.0087998398 -0.032979824 0.13143486
0.034283094 0.011306234 0.12802815
0.034294177 0.014895331 0.1281082
-0.0045226933 -0.033538017 0.12685966
0.034530189 0.0091858553 0.12319213
-0.0049349265 -0.033462949 0.12269908
-0.0013552029 -0.033260532 0.12165624
0.03503079 0.0041965768 0.11940867
0.034521814 0.0071438961 0.11955762
0.00032569282 -0.033102743 0.11750811
0.0039379401 -0.033504222 0.11709183
0.0348166 0.0014734734 0.11486888
0.0011282153 -0.033271283 0.11363274
0.0048044976 -0.032390349 0.11294758
0.0088769132 -0.031888194 0.11267185
0.034876816 -0.0030881371 0.11145884
0.035058498 -7.2550029e-06 0.11025435
0.0067634061 -0.032406442 0.10795587
0.0096954498 -0.032063141 0.10880888
0.035429083 -0.0054745991 0.10644126
0.03583236 -0.0019968767 0.10537255
0.010774828 -0.032483179 0.10400468
0.034411646 -0.011285566 0.10188991
0.035334338 -0.006652859 0.10199136
0.013094206 -0.032459203 0.099154592
0.034725126 -0.012289179 0.098337293
0.034746237 -0.0082600676 0.098356068
0.034441903 -0.018789649 0.093180954
0.034790888 -0.013550786 0.093614101
0.023038784 -0.031545684 0.090654671
0.033905581 -0.019557359 0.089998722
0.020943152 -0.031970106 0.08678925
0.030430753 -0.029401585 0.085529685
0.032898586 -0.020294782 0.085533679
0.029999716 -0.029977607 0.081258535
0.030702382 -0.028574798 0.077753425
-0.01535378 0.015961919 0.19467255
0.037010092 0.028299686 0.13770202
-0.021434765 -0.034389272 0.13814586
0.034564607 0.023963159 0.13389194
-0.019153409 -0.035158925 0.13351014
0.034167551 0.019902613 0.12935638
0.034407333 0.022895932 0.13019979
-0.017162513 -0.034615185 0.13040727
-0.014169217 -0.03336028 0.12958175
0.03449434 0.017691404 0.12547678
-0.013076486 -0.032772385 0.12492722
-0.0095232492 -0.032416068 0.12550485
0.033827372 0.012762376 0.12116176
0.034375049 0.016187085 0.12124538
-0.011488477 -0.034292959 0.11807334
-0.0085204244 -0.033073239 0.12051958
0.034069661 0.010367706 0.11761987
0.034243055 0.014590567 0.11742264
-0.0072743911 -0.033216953 0.11618477
-0.002548717 -0.033294842 0.11584133
0.034600802 0.0043845447 0.11219478
0.034111254 0.008315444 0.11319959
-0.0010048822 -0.033174898 0.11135799
0.0027486254 -0.03284093 0.11021131
0.035291292 0.0028694104 0.10789579
0.034488026 0.0067425035 0.10787308
-9.9545345e-05 -0.033318594 0.10709184
0.0036364589 -0.032836497 0.10665786
0.035361417 0.0017808322 0.10344607
0.00064479373 -0.033549868 0.1035828
0.0052706422 -0.03287293 0.10215437
0.0086257672 -0.032466061 0.10092527
0.035148986 -0.0039460929 0.098131239
0.03569378 -0.00088386796 0.099690974
0.0059373379 -0.032958135 0.096842706
0.0097602801 -0.032681935 0.097602367
0.03502408 -0.0063105971 0.095388234
0.034736361 -0.00118405 0.096372068
0.011232518 -0.0330505 0.09276849
0.035204202 -0.011482284 0.090376556
0.035109781 -0.0080351066 0.090773523
0.012600394 -0.033316404 0.087807715
0.033677258 -0.017127901 0.086792529
0.034920055 -0.013038083 0.086797595
0.035217844 -0.0093135061 0.086101532
0.021269344 -0.031741951 0.083449244
0.034445461 -0.014852275 0.082217753
0.022586532 -0.031493943 0.07950455
0.033334982 -0.020212587 0.078560829
0.028372802 -0.029843628 0.074816763
0.032519933 -0.021260962 0.074374259
0.031110309 -0.026318144 0.069806635
0.033652551 0.027820354 0.13091633
0.034345489 0.030712176 0.13072246
-0.02258303 -0.033636376 0.13430509
0.033218607 0.026535381 0.12581289
-0.021180118 -0.033350356 0.12692112
0.034137864 0.024289578 0.12238485
0.035183016 0.028303048 0.12150681
-0.019068811 -0.03350874 0.1220358
-0.016178496 -0.033036646 0.12273508
0.03432025 0.018567447 0.11798334
0.034287989 0.02281351 0.11743647
-0.017571738 -0.035300218 0.11773098
-0.014543544 -0.033866018 0.11863714
0.033289317 0.013095328 0.11380792
0.033922195 0.016855503 0.11407775
-0.013206468 -0.034485906 0.11404413
-0.010007003 -0.033112749 0.11283326
0.033633128 0.011983135 0.11009341
0.033794329 0.015419147 0.10930938
-0.01256434 -0.033964571 0.10940403
-0.0087563703 -0.032834698 0.10886842
-0.0055818176 -0.031659842 0.10850984
0.034222491 0.010574316 0.10564989
0.034133278 0.014310943 0.10557157
-0.0076258378 -0.032246005 0.10483044
-0.0043025259 -0.032334477 0.10409039
0.034406282 0.0083131697 0.10125393
-0.0014220448 -0.032557018 0.099999726
0.0022992101 -0.033140473 0.10015851
0.035125874 0.0032675806 0.09809202
0.034092307 0.0067529138 0.096644938
0.0020247558 -0.032322314 0.095124543
0.034246746 0.0012036189 0.092766702
0.0046388591 -0.032921486 0.090707302
0.034504607 -0.0042422535 0.088904917
0.034230612 -0.00037658401 0.088081181
0.0060331691 -0.033260003 0.085919619
0.0088472972 -0.033107024 0.086769998
0.034286201 -0.0048157042 0.084045053
0.010364683 -0.033216588 0.082013905
0.03404979 -0.011540201 0.079670608
0.03410019 -0.0083963079 0.079903364
0.011969378 -0.032810047 0.077499151
0.019897174 -0.031605262 0.075850308
0.033253625 -0.012952135 0.075582206
0.021029826 -0.030384187 0.071879923
0.033055075 -0.014781934 0.072864771
0.026783315 -0.029152887 0.06721437
0.032318387 -0.020011306 0.066942155
0.030336577 -0.026999656 0.062493622
0.027192365 -0.030269634 0.05876857
0.032178756 -0.024059551 0.059378326
0.033445001 0.031319536 0.12448907
-0.023100961 -0.031512294 0.1270557
0.03471446 0.026313415 0.11936152
0.035306085 0.029990945 0.12068254
0.035117291 0.025147371 0.1156922
0.036345359 0.026849169 0.11585987
0.033692162 0.019866312 0.11136061
0.03465873 0.023348792 0.11152107
0.036888193 0.026125323 0.11151463
-0.015985336 -0.034379568 0.11066139
0.033822127 0.018369829 0.10722762
0.034597676 0.023659557 0.10775125
-0.014398818 -0.034691177 0.10690844
-0.010639864 -0.033793319 0.10622597
0.034165218 0.016221281 0.10287321
-0.014307334 -0.03399362 0.10253829
-0.0096997181 -0.032745026 0.10207838
0.03444292 0.011286937 0.098334134
0.034466699 0.014305334 0.098190188
-0.0085669886 -0.032863043 0.097036362
-0.0046413001 -0.032472551 0.097951829
0.034279115 0.0088991243 0.09453088
-0.0033002142 -0.031986289 0.09334743
0.034488913 0.0036652377 0.09048456
0.034460254 0.0061063822 0.090104878
-0.0028103283 -0.031292576 0.088449061
0.0013666209 -0.033008769 0.0895015
0.034832805 0.0021506194 0.086030424
0.034444474 0.0059360061 0.085103869
0.0025862949 -0.033191577 0.084518969
0.034148917 -0.0035865046 0.081225574
0.034608781 7.7195466e-05 0.081682384
0.0048227329 -0.033095352 0.079574704
0.0076369308 -0.033065628 0.078458369
0.033501107 -0.004834149 0.078030169
0.033711918 -0.0020838249 0.077055931
0.0093993619 -0.033107504 0.075296104
0.033340964 -0.010276303 0.073436022
0.033276949 -0.0078260899 0.072986484
0.010602614 -0.032673009 0.070863426
0.032322783 -0.013399549 0.068907738
0.0329368 -0.0092540495 0.068838656
0.01936774 -0.031673189 0.066344321
0.016571321 -0.032286402 0.061393738
0.032268375 -0.020270364 0.060859144
0.026155746 -0.031347051 0.057052791
0.032193854 -0.021856613 0.05630368
0.027293783 -0.03090309 0.052799642
0.031141182 -0.023361603 0.052115977
0.030143475 -0.02847301 0.048433125
0.034482077 0.023717098 0.10532111
0.03608242 0.026254617 0.10555035
0.034007609 0.021966085 0.10108858
0.035749145 0.025862927 0.1000551
-0.016234037 -0.03402498 0.10060459
0.03420721 0.016369903 0.096418917
0.035179894 0.020225096 0.096793532
0.036466166 0.024320371 0.095673263
-0.01464992 -0.03461859 0.096925318
-0.011930919 -0.033270963 0.097224891
0.03368124 0.015172705 0.092087746
0.03520393 0.019227579 0.09193933
-0.013485258 -0.035421681 0.091954172
-0.010030966 -0.033516116 0.091944814
-0.005474004 -0.031994823 0.090566456
0.033145521 0.0099126594 0.088318825
0.033634234 0.013560702 0.087822318
-0.0093931695 -0.033306532 0.087085962
-0.0054107103 -0.031958252 0.086830616
0.033484258 0.0093739023 0.083684206
0.033770192 0.011510588 0.08364135
-0.0041665081 -0.032079861 0.082353652
0.034247417 0.005936115 0.079300404
-0.0025718724 -0.032319538 0.077867568
0.00055622123 -0.03247688 0.078031003
0.033317689 5.7671219e-05 0.07457608
0.034392558 0.0043791998 0.074684143
0.0022997474 -0.032788597 0.073444128
0.0069133053 -0.032818444 0.07175225
0.03226278 -0.0043938505 0.071469247
0.032857105 -0.00062072836 0.070601285
0.0044141086 -0.033433426 0.06923902
0.0081777796 -0.032581173 0.068139851
0.032387003 -0.0062089702 0.066188693
0.032532353 -0.0024778536 0.066338837
0.0051901313 -0.033903684 0.065253317
0.0085446332 -0.032933936 0.064127505
0.012944135 -0.032413121 0.063320577
0.031841002 -0.012833139 0.061747074
0.03237161 -0.0077477209 0.062105298
0.010133979 -0.033138361 0.059524417
0.031321861 -0.013674366 0.057802379
0.031671755 -0.0091886036 0.058418512
0.011138314 -0.033467382 0.055661976
0.019390153 -0.032459743 0.054342687
0.031842176 -0.014833268 0.053557813
0.021388508 -0.032397527 0.050167918
0.031078923 -0.021071564 0.048916638
0.021308627 -0.032596517 0.045680821
0.03001848 -0.027019439 0.044746399
0.022484977 -0.032802079 0.042596161
0.029308932 -0.027360035 0.04008472
0.028652763 -0.028753856 0.037192166
-0.018033337 -0.034499522 0.094899952
0.035597529 0.021175722 0.089009464
-0.017050683 -0.034912098 0.087427974
0.033469129 0.016800728 0.084601045
0.034309473 0.02000913 0.084926426
-0.015371306 -0.033312209 0.084278405
-0.011581679 -0.033496439 0.084238827
0.03344221 0.014644212 0.080670059
0.033691511 0.018899232 0.080442607
-0.0099042747 -0.032563008 0.079917729
-0.0072504589 -0.032266468 0.0795573
0.033728335 0.0088244379 0.075899541
0.033628169 0.012036845 0.076582491
-0.009689766 -0.032546338 0.075359344
-0.0057336222 -0.032438874 0.074970901
0.033770442 0.0078315875 0.072360337
0.033264313 0.011656467 0.071956038
-0.0034621535 -0.03315663 0.070638835
0.0002974309 -0.03334764 0.070648074
0.032719854 0.0022591464 0.067801535
0.033280667 0.0050861957 0.067892373
-0.0027424814 -0.032985207 0.066749394
0.0008667279 -0.033038385 0.06660372
0.032534838 0.00025642477 0.063681006
0.03283716 0.0044141682 0.063470185
0.0029397141 -0.032741554 0.061263978
0.031933412 -0.0045873392 0.058931291
0.032314904 -0.0015846509 0.058804929
0.0068512298 -0.032997098 0.057238102
0.031549536 -0.0067911139 0.054808974
0.009602651 -0.033571146 0.052357852
0.032257773 -0.012563037 0.051347435
0.032084323 -0.0090159345 0.050559163
0.010705711 -0.033550248 0.048096657
0.031816043 -0.014431523 0.046715617
0.032207072 -0.010342872 0.045734107
0.019177318 -0.032969039 0.042948246
0.031786609 -0.0157343 0.042123616
0.020929435 -0.032621004 0.039121151
0.030414533 -0.025730714 0.038413644
0.021108851 -0.031879768 0.034846544
0.02926171 -0.026874518 0.033948839
0.026430573 -0.029272556 0.029831231
0.033936247 0.022398632 0.081682742
0.034620062 0.02537355 0.081381261
-0.017955258 -0.033751052 0.082604945
0.032991182 0.017081082 0.076990604
0.034079131 0.021725889 0.078347981
0.035903677 0.024839539 0.077778399
-0.017953556 -0.03396742 0.077909708
-0.013396343 -0.032601058 0.078328967
0.032931831 0.016221955 0.073998451
0.034057826 0.019970577 0.074501455
0.036959734 0.023386931 0.074026048
-0.016189147 -0.03434011 0.073461413
-0.011754603 -0.033279251 0.073938787
0.032471351 0.0099273399 0.06839031
0.032741636 0.015048052 0.069725275
0.034076102 0.018135745 0.069670498
-0.014636319 -0.036257062 0.068276405
-0.010888501 -0.03448239 0.069354117
-0.0067826295 -0.033528093 0.069117248
0.032115884 0.010190418 0.064920783
0.032449365 0.012339839 0.065928578
-0.0098317647 -0.035054125 0.065483034
-0.005510278 -0.033277802 0.064201653
-0.001386621 -0.032264329 0.062857449
0.031951543 0.0027712556 0.059787631
0.032501504 0.0071777375 0.061662495
-0.0044501126 -0.031821623 0.05990994
-0.00095293391 -0.032154921 0.059525013
0.032513317 0.0012241714 0.056812227
0.032625094 0.0050208485 0.057232857
0.00066998415 -0.032093123 0.055445552
0.031542175 -0.004499957 0.051311314
0.032696623 -0.00041158125 0.05308181
0.033372741 0.0034186393 0.052797675
0.0020636655 -0.031768959 0.051779687
0.0046247989 -0.031990781 0.051196039
0.032091569 -0.0060350597 0.048320711
0.032714285 -0.0016767019 0.04842335
0.00779148 -0.033131763 0.046225369
0.032274932 -0.0072422894 0.043862998
0.032488506 -0.0033449987 0.044772685
0.0097344713 -0.033759139 0.042379677
0.013005728 -0.034030579 0.040126264
0.032382146 -0.0093493024 0.039478242
0.011337281 -0.034899075 0.037590384
0.018294502 -0.032529455 0.035783947
0.031766649 -0.014854257 0.035984099
0.03269764 -0.011314968 0.035971344
0.019392118 -0.03207399 0.032377899
0.031061608 -0.020118825 0.032029152
0.016074127 -0.033135101 0.028453171
0.024447905 -0.030215966 0.027994871
0.031530261 -0.022302642 0.027712286
0.021569556 -0.031803019 0.024319589
0.02909752 -0.027565882 0.023833215
0.025629051 -0.030265678 0.019215405
0.030942764 -0.024921618 0.018878281
0.03421706 0.022195091 0.071229398
0.035460796 0.024177326 0.072117388
-0.020077493 -0.033791404 0.070721686
0.032438017 0.017339502 0.066153109
0.034571648 0.020723207 0.067088664
0.03245442 0.015428525 0.062781751
0.034106921 0.019647267 0.061779916
-0.014475729 -0.036481272 0.063137293
-0.012112756 -0.034255531 0.060967445
0.03167145 0.01043458 0.058247507
0.032214288 0.013328623 0.058299482
-0.011454527 -0.032230649 0.057475746
-0.0076641142 -0.031225804 0.057313383
0.031996921 0.0089176446 0.053624451
0.031689644 0.012745984 0.053719461
-0.0063570021 -0.031237971 0.053254843
-0.0025560698 -0.031876534 0.052510202
0.033038322 0.005523934 0.04976213
-0.00061821565 -0.031742483 0.048175633
0.03269954 0.0013776068 0.045189917
0.033227831 0.0042757262 0.045203209
0.00051969197 -0.031606574 0.043742955
0.003577196 -0.031533573 0.04289788
0.031920593 -0.00090674404 0.041258156
0.032767482 0.0036065821 0.040665925
0.0050480999 -0.032103505 0.038723171
0.03197252 -0.0055714678 0.037326694
0.031639278 -0.0014884006 0.037825167
0.0069654491 -0.033079959 0.035045922
0.032026649 -0.0082729859 0.033150136
0.010077506 -0.034087669 0.03099525
0.012477336 -0.03342193 0.029436171
0.031971443 -0.010024183 0.029380441
0.017269317 -0.032223981 0.024243355
0.031941172 -0.010983705 0.025652349
0.019065237 -0.031873107 0.020731151
0.032371398 -0.018082762 0.020055711
0.024573274 -0.030558851 0.016244471
0.030962776 -0.022184905 0.015801489
0.02419213 -0.029840296 0.011545122
0.029768333 -0.022816267 0.012450159
0.034993298 0.021830752 0.059613883
0.033909641 0.025581002 0.06002444
0.032217149 0.017272972 0.056609392
0.033560276 0.019538358 0.05598259
0.034825917 0.021892229 0.055262625
-0.016436975 -0.03465765 0.055202067
-0.013697547 -0.033039916 0.055488825
-0.010666697 -0.030834217 0.054944575
0.031901635 0.014343596 0.052352309
0.033228468 0.018496037 0.051120102
0.035482727 0.022336196 0.052166343
-0.016468491 -0.034878235 0.052125037
-0.01335812 -0.032975454 0.050790131
-0.0097313672 -0.031110018 0.050932586
0.031683855 0.010045664 0.047899306
0.032100867 0.013322171 0.047219515
0.032363724 0.016811367 0.047403395
-0.011811677 -0.032709096 0.046926081
-0.0075367186 -0.031482026 0.046675146
0.032103337 0.0094532846 0.044220686
0.032471936 0.011481878 0.042122185
-0.0057870978 -0.031914182 0.041161895
-0.0030171108 -0.031607173 0.041966856
0.031724662 0.0021793824 0.038824558
0.03263117 0.0055551082 0.038860023
0.032275606 0.0090441788 0.038136303
-0.00084654801 -0.031607002 0.037572443
0.031679399 0.00041393749 0.0348804
0.032977901 0.0041358853 0.034447849
0.0007805163 -0.031920042 0.031899989
0.0033486597 -0.031976469 0.033386052
0.031437978 -0.0052995738 0.030412018
0.031880144 -0.0011229441 0.030473232
0.032898366 0.0021679187 0.028719366
0.0050228881 -0.032544285 0.028642595
0.031191397 -0.00621292 0.026091814
0.031479582 -0.0030193832 0.026841104
0.0076649887 -0.03275704 0.023893058
0.009541804 -0.031790853 0.021644056
0.030883521 -0.0088117318 0.021489084
0.01193221 -0.032367837 0.019049287
0.030735897 -0.010058543 0.017845809
0.017132603 -0.032083113 0.014826715
0.018489186 -0.031679388 0.009616971
0.027202621 -0.026425872 0.0089088678
0.030933639 -0.017524699 0.0080276132
-0.020720158 -0.032741368 0.05710727
0.035498336 0.022230338 0.049045384
-0.017176205 -0.034424551 0.049336851
-0.01501355 -0.034234621 0.048251092
0.032968126 0.018578265 0.044530809
0.035271261 0.021950752 0.045174658
-0.018372402 -0.033544086 0.046017826
-0.014086261 -0.032311317 0.044017553
-0.01131478 -0.031122535 0.043016553
0.032712296 0.013690748 0.040913165
0.033118065 0.018285327 0.040498555
0.035000481 0.021311099 0.041841388
-0.013272119 -0.031734463 0.041242898
-0.0095464513 -0.031475794 0.040257692
0.032035172 0.01258322 0.035839617
-0.0077931015 -0.031822789 0.035251915
-0.0042021507 -0.031599373 0.034305751
0.03295248 0.0055330908 0.030978858
0.032362495 0.010225621 0.031636
-0.0065062754 -0.031886432 0.032111943
-0.0036542295 -0.031257126 0.03006649
0.033091791 0.0044122087 0.027425945
0.031944014 0.0090475706 0.02823025
-0.00081859063 -0.031528048 0.02640897
0.0028375741 -0.032094158 0.024501681
0.03109891 -0.0015047984 0.023497224
0.031713258 0.003542643 0.02240485
-0.00049393345 -0.031356554 0.022123158
0.0026796628 -0.031429611 0.020351827
0.030352779 -0.0021473281 0.018752277
0.005158023 -0.032120697 0.017123282
0.0099008521 -0.032544311 0.015786827
0.03022306 -0.0077568954 0.015520632
0.029564328 -0.0039896173 0.014361978
0.0062674116 -0.032321312 0.012776315
0.010269456 -0.031942297 0.01232183
0.03053792 -0.0089448262 0.010436416
-0.01743656 -0.032269049 0.043604732
0.033333227 0.0192346 0.037888408
-0.015449972 -0.031366646 0.037229061
-0.011867533 -0.031027321 0.037264645
0.032518834 0.018728724 0.033427536
-0.014267391 -0.032029845 0.032756269
-0.011718488 -0.031479374 0.033288956
0.032533519 0.013523182 0.030128479
0.033258997 0.017431084 0.028392255
-0.013439465 -0.032557782 0.028643191
-0.0095870076 -0.031879064 0.02792877
0.032520801 0.011139708 0.024804354
0.033561982 0.016419344 0.023829043
-0.0083141085 -0.031880267 0.024553955
-0.0044568628 -0.031173412 0.023675978
0.031944849 0.0062271776 0.020188987
0.031825464 0.0097401785 0.020462215
-0.0029655043 -0.031078884 0.018774807
0.029926687 0.00065418519 0.014895141
0.031065155 0.0040341886 0.016911447
-0.0018448234 -0.031350989 0.014755845
0.0016201092 -0.031647492 0.013656259
0.029778801 -0.0013099788 0.012107432
0.030234661 0.0027471604 0.012635648
-0.00051189214 -0.032168053 0.010538042
0.0040123137 -0.032471094 0.010078728
-0.016666729 -0.031662915 0.030651927
-0.013411519 -0.032745544 0.026590884
0.033666417 0.01800077 0.023632288
-0.014727528 -0.031826925 0.02198559
-0.010592546 -0.031686116 0.021493673
0.031592846 0.012872564 0.017996013
0.032644533 0.016870823 0.019380391
-0.010394588 -0.03134039 0.016708434
-0.0061644632 -0.030986259 0.016433716
0.030755453 0.0072681112 0.013359725
0.030450033 0.011032475 0.014469922
-0.0089620482 -0.030939607 0.012579978
-0.0054022335 -0.031092338 0.01208204
0.029984945 0.0054317098 0.0096696615
0.032201234 0.021187335 0.018633544
-0.014864891 -0.031952064 0.018680453
0.030462187 0.015284095 0.014735639
0.030611681 0.018971311 0.014711022
-0.014872903 -0.032192305 0.015510857
-0.012572529 -0.032173425 0.013498724
0.029889502 0.014931922 0.010944963
0.029265765 0.019071199 0.011669874
-0.01148707 -0.031555124 0.010180116
-0.019833276 -0.030126126 0.011363864
0.029073792 0.020050911 0.0087240338
-0.017613202 -0.030849505 0.0090110898
-0.022813842 -0.027252242 0.011196196
