# .PCD v0.7 - Point Cloud Data file format
VERSION 0.7
FIELDS x y z
SIZE 4 4 4
TYPE F F F
COUNT 1 1 1
WIDTH 743
HEIGHT 1
VIEWPOINT 0 0 0 1 0 0 0
POINTS 743
DATA ascii
-0.031819582 -0.011219624 0.19319606
-0.031784594 -0.015141331 0.19326133
-0.03325069 -0.00038361218 0.18999502
-0.034755945 -0.010657243 0.19009656
-0.03572017 -0.015248306 0.19048798
-0.033526957 -0.018298607 0.18806431
-0.035785675 -0.01149356 0.1855849
-0.025039852 -0.0079253949 0.19413283
-0.025534153 -0.011014611 0.1942907
-0.025104046 -0.015362363 0.19454587
-0.027899265 0.024676405 0.19244894
-0.028256834 0.01901928 0.1919519
-0.02772665 0.013545383 0.19209132
-0.028247714 0.0047309618 0.19286171
-0.028517187 -0.0057647717 0.19316372
-0.029073358 -0.015930604 0.19398004
-0.027272344 -0.020137951 0.19131595
-0.026944339 -0.023199007 0.19006288
-0.030358553 0.032612301 0.18845361
-0.03010869 0.029481642 0.18905973
-0.030630171 0.024768449 0.19007498
-0.030752063 0.019363064 0.18989837
-0.030911982 0.013960555 0.1897454
-0.032767951 0.0048788204 0.18967837
-0.03407228 -0.0051818532 0.18721101
-0.030532181 -0.020375215 0.18815717
-0.028958619 -0.023030922 0.18678898
-0.031354547 0.033131678 0.18591908
-0.032095194 0.029503539 0.1853984
-0.033210337 0.024996776 0.18534836
-0.033326328 0.019592464 0.18516934
-0.033423126 0.014191654 0.18497911
-0.034226418 0.0049671973 0.18415105
-0.034652352 -0.0056098499 0.18370137
-0.036058247 -0.014968626 0.18257225
-0.032307863 -0.01970632 0.1826905
-0.030014753 -0.022905562 0.18382087
-0.03497225 0.041709449 0.18147534
-0.034075141 0.025210358 0.18135038
-0.033898056 0.018677346 0.18047518
-0.034231901 0.014439607 0.18003535
-0.03514868 0.0051943413 0.17928013
-0.035409153 -0.0052864854 0.17877787
-0.036403358 -0.014842767 0.17915693
-0.034426153 -0.017937116 0.17774007
-0.036474764 0.004869794 0.17524132
-0.036455572 -0.0044200537 0.17435315
-0.037296593 -0.014651421 0.17425922
-0.035632491 -0.01777795 0.17394817
-0.037674546 0.0024604718 0.1716269
-0.037570059 -0.014524717 0.17077249
-0.02114892 0.013072001 0.19273424
-0.021628618 0.0091717169 0.19284496
-0.021361768 -0.00048467729 0.19295502
-0.021585941 -0.011415213 0.19439206
-0.021206319 -0.016412642 0.19501281
-0.021446407 -0.020373378 0.19293395
-0.02121681 -0.024692263 0.19172639
-0.020982325 -0.028865226 0.19065857
-0.024377406 0.033493545 0.1916804
-0.024571836 0.029242676 0.19173849
-0.023907781 0.024740472 0.1924355
-0.024603605 0.019392053 0.1921289
-0.024941921 0.014216885 0.19284958
-0.025110245 0.0029691772 0.19287771
-0.024950325 -0.026048452 0.1897828
-0.024708688 -0.030060966 0.18889952
-0.027589917 0.034405127 0.18885046
-0.027451098 0.02947361 0.1901246
-0.027295768 -0.02615102 0.18560135
-0.026507854 -0.030811042 0.18488932
-0.032109857 0.043790177 0.18278611
-0.030925989 0.03502867 0.18368176
-0.032180011 0.03062227 0.18221748
-0.030925035 -0.021181602 0.17900184
-0.028574884 -0.024610739 0.18077552
-0.026512086 -0.029589109 0.18051121
-0.032837749 0.043856241 0.18142396
-0.029121041 0.037861999 0.17968002
-0.031351447 0.034718014 0.17912585
-0.0320158 0.029869433 0.17863792
-0.032896996 0.025389437 0.17853814
-0.033201277 0.020559296 0.17805216
-0.033888578 0.014591984 0.17707241
-0.032329261 -0.020277079 0.17627999
-0.028755009 -0.023485281 0.17566931
-0.031980336 0.029451855 0.17320698
-0.032757819 0.02569757 0.17316926
-0.033093095 0.020243511 0.17313504
-0.033786833 0.014782766 0.17333448
-0.035977721 0.0065112426 0.17315519
-0.035686016 -0.0084103718 0.17165989
-0.034407735 -0.019740984 0.1718778
-0.031486213 -0.022446003 0.17011023
-0.033481658 0.024313603 0.16988075
-0.033593416 0.01966643 0.16927612
-0.034032166 0.014504677 0.16855392
-0.035498798 0.0058926023 0.16827375
-0.035502851 -0.0041910973 0.16820961
-0.035873711 -0.014437027 0.16688931
-0.035024643 -0.018939678 0.16727567
-0.033023179 -0.022312101 0.16742262
-0.035250545 0.0011968422 0.16441661
-0.035060048 -0.014346655 0.16357315
-0.013579607 -0.012838986 0.19419318
-0.014056623 -0.015960939 0.19433343
-0.019595861 0.03729111 0.19292134
-0.019200861 0.035699718 0.19351655
-0.017760098 0.028816003 0.19139647
-0.01714009 0.024383631 0.19141778
-0.017761886 0.019925322 0.19228554
-0.017607749 0.014955789 0.19284418
-0.017261565 0.009166155 0.19290709
-0.017127216 -0.00023305995 0.19329417
-0.016347408 -0.01025996 0.19380382
-0.017930925 -0.015097726 0.19489777
-0.016513705 -0.020543091 0.19332829
-0.016754568 -0.025547408 0.19141784
-0.015961468 -0.028305855 0.19126302
-0.020907879 0.037876599 0.19132099
-0.021798909 0.035008196 0.19097611
-0.021921456 0.031023458 0.19223243
-0.016863286 0.024953291 0.19066459
-0.023203552 0.037627615 0.18602848
-0.026307583 0.04412245 0.1809366
-0.026486874 0.039045088 0.18191791
-0.025555849 -0.029094134 0.1770435
-0.028486252 0.039928328 0.17821717
-0.030261278 0.034961756 0.17567164
-0.030697823 0.031820048 0.17580813
-0.027185917 -0.025041588 0.17366746
-0.025806069 -0.02899164 0.17351943
-0.030592561 0.038289234 0.17234173
-0.031014562 0.035141841 0.17247018
-0.031608284 0.03162517 0.1722315
-0.028808594 -0.024853293 0.16917783
-0.026275933 -0.028330121 0.16891649
-0.032670498 0.034596846 0.16796547
-0.032457709 0.03071012 0.16764516
-0.033002496 0.026208486 0.16756424
-0.033585668 0.020946383 0.16724217
-0.034046769 0.016154096 0.16678455
-0.034321606 -0.0066411351 0.1652956
-0.033060133 -0.020644978 0.16381311
-0.031208277 -0.022804379 0.16434732
-0.032685637 0.034101255 0.16329256
-0.032480299 0.030930139 0.16394415
-0.032982349 0.026066147 0.16271955
-0.033772647 0.02157931 0.16273966
-0.034338236 0.016105823 0.16263244
-0.034711897 0.0062065939 0.16189367
-0.034470797 -0.0043680188 0.16160834
-0.034531176 -0.014253654 0.16043144
-0.032979906 -0.018973 0.16010845
-0.031028092 -0.022176996 0.16052896
-0.03378123 0.020229775 0.15870908
-0.034377217 0.016295131 0.15892956
-0.034136415 0.0061444058 0.15830082
-0.034115136 -0.0031989054 0.15710694
-0.034849882 -0.01359424 0.15662527
-0.0096262693 0.01976141 0.19380724
-0.0099956393 0.0148887 0.19395271
-0.0097082853 0.0091618355 0.19289729
-0.009336412 0.0044518076 0.19245037
-0.0097585917 -0.0053336732 0.19297665
-0.010100603 -0.0097391792 0.19315809
-0.0092228055 -0.015812736 0.19386715
-0.010549128 -0.020719893 0.19290861
-0.0093221664 -0.025126074 0.1917783
-0.0096043944 -0.028579295 0.19196847
-0.014286518 0.037811156 0.19335935
-0.013296425 0.034765646 0.19215372
-0.013827205 0.029294692 0.1913034
-0.01320684 0.024929792 0.19209608
-0.013340294 0.020469625 0.19306475
-0.012442887 0.014661996 0.19297788
-0.012276173 0.0091779176 0.19261804
-0.013700247 0.00052586739 0.19307226
-0.013121665 -0.025293611 0.1915032
-0.017837524 0.038548224 0.18639705
-0.01661402 0.033578075 0.19091755
-0.016243219 0.031251267 0.19058061
-0.019017935 0.044319734 0.18187034
-0.017800808 0.039692633 0.18088856
-0.020803511 0.043864131 0.17989266
-0.021426082 0.040759176 0.17890853
-0.025863767 -0.029855162 0.16671899
-0.028018117 -0.024683114 0.1621545
-0.026076972 -0.028483503 0.1631023
-0.030731618 0.035492282 0.16064957
-0.031792223 0.031138532 0.16068697
-0.032005608 0.027262527 0.15971452
-0.032740355 0.021742132 0.15995345
-0.028901398 -0.023471612 0.15749204
-0.025623322 -0.027033061 0.15858901
-0.031852305 0.035478063 0.15660325
-0.03133595 0.031446092 0.1556921
-0.031977952 0.026694879 0.15590829
-0.032739282 0.022154871 0.15597928
-0.033675611 0.016466588 0.15564695
-0.033758283 0.0062822658 0.15523627
-0.033808112 -0.0030932692 0.15436983
-0.033787191 -0.015097532 0.1539613
-0.03219837 -0.018803727 0.1539681
-0.030440807 -0.022602547 0.15298346
-0.031836927 0.030065496 0.15219182
-0.032247245 0.026622456 0.15155667
-0.032740712 0.021694265 0.15116253
-0.032873511 0.016740404 0.15039521
-0.033919215 0.0064927409 0.15064237
-0.034203291 -0.002927585 0.15040508
-0.034157157 -0.013903767 0.14987111
-0.032091022 -0.018437859 0.14848724
-0.030945778 -0.021843001 0.14920616
-0.033700645 0.0066701467 0.14671299
-0.035127997 -0.0027101827 0.14537174
-0.035418093 -0.013705872 0.14507166
-0.033528507 -0.016920656 0.1455169
-0.037061214 -0.0077602756 0.14120719
-0.0020539162 -0.027454879 0.19759047
-0.0024317501 -0.029022723 0.19773817
-0.0043849349 -0.016998466 0.19397098
-0.0040163989 -0.020947333 0.1935643
-0.0039036868 -0.025926009 0.19486669
-0.0049176808 -0.029269591 0.19599551
-0.0094495416 0.038241141 0.19503236
-0.0064331298 0.034437351 0.19395691
-0.0069171791 0.024680823 0.19268385
-0.0058023338 0.020502705 0.19402364
-0.0065276027 0.014363298 0.19429016
-0.0058487654 0.0091381446 0.19332999
-0.0052180886 0.0044163838 0.19272849
-0.0056932569 -0.0046891607 0.19304174
-0.0052090287 -0.0098321475 0.19296664
-0.0045828223 -0.013777588 0.19240528
-0.0066328044 -0.020856794 0.19329643
-0.0069108601 -0.025951374 0.19276386
-0.0070380564 -0.028714452 0.19316691
-0.010574103 0.039128412 0.19300056
-0.0091025829 0.033764269 0.19093677
-0.0085114837 0.030158125 0.19059163
-0.01017344 0.026553322 0.1921643
-0.018004 0.041373197 0.17924133
-0.023944676 -0.029483438 0.15924442
-0.026483238 -0.025364798 0.15641654
-0.025497794 -0.028281141 0.15593874
-0.031182766 0.034717351 0.15385169
-0.02755636 -0.024792183 0.1515035
-0.026093364 -0.028397828 0.15129542
-0.03131187 0.031996593 0.14978728
-0.032017291 0.027489502 0.14887914
-0.03278029 0.023369323 0.14937279
-0.032288432 -0.020137828 0.14641362
-0.029865086 -0.023126971 0.14683202
-0.026175082 -0.026713841 0.14763474
-0.031313419 0.035232179 0.14541709
-0.031019032 0.031758726 0.14524636
-0.032189727 0.02732978 0.14470738
-0.033084393 0.022545829 0.14510906
-0.033496082 0.017006431 0.14514115
-0.03335768 0.006809141 0.14362869
-0.032643557 -0.018631537 0.14268813
-0.031727433 -0.022394817 0.14211997
-0.032664239 0.022772975 0.14100969
-0.032919884 0.017606407 0.14013228
-0.032623529 0.006584249 0.13976568
-0.035140395 -0.0019294736 0.1390664
-0.036014795 -0.014112927 0.13899973
-0.033609152 -0.018063042 0.13813674
-0.032324672 -0.022245474 0.13776651
-0.036324203 -0.0069996868 0.13456401
-0.034229934 -0.016545001 0.13457066
-0.03667146 -0.010810163 0.13079554
0.0026645663 -0.024721235 0.19568175
-0.0019381647 0.035962313 0.19686437
-0.00032991194 0.020285241 0.19332209
-0.00085860508 0.014141684 0.19396213
-1.9133196e-05 0.0088801216 0.19391665
0.00036293262 0.0045367386 0.19378018
-0.00046497583 -0.0004248824 0.19373983
-0.00054520363 -0.0051674657 0.19316727
-0.00087946642 -0.0099267177 0.19314036
-0.00016862137 -0.014372002 0.19269165
0.0013180377 -0.020309843 0.19318753
-0.00061356992 -0.02427147 0.19506007
-0.0026462083 0.034086008 0.19092682
-0.0028058891 0.029716805 0.19132584
-0.0025678279 0.025469173 0.19259667
-0.026713312 -0.025015883 0.14427066
-0.025259614 -0.028459348 0.14479008
-0.023444533 -0.031463541 0.14269727
-0.030080616 0.036282949 0.14174157
-0.030557513 0.032653548 0.14238611
-0.029041111 -0.024811201 0.14015049
-0.028084695 -0.02788787 0.14056578
-0.026576161 -0.031258434 0.14006686
-0.030077279 0.036093377 0.13836765
-0.030533671 0.032515697 0.13804212
-0.031240404 0.027708646 0.13831824
-0.032057524 0.022958972 0.13771626
-0.032541454 0.016942166 0.13720635
-0.032252133 0.007424084 0.13695487
-0.031998336 -0.019790892 0.13477182
-0.031223178 -0.023637619 0.13520515
-0.028686523 -0.027852047 0.13464677
-0.030738056 0.032770704 0.13369876
-0.031364501 0.027771469 0.13317838
-0.031679034 0.023238454 0.13264364
-0.032104433 0.017652612 0.13269076
-0.033203304 0.0072922311 0.13299963
-0.034156203 -0.0016831051 0.1326277
-0.032749653 -0.017815277 0.13154107
-0.0310601 -0.022067655 0.13015091
-0.029439569 -0.026125375 0.13075414
-0.034167111 0.03615953 0.1291936
-0.032844245 0.02259491 0.12957257
-0.03309536 0.017351083 0.12912703
-0.033605814 0.0075449939 0.12749845
-0.034222662 -0.0020048679 0.12750757
-0.035753906 -0.01173985 0.12761456
-0.034115136 -0.016488887 0.12653655
-0.034257531 -0.0018492457 0.12365925
-0.035747647 -0.011329859 0.12236518
-0.035830498 -0.015302412 0.12224579
0.0091019273 -0.010950286 0.19366911
0.0092471838 -0.015752617 0.19335562
0.0090510249 -0.019751292 0.19328028
0.007521153 -0.023497075 0.19523111
0.0038315053 0.034298282 0.19309792
0.0032308693 0.029967345 0.19258821
0.0031334755 0.024798326 0.19193795
0.0048952098 0.020409387 0.1920734
0.004876852 0.015874725 0.19298312
0.0050247312 0.0097361337 0.19408542
0.0051289797 0.0038840827 0.19439343
0.0057515502 -0.0052629802 0.19313052
0.0052152276 -0.01005232 0.19321874
0.0053024292 -0.014837142 0.19293985
0.0051696305 -0.019648056 0.19371292
0.0040458436 0.034982257 0.18955177
0.00052946771 0.031573564 0.19149393
-0.020949483 -0.031604204 0.14386311
-0.028058231 0.037456196 0.13653472
-0.02575928 -0.031163692 0.1347008
-0.030445933 0.036055557 0.13235077
-0.0307616 0.032884207 0.13178453
-0.031198502 0.028946966 0.13062519
-0.029923618 -0.024417523 0.12730235
-0.027883947 -0.028060433 0.12917998
-0.032598555 0.036147304 0.13000989
-0.031577826 0.033082314 0.12817007
-0.031818151 0.028335854 0.12715429
-0.03219384 0.023786295 0.12666309
-0.032646656 0.018773794 0.12634593
-0.031280875 -0.021097578 0.12453723
-0.028933406 -0.025179986 0.12461823
-0.030733526 0.031709332 0.12458014
-0.031263888 0.028590169 0.12286806
-0.031998336 0.023802646 0.12220526
-0.032201648 0.018994354 0.12213588
-0.034340978 0.0078013982 0.12196225
-0.034214079 -0.0017607254 0.12143987
-0.033765435 -0.017703518 0.12064087
-0.031613529 -0.020471483 0.11923438
-0.029111326 -0.024269089 0.12088686
-0.034204423 0.0078068892 0.11679798
-0.034439087 -0.0015370143 0.11599052
-0.036124408 -0.011125259 0.11679709
-0.035342574 -0.015911214 0.1160087
-0.033925235 -0.019115478 0.11482489
-0.035115123 -0.0065701571 0.11184227
-0.035106838 -0.015439637 0.11114377
0.014903009 -0.0063650794 0.19700643
0.014687359 -0.01038507 0.19693938
0.014775217 -0.015205573 0.19665849
0.015239239 -0.02003134 0.1961605
0.015078485 -0.023215365 0.19517294
0.010543644 0.034810502 0.19500136
0.012652159 0.013996748 0.19277647
0.011422575 0.0098924097 0.19423234
0.011567831 -0.00079436216 0.19403812
0.012028754 -0.0053972416 0.19408065
0.011461377 -0.010006811 0.19472101
0.011705637 -0.014818732 0.19434947
0.012306929 -0.019878771 0.19415566
0.012950122 -0.02392691 0.19451621
0.010216117 0.034100033 0.19329888
0.0086321831 0.030104354 0.19218045
0.0081828833 0.025626145 0.19148991
0.0097025037 0.020152882 0.19182241
0.0093627572 0.015584709 0.19292092
0.0080551505 0.011531284 0.19349739
-0.023925006 -0.029396534 0.12476283
-0.026082158 -0.026838455 0.12250715
-0.022552967 -0.029381577 0.12183356
-0.03075546 0.036630742 0.12286305
-0.029310048 0.033733889 0.12144196
-0.031147003 0.02867898 0.12131983
-0.032028258 0.023960032 0.11929762
-0.031940699 0.019157231 0.1190179
-0.030264616 -0.022537962 0.11788434
-0.027436554 -0.025197826 0.11728543
-0.030357122 0.032813281 0.11690384
-0.031269014 0.028923664 0.11700094
-0.032062531 0.024118278 0.1163826
-0.031775475 0.019316755 0.11595708
-0.032733619 0.014015818 0.1162805
-0.033908486 0.0033530104 0.11385638
-0.030649722 -0.021765985 0.11387891
-0.028783321 -0.024471171 0.11327934
-0.031707942 0.032455616 0.11156249
-0.031282425 0.029191867 0.11228913
-0.031959832 0.024578851 0.11164218
-0.031802833 0.019310996 0.11160845
-0.032660961 0.013907667 0.11143571
-0.03526473 0.0034931074 0.11092526
-0.035123765 -0.0057502878 0.10922319
-0.035121441 -0.016074419 0.1084646
-0.032492042 -0.020597242 0.10910934
-0.029663742 -0.023929261 0.10950756
-0.033217371 0.032651473 0.10773617
-0.03454119 0.0085005946 0.10665512
-0.034896851 -0.0011078832 0.10549992
-0.035315931 -0.010920323 0.10463315
-0.035656273 -0.01552676 0.10443521
-0.033549786 -0.020157825 0.10463518
-0.035423398 -0.010595527 0.10116917
-0.036223352 -0.015046906 0.10011548
-0.034619093 -0.019201152 0.10084277
0.019165933 0.023652259 0.1950452
0.018993795 0.020404335 0.19498983
0.019178569 0.015553486 0.19465157
0.018920839 0.010650979 0.19531399
0.017546952 -0.00069875433 0.1957517
0.014674544 0.03345082 0.1925174
0.015717983 0.029967021 0.19307667
0.01708138 0.025383126 0.19259754
0.016619325 0.020507351 0.19263548
0.016274929 0.01583254 0.19284794
0.015716314 0.010684464 0.1945594
0.015368581 0.00019542892 0.1942614
0.013292432 0.03025379 0.19130677
0.013702691 0.025430582 0.19083628
0.013761461 0.022202589 0.19064829
-0.022132099 -0.027704667 0.11866301
-0.021178603 -0.029341448 0.11790717
-0.026197672 0.037062995 0.11761755
-0.024052501 -0.027531918 0.11512834
-0.023165703 -0.029803656 0.11398965
-0.024916112 0.03727204 0.11471778
-0.027690887 0.035214029 0.11417532
-0.026593447 -0.026664499 0.11069232
-0.024997592 -0.029779412 0.10978115
-0.029128432 0.03485743 0.11016023
-0.030840993 0.029369157 0.10929573
-0.031379819 0.022915356 0.10891098
-0.030807853 0.020522825 0.10837954
-0.028282046 -0.025708422 0.10617727
-0.026669264 -0.028803967 0.10608965
-0.031332791 0.034070436 0.10489661
-0.031155944 0.029605366 0.10506368
-0.030945122 0.024765808 0.10469002
-0.030604482 0.019931022 0.10421973
-0.031188786 0.015057161 0.10443854
-0.033006787 0.0054087224 0.10338038
-0.031479299 -0.022034876 0.10200727
-0.029121995 -0.024134841 0.10164469
-0.031408489 0.033057813 0.10141307
-0.031421363 0.029817391 0.10127854
-0.031545818 0.024978675 0.10065621
-0.031409323 0.019721767 0.10031962
-0.031905115 0.015311111 0.099245965
-0.033432305 0.0039589736 0.099644184
-0.033673167 -0.0054781255 0.098836958
-0.035273969 -0.016945843 0.098115325
-0.033047915 -0.020772681 0.097589016
-0.030675411 -0.023549769 0.097340167
-0.033622921 0.0041687093 0.09479028
-0.034044385 -0.0055076075 0.093679011
-0.035014153 -0.0152076 0.093989551
-0.033243358 -0.019034497 0.093806922
-0.035614729 -0.010187436 0.089646876
0.020972192 0.013899419 0.19540691
0.021703959 0.010075977 0.19604984
-0.020173311 -0.031864263 0.1133191
-0.022793651 -0.032266632 0.10805893
-0.027068615 0.036108978 0.10630131
-0.025180817 -0.030448146 0.10441965
-0.026892245 -0.026340093 0.098978996
-0.02522409 -0.029237602 0.099341393
-0.02990824 0.033892561 0.096969485
-0.030644059 0.03003427 0.097691238
-0.031252205 0.025141038 0.097734272
-0.031158566 0.020602047 0.09746176
-0.031422853 0.015439961 0.0966295
-0.028258085 -0.02564498 0.09412992
-0.025826097 -0.030172952 0.094393313
-0.029610097 0.033525739 0.094038546
-0.029821932 0.030254573 0.094054878
-0.031298935 0.024920493 0.093213975
-0.032202661 0.020479869 0.093420208
-0.032787263 0.015584696 0.093651772
-0.033353746 0.005584301 0.092030942
-0.032354474 -0.020604488 0.091045856
-0.030082166 -0.024793051 0.090046406
-0.029359341 -0.0303015 0.089502335
-0.031568944 0.023975961 0.089046299
-0.032348037 0.0207338 0.08848983
-0.032880902 0.015865611 0.087925971
-0.032705128 0.0049078777 0.088211238
-0.03539151 -0.0048300256 0.087186992
-0.034615159 -0.015636671 0.086815715
-0.032700539 -0.019704621 0.086216629
-0.030926645 -0.02375941 0.085765958
-0.032605231 -0.029649764 0.085451901
-0.034757376 -0.0050959443 0.083133519
-0.034903467 -0.014621399 0.082066119
-0.03288126 -0.018148392 0.082113326
-0.023454368 -0.030334719 0.096632123
-0.024885833 -0.029536255 0.093310177
-0.027400136 0.034836847 0.091059923
-0.028474987 0.030449532 0.091011822
-0.029774129 0.027110744 0.091857672
-0.029399216 -0.026575383 0.087168753
-0.02686131 -0.029365577 0.089964688
-0.027904272 0.034811668 0.086700618
-0.028912127 0.030654579 0.087293684
-0.030378342 0.026250646 0.087551892
-0.032640696 0.020877451 0.085679114
-0.032551646 0.015990136 0.085394442
-0.03083384 0.007797319 0.085734427
-0.031788051 -0.021478958 0.083149731
-0.030191183 -0.025229882 0.083779573
-0.029010057 -0.02816169 0.084769547
-0.030223429 0.030704755 0.082447946
-0.031192243 0.025956996 0.082738459
-0.032016397 0.021064043 0.082145691
-0.031860411 0.016166812 0.081807911
-0.030920565 0.0063418983 0.081663191
-0.034079909 -0.0041589965 0.079591453
-0.031751215 -0.020081215 0.079923749
-0.029579043 -0.024406243 0.079671383
-0.029004335 -0.028032772 0.079677641
-0.031654418 0.030015912 0.078504622
-0.032482207 0.025955122 0.07819593
-0.033327162 0.021266948 0.078070343
-0.032765031 0.01638153 0.077412307
-0.031811059 0.0065876446 0.076231778
-0.034043133 -0.0040422161 0.076501012
-0.033480704 -0.014906447 0.076019108
-0.031392753 -0.019087158 0.075459063
-0.033322453 0.02065891 0.073934793
-0.033277631 0.018201662 0.073791683
-0.033934951 0.0016285774 0.072118521
-0.034316599 -0.0089770555 0.071183383
-0.035082102 -0.009437222 0.067842185
-0.028275371 0.034327175 0.08083719
-0.029801548 0.032706793 0.079904199
-0.028553486 -0.025798142 0.077037871
-0.028301775 -0.028792068 0.07602632
-0.031005085 0.031812958 0.076017439
-0.032418787 0.027155723 0.075559914
-0.031046212 -0.020668328 0.073063672
-0.028810382 -0.024110001 0.072813451
-0.028265119 -0.028741423 0.073946118
-0.029825449 0.030707955 0.071598291
-0.031131208 0.026132651 0.071917415
-0.032496154 0.021640602 0.070913434
-0.032192826 0.016513927 0.070532799
-0.032923698 0.0070888656 0.070373535
-0.032612383 -0.016102739 0.06867063
-0.031955063 -0.01896235 0.06934756
-0.029825628 -0.021640949 0.067239344
-0.032847047 0.0066227834 0.066229463
-0.034730017 -0.0027992507 0.065778971
-0.035020947 -0.013571847 0.06524992
-0.033078909 -0.017591927 0.064151168
-0.033720255 -0.007568833 0.060604811
-0.025891066 -0.027924392 0.070052743
-0.024120152 -0.031270783 0.068510234
-0.02902168 0.03208242 0.069465518
-0.029796124 0.027098428 0.068101704
-0.030908823 0.023454584 0.068002462
-0.028109431 -0.023590848 0.065786362
-0.025666893 -0.027617808 0.06574291
-0.025781393 -0.032731995 0.063532054
-0.02914542 0.03192836 0.064879358
-0.029981554 0.026972812 0.064293683
-0.031175911 0.021787766 0.064247787
-0.031335294 0.017045831 0.063909054
-0.031938016 0.0075103822 0.062731624
-0.031754732 -0.018354021 0.06062609
-0.029104054 -0.022854868 0.06186372
-0.027047276 -0.025977828 0.060671031
-0.030595541 0.031176545 0.060170114
-0.030932009 0.027203653 0.059852183
-0.031520486 0.022473581 0.059526205
-0.031975329 0.017275129 0.059222162
-0.03247118 0.0073394398 0.059194624
-0.033620715 -0.0025050049 0.057614148
-0.033317864 -0.012420192 0.057384431
-0.031540155 -0.017435841 0.057361245
-0.030058086 -0.021462973 0.057446539
-0.031722128 0.025728967 0.056240797
-0.032467365 0.021989759 0.056163669
-0.032687247 0.017236369 0.055163205
-0.033022702 0.0075533534 0.054419577
-0.03412205 -0.0023504202 0.053844452
-0.033993721 -0.012265623 0.053310454
-0.032212317 -0.017051481 0.053289533
-0.034639478 0.0027710232 0.050290465
-0.034675956 -0.007381801 0.049431503
-0.035921574 -0.0086369142 0.045593202
-0.024382949 -0.029509328 0.064641893
-0.023349404 -0.03160863 0.063730538
-0.025891721 -0.028134402 0.059649289
-0.026014328 -0.031801108 0.059587598
-0.028706968 -0.023693644 0.055310965
-0.026957333 -0.027276356 0.054521143
-0.026371717 -0.031669591 0.054643214
-0.02986598 0.030815743 0.05494374
-0.030448914 0.027571861 0.053172112
-0.031344473 0.022937272 0.052443862
-0.032475471 0.018444059 0.052338839
-0.03192842 -0.01803628 0.050311387
-0.029918253 -0.022271279 0.050580382
-0.027269006 -0.02623488 0.04964453
-0.030978143 0.021163449 0.048052132
-0.032239616 0.017610401 0.048149288
-0.034049392 0.0081886612 0.047713935
-0.034206808 -0.0020684344 0.046558797
-0.032720387 -0.017072819 0.046788394
-0.030130923 -0.021019492 0.045883775
-0.032651186 0.017188141 0.043971121
-0.033616662 0.0080451667 0.04332298
-0.033687413 -0.0019386712 0.042953014
-0.035590053 -0.012096237 0.042445481
-0.033086956 -0.015889283 0.041213691
-0.035052419 -0.011738423 0.038367033
-0.025830746 -0.029114049 0.051158845
-0.025430918 -0.030790456 0.050760388
-0.029036522 0.029433351 0.049981534
-0.025725663 -0.028474778 0.047578752
-0.024454772 -0.031602055 0.047813535
-0.029203951 0.027929433 0.04687506
-0.029949367 0.023714133 0.047310174
-0.031468391 0.019634355 0.045213223
-0.029103935 -0.02252252 0.04355526
-0.026702762 -0.026745431 0.043811262
-0.029657662 0.028191976 0.041941822
-0.030809283 0.023112606 0.042685568
-0.032151699 0.018537786 0.042016149
-0.032892942 0.014779989 0.041944027
-0.032977343 0.0031970548 0.039388001
-0.033416569 -0.0051458073 0.039399922
-0.031877458 -0.017995019 0.039683998
-0.029492736 -0.021980584 0.039646924
-0.02710861 -0.026260596 0.039607048
-0.031261325 0.026772194 0.036814272
-0.031927109 0.023332126 0.038299203
-0.033080876 0.01831682 0.037987471
-0.033191204 0.0085096247 0.03739351
-0.03307569 -0.0014641195 0.036525428
-0.034116507 -0.011668175 0.035444796
-0.032358825 -0.016739327 0.035520554
-0.03044492 -0.020711627 0.035518229
-0.033823609 0.016821209 0.034273624
-0.033541203 0.0084666684 0.033676386
-0.032994866 -0.0019577206 0.032229125
-0.03495878 -0.01152562 0.031885266
-0.033039927 -0.014907748 0.031176925
-0.035550535 -0.011019923 0.02725786
-0.022889316 -0.03243563 0.044374108
-0.024857342 -0.028904557 0.040823638
-0.023982346 -0.031468399 0.041055858
-0.027906716 -0.023619592 0.036113083
-0.026407242 -0.027283508 0.036228478
-0.025447726 -0.030463975 0.036972404
-0.029336154 0.028259356 0.035609722
-0.030487478 0.023569614 0.033875823
-0.030208588 -0.018376812 0.031844735
-0.028853416 -0.022133373 0.032254875
-0.026868165 -0.026582818 0.032108366
-0.030045331 0.028810408 0.030492008
-0.030529201 0.023734208 0.030687511
-0.031653225 0.018674791 0.030710816
-0.031984031 0.013690926 0.029343665
-0.031627297 0.0036220918 0.028609037
-0.031420231 -0.01703031 0.028321803
-0.029294431 -0.019971292 0.027768612
-0.03036958 0.018853407 0.027101994
-0.031677246 0.008802196 0.025632024
-0.032303691 -0.0012590181 0.02466023
-0.034219742 -0.011677455 0.023166418
-0.03156215 -0.01528335 0.023785472
-0.033568919 -0.0061186855 0.020127177
-0.026738167 0.030392226 0.033148587
-0.025819004 -0.02859246 0.029845238
-0.024688184 -0.030357581 0.030970871
-0.026802957 0.030507393 0.031048954
-0.026481569 -0.022724312 0.025902748
-0.025616944 -0.026328202 0.025755227
-0.024464071 -0.029664144 0.025046408
-0.029751778 0.02912046 0.024839938
-0.029691398 0.024055339 0.024571657
-0.030290127 0.019234568 0.024262249
-0.030700684 0.01438427 0.023401797
-0.030823231 0.0038622986 0.022517622
-0.029167473 -0.017524671 0.020903885
-0.027457535 -0.020526033 0.0211882
-0.025717437 -0.024152283 0.021282613
-0.029645801 0.028968506 0.019842803
-0.030678749 0.024342924 0.01890564
-0.031085312 0.019248318 0.019043267
-0.031641662 0.01415618 0.019310534
-0.031583428 0.0040243561 0.018830001
-0.033147395 -0.0060374443 0.017587662
-0.030142546 -0.016034916 0.017000258
-0.028660536 -0.018787354 0.015323162
-0.032169938 0.023306664 0.014147937
-0.033058524 0.019482952 0.014218807
-0.03294903 0.014411679 0.013908327
-0.032752633 0.0042675394 0.013307273
-0.032871366 -0.0058787097 0.012982011
-0.031069934 -0.014776807 0.011573732
-0.024323761 -0.028469484 0.022082329
-0.026916623 -0.021474265 0.018068671
-0.025072515 -0.025392611 0.019041479
-0.022108257 -0.028469119 0.018005788
-0.029360175 0.02949708 0.01797837
-0.027841806 -0.020794686 0.015255749
-0.025768578 -0.024349537 0.015078902
-0.028787374 0.028463341 0.013595521
-0.031225204 0.025746956 0.013604581
-0.030170441 -0.016035698 0.010181844
-0.028252959 -0.019717462 0.010266423
-0.02630794 -0.022969924 0.0098030567
-0.029125452 0.028283399 0.0089290738
-0.031266034 0.024879809 0.008467555
-0.032520413 0.019775797 0.0082609057
-0.032577455 0.01503028 0.0078920722
-0.022730052 -0.026560314 0.010939598
-0.026822388 0.029943064 0.010286093
