# .PCD v0.7 - Point Cloud Data file format
VERSION 0.7
FIELDS x y z
SIZE 4 4 4
TYPE F F F
COUNT 1 1 1
WIDTH 1086
HEIGHT 1
VIEWPOINT 0 0 0 1 0 0 0
POINTS 1086
DATA ascii
0.031928904 0.031582184 0.18893826
0.033588417 0.03302265 0.18586254
0.035310026 0.034416366 0.18099672
0.031000989 0.025271459 0.19237709
0.023385121 0.03119749 0.1912505
0.033781294 0.027730007 0.1903787
0.024690464 0.032979827 0.18781769
0.036523908 0.024289107 0.18486318
0.031445954 0.034082446 0.18526235
0.023754433 0.03607538 0.18324673
0.033151496 0.0354602 0.18037471
0.036121082 0.030641207 0.17614356
0.027989518 0.017247874 0.19373301
0.022407092 0.023616761 0.1936819
0.014850957 0.030152434 0.19276625
0.012318417 0.031962916 0.19230509
0.03654018 0.012379664 0.18857932
0.031909663 0.018652814 0.19278756
0.024237856 0.025394272 0.19347197
0.017916244 0.032991331 0.19087768
0.013786985 0.03428065 0.18943694
0.036527988 0.02095947 0.18671727
0.01583682 0.036005571 0.18480188
0.036845956 0.021566119 0.18305442
0.017733362 0.036586002 0.18142977
0.036523394 0.026816487 0.17741802
0.023119247 0.037058778 0.17813769
0.03586942 0.028042734 0.17306313
0.028089974 0.034726445 0.17268696
0.035864308 0.029035769 0.16836366
0.029517513 0.034372475 0.16713727
0.032709386 0.008074264 0.19284201
0.029680755 0.010455606 0.1933606
0.023545813 0.017161213 0.19340798
0.014924365 0.023793668 0.19248402
0.0088646226 0.031074826 0.19234997
0.0053118384 0.033784252 0.19154727
0.0026631542 0.035433549 0.18915349
0.034972928 0.0086843763 0.18993586
0.032798562 0.011011486 0.1916649
0.011177384 0.034937423 0.18846235
0.0078700725 0.036042139 0.18824452
0.0038521849 0.036433794 0.1864925
0.036629952 0.011129171 0.18537953
0.036685139 0.014383944 0.18403822
0.013195856 0.036630146 0.1837872
0.0089730471 0.036840238 0.1827451
0.03674008 0.011962879 0.18031147
0.015298823 0.036896087 0.17920262
0.010479227 0.037425302 0.17759317
0.037094779 0.020783886 0.1760152
0.016454628 0.037172519 0.17466602
0.012604961 0.037747122 0.17392978
0.036104485 0.021355489 0.17157814
0.026002686 0.03468734 0.16979048
0.016825926 0.036797255 0.17055935
0.035864256 0.025970312 0.16618153
0.022580501 0.03544239 0.16532645
0.033901054 0.032757897 0.16201642
0.024480484 0.035634577 0.16144156
0.033921249 0.032435931 0.15760133
0.024275351 0.0057948232 0.19280395
0.021400448 0.0084084999 0.19250798
0.014490356 0.014675348 0.19179049
0.0079121124 0.023532303 0.19317394
0.0042062374 0.026712354 0.19339874
0.00067899097 0.029463761 0.19217184
-0.0031700954 0.032178085 0.190552
0.033705868 -0.00036947988 0.190193
0.031508155 0.0036434988 0.19192028
0.028839434 0.0071517844 0.19366813
0.016044177 0.016167562 0.19129688
-0.00057547912 0.035605073 0.18951184
-0.0045483857 0.036642957 0.18851718
0.035306718 0.00054263324 0.18701965
0.035256576 0.0044218153 0.18832368
0.00096679851 0.037342664 0.18575251
-0.002719067 0.037833124 0.18357223
0.036100283 0.002052309 0.18272379
0.035753392 0.0061191646 0.18326458
0.0029318426 0.03747417 0.18101069
-0.0017060135 0.037390232 0.18057996
0.035694785 0.0073878895 0.17787272
0.0082326839 0.037956048 0.17554191
0.0045989752 0.037120167 0.17580143
0.035718631 0.010354534 0.17269284
0.036516767 0.013507158 0.17443863
0.010078433 0.038003363 0.17161036
0.036618091 0.011046455 0.16973868
0.037156675 0.014664475 0.16935405
0.011171089 0.037740327 0.16815042
0.035905324 0.020418292 0.16421103
0.016581457 0.036070071 0.16380823
0.035881527 0.020947851 0.16025221
0.021945776 0.035478964 0.15868181
0.035632174 0.021241372 0.15605584
0.02746678 0.035481222 0.1550048
0.034644365 0.026873512 0.15091738
0.029631082 0.03463738 0.1506044
0.03256001 0.031081643 0.14611983
-0.018857893 0.036891095 0.19243774
0.030027714 -0.0052132523 0.19108206
0.026690049 -0.0011992976 0.19191486
0.022857405 0.0021590265 0.1929704
0.01846569 0.0060274461 0.19246858
0.011903041 0.012173177 0.19232136
0.0038048648 0.019241201 0.19319576
0.0010408089 0.022928778 0.19383129
-0.0023291931 0.026689902 0.1933068
-0.0058754208 0.029388811 0.19130427
-0.0091214543 0.033788402 0.19007882
-0.014285053 0.03656337 0.18970868
-0.017638205 0.039813012 0.18934625
-0.018676415 0.043262608 0.18957409
0.034440786 -0.0064561218 0.18899071
0.03303045 -0.0030642943 0.19042891
0.030454364 -0.00025614724 0.19144496
-0.008083838 0.037020683 0.18655053
-0.011905035 0.038511246 0.18558282
-0.015794374 0.041278381 0.18487152
0.03606043 -0.004862153 0.18527013
0.036258835 -0.0014835559 0.18546548
-0.0064321207 0.037320703 0.18196046
-0.0089273322 0.037659936 0.18137246
0.036811907 -0.0036013722 0.18026003
0.03677211 -0.00040797703 0.18119937
-0.0036203656 0.037648045 0.17793003
-0.0075774714 0.038257174 0.17812306
0.036859468 0.00095628761 0.17688093
0.035926249 0.0041835569 0.17663229
0.0012789257 0.036940426 0.17410934
-0.0023182817 0.03708623 0.17325166
0.036347594 0.0020980015 0.17318237
0.035884496 0.0059996098 0.17183602
0.0034536645 0.037260864 0.16931313
0.036032014 0.0072846618 0.16720015
0.03610184 0.010268963 0.16636011
0.0091767963 0.036657818 0.16418165
0.0045374483 0.037272479 0.16510957
0.036558412 0.011556936 0.16249493
0.013902236 0.035511658 0.16034788
0.0099625625 0.035742324 0.16063571
0.036820002 0.015244676 0.15865538
0.015109221 0.034672022 0.15622807
0.035750546 0.019763177 0.15344104
0.02070339 0.035341717 0.15284222
0.035213571 0.020718331 0.14902529
0.02162287 0.035561383 0.14737478
0.033501212 0.029699339 0.14408737
0.024412252 0.036519784 0.14331481
0.033223491 0.030142946 0.13933179
0.027032234 0.035801217 0.13844794
-0.016405165 0.025407732 0.1945554
-0.020067761 0.028988058 0.19473538
-0.021371247 0.032587197 0.19508079
0.034567844 -0.020493662 0.19628337
0.023814777 -0.010292718 0.1935153
0.021047877 -0.0074926089 0.19334349
0.017025378 -0.0034750826 0.19343972
0.01418793 -0.0010107183 0.19273651
0.0096576521 0.0033572938 0.19237003
0.0034588336 0.010569408 0.19327143
0.00051328028 0.014702575 0.19299111
-0.0045877113 0.018403279 0.19304278
-0.0077314153 0.021623522 0.19338605
-0.011904167 0.024401298 0.19233081
-0.015059171 0.027637476 0.19238067
-0.017896999 0.032201722 0.19270009
-0.020413563 0.03446313 0.19351029
0.036558464 -0.020958398 0.19335008
0.032446314 -0.016018316 0.19133791
0.029628184 -0.012080596 0.19130009
0.026952557 -0.0083061187 0.1920833
0.023698552 -0.0048200507 0.192873
0.019435547 -0.0015376359 0.1927495
0.015664104 0.0022079283 0.19212186
0.0093506025 0.0097078653 0.19289997
0.0056735217 0.013782643 0.19281155
0.0029785838 0.01661911 0.19268763
-0.0093813017 0.027504109 0.19128007
-0.012240754 0.030181825 0.19101742
-0.015017273 0.032938279 0.19082418
0.034754924 -0.013681501 0.1878562
0.033344395 -0.0098698642 0.18893343
-0.013968326 0.038922969 0.18271443
0.035962984 -0.012232792 0.18276215
0.036327541 -0.0078062657 0.18336287
-0.011722866 0.037901286 0.17931214
-0.015554202 0.039503053 0.17943645
0.03660867 -0.010826514 0.17809075
0.036804132 -0.0071392404 0.17878696
-0.0061395494 0.037340775 0.17474285
-0.010457468 0.037635274 0.17463323
0.037249513 -0.005259553 0.17448959
0.037315883 -0.0013395865 0.17405397
-0.0051847454 0.03724172 0.17108831
-0.0089869434 0.037234437 0.17007086
0.037122857 -0.0041496903 0.16997582
0.036466919 -0.00057516806 0.17001113
0.00056516379 0.036844376 0.16667762
-0.0037948731 0.036818109 0.16661191
0.036232792 -0.00016208924 0.16532612
0.035814207 0.0046497164 0.16501749
0.0022331104 0.036087055 0.1623292
-0.0023023766 0.036160372 0.16216213
0.035792612 0.0053424574 0.16044816
0.035971325 0.009620185 0.15947342
0.0078317272 0.035550866 0.15779194
0.0031241495 0.035425887 0.15723801
0.035301175 0.006418135 0.15583465
0.035657518 0.0098843416 0.15529552
0.012442461 0.034550346 0.15387213
0.0088395961 0.035445783 0.15337086
0.035495173 0.012329613 0.15075463
0.010288308 0.035999466 0.14897043
0.03530886 0.013803257 0.14629224
0.015769903 0.03515251 0.1454795
0.011332916 0.035975657 0.14480841
0.034751244 0.023424473 0.14119452
0.017360777 0.035751585 0.14152741
0.035123505 0.024739012 0.13732755
0.023452966 0.036140483 0.13641936
0.035133637 0.025342451 0.13239324
0.02974526 0.032950282 0.13228697
0.021745814 0.035830572 0.13180354
0.033061042 0.02926656 0.12735039
0.027141491 0.034220021 0.12723064
-0.01436957 0.017758682 0.19801703
-0.016248617 0.020324219 0.1981532
-0.017551519 0.023434125 0.19875643
0.027088895 -0.021510761 0.19614229
0.00065114372 0.0034616299 0.1938026
-0.0017469645 0.0055347858 0.19351587
-0.0039442284 0.007812635 0.19339991
-0.0086944103 0.015342232 0.19415921
-0.01175198 0.017647902 0.19503868
-0.014936628 0.021440139 0.19551724
-0.018423539 0.024969701 0.19582269
-0.020940229 0.028753664 0.19561967
0.032809779 -0.020761935 0.19491524
0.029991509 -0.018562043 0.19494334
0.025650688 -0.016334634 0.19382679
0.022155141 -0.013435295 0.1938853
0.019055659 -0.0094463471 0.19441831
0.015388167 -0.0054415106 0.19443554
0.010708814 -0.0019456409 0.19261143
0.0073835878 0.0011368189 0.1928193
0.00030018296 0.0075129997 0.19337946
-0.0026385612 0.011675436 0.19292685
-0.0058485526 0.014162945 0.19270456
-0.011911618 0.02202172 0.19345665
0.038266379 -0.021661196 0.19110617
0.035291389 -0.019926336 0.19110522
0.032842256 -0.01804981 0.192783
0.028820859 -0.014291661 0.19241059
0.037661266 -0.022739006 0.18670318
0.03623471 -0.019340228 0.18670666
0.034684032 -0.016827 0.1849131
0.035548616 -0.019273359 0.18185705
0.035176016 -0.016108785 0.18080264
-0.016790569 0.038281415 0.17557251
0.035930283 -0.013983828 0.1764597
-0.012409412 0.037896708 0.17194575
-0.015998943 0.038907275 0.17249489
0.037140869 -0.010825386 0.17182744
0.037274238 -0.0083797919 0.17198989
-0.011573253 0.037689634 0.16816509
-0.015455447 0.038958721 0.16771653
0.036788862 -0.0073724715 0.16750392
-0.0062383693 0.036857381 0.16332239
-0.010058616 0.037385538 0.16377261
0.036518853 -0.0060854563 0.16353971
0.036097392 -0.0028276816 0.16222873
-0.00047542155 0.035627156 0.16002879
-0.0046676341 0.036656924 0.15999296
-0.0080442764 0.03722195 0.15976748
0.03619951 -0.00081883185 0.1590274
0.03575018 0.0036331844 0.15765929
-4.4628978e-06 0.035369799 0.15592018
-0.0029924419 0.03634619 0.15531486
0.035933241 0.0001532305 0.15432414
0.035643604 0.0040480234 0.15353847
0.0026351269 0.036031827 0.15141204
-0.0016757119 0.036865629 0.1510081
0.035560898 0.0061787274 0.14923275
0.035528749 0.0084058829 0.14926976
0.0082864854 0.036813676 0.14708725
0.0044345409 0.036899377 0.14662877
0.035931535 0.01034638 0.14465714
0.0094547765 0.036256179 0.14205417
0.0055270065 0.036915794 0.14221445
0.035278372 0.012473838 0.14071098
0.014938006 0.035469115 0.13821152
0.010947912 0.036050711 0.13828647
0.015707642 0.035651494 0.13423741
0.012231055 0.03563318 0.13429898
0.035649691 0.022863958 0.13025522
0.035796449 0.020585496 0.12731475
0.034755643 0.028342489 0.1256631
0.025221409 0.035088707 0.12535989
0.035056811 0.024528801 0.12203968
0.030348962 0.032616235 0.1214509
0.02266055 0.036210757 0.12187546
0.031030206 0.032261632 0.11647421
0.02203832 -0.021933882 0.19920805
-0.014352593 0.0089154812 0.19464403
-0.016579522 0.01098006 0.19604561
0.024396509 -0.023746435 0.19635797
0.021530464 -0.020452853 0.19587055
0.018401034 -0.017391365 0.19452846
0.014916433 -0.014288697 0.19386977
0.011014532 -0.0097787026 0.19338161
0.005599617 -0.0065647801 0.19339803
0.0028150764 -0.0033397202 0.19346988
-0.0035809991 0.0037562456 0.19353092
-0.0075424761 0.0071826261 0.19336638
-0.011127681 0.0094720693 0.19324169
-0.014584419 0.013052634 0.19428241
0.0085662557 -0.0044120941 0.19250762
0.037262313 -0.025162712 0.18415135
0.036179643 -0.022320159 0.18339691
0.037747338 -0.024232276 0.18000928
0.036150575 -0.021176051 0.17950556
0.038763974 -0.023710299 0.17659849
0.036024973 -0.020681748 0.1748977
0.035825431 -0.01603133 0.17415577
0.036411535 -0.019249003 0.17028314
0.036248762 -0.015436649 0.16945225
-0.017211935 0.038648076 0.16432148
-0.019677201 0.039628677 0.16447088
0.036355834 -0.014320281 0.16456312
0.036410917 -0.0099532334 0.16433513
-0.012635417 0.037336167 0.16036743
-0.016557079 0.03777675 0.16104528
-0.020214025 0.039061759 0.16114476
0.036273796 -0.01268058 0.16120732
0.036514699 -0.0083007561 0.16094714
-0.011226569 0.036729712 0.15702894
-0.015048187 0.037166432 0.15626448
0.036299631 -0.0070712958 0.15644944
0.036244132 -0.0039141309 0.15647846
-0.0062647648 0.036503527 0.15373766
-0.009158615 0.035947151 0.15203753
0.035768457 -0.0028755385 0.15194875
-0.0050584003 0.036356904 0.14858711
0.035155784 -0.0011865199 0.14762008
0.034897394 0.0023137201 0.14715013
0.0010993369 0.036517903 0.14514476
-0.0018257536 0.036511261 0.14506778
0.035096612 0.0038473271 0.14278471
0.035381105 0.007652849 0.14122418
0.002846064 0.036486469 0.13966578
-0.0011984725 0.036400191 0.1410377
0.03481134 0.004676546 0.13955897
0.034681965 0.0092787156 0.13712835
0.0084924847 0.035773844 0.13494486
0.0048520751 0.036381368 0.13554871
0.033553701 0.011416987 0.13286674
0.010874353 0.035527978 0.13121653
0.0073389038 0.035275351 0.13153264
0.033973455 0.012135869 0.12907764
0.012903995 0.03557786 0.12691957
0.017664552 0.035881586 0.12285942
0.014451736 0.035887871 0.12247068
0.035165213 0.023362596 0.11958724
0.035317998 0.023841679 0.11600578
0.02934633 0.032687336 0.11379415
0.021546012 0.035870895 0.11427432
0.032924667 0.027801353 0.10977471
0.025932105 0.033916421 0.11027068
0.0326235 0.02960379 0.10755879
-0.017857933 0.0035679601 0.19843358
0.011965176 -0.023460308 0.19595164
-0.013531788 0.0016416563 0.19532084
-0.015700776 0.0055214693 0.19643983
-0.01788922 0.0079287412 0.1982165
0.014153265 -0.020974312 0.19471124
0.010644879 -0.018121561 0.19338495
0.0073955073 -0.014599077 0.19305223
0.0036248988 -0.010907706 0.19329846
-0.0011754136 -0.0072762091 0.19363874
-0.0078228787 -0.00037097419 0.19329038
-0.010487277 0.0031894655 0.1937308
-0.01275578 0.0060163303 0.19425347
0.037206203 -0.024596538 0.17267174
0.036236163 -0.023378424 0.17177027
0.038146213 -0.023981078 0.16866964
0.037119739 -0.021794388 0.16871196
0.039001122 -0.023369195 0.16556373
0.037043396 -0.02022377 0.16431516
0.037100799 -0.016386047 0.16191989
-0.018560447 0.037242208 0.15740034
-0.020702418 0.038563661 0.15880302
0.037183959 -0.019592792 0.15995321
0.03626366 -0.01525413 0.1585103
0.034838155 -0.012251155 0.15688163
-0.013977807 0.035903525 0.15340468
-0.017906794 0.037268721 0.15366554
-0.021897916 0.03741546 0.15582585
0.034904458 -0.014766946 0.1539126
0.034738116 -0.011907926 0.1531671
-0.012723067 0.035869442 0.15020925
-0.015856477 0.036271565 0.15072003
0.03532904 -0.008302711 0.14979544
0.035384472 -0.0054527931 0.14869854
-0.0069450969 0.035592057 0.14537743
-0.010934541 0.035656363 0.14556
0.034932297 -0.0085275499 0.14517546
0.03493762 -0.0042906227 0.14515635
-0.0058905957 0.035568129 0.14169157
-0.0092087341 0.035513677 0.14034387
0.034779698 -0.0030904096 0.1402297
0.034846306 0.00028974749 0.14141721
-0.0035175961 0.035948247 0.13770774
0.035037071 0.0020857044 0.13631558
0.0010948032 0.036104172 0.13440761
-0.0023622271 0.035896197 0.1328817
0.034097381 0.003434388 0.13281631
0.033647288 0.0070972517 0.13123956
0.0048436718 0.03531469 0.12949795
0.00066551939 0.035502881 0.12906414
0.033874653 0.00850375 0.1273064
0.033575304 0.012249781 0.12568033
0.0099486532 0.035225183 0.12418622
0.006224866 0.034798853 0.12411851
0.033569481 0.0090596126 0.12350661
0.033745617 0.013274921 0.12171501
0.011038388 0.03550075 0.11954892
0.0080085155 0.035431229 0.12031013
0.013330525 0.035569094 0.11570042
0.034815077 0.020860657 0.11229342
0.015002014 0.035016179 0.11119807
0.024470681 0.034307398 0.10793942
0.033807676 0.023856122 0.1043458
0.030001536 0.031743512 0.10399449
0.021521866 0.034941591 0.10329902
0.030492762 0.031517811 0.099404275
0.0032895403 -0.022989567 0.1978308
0.001077842 -0.021828 0.19728762
-0.015180986 -0.0061814804 0.19688982
-0.016478714 -0.0017905957 0.19795945
-0.018401679 0.00082087796 0.19808799
0.011093838 -0.024264982 0.19710943
0.0063448735 -0.022335555 0.19572252
0.0025398107 -0.019356318 0.19515386
-0.0010643136 -0.015053822 0.19424674
-0.0080928933 -0.0073060482 0.19404709
-0.012021177 -0.0043832194 0.19433132
-0.014290692 -0.0012881318 0.19572467
0.0079419166 -0.019710075 0.19372204
0.0053005959 -0.016670382 0.19369683
0.0023004804 -0.014017642 0.19336241
0.038297798 -0.02438293 0.16289335
0.037032004 -0.023498401 0.16169667
0.03716135 -0.021901324 0.15729764
-0.022585304 0.037425801 0.15231445
0.036277827 -0.021199035 0.15307662
0.03536189 -0.017046135 0.15242854
0.034876835 -0.012729004 0.15096313
-0.018457791 0.035990372 0.14769769
-0.022557538 0.037166562 0.148229
0.035488658 -0.016664781 0.14761597
0.034839723 -0.01218731 0.14695865
-0.013621595 0.035909943 0.14307147
-0.017574219 0.036853619 0.14314029
-0.019708145 0.039054561 0.14329454
0.035043258 -0.010990978 0.1421991
0.034904685 -0.006489112 0.14222538
-0.011989909 0.036192145 0.13921863
-0.016291581 0.037659697 0.13766664
-0.018569607 0.039925754 0.13751364
0.035144266 -0.0089699775 0.13735482
0.035242759 -0.0058854539 0.1383279
-0.0091270274 0.035665885 0.13441896
-0.014260096 0.037671238 0.13445941
0.035483196 -0.0035596564 0.13446578
-0.0036636926 0.035893895 0.1298694
-0.0071945544 0.035924204 0.1299676
0.035073422 -0.0027311128 0.12948933
0.034417406 0.00093191676 0.12963212
-0.0025262628 0.035245366 0.12599748
-0.0061114263 0.0357088 0.12654287
0.034515239 0.001736192 0.12510109
0.033978172 0.0056225006 0.12551022
0.0030710772 0.034756731 0.12269545
-0.0007834807 0.034749795 0.12150204
0.034998041 0.0033420213 0.119587
0.034491062 0.0072318744 0.12093043
0.033826333 0.011262028 0.1188314
0.0047131153 0.034829225 0.11823374
0.034927025 0.0079550315 0.11643028
0.034333467 0.012308342 0.1156894
0.011324312 0.036015868 0.11260414
0.0076859519 0.035986274 0.11452037
0.034405366 0.0090852091 0.11218411
0.034325004 0.01272622 0.11096132
0.012659338 0.035537355 0.10888481
0.0081638712 0.036203019 0.10897273
0.033784486 0.019430883 0.10607064
0.014112424 0.035776041 0.10472649
0.0096627763 0.036333259 0.10491943
0.03365586 0.020909052 0.10177994
0.015554876 0.036142278 0.10019034
0.033574261 0.026178591 0.09711504
0.021116044 0.035684671 0.096152842
0.03320365 0.027728889 0.093324125
0.026453258 0.033923954 0.092328846
0.033117086 0.028361592 0.087798417
0.028269432 0.03315277 0.086964607
-0.0012157625 -0.020747464 0.19667789
-0.0045106695 -0.019545825 0.19567037
-0.014073329 -0.012568114 0.1945225
-0.0033070049 -0.018402161 0.19477117
-0.011998803 -0.011157854 0.19363981
0.036519069 -0.027239596 0.15314093
0.036502842 -0.024784839 0.15419388
0.036675859 -0.027252834 0.15128672
0.036017422 -0.0241546 0.1497348
0.035888225 -0.022466816 0.14564136
0.035722598 -0.019342732 0.14558497
0.035319932 -0.017812887 0.14121708
0.035103887 -0.016847391 0.13700226
0.034380317 -0.013584726 0.13641626
-0.015609959 0.037027977 0.13191205
-0.018355697 0.038900349 0.13230932
0.034177162 -0.011215055 0.13192844
0.034342878 -0.0079597104 0.13155982
-0.011355403 0.035311334 0.1274969
-0.014970588 0.036406644 0.12805974
-0.018287085 0.037734736 0.12693328
0.033861585 -0.006497914 0.12709218
-0.0080613429 0.035109758 0.12288064
-0.014753583 0.036491409 0.12429643
0.034257803 -0.0042140968 0.12149411
0.034032196 -0.0013558324 0.12141579
-0.0040245233 0.034620352 0.11881667
-0.0070397323 0.035127401 0.11842138
0.034284763 -0.00077608041 0.11762202
0.0025247596 0.034489445 0.11491364
-0.0015639719 0.034474 0.11493683
0.034552265 0.0018195361 0.11318088
0.034624204 0.0058993185 0.11272776
0.0032637808 0.035047114 0.1116389
0.00058836676 0.034704559 0.11000419
0.033952996 0.0060557425 0.10846645
0.0038761999 0.035401963 0.10620242
0.0011620857 0.035103928 0.10654366
0.033904362 0.0080197835 0.10442871
0.033421341 0.01036637 0.10382682
0.0066906568 0.036019102 0.10210437
0.033114925 0.0132402 0.10009933
0.011940371 0.036009509 0.099070489
0.0088139782 0.035790622 0.097691476
0.033180997 0.013586828 0.095802605
0.013837414 0.035725087 0.094003201
0.0097915241 0.035989057 0.093834698
0.032759655 0.024251631 0.090981007
0.0156576 0.035417635 0.090202034
0.03230986 0.02407613 0.086093128
0.021119431 0.033495549 0.085482597
0.030490857 0.031023815 0.080584705
0.022374682 0.03395576 0.08190459
0.027382448 0.033268552 0.077055275
0.036326963 -0.027857725 0.14891756
0.035963126 -0.025811128 0.14332986
0.035761725 -0.024305705 0.13909632
0.03554282 -0.02286505 0.13516182
0.035510894 -0.019028023 0.13427162
0.035005815 -0.017949911 0.13025117
0.033949774 -0.014605466 0.12985879
-0.020672552 0.037735958 0.12568414
0.033378337 -0.012768782 0.12529165
0.033300586 -0.0095551359 0.12536883
-0.012201468 0.034355707 0.12170523
-0.01585025 0.035379495 0.1202479
-0.019086838 0.037992816 0.12270612
0.033811063 -0.011857866 0.11962384
0.033750392 -0.0082581239 0.12128687
-0.011080994 0.03450992 0.11744559
-0.015615712 0.035511047 0.11747086
0.033991598 -0.0068710269 0.11613488
0.03428432 -0.002419617 0.11445838
-0.0046216054 0.034374245 0.11195737
-0.0079884659 0.034841739 0.11293232
0.033812936 -0.0053734249 0.11278063
0.034162305 -0.0016707946 0.11077964
-0.002815878 0.034589969 0.10847962
-0.0071005747 0.035059445 0.10835266
0.034505304 0.00092123076 0.10664982
0.034312431 0.0038980693 0.10561156
-0.0012464058 0.034982011 0.10372925
-0.0054436484 0.035584714 0.10512829
0.034358434 0.00024539419 0.10283369
0.033678185 0.0048977295 0.10175133
0.0037524179 0.034961063 0.097928405
0.0013149865 0.035745915 0.10029244
0.03336576 0.006343483 0.096773446
0.033038117 0.0098779099 0.09746176
0.0054107513 0.035490148 0.094710469
0.0012422837 0.034792598 0.096432984
0.033271872 0.011154954 0.092604458
0.011864788 0.035580929 0.090788901
0.008186873 0.03567864 0.090342522
0.03363518 0.012943829 0.088169038
0.013179488 0.03515064 0.086613476
0.0098970355 0.035790063 0.086732745
0.032356698 0.021154709 0.084087074
0.014912675 0.034505684 0.082284808
0.032145649 0.022962365 0.079833567
0.016123924 0.034583032 0.078557551
0.030563544 0.029639687 0.074803829
0.021541327 0.033644911 0.073502541
0.026389312 0.03192237 0.06960237
0.03570547 -0.026218381 0.13569483
0.034664251 -0.025610853 0.1311073
0.036000255 -0.025505017 0.12730962
0.034524649 -0.020899162 0.12687284
0.033730853 -0.020409836 0.12219214
0.032998241 -0.016601518 0.12241793
-0.021920739 0.035969462 0.11750096
0.033899885 -0.018990267 0.11830568
0.033459544 -0.015954861 0.11750561
-0.012935755 0.033439692 0.11396474
-0.016635245 0.034470782 0.11346054
-0.022085153 0.035065539 0.11381245
0.03347028 -0.013343392 0.11326396
0.033327408 -0.010556308 0.11302018
-0.011659808 0.034513429 0.11118639
-0.015482708 0.034768514 0.10952532
0.033372931 -0.0088106738 0.1086368
-0.010201167 0.035118636 0.10578716
-0.013902597 0.035243906 0.10566109
0.033187829 -0.0074481592 0.10476553
0.032726556 -0.0048082313 0.10446054
-0.0038569449 0.034707762 0.10157496
-0.0084043099 0.034953199 0.10118467
0.033312108 -0.0022529168 0.09950608
-0.0035821907 0.034242336 0.096975029
-0.0066743745 0.0341671 0.096725523
0.033061296 -0.0004536286 0.095714927
0.032915071 0.0023038462 0.095499098
-0.0008987505 0.033995487 0.092407703
0.033245597 0.0040536895 0.091002285
0.033723596 0.0091014765 0.089792609
0.0034621637 0.034314476 0.088362098
0.0011103284 0.034350768 0.088051975
0.033465065 0.0056891888 0.086371183
0.033598013 0.0098695494 0.086055875
0.0059336051 0.034659375 0.084068954
0.00175694 0.034817759 0.084594607
0.033494737 0.010640346 0.081979692
0.011793114 0.034300111 0.079949439
0.0075678444 0.034433935 0.079596758
0.033345677 0.011768139 0.078049898
0.031897232 0.020206135 0.076187134
0.013113665 0.034168523 0.075398862
0.0090616941 0.03453391 0.075403333
0.030682618 0.021030469 0.071802557
0.014132652 0.033514276 0.071695089
0.02982132 0.027149672 0.067031085
0.020713005 0.032762747 0.066984117
0.029971825 0.026940076 0.062444329
0.022551443 0.031641901 0.062317252
0.030760046 0.0271842 0.058302164
0.024059551 0.032178756 0.059378326
0.028791757 0.030822346 0.055289447
0.035937101 -0.02587378 0.12413555
0.036659315 -0.025087563 0.12115425
0.034514412 -0.022191178 0.11979085
-0.025097862 0.035680432 0.11448866
0.036282044 -0.023743864 0.11734599
0.034890894 -0.020502213 0.11646217
-0.022996927 0.0355899 0.11100715
0.034207549 -0.021571755 0.11258888
0.033493664 -0.016458753 0.11129183
-0.01778117 0.035459243 0.10732663
-0.021633999 0.036112454 0.10680521
0.033693336 -0.014615057 0.10726631
-0.016324408 0.035160512 0.10229027
-0.0212842 0.036629446 0.10398048
0.033528686 -0.0097001204 0.10183942
-0.010554917 0.035100903 0.098054469
-0.014463209 0.035261836 0.098659992
0.03338981 -0.0079767779 0.097621858
0.033452213 -0.0045812866 0.0979231
-0.0091760848 0.034393638 0.094432414
0.033165533 -0.0076153567 0.093209922
0.032872349 -0.0035974011 0.093020737
-0.0046253735 0.033606559 0.090513051
-0.0075885355 0.034184039 0.089130402
0.031817362 -0.0023116153 0.087978303
0.03395883 0.0022534076 0.088461578
-0.0023812223 0.034399085 0.086086154
-0.0064298576 0.03400949 0.085624218
0.033935651 0.0031289607 0.084818304
0.0036633722 0.034223609 0.081308544
0.00015660562 0.034546353 0.081084371
-0.0031800214 0.034620814 0.081659198
0.033465255 0.0052268179 0.080000222
0.033842698 0.0084816748 0.079353273
0.0047285846 0.034332946 0.077891767
0.002286939 0.033867553 0.076226771
0.033150829 0.0051451437 0.075147569
0.033680499 0.0099102166 0.075491369
0.0071093719 0.034278497 0.072578609
0.032765165 0.010346508 0.071471334
0.012848863 0.033323683 0.069285452
0.010037719 0.033646729 0.068302095
0.032151882 0.019807763 0.065836251
0.032626748 0.017643735 0.060794294
0.020110734 0.032107271 0.060674489
0.031745218 0.025739376 0.056372643
0.022194203 0.032517549 0.056340635
0.031221244 0.027000666 0.052309394
0.023471918 0.031253405 0.052246392
0.02828181 0.02994659 0.04820329
0.03506406 -0.025745813 0.10972685
0.033697512 -0.022902522 0.10913402
0.035240717 -0.025934864 0.105694
0.033533379 -0.022143446 0.1052354
0.033097893 -0.018613961 0.10501224
-0.021621149 0.035510138 0.10090703
-0.023864569 0.036437228 0.10046566
0.034035191 -0.020424288 0.1005975
0.033438709 -0.01652189 0.10089988
-0.017397247 0.035499405 0.096483409
-0.020281054 0.03624906 0.097283006
-0.023356441 0.036828008 0.097899497
0.034193575 -0.015539379 0.096213579
0.033441365 -0.011826861 0.096355438
-0.01510161 0.034357496 0.092731535
-0.01923671 0.035653837 0.091731012
0.03443142 -0.014716981 0.092420936
0.033239685 -0.010424417 0.091848135
0.032905072 -0.0057764966 0.089908957
-0.013489777 0.034064859 0.08804065
-0.017300794 0.035327002 0.08729583
0.033106867 -0.0087732179 0.086977899
0.03240677 -0.0046608262 0.086510718
-0.0070882216 0.034448944 0.083428383
-0.011673782 0.034505993 0.083304524
0.032410581 -0.0041168965 0.082275808
-0.006337313 0.034620628 0.079161465
0.032355428 -0.0025321497 0.077908993
0.032610819 0.0010151993 0.077626288
-0.00079608895 0.033587009 0.074973583
-0.0042991415 0.0339159 0.074999213
0.032932531 0.0019351365 0.072924435
0.033106364 0.0072265686 0.072087705
0.00070532784 0.033323783 0.070895672
0.033489875 0.0040999725 0.069001913
0.032223962 0.0083991084 0.068044722
0.031341441 0.012152757 0.067447841
0.0068309195 0.033190548 0.066153884
0.002291698 0.033135004 0.066894174
0.033867896 0.0051509794 0.065211117
0.032731928 0.0083255935 0.063888967
0.031921916 0.013056947 0.063606441
0.012666017 0.032046814 0.061410487
0.0078788809 0.032872483 0.062105715
0.032466833 0.010428037 0.059906185
0.014199722 0.031517133 0.057443559
0.009696058 0.032126594 0.057924628
0.032551751 0.019419698 0.053368092
0.014951914 0.032333899 0.053551137
0.032300066 0.021285184 0.050049543
0.016700422 0.0320682 0.049047053
0.030469321 0.026156571 0.045325875
0.022103749 0.031872962 0.045084298
0.0302414 0.025710143 0.041405499
0.024099993 0.031848349 0.040854931
0.034112699 -0.024191584 0.10253894
0.03426769 -0.023529515 0.097905219
0.034245301 -0.022018418 0.093816638
0.034601536 -0.018103573 0.092879415
-0.021562701 0.035973635 0.088298678
0.033506423 -0.017112987 0.089684844
0.032663722 -0.013326327 0.088026464
-0.016174285 0.034024484 0.084207118
-0.019990418 0.035061456 0.084628046
0.032583166 -0.012523794 0.084273875
-0.015199843 0.034230661 0.080237091
-0.01795548 0.034540936 0.080374062
0.032657705 -0.010182222 0.079727292
0.032418564 -0.0070806388 0.07973218
-0.011902851 0.034093842 0.076793969
0.03286713 -0.0093298024 0.075730443
0.03245924 -0.0057108263 0.074994624
-0.0077485442 0.033682596 0.071946681
-0.011461704 0.033448365 0.072163641
0.032856133 -0.0037957132 0.070287704
0.033240423 0.00017916039 0.070522726
-0.0019584931 0.032970481 0.067071855
-0.0047854465 0.033568032 0.068219602
0.032931723 -0.0028017815 0.066686451
0.033348907 0.00079771131 0.066751719
6.069988e-05 0.032902688 0.063648164
-0.0039680172 0.033227116 0.06289494
0.032777417 0.0029790411 0.06130594
0.0051056845 0.032396916 0.058446586
0.0020564469 0.032772865 0.059332073
0.032642484 0.0081005376 0.057701051
0.0070035039 0.032145858 0.055261433
0.032765768 0.0096556246 0.05284375
0.033405364 0.0132136 0.052561522
0.012975649 0.032619569 0.050747752
0.0095741879 0.032635123 0.051202595
0.033060953 0.010251424 0.048602402
0.014270385 0.032759681 0.046983361
0.01095886 0.032769255 0.045367301
0.032442432 0.019469922 0.043490052
0.01612838 0.032650527 0.042412817
0.029872717 0.024587249 0.038232982
0.017380988 0.032379519 0.037818134
0.029553063 0.025125392 0.034820855
0.023522962 0.031279571 0.033673763
0.03355594 -0.024180457 0.09134531
0.032995593 -0.023940004 0.087029159
0.032080352 -0.018897578 0.086280227
-0.022744525 0.034776185 0.082937419
-0.0244621 0.035457116 0.08231163
0.03225451 -0.019009443 0.082880378
0.032242008 -0.014340727 0.081094503
-0.02202037 0.034419045 0.078627288
-0.02462724 0.036098517 0.077996194
0.033161469 -0.017719876 0.077481329
0.032755129 -0.013281852 0.077785015
-0.01560133 0.033491742 0.073949099
-0.019845478 0.034173805 0.074631691
-0.023310939 0.03630852 0.075121939
0.033647675 -0.015907984 0.073830843
0.033303309 -0.012244214 0.073785961
-0.014763895 0.033071812 0.069644272
-0.017938968 0.034289334 0.070936024
0.033165284 -0.010490702 0.069470882
0.032858089 -0.0074457303 0.069420815
-0.0082526095 0.033155832 0.065556347
-0.012255237 0.033428717 0.065862358
0.033319682 -0.009698228 0.065371633
0.033151925 -0.0055811433 0.064928591
0.032264289 -0.0013866648 0.062857449
-0.0026566032 0.032062039 0.059914649
-0.0077358168 0.033121198 0.061659694
-0.010745573 0.033787001 0.062332332
0.031313252 -0.0049302513 0.060405016
0.031971328 -0.0011559976 0.059306324
-0.0015299255 0.032218985 0.056472242
-0.0052269967 0.032427814 0.057004869
0.031682599 0.0010473775 0.055402458
0.031456444 0.0043534571 0.054949522
0.0047260979 0.031763464 0.051569164
0.00014649145 0.032118015 0.05286026
0.031465229 0.00487353 0.051015675
0.0060974797 0.032152977 0.048392951
0.0019724974 0.032273505 0.04848361
0.032680109 0.0082006473 0.04723233
0.0068244021 0.032514453 0.044374645
0.033216491 0.0099685993 0.042170167
0.033247828 0.01230988 0.041375816
0.0093779527 0.03297668 0.040256619
0.03371973 0.010135417 0.037240267
0.031460959 0.017297294 0.036678255
0.011345347 0.033640511 0.035882652
0.031429801 0.018705729 0.032875657
0.02066135 0.031358901 0.031473398
0.013291119 0.034321755 0.030640423
0.02967741 0.024126582 0.028484225
0.022292463 0.031519622 0.027699411
0.029615179 0.024696346 0.024197757
0.023301061 0.031146597 0.022998154
0.032433331 -0.027707068 0.083458483
0.032535508 -0.025419096 0.080506623
0.032527123 -0.021423956 0.079742849
0.034647383 -0.023540089 0.074876845
0.033073951 -0.020265607 0.077175498
-0.022293659 0.034125797 0.071126044
-0.023930008 0.03568805 0.072374642
0.035065446 -0.022751316 0.071476281
0.034227695 -0.018633192 0.071418107
-0.017046366 0.032712519 0.066465378
-0.020480869 0.034430381 0.067193508
0.033178225 -0.018180776 0.067150891
0.032546166 -0.014678939 0.065978467
-0.015667722 0.033289067 0.062853634
-0.018987326 0.034002982 0.062231719
0.032219604 -0.012286842 0.062309325
0.031611364 -0.0094468417 0.060288966
-0.0093690576 0.032648534 0.058343887
-0.01367518 0.033259135 0.058225632
-0.017749827 0.03410542 0.058379471
0.030454466 -0.0068883095 0.056738496
-0.0085671209 0.032329261 0.054010749
-0.012051174 0.032346986 0.05448246
0.031010203 -0.0028473409 0.052359641
-0.0026722522 0.031650234 0.049141586
-0.0061676521 0.03237018 0.049845576
0.030696966 -0.00023642834 0.04817313
0.030996531 0.0033837492 0.047789156
-0.0010864567 0.032418758 0.045746028
-0.0045192745 0.032994024 0.044927776
0.0307579 0.0036369627 0.043522656
0.0012500864 0.031954214 0.041771948
0.030994086 0.0051615033 0.039168358
0.0062740818 0.0326165 0.037056029
0.0018362794 0.031543687 0.036914766
0.032343391 0.0084158145 0.032178521
0.032832414 0.011416806 0.034194708
0.0075271586 0.032838818 0.032604933
0.032126453 0.012413493 0.030014575
0.0093663307 0.032847952 0.028385639
0.031603232 0.017326057 0.025499701
0.012828407 0.033672716 0.025665581
0.029291812 0.023093686 0.020124733
0.018108014 0.032396723 0.020086586
0.029242564 0.023781709 0.016585052
0.022305539 0.030148404 0.015833199
0.032905355 -0.027757455 0.077453077
0.033393428 -0.026731443 0.074067652
0.035203308 -0.025729116 0.068623006
0.035026934 -0.023929838 0.066081047
0.033577964 -0.019782037 0.064971328
-0.022830866 0.034152184 0.061751783
-0.023829034 0.034323853 0.059150636
0.035174347 -0.022686403 0.061746895
0.033477806 -0.019686345 0.060207665
0.031850573 -0.015696529 0.059940875
-0.019858293 0.03385248 0.056476891
-0.023397839 0.034394033 0.055632532
0.033219121 -0.019078603 0.056132138
0.030998606 -0.014613935 0.056654036
0.029836727 -0.010882279 0.054942787
-0.013926301 0.032074481 0.051808953
-0.018133927 0.032914825 0.051472008
-0.022391254 0.034281556 0.051496446
0.030056339 -0.0089347819 0.051155865
-0.0096056275 0.032066442 0.047307253
-0.012995051 0.032409742 0.047583044
-0.017051758 0.032890208 0.046830654
0.030430805 -0.0075140456 0.046279848
0.030619487 -0.0042788871 0.046555817
-0.0084584355 0.033013694 0.044251919
-0.011696975 0.033212855 0.04282397
0.030912858 -0.0067295851 0.042179286
0.030741192 -0.0023833616 0.042053401
-0.0025573019 0.031359784 0.0383901
-0.0053279009 0.032501996 0.039034069
-0.0088238688 0.033051226 0.03816098
0.030811936 -0.00092147384 0.037161231
0.030275375 0.0019657845 0.038009226
-0.0010509985 0.031480771 0.035091877
-0.0042239781 0.032330871 0.033600748
-0.0077742012 0.033302717 0.034104288
0.030731216 -0.00036264211 0.032676876
0.031025492 0.0035581021 0.032910228
0.0015143156 0.031366296 0.030156672
-0.0022331867 0.0313484 0.029969275
0.03174831 0.0055389227 0.028002739
0.0054952065 0.031449795 0.026216924
0.0021433057 0.030624688 0.025802553
0.032070361 0.007582657 0.023952127
0.031595081 0.010308746 0.024137259
0.0088406382 0.031482514 0.021309853
0.030804792 0.015545359 0.019064248
0.010730498 0.031305082 0.016425133
0.030814517 0.016941234 0.014121056
0.019863024 0.030481216 0.013127744
0.030233888 0.018368253 0.0097862482
0.025528118 0.026015621 0.0091714263
0.017533565 0.030942643 0.0080394149
0.033872016 -0.026382523 0.063290477
0.033659846 -0.024635024 0.05771178
-0.02436479 0.034816872 0.052739322
0.032871269 -0.020955345 0.052795351
0.030470988 -0.016606024 0.052405894
-0.020502813 0.033639312 0.049081802
-0.023487484 0.034586266 0.048449814
0.032984145 -0.022313658 0.049999714
0.02993894 -0.016512807 0.04828769
0.029987412 -0.01205595 0.048362195
-0.019248437 0.032923993 0.04410708
-0.022186417 0.034275398 0.04414165
0.029900298 -0.014795878 0.045757234
0.030251946 -0.01092947 0.043774724
-0.012845295 0.033442121 0.039679229
-0.017763203 0.032444045 0.040448189
-0.022271667 0.034112234 0.040781915
0.030794408 -0.0083032483 0.039088964
-0.012856101 0.032544158 0.035593152
0.031159751 -0.0082429918 0.035026252
0.031030998 -0.0039045261 0.035201073
-0.010706206 0.032858253 0.032049537
0.031256832 -0.0072075874 0.031327784
0.030928627 -0.0027527846 0.030373096
-0.00502251 0.031775642 0.027747452
-0.0086817686 0.032255679 0.027546227
0.031008381 -0.0013907803 0.025755763
0.031742178 0.0026128953 0.026325643
4.1622669e-05 0.030098263 0.022727668
-0.0035672793 0.03107813 0.024643183
0.031262755 0.0030237883 0.021900296
0.030401032 0.0080405176 0.019882739
0.0027863923 0.029803744 0.019207716
0.030530892 0.0049350066 0.016518533
0.030120876 0.0087573146 0.016839206
0.0077948384 0.030831821 0.015351772
0.0045071179 0.030072264 0.014989197
0.030090818 0.0090124365 0.012027502
0.0090921754 0.030903582 0.010308683
0.032110084 -0.021775087 0.046758831
0.030980131 -0.018526917 0.046540678
0.031525068 -0.021977291 0.042850673
0.030254541 -0.017149063 0.042542517
-0.02124669 0.032086607 0.03760612
-0.023274133 0.033100672 0.036392033
0.030116461 -0.015877403 0.037206888
0.030321747 -0.012480988 0.038656652
-0.018239494 0.031239942 0.033565581
0.030433543 -0.015287314 0.032839417
0.03104366 -0.011612614 0.032537878
-0.013054991 0.03294114 0.029559672
-0.01719844 0.031452082 0.028348446
0.031291511 -0.0094742803 0.027898788
0.030934541 -0.0053638797 0.02781415
-0.011483571 0.032570988 0.024579167
0.031194933 -0.0077982889 0.024416387
0.030484572 -0.0049304329 0.023409784
-0.0056340573 0.030176334 0.020284235
-0.0097904913 0.03177749 0.020403504
0.030505119 -0.0023330692 0.019796908
0.030754481 0.0010475069 0.018247843
-0.00080164708 0.029075859 0.01650542
-0.0060200579 0.029685345 0.016471922
0.030150732 -0.0021515694 0.016013265
0.030306175 0.0011287974 0.014344275
0.00051580369 0.029040348 0.012052476
0.03070502 0.0028754817 0.010473847
0.030710975 0.0076891016 0.00999856
0.0031523276 0.029312713 0.0081704259
0.031215848 -0.022525085 0.040203989
0.029856145 -0.020370662 0.038384974
0.030755797 -0.023441633 0.035078108
0.029774791 -0.01991521 0.034963548
-0.020888221 0.031893101 0.031331003
-0.023356339 0.033825953 0.031754673
0.029621743 -0.018750805 0.030970156
-0.019839721 0.03249583 0.027300239
-0.021850159 0.034133688 0.026970565
0.03075365 -0.0154782 0.026377976
0.031338573 -0.012418009 0.026272833
-0.018645793 0.032284178 0.022457123
-0.022171607 0.034278709 0.021384656
0.031170212 -0.015470344 0.021152318
0.030727128 -0.011807913 0.021115065
-0.012626312 0.031825885 0.018283308
-0.01804807 0.03271585 0.018684387
0.030401107 -0.010870677 0.016301394
0.029606797 -0.0069269873 0.016771555
-0.0070745777 0.029180432 0.013127267
-0.011076284 0.0304082 0.014418304
0.029699638 -0.0049471306 0.0118981
-0.0018647136 0.028578062 0.0089280009
-0.0057463432 0.028265573 0.0089133978
0.031135119 -0.024128713 0.028684914
0.029783376 -0.02047297 0.028106034
0.031240666 -0.023495594 0.02365917
0.029754598 -0.020420082 0.024089992
0.030458789 -0.018827017 0.019471884
-0.015549583 0.030211629 0.014425874
-0.018389672 0.031155616 0.015384376
-0.021759156 0.032755099 0.015280664
0.031399459 -0.015770394 0.014496267
0.031754911 -0.01286065 0.015281856
-0.013925744 0.029829858 0.010810435
-0.018707305 0.030150931 0.010739386
0.030325271 -0.012238204 0.010293305
0.029493123 -0.0081708645 0.0098944902
0.031372428 -0.025232559 0.021297157
0.0308167 -0.023629904 0.017420053
0.030913567 -0.020984782 0.017870843
-0.025181906 0.03073273 0.01088196
0.030731311 -0.019658996 0.013517141
-0.020173566 0.030506371 0.0083489418
-0.023167146 0.03014675 0.0084780455
0.030749759 -0.018195393 0.008238256
0.029000999 -0.026995989 0.0099166036
0.02975795 -0.022791244 0.010555744
