# .PCD v0.7 - Point Cloud Data file format
VERSION 0.7
FIELDS x y z
SIZE 4 4 4
TYPE F F F
COUNT 1 1 1
WIDTH 933
HEIGHT 1
VIEWPOINT 0 0 0 1 0 0 0
POINTS 933
DATA ascii
-0.027656373 -0.018189892 0.19341049
-0.023787925 -0.026546337 0.19274518
-0.03250144 -0.014228882 0.19101405
-0.02962942 -0.023789808 0.19063887
-0.026654113 -0.027549194 0.19014058
-0.023367587 -0.029555395 0.18947518
-0.034804285 -0.014932362 0.18621624
-0.031884931 -0.024498072 0.18636546
-0.035744872 -0.010990027 0.18236554
-0.034674354 -0.020467397 0.18181664
-0.034884412 -0.020361962 0.17737612
-0.019375335 -0.019947752 0.1942907
-0.017367227 -0.024128499 0.19391611
-0.032579347 0.0048637427 0.19184372
-0.030967936 0.001892712 0.19276258
-0.028302934 -0.0068354346 0.19339797
-0.023461502 -0.016058082 0.19335908
-0.020923506 -0.025477678 0.19355303
-0.018618988 -0.02823256 0.19137275
-0.033954293 0.0044377232 0.18911418
-0.033380821 0.0013073906 0.18938649
-0.032371163 -0.007521207 0.19051832
-0.021309612 -0.029536217 0.18764046
-0.035209652 0.0040670596 0.18630159
-0.034509171 0.00049490947 0.18537572
-0.034067549 -0.0079083815 0.18436098
-0.026788369 -0.028431233 0.18285516
-0.022581395 -0.029689051 0.18286243
-0.035594311 -0.008930604 0.1798043
-0.02796335 -0.027649287 0.17916524
-0.023757907 -0.029332515 0.17876089
-0.036150474 -0.0093479296 0.17520043
-0.034787208 -0.020204291 0.17454213
-0.028515292 -0.027672783 0.17402333
-0.036320284 -0.014953515 0.17134523
-0.031813748 -0.023525748 0.17080852
-0.025112128 0.0037242649 0.19311753
-0.022812588 -0.0045953821 0.1933642
-0.017817307 -0.013458347 0.19304839
-0.015015285 -0.018575918 0.1940234
-0.013221096 -0.022539891 0.19391394
-0.011729844 -0.026459077 0.19152057
-0.030846728 0.014171181 0.18992269
-0.029859398 0.0085785463 0.19133478
-0.02886517 0.0038151676 0.19348329
-0.014715455 -0.028944083 0.19002447
-0.011098306 -0.030488273 0.18746269
-0.032408305 0.013486271 0.18664366
-0.032808453 0.0083821006 0.18765581
-0.017152134 -0.030386079 0.18593097
-0.013706978 -0.031119276 0.18447703
-0.03336443 0.0075940955 0.18266127
-0.034502495 0.0015598796 0.18236127
-0.019556239 -0.030461323 0.18082348
-0.014595573 -0.030921258 0.18085158
-0.033232979 0.006155937 0.17919862
-0.034265716 0.0013626805 0.17780992
-0.021292768 -0.03032513 0.17582536
-0.034227654 0.00073126145 0.17292702
-0.035674259 -0.0071320687 0.17237765
-0.023726495 -0.029900067 0.17151383
-0.034721281 -0.0082181897 0.16831407
-0.030445265 -0.023609806 0.16747832
-0.024413686 -0.029749053 0.16760087
-0.034379758 -0.013108823 0.16380182
-0.030431043 -0.023019249 0.16317472
-0.035168581 -0.013861607 0.15958095
-0.032132 -0.02226213 0.15898034
-0.0070081414 -0.018491304 0.19410208
-0.024710417 0.015069481 0.19071275
-0.024033379 0.011478845 0.19146091
-0.022079367 0.0070394697 0.19290322
-0.019924235 0.0016530412 0.19321948
-0.014890671 -0.006445697 0.19365457
-0.011376377 -0.01598363 0.19387519
-0.0091716852 -0.020991597 0.19399786
-0.0075375531 -0.025526892 0.19231641
-0.0064036343 -0.029460605 0.18925703
-0.030361423 0.022987608 0.18884483
-0.030793179 0.019312471 0.18980992
-0.028269192 0.015224058 0.19093975
-0.028295752 0.011770002 0.19161946
-0.0089660427 -0.031931859 0.18730658
-0.0060888641 -0.033294186 0.1849595
-0.032713123 0.022882424 0.18511912
-0.03304344 0.018586397 0.18579191
-0.033716269 0.014928965 0.18508199
-0.011220207 -0.032370485 0.18241513
-0.0072401529 -0.034309372 0.18140218
-0.033392511 0.022130217 0.18162459
-0.033911116 0.01829873 0.18108615
-0.033652902 0.013469516 0.18166268
-0.033087842 0.010406526 0.18009555
-0.012467338 -0.03190219 0.17769706
-0.034450013 0.017395977 0.17705691
-0.033980485 0.013430197 0.17657009
-0.033460125 0.00855623 0.17680463
-0.033247806 0.0046488214 0.1758289
-0.015052265 -0.031706139 0.17392448
-0.033319306 0.0083978754 0.17214566
-0.033805456 0.003831991 0.1711286
-0.020599352 -0.031154374 0.16983366
-0.017335311 -0.032402594 0.16899443
-0.034285121 0.0021736501 0.16679054
-0.03475732 -0.0064418693 0.16611049
-0.022070128 -0.030420423 0.16441688
-0.018595107 -0.032453839 0.16452456
-0.034946747 0.00040978752 0.16291884
-0.03427751 -0.0075197159 0.1620805
-0.026768625 -0.027086921 0.16109586
-0.023445878 -0.029403772 0.16010028
-0.035184242 -0.0080926614 0.15764326
-0.034021508 -0.017474448 0.15682453
-0.027624018 -0.026222214 0.15674353
-0.035584018 -0.013111911 0.15336734
-0.032340601 -0.023189742 0.15255654
-0.035602838 -0.013573144 0.14948282
-0.033714101 -0.023005571 0.14685851
-0.034911804 -0.022301793 0.14342004
-0.01654388 0.01499295 0.1933206
-0.015086712 0.0094125364 0.19389367
-0.013102219 0.004469221 0.19331035
-0.011289374 0.00011786213 0.1930818
-0.0071853483 -0.0087517137 0.19311464
-0.0055468911 -0.013318477 0.19307923
-0.0032521063 -0.019270543 0.19361347
-0.0016843546 -0.023126144 0.19282264
0.0008390462 -0.025472118 0.19089365
-0.026434628 0.030581601 0.19151327
-0.025036601 0.026960375 0.19046926
-0.022943877 0.022274891 0.19060177
-0.021115508 0.018073274 0.19148493
-0.020617545 0.013514262 0.19251719
-0.017991126 0.0083810948 0.19356471
-0.016001631 0.0032669948 0.19337788
-0.0098875184 -0.01114613 0.19255838
-0.008478702 -0.013950149 0.19227219
-0.0015435098 -0.027990835 0.1893833
0.0006491961 -0.030439951 0.18643039
-0.029518425 0.030177146 0.18762714
-0.028809441 0.02598512 0.1885781
-0.025651444 0.021555716 0.19002241
-0.024643658 0.017697245 0.19017112
-0.0031657889 -0.033461004 0.18464759
-0.031524677 0.029781863 0.18268722
-0.032056645 0.025613504 0.18336239
-0.0059441505 -0.035433948 0.17900813
-0.002584178 -0.036468159 0.18028286
-0.032995217 0.029446449 0.17807898
-0.032903671 0.024474932 0.17878431
-0.033264022 0.020702954 0.17813766
-0.0072465986 -0.034494113 0.175524
-0.034983397 0.029189933 0.17515653
-0.033977251 0.024095926 0.17417616
-0.03381031 0.019565869 0.17437422
-0.033962745 0.015517781 0.17405397
-0.011659038 -0.032888848 0.17209175
-0.0080724386 -0.033174776 0.16995949
-0.033895303 0.023516642 0.17051858
-0.033888176 0.019276157 0.16951701
-0.033335082 0.014319426 0.17019403
-0.033107504 0.01015167 0.16998231
-0.01332326 -0.033371743 0.16764009
-0.034270097 0.018212168 0.16561145
-0.033750322 0.014190817 0.16541049
-0.03349106 0.0092699789 0.16506106
-0.033235393 0.0044835135 0.16378188
-0.015225665 -0.032658152 0.16214788
-0.033640757 0.0092181573 0.1602248
-0.033800695 0.0038698763 0.15941271
-0.019955227 -0.030529488 0.15812343
-0.016702376 -0.031636525 0.15742406
-0.034184046 0.0023897449 0.15476835
-0.034858018 -0.0059180954 0.15485144
-0.025334582 -0.027410246 0.15432391
-0.021742472 -0.029370751 0.15337902
-0.01840584 -0.031449325 0.15263098
-0.034957256 -0.0072598881 0.15120482
-0.026781589 -0.027141605 0.15011767
-0.023359872 -0.028981071 0.14867562
-0.034423053 -0.0075715818 0.14611441
-0.034729194 -0.01617714 0.14634004
-0.024295812 -0.028380293 0.14536417
-0.034717917 -0.01711303 0.14211661
-0.02947956 -0.026354285 0.14099696
-0.033801511 -0.022226978 0.13712794
-0.034035444 -0.022396754 0.13332608
0.0031722412 -0.01709157 0.19350904
0.0044122832 -0.020847401 0.19349587
0.0068133604 -0.023293056 0.19258139
-0.018700136 0.029284848 0.19262362
-0.017190101 0.024753684 0.19260272
-0.016323561 0.020261345 0.19312829
-0.013548352 0.016225111 0.19412756
-0.01182916 0.011056142 0.19423521
-0.0092590554 0.0060444409 0.19356492
-0.0072627789 0.0017523903 0.1932199
-0.0036363895 -0.006584282 0.19315311
-0.00066184276 -0.01091501 0.19271511
-0.00022828905 -0.015410569 0.19284236
0.0020842855 -0.021714602 0.1931476
0.0045662373 -0.025975972 0.19091484
0.0069223591 -0.028893748 0.18950939
-0.022328869 0.028098283 0.19144049
-0.020382944 0.024132771 0.19124642
-0.019560553 0.020638861 0.1921643
0.0017592181 -0.028431419 0.1890831
0.0044911522 -0.030033089 0.18633166
0.0027899891 -0.032067671 0.18272358
-0.02959145 0.034714721 0.18056616
-0.031163502 0.035499256 0.17794293
-0.032496851 0.029695861 0.17772907
-0.034674358 0.032529596 0.17289481
-0.034236938 0.028957203 0.17223138
-0.0059449673 -0.034038134 0.16883433
-0.033479244 0.028746413 0.16856682
-0.033981159 0.024768252 0.16790882
-0.0072420463 -0.033536933 0.16391671
-0.033780463 0.024432 0.16416812
-0.03417331 0.020132747 0.16327235
-0.033896796 0.015393302 0.16284105
-0.011735017 -0.032526147 0.15899286
-0.0081832875 -0.032918531 0.15967512
-0.033924084 0.019470159 0.15964618
-0.033487704 0.014721066 0.15919495
-0.033730645 0.010158179 0.15819973
-0.013105704 -0.03238662 0.15606233
-0.033155851 0.013657457 0.15424985
-0.033519316 0.0098593468 0.15387809
-0.03443718 0.0055764159 0.15359414
-0.016100844 -0.032461841 0.15096727
-0.034105431 0.0035902094 0.14869475
-0.020574329 -0.030404078 0.14717793
-0.018409763 -0.032088101 0.1461421
-0.034093969 0.0023446968 0.14432985
-0.034046143 -0.0055860574 0.14352241
-0.022560578 -0.029518291 0.1423384
-0.018890465 -0.03185479 0.14195985
-0.033858187 -0.0066576935 0.13942146
-0.026995651 -0.027475854 0.13837311
-0.024070811 -0.028875526 0.13769951
-0.033874497 -0.011945744 0.13528553
-0.02899351 -0.027269933 0.13487944
-0.024732813 -0.028157629 0.13414389
-0.034000605 -0.016345076 0.13093808
-0.030696478 -0.025634635 0.13013053
-0.032874703 -0.021935347 0.12600976
-0.013192458 0.030783722 0.19461033
-0.011222688 0.027323531 0.1948317
-0.0093733948 0.023263751 0.19320819
-0.0074250479 0.018912347 0.19290206
-0.0057964502 0.012924295 0.1936954
-0.0039967997 0.0082069933 0.19384843
-0.001776757 0.0039628516 0.19376445
-0.00044019235 -0.00064497313 0.19385219
0.0018926241 -0.0048054755 0.19289759
0.0038563404 -0.0091443015 0.19258061
0.0059665074 -0.013088758 0.19229248
0.0087166494 -0.018180452 0.1927737
0.010118993 -0.024070695 0.19195336
0.013010766 -0.027710183 0.19079649
0.014867694 -0.03265439 0.19034338
0.014918421 -0.035464555 0.19113994
-0.016844762 0.030385952 0.19368884
-0.015032717 0.0264189 0.1935434
-0.012759938 0.021776117 0.19356644
0.010722493 -0.029744722 0.18832102
0.012095823 -0.033025343 0.18768153
0.012616602 -0.036212873 0.18797365
0.0084519144 -0.030872811 0.18382233
0.010745276 -0.033189248 0.1831626
0.014018813 -0.035605039 0.18335068
0.0060906457 -0.031624176 0.17978019
0.0080874432 -0.033386011 0.17801178
0.0060228035 -0.034605224 0.1744951
-0.029911701 0.035551574 0.17312893
0.0024712207 -0.034449942 0.17315975
-0.03229101 0.03101906 0.16536215
-0.035689853 0.032851737 0.16219112
-0.032980911 0.030672753 0.16095048
-0.032724593 0.025923491 0.16065028
-0.0068505956 -0.033633895 0.15757754
-0.032399055 0.029460225 0.1570493
-0.03237889 0.025530457 0.15623793
-0.033410802 0.020678673 0.1565125
-0.032520287 0.01729022 0.15591118
-0.011322379 -0.032194693 0.15299925
-0.0076706111 -0.033219535 0.15317774
-0.032864012 0.024304269 0.15273073
-0.033156242 0.020516418 0.15206218
-0.033212069 0.015962213 0.15256941
-0.033217177 0.012052488 0.15178847
-0.011828637 -0.032335956 0.15145597
-0.0081362538 -0.0325698 0.14819938
-0.033877302 0.019515779 0.14805278
-0.033404607 0.015476473 0.14759195
-0.033190556 0.010778331 0.14800248
-0.033392072 0.0071202042 0.14631367
-0.012496334 -0.032426078 0.14619762
-0.034122881 0.014472064 0.14357528
-0.033500195 0.010742571 0.14271444
-0.033955965 0.0048864391 0.14239967
-0.033135153 0.00063688587 0.14089334
-0.016754406 -0.032436252 0.13903093
-0.033751234 0.0090950225 0.13940614
-0.033296507 0.0050347624 0.13809294
-0.033279561 -0.0043431586 0.13635528
-0.020738332 -0.030092252 0.13575965
-0.017932169 -0.031921096 0.13486004
-0.034363307 -0.0060938043 0.13308212
-0.024528146 -0.029019635 0.13189426
-0.020237669 -0.030589312 0.13072306
-0.034927212 -0.0065612877 0.12856966
-0.033219878 -0.015883317 0.12740535
-0.028958311 -0.026119001 0.12689066
-0.025512297 -0.028685786 0.12680048
-0.034386531 -0.011023122 0.12318283
-0.033115596 -0.02024046 0.12383902
-0.02721183 -0.027835209 0.12221789
-0.034302693 -0.016151262 0.11874306
-0.031083521 -0.024713624 0.11855412
-0.034341197 -0.020921256 0.11478823
0.013930659 -0.011275364 0.19376099
0.015377057 -0.014565886 0.19513264
0.01735729 -0.019405777 0.19423553
0.01961329 -0.023643272 0.19281119
-0.0059971143 0.024745636 0.19287157
-0.0030095996 0.020857874 0.1918923
-0.0017826981 0.016093172 0.19299829
0.00012628874 0.010778593 0.19381517
0.0031247563 0.0065521011 0.19351366
0.007324894 -0.0030767375 0.19274417
0.0090368278 -0.0071365032 0.19298127
0.010842898 -0.011569322 0.1927703
0.011772998 -0.01635856 0.19330132
0.014197966 -0.021387452 0.19266549
0.016778164 -0.026366511 0.19211864
0.018751079 -0.030510426 0.19063243
0.019148778 -0.033956554 0.1912387
0.013471574 -0.034022372 0.17964447
0.013793252 -0.036182694 0.18048912
0.011543655 -0.033652924 0.17771286
0.012502159 -0.036683738 0.17735931
0.0099548046 -0.03515901 0.17445153
0.010591485 -0.036620088 0.17435873
0.00302359 -0.03231483 0.16395387
0.0061126901 -0.032868605 0.1631276
0.00024188496 -0.033226494 0.16017443
0.0042646509 -0.033422958 0.15868491
-0.031909499 0.034914561 0.15749541
-0.0022420995 -0.034024414 0.15619928
0.0022954019 -0.034023296 0.1543209
-0.032017112 0.031811155 0.1541681
-0.031708874 0.028228844 0.15401816
-0.005528925 -0.033347633 0.14956674
-0.033305954 0.030442579 0.14978322
-0.032621685 0.0265697 0.14993998
-0.03241431 0.023010977 0.14890224
-0.0063842433 -0.032717053 0.14615792
-0.032580819 0.025790708 0.14552873
-0.032918304 0.02162756 0.14531201
-0.033159997 0.017713808 0.14479107
-0.010897116 -0.031713352 0.14213955
-0.0066076275 -0.031807989 0.14130527
-0.03315971 0.020146154 0.14088878
-0.033789314 0.01651831 0.14098233
-0.012168448 -0.032125201 0.14017808
-0.010110252 -0.032947786 0.13612673
-0.033525635 0.015748713 0.13647822
-0.033249117 0.011441794 0.1363771
-0.033209354 0.0069377962 0.13567865
-0.015631784 -0.033223402 0.1340408
-0.012061731 -0.033996921 0.132815
-0.03187003 0.010320352 0.1320841
-0.03217316 0.0061375061 0.13194337
-0.032516092 0.0019705305 0.13151035
-0.018298736 -0.032091215 0.12944371
-0.015125297 -0.034022674 0.12905005
-0.033230789 0.00049660634 0.1265083
-0.019268392 -0.030894116 0.1249693
-0.015748795 -0.033007421 0.12534893
-0.03506143 -0.0053644031 0.12153202
-0.02398747 -0.029102579 0.12030053
-0.020743538 -0.029915208 0.11983007
-0.035043493 -0.010763168 0.11716461
-0.029678734 -0.02598542 0.11568409
-0.026081897 -0.028030071 0.11562711
-0.022363417 -0.030039757 0.11548984
-0.035538167 -0.010979743 0.1122362
-0.034062427 -0.020683259 0.11159343
-0.027481366 -0.027115025 0.11098343
-0.035452295 -0.016222594 0.10820192
-0.031516474 -0.024351839 0.10793352
0.017192032 -0.0041199583 0.19715914
0.017990122 -0.008546263 0.19703844
0.00033883285 0.028283132 0.19423509
0.0069460142 0.012759696 0.19333681
0.011088267 0.0037528193 0.19427171
0.012582512 -0.00063602254 0.19445768
0.01392529 -0.0052901581 0.1945433
0.015516038 -0.0096065458 0.19495934
0.018709425 -0.015489062 0.19463176
0.022058539 -0.022753859 0.19314086
0.022537962 -0.027662788 0.19189975
-0.0014457768 0.026726317 0.19272768
0.0015151855 0.022797367 0.19177607
0.0025424464 0.018381003 0.19246519
0.0042722858 0.012540103 0.19301593
0.006227267 0.0063966108 0.19303113
0.0094254389 -0.00094285631 0.1925649
0.0088114124 -0.033556655 0.16162378
0.010482416 -0.034617774 0.15987122
0.0075809555 -0.033877939 0.15673727
0.0096300542 -0.034845375 0.15662822
0.0049025146 -0.033938814 0.15458974
-0.00042599812 -0.033094842 0.14627302
-0.03147326 0.034051716 0.14783397
-0.0028550392 -0.03217987 0.14281943
0.00045917369 -0.033725064 0.14353627
-0.032430399 0.031227078 0.14424607
-0.03163299 0.02798786 0.14270064
-0.031683352 0.023756269 0.14250514
-0.0049972758 -0.032430332 0.13895479
-0.0016794801 -0.03420192 0.13864431
-0.034760289 0.033091705 0.14052173
-0.031219564 0.02672296 0.13806635
-0.031903781 0.02321996 0.13851595
-0.0061294632 -0.032732181 0.13492042
-0.0048305439 -0.034367349 0.1339494
-0.031790625 0.02146617 0.13378727
-0.0331637 0.017819628 0.13383514
-0.0099366093 -0.034457739 0.13151261
-0.0076239845 -0.035713587 0.13026217
-0.032595042 0.016668553 0.12945473
-0.032340135 0.012220978 0.12977695
-0.031971592 0.0081050992 0.1294176
-0.011246137 -0.033942997 0.12643784
-0.032787077 0.015564033 0.1256507
-0.033010457 0.011782072 0.12496215
-0.032833308 0.006786746 0.12575382
-0.032672875 0.0034404043 0.12447011
-0.016965676 -0.031648181 0.12195724
-0.012695619 -0.032641336 0.12222636
-0.033450436 0.010897506 0.12064773
-0.033571068 0.0067769913 0.12038642
-0.033803985 0.0020131208 0.12068659
-0.017262822 -0.030942956 0.11768574
-0.03338322 0.006200592 0.11646086
-0.033977605 0.00083922222 0.11595762
-0.020846147 -0.030429751 0.1133523
-0.035342015 -0.0051251464 0.11039662
-0.025526965 -0.028621238 0.10908896
-0.021564139 -0.030550776 0.10875076
-0.035730183 -0.0061390139 0.10592258
-0.034996659 -0.015068368 0.10561961
-0.030808482 -0.024735298 0.10485774
-0.027363915 -0.028138876 0.10473055
-0.023835555 -0.030273341 0.10572761
-0.035321586 -0.015586954 0.10135019
-0.031769276 -0.024532592 0.10103047
-0.035648916 -0.012045937 0.096712172
-0.034419373 -0.020187385 0.095874786
-0.030031689 -0.027697029 0.095921874
0.0140816 0.016956735 0.19468218
0.016995879 0.0062935278 0.19542679
0.0051507335 0.027769599 0.19350711
0.0074796686 0.025293292 0.19265342
0.0094445646 0.020858945 0.19235319
0.0108357 0.016393038 0.19291249
0.014755628 0.0072137499 0.19370577
0.0026012929 -0.035278264 0.14095831
0.0034016753 -0.03669719 0.14075166
0.0013990849 -0.035636131 0.13793796
0.0023516761 -0.036998402 0.13761944
-0.030012731 0.032702979 0.13695458
-0.030117545 0.029572573 0.13632619
-0.0012004701 -0.035589337 0.13281789
0.0012069661 -0.03733512 0.13455087
-0.030912939 0.033385392 0.13176918
-0.030096356 0.028950732 0.13199085
-0.030246969 0.024697317 0.13116044
-0.0030184658 -0.036308117 0.12852049
-0.0013107862 -0.038094349 0.12857443
-0.032609522 0.03288094 0.12810743
-0.03099497 0.028097764 0.12746197
-0.030587297 0.023541169 0.1262629
-0.030597938 0.020008031 0.12609655
-0.034245804 0.032686025 0.12465972
-0.031683035 0.026736025 0.12430191
-0.03179691 0.023273144 0.12222117
-0.031609494 0.018280759 0.12201762
-0.03221181 0.014296548 0.12163097
-0.012529874 -0.031625204 0.11893684
-0.032196086 0.016752843 0.11759645
-0.032423105 0.013284944 0.11741453
-0.012370598 -0.031444188 0.11484456
-0.032590691 0.012636323 0.11297238
-0.032246999 0.0080176936 0.11270154
-0.032413639 0.0042066853 0.11231405
-0.016149007 -0.031020094 0.1114195
-0.012682061 -0.031418066 0.11010665
-0.032449577 0.0066071795 0.10828906
-0.032771684 0.002991301 0.10888976
-0.017801192 -0.031490304 0.10673845
-0.01563476 -0.032341186 0.10443169
-0.033417553 0.0022237413 0.10412878
-0.020804234 -0.031249117 0.10254401
-0.017062634 -0.03278365 0.10155505
-0.034228146 -0.0080849733 0.098694503
-0.025979251 -0.029104158 0.098013103
-0.022414211 -0.030726742 0.098144948
-0.034594279 -0.0093032643 0.094970286
-0.026836298 -0.028863467 0.094067097
-0.024356054 -0.030088177 0.094086945
-0.034385316 -0.01446698 0.089809656
-0.031215683 -0.024226815 0.089350164
-0.035561532 -0.011546967 0.086464822
-0.032968324 -0.01989729 0.085491359
-0.029635485 -0.026617836 0.08597976
0.017117331 0.020266015 0.19757283
0.012496553 0.02672945 0.19460961
0.013900649 0.022577874 0.19519243
0.015977703 0.018471472 0.19589433
0.019638861 0.010831967 0.19597426
0.0028776806 -0.036658723 0.1313664
-0.030421596 0.035869692 0.12925264
-0.032850631 0.03325136 0.12556303
-0.031122226 0.030357368 0.12703401
-0.032788709 0.032204881 0.12181538
-0.032075427 0.028727826 0.12188947
-0.031293385 0.02191205 0.11923492
-0.033134267 0.032768581 0.11796039
-0.032429658 0.028273743 0.11773384
-0.031856973 0.023813143 0.116947
-0.031710025 0.019468728 0.11573535
-0.031906188 0.02254995 0.11206383
-0.03269355 0.017972827 0.11177438
-0.032765556 0.013858905 0.11024863
-0.010150855 -0.031731442 0.10843426
-0.032764483 0.018096263 0.10763717
-0.032892179 0.012901745 0.10682964
-0.03238789 0.0090989154 0.10674721
-0.012091306 -0.032408629 0.10416073
-0.032997958 0.016814072 0.10370696
-0.032761455 0.013107143 0.10203522
-0.032959439 0.0078401212 0.10210866
-0.033119094 0.0036441982 0.10099936
-0.014441461 -0.032885127 0.098725855
-0.03276683 0.0066570966 0.096991062
-0.033295475 0.0028889365 0.09729743
-0.019102126 -0.031603437 0.09470135
-0.0165416 -0.032367337 0.094062209
-0.03383093 0.0018714909 0.092294931
-0.021160001 -0.031009968 0.090714037
-0.03466817 -0.0075651421 0.088578105
-0.025808122 -0.028693825 0.087741673
-0.0236149 -0.030271344 0.086945295
-0.03524274 -0.014342042 0.083407342
-0.030849636 -0.023922907 0.082637012
-0.024791488 -0.029864002 0.082230628
-0.034492031 -0.019559665 0.07964015
-0.029127888 -0.026835242 0.077944577
-0.035049349 -0.019570649 0.074524939
-0.031246142 0.034493379 0.11826444
-0.031617917 0.033750825 0.1137113
-0.031485673 0.029748758 0.11406201
-0.0029284135 -0.031243581 0.10833341
-0.031990789 0.033005483 0.10914469
-0.031375185 0.029660039 0.1095131
-0.031551346 0.025230631 0.11028498
-0.0054176645 -0.032097008 0.10624772
-0.03339918 0.032651328 0.10518587
-0.032833457 0.029101565 0.10488957
-0.032373585 0.024109311 0.10551775
-0.03268766 0.019808821 0.10543728
-0.0066784862 -0.032417409 0.10118568
-0.032834262 0.024036504 0.10007471
-0.032338642 0.019310739 0.10037297
-0.032191996 0.015579636 0.10042566
-0.0082100071 -0.032842498 0.096321821
-0.031753913 0.018435337 0.095714629
-0.031488899 0.014411933 0.095168531
-0.031457324 0.01011289 0.09580487
-0.012719635 -0.032675095 0.093425393
-0.031461466 0.012853421 0.091482759
-0.03184218 0.0091756154 0.090645134
-0.032879047 0.0051450878 0.091391325
-0.014761709 -0.032586407 0.08839339
-0.032422289 0.0079669245 0.086625397
-0.032846641 0.0038781362 0.086359441
-0.020332031 -0.031163018 0.084367156
-0.015823644 -0.032483432 0.083444476
-0.033228856 0.0031547127 0.081640482
-0.033735648 -0.007029078 0.080561578
-0.021044767 -0.030475289 0.079829276
-0.033407547 -0.0064689154 0.076861322
-0.026310608 -0.027897518 0.075711131
-0.02242811 -0.029788254 0.074945807
-0.03375908 -0.01190089 0.071272671
-0.031409688 -0.023696292 0.070748806
-0.024001006 -0.029241852 0.072283506
-0.033208255 -0.017663151 0.066896975
-0.027912986 -0.026170354 0.067211986
-0.031998523 -0.020582141 0.063657939
0.0017235428 -0.029608145 0.11078089
0.0041415691 -0.031873394 0.11086947
-0.00017097406 -0.030258382 0.1092189
0.002542831 -0.032214083 0.10739815
-0.00088933762 -0.032979608 0.10333306
-0.032931421 0.033103902 0.10172814
-0.033149101 0.031159163 0.10235041
-0.0029343646 -0.033604156 0.098858953
-0.031929709 0.033828206 0.097812593
-0.032627858 0.029623063 0.098565876
-0.032432348 0.026440155 0.096929789
-0.0041830828 -0.033756904 0.094110727
-0.030988559 0.024543237 0.09434253
-0.031365275 0.020312034 0.093216121
-0.0084947404 -0.032782473 0.090439081
-0.0057063857 -0.03346356 0.088619411
-0.030658873 0.01869354 0.089449167
-0.03064209 0.015181104 0.088274717
-0.010439481 -0.033367373 0.085878313
-0.0080179991 -0.03419042 0.084338486
-0.030258346 0.013784597 0.084261477
-0.032635037 0.0097932396 0.084275961
-0.013525859 -0.033488981 0.08100307
-0.010369623 -0.033196479 0.080676019
-0.032356363 0.0088584814 0.079668462
-0.033151384 0.00510603 0.079032898
-0.018748805 -0.030927707 0.077020645
-0.01547781 -0.032177292 0.077387989
-0.032762591 0.0036993651 0.074997842
-0.0192867 -0.031014239 0.073335886
-0.016780976 -0.031787872 0.071671426
-0.033352129 -0.0060139587 0.069883406
-0.025099248 -0.027782144 0.0686059
-0.022657 -0.029680189 0.068917096
-0.019853402 -0.031111903 0.069664419
-0.034355909 -0.010707352 0.065558374
-0.024424238 -0.028253883 0.064081728
-0.033964608 -0.016837874 0.061041236
-0.02744638 -0.02444341 0.060692668
-0.034233063 -0.017145004 0.057379365
0.0071917195 -0.033789437 0.10563248
0.0059760767 -0.033934195 0.10084701
0.0046866396 -0.034010448 0.097028613
-0.030611055 0.03478761 0.092573881
-0.030343581 0.031601053 0.09156245
-0.029918607 0.026546959 0.091559887
-0.030358778 0.022367554 0.090359151
-0.0035761129 -0.034435082 0.08836019
-0.031230589 0.031028459 0.087037981
-0.030255429 0.026225446 0.087278664
-0.030140445 0.021217275 0.087219656
-0.0054811602 -0.034426596 0.083933055
-0.032809742 0.029914662 0.083064139
-0.031504177 0.025768423 0.082392216
-0.030709364 0.020885102 0.082792282
-0.030229753 0.016273368 0.082927227
-0.0084786583 -0.034229472 0.0795632
-0.032012768 0.024191445 0.078783333
-0.031964898 0.020418458 0.07790637
-0.031463474 0.015403766 0.078565896
-0.031744197 0.010564515 0.077271104
-0.013909526 -0.032548085 0.073861182
-0.010812651 -0.033795357 0.075331926
-0.033122905 0.018587444 0.073805273
-0.032944087 0.015068063 0.073550403
-0.03247593 0.010103939 0.073903501
-0.032602765 0.0053756982 0.07272315
-0.014710032 -0.032742165 0.070377767
-0.010265596 -0.032895319 0.07125622
-0.033360008 0.014200173 0.069941819
-0.032850936 0.0096926875 0.069260776
-0.032269564 0.0050821565 0.068853021
-0.017209537 -0.031429674 0.066106737
-0.03335714 0.0081568342 0.065295637
-0.032963306 0.004805861 0.063805521
-0.03313788 -0.0041361637 0.062168479
-0.021313405 -0.029069461 0.061933815
-0.017503638 -0.031038482 0.06123215
-0.033794302 0.0028784815 0.059735298
-0.033240963 -0.0060745641 0.059195101
-0.026987527 -0.024954183 0.057666361
-0.021968955 -0.028000655 0.057628989
-0.018575495 -0.030280283 0.058086336
-0.03385929 -0.0056242556 0.054504037
-0.033232909 -0.01579096 0.053407371
-0.027799912 -0.024753092 0.053219974
-0.023932837 -0.027706211 0.053127348
-0.034075946 -0.010806787 0.049459219
-0.031877737 -0.020852245 0.049027324
-0.024993762 -0.027101971 0.049582481
-0.033854906 -0.015704826 0.045456529
-0.029492211 -0.024761055 0.045291424
0.0067605888 -0.034707054 0.09358412
0.0057749064 -0.034597214 0.088936746
0.0030747317 -0.034147233 0.085094213
-0.032137714 0.032815672 0.084933937
0.00068088993 -0.034498796 0.082265675
-0.032966293 0.031631634 0.080887794
-0.032348938 0.027581388 0.080229223
-0.031739548 0.030735476 0.075252712
-0.031994171 0.026433492 0.075868189
-0.032148592 0.022547815 0.075168729
-0.031474199 0.024861824 0.071997821
-0.031958006 0.021368425 0.071181118
-0.03200379 0.020111591 0.066681504
-0.032581925 0.015614673 0.066905081
-0.032222085 0.011317638 0.06568557
-0.013324784 -0.032016896 0.062921762
-0.032124229 0.010295458 0.062123358
-0.01339864 -0.031924255 0.058773816
-0.01231732 -0.0332263 0.056202829
-0.031431735 0.0094095627 0.057217896
-0.033107221 0.0053822668 0.057484269
-0.033581339 0.0013186084 0.056852758
-0.019898862 -0.028893236 0.054535329
-0.016660711 -0.031241508 0.054785013
-0.033428892 0.0038658315 0.052359223
-0.034317795 0.00014939066 0.052697539
-0.020736115 -0.029094858 0.051030576
-0.018105127 -0.030296288 0.049850762
-0.034820795 -0.0055670221 0.047922969
-0.02374652 -0.028017245 0.046752453
-0.034197208 -0.010224804 0.042949915
-0.02890991 -0.025224224 0.042104542
-0.024814993 -0.027209273 0.041541815
-0.033763569 -0.010479845 0.039136648
-0.031193592 -0.020175088 0.038317442
0.0057926783 -0.035353318 0.083977103
-0.031387255 0.032990389 0.074001312
-0.031646945 0.031355474 0.069400251
-0.031048354 0.027382456 0.069778562
-0.030826746 0.023595609 0.067676365
-0.033017956 0.031026026 0.065275073
-0.031830169 0.026956346 0.065453172
-0.03168292 0.022780981 0.065043032
-0.030418184 0.01677672 0.062883198
-0.034426838 0.029743211 0.061419308
-0.032686733 0.026878286 0.060866237
-0.031260546 0.021756765 0.060697973
-0.030719254 0.017059822 0.060335338
-0.030896109 0.012244401 0.059203267
-0.010356992 -0.03252016 0.056625783
-0.030865831 0.015645878 0.055633903
-0.031351451 0.011943776 0.055771232
-0.011266021 -0.032726839 0.052106321
-0.032068204 0.011065914 0.05118978
-0.032301653 0.0070839673 0.051664293
-0.014049345 -0.031410575 0.048075438
-0.011228577 -0.032623008 0.048879206
-0.032190055 0.0096456902 0.047166288
-0.033088297 0.0056561865 0.046842277
-0.020183451 -0.0286697 0.044143617
-0.016606826 -0.030555598 0.044419289
-0.034233384 0.00362592 0.041923463
-0.034176812 0.00027254969 0.0422104
-0.021107152 -0.028439108 0.040022194
-0.018286796 -0.029607557 0.039724052
-0.034357704 0.0037946021 0.037703633
-0.034312032 -0.0046122316 0.037195921
-0.031244209 -0.014742279 0.036204159
-0.027972985 -0.02416423 0.034848988
-0.023414634 -0.027529929 0.035726845
-0.033166699 -0.01017045 0.032423913
-0.030918285 -0.019827485 0.032049835
-0.024955571 -0.026906185 0.030889869
-0.033157088 -0.015356595 0.027466774
-0.029475002 -0.02423659 0.027054727
-0.032832731 -0.02021794 0.022960246
0.0054257889 -0.032375168 0.065833449
0.0013919631 -0.031902794 0.060274303
0.0012299204 -0.031909853 0.058287919
-0.032987043 0.030683041 0.05691725
-0.031487741 0.027683927 0.056580782
-0.030563982 0.02346557 0.05700618
-0.032160006 0.031316459 0.052937806
-0.031122578 0.028005548 0.054098487
-0.030337177 0.022606976 0.053433716
-0.030209512 0.018524371 0.053405166
-0.0052566677 -0.032244422 0.049504936
-0.030518886 0.017315611 0.048632324
-0.031845413 0.013390182 0.047995985
-0.0083847186 -0.032559179 0.045400262
-0.030720219 0.016532274 0.044127762
-0.031664889 0.012113137 0.04367882
-0.031629018 0.0082951235 0.04284215
-0.013974288 -0.031017199 0.040645659
-0.010574071 -0.032862239 0.040351748
-0.03134134 0.011332799 0.039632082
-0.031773031 0.0073280856 0.039375365
-0.015239495 -0.030468035 0.036496162
-0.011706255 -0.032449797 0.036413133
-0.032896109 0.0063508525 0.035286009
-0.033420213 0.0016825339 0.033264875
-0.020377472 -0.028371688 0.032472491
-0.017058071 -0.029823188 0.032387912
-0.032321576 0.0049627246 0.031451881
-0.033050597 0.00071310811 0.030229807
-0.033094808 -0.0079721808 0.02931565
-0.02189271 -0.027905773 0.028174818
-0.018029727 -0.029205188 0.029758334
-0.032914713 -0.0095296465 0.025303781
-0.027424548 -0.025340308 0.023278534
-0.023862552 -0.026423955 0.024299502
-0.033069298 -0.014807524 0.020478308
-0.028683828 -0.023892891 0.019551098
-0.024000805 -0.025751725 0.020603001
-0.03143879 -0.019852575 0.015733957
0.010555397 -0.03240921 0.069453299
0.01302225 -0.034185983 0.068117678
0.0048933299 -0.030722585 0.06370002
0.0096926633 -0.032608345 0.064877093
0.011129926 -0.035161588 0.064479589
0.0037403372 -0.031082917 0.061484039
0.0069266991 -0.032601368 0.060579598
0.0093658995 -0.034387857 0.059242427
0.0010666167 -0.031917296 0.056299031
0.0046095606 -0.032886721 0.056555569
2.749823e-05 -0.031303082 0.052680969
0.0017963313 -0.032129377 0.051567495
-0.03031753 0.028545961 0.051214039
-0.0027965521 -0.0313772 0.050587535
-0.00048714876 -0.032236814 0.046933234
-0.031103224 0.032213092 0.046553135
-0.03063116 0.028673261 0.047151506
-0.029730685 0.023728615 0.047535956
-0.0042151585 -0.033476833 0.04264766
-0.0014704131 -0.032503508 0.043483257
-0.032641888 0.031804323 0.042493761
-0.032110736 0.028361844 0.041952491
-0.030488255 0.023512801 0.042025447
-0.03037429 0.019091172 0.042726219
-0.0075539947 -0.032875247 0.041856349
-0.0047372831 -0.033537578 0.03770858
-0.033465762 0.028917432 0.038554847
-0.03156459 0.022585489 0.037531674
-0.031476401 0.017800562 0.037933469
-0.031071894 0.012947899 0.037358642
-0.010085627 -0.033158626 0.034798563
-0.0066780522 -0.034144998 0.034012616
-0.032005873 0.016994989 0.032106221
-0.03177125 0.012428009 0.033210337
-0.031464152 0.0089029698 0.032885015
-0.013256689 -0.031063911 0.030793905
-0.010492696 -0.032701701 0.029062748
-0.031811222 0.011343735 0.027598739
-0.032226197 0.0072288895 0.028295875
-0.032175936 0.0034012161 0.027458966
-0.01568462 -0.029716447 0.02586472
-0.012396448 -0.03176976 0.024537861
-0.0326862 0.0059757046 0.023220778
-0.032442495 0.0016476884 0.023841679
-0.020268016 -0.027544882 0.021887064
-0.01702131 -0.02900498 0.020765126
-0.033209238 0.0016297121 0.017936409
-0.032025378 -0.0084094312 0.018280089
-0.02211315 -0.026731562 0.017169297
-0.033618849 -0.0040503312 0.013660371
-0.032049846 -0.013657063 0.013304353
-0.0274936 -0.023824148 0.013465047
-0.023536451 -0.026011297 0.012005508
-0.031095285 -0.013588816 0.0097497106
-0.027303375 -0.022965087 0.0082992911
-0.024729691 -0.025604097 0.0080443025
0.014371448 -0.036320243 0.064521968
0.010346482 -0.035827361 0.058890522
0.0062560695 -0.03357704 0.053917468
0.0094213337 -0.035125233 0.053023756
0.0053984341 -0.032867506 0.049050987
0.009321833 -0.034156244 0.048578203
0.0045291418 -0.033092234 0.045490444
0.0018457258 -0.033018678 0.040007353
-0.00074836332 -0.033875372 0.036858141
-0.031646594 0.027058307 0.036566556
-0.031271439 0.024479952 0.035911143
-0.005507661 -0.034875516 0.032219172
-0.031371057 0.027477764 0.031902254
-0.030468099 0.024204755 0.03102237
-0.031219512 0.020128971 0.031680524
-0.00534527 -0.03457056 0.027242124
-0.030464258 0.022585757 0.027127445
-0.030923141 0.018738896 0.026045084
-0.030928396 0.014407594 0.026197314
-0.011527932 -0.03245588 0.02276969
-0.0072708651 -0.034089755 0.023635387
-0.031137811 0.017931065 0.022448063
-0.030936396 0.013442542 0.021390975
-0.03220534 0.0085885758 0.021638453
-0.015668787 -0.029815719 0.01935941
-0.011808342 -0.031625491 0.018503129
-0.031327672 0.011684516 0.016742289
-0.032420024 0.0077815615 0.017051041
-0.017394101 -0.029122058 0.015099645
-0.012901164 -0.031068999 0.014557719
-0.033007279 0.006895707 0.0125646
-0.033241481 0.0028268099 0.012129843
-0.017966285 -0.028219163 0.010256231
0.011171093 -0.034641694 0.045887768
0.0069544567 -0.033026304 0.041482627
0.010404489 -0.034824632 0.041855454
0.011880844 -0.038518455 0.041363299
0.0054312125 -0.033500034 0.03846246
0.0078848591 -0.034396686 0.03682375
0.0054525263 -0.033386856 0.034090459
-0.030309662 0.028217949 0.027590513
-0.029908951 0.026514452 0.027753592
-0.029934179 0.028547214 0.025013864
-0.030220417 0.024423257 0.024226606
-0.031085718 0.020659503 0.023809254
-0.031094804 0.023704473 0.019656539
-0.031267587 0.019253656 0.019354582
-0.031278685 0.015289241 0.018945634
-0.031274252 0.022871099 0.016744554
-0.031098368 0.018964432 0.01465255
-0.031442635 0.013892476 0.015092075
-0.011616544 -0.030795615 0.010865629
-0.031333037 0.018492252 0.01145035
-0.0319351 0.013616678 0.010800183
-0.032982484 0.0085709477 0.010213315
0.011953507 -0.036045745 0.039928615
0.0098910909 -0.036201231 0.035775125
0.0090537658 -0.035300873 0.030961335
0.0083339717 -0.034024324 0.027681231
-0.028549528 0.027467323 0.022024155
-0.028261278 0.027892858 0.0172683
-0.030420061 0.024600899 0.01289767
-0.031225976 0.021263361 0.012761652
-0.031003799 0.023485074 0.0086048841
-0.02696621 0.030744456 0.010968983
-0.028668566 0.028046746 0.012023151
