# .PCD v0.7 - Point Cloud Data file format
VERSION 0.7
FIELDS x y z
SIZE 4 4 4
TYPE F F F
COUNT 1 1 1
WIDTH 943
HEIGHT 1
VIEWPOINT 0 0 0 1 0 0 0
POINTS 943
DATA ascii
0.031342287 0.03119388 0.18890685
0.024421562 0.034452859 0.18878141
0.016663654 0.037419327 0.18644503
0.029607631 0.034493737 0.18488479
0.021022793 0.037659373 0.18422729
0.029191781 0.035681527 0.18122831
0.022964373 0.037992749 0.18136385
-0.00091670919 0.03408673 0.1921992
0.030725213 0.026414748 0.19120836
0.022523919 0.030186739 0.19123024
0.012800161 0.03329375 0.19073558
0.0035921279 0.036524169 0.19032645
-0.00093276333 0.037231419 0.1891942
0.032778881 0.028446324 0.18775108
0.014191102 0.036399636 0.1873194
0.0049311351 0.03916157 0.18587765
0.033266913 0.030428417 0.18359733
0.0099233259 0.038689535 0.18160737
0.033345327 0.033017788 0.17915523
0.026436819 0.037481956 0.17822149
0.016365675 0.039263323 0.17808196
0.033563338 0.03328187 0.1744211
0.026480943 0.036878198 0.1731531
0.017093724 0.03903782 0.17418718
0.027596306 0.019359887 0.19247964
0.023606181 0.020865556 0.19264841
0.015131781 0.024160929 0.19277865
0.0052256556 0.028426182 0.19213846
-0.0034920312 0.032599743 0.19268417
-0.0078435401 0.033152722 0.19131905
-0.013276027 0.034887001 0.18994784
-0.017826643 0.036190771 0.1900675
-0.025815256 0.038759448 0.18961379
0.033028867 0.018689632 0.18773675
0.030446753 0.021037232 0.19091755
0.024755169 0.023553086 0.1917516
0.016403515 0.027546644 0.19162607
-0.0034827981 0.035748277 0.1905973
-0.0063384594 0.036320556 0.18794069
-0.012156888 0.036345229 0.18683508
-0.01670827 0.037445575 0.18721068
0.033527952 0.019632317 0.18567881
0.032998264 0.022426277 0.1852912
-0.0012347465 0.038872879 0.18273503
-0.0058969865 0.037598714 0.18254495
-0.010624101 0.037184637 0.18348503
0.03355391 0.02444862 0.18022937
0.0001448812 0.039139412 0.17903638
-0.0042186286 0.038710788 0.17752558
0.034418166 0.028996725 0.17763686
0.0051183281 0.038563654 0.17466199
-0.003776107 0.039450128 0.17441875
0.034046136 0.031471707 0.17257544
0.02158786 0.037374731 0.17037413
0.010730857 0.03823014 0.17122161
0.033294786 0.031694926 0.16788429
0.026414284 0.036500521 0.1668717
0.017354006 0.037309114 0.16723436
0.030654542 0.034895826 0.16273886
0.023075715 0.037269343 0.16202036
0.016473092 0.015744824 0.19236857
0.0079110088 0.019456645 0.19202316
-0.0019240435 0.025012381 0.19306248
-0.0057876036 0.02703033 0.19327569
-0.010293148 0.027505502 0.19210252
-0.015381036 0.02920001 0.19134411
-0.020315934 0.031328563 0.19213814
-0.024213649 0.033257499 0.19247371
0.031262979 0.013224235 0.19025397
0.027622584 0.014676331 0.19193617
0.022236399 0.017586904 0.19317037
0.012103933 0.021426365 0.19245768
0.0047939648 0.023993418 0.19183177
-0.010745801 0.030956905 0.19133127
-0.014046619 0.032642469 0.19097647
-0.019733112 0.03537976 0.18990064
-0.023362804 0.036699295 0.18916047
-0.02665809 0.038128957 0.18842363
0.032894798 0.014775843 0.18732268
-0.014555541 0.03702601 0.18455392
-0.018293047 0.03756905 0.18501347
-0.02242814 0.038455997 0.18494752
-0.025916478 0.039763045 0.1850577
0.034407105 0.017242499 0.18314022
-0.011870971 0.037545435 0.18047184
-0.017356645 0.038101561 0.18071339
-0.021841649 0.038989507 0.18016431
-0.024593418 0.04096042 0.18209702
0.035445128 0.019565865 0.178159
0.033850498 0.023460358 0.17790908
-0.0070332987 0.038023002 0.17631367
-0.010641499 0.038286932 0.17578873
-0.015802769 0.03784379 0.17530715
-0.02062563 0.03816808 0.17614788
0.035187364 0.020658497 0.17421615
0.034013554 0.023315592 0.17419547
-0.0048769126 0.039215006 0.17159608
-0.0096394876 0.038917556 0.17078596
0.033603646 0.024331953 0.16913325
0.0044504181 0.036894519 0.16773075
-0.0041841203 0.039170492 0.16787079
-0.0078428267 0.039356504 0.16764393
0.033117093 0.028190171 0.16573009
0.010274475 0.036302552 0.16361228
0.032790851 0.030962963 0.16173387
0.026628744 0.036059175 0.15926108
0.01684778 0.036861323 0.15958285
0.030700285 0.033741534 0.15557733
0.022259969 0.036601696 0.15506765
0.030325696 0.033830371 0.15153736
-0.023390634 0.024100214 0.19409448
-0.025595115 0.026152428 0.19429189
0.028244015 0.0071390485 0.19092149
0.025022598 0.0086364355 0.19130456
0.020691529 0.011611445 0.19218796
0.014763951 0.012661773 0.19248587
0.0064016273 0.015960788 0.1924257
-0.002977286 0.019449601 0.19227815
-0.0083902236 0.021171072 0.19299531
-0.012648568 0.023055516 0.19223645
-0.016977686 0.024784114 0.19137254
-0.021634832 0.026549235 0.19256225
-0.025286816 0.029215861 0.19360691
0.034092475 0.0070584547 0.18848199
0.031564113 0.0097454637 0.19023693
0.035527069 0.0093000727 0.18499789
0.033828948 0.01214873 0.18702942
0.035288703 0.010639636 0.18108502
0.035265222 0.014792875 0.1806784
-0.02394269 0.038474899 0.17720908
-0.026125174 0.039302267 0.17705521
0.036487695 0.012924266 0.17627278
0.035732545 0.01564149 0.17853776
-0.017676059 0.03788206 0.17315084
-0.022401916 0.038368553 0.17367795
-0.026280947 0.03878428 0.17302722
0.037624668 0.015359871 0.17338082
0.035931922 0.018285722 0.17181435
-0.011569497 0.038712483 0.16802117
-0.015995789 0.038169418 0.16903058
-0.021227684 0.038578425 0.16805047
-0.026669879 0.039549053 0.16817451
0.033151478 0.020002447 0.16643581
-0.0052726474 0.038201515 0.16447386
-0.010227709 0.038104184 0.16411054
-0.014745276 0.03828156 0.16423339
-0.023196716 0.039428025 0.16503006
-0.026912458 0.042459317 0.16386062
0.032388065 0.023124125 0.1624772
-9.0709887e-05 0.037114885 0.16117644
-0.004709146 0.03771656 0.16039327
-0.0093205003 0.037490275 0.16052064
0.032859169 0.02545632 0.15841264
0.0052230852 0.03721182 0.15722585
0.033046778 0.027458206 0.15453315
0.032467376 0.029995538 0.15310323
0.017428316 0.036633823 0.15232906
0.0064294799 0.03754985 0.15217167
0.034029141 0.029698957 0.15073279
0.026568705 0.035144761 0.14908519
0.017023195 0.035988733 0.14785033
0.0087329876 0.037933566 0.14871728
0.027278695 0.035216026 0.14415723
-0.022475114 0.016805502 0.1950011
-0.023807053 0.017738432 0.19604892
0.020815957 0.0016183723 0.19319463
0.017917294 0.0028498136 0.19306299
0.0078177545 0.0072593712 0.19266847
-0.00047680829 0.011912309 0.19290075
-0.0053833099 0.013218977 0.19262543
-0.01162635 0.015191643 0.19283119
-0.015161857 0.016731517 0.19220167
-0.020195363 0.01830576 0.19253936
-0.02316721 0.021249432 0.19426525
0.030788695 0.00057072937 0.18986645
0.027734712 0.0022183741 0.1915285
0.023941813 0.0044925991 0.19217598
0.018595461 0.0065197134 0.19248748
0.013696283 0.0082157319 0.19223943
0.0049590301 0.012635717 0.19295758
-0.0046351636 0.016053123 0.19216597
-0.015662601 0.020125873 0.19133455
-0.017974691 0.020696804 0.19100699
0.033662274 0.0023582364 0.18760139
0.029873334 0.0047234669 0.19004932
0.037653979 0.0039720181 0.18261233
0.035666771 0.0054188175 0.18286258
0.03560232 0.0077270456 0.17813769
0.037327114 0.008987885 0.17425048
0.038315188 0.012423613 0.17094561
-0.026398508 0.038878396 0.16749206
0.034629293 0.015342994 0.16722864
0.032853872 0.018866183 0.16380736
-0.015669435 0.037768949 0.16113883
-0.020622393 0.037945062 0.16251487
-0.025627505 0.039245095 0.16159362
0.032760777 0.019078292 0.1596899
-0.0066718301 0.037428249 0.15753117
-0.010526834 0.03706222 0.15749717
-0.015128392 0.037752967 0.15707457
-0.020351497 0.037195824 0.15760213
-0.024258744 0.038646974 0.1577099
0.033261318 0.020875201 0.15622354
-0.001183725 0.036600087 0.15367258
-0.0051624794 0.036682218 0.15377569
-0.010026163 0.036807224 0.15262336
-0.014123456 0.037776448 0.15268606
0.033415083 0.022642914 0.15121737
0.00021611713 0.036854956 0.14985451
-0.0043361606 0.037043102 0.1488567
-0.0083598858 0.036898121 0.14916828
0.034477785 0.026240181 0.14809
0.0060674623 0.037677802 0.14606065
0.033931721 0.027059007 0.14369085
0.031893466 0.030314809 0.14307237
0.021851229 0.035383016 0.14119929
0.012410786 0.036559265 0.1420483
0.0022513149 0.03811032 0.14114624
0.027071679 0.034408428 0.13764048
0.017673524 0.035948839 0.13720396
0.0096168146 0.037626501 0.13804522
0.02751145 0.034794651 0.1322886
0.01872178 0.036383018 0.13341177
-0.023015259 0.012040569 0.19782013
-0.014048982 0.01050337 0.19393674
-0.018276745 0.011512961 0.19406033
-0.02184565 0.013977693 0.1957286
0.02908385 -0.0056885271 0.19152397
0.025750345 -0.0031171087 0.19291675
0.021407917 -0.001601059 0.19369337
0.015973547 0.00065986719 0.1935578
0.01099525 0.0026043335 0.19287318
0.0063131787 0.0037359111 0.19311726
-0.0020989687 0.0081911683 0.19320664
-0.0068443473 0.0099254809 0.19302306
-0.010652971 0.011434613 0.19279096
-0.017061416 0.014299206 0.19284961
-0.019729545 0.015102901 0.19300991
0.03094778 -0.0034142947 0.18958032
0.028387092 -0.00087034423 0.1920954
0.03349632 -0.0017211176 0.18659824
0.041272111 -0.0011461163 0.17518067
0.037293766 0.0015187915 0.17369026
0.036249019 0.0036809454 0.17648834
0.039480858 0.0033718776 0.17070737
0.036853872 0.0060107093 0.17240262
0.037281007 0.0094354302 0.16890439
0.03607678 0.010091077 0.1651904
0.0334602 0.011659412 0.16252631
0.033187997 0.012992539 0.15890536
-0.020381235 0.037499111 0.1547288
-0.025489524 0.038671106 0.15500683
0.033585791 0.014992847 0.15417528
-0.011767176 0.037085474 0.15014353
-0.015783641 0.037411615 0.15026411
-0.020384293 0.03727638 0.15081501
-0.025036609 0.0385006 0.15078962
0.032713342 0.016468346 0.15006495
-0.0064977072 0.03702987 0.14697304
-0.0099946 0.037421886 0.14686081
-0.014782137 0.037801802 0.1458751
-0.019367389 0.037320513 0.14609012
-0.026291903 0.039315265 0.14616352
0.033026699 0.020339485 0.14206189
-0.001152317 0.037074234 0.14293748
-0.0045440262 0.036738753 0.14287555
-0.0093338024 0.037343398 0.14268756
-0.013927635 0.037531789 0.14216107
0.03404557 0.024126194 0.14092892
-0.0036984244 0.036807779 0.13816762
0.03337124 0.02460267 0.13622946
0.032401867 0.027496438 0.13633174
0.0077384082 0.037488442 0.13521755
-0.00049549062 0.03773519 0.13303742
0.031854566 0.030085439 0.13190094
0.017290916 0.036137901 0.13120052
0.0082202805 0.036693882 0.13077879
0.031110331 0.031325448 0.12771481
0.023306422 0.036263146 0.12613094
0.030176345 0.031831477 0.1234889
0.024148121 0.035758048 0.12219858
-0.020524902 0.0058571342 0.19524249
0.027309431 -0.012078707 0.1936194
0.023116946 -0.0097139338 0.19327626
0.018705804 -0.0078981975 0.19304398
0.01385552 -0.0049873451 0.19327515
0.007970321 -0.003835605 0.1930286
0.0038240806 -0.002198949 0.19295788
-0.00021471395 0.00054480473 0.1933198
-0.0046194666 0.0023481525 0.19308209
-0.0089049172 0.0044384031 0.19302961
-0.013185095 0.0057249279 0.19273606
-0.018345216 0.007390066 0.19418472
0.031703573 -0.011884127 0.19038612
0.029080518 -0.0083528664 0.19246304
0.024388462 -0.0064652893 0.19350964
0.032980781 -0.0096371863 0.18675739
0.031413559 -0.0065428806 0.18985674
0.03390659 -0.0074364319 0.18301013
0.034913294 -0.0036688764 0.17941958
0.041350041 -0.0012885239 0.17325225
0.036867853 -0.0011890884 0.17464563
0.038388032 -0.00062509999 0.17043748
0.037100457 0.0040754238 0.16573
0.035006452 0.0066829678 0.16098705
0.033629589 0.0072156722 0.15900427
0.034315251 0.0096268635 0.15637919
0.033898674 0.010013349 0.15173519
0.033202615 0.013116289 0.14816523
0.032503337 0.01541115 0.14649487
-0.020871814 0.037378382 0.14452618
-0.024627853 0.03800942 0.14464393
-0.02733692 0.040685151 0.14383
0.032941792 0.016328106 0.14528233
-0.0068648672 0.03565564 0.13933986
-0.010401891 0.036482923 0.13924551
-0.015130358 0.036639985 0.13932544
-0.020312713 0.036834091 0.14009234
-0.025145929 0.037736598 0.13981229
-0.02838902 0.038329031 0.14014715
0.033562802 0.018078923 0.13696826
-0.0053243972 0.035900906 0.13565511
-0.0097109722 0.035956029 0.13461536
-0.015197232 0.036239497 0.13521364
-0.018665982 0.036380891 0.13615721
0.033468649 0.024419423 0.13325837
-0.0031144386 0.036743693 0.13130972
-0.0075673452 0.03543688 0.13129213
0.032254271 0.024970561 0.12839848
0.0072088018 0.035836089 0.12729979
-0.0017790077 0.037138529 0.12673569
0.032128677 0.027541595 0.1247955
0.012702341 0.035416767 0.12412316
0.0035449658 0.037004348 0.12251562
-0.0011214428 0.037469633 0.12299961
0.031270809 0.02931783 0.11999458
0.022871202 0.035552651 0.12019348
0.013064189 0.03568875 0.1185804
0.030652095 0.030654617 0.11636877
0.023531947 0.035615217 0.1160621
0.013543752 0.03646978 0.11534512
0.023802349 0.035824757 0.11237746
0.003576661 -0.010845296 0.19480863
0.0020660711 -0.010313525 0.19468173
-0.012730162 -0.0042095617 0.19390696
-0.017109159 -0.0022409474 0.19376248
-0.021173185 -0.00029615592 0.19443113
-0.024134105 0.0016550664 0.19391638
0.033616744 -0.019196406 0.19294119
0.030601919 -0.016332865 0.19431674
0.025940081 -0.015364116 0.19497961
0.022041168 -0.01351991 0.19327855
0.017086577 -0.012044678 0.19225433
0.012021317 -0.010211416 0.19309223
0.0074652033 -0.0087331757 0.1936304
0.0018229049 -0.0068741189 0.19364291
-0.0071133301 -0.0034241553 0.19305149
-0.011136648 -0.00061687711 0.19344482
-0.0155362 0.0012565092 0.19324523
-0.018535374 0.0024250667 0.19397515
0.035699744 -0.017810006 0.1890412
0.033112679 -0.014239331 0.19034144
0.040419202 -0.015348455 0.18383974
0.03626674 -0.014815276 0.18484861
0.034674719 -0.012056568 0.18590939
0.036658604 -0.013522766 0.18005198
0.035182543 -0.010506284 0.18083531
0.037117589 -0.011841414 0.17641914
0.03529758 -0.0088176243 0.17692131
0.039214462 -0.0069100801 0.17320135
0.036679603 -0.0073757712 0.17259309
0.040465485 -0.004307651 0.16939503
0.038606606 -0.0050292779 0.16750067
0.041712992 -0.0040360689 0.16519234
0.038159292 -0.0024758847 0.16317043
0.034871701 0.0021337885 0.16205844
0.034802701 0.0014065048 0.15877327
0.034997132 0.0056429012 0.15467602
0.035062678 0.004809306 0.14846081
0.034658089 0.0083280904 0.14951181
0.033776149 0.0097957803 0.14535272
0.032897033 0.011127334 0.14013031
0.031970322 0.013128533 0.14012462
-0.02141868 0.036185104 0.13711223
-0.025316754 0.037219618 0.1365588
0.033704229 0.012439034 0.13539994
0.032722928 0.014768713 0.1384882
-0.016822409 0.036374412 0.13286832
-0.020426217 0.036702976 0.13364705
-0.024993593 0.037730783 0.13312033
0.03315074 0.016539622 0.13161489
-0.0092275515 0.035667595 0.12876993
-0.015166659 0.035935029 0.12923533
-0.020151455 0.036510065 0.12804514
-0.023988687 0.037106026 0.12787431
0.032307539 0.019315058 0.12768286
-0.0041179052 0.036752954 0.12449968
-0.0081362929 0.035617579 0.12444186
-0.012745656 0.035550404 0.1246978
0.032516547 0.020549249 0.12269914
0.032662839 0.025051709 0.12177891
-0.0024066381 0.036850762 0.11967951
-0.0066682901 0.035664923 0.12054992
0.034299254 0.024126403 0.11680454
0.033346426 0.026341192 0.11894184
0.0033806404 0.037236411 0.1164825
-0.0010499731 0.036599588 0.11502677
0.034463909 0.024120137 0.11390531
0.03267106 0.028256215 0.11411566
0.016961098 0.036015227 0.11223191
0.0084707309 0.036466662 0.11173075
0.031430375 0.028925413 0.1102258
0.023652971 0.035056513 0.10886043
0.014105047 0.035652965 0.10777009
0.027351674 0.03223021 0.10387576
0.018598804 0.034900099 0.10412437
0.014044035 -0.018623771 0.19911647
0.0064201895 -0.016124317 0.19838318
-0.010406557 -0.010568309 0.1977115
-0.014915712 -0.0088686831 0.19739214
-0.019579146 -0.0075380527 0.19684237
-0.024020273 -0.0057065417 0.19614476
-0.027252883 -0.0051259957 0.19512281
0.01928623 -0.019178852 0.19466239
0.014415853 -0.018191595 0.19573122
0.010105209 -0.015970781 0.19573593
0.0051216376 -0.013871873 0.19566661
-0.0051112683 -0.010821641 0.19435403
-0.0093351128 -0.0084174918 0.1944761
-0.013920831 -0.0068229893 0.19500771
-0.01843274 -0.0051429328 0.19467694
-0.023233218 -0.0030748327 0.19493392
-0.025519848 -0.0013347827 0.19476488
0.036791563 -0.023574531 0.19148141
0.019890625 -0.016977735 0.19337812
0.015617488 -0.015633417 0.19274867
0.012233921 -0.013953901 0.19303048
0.038534366 -0.020856902 0.18734181
0.035831641 -0.02177093 0.1903145
0.038561795 -0.020388978 0.18338957
0.037642095 -0.018264556 0.18335214
0.037758924 -0.016153224 0.18078822
0.037782785 -0.010802248 0.1724813
0.0389136 -0.009325888 0.1641753
0.039950684 -0.0071796775 0.16095775
0.036440808 -0.007734274 0.15865955
0.033840336 -0.0029483158 0.15623924
0.034044191 -0.0014709616 0.15302417
0.034284335 0.0018787012 0.14259592
0.033880055 0.0050927149 0.14153755
0.033391632 0.0077150064 0.13816693
0.033466887 0.0095164012 0.13446751
-0.028731033 0.037150711 0.12966451
0.034350328 0.011423545 0.12951881
-0.025627228 0.037317894 0.12652612
-0.028490942 0.037491258 0.12606704
0.034014955 0.0116833 0.12527889
0.032731224 0.014952566 0.12501383
-0.014434751 0.035166964 0.12216395
-0.018889576 0.035864867 0.12237996
-0.024202313 0.037460834 0.12135857
-0.028017694 0.038334705 0.12285155
0.032761522 0.016636712 0.1212129
-0.0092761498 0.03500386 0.11840856
-0.013385007 0.035236977 0.11764473
-0.018184297 0.035763953 0.11702287
-0.023771258 0.037652731 0.11722296
0.032981873 0.021072822 0.11829168
-0.0033233473 0.036392614 0.11376542
-0.0077746669 0.03565127 0.11381185
-0.012381063 0.035838027 0.11311311
-0.016310461 0.036309451 0.11347789
0.033429164 0.025356479 0.11045235
-0.0018319134 0.036745738 0.10922641
-0.0062516173 0.036334712 0.10923088
0.031971067 0.026216632 0.10659611
0.0082962904 0.035995953 0.10487014
-0.0020051235 0.037026644 0.10523468
0.031550474 0.026983295 0.1015138
0.02217884 0.03480022 0.10127401
0.013783652 0.035569966 0.10100091
0.0044211056 0.036196858 0.10032272
0.031629473 0.027709795 0.097547591
0.023982462 0.034529261 0.097706378
0.015200209 0.035726108 0.096929193
0.024340356 0.034831911 0.093039393
-0.0033709626 -0.017983479 0.19529241
-0.025296247 -0.0085715363 0.19572571
0.039837174 -0.025328383 0.1820026
0.036952473 -0.011254251 0.15675858
0.035975214 -0.0091792755 0.1540814
0.034092046 -0.005740426 0.15339085
0.035007622 -0.0084115872 0.15015623
0.034073222 -0.0053597279 0.14927864
0.033757422 -0.0033530639 0.14603746
0.034243755 0.0014157081 0.14036387
0.033721127 -0.0004397966 0.13712296
0.033337496 0.0028587617 0.13611746
0.033297278 0.0043388912 0.13215256
0.033787422 0.0070065539 0.12713659
0.033793747 0.0091011422 0.1215896
0.032950401 0.012848633 0.12176782
0.032902785 0.013672157 0.11834925
-0.019480005 0.035248857 0.11374348
-0.022787472 0.036755562 0.11416453
-0.026590489 0.037178639 0.11371976
0.032672107 0.015432661 0.11448759
-0.014184048 0.035600662 0.11040235
-0.018568873 0.035557318 0.110035
-0.023055207 0.036905043 0.10972798
-0.026289342 0.037595704 0.10914546
0.032960393 0.019609731 0.10843033
-0.0089332219 0.035529617 0.10693336
-0.012747177 0.035357229 0.10664523
-0.017457496 0.035346452 0.10653424
-0.023019832 0.036774069 0.10568309
0.032703061 0.018576331 0.10566473
0.032631062 0.022528185 0.10431916
-0.0021353997 0.0354761 0.10165966
-0.0071599074 0.035643723 0.10268724
-0.011056514 0.035454411 0.10271192
0.032534204 0.02322733 0.10077351
0.0027549379 0.03588631 0.098760962
-0.0018927353 0.035719324 0.09790951
-0.0055195298 0.035526574 0.097582221
0.0328818 0.025541589 0.095800877
0.0082351603 0.034806058 0.094384789
-0.00034633093 0.036221549 0.094089568
0.032215323 0.027321063 0.09195441
0.024914339 0.03368688 0.089418113
0.01368878 0.034758884 0.090149939
0.0053833798 0.035474598 0.090123296
0.024956122 0.033404481 0.086207271
0.015317795 0.034906182 0.086349308
0.025343746 0.033525594 0.082984924
0.038263127 -0.013199905 0.15215313
0.03736639 -0.01116222 0.15115708
0.035844598 -0.010513099 0.14721939
0.033743024 -0.0073969392 0.1421473
0.033905178 -0.0054122517 0.13803625
0.034075446 -0.0034040203 0.13394105
0.032656252 4.7354028e-05 0.12927109
0.033742849 0.0056927688 0.1193828
0.033273965 0.0069499454 0.11608136
0.032582346 0.010833235 0.11441904
0.031938814 0.010792247 0.11021054
-0.028692788 0.036199845 0.10646051
0.032351799 0.013570321 0.10719281
-0.014204017 0.03444875 0.10300773
-0.01859151 0.035202309 0.10350966
-0.023175456 0.036312923 0.10308248
-0.027153928 0.037369702 0.10274667
0.032334417 0.017071493 0.10153192
-0.0086869011 0.034530304 0.09886843
-0.013183 0.034492601 0.09937042
-0.018249732 0.035134614 0.099147856
-0.023036806 0.036367103 0.09841162
-0.02682261 0.037852395 0.098172963
0.032706343 0.017476462 0.097914517
0.032371067 0.020876927 0.097109139
-0.0080395835 0.034838106 0.094990432
-0.013029351 0.034505859 0.094409823
-0.027342025 0.03852554 0.095444202
0.032836068 0.021858823 0.095927
-0.0021128058 0.036030095 0.091356814
-0.006545702 0.035388794 0.090780318
0.032818511 0.023758143 0.089169621
0.0037278337 0.036031187 0.087682247
-0.00084137451 0.036709052 0.087121904
-0.004841269 0.036175106 0.086163878
0.031808045 0.026408996 0.084608078
0.030896671 0.028494228 0.084757805
0.0086876266 0.034195933 0.082243562
0.00065102149 0.036135655 0.081899464
0.032126501 0.026530506 0.079715312
0.030063886 0.029575946 0.079905808
0.020084482 0.034483291 0.07983321
0.010192748 0.034546223 0.07825309
0.026092354 0.032659192 0.074881613
0.017112784 0.035069242 0.074195147
0.037308186 -0.01684613 0.14584041
0.036660094 -0.01422512 0.14428017
0.035753924 -0.012766555 0.14000133
0.036295198 -0.011613542 0.13522434
0.034420636 -0.0076656146 0.13681871
0.036026586 -0.0089321071 0.13161913
0.034576513 -0.0059700012 0.13103607
0.033907399 -0.0059556174 0.12788343
0.032463368 -0.0017188657 0.12119049
0.033627316 0.00040937681 0.11595148
0.033991769 0.0026809126 0.1131435
0.032167949 0.0045979023 0.10921413
0.031660315 0.0075695049 0.10799932
0.03115781 0.0058168247 0.10467541
0.031781979 0.01115695 0.10038143
-0.018695131 0.033833694 0.093091488
-0.023572395 0.034919672 0.092222035
-0.026924487 0.036988083 0.092118263
0.032571614 0.016299699 0.092019975
-0.0092694582 0.034491412 0.088579476
-0.013229224 0.034198266 0.088829458
-0.018054437 0.033606052 0.087749004
-0.023523748 0.034814298 0.08811605
-0.026578698 0.036000989 0.087915421
0.032235265 0.018930804 0.085605204
-0.0031711124 0.035701431 0.083351374
-0.0079302378 0.034315981 0.084266245
-0.012305525 0.034259137 0.083629549
0.032306768 0.021268977 0.082377732
-0.0017302036 0.035462584 0.080004871
-0.005895053 0.034695096 0.079685986
0.032686047 0.023280567 0.077594995
0.008700449 0.0344432 0.075895786
-0.00098347757 0.035317924 0.075658202
-0.0049295891 0.035250925 0.0763129
0.032592721 0.024657533 0.073414028
0.029894033 0.027865868 0.072327077
0.010348399 0.034106918 0.07194376
0.00059832353 0.035214715 0.072020948
0.032380164 0.025858084 0.070089281
0.029849872 0.02816719 0.06882304
0.021286393 0.033123318 0.068414092
0.01215124 0.033979569 0.068259835
0.026228562 0.031530138 0.06277734
0.017279372 0.03373193 0.064358771
0.036628395 -0.013258834 0.12933809
0.036190912 -0.011762667 0.12596595
0.032086097 -0.0090875644 0.12338883
0.030667435 -0.0061851167 0.12178826
0.033673525 -0.0042932099 0.11394793
0.032150336 -0.0033195755 0.11608934
0.035232514 -0.0029218178 0.11181521
0.035569642 -0.00076954439 0.10578316
0.033598527 0.0020886436 0.10673863
0.032345589 0.0024872422 0.10218459
0.031010102 0.0048993062 0.10099602
0.031632408 0.0058258511 0.096757174
0.033863649 0.0061933082 0.091638863
0.032411151 0.0094917053 0.093400598
-0.019586539 0.034067314 0.085523188
-0.023380566 0.034968346 0.085218489
-0.02749029 0.03625381 0.085345328
0.03227891 0.014834504 0.086847484
-0.014598685 0.034181908 0.081494927
-0.018159714 0.034304235 0.081404269
-0.023241326 0.035005763 0.080184937
-0.027363263 0.035916876 0.080459535
0.032651234 0.019139279 0.079764426
-0.0084582111 0.033945773 0.077878892
-0.012338159 0.0337644 0.077138066
-0.016416389 0.033866253 0.076564014
0.034006823 0.017409395 0.074892581
0.033460684 0.020602234 0.075948179
-0.0032080244 0.034870472 0.073551953
-0.0063083181 0.034336474 0.072726429
-0.0092964992 0.033387333 0.073503077
0.03544303 0.020797241 0.073682904
0.033861004 0.022056729 0.071465194
0.00020217709 0.034646038 0.068824053
-0.0040016724 0.034853019 0.070178092
0.033557422 0.023981104 0.067067742
0.030409755 0.02702135 0.066116273
0.010253693 0.03343486 0.065134883
0.0010129847 0.033533938 0.064754367
0.031912852 0.023642186 0.062093139
0.030255072 0.027753545 0.062190235
0.016026864 0.033123001 0.060801923
0.030131511 0.028854584 0.057667792
0.021720625 0.032864679 0.056970179
0.026894383 0.031999886 0.05346483
0.037443519 -0.015196135 0.12720126
0.036571492 -0.014508286 0.1229794
0.033806328 -0.011676738 0.12230134
0.035682499 -0.014020957 0.11781216
0.032683089 -0.010608901 0.1186294
0.033721067 -0.0092725381 0.11403686
0.036135036 -0.0061198897 0.11053807
0.035851125 -0.0046637841 0.10534251
0.0360411 -0.0048512481 0.10123247
0.033545036 -0.00086304732 0.099678814
0.032668058 0.0016547088 0.096330822
0.034424629 0.0030958056 0.091537178
0.034236901 0.004898455 0.086792171
0.032064673 0.0076784622 0.086950719
0.034504123 0.0066400096 0.083974242
0.032064181 0.0084903371 0.082381785
-0.028293464 0.035720699 0.076934576
0.031834837 0.011429505 0.076941252
-0.016658798 0.033166733 0.073588789
-0.021775782 0.03397698 0.074828088
-0.026688822 0.035142418 0.074424982
0.034423266 0.013816539 0.073514998
-0.011803064 0.032484185 0.070768178
-0.016937938 0.032910552 0.069966972
-0.02144059 0.033892266 0.070309937
-0.026558366 0.03520593 0.069939673
0.034094527 0.016667847 0.068184674
-0.0055260556 0.033178847 0.066036224
-0.011108983 0.032404363 0.066235185
-0.015325472 0.032980643 0.066323698
0.0001962604 0.033503983 0.062022507
-0.0053466139 0.033275355 0.062010288
-0.0091434289 0.032911614 0.061816752
0.031872571 0.020941604 0.059054792
0.0057944236 0.032999452 0.058302522
-2.5088899e-05 0.033204444 0.057304204
-0.0043607103 0.033177689 0.058455884
0.031787839 0.022517914 0.055995405
0.031019315 0.027042732 0.054892898
0.011505638 0.033338286 0.053957403
0.0014342861 0.033633169 0.054543495
0.030285414 0.027542137 0.050956726
0.02176684 0.03280231 0.050059199
0.011633283 0.033715665 0.049471617
0.030505598 0.02855383 0.045955479
0.022583693 0.032991759 0.045379817
0.012733959 0.033838585 0.046092808
0.030218538 0.030118659 0.043236196
0.021886725 0.033813227 0.043035865
0.033765972 -0.0069364472 0.096068859
0.034949847 -0.0044059455 0.093022883
0.034072325 -0.0018585473 0.094439507
0.036072433 -0.0034306254 0.088402927
0.034999162 0.0011997093 0.084513843
0.033950731 0.0047042165 0.080392778
0.032768365 0.0060001565 0.07883054
0.032298461 0.0065630535 0.075441658
0.033996597 0.0077779675 0.070122421
-0.022559393 0.033851564 0.067234397
-0.026541598 0.035092279 0.066754639
-0.013068758 0.032402202 0.063218236
-0.017110689 0.032905657 0.063574135
-0.021518534 0.033426747 0.063384295
-0.026457964 0.035123568 0.063682795
-0.0073480308 0.032663349 0.059129179
-0.011319511 0.033149753 0.059891522
-0.01611238 0.032954656 0.05864501
-0.020031441 0.032878064 0.058015108
-0.0056474255 0.032664154 0.054933965
-0.010459129 0.03277621 0.05518949
-0.014376891 0.032997724 0.054822266
0.031216377 0.020465609 0.051114082
-0.0040132813 0.032937262 0.050420165
0.031470444 0.02510491 0.048343837
0.0054923259 0.033057105 0.046831191
0.031511463 0.024599988 0.04374218
0.011667808 0.033142082 0.042710304
0.03094637 0.027790554 0.039594531
0.022280673 0.032137349 0.038710833
0.013387755 0.032559268 0.038994133
0.029801868 0.028096944 0.035147369
0.022134814 0.03136139 0.034861684
0.035126124 -0.01123807 0.095370352
0.035821665 -0.0089509021 0.091738164
0.037495572 -0.0068129255 0.087615907
0.036915548 -0.004718882 0.082754076
0.035249386 -0.00098708086 0.081033289
0.033190366 -1.4465302e-05 0.076874554
0.033124834 0.0016307291 0.073833346
0.032182619 0.0036420282 0.072839677
-0.023839002 0.032700449 0.059713602
-0.02709079 0.033593517 0.059233189
-0.018131763 0.032866087 0.055517912
-0.022170819 0.032955132 0.056698799
-0.027039366 0.033554278 0.056072593
-0.030141979 0.034788132 0.055888653
-0.010972762 0.03223826 0.051950395
-0.016720016 0.032556355 0.052415431
-0.021874191 0.033040717 0.051968038
-0.026511366 0.033670992 0.051493227
-0.030328119 0.034249112 0.052272975
-0.0066914558 0.03199055 0.048349321
-0.011133964 0.032225162 0.048462749
-0.015908316 0.032750517 0.048034608
-0.020086639 0.033530727 0.048285067
0.02986056 0.01639447 0.045476377
-0.0055015758 0.032184843 0.04407084
-0.010350333 0.03227786 0.044295728
0.0056708064 0.032712724 0.040044606
-0.003824614 0.03293176 0.039452851
0.011076778 0.032023486 0.036464393
0.0010832315 0.033387873 0.036231875
-0.0026069609 0.033322543 0.035916507
0.03014376 0.026457405 0.032934606
0.02212167 0.031063413 0.032485902
0.01175969 0.032303125 0.031789243
0.029630113 0.027031645 0.029968977
0.022335414 0.031098234 0.028294325
0.012878584 0.032403402 0.027977765
0.023339966 0.030854002 0.024163008
0.035823237 -0.0085183308 0.082294047
0.031954918 -0.0020834785 0.068752229
0.032940537 0.0003915308 0.06872648
-0.027632101 0.032984257 0.049648225
-0.03031135 0.034193132 0.05012399
0.029537708 0.011510886 0.048119605
-0.018032163 0.032452837 0.044677436
-0.022155359 0.032892279 0.044961691
-0.0261328 0.033009414 0.045416594
0.029846551 0.013052815 0.042977035
-0.011238335 0.031919301 0.040837109
-0.0160325 0.032570086 0.041213393
-0.020852864 0.032785922 0.040370286
0.029835172 0.014033328 0.039423525
-0.0071974387 0.031414077 0.037093401
-0.010589071 0.032102752 0.037466407
-0.015485232 0.032467272 0.036520422
0.030617632 0.01673552 0.034233391
0.030697152 0.021419963 0.034619629
-0.0044987928 0.032153215 0.032623768
-0.0099019092 0.031344187 0.033923388
0.031712547 0.018972032 0.030956984
0.030619558 0.022217259 0.030904353
0.0011536721 0.032382317 0.028236926
0.029507548 0.023242509 0.025532424
0.017139096 0.031320568 0.024389446
0.0065738284 0.032348488 0.024529636
0.029020313 0.024616385 0.022452295
0.022331061 0.030244945 0.020779073
0.012011852 0.031813003 0.020705402
0.026684141 0.028180357 0.016782701
0.01859846 0.029684542 0.017128825
0.031594187 -0.0079038171 0.066664994
0.032122876 -0.0069244942 0.064361751
0.0329629 -0.0033722166 0.058692217
0.030647757 0.0047485586 0.044586957
0.030054411 0.0081243692 0.046866953
-0.030556895 0.029466236 0.042316496
0.03168175 0.0068165027 0.041120112
0.030781895 0.0093322489 0.042673528
-0.023536073 0.032247555 0.038300693
-0.026379485 0.032204375 0.039398372
-0.02965009 0.031040868 0.035221338
0.032575913 0.0084886923 0.037310064
0.031112982 0.011201286 0.037319005
-0.017057002 0.03192962 0.033940256
-0.021231953 0.032344759 0.034903705
-0.025201527 0.032930117 0.03365308
-0.02824166 0.033902481 0.033567011
0.030655764 0.013342205 0.033278048
-0.0074106231 0.030424906 0.029816806
-0.011186229 0.030904759 0.030355275
-0.015329125 0.031396165 0.029846966
-0.019555513 0.032281384 0.028991878
-0.024628665 0.034294493 0.029169202
-0.026944891 0.036373444 0.028354287
0.031508908 0.013732686 0.029020011
-0.0055568032 0.030663602 0.02607882
-0.0099570677 0.030594589 0.024689198
-0.01350002 0.031005105 0.024799049
0.031074394 0.016547678 0.024518669
0.030414261 0.019375287 0.024297893
-0.0043356698 0.031126879 0.021366537
0.030043386 0.021527344 0.019316614
0.011841959 0.031157058 0.017949641
0.0016737012 0.031984076 0.017306626
0.029415619 0.023476522 0.014612675
0.027746983 0.026409354 0.014315426
0.016888551 0.030241197 0.014473081
0.0070589385 0.031625167 0.013473928
0.026589289 0.02755546 0.010413051
0.017400801 0.030334046 0.0090640783
0.031339236 -0.012173017 0.06572026
0.032482192 -0.010064077 0.060687661
0.033228464 -0.0075232824 0.057422638
0.030892976 0.0006264383 0.043425381
0.032423653 0.001871815 0.039247453
-0.031221718 0.027726792 0.034346998
0.033420745 0.0047860686 0.03504926
0.032805458 0.0081002591 0.03061229
0.031823047 0.010238335 0.030798376
-0.024450643 0.033648629 0.02609688
0.033243865 0.0088227866 0.028063357
0.031475589 0.01330662 0.026509881
-0.016121544 0.031350467 0.02410841
-0.019842252 0.031325839 0.022733033
-0.024867093 0.03156618 0.021632016
0.031023094 0.016078416 0.021957576
-0.0049594641 0.030868432 0.018029153
-0.0095634535 0.029814135 0.018567204
-0.014282261 0.030459706 0.018916965
-0.01909164 0.030729186 0.0192765
0.03103552 0.015785526 0.019550025
-0.00094047189 0.03133266 0.015511215
-0.0041809846 0.030272685 0.014567971
-0.0084755961 0.02910579 0.015353024
0.030425522 0.02029939 0.014115155
0.00082889199 0.030747633 0.010772765
-0.0027183918 0.030273112 0.010061085
0.029110726 0.021533474 0.008001864
0.02799549 0.024759591 0.0079649687
0.032642696 -0.016565735 0.063811123
0.033857282 -0.014780851 0.060500741
0.03432934 -0.013134851 0.05595392
0.031893186 -0.0094989445 0.051460445
0.02819409 -0.007450927 0.049867928
0.027305691 -0.0033216807 0.046096146
0.032765232 -0.0042854296 0.040836632
0.029416448 -0.0031639929 0.04264158
0.033913769 -0.0018882249 0.037600935
0.034498304 -0.00093783997 0.034178793
0.034115244 0.0024325438 0.03222543
0.033139009 0.0040891599 0.028775632
0.031333566 0.0081757484 0.024694741
-0.026617562 0.030718422 0.01870364
-0.029173313 0.031379182 0.020466745
0.030621201 0.010577833 0.021912754
-0.016542008 0.029913027 0.01519978
-0.020442303 0.030222593 0.015571058
-0.025620254 0.030688483 0.015756369
-0.030007262 0.02946515 0.016501486
-0.0095899086 0.028502265 0.012270153
-0.014660969 0.029746905 0.012466967
-0.019843845 0.029857349 0.010856092
-0.024346989 0.030529525 0.012069166
0.029900178 0.016186833 0.0095526576
-0.0042470833 0.030289549 0.0075908899
-0.009646602 0.028570134 0.007614553
-0.01404295 0.029423557 0.0076630712
-0.018208981 0.029957451 0.0080081224
0.031204969 -0.011879016 0.047368288
0.028136011 -0.010384072 0.046664178
0.030496914 -0.011044767 0.044124603
0.028074704 -0.0086821746 0.043553591
0.032366365 -0.0084397905 0.040538013
0.029936712 -0.0066693374 0.041341245
0.034230389 -0.0076069394 0.035650671
0.034076147 -0.0047894605 0.031148732
-0.030095123 0.029122191 0.012902319
0.0290545 0.0099346638 0.012039244
-0.02201659 0.029950369 0.0088000894
-0.026410522 0.030011894 0.0086938739
-0.030354407 0.028405789 0.0089374185
0.033116423 -0.0134525 0.036408365
0.029911336 -0.0013569351 0.014652073
0.028436789 -0.00051893294 0.013650537
0.028963828 0.0049136821 0.010291815
0.029637204 -0.0024938267 0.011453807
0.029714189 -0.0028124861 0.0078899264
0.028246522 -0.0017558532 0.0081706047
0.029839834 -0.0068061752 0.010431647
0.029460957 -0.012839577 0.0078971982
0.028716965 -0.019227026 0.0094982386
