# .PCD v0.7 - Point Cloud Data file format
VERSION 0.7
FIELDS x y z
SIZE 4 4 4
TYPE F F F
COUNT 1 1 1
WIDTH 1084
HEIGHT 1
VIEWPOINT 0 0 0 1 0 0 0
POINTS 1084
DATA ascii
-0.022099763 -0.023301411 0.19340873
-0.014997385 -0.030300703 0.19289559
-0.031462267 -0.018562837 0.19116595
-0.02526452 -0.026288999 0.19162813
-0.017565787 -0.032640975 0.19056559
-0.033973299 -0.016248966 0.1871374
-0.031061558 -0.024197424 0.18723175
-0.02324787 -0.031513531 0.18650842
-0.014983938 -0.034165528 0.18543819
-0.031396125 -0.024482081 0.18230468
-0.023456668 -0.0314718 0.18206343
-0.02798829 -0.027794328 0.17817312
-0.031487845 -0.0075317044 0.19234788
-0.02963919 -0.010429224 0.19303882
-0.023115497 -0.016770002 0.19395253
-0.015410688 -0.023692567 0.19325382
-0.0092214644 -0.031147379 0.19232088
-0.0058040535 -0.0321078 0.19110033
-0.033080786 -0.0089077558 0.18912604
-0.032634612 -0.012376954 0.19010949
-0.010630847 -0.033362627 0.18846035
-0.007096855 -0.033689834 0.1873669
-0.034085795 -0.009716576 0.18630156
-0.033997186 -0.013633724 0.18469861
-0.012399787 -0.034142472 0.18291119
-0.033062652 -0.018952876 0.1803261
-0.023206713 -0.03106452 0.17903966
-0.014070368 -0.034465272 0.178096
-0.031732481 -0.024181886 0.17664802
-0.023412123 -0.031070098 0.17548904
-0.033781279 -0.020831257 0.17194304
-0.02853605 -0.027990291 0.17136949
-0.031844188 -0.024814576 0.16779378
-0.024897728 -0.0064607877 0.19336128
-0.018913623 -0.01314487 0.19369838
-0.011735956 -0.01951981 0.19322383
-0.0081197098 -0.023741286 0.19335419
-0.0042215278 -0.026727498 0.19341177
-0.00037966855 -0.029171767 0.19191575
0.0021743132 -0.030980255 0.19053742
-0.030146174 -0.0034774812 0.19098407
-0.028166767 -0.0075630518 0.19351825
-0.0027100425 -0.032326214 0.1897333
0.00041941181 -0.032526888 0.1883409
-0.032367539 -0.0047008619 0.18706271
-0.0041280836 -0.033671238 0.18512768
-0.00071014464 -0.033431083 0.18468118
-0.033208109 -0.0072199022 0.18265277
-0.033659264 -0.01111257 0.18120024
-0.006217245 -0.033957724 0.18076667
-0.03310509 -0.0074153049 0.1787692
-0.033994716 -0.01173149 0.17749757
-0.011754749 -0.034911677 0.17597574
-0.0080689853 -0.034768566 0.17555588
-0.017695544 -0.032870814 0.1715982
-0.013518086 -0.034262788 0.17196843
-0.0096819615 -0.03483481 0.17031974
-0.033827011 -0.01849341 0.16910756
-0.017756529 -0.031645477 0.16740465
-0.013404616 -0.033972576 0.16809601
-0.010649918 -0.035617884 0.16743624
-0.033492297 -0.019209806 0.16457719
-0.028371884 -0.026925117 0.16488799
-0.019357566 -0.031335063 0.16297275
-0.031597544 -0.0232425 0.15978467
-0.02460536 -0.028655022 0.15979427
-0.029716324 -0.026361322 0.15624973
-0.026461801 0.0015549576 0.19133914
-0.023387793 -0.0022632806 0.19316721
-0.019059082 -0.0061185155 0.1932373
-0.011220956 -0.012114068 0.19334877
-0.0040384722 -0.019219171 0.19342533
-0.0010001985 -0.022888638 0.19379669
0.0025542816 -0.026470684 0.19311562
0.0058466727 -0.029698253 0.19074625
0.0086766677 -0.03232738 0.18895474
-0.030694697 0.0034101838 0.18898317
-0.030261647 1.4798716e-06 0.19008985
0.0032239147 -0.033059336 0.18723604
0.0077818865 -0.033845671 0.18609726
-0.032190777 0.0018083025 0.18477184
-0.032279495 -0.0011504507 0.18556577
0.0022020545 -0.033353299 0.18208688
0.0060628001 -0.034131933 0.18205693
-0.033211231 0.00052155182 0.18072835
-0.033147946 -0.0028105602 0.18115836
0.00037512742 -0.033589043 0.17842063
-0.033464029 -0.0044248868 0.17622799
-0.0051476816 -0.035032853 0.17463773
-0.0022071414 -0.034386527 0.17385548
-0.033819467 -0.0061273938 0.17179993
-0.033524439 -0.0089953225 0.17155629
-0.0070456304 -0.035519063 0.16931063
-0.0029358715 -0.034901045 0.16980156
-0.034074888 -0.0108217 0.16651693
-0.012986229 -0.033424199 0.16486698
-0.0084545361 -0.035563298 0.16446081
-0.0037484244 -0.035496365 0.16581285
-0.034606718 -0.014039087 0.16260108
-0.017037993 -0.031936985 0.16122821
-0.013494308 -0.03370494 0.16058871
-0.0099578789 -0.034642428 0.16015077
-0.03373849 -0.018111825 0.1581246
-0.023621252 -0.030030927 0.15780497
-0.014735863 -0.033258948 0.15665758
-0.032240413 -0.022952568 0.15390623
-0.024631571 -0.029950028 0.15337259
-0.031744968 -0.023017187 0.14968193
-0.025780521 -0.029686416 0.14820281
-0.021241628 0.0072820908 0.19351539
-0.017713543 0.0034306552 0.19419256
-0.013840915 -0.00091300905 0.19333321
-0.010132691 -0.0038527288 0.1927833
-0.0037894 -0.01144087 0.19330761
-5.0815754e-05 -0.014450906 0.19309878
0.0042306739 -0.017796652 0.19270697
0.0070749768 -0.022223148 0.19300675
0.011017039 -0.024947338 0.19208193
0.014810842 -0.027840294 0.19165772
0.018747356 -0.030602513 0.19093347
0.022188773 -0.033313192 0.19087496
-0.028876059 0.011749359 0.19038159
-0.02662104 0.0086734854 0.19178313
-0.02423439 0.004579802 0.19252998
-0.019653775 0.0010465356 0.19340947
-0.015483668 -0.0025240765 0.19289434
-0.0097416183 -0.0089869238 0.19279572
0.0094224047 -0.027464382 0.19124538
0.012204053 -0.030478846 0.18984616
0.016668264 -0.03240481 0.18801793
0.020573772 -0.034353022 0.1873481
-0.031076118 0.0099389749 0.18731558
-0.030510215 0.0067324862 0.18849978
0.010242978 -0.033873625 0.1833435
0.014634517 -0.033649497 0.18374366
0.020017931 -0.0376934 0.18305242
-0.032559756 0.0087181358 0.18276754
-0.032330684 0.004873706 0.18275398
0.0088017909 -0.03361997 0.17870262
0.012667902 -0.033644732 0.17933887
-0.03349635 0.0073126256 0.17712331
-0.033333935 0.003488577 0.17836872
0.0028457763 -0.033301938 0.175266
0.0072485646 -0.033935279 0.17487302
-0.033755563 0.0024888422 0.17392188
-0.033634327 -0.0015845858 0.17349172
0.0021046754 -0.033483349 0.17137623
0.0054276949 -0.033556841 0.16979021
-0.033918716 0.0012919176 0.16915154
-0.033735022 -0.0025550071 0.17023477
0.00067329034 -0.034165543 0.16651827
0.0044219065 -0.034378629 0.1668995
-0.033974759 -0.0040305648 0.16518202
-0.033832204 -0.0077985106 0.16414943
-0.0058159018 -0.035089053 0.16106921
-0.0023125969 -0.035120215 0.16307265
-0.033991463 -0.0046542417 0.16004485
-0.033720054 -0.0089467997 0.15964448
-0.007114673 -0.034621164 0.15750197
-0.0031630807 -0.034696847 0.15956834
-0.033829764 -0.011631171 0.15551844
-0.012677265 -0.03333015 0.15376097
-0.0081023863 -0.034107096 0.15266746
-0.033619434 -0.012754318 0.15072161
-0.013874987 -0.033541989 0.14944148
-0.010079949 -0.034250531 0.14875063
-0.031497125 -0.021565249 0.14633712
-0.019895997 -0.033334631 0.14617094
-0.033636298 -0.018326716 0.14236003
-0.028984336 -0.025906535 0.14246351
-0.021667272 -0.032708231 0.14192745
-0.032396946 -0.022592381 0.13724932
-0.026045414 -0.029301491 0.13676998
-0.031368077 -0.025526712 0.13401324
0.020765772 -0.022550361 0.19697377
-0.015318707 0.010959295 0.19488102
-0.013140962 0.0074944673 0.19523412
-0.0064042537 0.0019657712 0.19431436
0.0016533658 -0.0056301751 0.19359547
0.0049616885 -0.0090326555 0.19341028
0.009392757 -0.013544395 0.19314459
0.012335517 -0.017298315 0.19326192
0.016691377 -0.020599999 0.19366485
0.019358993 -0.023752978 0.19440711
0.021914069 -0.027563442 0.194491
0.024213778 -0.031047225 0.19410762
-0.02511071 0.016469771 0.19214401
-0.022278508 0.012733602 0.19346148
-0.01927533 0.0092068743 0.19461197
-0.015355233 0.0045885718 0.19517142
-0.011548981 0.001319522 0.19415799
-0.0080478806 -0.0018571336 0.19379699
-0.0013955692 -0.0081363628 0.19338977
0.0029852437 -0.010919727 0.19320676
0.0068639596 -0.014845228 0.19296536
0.010043888 -0.019451069 0.19330788
0.013480229 -0.022675835 0.19253755
0.016983287 -0.025876448 0.19264311
0.019993545 -0.029522281 0.19268909
0.023488536 -0.033098362 0.19102067
-0.029854331 0.017839789 0.18927452
-0.028005177 0.014923982 0.19055769
0.021956602 -0.034978133 0.18612775
0.0233371 -0.036898784 0.18578982
-0.031910658 0.015956819 0.18618131
-0.031425484 0.013210805 0.18668762
0.017071627 -0.033943441 0.18107736
0.019862251 -0.036168959 0.18230557
0.022223089 -0.037849043 0.18392497
-0.03242404 0.014969101 0.18089136
-0.032754205 0.01156674 0.18089184
0.015288334 -0.033323567 0.17743522
0.019943349 -0.036571387 0.17831853
-0.033462632 0.010904468 0.17561513
0.010119326 -0.03357102 0.17124763
0.013629233 -0.033605665 0.17236701
-0.03438453 0.0084793987 0.17174146
-0.034609661 0.0043591009 0.17145532
0.0085784607 -0.033816591 0.16836563
-0.034178048 0.0073689502 0.16809839
-0.034242302 0.0041803941 0.16723654
0.0066951159 -0.034319431 0.16388685
-0.034139857 0.0024878364 0.16328168
-0.033847585 -0.00090172328 0.16209701
0.0013771951 -0.034269445 0.16039762
0.0048219999 -0.034603473 0.15967405
-0.033718847 0.0017492045 0.15899453
-0.033917733 -0.0018431898 0.15877706
-0.00064762868 -0.034012087 0.15612534
-0.03378126 -0.0042058546 0.15455303
-0.034167208 -0.0079069752 0.15355739
-0.0064344378 -0.03525015 0.15111119
-0.0024079438 -0.03457398 0.15105325
-0.034083307 -0.0047852686 0.1506989
-0.034022994 -0.0090941535 0.14880544
-0.0081132445 -0.035102788 0.14690119
-0.0041453624 -0.035063349 0.14605868
-0.034210928 -0.011503054 0.14452586
-0.01242533 -0.034047306 0.14322802
-0.0091267023 -0.034375086 0.14242077
-0.03358379 -0.0125622 0.14062601
-0.014213609 -0.034040995 0.1378032
-0.010509174 -0.034197845 0.13847682
-0.033630598 -0.021176655 0.1350894
-0.017567296 -0.03354048 0.13451302
-0.013369851 -0.034535274 0.13439113
-0.033160012 -0.022714989 0.13172284
-0.02595026 -0.028873011 0.13076198
-0.018363869 -0.033652425 0.1308738
-0.030051196 -0.025469182 0.12701893
-0.019742075 0.023318075 0.19764674
0.017994935 -0.012027536 0.19419652
0.020600548 -0.016176989 0.19553289
0.023758627 -0.017587157 0.19557419
-0.026623737 0.026841646 0.19386396
-0.024064898 0.02448789 0.19523004
-0.020680215 0.021404982 0.19511741
-0.017987492 0.017848581 0.19416338
-0.0158545 0.014231093 0.19447249
-0.0083048036 0.010216251 0.19382846
-0.0068985396 0.0059831124 0.19390529
-0.0029367248 0.0027675482 0.19353509
0.00017511481 -0.00042260118 0.19363299
0.0032875114 -0.0040732143 0.19409168
0.0066909585 -0.0073945601 0.19383177
0.010170333 -0.010059743 0.1928246
0.015010147 -0.013705285 0.19342184
0.017933499 -0.017496949 0.19355965
-0.02916521 0.026425758 0.19125512
-0.027129885 0.021810792 0.19236064
-0.023766212 0.018821467 0.1930958
-0.020992942 0.016632436 0.19341987
-0.033200391 0.027448367 0.18738103
-0.031830534 0.024187131 0.18804103
-0.029988859 0.020836089 0.18897903
-0.03409607 0.026786216 0.18434286
-0.032881051 0.023201024 0.18358296
-0.031399015 0.01984489 0.183541
-0.03266611 0.022928931 0.17963067
-0.030869629 0.019686986 0.17869693
0.018280813 -0.032640759 0.1744056
0.020961329 -0.033943411 0.17412946
0.024215486 -0.03580251 0.17380965
-0.031775065 0.016135309 0.17544082
0.017525412 -0.03265968 0.17010346
0.021657951 -0.032872394 0.16989619
-0.033736162 0.012379689 0.16857725
0.01506207 -0.033152685 0.16555855
-0.033951554 0.0092508104 0.16492888
0.009397028 -0.033863027 0.16047913
0.012724918 -0.033849347 0.16109484
-0.033565637 0.0086357845 0.16065854
-0.033121262 0.0061499001 0.1593042
0.0086307023 -0.033895724 0.15662321
0.01155432 -0.033940375 0.157556
-0.033125795 0.0037507946 0.15592912
-0.033091575 0.00039666705 0.15548614
0.0024486016 -0.033547588 0.15341645
0.0059004575 -0.03405102 0.1531184
-0.033524364 0.002598701 0.15092936
-0.033022117 -0.0001273863 0.15150368
0.0015737228 -0.034204829 0.14940479
0.0043524494 -0.0343058 0.14851287
-0.03324673 -0.0025399849 0.14735779
-0.033619143 -0.0061744731 0.14537072
-0.00060577132 -0.034235261 0.14450008
0.0034708558 -0.034438681 0.14472678
-0.033520974 -0.0035649613 0.14221895
-0.034295414 -0.0073976777 0.1424548
-0.0071209697 -0.034326501 0.13963199
-0.0028666053 -0.034362383 0.1403054
-0.033346668 -0.0092806509 0.13754639
-0.0085489936 -0.034035932 0.13544983
-0.0045877695 -0.034318414 0.13542056
-0.032679714 -0.011094081 0.13273412
-0.014961353 -0.033748943 0.13198501
-0.011569927 -0.033987366 0.13086608
-0.021485571 -0.030984052 0.12742996
-0.012702214 -0.034426227 0.1266492
-0.033268593 -0.021775946 0.12409037
-0.025533307 -0.028380265 0.12426466
-0.017636193 -0.033392094 0.12285936
-0.029108724 -0.024667954 0.11980802
-0.022204479 -0.031192966 0.11821008
-0.0264851 -0.029068997 0.11513865
-0.020614007 -0.033905048 0.11474812
0.013643438 -0.00071051111 0.19368196
0.016773019 -0.004368532 0.19367248
0.020082857 -0.0076369834 0.19505531
0.021438997 -0.012664957 0.19520247
-0.026057635 0.028608793 0.19384685
-0.016293108 0.023590926 0.1959922
-0.014396689 0.021090204 0.19424751
-0.010559334 0.017157935 0.19217098
-0.0074730231 0.014544087 0.19271022
-0.0028303456 0.010822993 0.19358912
0.0010918919 0.0072122188 0.19333014
0.0076604951 0.00021565356 0.19323784
0.010809459 -0.0034067894 0.19320747
0.014022629 -0.006957978 0.19312048
0.016666608 -0.0099870954 0.19401354
-0.030665962 0.030011853 0.18891406
-0.033191372 0.025778424 0.1805931
-0.034574777 0.026799368 0.17896086
-0.032536704 0.024876103 0.1763669
-0.031253785 0.021190558 0.17686254
-0.031983294 0.023920862 0.17264464
-0.031008679 0.02021699 0.17218143
0.022668397 -0.033838332 0.16812068
0.024611473 -0.035316784 0.1687395
-0.033133764 0.022459157 0.16687837
-0.031992745 0.018912731 0.1678108
0.021004651 -0.034162231 0.1643509
0.024310892 -0.035445426 0.16328374
-0.032017618 0.017553419 0.16318807
-0.031879306 0.014822904 0.16285831
0.016160563 -0.03367326 0.15933079
0.020063441 -0.03487318 0.15943918
0.023885183 -0.035713118 0.15887174
-0.032354016 0.012860602 0.15842724
0.014256392 -0.033785984 0.15401107
0.018575065 -0.034794528 0.15482301
-0.03299382 0.009863467 0.15318286
-0.032761969 0.0071709137 0.15376997
0.0089686038 -0.033905298 0.15028718
0.01326219 -0.034269787 0.14923844
-0.033175163 0.0065642428 0.148992
0.0077239024 -0.034028433 0.14581484
0.011396426 -0.033705097 0.14610499
-0.032969393 0.0042517167 0.14464155
-0.032706082 0.0010504313 0.1449849
0.0014098771 -0.034066103 0.14178932
0.005111116 -0.034107987 0.14143556
-0.03324642 0.00029188953 0.14031959
-9.8306686e-05 -0.033895407 0.13865283
0.002523711 -0.03395338 0.13731587
-0.03330455 -0.0019513648 0.13597146
-0.033062875 -0.0048959199 0.13585016
-0.0019959901 -0.034187503 0.13351512
0.0014531128 -0.033687957 0.13292277
-0.032842189 -0.0070352145 0.13189059
-0.032688081 -0.010890325 0.12973934
-0.0080086468 -0.033620387 0.12917978
-0.0046474524 -0.033762913 0.1293945
-0.032888435 -0.0079225218 0.12780046
-0.032914154 -0.011759141 0.12599754
-0.0095434226 -0.034291074 0.12400955
-0.0065293973 -0.034235798 0.12479413
-0.015355631 -0.03353522 0.11949366
-0.011967867 -0.034131516 0.12016344
-0.032604732 -0.018975589 0.11700577
-0.026760718 -0.026638497 0.11654592
-0.01301164 -0.034084007 0.11586612
-0.032834411 -0.02121285 0.11332691
-0.026900854 -0.028316574 0.11235189
-0.018387692 -0.033832423 0.11151308
-0.030099709 -0.024638256 0.10783398
-0.022741858 -0.031213697 0.10870898
0.018944792 0.0027591446 0.19619864
0.019818386 -0.001210724 0.19742242
-0.010561066 0.025008 0.19473407
-0.005998604 0.022860805 0.19350821
-0.0030527301 0.021310665 0.192779
0.00087686256 0.014920285 0.19345093
0.0088105928 0.0075943926 0.19343096
0.012011673 0.004075693 0.19392088
0.015899731 0.0014060158 0.194655
0.0185392 -0.002755546 0.19505203
-0.01107404 0.023406383 0.19371685
-0.0079768505 0.020930016 0.19234198
-0.0049308911 0.017691696 0.19267598
-0.0017438 0.013440985 0.19333264
0.0028086517 0.0089315223 0.19301024
-0.032097612 0.030241981 0.17890075
-0.033802748 0.029397652 0.17528391
-0.034853585 0.02846767 0.17088288
-0.032576576 0.02586293 0.17023841
-0.03543574 0.028085932 0.16601565
-0.033575878 0.024699084 0.16615367
-0.033928126 0.023821658 0.16126123
-0.032861218 0.019947095 0.16173053
0.024720183 -0.03595924 0.15571472
-0.034031488 0.02235016 0.15784848
-0.032924578 0.018593056 0.15723997
-0.032404579 0.014834154 0.15645543
0.021184105 -0.035293028 0.15288559
0.02503852 -0.036029667 0.15149546
-0.032157864 0.014252204 0.15275869
0.019481624 -0.034819629 0.14850804
0.023896936 -0.036139172 0.14791238
-0.032277472 0.013021008 0.14759871
0.013022853 -0.03430761 0.1436258
0.018345244 -0.035526417 0.14300221
-0.032115519 0.011526958 0.1443226
-0.032979991 0.0072764913 0.14280781
0.010785654 -0.034025434 0.1388635
0.014699524 -0.034780398 0.13815865
-0.033177912 0.0051470632 0.13807249
0.0055662934 -0.033788588 0.13517472
0.0092607206 -0.03395718 0.13420215
-0.033452615 0.004127604 0.13285786
-0.033636123 0.00096861459 0.13392729
0.0041040024 -0.03395173 0.13040465
0.0078108357 -0.034264229 0.12985277
-0.033045173 -0.00044133514 0.12919623
-0.032926984 -0.0042956751 0.12968364
-0.00072474591 -0.033296704 0.12709302
0.0022727046 -0.033542048 0.12600625
-0.03340381 -0.0013609268 0.12498063
-0.033207361 -0.005755458 0.12499666
-0.0026006466 -0.033763576 0.12246066
0.0013204478 -0.033399768 0.12214518
-0.03333769 -0.0066036945 0.12049341
-0.033245336 -0.010777715 0.12024105
-0.0090391403 -0.03411679 0.11828285
-0.0059340075 -0.034524862 0.11874926
-0.033213578 -0.0081593674 0.11601198
-0.032919452 -0.011637943 0.11556965
-0.011273047 -0.034570001 0.11416447
-0.0068973936 -0.035216331 0.11371392
-0.016257349 -0.03386689 0.10837227
-0.012171463 -0.034469593 0.10935688
-0.0070974538 -0.035245214 0.10989195
-0.032560483 -0.019105565 0.10581249
-0.025797823 -0.028054889 0.10555738
-0.017795645 -0.033217553 0.10470539
-0.012902217 -0.034242578 0.10536355
-0.030185807 -0.024633583 0.10168952
-0.022867467 -0.030916717 0.10070747
-0.031858396 -0.02147709 0.097055137
-0.027450802 -0.0283802 0.096052825
-0.02043891 -0.032823242 0.09630239
-0.028395487 -0.027966313 0.092380941
-0.0035227863 0.029892305 0.19534466
0.0025065159 0.02446275 0.19518039
0.0058875177 0.021006472 0.19451311
0.020918187 0.0066282311 0.19549492
-0.0046968767 0.028913617 0.19249579
-0.0025540739 0.026389722 0.19343156
0.00028714072 0.02208247 0.19309503
0.0038028997 0.018995512 0.19339558
0.012190485 0.01196008 0.19278681
-0.033607159 0.029758491 0.15926838
-0.033219554 0.027927946 0.15793779
-0.033278495 0.025869507 0.15404651
-0.032696716 0.021804294 0.15358806
-0.032461151 0.024720808 0.15028077
-0.031754095 0.020800728 0.1497013
0.022967646 -0.035089932 0.14471456
-0.03218963 0.019967306 0.14513117
-0.031980962 0.016276717 0.1450429
-0.031620115 0.014688048 0.14072093
-0.032025643 0.0097163124 0.13928238
0.018805033 -0.034281701 0.1367968
0.020642985 -0.035903357 0.13755122
-0.031983636 0.012924839 0.1363509
-0.031714413 0.010317815 0.13593227
0.013180588 -0.033814091 0.13268471
0.016801231 -0.034575239 0.13268274
-0.031655718 0.0095918486 0.1313535
0.010949932 -0.032953206 0.12760323
-0.03244276 0.0062656142 0.12644774
-0.032631777 0.0031997962 0.12601775
0.0058266325 -0.033112846 0.12303686
0.0084114997 -0.03348846 0.1233111
-0.032615315 0.0017259791 0.12139744
0.0035182368 -0.033076078 0.11885041
0.0083677955 -0.03342697 0.12035781
-0.03272786 -0.00028163008 0.11738271
-0.033173297 -0.0035752952 0.11673713
-0.00115606 -0.033242434 0.1155411
0.0011718161 -0.033237312 0.1142751
-0.032667387 -0.0044016885 0.11262125
-0.0023441873 -0.034155749 0.11070192
9.0776011e-05 -0.034087859 0.11032552
-0.032848224 -0.0063174041 0.10837942
-0.032364625 -0.0091015482 0.10908091
-0.0051603792 -0.034699418 0.10600227
-0.033189483 -0.0073166657 0.10467881
-0.032722048 -0.010728651 0.10382962
-0.010731617 -0.033692092 0.10241419
-0.0065186927 -0.034386765 0.10219473
-0.03249044 -0.012569087 0.099409163
-0.012133186 -0.033662405 0.098249376
-0.031258117 -0.02292764 0.093446255
-0.017728977 -0.033113696 0.094230652
-0.013651372 -0.033814412 0.093325078
-0.030612092 -0.023917582 0.0903669
-0.02227848 -0.030055348 0.089668095
-0.030109283 -0.024381028 0.086145937
-0.023884114 -0.02888787 0.086212277
0.00057962909 0.029036628 0.19459996
0.0038947044 0.025848245 0.19545031
0.0074672201 0.022548251 0.19510734
0.015442231 0.016123904 0.19361734
0.022129798 0.0096025616 0.19534639
-0.034016076 0.029967211 0.15264887
-0.033518229 0.028256711 0.15120798
-0.033683255 0.026304787 0.14802682
-0.034511533 0.025587451 0.14317802
-0.033111822 0.021553479 0.142957
-0.033436533 0.02472892 0.13911366
-0.032866318 0.020623088 0.13870203
-0.031874884 0.01701661 0.13786113
0.021361019 -0.035160076 0.13393551
-0.032794088 0.019358359 0.1338563
-0.032402553 0.015828818 0.13437289
0.018316545 -0.034508362 0.12935752
0.021211512 -0.035191379 0.1301184
-0.03232602 0.014214178 0.12986118
-0.031756356 0.010863583 0.12886113
0.014253917 -0.032645546 0.12670767
0.017804638 -0.033761781 0.12536126
-0.032196607 0.012982879 0.12614638
-0.031822972 0.01018841 0.12488025
0.012414499 -0.032865252 0.1222772
0.017037455 -0.034359902 0.12210441
-0.031858552 0.0082170442 0.11989814
0.0068591461 -0.032487389 0.11677748
0.0098633235 -0.033266716 0.11711484
-0.032118268 0.0068477867 0.11612588
-0.032562561 0.0031352174 0.11595553
0.00557967 -0.032655738 0.11319274
0.0082892627 -0.033225115 0.11239427
-0.033132609 0.00011629239 0.11136591
0.0039266348 -0.033307292 0.10827494
-0.033679068 -7.279776e-05 0.10657579
-0.033369508 -0.0035812203 0.10642821
0.0013249796 -0.034359265 0.10380787
-0.033758514 -0.00071574561 0.1017279
-0.033363722 -0.0049541648 0.10160339
-0.0044715162 -0.034352649 0.099231303
-0.0007848274 -0.034467898 0.099027455
-0.033267442 -0.0068006339 0.096443653
-0.033030715 -0.0098698856 0.097453773
-0.010139421 -0.034148492 0.095109344
-0.0065193856 -0.034591496 0.095575452
-0.033182699 -0.011375534 0.092917025
-0.010988614 -0.034215994 0.091100097
-0.0076698996 -0.034414575 0.090311348
-0.033502169 -0.013362507 0.087800682
-0.016778633 -0.032596827 0.086704254
-0.012861086 -0.033832062 0.086676419
-0.031425599 -0.021765068 0.084199369
-0.022382904 -0.029837377 0.083552599
-0.014685673 -0.033390228 0.082180738
-0.030866746 -0.023127832 0.079350173
-0.023404313 -0.030275768 0.078536987
-0.027747011 -0.027087219 0.074653864
0.018836191 0.017846065 0.19372985
-0.034194592 0.030948117 0.14064834
-0.034978807 0.030630274 0.13530669
-0.034221467 0.026859855 0.13660496
-0.033232875 0.025729481 0.13070408
-0.033121049 0.022409353 0.13175857
-0.032255054 0.021545211 0.12683624
-0.031612299 0.018299973 0.12634301
0.023972658 -0.033357002 0.12154895
-0.03133418 0.016183494 0.12222731
0.015190518 -0.031508099 0.11780339
0.018217573 -0.033170186 0.11796123
0.023122795 -0.033878852 0.11800998
-0.03183987 0.015037195 0.11747003
-0.031757779 0.011717971 0.11858976
0.014638143 -0.031899814 0.11430937
0.017571304 -0.032995373 0.11354202
-0.032181203 0.014050903 0.11373109
-0.03176998 0.01017563 0.11335677
0.012585199 -0.032521427 0.10973507
0.016623855 -0.033271782 0.10990924
-0.031803034 0.0087321913 0.10846758
-0.03120276 0.0060075512 0.10905361
0.0094016418 -0.033085734 0.10574138
-0.032289702 0.0040751742 0.10458285
0.004211342 -0.034405097 0.10223192
0.0083174948 -0.033361327 0.10095596
-0.032969296 0.00031468272 0.09876287
0.003618191 -0.03366182 0.097173035
0.0073249955 -0.033582825 0.097084224
-0.032460708 -0.0021760734 0.095278502
-0.0028994158 -0.03397141 0.092926562
0.00092968158 -0.033204734 0.092903316
-0.033121355 -0.0048569953 0.090932131
-0.033614509 -0.0089830523 0.089669347
-0.0035882052 -0.033889368 0.088724673
0.00018082187 -0.033181895 0.088756621
-0.033306602 -0.005516286 0.086191177
-0.033166192 -0.0094751194 0.08661896
-0.0066494737 -0.033793043 0.084848225
-0.033359177 -0.010518555 0.082177222
-0.01585656 -0.032112792 0.079143226
-0.011628293 -0.03341978 0.080414534
-0.0078748045 -0.033588596 0.079334378
-0.033720843 -0.011944249 0.07740593
-0.031514015 -0.019800613 0.075745046
-0.012554313 -0.033338044 0.075802624
-0.034042422 -0.01293479 0.073600829
-0.030975249 -0.021339525 0.072140396
-0.023046315 -0.029153736 0.070903957
-0.014172785 -0.033186872 0.07188803
-0.031263344 -0.021317547 0.067150354
-0.023806822 -0.02843369 0.066950262
-0.027583756 -0.025574544 0.064135015
-0.033842701 0.031760491 0.13618752
-0.034059074 0.027470099 0.1283676
-0.03343118 0.027237121 0.12517178
-0.032771111 0.023630731 0.12416774
0.026856078 -0.033527005 0.1205129
-0.032878503 0.026912708 0.12204891
-0.032021072 0.022655968 0.12077659
-0.031375051 0.019113109 0.11989182
0.025458455 -0.034675814 0.11648387
-0.031952012 0.022183392 0.11616939
-0.032318145 0.017918685 0.11547101
0.020255672 -0.033330224 0.11098212
0.024393138 -0.03238916 0.11182576
-0.032092616 0.016277354 0.11102289
-0.031936754 0.012208664 0.1104762
0.017623231 -0.033389367 0.10709143
0.02286008 -0.033097222 0.1074701
-0.032247856 0.014595666 0.10648489
-0.032351188 0.011516828 0.10651821
0.01303959 -0.033018131 0.10372019
0.016587276 -0.033467855 0.10300612
-0.03139089 0.0097030578 0.1017319
-0.031613421 0.0061292499 0.10219264
0.011700634 -0.032958079 0.098387659
-0.031318184 0.0091706989 0.097500563
-0.031566482 0.005370873 0.097488105
0.0050346572 -0.033361897 0.094213724
0.0082796793 -0.033948548 0.094307661
-0.031150229 0.0032168208 0.092748284
0.0040228171 -0.033261694 0.090275347
0.0077333609 -0.033496052 0.089213371
-0.032966584 -0.0013202075 0.089453936
0.001848964 -0.033393778 0.085880101
0.0042967629 -0.033699591 0.084639609
-0.033362333 -0.0029059527 0.084373653
-0.0033441791 -0.033404168 0.082233071
0.00081298314 -0.033069402 0.081541777
-0.033501323 -0.0052655945 0.08004266
-0.033987246 -0.0086388038 0.079519808
-0.0054282229 -0.033486642 0.077856302
-0.0026861373 -0.033150323 0.07711345
-0.035049364 -0.0070648575 0.075209796
-0.034719456 -0.0097003672 0.075888574
-0.010924134 -0.03393453 0.073104084
-0.0075759599 -0.033970974 0.07361865
-0.035141513 -0.0068557924 0.071027398
-0.034374829 -0.011133815 0.070778191
-0.013065334 -0.033538632 0.069529176
-0.0099625885 -0.033958308 0.068424463
-0.034097593 -0.012556433 0.067238092
-0.019340891 -0.031621311 0.065749943
-0.01075767 -0.033405066 0.06446141
-0.031325944 -0.021054495 0.061865091
-0.024920799 -0.02889921 0.061666012
-0.030822773 -0.0214555 0.057615757
-0.025455363 -0.028800275 0.056286871
-0.033257727 0.028219674 0.11924821
-0.032293022 0.025461532 0.11842042
-0.0343921 0.027199918 0.11471641
-0.032887988 0.024578327 0.11464334
0.026085723 -0.032466095 0.10945708
0.028140832 -0.032890536 0.11156881
-0.03470904 0.026870076 0.11034805
-0.03252016 0.023303073 0.10976875
-0.031564735 0.019903049 0.10860562
0.023913015 -0.033164259 0.10391581
-0.03195072 0.022156224 0.10571849
-0.031776305 0.018780168 0.10522068
0.02241414 -0.03359377 0.10064566
-0.032344788 0.017095899 0.10052544
-0.031672936 0.013293041 0.10074168
0.017008932 -0.032756351 0.096977174
0.021265697 -0.034215409 0.095749855
-0.032970373 0.015341955 0.095885277
-0.031879552 0.011750897 0.096249521
0.015385883 -0.032749802 0.092188001
0.01904368 -0.033879973 0.091729701
-0.03356678 0.014446452 0.092070937
-0.032157406 0.010340688 0.091962755
-0.031279482 0.0065421546 0.091326475
0.0097312704 -0.033283189 0.087470949
0.013073101 -0.033383507 0.088087618
-0.032201041 0.0091238776 0.086799979
-0.031356081 0.0055308575 0.086853385
0.0076645669 -0.033557743 0.083671033
0.011588928 -0.033696223 0.083559394
-0.031689517 0.0038136803 0.0824278
-0.031993359 0.00022871979 0.081974626
0.0015674075 -0.032630481 0.078490317
0.0066284584 -0.03322557 0.078965008
-0.032211915 0.0026910016 0.077743471
-0.032768968 -0.0011888258 0.077809274
0.0011351611 -0.032509111 0.07456094
0.0047025327 -0.032975487 0.074795663
-0.033933029 -0.0022510458 0.073056817
-0.0057289815 -0.033438511 0.069775403
-0.00092466362 -0.032384753 0.070532739
-0.03437179 -0.0035623088 0.068826556
-0.034188669 -0.0080234185 0.067975044
-0.0068146167 -0.033559285 0.066340923
-0.0031852676 -0.033178702 0.066059709
-0.034368921 -0.0056991549 0.065802991
-0.033686891 -0.009559311 0.063649297
-0.013000596 -0.031960402 0.060871542
-0.0075675771 -0.033025909 0.061932147
-0.033403456 -0.01055368 0.059494555
-0.013962693 -0.031255316 0.057492912
-0.0095648579 -0.032043271 0.058846116
-0.033646286 -0.011331647 0.055876672
-0.031166079 -0.020107584 0.054393709
-0.019955032 -0.031146251 0.053374112
-0.03383676 -0.016222395 0.050283253
-0.028759131 -0.024748733 0.049790382
-0.020676054 -0.030713513 0.049168766
-0.033961304 -0.018091738 0.047187209
-0.029440703 -0.025146881 0.045168519
-0.021614131 -0.030644169 0.045143187
-0.029816916 -0.025351033 0.042347848
-0.034041986 0.027130499 0.1064977
-0.033160795 0.025617529 0.10674292
-0.032122128 0.025015337 0.10215592
-0.032751482 0.023258924 0.097493649
-0.032885343 0.019506425 0.097360075
-0.032773573 0.0223478 0.093862474
-0.033150274 0.018607765 0.093455851
0.021447372 -0.034516528 0.089394391
-0.033394899 0.01841162 0.090003073
-0.031922318 0.013271928 0.088319242
0.016509745 -0.033190131 0.085137665
0.019538872 -0.033796486 0.084763348
-0.03174388 0.012218938 0.083950341
0.014967677 -0.033138119 0.080332339
-0.032036621 0.0098266723 0.080172718
-0.031795233 0.0071130358 0.079872191
0.0092322631 -0.033376008 0.076515794
0.01212279 -0.03295809 0.07567203
-0.032461755 0.0057079522 0.074997663
0.0075522512 -0.033154193 0.071905673
-0.033453997 0.0031319587 0.070986509
0.0024472773 -0.031982698 0.067823708
0.0056836335 -0.032708284 0.067243218
-0.032967336 0.0027623 0.066728413
-0.033647254 -0.0014569368 0.066236734
0.00082174502 -0.032200076 0.063690126
-0.033039354 -0.0032662721 0.0616166
-0.0051246108 -0.03241542 0.058467925
-0.0020987177 -0.032471478 0.059301198
-0.033158481 -0.0078440756 0.057875872
-0.0073709013 -0.031730674 0.055257797
-0.0026191324 -0.032207064 0.054749548
-0.033720948 -0.0097648175 0.052539229
-0.012488226 -0.032183472 0.051261187
-0.0090760756 -0.032143377 0.050628006
-0.034252953 -0.011390898 0.047851324
-0.034623433 -0.014159518 0.048566282
-0.010760006 -0.032572605 0.045134962
-0.019442843 -0.030698083 0.041701734
-0.034509428 -0.016392749 0.039680779
-0.028790494 -0.024092251 0.037798882
-0.02175591 -0.029706743 0.039048254
-0.029150622 -0.023072608 0.034242809
-0.03380163 0.028405325 0.095565617
-0.033082228 0.026588419 0.097077966
-0.034064844 0.029289197 0.091854751
-0.033298705 0.025196826 0.092069566
-0.033115264 0.02324895 0.088815033
-0.031475551 0.019527182 0.086312413
0.023098091 -0.033712953 0.082894266
0.025143318 -0.034857165 0.082659543
-0.030906633 0.018598665 0.082841098
-0.031315826 0.015208234 0.082196057
0.017238203 -0.032844178 0.076826394
0.021652926 -0.033685356 0.078621387
0.024468308 -0.035348527 0.078122914
-0.031468302 0.017740829 0.078927934
-0.031767782 0.013470747 0.07815963
0.016201062 -0.032581273 0.074176848
0.020121548 -0.033917401 0.074343443
0.023444645 -0.036159854 0.073931396
-0.032687541 0.012040988 0.074228287
0.014446282 -0.032926165 0.070168793
0.018165156 -0.03404871 0.069639385
-0.033097997 0.010566384 0.069391787
-0.033036076 0.0072467616 0.069628656
0.0091743106 -0.033081103 0.06602037
0.012208519 -0.033472791 0.065912604
-0.032885656 0.0058782985 0.06461376
-0.032513756 0.0011112429 0.063152373
0.0031466968 -0.031668484 0.06150955
0.0073010745 -0.032663286 0.0614115
0.010819416 -0.033683077 0.061185122
-0.031633273 0.0045752572 0.06078428
-0.032012843 0.0011100229 0.059355557
0.002239625 -0.03178668 0.057391703
0.0053945761 -0.032267075 0.05681932
-0.032020677 -0.0014187945 0.055806935
-0.031670578 -0.0045869155 0.055205822
-0.0043476187 -0.031480748 0.053294003
0.00028419867 -0.032101028 0.052942634
-0.031555705 -0.0018299874 0.051522851
-0.031984776 -0.0046182396 0.051188767
-0.0056981668 -0.032000255 0.049122512
-0.0025784969 -0.032517947 0.049092829
-0.033445496 -0.0073888963 0.04725486
-0.0069257878 -0.032613777 0.044491827
-0.003564043 -0.032659154 0.04393822
-0.034338444 -0.010363931 0.043090284
-0.0093222242 -0.032921478 0.040190935
-0.035341337 -0.011816433 0.038139224
-0.023841025 -0.026093632 0.0347507
-0.014923148 -0.031834569 0.036065936
-0.010845486 -0.032798339 0.035198867
-0.035282139 -0.011448848 0.033611476
-0.03206012 -0.019520286 0.032764018
-0.024256062 -0.026710857 0.032614648
-0.015999503 -0.032299608 0.031198025
-0.03185191 -0.019779323 0.027891338
-0.025198804 -0.027017433 0.027562439
-0.01770984 -0.032952782 0.026929736
-0.022441719 -0.029949512 0.023184478
-0.03377131 0.029044047 0.089064777
-0.033544946 0.029611476 0.085555017
-0.03214737 0.026747357 0.084742904
-0.031657815 0.024785193 0.079633474
-0.030983202 0.022022624 0.080227315
-0.033534989 0.023400452 0.073055923
-0.031970035 0.02023695 0.075603545
0.022371335 -0.034054115 0.071045101
-0.032527063 0.018911447 0.071289957
-0.032449991 0.015010642 0.070469499
0.017222177 -0.032547873 0.06627804
0.020756081 -0.034541398 0.067054093
-0.032148384 0.01807834 0.066604555
-0.032421909 0.014562023 0.066493213
0.015507171 -0.033439651 0.063026726
0.019430272 -0.034676485 0.062166512
-0.032049663 0.012028402 0.062696099
-0.031257272 0.0098432219 0.059868872
0.0138697 -0.033724666 0.05805558
0.018157873 -0.034844745 0.057473481
-0.030755527 0.0069731614 0.056872964
0.0084248781 -0.032464433 0.054167867
0.011950966 -0.03331285 0.053364038
-0.031095218 0.0057614297 0.052427292
-0.031537842 0.0022649234 0.052993834
0.0025583291 -0.031760115 0.049270272
0.0062483279 -0.032665305 0.049918771
-0.031782955 0.00057381205 0.048224866
0.00096005201 -0.032194749 0.04580617
0.0042948425 -0.03320919 0.045182228
-0.031933814 -0.0010206308 0.043329477
-0.032038469 -0.0041285791 0.043515205
-0.0007188879 -0.032210618 0.041410625
0.0036065979 -0.032767501 0.040665925
-0.032620843 -0.0056119915 0.039361
-0.006133968 -0.032479208 0.036891758
-0.003314836 -0.032158315 0.037101448
-0.033249181 -0.0063981852 0.035907388
-0.0075241309 -0.032443728 0.032378495
-0.0034622075 -0.032172449 0.033983409
-0.03392899 -0.0087410649 0.031212568
-0.034215689 -0.012461349 0.029213369
-0.010032492 -0.032721698 0.028737724
-0.033980653 -0.0097319456 0.027491987
-0.032153159 -0.017193884 0.024153948
-0.012157572 -0.032960214 0.023742378
-0.028043663 -0.022416735 0.021306157
-0.021351842 -0.030234553 0.019861042
-0.027916364 -0.022525152 0.017157793
-0.021145076 -0.029493099 0.015561759
-0.032669611 0.030937552 0.081286967
-0.031503364 0.02971112 0.081243515
-0.031863395 0.028106013 0.078496456
-0.03263421 0.026653668 0.074721396
-0.033389013 0.025784466 0.070070088
-0.032647111 0.022244267 0.068942368
-0.032404676 0.025293168 0.065118432
-0.032291137 0.020899864 0.065220118
0.025580999 -0.033909645 0.06002444
-0.03138119 0.019420428 0.060174763
-0.031513222 0.016214851 0.060349941
0.021768637 -0.03552841 0.0562343
-0.030965105 0.014515365 0.055801332
-0.030139454 0.011357225 0.055222571
0.015714262 -0.033519458 0.052929699
0.018168226 -0.034184627 0.051520586
0.021528969 -0.035611339 0.051117837
-0.030637074 0.013605709 0.051123381
-0.030652089 0.0099555496 0.050962329
0.012661318 -0.032942809 0.047644556
0.016652066 -0.033264678 0.047271192
-0.031357199 0.0071577486 0.046500385
0.0084902663 -0.032983407 0.044216037
0.011704487 -0.033205457 0.042815149
-0.032194491 0.0064538149 0.041396677
-0.031831861 0.0027683284 0.042241991
0.002292688 -0.031615265 0.038694322
0.005426323 -0.032754008 0.039005876
0.0090047698 -0.033225894 0.038039505
-0.032755986 0.0051932158 0.037707031
-0.032084648 0.0010615373 0.037440956
0.0010112925 -0.031519208 0.035136402
0.004497678 -0.032849446 0.033720553
0.0073718652 -0.033649337 0.033467412
-0.032393206 -0.00071263313 0.032699049
-0.032687571 -0.0040467735 0.033147812
-0.0011578444 -0.031805545 0.030183852
0.0022377595 -0.032439694 0.028417408
-0.032800648 -0.0047393758 0.027775943
-0.0062713064 -0.032165948 0.026037157
-0.0029187324 -0.03190738 0.025395334
-0.032771129 -0.0074343449 0.023226023
-0.032072358 -0.0098458827 0.02200079
-0.0078901025 -0.032128416 0.022054493
-0.032275137 -0.011916251 0.018706381
-0.013520966 -0.031647559 0.017337024
-0.010275492 -0.031826686 0.016874611
-0.03073659 -0.017582491 0.014761984
-0.02443012 -0.025506055 0.013157785
-0.015791109 -0.031563658 0.013025343
-0.011204733 -0.031581402 0.012519181
-0.028444031 -0.022121564 0.0093870759
-0.030761605 0.031583648 0.069390714
-0.03285091 0.028828004 0.066368401
-0.03267191 0.027776226 0.061866343
-0.031765711 0.023838321 0.061268151
-0.031698622 0.026702965 0.057604015
-0.031070549 0.022922479 0.057516038
-0.03156776 0.019773649 0.053718209
-0.031253785 0.016926056 0.052559197
-0.031075204 0.02062035 0.049766541
-0.03062411 0.015811441 0.048219562
0.018533003 -0.033461593 0.044396222
0.021311726 -0.035861164 0.045874298
-0.030768652 0.015188489 0.044994116
-0.030796405 0.011503101 0.044863582
0.01284529 -0.033442125 0.039679229
0.017785231 -0.033005815 0.04074055
0.021462498 -0.034860484 0.041674376
-0.031475648 0.010637411 0.039298713
0.012127718 -0.033208653 0.035687923
0.016738486 -0.032110799 0.036580503
-0.03251591 0.0072697857 0.034962952
-0.032432765 0.0033628261 0.034213066
0.011098837 -0.033874497 0.031938493
-0.032436743 0.0068000015 0.031565785
-0.03194841 0.0033382922 0.030315399
0.0045185657 -0.03298936 0.027300894
0.0084486781 -0.033614989 0.027369142
-0.03155262 0.0019399123 0.026222289
-0.00034372602 -0.031152112 0.022794545
0.0034374772 -0.031814452 0.022528648
0.0073078116 -0.033380702 0.023601234
-0.031741142 7.0827082e-05 0.02260977
-0.031738963 -0.0030180188 0.020744085
-0.0025418214 -0.031192437 0.018979728
-0.03192798 -0.0049485676 0.016877234
-0.0044891853 -0.031201024 0.014538586
-0.03234021 -0.0059208628 0.013318717
-0.031464901 -0.0097545432 0.011707127
-0.0091685541 -0.031332463 0.010501921
-0.0057003004 -0.031014919 0.010816395
-0.032876246 0.028880142 0.056441009
-0.032390084 0.027506119 0.051599681
-0.030983495 0.024223318 0.052077949
-0.032584995 0.026678378 0.047427833
-0.030984595 0.023475133 0.046392143
-0.031032594 0.018467279 0.046604335
-0.030581536 0.01682397 0.042378783
0.020727444 -0.0323513 0.037166536
0.022546604 -0.033773437 0.037198126
-0.030502772 0.015837532 0.037355483
0.018783484 -0.032752641 0.033253372
0.021888496 -0.034268975 0.033544123
-0.031432193 0.014343422 0.031800449
-0.032014012 0.011117612 0.033953488
0.017502474 -0.033477571 0.028197289
0.020293768 -0.03551688 0.026520312
-0.032109506 0.0095342305 0.027940452
0.011831852 -0.033925235 0.025434017
0.01635851 -0.034396358 0.024189711
0.01882367 -0.036791891 0.024873614
-0.031974718 0.0078400904 0.024151981
-0.031285953 0.0045818835 0.022656977
0.0060014473 -0.03216099 0.020454884
0.0096884649 -0.032940213 0.020106971
0.014650924 -0.033549495 0.02128011
-0.031678461 0.0023034615 0.019537151
9.6268952e-05 -0.030468894 0.01556474
0.003802944 -0.031426836 0.016223431
0.0093744481 -0.032408468 0.016273975
-0.031814281 0.0017577689 0.015102565
-0.032327302 -0.0023654466 0.014528692
-0.000913308 -0.030486519 0.01182586
0.0031944616 -0.03164814 0.011627257
-0.032775659 -0.00015771389 0.011322677
-0.032043271 -0.0041762944 0.0098971725
-0.031410802 0.030459305 0.046867549
-0.032273144 0.028553693 0.044078946
-0.030562729 0.024186341 0.043239892
-0.032378033 0.02873807 0.040793478
-0.03043557 0.024958428 0.039961159
-0.029652759 0.020412914 0.040406168
-0.030840816 0.024349621 0.034360826
-0.0294233 0.021053199 0.035574138
-0.029626898 0.01939247 0.03061527
0.024113663 -0.032125115 0.027742267
-0.031672165 0.014532568 0.026384711
0.016543593 -0.034184586 0.022644341
0.019009799 -0.036562368 0.022444785
-0.031989884 0.014636265 0.021036685
-0.032052699 0.011378161 0.022374928
0.012611072 -0.032985117 0.017855108
0.016672567 -0.033480737 0.018219054
-0.032993007 0.013966328 0.016538024
-0.03189465 0.010119488 0.016941249
-0.031576883 0.0055082226 0.017187297
0.010973705 -0.032800809 0.013651192
-0.031872444 0.0088392003 0.012508154
-0.031995889 0.0047915373 0.01290524
0.0055906549 -0.032168884 0.0097303391
0.0090518408 -0.032237336 0.0091000795
-0.030672092 0.027272537 0.035116136
-0.031187251 0.024070175 0.028750539
-0.030369563 0.02064267 0.028738678
-0.031578802 0.023579001 0.023454726
-0.03026069 0.019844355 0.024725497
-0.031389669 0.022775454 0.020476997
-0.030650539 0.019577894 0.020049572
0.020108242 -0.033084087 0.015399337
0.02278121 -0.033013463 0.01589191
-0.031319525 0.018284863 0.015226543
0.0175419 -0.032044049 0.011560738
-0.032314003 0.015015766 0.012181461
-0.032286134 0.011886392 0.010267913
-0.03087227 0.024447078 0.016997635
-0.031330924 0.020605065 0.017240107
0.025526749 -0.030413432 0.010484457
-0.031348627 0.020365503 0.012390316
-0.029153703 0.028191162 0.013806522
-0.029895609 0.026411844 0.010813415
