# .PCD v0.7 - Point Cloud Data file format
VERSION 0.7
FIELDS x y z
SIZE 4 4 4
TYPE F F F
COUNT 1 1 1
WIDTH 1044
HEIGHT 1
VIEWPOINT 0 0 0 1 0 0 0
POINTS 1044
DATA ascii
-0.024503348 0.030660298 0.19149187
-0.022534924 0.035196815 0.18853632
-0.029935915 0.028870909 0.18873143
-0.024289114 0.036523558 0.18486333
-0.031516958 0.030839641 0.18424001
-0.028548144 0.035656933 0.18000451
-0.019665139 0.024991382 0.19329828
-0.026957229 0.018164851 0.19303435
-0.015564889 0.034528241 0.1901373
-0.021416426 0.028223203 0.19245523
-0.029938182 0.02134821 0.19126019
-0.017024342 0.036640648 0.18716139
-0.032221932 0.023346242 0.18659374
-0.018465422 0.037030004 0.18274093
-0.031602964 0.028021758 0.18162924
-0.033257589 0.020173658 0.18151918
-0.027084537 0.036094766 0.1770176
-0.031980112 0.025578069 0.17731392
-0.027586695 0.034690246 0.17288214
-0.031951427 0.026634969 0.17380646
-0.0079323174 0.031922162 0.19180858
-0.010318629 0.029455181 0.19233727
-0.017273786 0.024214979 0.19331717
-0.024252241 0.014926963 0.19294226
-0.030645423 0.0087133292 0.1918788
-0.031895481 0.0055873971 0.19091243
-0.0095827077 0.034466732 0.18915689
-0.012012326 0.032412555 0.19068521
-0.032557413 0.011145669 0.18801385
-0.033257261 0.0072281612 0.18679786
-0.011205936 0.036477827 0.18552163
-0.014797934 0.037068058 0.1843974
-0.033577193 0.01206169 0.18262812
-0.012258831 0.037077762 0.17968529
-0.015048951 0.036743961 0.18033704
-0.033810373 0.014094244 0.17793587
-0.02062016 0.036941558 0.17586881
-0.033240505 0.019318977 0.17462531
-0.021145903 0.035907693 0.17138854
-0.031532917 0.028581217 0.17093134
-0.022256607 0.036070332 0.16695419
-0.030276097 0.031159086 0.1666624
-0.026897665 0.035134569 0.1616641
-0.031719241 0.029344039 0.16125271
-0.03079005 0.033012353 0.15807834
-0.0055239797 0.024022728 0.19257748
-0.0082561933 0.021257389 0.19238019
-0.015166231 0.014966152 0.19220927
-0.02315608 0.0075357612 0.19284829
-0.026827157 0.0046317587 0.19296128
-0.029171335 0.00037992932 0.19191584
-0.031099226 -0.0020512789 0.19064248
1.5985221e-05 0.033046465 0.18911269
-0.003355938 0.030634142 0.19096303
-0.0076566041 0.027757367 0.19291064
-0.014542006 0.020928528 0.19293272
-0.020059675 0.014426899 0.19210455
-0.032121487 0.0024998765 0.18955055
-0.032724805 -0.0011238549 0.18845344
-0.00070257671 0.034812294 0.18658915
-0.0045427401 0.033853121 0.1879662
-0.033342235 0.0039959112 0.1852943
-0.033370353 0.00068640895 0.18373084
-0.001989359 0.036043279 0.1826705
-0.0063378308 0.035628457 0.18313286
-0.033673543 0.005688413 0.18075949
-0.034153 0.0016515087 0.18085158
-0.0068817995 0.036283143 0.17794517
-0.034328878 0.011692448 0.17615664
-0.033738144 0.0077984184 0.17593458
-0.010510264 0.036917496 0.17335239
-0.014455375 0.037521634 0.17350352
-0.033499338 0.012747306 0.17126054
-0.011293825 0.036845457 0.16995871
-0.014631815 0.03712628 0.16932446
-0.031437173 0.017810831 0.16757309
-0.032920193 0.01344783 0.16766259
-0.019933864 0.036293231 0.16481096
-0.031908978 0.020497508 0.16333604
-0.020952098 0.036161769 0.16024154
-0.032115217 0.025813349 0.15936998
-0.021483749 0.035859987 0.15628248
-0.029823828 0.032248531 0.15444806
-0.029193642 0.03142263 0.15017176
-0.031431612 -0.013296662 0.19376099
-0.032862805 -0.014054264 0.19397435
0.0012708018 0.026226118 0.19088545
-0.0019167094 0.022664089 0.19232732
-0.0060712914 0.01907495 0.19231221
-0.012234368 0.011962728 0.19237381
-0.019138984 0.003716832 0.19281039
-0.023540512 0.0011292193 0.19365984
-0.026722956 -0.0022948934 0.19333565
-0.030041918 -0.0054904493 0.19104841
-0.032499574 -0.0098931789 0.19003564
-0.035307538 -0.013070604 0.18956
0.0067508426 0.033996921 0.18829569
0.0029425407 0.032603636 0.18977529
0.00030541234 0.029357063 0.19091073
-0.032980695 -0.0038488749 0.18645373
-0.033855662 -0.0077525117 0.18565536
-0.036571585 -0.012033855 0.1863429
0.0050891712 0.036095846 0.18482688
0.0018817019 0.035308111 0.18576592
-0.033573903 -0.0024648905 0.18231419
-0.034534123 -0.0063596247 0.18116096
0.003165368 0.037201472 0.18062803
0.00039115921 0.036787152 0.18121377
-0.034088641 -0.00058021024 0.17791566
0.0026512928 0.038022697 0.17662364
-0.0011900458 0.037350044 0.1769869
-0.0050146822 0.036886867 0.17468539
-0.034008298 0.0052096006 0.17423576
-0.034324042 0.001561638 0.17397696
-0.0024734698 0.037317954 0.17242712
-0.0060049528 0.037009779 0.17146724
-0.034515657 0.0068920236 0.16917554
-0.034705169 0.0027337112 0.16961935
-0.0084091825 0.036958858 0.1671426
-0.033217546 0.012443506 0.16490367
-0.034940526 0.0084433369 0.16445032
-0.0081636338 0.036489602 0.16283879
-0.011596509 0.036833081 0.16227731
-0.032932896 0.013337011 0.1604363
-0.014598623 0.037027389 0.15810061
-0.032687403 0.014869163 0.15709662
-0.019945035 0.036297403 0.15425238
-0.03295394 0.025205424 0.1519036
-0.020583056 0.035597004 0.14916259
-0.028917439 0.032279022 0.14795384
-0.033243444 0.022757832 0.14731061
-0.029059231 0.032128211 0.14369175
-0.03333132 0.025341475 0.14303488
-0.02061367 -0.011184998 0.19507039
-0.022248879 -0.013314924 0.19595516
-0.025951579 -0.015867943 0.19592386
0.0064707412 0.019850763 0.19319463
0.0042867595 0.017585605 0.19301134
-0.0033572931 0.009657653 0.19237003
-0.010303905 0.0031982593 0.19304729
-0.014421898 2.2080727e-05 0.19307387
-0.018103981 -0.0043385657 0.1933597
-0.021761153 -0.007589947 0.19350454
-0.024662714 -0.011359483 0.19291154
-0.028214715 -0.013810942 0.19343933
0.011864831 0.029172514 0.18986022
0.0087486422 0.026290072 0.19107488
0.0046792366 0.023895077 0.19210488
0.0018091695 0.01969941 0.19252008
-0.0024629985 0.015486669 0.19195765
-0.0092700766 0.0089261504 0.19253111
-0.015569245 0.0030382513 0.1923005
-0.027563812 -0.0093197888 0.19133204
-0.029252835 -0.010947865 0.19124746
0.013224996 0.034470882 0.18663782
0.010562361 0.0325781 0.1882962
0.0069057234 0.028499659 0.18969065
0.0040128492 0.026895044 0.19009975
-0.034501359 -0.0095458701 0.18300813
-0.035174713 -0.012965766 0.18240178
0.011894594 0.036066905 0.18276528
0.0083765155 0.036307059 0.18358025
-0.035048679 -0.0080513442 0.17964542
-0.036038607 -0.01207104 0.17898309
0.010784051 0.036646113 0.17812625
0.00689256 0.037023168 0.17899472
-0.03376969 -0.0030863574 0.17472818
-0.034781881 -0.0066331765 0.17528847
-0.035811089 -0.011035061 0.17396969
0.0058548115 0.037961431 0.17405444
-0.033791237 -0.0019955654 0.17118776
-0.034632955 -0.0062717488 0.17036399
0.0045649931 0.037430089 0.17026159
0.00076759234 0.037304185 0.17020175
-0.03409522 -0.00048833154 0.16684648
-0.0006209556 0.037056044 0.1668523
-0.0047078077 0.036311861 0.16404662
-0.035066869 0.0057521863 0.16196188
-0.035001837 0.0025794152 0.16284135
-0.0056311507 0.035957251 0.1603367
-0.033188399 0.010797656 0.15806299
-0.034261145 0.0073750522 0.1577425
-0.035273943 0.0038782917 0.15736276
-0.0066149682 0.035549074 0.15510479
-0.010127682 0.036206622 0.15559071
-0.032385428 0.012168936 0.15347123
-0.033786345 0.0076430803 0.15343654
-0.011976743 0.036047902 0.15142098
-0.032516774 0.013466788 0.14903933
-0.013729588 0.035795063 0.1467655
-0.033241864 0.019201206 0.14601806
-0.019467093 0.035843644 0.14310002
-0.033246286 0.021550687 0.14173204
-0.024634443 0.034453753 0.13739631
-0.031365864 0.028162429 0.13696188
-0.024659008 0.03480522 0.1323356
-0.030957732 0.028782981 0.13200253
-0.026338128 0.034784071 0.12856448
-0.030706089 0.030253762 0.12819797
-0.016746165 -0.014277875 0.19767118
-0.020554427 -0.014875811 0.19885826
0.025498223 0.029741056 0.19764116
-0.0032971348 0.00049085566 0.19366592
-0.0061042439 -0.0022963597 0.19348687
-0.009520987 -0.0044760075 0.19382042
-0.013874338 -0.0086262105 0.1939888
-0.018244911 -0.011430859 0.19556734
-0.02224094 -0.0156678 0.19671416
0.027665369 0.035307262 0.19381523
0.020341687 0.028576756 0.19175494
0.016806042 0.025376685 0.19167304
0.012847466 0.022495046 0.19282532
0.0095230136 0.019357136 0.19360948
0.0056478055 0.014715277 0.19361106
0.0016990588 0.011266645 0.19273466
-0.0010422515 0.0072928774 0.19274092
-0.0076352255 0.00042122952 0.19348234
-0.01140755 -0.0025001499 0.19361824
-0.014013875 -0.0054646377 0.19328025
0.028268252 0.038581748 0.1913971
0.020901293 0.03275096 0.18792289
0.018623076 0.03039629 0.18958437
0.014583039 0.027913408 0.19056332
0.011142628 0.025307674 0.19203228
0.020098003 0.033686481 0.18590444
0.017284598 0.03281267 0.18643832
0.015891246 0.034805231 0.18118107
0.012538714 0.036227178 0.1762715
-0.036223426 -0.013473146 0.17197639
0.0097391102 0.038097613 0.1727505
-0.035017505 -0.0072435737 0.16765636
-0.036381088 -0.011321411 0.16834331
0.010533091 0.03770297 0.16848311
0.0070878509 0.03744268 0.16732273
-0.034082778 -0.0023096129 0.16407433
-0.034801856 -0.0061876811 0.16434103
-0.035998959 -0.010099801 0.16339618
0.005792249 0.036779873 0.16379541
0.0019714069 0.035869353 0.16261101
-0.034269441 -0.0013776161 0.16039801
-0.034994766 -0.0050315568 0.15999004
0.00079335645 0.035219826 0.15874806
-0.0027237609 0.035210252 0.15792859
-0.034695469 0.00061170943 0.15609369
-0.034643173 -0.0037038438 0.15610242
-0.0035053585 0.035488311 0.1532867
-0.03423756 0.0072069569 0.1508649
-0.035063654 0.0029878691 0.15135038
-0.0063206246 0.036259234 0.14918262
-0.0091408426 0.036269687 0.14903724
-0.033167161 0.011310834 0.14700067
-0.033905532 0.007793298 0.14670417
-0.034621093 0.0036492599 0.14655626
-0.0071067223 0.036750611 0.14551142
-0.010978732 0.036610536 0.14492065
-0.033104829 0.01261388 0.14242125
-0.013072125 0.035022486 0.14008608
-0.033523086 0.01553652 0.1386593
-0.033022426 0.011569612 0.13849205
-0.033295795 0.021200165 0.13510481
-0.020294257 0.035721093 0.13243467
-0.031501148 0.027223403 0.12949806
-0.033362217 0.019239327 0.13024321
-0.024641739 0.03546666 0.1261906
-0.03126454 0.028709667 0.12569606
-0.024170268 0.03522189 0.1226033
-0.031240549 0.028976001 0.12066776
-0.031519938 0.030604513 0.11717039
-0.010477131 -0.016253354 0.19622999
0.027163029 0.026939731 0.19511545
0.025060708 0.024450755 0.19402897
0.021623272 0.020632651 0.19316292
0.018061984 0.017421098 0.19308335
0.014945063 0.013809539 0.19264954
0.010246175 0.010579472 0.19300255
0.0065500201 0.0058466718 0.19274566
0.003378361 0.0027781052 0.19343844
-0.0040304889 -0.0027479595 0.19385976
-0.0072399257 -0.0074310177 0.19389907
-0.0094834259 -0.011382055 0.19343704
-0.013365109 -0.014266375 0.19454592
0.028119942 0.032696918 0.19198176
0.025053056 0.030600842 0.19268185
0.022098912 0.026799209 0.19301891
0.018819464 0.02338936 0.19234535
0.015660688 0.019737296 0.19322523
0.01168466 0.016934974 0.1934948
0.0044953851 0.0084875328 0.19243923
0.030197391 0.039184272 0.1890637
0.028009279 0.035581123 0.18809322
0.023842376 0.032371964 0.18865928
0.029320259 0.039397564 0.18394423
0.026678901 0.036842607 0.18399513
0.022659328 0.034255356 0.18394792
0.028095949 0.039903469 0.17908385
0.025603401 0.037858184 0.17913094
0.021633273 0.035003431 0.17939618
0.017617639 0.034457322 0.17891392
0.025225813 0.038512941 0.17585483
0.020794831 0.035454512 0.17496857
0.016329056 0.035148378 0.17492226
0.019232403 0.035780348 0.17139509
0.01579769 0.035855286 0.17005038
-0.034343921 -0.016022511 0.16308284
0.01358795 0.036225945 0.16457593
-0.035176408 -0.013847993 0.16073236
0.0081783803 0.036622271 0.16105291
-0.034576047 -0.0076932665 0.15659726
-0.035110444 -0.011063639 0.15767226
0.0074878288 0.036171958 0.15582284
0.0037928615 0.035459384 0.15670449
-0.034154121 -0.0017795209 0.15307385
-0.034643568 -0.005925375 0.15309471
0.006856679 0.035968009 0.1521925
0.002488371 0.035476707 0.1522097
-0.033775039 -0.0014307853 0.14881095
-0.034320433 -0.0043364894 0.14852592
0.0010936502 0.035239421 0.14770472
-0.0024095736 0.035568103 0.14734823
-0.034248102 0.005698178 0.14363477
-0.033845648 0.00057003647 0.14462441
-0.0032262206 0.035819966 0.14287877
-0.0075306837 0.035269268 0.14110953
-0.032671016 0.0077881049 0.14072719
-0.033709709 0.0029547662 0.14005271
-0.0047538634 0.034951162 0.13870591
-0.008691892 0.034814611 0.137566
-0.032947328 0.0086543094 0.13555276
-0.033758018 0.0047164932 0.13651311
-0.011256152 0.033736534 0.13279238
-0.033478111 0.014689078 0.13171241
-0.033830915 0.01161966 0.13120407
-0.012457429 0.034271285 0.1293897
-0.033167604 0.016228167 0.12728757
-0.034048807 0.012320736 0.12626511
-0.032265261 0.021841176 0.12436503
-0.018963728 0.034652539 0.12008232
-0.032280412 0.027925435 0.1180039
-0.033302132 0.01981689 0.11792284
-0.028503351 0.03336443 0.11429089
-0.032594759 0.024743836 0.11522138
-0.027787739 0.032459326 0.10970223
0.00015594438 -0.017160591 0.19919375
-0.0014397381 -0.017732274 0.19769084
-0.0015679672 -0.014556276 0.19498974
-0.0050164065 -0.016211029 0.19602108
-0.0082929339 -0.017518286 0.1985186
0.028296696 0.02519485 0.194502
0.026926069 0.021642452 0.19453421
0.0246167 0.01801102 0.19399482
0.021248108 0.014394607 0.19232985
0.017740561 0.011143227 0.19174823
0.01409993 0.0074639916 0.1926918
0.01005825 0.003989019 0.19332555
0.0071346024 -0.0010402005 0.19375342
0.00038649631 -0.007828935 0.19309694
-0.0030011989 -0.010772908 0.19325337
-0.007013808 -0.014011447 0.1940704
0.034526747 0.036734309 0.18434465
0.03291164 0.038527276 0.1811583
0.030410249 0.039854258 0.17998862
0.029079992 0.040215857 0.17382836
0.026110761 0.038006701 0.17242849
0.022599109 0.036154289 0.17268109
0.02845536 0.041574318 0.16940507
0.026533237 0.037541315 0.1684435
0.021582399 0.036008753 0.16863942
0.020831093 0.035518255 0.16351265
0.01722452 0.035604756 0.16366589
-0.034951091 -0.015184972 0.15808612
0.014515634 0.035634067 0.15857935
0.012125257 0.034949288 0.15699181
-0.034861676 -0.013581054 0.15441748
0.014052532 0.03553208 0.15453872
0.012095638 0.035281878 0.15335733
-0.034530528 -0.0082745561 0.1499593
-0.034700528 -0.012128608 0.14972401
0.0092743011 0.035648532 0.14943251
0.0053283349 0.035495613 0.14881074
-0.033974722 -0.0077802036 0.14576194
-0.035034861 -0.012260049 0.14465696
0.0077454802 0.035702575 0.14495867
0.0041853646 0.035308361 0.14511943
-0.033286821 -0.0022583064 0.14195895
-0.03364218 -0.005888816 0.14148495
0.0028183628 0.035023607 0.14047951
-0.0010041595 0.035634518 0.14023
-0.033838332 0.00084304437 0.13805205
-0.033679053 -0.0028095162 0.13704157
-0.001751557 0.03508234 0.13615102
-0.034083005 0.0028488487 0.13375455
-0.033924643 -0.0012463331 0.13410789
-0.002628807 0.034131669 0.13181236
-0.0070735337 0.034027819 0.13156989
-0.033258028 0.0075958418 0.12975848
-0.033456642 0.0038300864 0.12909594
-0.0080165826 0.034275331 0.12680435
-0.012235725 0.034263626 0.12636906
-0.03407152 0.0094873318 0.12436301
-0.03378316 0.0054724161 0.12449932
-0.0093427114 0.033965029 0.12190133
-0.01295283 0.034172151 0.12179071
-0.03398465 0.011432708 0.12025553
-0.033307232 0.01644434 0.11606818
-0.03332255 0.012970285 0.11612755
-0.020939499 0.034889225 0.11237389
-0.033173498 0.019065328 0.11195725
-0.026173469 0.033628691 0.10837281
-0.031382997 0.023637943 0.10760373
-0.023992896 0.033937354 0.10448831
-0.030176498 0.028857579 0.10373652
-0.02763501 0.033060495 0.099461377
0.0064611342 -0.015456912 0.19666329
0.0020036129 -0.016228776 0.1978054
0.027614709 0.0146854 0.19558892
0.026038412 0.009772677 0.19561619
0.02391351 0.0061258525 0.19316462
0.021331802 0.0030331565 0.19276217
0.01508826 -0.0010347655 0.19331634
0.0078537324 -0.0086252633 0.1936011
0.0043291887 -0.012236545 0.19402221
0.00097967871 -0.01408824 0.19506699
0.028853344 0.018019155 0.19475627
0.026124425 0.015093158 0.19448435
0.023814686 0.011856525 0.19298366
0.02114765 0.0077780774 0.19216889
0.017765433 0.0048624254 0.19261682
0.013517728 0.0016714279 0.19327077
0.036620565 0.038532596 0.17966408
0.035267033 0.037670404 0.17886597
0.035894148 0.039404046 0.17754954
0.034782767 0.038251366 0.17745632
0.031920917 0.037340909 0.16875452
0.029870894 0.03950515 0.16591316
0.027714357 0.037703831 0.16546908
0.024411118 0.035835858 0.16547579
0.029008716 0.040491872 0.1639078
0.028056955 0.037180055 0.16173878
0.024112539 0.035364561 0.16156995
0.022121614 0.035454594 0.15673766
0.019090481 0.034902036 0.15776733
0.021348376 0.036202524 0.15233383
0.016825873 0.035555255 0.15262294
0.016628116 0.035850696 0.14813727
0.011526238 0.035637267 0.14676186
-0.034990259 -0.01227479 0.14366978
0.014876548 0.035589442 0.14460358
0.011180209 0.035509557 0.14207685
-0.0355605 -0.010636283 0.13945603
0.0092722541 0.035375312 0.13782221
0.0055858744 0.035509795 0.13860276
-0.033865847 -0.0060831467 0.13542405
-0.035499871 -0.0092928708 0.13493019
-0.036826614 -0.012257948 0.13259214
0.0033897422 0.035194933 0.13411438
-0.034087103 -0.0035919175 0.13077086
-0.035298109 -0.0076344339 0.12983638
-0.038396809 -0.011659098 0.13070861
0.0029562227 0.034871243 0.12927723
-0.0007449761 0.034727998 0.1293048
-0.033787243 0.0012718569 0.12664074
-0.033622235 -0.0021892786 0.12608773
-0.0020033736 0.034757946 0.12535727
-0.005748366 0.034739073 0.12451541
-0.034018841 0.0026501827 0.1222176
-0.0031693839 0.034770362 0.12036407
-0.0071200188 0.034740228 0.1209771
-0.034116793 0.0090391375 0.11828285
-0.034391373 0.0057974178 0.11861116
-0.0080062952 0.035034992 0.11619687
-0.012414782 0.03443186 0.11579543
-0.033935186 0.011039463 0.11424226
-0.034578338 0.0064570131 0.11355704
-0.0094185891 0.034780134 0.11156541
-0.01324765 0.034732066 0.11102051
-0.033575632 0.011221749 0.10937828
-0.019489804 0.033839867 0.10613149
-0.032679211 0.0175015 0.1050871
-0.020199811 0.033723962 0.10146058
-0.032928921 0.019415947 0.10016167
-0.02684232 0.033877462 0.096966326
-0.032425266 0.024663737 0.096522629
-0.022821203 0.033500388 0.092678905
-0.031050863 0.030374542 0.093116581
-0.028048106 0.032953385 0.088377476
0.029659227 0.0037351167 0.19552606
0.029380104 0.0017992044 0.194774
0.023547407 -0.0038332101 0.19446915
0.021974823 -0.0056881774 0.19423807
0.0097243665 -0.015276131 0.19552192
0.028602362 0.0048389528 0.19454595
0.025490534 0.0030963924 0.19361356
0.022224702 -0.00042004418 0.19298187
0.018999096 -0.0038060597 0.19339287
0.011136703 -0.011979157 0.1936565
0.029640874 0.036082089 0.15765792
0.02628367 0.034717251 0.15841818
0.02914259 0.036845595 0.15440658
0.026323255 0.03501435 0.15471166
0.028015824 0.037169777 0.15023699
0.024136877 0.036004242 0.15005618
0.022536872 0.035827704 0.14558005
0.018287826 0.035654515 0.14505205
0.017679568 0.035078961 0.14115423
0.016077109 0.035168026 0.13608354
0.01203065 0.035659432 0.13623035
-0.035465132 -0.01132628 0.13148415
0.012918258 0.034031466 0.13204873
0.0089967214 0.03334377 0.13153362
-0.035440121 -0.010614106 0.12745762
-0.03682974 -0.013272932 0.12719101
0.0071052033 0.033737961 0.12694097
-0.033459391 -0.0054642735 0.12339193
-0.034384552 -0.00902024 0.12307894
-0.036699913 -0.013532292 0.12346774
0.0046295105 0.034354415 0.12233615
0.00096280128 0.034386765 0.12179309
-0.032888722 -0.0034463638 0.11908013
-0.034664262 -0.0094139138 0.1203804
0.0038333749 0.034895513 0.11807323
0.00020503066 0.034602843 0.11739159
-0.033439875 0.0013598558 0.11574602
-0.032695398 -0.0017736005 0.11467856
-0.0019052401 0.034630008 0.11326486
-0.0053805672 0.03524065 0.11281443
-0.034377627 0.0031725205 0.11076993
-0.034161523 6.5514818e-05 0.10846215
-0.0062000146 0.034730218 0.10868353
-0.033374354 0.0088149784 0.10596156
-0.034121312 0.0048746383 0.10612661
-0.034915268 0.0009666197 0.10634345
-0.0078813164 0.034360863 0.10411578
-0.010862561 0.033880025 0.1043309
-0.032385014 0.010289514 0.10231262
-0.033928812 0.0064216563 0.10224593
-0.012329106 0.033488728 0.099753857
-0.032607369 0.015378165 0.099304795
-0.032762449 0.012098744 0.09752655
-0.016974987 0.033403642 0.095243156
-0.033316635 0.014040409 0.093897343
-0.023751426 0.032405455 0.088502884
-0.033136323 0.01877494 0.089484513
-0.025108978 0.032269064 0.08509475
-0.031653859 0.024142332 0.085204899
-0.025753718 0.032094263 0.081685007
-0.031624593 0.02606719 0.081228077
-0.029805806 0.029988939 0.077607691
0.031103613 0.0022778641 0.19620955
0.029685969 -0.0013009859 0.19422647
0.025952807 -0.0027534142 0.19404474
0.022055017 -0.008446658 0.19423699
0.016480703 -0.015457503 0.19455329
0.028264552 0.037212908 0.1472488
0.028444732 0.037152689 0.1436435
0.025638958 0.036110841 0.14348045
0.024084488 0.034654826 0.13855794
0.021098599 0.034681514 0.13844448
0.019915966 0.035042804 0.13427871
0.018237321 0.034368012 0.13011414
0.014216066 0.033492006 0.12901342
0.01313864 0.033742629 0.12520087
0.0093099987 0.033594672 0.12465525
-0.035072181 -0.011407061 0.12147826
-0.036942679 -0.014997904 0.12241298
0.010823807 0.03472646 0.12060106
0.0077565778 0.034444295 0.12150043
-0.032752432 -0.0065816836 0.1170519
-0.03447473 -0.0098613063 0.11751592
-0.036136769 -0.012505869 0.1174475
0.010113933 0.035664193 0.11747849
0.0067707002 0.034806106 0.11662316
-0.03294507 -0.0046298858 0.11325091
-0.034145843 -0.0093637463 0.11281991
-0.03614011 -0.012338012 0.11258882
0.0053683072 0.034476098 0.11165076
0.0011951067 0.03459058 0.11124462
-0.033469141 -0.0037798835 0.1090005
-0.033940874 -0.0073541319 0.10827237
-0.0012510344 0.034803905 0.10697752
-0.034514025 -0.0014096126 0.10369503
-0.0013087001 0.035027862 0.10273087
-0.0047878139 0.034557447 0.10178792
-0.034385327 0.004655133 0.099483967
-0.035107024 0.0014466885 0.099714637
-0.006922964 0.03423503 0.097456038
-0.010387831 0.033719096 0.097168267
-0.033456936 0.0093468148 0.096317589
-0.034424637 0.0063485643 0.095394731
-0.0075994488 0.034277909 0.09338963
-0.011190827 0.033956032 0.092724979
-0.033705566 0.011532924 0.091367781
-0.034070268 0.0078777326 0.090760052
-0.013268711 0.034524884 0.088343799
-0.033034407 0.016484601 0.086086392
-0.034194484 0.013227465 0.087075472
-0.014334449 0.034737967 0.083947957
-0.021574102 0.032815561 0.083561838
-0.033866804 0.014379284 0.082589924
-0.022817593 0.032794751 0.079462051
-0.03238019 0.019979851 0.078035235
-0.029729618 0.030069426 0.07486248
-0.026507556 0.031639416 0.071206331
-0.030834537 0.026826059 0.06962049
0.030490978 0.0368951 0.14026839
0.030363083 0.03627906 0.13609082
0.027177302 0.034962747 0.1364505
0.029349033 0.036586564 0.13080204
0.026119411 0.035053864 0.1314719
0.025386013 0.035257895 0.12677771
0.021115351 0.034181714 0.12672597
0.023145314 0.036546573 0.12075567
0.020277286 0.034624491 0.12206554
0.016518407 0.033653118 0.12230921
0.019104332 0.034967475 0.11782581
0.014639992 0.034616247 0.11874449
0.013309229 0.034707941 0.11385065
0.0093085421 0.034512524 0.11326355
-0.034222171 -0.010714087 0.10956854
-0.035376858 -0.01305226 0.10885262
0.012482546 0.03403686 0.10948277
0.0093271891 0.03396168 0.10855812
-0.033979826 -0.010312679 0.10539025
-0.03521248 -0.013708902 0.10491568
0.0072397105 0.033254176 0.1040656
0.0047407066 0.032787323 0.10452634
-0.034461357 -0.0041525438 0.1022923
-0.034172382 -0.0092274295 0.10034746
-0.036003426 -0.012052379 0.099682808
0.0030589504 0.033647865 0.099797368
-0.033882823 -0.0036083171 0.096884191
-0.033830613 -0.0070277406 0.096362948
-0.00044763647 0.033950426 0.095654845
-0.0026237033 0.033792939 0.095648766
-0.034290612 0.0032282593 0.093273461
-0.033696964 -0.0004201699 0.093437374
-0.0039707068 0.033822201 0.090998232
-0.03378468 0.0044760639 0.088672221
-0.033593476 0.00024505146 0.089206636
-0.0058823945 0.033982113 0.086666644
-0.0098246317 0.0346644 0.086647809
-0.033971976 0.010503909 0.083101988
-0.033782028 0.0059176926 0.08482945
-0.006865209 0.034302901 0.082872808
-0.0112369 0.03457731 0.081629217
-0.033641081 0.012091538 0.079780817
-0.0336634 0.0079510519 0.079417706
-0.012137219 0.034148872 0.077348769
-0.032194901 0.016904155 0.075715423
-0.032987934 0.012646737 0.076082945
-0.021005582 0.032375172 0.072283506
-0.031275548 0.018207971 0.071485221
-0.018543858 0.033019774 0.068774998
-0.027122434 0.030179491 0.067060173
-0.031038983 0.020106301 0.066721857
-0.027089836 0.030115407 0.062613368
-0.031237816 0.022919955 0.062320232
-0.027253632 0.030826831 0.058381379
-0.028547904 0.031150747 0.055480301
0.025957678 0.035780668 0.12500674
0.024954205 0.036483638 0.12137127
0.024326285 0.036948506 0.11642861
0.020248692 0.035721891 0.1161952
0.024299823 0.036139712 0.11300451
0.020294085 0.034883127 0.11222076
0.015887056 0.034075525 0.11087859
-0.034662712 -0.016204495 0.10679954
0.015078538 0.033592716 0.10678715
-0.03586676 -0.015956501 0.10249835
0.010443375 0.033432368 0.10169047
-0.036999568 -0.014069152 0.099055886
-0.038306251 -0.016787918 0.098192871
0.0081632286 0.033924982 0.097713172
0.0042126095 0.033858024 0.097322643
-0.034685791 -0.0091399914 0.094307601
-0.037667125 -0.012475446 0.094210565
-0.04041563 -0.014272189 0.092545152
0.0072553903 0.03356345 0.092595577
0.0036996361 0.033516757 0.093331873
-0.033310253 -0.0039721662 0.090328276
-0.033416551 -0.0080470117 0.089844823
-0.038000487 -0.013191922 0.089918554
-0.042020813 -0.012420486 0.090334356
0.002088706 0.032611027 0.088032305
-0.033369258 -0.0018753633 0.085852921
-0.03351336 -0.0044912081 0.08443433
-0.0029833242 0.034393594 0.084496021
-0.033548538 0.0037240302 0.081676185
-0.033526514 -0.00010861084 0.08132869
-0.0050806785 0.034174725 0.07941407
-0.033431038 0.0047618458 0.077953041
-0.033240564 0.0028214594 0.076212585
-0.0062792674 0.034259759 0.075361431
-0.0094455639 0.034485273 0.075616181
-0.033215843 0.010942336 0.073420346
-0.033273216 0.0072122058 0.073140025
-0.011055478 0.033727061 0.071178198
-0.03140435 0.013236918 0.068665266
-0.032974321 0.010043031 0.070014894
-0.01160456 0.033215493 0.066199243
-0.031181376 0.017938837 0.065496922
-0.018060803 0.033549272 0.062101483
-0.031239236 0.020013101 0.061077774
-0.026308604 0.032289252 0.057022572
-0.023305159 0.032615867 0.052770078
-0.031026104 0.027662031 0.052017868
-0.02817609 0.030005021 0.048281431
0.025796777 0.036107577 0.11026675
0.022731699 0.034874287 0.10971731
0.025269972 0.035897631 0.10535723
0.022176906 0.034288976 0.1049552
0.018757615 0.032972142 0.10487396
0.020342156 0.03410672 0.10067683
0.016388962 0.033555117 0.1010291
0.015131201 0.034196153 0.096452713
0.011527019 0.033785187 0.095680177
0.013350239 0.034533069 0.09315747
0.011018279 0.033447143 0.091668546
-0.033359911 -0.0084179947 0.087231338
-0.035189539 -0.012061287 0.087927341
-0.037808616 -0.01454136 0.087025464
0.0086727412 0.033196639 0.087079644
0.0055122487 0.032655656 0.086493492
-0.033427678 -0.0078012124 0.083527982
-0.035069019 -0.012214299 0.083127677
-0.037482172 -0.014797555 0.083648562
0.0039708782 0.032542478 0.082426369
-0.032879002 -0.002537651 0.079085529
-0.033709791 -0.0068104034 0.078851223
0.0021955986 0.032733683 0.077269495
-0.00057299621 0.033085305 0.07787782
-0.032927379 -0.00070257299 0.075029433
-0.033466365 -0.0050001275 0.0752213
-0.0025667921 0.033848755 0.073172808
-0.03258653 0.0047691492 0.070827305
-0.032883912 0.0012189578 0.070551872
-0.0041144658 0.033755489 0.068752766
-0.0084688328 0.033081889 0.067900121
-0.031520881 0.011101047 0.065731764
-0.032405145 0.0068321396 0.066626191
-0.03328722 0.002329736 0.066027641
-0.0052292831 0.033939466 0.065295637
-0.0085204979 0.033090241 0.064052522
-0.013609179 0.033099052 0.06305331
-0.030855689 0.012573185 0.062099934
-0.032493763 0.007479744 0.06200999
-0.033506863 0.0036946461 0.06237638
-0.010012982 0.03281226 0.060238063
-0.03075595 0.017874602 0.057954013
-0.031820338 0.009339097 0.058589518
-0.019897314 0.033001784 0.053909421
-0.031423159 0.014678496 0.053532481
-0.021083312 0.032588169 0.049695313
-0.031414516 0.016556943 0.050175726
-0.026285795 0.030593399 0.045476258
-0.031724311 0.021956613 0.044909
-0.026191995 0.030309059 0.040591061
-0.031876195 0.024127187 0.04088825
0.025760569 0.035731327 0.10198879
0.026781991 0.03511012 0.098098934
0.022700137 0.034984589 0.098704576
0.021745378 0.034087069 0.094204009
0.018303268 0.034345366 0.093659103
0.017343659 0.033307698 0.089458823
0.013043261 0.032914232 0.088309705
0.012468373 0.032632265 0.084329724
-0.035713743 -0.014171897 0.080031157
-0.036791325 -0.015444533 0.079852343
0.010106082 0.032725617 0.079805493
0.006980761 0.032508008 0.079835236
-0.034818798 -0.012571835 0.076367676
-0.035716198 -0.016535161 0.0766204
0.0091978321 0.033062469 0.074873269
0.0059483675 0.032702003 0.075308263
-0.033538695 -0.0072483299 0.071887016
-0.034955233 -0.011076763 0.073163331
0.0034041163 0.033666901 0.071266294
-0.032247014 -0.0027904958 0.068279624
-0.032981545 -0.0053985361 0.067553222
0.0029266095 0.033615917 0.066327691
-0.00071920268 0.033501759 0.066277444
-0.032402754 -0.0015875902 0.06282413
-0.032726601 -0.0045294287 0.063343763
-0.0026520621 0.032782137 0.062182248
-0.0065215658 0.033161797 0.061349809
-0.032729935 0.005446176 0.058830559
-0.033252846 0.0021071816 0.058783233
-0.0084427223 0.032298781 0.056279957
-0.03182954 0.0070766369 0.055133224
-0.032686438 0.0031114947 0.05530566
-0.0091194836 0.03227007 0.052246511
-0.012616752 0.032850761 0.051892281
-0.032257736 0.012562994 0.051347613
-0.032320894 0.0090376446 0.050279915
-0.031843744 0.014459371 0.046748459
-0.032566614 0.010753939 0.04512769
-0.019343099 0.032323204 0.043343842
-0.031992093 0.015846938 0.041904271
-0.023688197 0.030702984 0.038775206
-0.031389508 0.017143682 0.037818074
-0.025849745 0.030105758 0.03461206
-0.031936951 0.02395761 0.033901036
-0.029427633 0.027597981 0.029425442
0.030313505 0.034189153 0.096899569
0.028380493 0.034675457 0.092468143
0.024992779 0.034264237 0.092021048
0.024031535 0.033070426 0.087850749
0.018919187 0.032089569 0.085931659
0.019349057 0.032255344 0.082449853
0.014582681 0.032028101 0.080849707
0.017735548 0.033249039 0.077573478
0.014047456 0.032740168 0.078421891
-0.035267059 -0.016953576 0.074081361
0.016886411 0.034417305 0.074293554
0.012595098 0.033310439 0.074301958
-0.034150694 -0.0130744 0.069514394
-0.035669412 -0.016990934 0.069589555
0.010043444 0.033562478 0.069936574
0.0067224773 0.033658944 0.068181515
-0.03320979 -0.0090388199 0.066166937
-0.034584288 -0.01277076 0.06548506
-0.036294185 -0.015531546 0.065026343
0.0090612536 0.033886418 0.066040277
0.0055314656 0.033913739 0.064777315
-0.032843266 -0.0074990988 0.061352372
-0.034141578 -0.011158139 0.061577737
0.0040625222 0.032095484 0.061332107
5.5415556e-05 0.032080527 0.05926162
-0.031830363 -0.0028149532 0.057596266
-0.032340419 -0.005318217 0.056904495
-0.00086215138 0.031513285 0.055199683
-0.0039358931 0.031002238 0.055501878
-0.031542175 0.0044999579 0.051311255
-0.03263773 -0.00010280684 0.052639842
-0.033345245 -0.0034472793 0.052765667
-0.0047963839 0.03139393 0.050929487
-0.032206763 0.0053136293 0.0490008
-0.033232931 0.0027369615 0.049049914
-0.0087087303 0.032392368 0.047337234
-0.032617401 0.0069294926 0.044496238
-0.033323903 0.0036687246 0.043837845
-0.0097443834 0.03300938 0.041915774
-0.013285561 0.032637391 0.041544378
-0.032399543 0.01323976 0.040206373
-0.032969959 0.0089739114 0.04000169
-0.018488269 0.031502359 0.036314666
-0.03219761 0.014841815 0.036119223
-0.032894593 0.010943021 0.035314202
-0.018773589 0.031627886 0.032632172
-0.031295702 0.019764025 0.031937897
-0.020645974 0.031569079 0.028375566
-0.030277368 0.026270976 0.025844753
-0.033093646 0.017849838 0.027101099
-0.028880408 0.027660601 0.023497105
-0.032580148 0.019154942 0.02260381
-0.029320652 0.028013645 0.01993233
0.030927859 0.034275323 0.089448929
0.028810671 0.034826539 0.086151659
0.026415166 0.033150479 0.084851146
0.024968106 0.032982409 0.080290914
0.023508511 0.034782872 0.075460196
0.020906879 0.033227239 0.077284396
0.021781677 0.035790276 0.071520507
0.018311251 0.034394398 0.070725858
0.01809906 0.034165435 0.066266298
0.013703492 0.033407308 0.066992879
-0.035384152 -0.019028639 0.064605892
0.012446773 0.03279965 0.061933994
0.0082176123 0.032709479 0.061591387
-0.034517143 -0.013128794 0.058511913
-0.036843508 -0.015977193 0.05876112
0.0064945277 0.031185498 0.057384789
-0.032749504 -0.008125118 0.054499805
-0.034905661 -0.011716881 0.053932428
-0.036902513 -0.014491514 0.05334419
0.0058794161 0.030988988 0.05229944
0.0024016527 0.031413686 0.052844107
-0.033486295 -0.0063646268 0.049725115
-0.035692673 -0.010373118 0.049071789
0.00057164673 0.031114789 0.048122585
-0.003325507 0.030943166 0.047724605
-0.032866314 -0.0012462288 0.046424508
-0.034148172 -0.0044625392 0.045434296
-0.03612002 -0.0088505009 0.045708001
-0.00072694663 0.030987205 0.044189453
-0.0039346032 0.030651351 0.043621242
-0.032514289 -0.00015283749 0.040508151
-0.033368729 -0.0029808516 0.041381121
-0.0042053852 0.030806083 0.039590836
-0.032577164 0.006279368 0.03596735
-0.032696199 0.0032860022 0.036849856
-0.0090331575 0.032702252 0.035978854
-0.011474011 0.032885458 0.03426069
-0.032740682 0.0078264195 0.032736659
-0.032262146 0.0036430107 0.031995595
-0.0078989165 0.031866465 0.031583965
-0.012261223 0.031984873 0.029837549
-0.032684952 0.0099961497 0.028692842
-0.017652765 0.031685684 0.026283383
-0.03290632 0.012054757 0.024728835
-0.022860432 0.030158952 0.020405233
-0.032769188 0.018046256 0.019397616
-0.02340533 0.029838024 0.016314685
-0.031471997 0.022687294 0.016431332
-0.024332318 0.029268526 0.013440013
-0.030558851 0.0230307 0.012515247
0.026627088 0.03245616 0.07707262
0.027143242 0.033294231 0.075197458
0.026405811 0.034818657 0.070158184
0.023932179 0.034871049 0.065146804
0.022683047 0.035262696 0.060742795
0.019006509 0.034371305 0.060826719
0.015530517 0.03279968 0.059883535
0.01840285 0.034411818 0.056665599
0.014772746 0.031844489 0.055211604
0.011060269 0.030404571 0.05553937
0.013209646 0.030988868 0.051546693
0.0098765884 0.030722838 0.051046789
-0.036564697 -0.014690647 0.047740936
0.0072590299 0.031266294 0.04638958
0.0037990194 0.031128634 0.046060383
-0.035446733 -0.010765872 0.043466747
-0.035730854 -0.01294795 0.043010056
0.0057610767 0.031937554 0.041190922
0.0023584319 0.031268135 0.041944563
-0.033201274 -0.0055688703 0.039166093
-0.034329996 -0.0095979692 0.037586629
0.001290163 0.031573512 0.03726536
-0.0022849785 0.030639969 0.037340224
-0.03192427 -0.0011779703 0.034722745
-0.032916047 -0.0044283159 0.033800721
-0.034614891 -0.0083291624 0.033629179
-0.00040347315 0.032112144 0.03234905
-0.0038407445 0.031284351 0.033230901
-0.032314874 0.0012787804 0.030547559
-0.032457836 -0.0022189859 0.028439462
-0.0056764288 0.031874556 0.028160691
-0.032430027 0.0065405546 0.026358664
-0.032555137 0.0032243365 0.025849521
-0.0073632067 0.031868089 0.023696721
-0.010239044 0.031530418 0.024055779
-0.032447871 0.0085211415 0.021897376
-0.033013932 0.0048600687 0.022375047
-0.015375987 0.030645844 0.018862188
-0.032484073 0.010189695 0.017078936
-0.016855519 0.030734001 0.01401788
-0.032505147 0.012234237 0.011539698
-0.022693021 0.029359262 0.0097046494
-0.03055279 0.022110792 0.0089510083
0.027205747 0.033336084 0.060427725
0.023396082 0.034903262 0.056969821
0.024352331 0.034248658 0.053944707
0.02034751 0.03395411 0.052483141
0.019882074 0.032698169 0.04827261
0.01565454 0.031221054 0.04858923
0.015213192 0.030828005 0.043941021
0.011168216 0.031094905 0.045227051
-0.034726832 -0.01394995 0.039710045
0.0099222502 0.03154552 0.039734364
-0.03424513 -0.014360411 0.0359689
0.0069753081 0.032374598 0.035399616
0.0037125815 0.032117277 0.033820987
-0.034599129 -0.0087573761 0.030981064
-0.035407171 -0.013929976 0.031042516
0.0064046923 0.032055348 0.031188309
0.0034873094 0.03181437 0.030147851
-0.033387031 -0.0041039884 0.027785242
-0.03467587 -0.0088629443 0.02743727
-0.035860673 -0.012259277 0.026258349
0.00085636321 0.03149299 0.026363671
-0.0026897145 0.031812366 0.026413918
-0.032190997 0.0015005227 0.021943986
-0.032419369 -0.0033033965 0.023031175
-0.034808833 -0.008275535 0.023803651
-0.0030525886 0.031289082 0.021933496
-0.0080595119 0.03041862 0.019904971
-0.032207772 0.0024740305 0.018937826
-0.031898901 -0.0024645533 0.01926291
-0.0048378222 0.030574292 0.017404318
-0.008430535 0.029817475 0.01645273
-0.03204285 0.0041343207 0.014800727
-0.0096426457 0.03013243 0.011877596
-0.032217205 0.0094855009 0.010679126
-0.032271761 0.0058584092 0.0094558001
-0.011664849 0.029966036 0.0085571408
0.023541756 0.03217309 0.045633793
0.021005085 0.031240022 0.043204963
0.018112767 0.030917987 0.042419195
0.015809879 0.030527385 0.037385345
0.015130116 0.030572802 0.033012211
0.011594263 0.031589903 0.033426285
0.0095672207 0.031589787 0.028032482
-0.036409821 -0.014195817 0.026448071
0.0087617235 0.031480387 0.024049342
0.0048626354 0.030545741 0.023486555
-0.032940738 -0.0051470809 0.020347416
-0.033023752 -0.0094446121 0.019323528
-0.035944007 -0.012031566 0.022089958
0.0026795361 0.030190971 0.01939857
-0.00041542854 0.030177534 0.017514169
-0.031626467 -0.0038936678 0.016007662
-0.03274386 -0.010301587 0.016978085
0.0024971142 0.029836845 0.015613139
-0.0022113156 0.030296125 0.013794243
-0.031884879 0.0015808167 0.01196754
-0.031447221 -0.0026800577 0.012280524
-0.0039692139 0.030620869 0.0099554658
-0.0072918702 0.030343745 0.0095249414
-0.031150801 -0.0015852908 0.0083973408
0.021701282 0.030798845 0.040399253
0.020608552 0.029647108 0.038128436
0.023571141 0.030449079 0.034384549
0.021215957 0.029363781 0.034360766
0.018201906 0.02938346 0.030582488
0.015798196 0.03047052 0.026021898
0.01269166 0.03109533 0.025967121
0.012108092 0.030623872 0.020733654
-0.032907538 -0.015194312 0.016184151
0.010387378 0.030011032 0.017067492
0.0071533797 0.02940236 0.016511023
-0.032048684 -0.010948113 0.013602138
0.004235249 0.029570561 0.012228668
-0.031311847 -0.0058867559 0.0095949769
-0.030799292 -0.0096269045 0.0096728206
-0.00029939041 0.030666571 0.0089354515
0.026314519 0.029222308 0.034759104
0.023826227 0.030933613 0.028416097
0.020577608 0.029812485 0.028979063
0.022849878 0.031067835 0.023545444
0.020695552 0.029512249 0.02378571
0.017874293 0.030157398 0.019710481
0.016639821 0.030548783 0.014569104
0.012094999 0.030708224 0.015057504
-0.0308447 -0.017284369 0.010371387
0.011784904 0.030344095 0.010567486
0.0072072037 0.029588187 0.010514557
-0.031012841 -0.012386207 0.0075912476
0.023741493 0.030547194 0.019408286
0.021211334 0.030055508 0.018312395
0.020128379 0.02978253 0.012091517
0.01734327 0.030342367 0.0084703565
0.015040405 0.030230125 0.0074962974
0.026979182 0.02789663 0.013704836
0.02737605 0.027724095 0.011137187
0.024270318 0.02837803 0.00995785
