# .PCD v0.7 - Point Cloud Data file format
VERSION 0.7
FIELDS x y z
SIZE 4 4 4
TYPE F F F
COUNT 1 1 1
WIDTH 839
HEIGHT 1
VIEWPOINT 0 0 0 1 0 0 0
POINTS 839
DATA ascii
-0.0019858833 -0.033068113 0.19244871
-0.022040226 -0.029394135 0.19100744
-0.013506083 -0.030355822 0.18966845
-0.0030073216 -0.034554165 0.19025719
-0.02309975 -0.03096989 0.18641448
-0.015050336 -0.03275989 0.18452394
0.00047708582 -0.027630165 0.19417423
0.0047144229 -0.029499393 0.19402105
-0.027459133 -0.019476064 0.19326061
-0.023482114 -0.021221461 0.19319957
-0.015306216 -0.024611447 0.19307733
-0.0055681695 -0.028505726 0.19313234
0.0031889006 -0.032806434 0.19265687
0.008011044 -0.033269007 0.19156224
0.011605538 -0.033694226 0.19079018
-0.028992403 -0.021814162 0.18980303
-0.026160384 -0.023826314 0.19094518
-0.016532961 -0.027881801 0.19184968
-0.0079482645 -0.032251239 0.18855396
0.0021681702 -0.034755036 0.18860391
0.0071472358 -0.034850676 0.18724859
0.010455444 -0.035036925 0.18732637
-0.02995608 -0.023590073 0.18518472
-0.027797345 -0.027039263 0.18506616
-0.0076816101 -0.033719875 0.18356341
0.0016561355 -0.035413455 0.18276265
0.0051389607 -0.035254098 0.18350011
-0.029491534 -0.025456093 0.18054569
-0.023009364 -0.030501079 0.18043923
-0.013724122 -0.033720508 0.17983866
-0.0037911218 -0.035871752 0.17820522
0.00017993152 -0.036451589 0.17830569
-0.023363499 -0.03017981 0.17509592
-0.014600469 -0.035303757 0.17553017
-0.004733759 -0.036924124 0.17469427
-0.019756172 -0.033170972 0.17165965
-0.011100403 -0.036523145 0.17154899
-0.023707159 -0.012901794 0.1928212
-0.020718701 -0.014778553 0.19374776
-0.017185207 -0.016584881 0.19348276
-0.0079537295 -0.01966998 0.19306219
0.0025125165 -0.023941629 0.1938554
0.0062791323 -0.026023228 0.19440112
0.010537863 -0.027808089 0.19329056
0.014729028 -0.029758576 0.19228551
0.02015754 -0.030067155 0.19081619
-0.030481352 -0.01262736 0.19000772
-0.028381482 -0.014672953 0.19207081
-0.023267196 -0.018139798 0.19376281
0.014774612 -0.033671945 0.1898905
0.019933626 -0.033013094 0.18808028
0.025119469 -0.032936446 0.18840978
0.028270839 -0.036350608 0.18686426
-0.03143575 -0.014536983 0.18677646
-0.030989598 -0.017879762 0.18852377
0.012956355 -0.03503155 0.18570685
0.017424397 -0.033851206 0.18378115
0.028364561 -0.036747232 0.18413925
-0.032111168 -0.015818559 0.18402997
-0.031319324 -0.019555878 0.18299502
0.0069821849 -0.035234239 0.18136537
0.011969749 -0.03496585 0.18047172
0.016608234 -0.034175523 0.18053469
-0.030293917 -0.021142155 0.17789912
0.0018277112 -0.035975225 0.17590401
0.0064289244 -0.035147391 0.17584831
0.01045313 -0.034291327 0.17685378
-0.029837754 -0.023161735 0.17288408
-0.027656814 -0.026870891 0.17380282
0.00097482558 -0.035988335 0.17137435
0.0056583323 -0.03564439 0.17103788
-0.030116137 -0.024018096 0.16915366
-0.027480952 -0.027159737 0.16899785
-0.019480711 -0.032142173 0.16847911
-0.0093983905 -0.034794033 0.16756272
0.00089730136 -0.03584487 0.16761732
-0.023743473 -0.029678099 0.16382587
-0.01513527 -0.032546513 0.1640949
-0.023577223 -0.030932503 0.1608085
0.023301402 -0.02424325 0.19328475
0.026966546 -0.025633726 0.19348437
-0.028301705 -0.0072999932 0.19102585
-0.025430629 -0.0088311639 0.1928955
-0.020821139 -0.010786477 0.19389945
-0.015056589 -0.013292165 0.19354892
-0.0059715165 -0.015087084 0.1936546
0.0037800181 -0.020053133 0.19335607
0.008387641 -0.021258518 0.19395167
0.012821762 -0.022775838 0.19355223
0.017041335 -0.024713125 0.19234884
0.022259265 -0.027022332 0.19204086
0.026270298 -0.030656062 0.1913923
0.029445391 -0.03118859 0.1908038
-0.030378962 -0.0090996716 0.18939611
0.024927268 -0.03324696 0.18658316
0.029257543 -0.033229344 0.18741608
-0.031481586 -0.010028293 0.1842609
0.020764545 -0.03271747 0.18220067
0.024356 -0.033449944 0.18141124
0.0274496 -0.035861537 0.18207157
-0.032090377 -0.015302789 0.18097848
0.017904013 -0.033568583 0.17745808
0.023606109 -0.034199513 0.17688006
0.026600488 -0.03650175 0.17716366
-0.032130383 -0.014647837 0.1760039
-0.031284887 -0.018145962 0.17592958
0.0082760593 -0.03506393 0.17332333
0.011943524 -0.034584604 0.17413676
0.016539568 -0.033484049 0.17316228
-0.03255143 -0.015212266 0.17274788
-0.031699218 -0.018924139 0.17147988
0.0062321797 -0.036132082 0.16930586
0.011477559 -0.035231203 0.16878957
0.015335326 -0.03439445 0.16996163
-0.031389549 -0.021639999 0.16661996
0.0010196883 -0.035307568 0.1644789
0.0056200009 -0.036509149 0.16476023
0.0096812267 -0.036371123 0.16472173
-0.030854631 -0.022095503 0.16233537
-0.029331326 -0.025537424 0.16274297
-0.0091637876 -0.033783801 0.16156709
0.00032228976 -0.035269082 0.16062355
0.0050105834 -0.035646532 0.1607008
-0.027925789 -0.027326956 0.15829587
-0.019858489 -0.032405112 0.15818119
-0.010596907 -0.034721266 0.15751964
-0.026825976 -0.027718 0.15421522
-0.020298783 -0.032405183 0.15416646
-0.011493385 -0.034773994 0.15313455
-0.022698347 -0.0021897499 0.19401944
-0.017375054 -0.0041517634 0.19398311
-0.012288744 -0.0057481993 0.19308084
-0.0080182273 -0.0077748448 0.19300148
0.00069351075 -0.011425235 0.19303721
0.0053789495 -0.013229429 0.19263232
0.011156138 -0.015722869 0.19275686
0.015166865 -0.017086942 0.19326222
0.019897457 -0.018500358 0.19272617
0.023901995 -0.020572122 0.19349349
0.026892342 -0.022132114 0.19390333
-0.027721591 -0.0030868361 0.19161397
-0.023681788 -0.0046020499 0.19376329
-0.018807217 -0.0072239959 0.19384074
-0.013672269 -0.0091294143 0.19345847
0.00022595981 -0.014427866 0.19250014
0.0037890896 -0.01605331 0.19239914
0.018280689 -0.021953218 0.19160315
-0.033319194 -0.0035936944 0.18640733
-0.030635526 -0.005092076 0.18826354
-0.033218149 -0.0044352831 0.18207884
-0.031530838 -0.0054742517 0.18172064
-0.032307509 -0.0094738007 0.17827868
0.021302488 -0.032978937 0.17483187
-0.035348881 -0.0093327863 0.17201591
-0.0332621 -0.010816833 0.17412946
0.018882703 -0.033349846 0.17157543
0.022814997 -0.033215184 0.17082533
0.026704751 -0.033762448 0.17038867
-0.035816543 -0.010341904 0.17087173
-0.033777513 -0.013046548 0.169752
0.01742956 -0.033872571 0.16695708
0.02211111 -0.033216912 0.16606611
-0.03256581 -0.014321477 0.16664484
-0.032698836 -0.018738082 0.16555333
0.011987291 -0.034917183 0.16224819
0.016790949 -0.034014046 0.16209209
0.020598318 -0.033770092 0.16246939
-0.031270448 -0.020029861 0.16028607
0.0023082457 -0.034412675 0.15764618
0.0063545667 -0.0348664 0.15742415
0.011110533 -0.034712531 0.157525
-0.030881964 -0.02114277 0.15519726
-0.029798776 -0.023826454 0.15603039
0.001140764 -0.034112826 0.15342715
0.0055222074 -0.03471382 0.15274233
-0.02830141 -0.025413772 0.15136373
-0.020084001 -0.03148964 0.15071592
-0.010731085 -0.03448737 0.15018362
0.00011814665 -0.034754012 0.14909321
-0.027684961 -0.026028853 0.14650512
-0.020069167 -0.030971276 0.14660725
-0.01132991 -0.034471456 0.14610198
-0.002609049 -0.03539158 0.14526385
-0.019813489 -0.030860927 0.14218575
-0.01172114 -0.034935396 0.1417641
0.025134554 -0.011141712 0.196778
0.027082035 -0.011984191 0.19730738
0.014929489 -0.010448607 0.19366837
0.018323783 -0.011583088 0.19380975
0.022536751 -0.013349899 0.1947521
0.026496002 -0.015612837 0.19510791
0.02868174 -0.018319797 0.1941205
-0.025418743 0.0031406549 0.19262898
-0.021092042 0.0017851181 0.19419631
-0.016095916 -0.00031653885 0.1940887
-0.010796929 -0.0022096466 0.19352445
-0.0063543129 -0.0038427436 0.19318581
0.0022461384 -0.0078472281 0.19316584
0.0070412671 -0.0094484705 0.19271412
0.011387175 -0.01118596 0.19257936
0.018036116 -0.01505358 0.19344521
0.021034509 -0.016047042 0.19315878
-0.029659912 0.0024795523 0.18881157
-0.0278168 0.0010162452 0.19124705
-0.031517293 0.00096221268 0.18677142
-0.033579886 -0.0016384358 0.17922208
-0.03116394 -0.0044343006 0.18103543
-0.033336628 -0.0048950426 0.17634478
-0.031886354 -0.0058405381 0.17832401
-0.034916621 -0.006033089 0.17185488
0.029203242 -0.033006594 0.16761917
-0.036274813 -0.0083847409 0.16762352
0.023731258 -0.03334007 0.16379648
0.027779095 -0.033378817 0.16388577
-0.035618171 -0.0086071193 0.16324234
-0.033008371 -0.01060632 0.16308737
0.018967699 -0.033334404 0.15893939
0.022667244 -0.033363722 0.15950978
0.027138524 -0.033792574 0.15981159
-0.031217854 -0.014999624 0.15819821
0.013149043 -0.034451824 0.1556865
0.01687981 -0.033918012 0.15613964
0.02175761 -0.033346549 0.15497908
-0.031888217 -0.01749393 0.15366578
0.0074683605 -0.035207879 0.1512433
0.011227791 -0.034927294 0.15157202
0.016228672 -0.034550555 0.15128252
-0.031367444 -0.020510843 0.14975771
-0.030171778 -0.022767249 0.14935929
0.0016825013 -0.0349227 0.14682579
0.005533197 -0.035357852 0.14718515
0.010614693 -0.034990951 0.14595905
0.014618888 -0.034507237 0.14771026
-0.031416334 -0.020986136 0.1448347
-0.029796187 -0.023977913 0.14460972
0.0049638487 -0.034941889 0.14202762
0.008945412 -0.035113379 0.14218757
-0.028200343 -0.025583766 0.14027119
-0.020575017 -0.03054278 0.13964537
-0.011824416 -0.034882486 0.13890374
-0.0016731676 -0.035817236 0.13896894
0.0015369663 -0.035750285 0.1372149
-0.027165484 -0.026184095 0.13625732
-0.020511396 -0.030672291 0.13511094
-0.01166114 -0.034058902 0.13449824
-0.023694396 -0.02964785 0.13160908
-0.017903656 -0.032217804 0.13143578
0.021136925 -0.0044373004 0.19433215
0.024343988 -0.0066269282 0.19600073
-0.021278355 0.010132224 0.19255406
-0.019904392 0.0092530474 0.19264859
-0.01372114 0.0053507751 0.1930452
-0.0081205806 0.0034442344 0.19327721
-0.0040022149 0.0016910617 0.19367203
0.0044927141 -0.0026634526 0.19328368
0.0091985799 -0.0037259834 0.192572
0.013607277 -0.0055201901 0.19232908
0.018967316 -0.0072585237 0.19364095
0.022338299 -0.0095120491 0.19483882
-0.027465658 0.0095606623 0.19047534
-0.024592534 0.0071513588 0.19273749
-0.029408352 0.0065366742 0.18792045
-0.032119419 0.0056988122 0.18402898
-0.034166478 -0.00032618083 0.17538834
-0.034497589 -0.00033928733 0.17033961
-0.036965732 -0.0038579442 0.16650522
-0.036036037 -0.0051557394 0.16227984
-0.032226473 -0.0083290543 0.16113952
0.028466815 -0.032475431 0.15609801
-0.031835705 -0.011011411 0.15694162
0.023422956 -0.033390686 0.15261805
0.026512135 -0.033673242 0.15313023
-0.032487798 -0.011897102 0.15197492
-0.031297039 -0.013589223 0.15453786
0.018362645 -0.033986486 0.14816526
0.022367908 -0.032912061 0.14821139
0.027153552 -0.033885572 0.14736488
0.029808678 -0.035661034 0.14668858
-0.031869464 -0.016146159 0.14770809
0.011712083 -0.03483751 0.14308071
0.017080622 -0.033203844 0.1440239
0.021456439 -0.032780062 0.14459133
0.027781606 -0.036084734 0.14373934
-0.031533327 -0.018044733 0.142088
0.0067359032 -0.034666616 0.13940045
0.010898382 -0.034449823 0.13926339
0.015558903 -0.033256941 0.14029223
-0.031276684 -0.018286068 0.13831797
-0.029940674 -0.021605954 0.13758594
0.0045022098 -0.034835059 0.13571751
0.0092101675 -0.034539629 0.1346238
-0.028597999 -0.023677323 0.13318536
-0.014412097 -0.032203164 0.13225442
-0.001825273 -0.03507759 0.13206905
0.0029598475 -0.034823928 0.13068578
-0.028247789 -0.025039341 0.12879133
-0.021016225 -0.031134341 0.12882572
-0.011599113 -0.033277247 0.12819588
-0.0022052228 -0.034557566 0.12750816
-0.027771868 -0.026158534 0.12483627
-0.021285182 -0.031220417 0.12412208
-0.011992625 -0.03363147 0.12273216
-0.021367637 -0.031732261 0.11981398
-0.0035352758 0.010952862 0.19474131
-0.0013628723 0.0099132825 0.19470248
0.021711871 0.00080340775 0.19328025
0.025514217 -0.00061680283 0.19485512
-0.025785439 0.01562296 0.19248316
-0.022180887 0.013656361 0.19247308
-0.017002081 0.011463746 0.19179913
-0.011981229 0.010319066 0.1930244
-0.0074510379 0.0087708551 0.19360706
-0.0019321269 0.0065711695 0.19401702
0.0071317321 0.0034685973 0.19302335
0.011436241 0.0013438079 0.1929813
0.015844367 -0.00052267872 0.19277591
0.018912915 -0.0028413809 0.19347686
-0.029558398 0.016087458 0.18791339
-0.028334392 0.013438217 0.18946463
-0.030492865 0.014250414 0.18449426
-0.029776439 0.011607423 0.18479842
-0.031692244 -0.0040952126 0.15658405
-0.032287359 -0.0051323753 0.15356523
-0.032566044 -0.0062226076 0.14904672
-0.032395359 -0.0088246418 0.14472204
-0.031191038 -0.011730114 0.14383331
0.022470886 -0.032874458 0.14187998
0.026308395 -0.034336071 0.14188492
-0.0316284 -0.012326559 0.14048651
0.017426271 -0.032843601 0.13754311
0.021659184 -0.032564882 0.13735798
0.026545079 -0.033747599 0.13739997
-0.03534938 -0.011966689 0.1336742
-0.032291993 -0.015077278 0.1362327
0.011850277 -0.034546886 0.13390228
0.016361592 -0.033128008 0.13314378
0.02042485 -0.032448247 0.13315859
-0.031586759 -0.016473128 0.13174844
-0.030334529 -0.020566501 0.13077682
0.0052847741 -0.03447644 0.128492
0.0091363285 -0.034339819 0.12955201
0.013306557 -0.033642687 0.12965575
-0.031174107 -0.017890882 0.1273852
-0.02973932 -0.021859743 0.12617725
0.0031368826 -0.034572229 0.12461674
0.0082738139 -0.034237325 0.1247623
-0.029683826 -0.022509241 0.12185043
-0.026822813 -0.026545901 0.12137657
-0.0019555055 -0.03432804 0.11998248
0.0031750761 -0.034623597 0.12016916
-0.028820781 -0.02353582 0.11759424
-0.021864954 -0.030688532 0.11664522
-0.012383534 -0.033977028 0.11723
-0.0035419464 -0.034529358 0.11523765
-0.021849874 -0.031201739 0.11256427
-0.012933646 -0.034205742 0.11191815
-0.020692751 -0.032157809 0.10888857
-0.01451903 -0.033944856 0.10807163
-0.013587056 0.019872408 0.19835106
-0.0088003837 0.018917758 0.19757348
-0.0027418882 0.016697858 0.19757524
0.0063704201 0.013452186 0.19729596
0.015338721 0.0099844905 0.19577745
0.019900899 0.0083881896 0.19539052
0.024357339 0.0065332404 0.19516507
0.027731718 0.0048385626 0.19576377
-0.027111717 0.021085186 0.19576335
-0.024052653 0.02012782 0.1954439
-0.019186106 0.019303761 0.19549924
-0.014339618 0.018399369 0.19560331
-0.0099199042 0.016466405 0.19542924
-0.0049250419 0.014389016 0.19534537
0.0048581795 0.010183706 0.1947524
0.0095686708 0.0089939693 0.19411403
0.013741787 0.0064792861 0.1943081
0.018403783 0.0051571224 0.19375178
0.023300245 0.0042893188 0.19382221
0.027110275 0.0029193442 0.19444543
-0.031808287 0.02329934 0.1902777
-0.028814537 0.021197166 0.19221133
-0.025051033 0.01890615 0.1940318
-0.019882528 0.017000832 0.19336373
-0.015571175 0.015759394 0.1926699
-0.012220781 0.013990134 0.19300798
-0.032606609 0.021680225 0.18761769
-0.0306211 0.01933375 0.18770853
-0.033141796 0.021028237 0.1834271
-0.031535596 0.017151792 0.18226966
-0.031627346 0.015242264 0.17895392
-0.033471212 -0.0012538414 0.1516006
-0.033652894 -0.00092058908 0.14665216
-0.033300489 -0.0044444669 0.14675117
-0.033617698 -0.0056412574 0.14227703
-0.033390183 -0.0077066412 0.13816309
0.023733225 -0.031741992 0.13428178
0.027653551 -0.032924172 0.13394237
-0.03430618 -0.010107718 0.13467944
0.021693394 -0.032427121 0.13057289
0.026523288 -0.03360825 0.12986827
0.029658543 -0.035149042 0.12811631
-0.034532312 -0.011394749 0.12916607
-0.032907259 -0.013854241 0.12924719
0.015442177 -0.032623433 0.1263985
0.020022964 -0.032405972 0.12572372
0.02616287 -0.033049092 0.12592739
-0.032023229 -0.015356023 0.12504923
0.010742865 -0.033613086 0.12232906
0.014477737 -0.03265911 0.12175995
0.018229883 -0.03272073 0.12233299
-0.032189615 -0.017261926 0.12045586
-0.031236652 -0.021257592 0.11981595
0.003070889 -0.034652829 0.11761194
0.0085933609 -0.034191173 0.11848921
0.01239886 -0.033548832 0.11784405
-0.032914937 -0.018888181 0.11624509
-0.030380979 -0.022894982 0.11603612
-0.027250819 -0.025651654 0.11455572
0.0030910168 -0.034856196 0.11454737
0.0070738494 -0.035245951 0.11377031
-0.033239868 -0.020859508 0.11232537
-0.030924285 -0.023121418 0.11184502
-0.011167303 -0.03439616 0.10925442
-0.0028912304 -0.03496341 0.10947675
0.0024960609 -0.03527917 0.10934919
0.006550448 -0.035433728 0.10945839
-0.030122401 -0.02398021 0.10778838
-0.022096461 -0.030501993 0.10600412
-0.012780746 -0.033725079 0.10570341
-0.0033029485 -0.034127522 0.10551578
-0.021859622 -0.030768221 0.10158855
-0.012654829 -0.033047244 0.10189253
-0.0026195324 0.019213092 0.19671082
0.017349876 0.013755275 0.1959109
0.021674115 0.012355985 0.19567266
0.025633838 0.010126594 0.19558391
-0.033581644 0.025186975 0.18553969
-0.033774238 0.024302889 0.18136084
-0.032422855 0.019062005 0.17959371
-0.033372622 0.021660618 0.1765455
-0.032477353 0.019455671 0.1765613
0.022185532 -0.031871684 0.122509
0.025851596 -0.031637397 0.12219328
0.029959556 -0.033075098 0.12345725
-0.033688746 -0.010757271 0.12458378
-0.032193456 -0.011037482 0.12232882
0.01645752 -0.032501299 0.11882782
0.020789057 -0.031297505 0.11840552
0.026174774 -0.031799968 0.11755973
0.015310518 -0.031974841 0.11462921
0.018961582 -0.031608339 0.11400568
0.025175257 -0.032659557 0.11419874
-0.033435877 -0.017098285 0.11286312
0.010269321 -0.033922546 0.11187357
0.01368174 -0.033032358 0.11047453
-0.033476572 -0.018174838 0.10962707
0.0086108781 -0.034567714 0.10623163
0.011770676 -0.0341614 0.10659277
-0.032438487 -0.017837092 0.10508221
-0.030659918 -0.021113712 0.10431027
-0.028186142 -0.02444914 0.10415876
-0.0015034089 -0.033135831 0.1026004
0.0029468276 -0.033713125 0.10219604
0.0079784635 -0.03435247 0.10197943
-0.029687963 -0.022168949 0.099610925
-0.026839398 -0.024887627 0.10002047
-0.011951213 -0.032096699 0.098517537
-0.0023640078 -0.033322386 0.097683072
0.0014435183 -0.034314424 0.097501516
-0.02726033 -0.025797389 0.095021665
-0.017709438 -0.031872384 0.095522463
-0.0082921553 -0.033060335 0.094121397
-0.026465844 -0.027131565 0.091402531
-0.017983988 -0.03189595 0.089851439
-0.0099449987 -0.033797111 0.090488851
-0.033650864 0.025150035 0.17850366
-0.033885814 0.024833295 0.17684633
0.024426818 -0.03055143 0.11603916
0.021434478 -0.031372655 0.11217552
0.02513301 -0.032634899 0.11196864
0.016235827 -0.032297857 0.107894
0.01948355 -0.032544218 0.10825515
0.024540678 -0.033691213 0.108132
0.028398681 -0.034052037 0.10762972
0.014508272 -0.033006273 0.10365611
0.019276069 -0.033172719 0.10317266
0.024177972 -0.03374723 0.1035496
0.028163249 -0.034689669 0.10397029
-0.032633029 -0.01565085 0.10167563
-0.031166419 -0.018461483 0.10108739
0.0080533186 -0.033952512 0.098685682
0.013339808 -0.033597816 0.099289596
0.019032869 -0.03349727 0.09979856
-0.032842521 -0.016647935 0.097396195
-0.031265784 -0.019968506 0.097728908
0.0038315756 -0.03420192 0.095733166
0.00756153 -0.034797892 0.095407903
0.012257343 -0.033630989 0.095076799
-0.033069212 -0.017693963 0.093143046
-0.031289868 -0.022036901 0.09352088
-0.028903112 -0.024664544 0.092523992
-0.0027560936 -0.034274165 0.091866016
0.0017429236 -0.035570174 0.091834605
0.0067816032 -0.035666056 0.090471327
-0.031287488 -0.022808393 0.088666439
-0.028241854 -0.026360566 0.089191675
-0.021070981 -0.030656181 0.088007748
-0.0080375457 -0.033711988 0.087515116
0.001374769 -0.036026321 0.087225735
0.0049411785 -0.036019586 0.087035596
-0.028464627 -0.0267228 0.08369267
-0.019046094 -0.031672914 0.083984554
-0.0098579498 -0.032953113 0.083799243
-0.024420943 -0.029290969 0.080062985
0.026316397 -0.03335036 0.10034198
0.029040711 -0.033957459 0.10053134
0.019649453 -0.032783385 0.096907377
0.024274647 -0.033694245 0.097214758
0.027649455 -0.03510949 0.096560001
-0.033466175 -0.0147593 0.09631604
0.015024741 -0.032427624 0.092943907
0.019639771 -0.031712286 0.09134084
0.024473637 -0.03344338 0.091177285
0.027672324 -0.035399672 0.091602683
-0.033408657 -0.018324647 0.091667891
0.0087840408 -0.035469174 0.087391555
0.013354748 -0.033422586 0.088508904
0.017101809 -0.033020686 0.086986959
-0.033278678 -0.017477266 0.087994754
-0.032018773 -0.020583309 0.0856691
0.0018001283 -0.034760263 0.083155334
0.0075910138 -0.034704559 0.084012091
0.01183886 -0.03405061 0.083757937
-0.031648353 -0.020713385 0.081994653
-0.0078574792 -0.032172393 0.080873549
0.0020007454 -0.034027111 0.079513907
0.0066252323 -0.034158584 0.079877794
-0.032012209 -0.022210401 0.077879369
-0.028643576 -0.025517074 0.077594578
-0.018987725 -0.030332973 0.076900303
-0.0086481459 -0.032336108 0.076423347
0.0010933951 -0.034136303 0.075601041
-0.031847373 -0.022905124 0.073955834
-0.028401956 -0.025252834 0.073423684
-0.019957954 -0.029936641 0.072591722
-0.010682664 -0.03322221 0.072267115
-0.023633417 -0.028860211 0.068538189
-0.015949141 -0.032288045 0.06821543
-0.032389276 0.0020757169 0.11062407
-0.030247238 0.00052923523 0.10726279
-0.030005002 -0.0025551422 0.10214907
-0.034167439 -0.0070623085 0.09232986
-0.033426791 -0.0099095879 0.094018757
0.022462223 -0.033300348 0.089462996
0.028495373 -0.035844844 0.089203835
-0.03243361 -0.0098765315 0.088070095
0.019952649 -0.032658201 0.085789025
0.023755601 -0.03419479 0.085579455
0.026910268 -0.035229951 0.08626014
-0.032604501 -0.010843867 0.084193289
0.014372002 -0.033713497 0.081755221
0.017531585 -0.033315543 0.081337035
0.024556704 -0.034202106 0.08123529
-0.032890655 -0.015088722 0.078016698
0.0081873145 -0.034116209 0.077476263
0.012122729 -0.033428457 0.077708423
-0.035091378 -0.018007185 0.075687945
-0.03371229 -0.021145564 0.075394571
0.0015687803 -0.034540694 0.073878706
0.0055936249 -0.034035664 0.072910905
0.0093281446 -0.033313926 0.073440373
-0.035087347 -0.019795226 0.07284224
-0.032589264 -0.02218131 0.071286917
-0.028538197 -0.025184792 0.07033211
-0.0089017544 -0.033490665 0.06952852
0.00011212844 -0.033844557 0.068469584
0.00443203 -0.033837546 0.069302082
-0.031134849 -0.022421431 0.067165077
-0.02838546 -0.024948318 0.066561222
-0.020447416 -0.030808795 0.065399468
-0.010384217 -0.032357581 0.065085471
-0.027294332 -0.025400469 0.061762512
-0.020314245 -0.030145124 0.062272787
-0.035406604 0.020111077 0.12952983
-0.034385443 0.018547269 0.12719172
-0.030764295 0.015700383 0.12684262
-0.038294442 0.018263476 0.12357253
-0.030957047 0.0069318437 0.11240488
-0.038192563 0.0072756871 0.10842782
-0.034222357 0.0069192927 0.10912955
-0.031858582 0.0046876157 0.11211896
-0.034869373 0.0057145976 0.10501909
-0.031723984 0.0029474897 0.10485762
-0.034592919 0.0039770044 0.10134262
-0.031466339 0.0020386474 0.10080224
-0.030434508 -0.0024299445 0.094087541
-0.033920359 -0.0041998373 0.092342257
-0.034729119 -0.0053863088 0.086776137
-0.033472653 -0.0088578267 0.086183727
0.027575072 -0.033634625 0.081881046
-0.035253711 -0.0069997115 0.083788276
-0.032921199 -0.010167336 0.081778467
0.018974861 -0.032346025 0.077718318
0.022250269 -0.032451592 0.07956475
0.025451906 -0.034117363 0.078827202
-0.032986559 -0.011779023 0.077988923
0.011762424 -0.031978451 0.073727369
0.01735276 -0.031750709 0.074761748
0.02258572 -0.032235317 0.074362457
0.02616683 -0.033912726 0.073915541
0.012300465 -0.031929642 0.070756316
0.017037995 -0.031588912 0.070180118
0.022266714 -0.03271408 0.070675313
0.025290329 -0.034055211 0.070594072
-0.034367673 -0.017437734 0.068832934
-0.033069279 -0.018381674 0.066988468
0.005447058 -0.03336212 0.066194355
0.010977593 -0.032709289 0.066499531
-0.031556699 -0.020146323 0.064275205
-0.029051613 -0.023310982 0.06293112
-0.0045200782 -0.031977639 0.061205089
0.0053742463 -0.033793636 0.06212765
0.0086823888 -0.033907279 0.061654866
-0.030940009 -0.020953439 0.05977881
-0.028625451 -0.023949046 0.059077084
-0.020033577 -0.02906926 0.058570862
-0.010417242 -0.031792227 0.058442593
7.6985918e-05 -0.033079103 0.057193935
0.0045786723 -0.033869963 0.058049083
0.0082974331 -0.034497622 0.058043599
-0.029346034 -0.024545014 0.05498606
-0.020511042 -0.029701414 0.054187
-0.010908611 -0.032481331 0.053894937
-0.00054255966 -0.033644151 0.054236889
-0.028637413 -0.025895625 0.051438034
-0.02097648 -0.030275133 0.049527824
-0.011764746 -0.03283548 0.049510241
-0.025176898 -0.029285774 0.047126293
-0.016666777 -0.032527301 0.046515942
-0.03441228 0.019047154 0.12389976
-0.029472258 0.018129114 0.12295908
-0.038136385 0.019146515 0.12097514
-0.034693696 0.018991528 0.12001276
-0.030327644 0.017948529 0.11999255
-0.034752671 0.019596985 0.11563015
-0.031799484 0.017942898 0.1157549
-0.031963523 0.013861719 0.11005807
-0.036388062 0.012249032 0.10666311
-0.035086747 0.010728534 0.10824472
-0.03431375 0.0095433882 0.099631131
-0.033955604 0.0061999019 0.097637713
-0.031502925 0.0046777804 0.096323013
-0.030768694 0.0032116622 0.092870235
-0.033900421 0.00081057195 0.089462817
-0.035376947 -0.0024753464 0.086538613
0.018061515 -0.03174042 0.067271709
0.022207387 -0.03267486 0.067556918
0.026145669 -0.034018733 0.067165673
0.012941455 -0.032694239 0.063472331
0.016906124 -0.032046862 0.063723147
0.021659233 -0.032293424 0.062959671
0.026018249 -0.034142856 0.064176381
0.011546804 -0.03353893 0.060392916
0.016023135 -0.032324921 0.058656275
-0.031527743 -0.017698016 0.057596743
0.0053194473 -0.033812486 0.054919064
0.010508285 -0.033411533 0.05437696
-0.031241931 -0.019704128 0.053192973
-0.00068420731 -0.033712059 0.051184654
0.0045464328 -0.033693772 0.050634205
0.0085319187 -0.033414759 0.049809694
-0.029496053 -0.023803461 0.048349202
-0.0057880073 -0.032551341 0.046859801
0.0029575173 -0.033352844 0.046456695
-0.028853599 -0.02513402 0.043613374
-0.021492869 -0.030721493 0.042654216
-0.011724941 -0.032791063 0.043082833
-0.028705273 -0.026007 0.039545834
-0.021773431 -0.031196436 0.040995479
-0.028421745 0.018748615 0.11689657
-0.034618534 0.019451035 0.11399782
-0.030103888 0.018064877 0.11347151
-0.027063077 0.016720301 0.11303836
-0.034412958 0.018296733 0.11027902
-0.030078948 0.01698062 0.11111426
-0.027158067 0.01680229 0.11099219
-0.035363641 0.016383957 0.10706365
-0.034447271 0.011378614 0.095741808
-0.034384128 0.009422346 0.091249168
-0.032353781 0.0056513078 0.090831935
-0.03565323 0.0067740497 0.087554514
-0.033895761 0.0034572659 0.087156951
-0.036348626 0.0043774704 0.085279107
0.023311924 -0.03190174 0.060368598
0.026739143 -0.0324638 0.060638249
0.017603341 -0.032067403 0.056172073
0.022472391 -0.032113861 0.057065368
0.02647444 -0.032455705 0.056946456
0.012485838 -0.03288687 0.051191866
0.01684198 -0.032086618 0.052691758
0.021732926 -0.032366399 0.052052259
0.025420431 -0.032870725 0.051924229
-0.031969782 -0.014493393 0.050652206
0.011515073 -0.03281289 0.048309624
0.016027793 -0.032231495 0.04861635
0.01974763 -0.032964952 0.048694491
-0.031393684 -0.017624641 0.04651624
-0.00021279417 -0.032121275 0.044546485
0.0053982912 -0.033230115 0.04478842
0.010176913 -0.032926794 0.043831527
-0.030897755 -0.018633153 0.043267071
-0.030057017 -0.020904221 0.042546332
-0.0054404726 -0.032249041 0.040674746
0.0042256555 -0.033614837 0.040092111
0.0080441469 -0.033853166 0.040766835
-0.029816054 -0.023380915 0.037943065
-0.021036208 -0.029003566 0.036918998
-0.011229524 -0.031527512 0.036353469
-0.0014497451 -0.033654895 0.035766304
0.0027714567 -0.034313448 0.035898626
-0.029075708 -0.024982082 0.033011377
-0.021359179 -0.029325008 0.033003032
-0.01196122 -0.031546365 0.031584799
-0.024698472 -0.028162019 0.029031754
-0.034938004 0.013657093 0.093027413
-0.035238959 0.013348206 0.090237796
-0.036539827 0.010466812 0.087424099
0.028956352 -0.031328924 0.052742004
-0.03134162 -0.0072217118 0.049852967
0.023719899 -0.03240563 0.049006462
0.027992882 -0.032354474 0.049288929
-0.032383364 -0.0080298753 0.047973454
0.017049711 -0.031600859 0.044925272
0.021916555 -0.032099366 0.045168579
0.026280211 -0.03202945 0.044997156
-0.032861993 -0.010158118 0.044025898
-0.032502346 -0.013833834 0.044503331
0.012057986 -0.033150159 0.040933847
0.016180951 -0.031729456 0.040799558
0.020039208 -0.031942643 0.041455865
-0.031734586 -0.015679259 0.039203286
0.0065116817 -0.032861046 0.036296308
0.010509666 -0.032236952 0.036882401
0.014604856 -0.031367131 0.036544144
-0.031954922 -0.016571596 0.03523922
-0.030279912 -0.020268867 0.033585012
0.00079497602 -0.032957025 0.03200525
0.0047888914 -0.033121694 0.032398224
0.009201156 -0.032109529 0.032608211
-0.031101353 -0.017595794 0.031834066
-0.029894331 -0.021039672 0.029728591
-0.0063606161 -0.032232933 0.028681636
0.0026530828 -0.032689393 0.028969467
-0.028342981 -0.023526441 0.026766777
-0.02136874 -0.028424734 0.024768412
-0.011684036 -0.031438213 0.02462393
-0.0013614167 -0.033095293 0.02499491
-0.025501119 -0.024949577 0.022494137
-0.016402682 -0.029180463 0.020266473
-0.0083220191 -0.031867847 0.021549881
-0.031585582 -0.0031788852 0.049111545
-0.036727604 -0.0024469141 0.045491159
-0.033633903 -0.0052659046 0.047090948
0.028102171 -0.030670015 0.041930676
-0.037465848 -0.0049958108 0.042247176
-0.034675777 -0.0076945787 0.042835057
0.022710767 -0.030892868 0.039297402
0.026565332 -0.030910656 0.038063288
-0.033928551 -0.010189751 0.038426816
0.016874224 -0.031196948 0.035172403
0.020676777 -0.031306997 0.034013927
0.025201859 -0.032433417 0.033548772
-0.034367122 -0.012361423 0.033335447
-0.033240564 -0.014065082 0.033146918
0.011816247 -0.031402815 0.030691743
0.015490038 -0.031029144 0.029510021
0.019656988 -0.032053478 0.028781474
0.024284966 -0.034121353 0.028681934
-0.031217489 -0.015930608 0.028435647
0.005497111 -0.031668417 0.02642417
0.0099355876 -0.031584844 0.025769114
0.014150863 -0.031582884 0.024282634
0.017695682 -0.032044813 0.025154531
-0.030735143 -0.015603373 0.023661852
-0.029385246 -0.019728491 0.02347064
0.0044599129 -0.032224786 0.021449268
0.0085450057 -0.032378834 0.020608783
-0.02880146 -0.021411516 0.018762112
-0.025722122 -0.024480166 0.019410253
-0.016361477 -0.028826242 0.01779443
-0.0064031025 -0.031943403 0.018449724
0.0029774085 -0.032433737 0.01707679
-0.028590154 -0.02252884 0.014098525
-0.025990266 -0.025102897 0.014073491
-0.016946746 -0.029837677 0.014446795
-0.0071876463 -0.032180816 0.012922347
-0.024991233 -0.026547283 0.0093650818
-0.017349647 -0.030200463 0.0089374781
-0.034099575 -0.00012170058 0.047757268
-0.030697543 0.0015553003 0.047489464
-0.035347968 0.0016442938 0.045832872
-0.037524603 -0.0030058762 0.040359497
-0.03458859 -0.006378511 0.035364807
-0.032057468 -0.012582894 0.027252614
0.013985557 -0.031793892 0.021968663
0.019859452 -0.032105409 0.023107886
0.024341175 -0.032723486 0.022711337
-0.030963982 -0.013727826 0.022293806
0.010290871 -0.03149543 0.018734515
0.014319954 -0.031452086 0.018777192
0.019065879 -0.031399153 0.018345594
-0.031128654 -0.015716374 0.017339289
-0.03031926 -0.01831452 0.017984569
0.0032158485 -0.032390568 0.01440388
0.008415699 -0.031818569 0.014679313
0.013365889 -0.031687602 0.01501447
-0.031331275 -0.015622186 0.012949109
-0.030140866 -0.018949311 0.012496591
0.0034016035 -0.032087512 0.010362446
0.0072282124 -0.031538952 0.011138737
-0.028859336 -0.021335736 0.0082983971
-0.026689306 -0.023817871 0.0078153014
0.02550539 -0.031105543 0.01940769
-0.031223074 -0.010121052 0.018859446
0.020932149 -0.031268194 0.015367925
0.024684418 -0.030685809 0.016097248
-0.031652685 -0.0099130347 0.015191019
0.013999099 -0.031143572 0.01197511
0.019435726 -0.030775905 0.011725962
0.024713289 -0.03045048 0.012607336
-0.031670231 -0.013327353 0.0099389553
0.0083395299 -0.031515151 0.0078716874
0.014132285 -0.030598357 0.0078203082
0.018943243 -0.030412687 0.0080932379
0.027747922 -0.030082317 0.01340723
-0.03234911 -0.0041581597 0.010952592
-0.032012347 -0.0080219442 0.011636078
0.021825988 -0.030375866 0.0092042685
0.026465058 -0.029110555 0.0080746412
-0.032705627 -0.00013167784 0.0090526938
