# .PCD v0.7 - Point Cloud Data file format
VERSION 0.7
FIELDS x y z
SIZE 4 4 4
TYPE F F F
COUNT 1 1 1
WIDTH 990
HEIGHT 1
VIEWPOINT 0 0 0 1 0 0 0
POINTS 990
DATA ascii
-0.016924608 0.035082478 0.19129044
-0.024850316 0.032215927 0.19203818
-0.017301274 0.037286762 0.18793771
-0.026132472 0.036444608 0.18975529
-0.018207446 0.03868198 0.18417677
-0.026734363 0.037840895 0.18437904
-0.022416605 0.038927764 0.18048465
-0.029544473 0.035671886 0.18005949
-0.023184652 0.026094891 0.19345874
-0.026431955 0.024560332 0.19273129
-0.0047757076 0.035843462 0.1902467
-0.01380005 0.032727905 0.19166666
-0.022680352 0.028641503 0.19307026
-0.02858405 0.026651654 0.19160417
-0.03063833 0.024817398 0.18905035
-0.0053591598 0.03775119 0.18630826
-0.013924895 0.03666532 0.18750319
-0.031652089 0.029118672 0.18702626
-0.031806774 0.026844487 0.18477941
-0.010418054 0.037956808 0.18201113
-0.031368151 0.02896267 0.18053424
-0.016653927 0.039524689 0.17829537
-0.026096839 0.037023492 0.17624921
-0.016473018 0.039599564 0.17420775
-0.025324797 0.035432719 0.1723536
0.0048875744 0.032527797 0.19180858
0.0018663537 0.030882437 0.19214779
-0.0069972705 0.028772086 0.19280097
-0.016071267 0.023782492 0.192518
-0.025209572 0.020264698 0.19311377
-0.028763149 0.01800167 0.19130567
0.010163564 0.036519364 0.18770131
0.0057483781 0.035547044 0.18914792
0.0010255612 0.034842648 0.19011432
-0.0064554391 0.031656884 0.19169208
-0.030912137 0.020108342 0.18815988
0.005119184 0.037587114 0.18504149
0.00016071741 0.037858907 0.18478054
-0.031370223 0.024539851 0.18147388
0.0030430704 0.038444825 0.18025726
-0.0048379237 0.037753873 0.18029428
-0.030986074 0.023890136 0.17734697
-0.0049526272 0.03815674 0.17530662
-0.03144737 0.027570516 0.17421874
-0.01004723 0.038346663 0.17120314
-0.021063842 0.037364691 0.17083862
-0.029063169 0.032549597 0.16979885
-0.031974711 0.029352905 0.16993308
-0.020233933 0.037004136 0.16583112
-0.029049385 0.032957692 0.16514117
-0.031363081 0.030294955 0.16579127
-0.02537417 0.035874132 0.16084966
0.00052660238 0.022755491 0.19235116
-0.0082844719 0.019630592 0.19220918
-0.018684171 0.016245019 0.19312757
-0.023208961 0.014451949 0.19362536
-0.026823629 0.011481814 0.19280928
-0.029642476 0.010324145 0.19085252
0.017426517 0.032480545 0.18995246
0.013553372 0.032147579 0.19081119
0.0082210992 0.030444875 0.19154754
0.0037552146 0.028121371 0.19260487
-0.0055025094 0.025074046 0.19304934
-0.013872868 0.02105416 0.19229886
-0.029649429 0.014772133 0.19073859
-0.031651773 0.011480625 0.18827793
0.020933187 0.035199948 0.18753263
0.017771143 0.034728438 0.18695772
0.012684811 0.034996171 0.18834436
0.0086662592 0.033789113 0.1900048
-0.031871311 0.013838635 0.18485528
0.016256038 0.036418583 0.18314379
0.011846048 0.037061885 0.1840443
0.0081620039 0.037003763 0.18246078
-0.030906092 0.01891234 0.18161756
-0.031087659 0.015016583 0.18113771
0.015332937 0.03744705 0.17991257
0.011785915 0.037600458 0.17851534
0.0066937432 0.037343197 0.17773888
0.0019616624 0.037442826 0.17711416
-0.030252747 0.022060489 0.1760771
0.0054417076 0.037278 0.17284289
0.00069062598 0.038045369 0.17380738
-0.031645898 0.021832522 0.1707024
0.0039254855 0.037804078 0.16955528
-0.0041747298 0.037677482 0.16879204
-0.032879539 0.025308335 0.16850829
-0.0046136379 0.037368134 0.16427654
-0.013924068 0.037926104 0.16414511
-0.031849258 0.028518876 0.16337833
-0.014036799 0.037682056 0.1596781
-0.02457808 0.036012337 0.15825802
-0.030789262 0.029275425 0.16038656
-0.019531632 0.03686801 0.15367576
-0.028875967 0.033618618 0.15344834
-0.024844941 0.036582634 0.1488719
-0.02591439 0.03748177 0.14594457
-0.024180707 0.0044042915 0.19366887
0.032010648 0.032713987 0.19215235
0.014923463 0.025019605 0.19092149
0.011617444 0.023736335 0.19126087
0.0063302005 0.022220282 0.19239101
0.001349791 0.020759258 0.19239572
-0.0067855245 0.015873771 0.1924662
-0.016294032 0.011001356 0.19271442
-0.020806357 0.0097891856 0.19386598
-0.025242267 0.0072156498 0.19366786
-0.029614279 0.0063538561 0.19081008
0.032278579 0.034742113 0.18999654
0.028603368 0.033808626 0.18960774
0.023619827 0.03261495 0.19005111
0.019507863 0.031494875 0.19079447
0.014792248 0.029178057 0.19155627
0.011105463 0.027882036 0.19150436
-0.032959819 0.0062722703 0.18546116
0.031365611 0.0370658 0.18568033
0.028111348 0.036106613 0.18591535
0.023206286 0.035271309 0.18595228
-0.032785423 0.012062397 0.18214521
-0.033327572 0.0075656092 0.1817098
0.027349118 0.036113463 0.18176416
0.022466619 0.036504723 0.18158934
0.018567085 0.036569986 0.18194759
-0.032046136 0.012836552 0.17794779
0.021931488 0.037103057 0.17714092
0.017423136 0.037425429 0.17740434
0.012808007 0.038060274 0.17527413
-0.029862866 0.016746867 0.17458546
-0.030906236 0.014053803 0.1736151
0.01681916 0.037673116 0.17297989
0.012179512 0.038060907 0.17170411
0.0084603587 0.0377905 0.17184323
-0.030349292 0.018273368 0.1719285
-0.031174939 0.016354743 0.16813433
0.011700882 0.0377413 0.16789186
0.0070660561 0.037419863 0.16700548
0.0031360649 0.037425674 0.16639006
-0.032035761 0.023421988 0.16436943
-0.031579826 0.017752308 0.16443616
0.0063980902 0.03688667 0.16287583
0.001741997 0.037884869 0.16263017
-0.031153612 0.021441728 0.16013652
5.4721721e-05 0.03772255 0.15852669
-0.0080112293 0.037529435 0.15796387
-0.030695476 0.026741903 0.15650326
-0.008984495 0.037720162 0.15415117
-0.017113859 0.037890002 0.15176499
-0.031245589 0.028487314 0.1520358
-0.01873477 0.037340209 0.14781463
-0.031263161 0.030039893 0.14637172
-0.024298806 0.037374523 0.14314649
-0.031086035 0.031624604 0.1432212
-0.027838906 0.035247911 0.13858098
0.029107159 0.023321649 0.19549352
0.015017043 0.01649192 0.19328621
0.012108464 0.015287019 0.19313741
-0.0044574649 0.0089589879 0.19305602
-0.0083403345 0.0070032342 0.19311613
-0.013224824 0.005320332 0.19293076
-0.01845802 0.003096608 0.19347435
-0.023022264 0.0013282932 0.19374275
-0.027015915 -0.0013533421 0.19272029
-0.030476924 -0.0031444849 0.19050398
0.030659435 0.027224081 0.19149911
0.027236704 0.025083955 0.19118014
0.022138339 0.023370272 0.1911515
0.018238215 0.021194663 0.19172955
0.013680495 0.020261688 0.19227949
0.0091781802 0.017576709 0.19256628
0.0035885144 0.015389007 0.19204998
-0.0052469741 0.012021548 0.19268095
-0.013964599 0.008513879 0.19229531
-0.029125841 0.0015094411 0.19049317
-0.03142729 -0.0013256408 0.18780118
0.035102546 0.03420179 0.18784714
0.029776756 0.030203082 0.19111145
0.025823936 0.027611326 0.19035205
0.021125332 0.02654135 0.19062504
0.017537843 0.024978139 0.19039717
-0.033521093 0.0018391088 0.18418491
0.034650199 0.035147578 0.18352386
-0.034339998 0.0046846559 0.17900723
0.033396393 0.03689447 0.17947689
0.028366139 0.036011249 0.17900616
-0.033632174 0.0070723454 0.17538458
0.037040316 0.041061487 0.17773616
0.033153407 0.038003616 0.17521387
0.028403141 0.035881221 0.17446652
0.024260432 0.036174722 0.17424861
-0.032286592 0.011864377 0.17172444
0.032853242 0.038055412 0.17116821
0.02780579 0.035856307 0.17084768
0.023031542 0.036441758 0.17055526
0.019010646 0.036989003 0.17024824
-0.032425612 0.013051235 0.16727757
0.022427058 0.037020009 0.16613644
0.017942462 0.037086479 0.16580284
0.01350657 0.036607835 0.1644029
0.0097712306 0.036824398 0.16399181
-0.031854693 0.015981697 0.16226485
0.018040484 0.037183855 0.16097075
0.013376441 0.036545612 0.15953505
0.0086695356 0.036459416 0.16001359
0.0048542302 0.036965176 0.15951067
-0.031080138 0.021489259 0.15734407
-0.031616077 0.018447097 0.15739915
0.011930048 0.036905199 0.1560722
0.0081612086 0.036457438 0.15533978
0.0032825405 0.036735188 0.15552616
-0.031575058 0.023038244 0.15468916
-0.032414515 0.020914285 0.15350667
0.0023564044 0.036416344 0.1506981
-0.006967464 0.035929728 0.15012276
-0.032200478 0.025068779 0.15049428
-0.032666855 0.022005944 0.14860478
-0.0074938796 0.035608776 0.14624298
-0.031458419 0.026490849 0.14559343
-0.0078618666 0.035945509 0.14227223
-0.017656868 0.036176961 0.14131218
-0.029615425 0.032487489 0.13966912
-0.031058524 0.029631954 0.13999104
-0.017373228 0.035904132 0.13725474
-0.0289024 0.033891406 0.13600722
-0.030920211 0.030742461 0.13593978
-0.023780011 0.035593238 0.13163662
-0.030632861 0.03149109 0.131594
-0.026691347 0.035721827 0.12702888
-0.025438244 -0.0090355873 0.19783121
-0.027852243 -0.01008453 0.1976797
-0.0064960066 0.00016156514 0.19345272
-0.010479384 -0.00056202454 0.19377497
-0.015798999 -0.0021549703 0.19384924
-0.020849414 -0.0044838861 0.19437444
-0.025241377 -0.0063148392 0.19505933
-0.029335883 -0.0082752872 0.19446892
-0.032746278 -0.0086162519 0.19329756
0.03088229 0.023405001 0.19429404
0.028678413 0.018835962 0.19299912
0.024803074 0.017086875 0.19253451
0.020453287 0.015917905 0.19285983
0.016397301 0.013201997 0.19371393
0.010820631 0.012262376 0.19301933
0.0057490589 0.01013521 0.19228417
0.0019666133 0.0073438352 0.1925385
-0.0068482235 0.0032055168 0.19341382
-0.011517826 0.0021089101 0.19365266
-0.015125365 0.00052649062 0.19341749
-0.030712793 -0.0055207461 0.19154346
-0.033392921 -0.0066581182 0.19086671
0.031042455 0.023345411 0.19239286
0.02762999 0.022327013 0.19198745
0.024028832 0.020740464 0.19174874
-0.03256347 -0.0040915348 0.18759409
-0.034743175 -0.0044671101 0.1865007
-0.035795871 -0.0027338155 0.18254846
0.039770111 0.032675575 0.18141285
0.037194498 0.033099417 0.18217075
-0.035326511 -0.0022242405 0.17757425
0.040330246 0.03187418 0.17896438
0.037103187 0.034980226 0.17960781
-0.0342176 0.003814782 0.17316702
0.031823415 0.036340728 0.17219144
-0.03337723 0.0064171134 0.16898942
0.03385831 0.037623476 0.16905889
0.029118046 0.03584167 0.16816318
0.025412679 0.035904843 0.16763127
-0.033463594 0.0070545608 0.16378561
0.034713868 0.038845591 0.16471469
0.028766314 0.035512496 0.1635614
0.02452434 0.03620778 0.16350213
-0.032433927 0.011355094 0.16061312
0.027497975 0.036320671 0.15993413
0.023249613 0.036776081 0.15986091
0.019413957 0.037697926 0.15937346
0.01522933 0.037050847 0.157343
-0.032061536 0.012997138 0.15592182
0.022086281 0.037496787 0.15521148
0.018754538 0.037256207 0.15482607
0.013762721 0.03696819 0.15382648
0.0098762317 0.036747634 0.15326619
-0.032421868 0.016585659 0.1516763
0.017560534 0.036609702 0.1508764
0.014178487 0.03659964 0.14970532
0.0089483391 0.036326449 0.14900851
0.0049365805 0.036873739 0.14874437
-0.03321128 0.01910891 0.14684278
0.0076156277 0.03642229 0.14532143
0.0029971888 0.036702219 0.144797
-0.030606568 0.021629483 0.14125285
-0.031664826 0.019788697 0.14314204
0.0019131796 0.036275789 0.14076787
-0.0072807134 0.036668487 0.14004686
-0.030722713 0.022234466 0.13785678
-0.0076007778 0.036615331 0.13573003
-0.015663551 0.036103852 0.13508457
-0.031296272 0.028529996 0.13453513
-0.01227238 0.035995312 0.13093376
-0.021226022 0.035680499 0.13033289
-0.03108122 0.030181451 0.12965339
-0.021821983 0.03612699 0.12582535
-0.030451003 0.030140819 0.1248492
-0.027269704 0.035381556 0.12049967
-0.018144829 -0.010964775 0.19684124
-0.022288874 -0.01103821 0.1973632
0.030725732 0.012061214 0.19428605
0.027972497 0.011209946 0.19412392
0.023448948 0.0089846207 0.19295305
0.019043626 0.0071432311 0.19271767
0.013851646 0.0051157386 0.19252133
0.0083412025 0.0027769157 0.19266891
0.0042455839 0.001179938 0.19297743
-0.00053515128 0.0002292326 0.19331652
-0.0046460684 -0.0023971058 0.19381267
-0.0092411423 -0.0046148966 0.19382846
-0.013696568 -0.00538421 0.19346958
-0.017967032 -0.0084846318 0.19397146
0.028882571 0.01623184 0.19423211
0.026615135 0.014625611 0.19327471
0.022030108 0.012224499 0.19321379
0.017300196 0.011122331 0.19346061
0.011575834 0.0084195472 0.19297799
0.007260954 0.0064350413 0.19264436
-0.036633696 -0.006141474 0.17885417
-0.035718836 -0.0060876841 0.17498785
-0.033620082 0.00011953898 0.16988149
-0.035439149 -0.0036039203 0.17134094
-0.03387263 0.0011112429 0.16584796
0.033079162 0.034690179 0.1652925
-0.033338405 -1.6816892e-05 0.16128227
0.033951201 0.036059577 0.16192174
0.030728843 0.035397343 0.16119283
-0.033097606 0.0065259701 0.1577335
0.034346856 0.035056118 0.15769222
0.029882384 0.035369761 0.15693548
0.025674857 0.035700604 0.15677494
-0.032817703 0.0072861612 0.15294549
0.034855962 0.038663678 0.15226221
0.028833076 0.035736665 0.15295663
0.025041942 0.035816438 0.15255207
-0.032497689 0.012387319 0.14994913
-0.03257532 0.0080792001 0.1491175
0.02352149 0.035375163 0.14782822
0.019715726 0.036540739 0.14821738
0.01452471 0.036211118 0.14683777
0.011281247 0.035821881 0.14602613
-0.032372754 0.012506618 0.14428177
0.019053066 0.036249809 0.14363185
0.014810486 0.036523812 0.14355201
0.0096324729 0.036093123 0.14274576
0.006469477 0.035616443 0.14122415
-0.031889468 0.017963856 0.13970092
0.013369472 0.03599105 0.13896456
0.01029614 0.035777383 0.13800159
0.0043462198 0.035819598 0.13761348
-0.030447792 0.02178454 0.13461688
-0.031630129 0.018565532 0.13504991
0.0033229776 0.03491576 0.13329414
-0.0052582044 0.035973217 0.13259852
-0.029955361 0.020713231 0.13186264
-0.030845243 0.020560175 0.12964517
-0.0066309785 0.036214784 0.12866741
-0.030785631 0.021890081 0.12639791
-0.01161435 0.035735298 0.12424868
-0.030761046 0.028176151 0.12260252
-0.011731435 0.035997763 0.11917675
-0.021325888 0.03603274 0.11899662
-0.030491792 0.030032698 0.11896217
-0.017041283 0.036862459 0.1151979
-0.026442301 0.035378795 0.11490208
-0.018461652 0.037163857 0.11127847
-0.026277117 0.034491289 0.11051553
-0.00059656799 -0.013248871 0.19963336
-0.0046460256 -0.013752156 0.19822466
-0.0023202298 -0.010468541 0.19408381
-0.0062231785 -0.012178937 0.19545096
-0.010988778 -0.012689441 0.19625223
-0.014033062 -0.013671976 0.19625145
0.028585622 0.0074914917 0.19548377
0.024696663 0.0061648227 0.19251323
0.020514721 0.003805514 0.19194353
0.015921313 0.0014163502 0.19263747
0.010929698 -0.0006589219 0.19328392
0.0062852888 -0.0038792044 0.19344595
-0.0022436751 -0.0073393723 0.1935105
-0.0069024097 -0.0086082499 0.19364214
-0.011983528 -0.0098309256 0.19341448
-0.014853634 -0.011311566 0.19402596
-0.035287097 -0.0067394925 0.16700971
-0.033883203 -0.0052685677 0.16422355
-0.033111107 -0.00040898472 0.15815419
-0.033710022 -0.0035103308 0.15920711
-0.03358575 0.0011652363 0.15448484
-0.033973653 -0.0024257982 0.15422934
0.034712993 0.034755588 0.15457064
0.032034669 0.034900501 0.15427995
-0.033364132 0.0055024177 0.15050626
0.034979921 0.035563886 0.14993125
0.031096414 0.035049923 0.15012109
0.027221002 0.034673247 0.14944223
-0.03286558 0.0067669805 0.14643329
0.035445482 0.036480658 0.14594391
0.030774942 0.034764834 0.14513198
0.026260076 0.034629796 0.14551583
-0.032267492 0.0078601288 0.14125195
0.034894284 0.038262524 0.14240792
0.029377889 0.035013437 0.14150625
0.025655398 0.034709454 0.14135784
0.021114977 0.035527438 0.14097181
-0.032423202 0.013075782 0.1389153
-0.032461893 0.0087188231 0.13703787
0.019252364 0.034795273 0.13685387
0.015967831 0.035470568 0.13679612
-0.032544944 0.013681026 0.1354906
-0.032377865 0.013476945 0.13242033
0.014708787 0.035134986 0.13261876
0.010701699 0.035054021 0.13218364
0.0055947928 0.034958981 0.13102916
-0.031649929 0.016359607 0.12933344
0.010537782 0.035017997 0.12782705
0.0057706339 0.035055749 0.12717015
0.001134092 0.035222568 0.12609076
-0.031508394 0.019475628 0.12395656
0.0049749138 0.034752924 0.12292403
-0.0045711584 0.035649158 0.12155396
-0.031155527 0.021711063 0.11978108
-0.0059467666 0.035990648 0.1166693
-0.031453796 0.023901176 0.11493206
-0.011293612 0.036773242 0.11293513
-0.030739991 0.029025316 0.11245596
-0.031471897 0.026575331 0.11091238
-0.011424091 0.036967386 0.10941535
-0.020895466 0.035039425 0.10741645
-0.030308986 0.031341054 0.10743439
-0.032250296 0.027884442 0.10660613
-0.025599975 0.034338228 0.10314178
-0.026208254 0.034077495 0.099140882
0.0045288955 -0.014938255 0.19687277
0.029735342 0.0020837691 0.19625536
0.028622448 -0.0013023438 0.19549575
0.013470063 -0.006565643 0.19342151
0.003730299 -0.011035014 0.19430512
-0.00069463812 -0.011911246 0.19537023
-0.0038927449 -0.013297236 0.1964938
0.026631093 0.0016465848 0.19285822
0.02255718 -0.00099848956 0.1921103
0.018262226 -0.0022801673 0.19263378
0.01383091 -0.0032389765 0.19336241
-0.035776049 -0.012267848 0.16377044
-0.034784056 -0.008931106 0.16132519
-0.036480177 -0.012441703 0.1600059
-0.034743395 -0.0071051158 0.15720677
-0.036493521 -0.0098108649 0.15685409
-0.034349993 -0.0041408315 0.15323955
-0.035773017 -0.0068520554 0.15375966
0.038430404 0.032746516 0.15250731
-0.033625569 -0.0017551705 0.14788449
-0.032756262 0.0044161528 0.14298451
-0.034203745 -0.0010351827 0.14365739
0.035795286 0.035356339 0.14417768
0.032764636 0.035125189 0.14276332
-0.032779377 0.0047560586 0.13935596
-0.033276554 0.0014896942 0.13864094
0.034554355 0.035700642 0.1388756
0.031302974 0.035503738 0.13922518
0.026853532 0.034279231 0.13820189
-0.032977115 0.0068331016 0.13446772
-0.034274094 0.0045193098 0.13469619
0.034943204 0.035505712 0.13477632
0.031259455 0.035356812 0.13411269
0.026519284 0.034660712 0.13416207
0.021869611 0.034289643 0.13468534
-0.032688826 0.0080063781 0.13022411
0.025420642 0.035094984 0.13015482
0.021296659 0.034680959 0.12976021
0.016661614 0.035017688 0.13015157
-0.032093864 0.011987305 0.12699586
0.020564642 0.034842327 0.12523174
0.015866037 0.035626594 0.1257875
0.011408016 0.035196073 0.12511283
0.0078440793 0.034591772 0.12474984
-0.032170311 0.013767303 0.12186331
0.01532546 0.035370097 0.12092209
0.011274523 0.035325617 0.1205318
0.0066099577 0.035273667 0.1209392
0.0027651228 0.034839142 0.12024105
-0.031930048 0.018061563 0.11787701
-0.032391828 0.014630635 0.11858201
0.010261772 0.035536502 0.11632621
0.006224067 0.035477888 0.11593133
0.00094255526 0.035569355 0.11613137
-0.031908892 0.018393163 0.11318523
0.0046812808 0.03546026 0.11234361
-0.0049113417 0.036470052 0.11010402
-0.031990979 0.022403125 0.10909718
-0.005787258 0.036290586 0.10590374
-0.015632682 0.035024133 0.10511863
-0.03247181 0.025327548 0.10335934
-0.011216304 0.035937078 0.1013658
-0.020264685 0.034962188 0.10106945
-0.03224954 0.02772695 0.10045117
-0.015943456 0.036116879 0.096605718
-0.02539058 0.035023861 0.09706229
-0.032290339 0.03007216 0.095779598
-0.02574861 0.035237946 0.092137456
-0.03245458 0.030807285 0.092359841
-0.029808823 0.033342537 0.08752358
0.028596221 -0.007399803 0.19584361
0.025738364 -0.0089183375 0.1955111
0.021549944 -0.011420134 0.19487119
0.017982753 -0.013348356 0.19443804
0.0080428589 -0.016974695 0.19512963
0.027348004 -0.0042539584 0.19408086
0.024663774 -0.0061262483 0.19351926
0.020342205 -0.0083139101 0.19307616
0.01609019 -0.010773856 0.1934011
0.0068346411 -0.013881701 0.19425806
-0.035238817 -0.0027054613 0.14088309
-0.035867453 -0.0056695715 0.14009213
-0.034469984 -0.0012128819 0.13752562
-0.036262371 -0.0044323895 0.13806003
-0.034780353 0.00056202896 0.1325478
0.036301371 0.033134758 0.13095182
0.032478061 0.035595123 0.1314905
-0.032732956 0.0056238603 0.12631387
-0.034783427 0.0024565458 0.12826318
0.031150278 0.035215136 0.12762445
0.02763493 0.034527414 0.12731397
0.023952447 0.03367278 0.12627769
-0.032347336 0.0078843459 0.1238203
0.030810479 0.034653358 0.12339628
0.026945077 0.034137797 0.12262613
0.022982208 0.033834055 0.12202549
0.018634409 0.034340601 0.1220687
-0.031970333 0.0087660486 0.11941504
0.021551102 0.033613782 0.11826503
0.018024864 0.033739541 0.11720216
-0.0320917 0.014092765 0.115192
0.016853549 0.034289841 0.11323893
0.012714699 0.034374166 0.11296135
-0.031837709 0.013824555 0.11000395
0.011789294 0.034623172 0.10834569
0.0072521716 0.034505561 0.10882646
0.0031517828 0.035407491 0.10871619
-0.031783756 0.018619314 0.10638934
-0.032162242 0.015104247 0.10501277
0.0067636566 0.034633659 0.10480541
0.0021565435 0.034697123 0.10423052
-0.031917442 0.019345678 0.10195893
0.0010900646 0.034466468 0.099919617
-0.0081503522 0.034375705 0.098816872
-0.032102536 0.020202804 0.097619295
-0.0093062297 0.034601305 0.094976008
-0.03247799 0.026141241 0.093974411
-0.014657997 0.034827478 0.090182185
-0.023386337 0.03448154 0.088718355
-0.032051332 0.02852853 0.088580847
-0.019517206 0.033808138 0.085204601
-0.029421158 0.032651052 0.083885193
-0.032332417 0.031079819 0.085494161
-0.024687154 0.034181882 0.080414593
-0.031869538 0.030262977 0.080720842
-0.027881613 0.033768494 0.077220321
0.015969157 -0.014793184 0.19399667
-0.035094343 -0.0074104825 0.13394347
-0.034744032 -0.0033640563 0.13062677
-0.035828464 -0.0051453616 0.13068286
-0.035715271 -0.00041244831 0.12690371
-0.036117334 -0.0039992826 0.12561136
-0.031634733 0.0030736215 0.12043446
-0.033304509 0.00042212382 0.12199998
0.031836033 0.034696221 0.12121612
0.028856654 0.034201991 0.12025493
-0.031222228 0.0021523023 0.11774617
0.031910472 0.035109185 0.11752105
0.027889019 0.034229696 0.1168713
0.023198884 0.033668708 0.1162011
-0.031471387 0.0078555671 0.1137439
0.027966306 0.034274224 0.1121636
0.022794839 0.034417793 0.11191475
0.018774321 0.03429449 0.11079818
-0.031756867 0.0090300161 0.10865915
0.027020916 0.035388231 0.10892135
0.022809181 0.035058565 0.10737127
0.017572317 0.034907371 0.10686255
0.014055197 0.034867615 0.10668808
-0.032470062 0.012559797 0.10330516
0.021029856 0.035485085 0.10443163
0.017359741 0.035001252 0.10247856
0.012251736 0.035014588 0.1024825
0.0078219194 0.034419045 0.10169584
-0.032301728 0.014333508 0.099842608
0.012881564 0.034617219 0.098450243
0.0072000613 0.034439266 0.097332954
0.0029432354 0.034545887 0.097510397
-0.032184474 0.020644281 0.094949067
-0.03214711 0.016059797 0.09265548
0.0060275672 0.0348465 0.092590928
0.0024383701 0.034982245 0.092581093
-0.032058079 0.020640509 0.090889215
0.0017816806 0.03493423 0.088669002
-0.0075270324 0.03458273 0.088505626
-0.032065365 0.023325019 0.086789846
-0.014354394 0.035037104 0.083562255
-0.031975769 0.025773464 0.082483351
-0.019242015 0.034957215 0.079614103
-0.030422065 0.031252664 0.078034818
-0.03207561 0.027639836 0.077291667
-0.019880127 0.035183158 0.074707866
-0.029286183 0.032586385 0.074406862
-0.032269515 0.029664662 0.073246896
-0.02851069 0.032484446 0.069464743
-0.031470373 0.030191544 0.069334865
-0.036012676 -0.0040868344 0.12257677
-0.033707768 -0.0024998561 0.11836374
-0.036027178 -0.0037300056 0.11787283
0.035884302 0.032101173 0.11852139
-0.030996822 0.0017865114 0.11447275
-0.032565743 -0.0018268162 0.11405271
0.035468318 0.033202339 0.11737859
-0.031386886 0.0031531872 0.1105175
-0.03202429 0.00027002674 0.10869855
0.032128029 0.034699693 0.11072177
0.029916167 0.034777369 0.10980409
-0.032434866 0.0062882323 0.10692865
-0.032733943 0.0025350247 0.10440987
0.032089196 0.035554953 0.10581756
0.02858365 0.034959093 0.10567206
0.024928141 0.034664083 0.10491639
-0.032450557 0.0067639211 0.10125214
-0.033138599 0.0038674623 0.1014114
0.032112721 0.03517244 0.10152221
0.028465142 0.034533493 0.10115147
0.023634434 0.034643371 0.1009444
0.018956132 0.034699991 0.10036844
-0.032191094 0.0087875081 0.096573889
0.022413842 0.033463079 0.096624672
0.018713992 0.033357833 0.09569037
0.013765585 0.033984885 0.095595717
0.0098595303 0.033726223 0.095875859
-0.031693496 0.011970049 0.093051612
0.013261118 0.033317998 0.091363072
0.0093491469 0.033826813 0.091627955
-0.03245068 0.014416195 0.08811003
0.012001398 0.034017615 0.087442696
0.0083902478 0.034257747 0.086495459
0.0033974722 0.034525719 0.086437166
-0.031711314 0.020321244 0.083482623
-0.032328621 0.016061388 0.084088087
0.0073364489 0.034508921 0.082189381
0.0032953015 0.034308109 0.081716955
-0.0062112971 0.033865545 0.080785692
-0.031467505 0.019946495 0.08008945
0.0028372128 0.03485997 0.077639103
-0.0064950832 0.033466838 0.076911986
-0.0034288252 0.034437504 0.073314607
-0.012485491 0.033937439 0.071513474
-0.012207882 0.034055267 0.067523837
-0.023192689 0.032644864 0.065684915
-0.031417809 0.027964111 0.066595435
-0.022461325 0.032480389 0.061947286
-0.030612458 0.028405119 0.063616455
-0.033712462 -0.0032739891 0.11134708
-0.035455029 -0.0049269376 0.11196363
-0.033343337 -0.0027281912 0.10736227
-0.035296913 -0.00502396 0.10685533
-0.033210013 0.001032874 0.10348636
-0.033774599 -0.0042030737 0.10404432
0.033992253 0.034797624 0.10282022
-0.03355433 0.0023749489 0.098053217
0.033847887 0.033704802 0.099057615
0.029826311 0.033841513 0.097603619
-0.032393746 0.007128288 0.09443897
-0.032705553 0.0032426491 0.093800306
0.029447317 0.032197572 0.093994737
0.024801876 0.032593865 0.093387783
0.021220591 0.032710306 0.092326999
-0.032417204 0.0075554075 0.089678943
0.023503993 0.032050394 0.089248538
0.019433467 0.032665599 0.088922083
0.01520529 0.033298917 0.088828504
-0.032872856 0.0090949154 0.085804939
-0.032883249 0.0093430588 0.082923174
0.018279739 0.032304868 0.08461082
0.014271772 0.033319078 0.084317803
-0.032960352 0.014427921 0.081528008
0.013816385 0.033599995 0.079856932
0.0091258641 0.034802511 0.079897225
-0.030394811 0.017409164 0.075892091
-0.032024488 0.01531679 0.078187644
0.00806545 0.035299398 0.075354934
0.0036513396 0.035181127 0.074891865
-0.030410118 0.017768694 0.072047472
0.0072041722 0.034897547 0.070859134
0.0036277948 0.03478815 0.071718991
-0.0061375499 0.033628095 0.070124447
-0.030767836 0.01898922 0.06892544
-0.0063724867 0.033773422 0.066367567
-0.031429909 0.025884729 0.063978374
-0.031518899 0.021439711 0.063725293
-0.016424526 0.033555053 0.061057508
-0.031062888 0.02709307 0.060243011
-0.0320388 0.023148602 0.0599733
-0.022213919 0.033669699 0.057291687
-0.031046862 0.028368663 0.055812061
-0.026730999 0.032575298 0.051475227
-0.034511708 -0.0060068327 0.10096377
-0.034441046 -0.0042398367 0.096087754
-0.033613365 0.0010157982 0.092453539
-0.034862503 -0.0027286811 0.091140985
0.033881329 0.032254212 0.094980955
0.031009454 0.032047927 0.091975391
-0.033151511 0.0024616737 0.088270009
-0.035962522 -0.0018951101 0.087913811
0.030608786 0.032563381 0.087843359
0.026077 0.031888049 0.087807417
-0.033677369 0.0042524859 0.083545029
0.029670859 0.034186862 0.083389997
0.025218664 0.033117853 0.083445847
0.0207114 0.032412425 0.083389938
0.016457584 0.032818548 0.08134675
-0.033155501 0.0074865604 0.07918489
0.028499294 0.034635384 0.078570187
0.025089595 0.034205996 0.078095794
0.020065755 0.033196919 0.078642547
0.014716737 0.033212036 0.077557266
-0.031578835 0.013618819 0.074425697
-0.032942925 0.008470091 0.075456679
0.024960296 0.035019726 0.074594259
0.019469596 0.033876486 0.073789597
0.014928611 0.033856053 0.073673129
0.0108927 0.034294501 0.073575377
-0.031623311 0.014038522 0.070621014
0.014521229 0.033943631 0.069462776
0.010058585 0.034076996 0.068798721
0.0039835852 0.033333924 0.06794399
0.00092027336 0.033268791 0.067151845
-0.031209433 0.016619872 0.066022396
0.0082719391 0.034274422 0.064395964
0.0045663593 0.03400325 0.064397454
-0.0057047615 0.03260795 0.062186182
-0.031814311 0.018834915 0.061827362
0.0040143253 0.034235489 0.060289562
-0.0059275385 0.032910313 0.058901608
-0.031774811 0.020332232 0.056701124
-0.0054959459 0.033570889 0.054245353
-0.015294139 0.032632768 0.053535879
-0.03142225 0.026861828 0.052234113
-0.031693839 0.022853237 0.052335203
-0.010876185 0.033582948 0.049694121
-0.020724243 0.033056106 0.049217045
-0.030554967 0.028606027 0.048742831
-0.031687204 0.023081917 0.049358368
-0.015933227 0.033286754 0.045599699
-0.026215758 0.032438852 0.044655502
-0.030258618 0.02914587 0.044240952
-0.026010197 0.03240161 0.039279461
-0.030084945 0.02999825 0.040003181
-0.035470359 -0.0088651888 0.098209679
-0.035710782 -0.0079078842 0.093841314
-0.036242567 -0.0061103655 0.089099765
-0.034956813 -0.0028614877 0.084931731
-0.034788601 -0.0021879477 0.080227792
-0.034259938 0.0038899528 0.077263176
0.029703289 0.034836289 0.077376366
-0.033462893 0.0057038954 0.072183907
0.029013993 0.035641409 0.073313355
0.025351036 0.034646738 0.071102917
0.021501455 0.033754893 0.071096539
-0.032314293 0.008924799 0.068036795
0.025457226 0.03426905 0.066416204
0.020847686 0.033071063 0.0669384
0.01585222 0.032259542 0.065209985
-0.031706225 0.012456771 0.06322819
-0.032065473 0.0085872225 0.063554466
0.014579944 0.031413842 0.062120438
0.01158466 0.032605521 0.061304927
-0.031680357 0.012933483 0.056257188
0.0096964194 0.032781377 0.058171511
0.0052440017 0.033686589 0.056706846
-0.031497117 0.017470507 0.053374708
0.0038585635 0.034052584 0.05273819
-0.030992994 0.016357977 0.050273657
-0.0051941071 0.034231909 0.048321784
-0.03166692 0.023277156 0.046342432
-0.010398658 0.033142559 0.042870224
-0.031806909 0.02403884 0.041689873
-0.015098253 0.031864949 0.038933814
-0.03109389 0.028813569 0.037502766
-0.031941555 0.024705838 0.038007557
-0.025628693 0.03250815 0.033667862
-0.029928694 0.029865364 0.033650577
-0.036673363 -0.0097667789 0.087662101
-0.036107462 -0.0060875639 0.08292377
-0.036911532 -0.0089429859 0.085216463
-0.035934668 -0.0062910202 0.078605771
-0.033427212 -0.0030818991 0.074070513
0.031704381 0.032375842 0.072977841
-0.032462701 0.0044194274 0.068904579
-0.033785835 -0.0017969729 0.069890857
-0.032731529 0.002943635 0.06580013
0.029940549 0.033176772 0.0667243
0.028227497 0.033016875 0.066007137
0.018213371 0.031275772 0.063148737
-0.032053486 0.00625569 0.061811864
0.026258375 0.033457939 0.061160982
0.021726374 0.03194543 0.060621321
0.016932834 0.031286709 0.060138464
-0.03100916 0.01099268 0.057754815
-0.031462185 0.0073429309 0.058271229
0.020541741 0.031101322 0.056083381
0.016055357 0.031602398 0.056261659
0.011442177 0.032194637 0.055673897
-0.031635106 0.013052095 0.053179085
0.015193621 0.031431586 0.051430166
0.011113065 0.032490954 0.051237881
0.0067841699 0.032802302 0.050547481
-0.031274114 0.014042004 0.048564613
0.010413356 0.032524541 0.047214985
0.005598587 0.033253983 0.046633959
0.00011498481 0.033562321 0.045212686
-0.030992456 0.016838778 0.044293582
0.0036185486 0.034249421 0.041937768
0.00038732402 0.033925317 0.041979373
-0.0082498491 0.032611407 0.039719045
-0.030965917 0.017094541 0.040232837
0.00018621981 0.034319177 0.037623465
-0.0093278075 0.032098837 0.036199689
-0.031594925 0.024004713 0.035216868
-0.009871481 0.03206848 0.032474458
-0.019264154 0.031320658 0.031998456
-0.029592367 0.028633008 0.029806912
-0.030852973 0.022316186 0.031511366
-0.019813951 0.031944465 0.027239025
-0.029534154 0.028077966 0.026576221
-0.025218379 0.031883474 0.022571743
-0.02932594 0.029210009 0.021855175
-0.034130801 -0.0078150416 0.070403457
-0.034252319 -0.0051943003 0.066062987
-0.032888923 0.0011729691 0.062434137
-0.034021281 -0.0026098471 0.062446058
-0.032084614 0.0017033508 0.058413923
0.027771281 0.033191193 0.057849228
-0.031031214 0.0048497887 0.054169297
0.027628306 0.03188153 0.054777086
0.02263977 0.030847976 0.053561747
0.018633172 0.030365799 0.052506983
-0.031312741 0.0075689591 0.049955726
0.017135281 0.030694377 0.048635066
-0.031212185 0.012525152 0.045251608
-0.031426117 0.0082417987 0.045191586
0.0169424 0.030381322 0.044821322
0.011998942 0.031425521 0.043434858
0.0082729189 0.03167659 0.042885602
-0.031189593 0.012782896 0.041184366
0.012272854 0.031191239 0.040324569
0.0073304251 0.031768575 0.039370596
-0.030997351 0.015056055 0.036500692
0.0055069383 0.032780025 0.034893036
0.00079094712 0.033353671 0.033465624
-0.030916154 0.016396258 0.032172859
0.0047987932 0.032676313 0.03178215
0.00078072771 0.032662734 0.030222833
-0.0085343039 0.031198433 0.028484404
-0.030459946 0.019990424 0.027378142
-0.0095138578 0.030679721 0.024565041
-0.030923933 0.023162272 0.0235973
-0.019300144 0.031665102 0.020215333
-0.030708466 0.02780316 0.018668711
-0.03173086 0.024005052 0.020187974
-0.019682825 0.030988207 0.01585561
-0.029395748 0.029327026 0.015813768
-0.031465374 0.025355589 0.014693856
-0.028862959 0.028241854 0.011949182
-0.035410631 -0.012344485 0.072055638
-0.034089372 -0.010942564 0.070642591
-0.036068439 -0.011538 0.068616211
-0.03505582 -0.0079824561 0.06674701
-0.036520042 -0.0088710189 0.066471338
-0.035702061 -0.0058085453 0.061149001
-0.034317158 -0.0096848644 0.061103642
-0.033957154 -0.0033954075 0.05678612
-0.035344668 -0.0064303079 0.055309117
-0.032002117 0.00065185223 0.052845359
-0.033590082 -0.0023476267 0.052070081
0.027620748 0.030288992 0.051441371
-0.03214407 0.002590199 0.048509598
-0.034052342 0.00050371233 0.047432959
0.028063906 0.029961655 0.046801567
0.023799827 0.029585792 0.047404468
0.020059489 0.029325774 0.04635489
-0.032456629 0.0050103245 0.044051707
-0.034519523 0.0021662498 0.042117894
0.027501363 0.029759806 0.042513192
0.023511004 0.029977055 0.041897476
0.018738851 0.030106734 0.042329311
-0.031836227 0.0073559321 0.039275825
-0.034448519 0.0034630038 0.038581192
0.022412963 0.030816222 0.037567616
0.018049546 0.030959528 0.037458062
0.012945941 0.03084011 0.037499011
-0.032140378 0.00859439 0.03388083
-0.034339868 0.0055910246 0.033574164
0.016966458 0.031234894 0.032945156
0.012614425 0.031377755 0.032845616
0.0089366743 0.031265404 0.03379488
-0.03136114 0.014090084 0.03046304
-0.031950712 0.010895835 0.029170871
0.010979 0.03152775 0.028018177
0.0073622754 0.031940416 0.028028131
0.002633729 0.031827256 0.027398765
-0.031318534 0.015569399 0.025689125
-0.032317381 0.012221429 0.024915814
0.0062169079 0.031781536 0.023433983
0.0017753365 0.031624343 0.023412168
-0.0065949177 0.030319445 0.023424447
-0.031000771 0.018649254 0.022119999
-0.031631589 0.015655596 0.019873679
0.00033442024 0.031727619 0.019288123
-0.0082084546 0.030357026 0.018485725
-0.031714797 0.021020571 0.016646802
-0.013313423 0.030592587 0.013360322
-0.03178864 0.021619333 0.011696935
-0.018922968 0.030310959 0.0087738633
-0.028318245 0.027170978 0.0076022148
-0.030961588 0.024523631 0.0083799362
-0.036702033 -0.0075623491 0.05376035
-0.033966731 -0.004819815 0.048709214
-0.034665152 -0.0079047661 0.048706591
0.032637198 0.025904024 0.046741605
-0.034507234 -0.0030539082 0.044848025
-0.034710135 -0.0075865616 0.045748889
-0.034981016 -0.0015321039 0.041851938
-0.036798149 -0.0012516985 0.038264036
0.0284658 0.030442186 0.040195942
0.025657918 0.030233826 0.039086163
-0.035143889 0.0033412287 0.03577441
-0.037595503 -0.0014106836 0.036205471
0.02822724 0.031198204 0.035890102
0.024365591 0.0305431 0.035370648
-0.036017962 0.005046838 0.031742752
-0.038107432 0.00080002192 0.032021463
0.027705539 0.031937324 0.031743646
0.024573617 0.030233271 0.030461431
0.018794086 0.031057479 0.030412972
-0.032597054 0.0078169731 0.027992785
-0.035180517 0.0050517861 0.026994526
-0.037873909 0.0024665445 0.027413249
0.024200866 0.031035252 0.027124345
0.018918246 0.030551493 0.025696695
0.014326948 0.030396022 0.026155889
-0.032895736 0.010208848 0.023469925
-0.034405496 0.0064904131 0.023465812
0.017251484 0.030586639 0.022199512
0.012982464 0.030213632 0.02181381
0.0094482526 0.030281894 0.020558536
-0.032058973 0.011987435 0.018666148
0.0077801449 0.030345969 0.016714692
0.0034651849 0.030396122 0.01655525
-0.031684365 0.01456839 0.014635742
0.0023271656 0.030439056 0.011945188
-0.0068123462 0.030584024 0.012427449
-0.031278439 0.01540717 0.010812044
-0.035672724 -0.010123132 0.048376381
-0.035170343 -0.0086520175 0.042919099
-0.038094319 -0.0023691645 0.033438623
0.028849432 0.029326135 0.024443686
0.0239246 0.030085534 0.023167133
0.020795956 0.030804753 0.023544788
-0.034591231 0.0039032418 0.019998133
0.023699738 0.030410778 0.019472361
0.019377481 0.030372296 0.019222021
0.014787205 0.030220736 0.01932925
-0.032618403 0.008709928 0.016723752
0.017879967 0.030088583 0.015028298
0.014187091 0.030028418 0.014952838
0.00963079 0.030661114 0.014234185
-0.031863734 0.0094294241 0.012696803
0.012800271 0.030553322 0.010824561
0.0086281858 0.030592529 0.010430515
0.0038567213 0.030277273 0.0097427368
-0.031169392 0.012885327 0.0076066852
0.026504016 0.027479157 0.01482898
-0.032695517 0.0024462976 0.013890922
0.024187043 0.028725352 0.013188541
0.021030586 0.028907247 0.012410641
-0.031389736 0.0059389509 0.0086091161
0.020353571 0.028773718 0.007918179
0.015688404 0.029979642 0.0085052252
-0.032869324 -0.00029393286 0.011735559
-0.032404248 -0.0064920778 0.0088365674
