# .PCD v0.7 - Point Cloud Data file format
VERSION 0.7
FIELDS x y z
SIZE 4 4 4
TYPE F F F
COUNT 1 1 1
WIDTH 1382
HEIGHT 1
VIEWPOINT 0 0 0 1 0 0 0
POINTS 1382
DATA ascii
-0.011513919 0.017222919 0.78736675
-0.0096697807 0.019037867 0.78673345
0.054778349 0.018999148 0.78513324
0.057935458 0.017606871 0.78821439
-0.011176842 0.022043696 0.78954458
-0.007726843 0.022977374 0.78796667
-0.0038010331 0.024893876 0.78680015
0.052968286 0.022838393 0.78651667
0.056768607 0.022029663 0.78904444
-0.0062674279 0.027423 0.78937775
-0.0027555588 0.028045636 0.78721905
0.0013320994 0.029223878 0.78516662
0.048218098 0.02777891 0.78560001
0.05169227 0.027693259 0.78910482
-0.0018501178 0.031806868 0.78884441
0.0023606054 0.032358222 0.78678
0.04385832 0.032190654 0.78624445
0.047430307 0.032067578 0.7877208
0.050678566 0.030861616 0.78970009
0.0025656188 0.036230821 0.78931665
0.0072168028 0.037404176 0.78823322
0.011959434 0.039120864 0.78593338
0.016716918 0.039469589 0.78560001
0.034354057 0.039533231 0.78686684
0.036904395 0.039148778 0.78648347
0.042246569 0.037149768 0.78805
0.046992727 0.035265617 0.78963345
0.0089475513 0.041627314 0.78956658
0.012360759 0.042531792 0.78815556
0.017480992 0.042471632 0.78703886
0.022617698 0.042469427 0.787
0.027561659 0.042346921 0.78720003
0.032633316 0.042661242 0.78783661
0.037387919 0.042574499 0.78895921
0.040339436 0.042582989 0.7891221
0.013263868 0.046707485 0.78936672
0.017523974 0.046977341 0.7889666
0.022675037 0.047272559 0.78899312
0.027091453 0.046981886 0.78904796
0.032263435 0.047013018 0.78956676
0.037433706 0.046151992 0.78992021
0.040381737 0.046300724 0.78995025
-0.037138354 -0.042802643 0.79366666
-0.03342814 -0.042156719 0.7934286
-0.028234674 -0.042028267 0.79300004
-0.032120492 -0.038897913 0.79306263
-0.028420893 -0.039241958 0.79133338
-0.031853277 -0.026475087 0.79106665
-0.031173984 -0.022101214 0.79253769
-0.028872207 -0.021302333 0.7902354
-0.030417616 -0.019142192 0.79210007
-0.028611192 -0.012053323 0.79116666
-0.030452173 -0.008099515 0.79300004
-0.027470723 -0.0073555866 0.79226518
-0.027107986 -0.0031517779 0.79404885
-0.023894731 -0.0026363318 0.79132116
0.067856297 -0.0026344012 0.79078525
-0.026061237 1.2807536e-05 0.7944001
-0.022669433 0.0027762586 0.79230732
0.064005286 0.0036897263 0.79058349
0.06705495 0.0022224926 0.79176527
-0.020843474 0.0073913247 0.79315013
-0.017680185 0.0076608434 0.79062688
0.063695237 0.0077410839 0.79130828
0.066637859 0.0071688495 0.79183799
-0.017298542 0.012628577 0.79262233
-0.014130007 0.014708254 0.79000026
0.06216906 0.012294936 0.79222226
-0.015683692 0.016261091 0.79406673
-0.013578147 0.017990122 0.79212672
0.059638463 0.019149181 0.79133332
0.061247945 0.017716536 0.79306346
-0.012711123 0.021413188 0.79340005
-0.0097107468 0.024997236 0.7900669
0.059306126 0.022474676 0.79181415
0.061352015 0.022179626 0.79441118
-0.011238027 0.025117474 0.79386681
-0.0087419553 0.028468331 0.79121119
0.053716972 0.028707903 0.79106677
0.056476988 0.026992496 0.79251671
-0.0069536236 0.032132134 0.79283702
-0.0033291786 0.033357665 0.79082233
0.049228616 0.033815302 0.7900669
0.052477945 0.03260278 0.79182923
0.056177683 0.031051796 0.79456675
-0.0053206529 0.035487432 0.79460013
-0.001797242 0.037057474 0.79258347
0.0015869257 0.03875393 0.79086679
0.0050236681 0.039690655 0.79000026
0.044360552 0.039243076 0.7908445
0.048012383 0.038018145 0.79186326
0.051499605 0.036609031 0.79326665
-0.00087432208 0.041375551 0.79413342
0.0020825074 0.04277052 0.7925927
0.0066648149 0.042988405 0.7905854
0.043430503 0.042726941 0.79179263
0.047487777 0.042343035 0.79380006
0.0030751114 0.046299864 0.79413348
0.0072513469 0.047166366 0.79213339
0.011289593 0.04742419 0.79030013
0.017548908 0.049982801 0.79008359
0.022703992 0.04997753 0.79000026
0.027127957 0.049984559 0.79011136
0.030817896 0.049994394 0.79026687
0.037452653 0.048159987 0.79031688
0.042237338 0.047187373 0.79250002
0.045070939 0.04657926 0.79470003
0.0094979396 0.050264303 0.79453337
0.012617135 0.051444113 0.79277509
0.017576575 0.053009495 0.79136664
0.022738658 0.05299738 0.79118532
0.027216174 0.053098187 0.79268146
0.03245699 0.052159809 0.79267883
0.037594523 0.052402604 0.79330564
0.040573448 0.050950378 0.7937001
0.017948465 0.056758113 0.79380959
0.022508515 0.056693476 0.79349339
-0.030541778 -0.0059050708 0.79533339
-0.030580178 -0.003690185 0.79633337
-0.029113276 -0.0022094634 0.7968334
-0.027044192 0.0017942684 0.79716575
-0.024630535 0.0037151722 0.79604399
-0.023926249 0.0074294792 0.7972787
-0.020532886 0.012192629 0.79834944
-0.018680019 0.014811282 0.79553336
0.064515777 0.013356011 0.79688889
0.066114239 0.011894141 0.798244
-0.020275217 0.01638123 0.79993325
-0.017431896 0.018007221 0.79776669
0.063425414 0.017436223 0.79717839
-0.015774546 0.022299265 0.79866678
-0.013865729 0.022592997 0.79595011
0.063505605 0.021913126 0.79819149
-0.012134792 0.027763009 0.79712391
0.058990639 0.027648183 0.79586679
0.061268721 0.027479775 0.79814172
-0.011677172 0.03232228 0.79855001
-0.0092973448 0.033607055 0.79673338
0.057294749 0.03304673 0.79683822
0.06084802 0.032433413 0.79946655
-0.0073688505 0.037358958 0.79727578
-0.0034721666 0.038855694 0.79546666
0.053202845 0.03794862 0.7966134
0.056716204 0.03665993 0.79866672
-0.0063375072 0.041832294 0.79814452
-0.0025485002 0.043159075 0.79636669
0.049109388 0.043945748 0.79608899
0.052085254 0.042657204 0.79835242
-0.0018715431 0.047027752 0.79812235
0.0015975646 0.047899697 0.79616672
0.043623559 0.048835456 0.7953335
0.047702651 0.047478803 0.79738522
0.051819671 0.046626311 0.79973322
0.0025242295 0.051792294 0.79855245
0.0071465876 0.052779902 0.79678684
0.012108944 0.0544108 0.79573339
0.033242311 0.054756373 0.79537791
0.042403206 0.05273743 0.79715562
0.046447694 0.050934479 0.79925001
0.0035944993 0.055807143 0.79983318
0.0075147194 0.057816222 0.79861832
0.012496878 0.057820287 0.79680753
0.017229196 0.058924776 0.79572004
0.02324025 0.058853 0.79575002
0.027334789 0.057771452 0.79613334
0.032569971 0.057839025 0.79706675
0.037756179 0.057813745 0.79671866
0.041721385 0.057061039 0.79865336
0.0095577091 0.060991623 0.79953331
0.012528631 0.061680961 0.79882222
0.017729262 0.062377442 0.79821682
0.022932759 0.062357664 0.79797041
0.027383616 0.062325317 0.79756314
0.032610063 0.062363271 0.79805017
0.037653487 0.062211074 0.79847509
0.040888686 0.061017036 0.79986668
0.023723345 0.065453477 0.79953325
0.027428603 0.066142492 0.79886669
0.032644048 0.065400273 0.79888332
0.036386088 0.065431654 0.79926664
-0.030720983 -0.0014752563 0.80000001
-0.02780208 0.0039897091 0.80183333
-0.026669327 0.0078416141 0.80153757
-0.026640046 0.012260197 0.80291319
-0.023437403 0.012887179 0.80136281
0.067804366 0.013416591 0.80062217
-0.026354307 0.016450854 0.80333334
-0.022792418 0.018064134 0.80255705
0.064767651 0.018614825 0.80000007
0.067928202 0.017917871 0.80207992
-0.021267474 0.02183645 0.80355853
-0.018081741 0.022388838 0.80189443
0.064799242 0.023090523 0.80039012
0.067507647 0.021921171 0.80300564
-0.017002739 0.026930111 0.80387926
-0.01433406 0.027594008 0.80140829
0.064229593 0.027906355 0.80125713
0.066648029 0.026956499 0.80468899
-0.013762969 0.033171665 0.80293339
0.063379698 0.032805149 0.80130661
0.065063164 0.033649743 0.80365002
-0.012370477 0.036867913 0.80320567
-0.0098389862 0.038729094 0.80049992
0.058398217 0.038271796 0.80131102
0.061752509 0.036900394 0.80235237
-0.011381476 0.040394016 0.80400014
-0.0085539883 0.042926319 0.80239999
0.054389797 0.042478152 0.80097497
0.057405628 0.042394623 0.80324847
0.060643334 0.040427513 0.80466682
-0.0063771922 0.047320336 0.8030889
-0.0033707516 0.048668105 0.8006888
0.049860027 0.049134258 0.80019987
0.053415775 0.048207924 0.80129433
0.056822032 0.047852531 0.80367231
-0.0019538202 0.052059893 0.80268574
0.00061176362 0.052889138 0.80069995
0.047673222 0.052663635 0.80105549
0.05247654 0.052420553 0.8028546
0.05609934 0.050867412 0.80406672
-0.0015273747 0.057245184 0.80360013
0.0018076666 0.057725213 0.8016699
0.0050906497 0.059578761 0.80053329
0.04334436 0.058431685 0.80113328
0.046892162 0.057305254 0.8028
0.051107209 0.05635934 0.80416679
-0.00088621274 0.061403554 0.80493355
0.0021110927 0.062774017 0.80330008
0.007135795 0.062784821 0.80170304
0.01255145 0.064024843 0.8002665
0.039423194 0.06403552 0.80039996
0.042504199 0.062685214 0.80217618
0.045628652 0.06137304 0.80453354
0.0028646914 0.065854616 0.80443347
0.0076062977 0.066774003 0.80348152
0.01258876 0.067203082 0.80265552
0.017064603 0.067144603 0.80195558
0.021979315 0.067377843 0.80118334
0.027486732 0.068515532 0.80055553
0.032726433 0.067800596 0.80089992
0.038186919 0.067322418 0.80185831
0.041792545 0.067222796 0.80290002
0.012991418 0.070716679 0.80441684
0.017279046 0.071546584 0.80323333
0.022320395 0.072434761 0.80272293
0.027537873 0.072373897 0.80204171
0.032056902 0.072445586 0.80283332
0.037321765 0.071744233 0.80334729
0.041864205 0.07182733 0.8042779
0.023103723 0.076283045 0.80394459
0.02760802 0.076295681 0.80407792
0.03060876 0.076300964 0.80413342
-0.026408982 0.01798244 0.80500007
0.071214631 0.018740939 0.80541676
-0.023110183 0.022552336 0.80777007
0.06923756 0.023494041 0.80571121
0.071317844 0.022520786 0.80658388
-0.020508409 0.025600491 0.80913335
-0.018183704 0.028514128 0.80640006
0.068802513 0.02747242 0.80731261
0.071531482 0.02710117 0.80900002
-0.017457774 0.032060679 0.80755556
0.068063572 0.031205937 0.80812681
0.070103064 0.031652145 0.8099286
-0.01597864 0.036130544 0.80899996
-0.013930555 0.038535573 0.80684441
0.062978387 0.038982287 0.80573344
0.065393761 0.036073975 0.8077333
-0.012936226 0.042063631 0.80734289
-0.0098967552 0.044947807 0.80520022
0.059186738 0.044951525 0.8052668
0.062507696 0.042230014 0.80692494
-0.011950974 0.046900067 0.80871111
-0.008910655 0.048518661 0.80645561
0.059260231 0.048007127 0.80626661
0.061905988 0.047112562 0.80807394
-0.0064925514 0.05244359 0.80859995
-0.0038912115 0.05320365 0.80546665
0.058026895 0.052767273 0.8073833
0.061010104 0.051213246 0.80953342
-0.0057972767 0.056850135 0.80938345
-0.0035228506 0.057801317 0.80691671
0.048665833 0.05992109 0.80513358
0.053231053 0.057846572 0.80603808
0.056740485 0.056742497 0.80784994
-0.0023966196 0.062657967 0.80733341
0.044153772 0.064403541 0.80500025
0.047400147 0.063168555 0.80594999
0.052750662 0.062530667 0.80787551
0.056490049 0.061765004 0.80966681
-0.00088988268 0.066921376 0.80826658
0.0019068534 0.068014883 0.80721897
0.0066242306 0.068945378 0.80557793
0.044156481 0.067402691 0.8050496
0.047278062 0.067572169 0.80707383
0.051732209 0.06754899 0.80904168
0.0031337552 0.071268529 0.80926663
0.0075960783 0.07196334 0.80732727
0.012326409 0.072795376 0.80506694
0.016757637 0.074526891 0.8051669
0.037417501 0.074924506 0.80541682
0.043301642 0.073170111 0.80589831
0.047323763 0.072144426 0.80783683
0.050429121 0.07152532 0.80933344
0.0096792467 0.076076128 0.80970007
0.012676686 0.077448808 0.80829436
0.017165108 0.078045316 0.80668885
0.022159291 0.078469448 0.80591106
0.027673388 0.0787265 0.80598897
0.032378715 0.078183621 0.8061834
0.03750452 0.078102395 0.80727768
0.042792145 0.077635817 0.80762964
0.046356145 0.075711675 0.80848885
0.013450432 0.081324287 0.80946672
0.01722122 0.0819095 0.80929345
0.0224934 0.082022704 0.80892497
0.027756164 0.082292952 0.80840939
0.03229199 0.082001172 0.80871111
0.036452681 0.081653729 0.80900002
-0.025110977 0.022658274 0.81157148
-0.02357284 0.024142815 0.81072736
-0.021361951 0.027609382 0.81287974
0.071681112 0.027157862 0.81069225
-0.020623453 0.032556038 0.81367242
-0.018274844 0.034688421 0.81046677
0.068361335 0.033607095 0.81165832
0.07120239 0.032948602 0.81213045
-0.020643333 0.037889387 0.8144567
-0.017735232 0.037949916 0.81169176
0.067031674 0.037790824 0.81235003
0.071199313 0.036345907 0.81382227
-0.020639468 0.04091173 0.81430429
-0.017571151 0.042349391 0.8128165
-0.014487731 0.04370898 0.81000018
0.067153841 0.042550791 0.8130585
-0.016056655 0.047649175 0.8129499
-0.014007539 0.048056941 0.81132239
0.064087681 0.048245389 0.81026691
0.067198209 0.047443666 0.81297588
0.070530452 0.048519034 0.81486684
-0.012592907 0.052729588 0.81300956
-0.0093625356 0.053112023 0.81093347
0.062472027 0.052890748 0.81216669
0.067414813 0.050734006 0.81393343
-0.011518318 0.056772754 0.8136667
-0.0086561888 0.057599336 0.81198341
0.059005477 0.057644207 0.81102687
0.061680201 0.057130255 0.81338334
-0.0067663426 0.061778739 0.81232506
-0.0039169751 0.06411396 0.81080019
0.058547545 0.062698275 0.81200838
0.061366826 0.061358813 0.8142668
-0.0059580915 0.065641217 0.81415564
-0.0026641858 0.068054788 0.81283331
0.053553596 0.069403693 0.81093347
0.056882244 0.067550845 0.81284451
-0.0015035291 0.07238543 0.81392002
0.0016285703 0.072965324 0.81138903
0.0051572081 0.07393527 0.81100023
0.052526664 0.072708987 0.81174296
0.055647291 0.072307527 0.81390005
0.0026440443 0.076675206 0.81338882
0.007224129 0.077427514 0.81166685
0.044497494 0.079996027 0.81126672
0.048038986 0.077498622 0.81144458
0.051917423 0.07630267 0.81372005
0.0079270685 0.082244746 0.81314546
0.012505235 0.083430298 0.81111443
0.017255668 0.084109955 0.8109169
0.022547442 0.084481679 0.81086695
0.027822319 0.084426105 0.81033349
0.032378476 0.084483989 0.81088907
0.038013663 0.083447091 0.81127632
0.042544227 0.083138868 0.81247413
0.047654372 0.080215164 0.8134889
0.0097298473 0.086315289 0.81393343
0.01275658 0.087012254 0.81336665
0.01751879 0.087308511 0.81310475
0.022581922 0.087636232 0.81213337
0.027863152 0.0875699 0.81151855
0.032465186 0.087735586 0.81305188
0.03704197 0.08704441 0.81366664
0.041616887 0.086334132 0.81411123
0.023385322 0.090835162 0.81373334
0.027940959 0.090840131 0.81377774
-0.026830753 0.023973523 0.81781673
-0.026423555 0.027209653 0.81872833
-0.023345342 0.027335495 0.8159799
-0.027387196 0.030494325 0.81930012
-0.023015782 0.03196032 0.81777269
-0.022577448 0.037162874 0.81847346
0.069041789 0.038683634 0.81523359
0.071441047 0.03874778 0.81657737
-0.021241369 0.042615313 0.81794983
0.069089785 0.040986877 0.81580025
0.071271062 0.042837877 0.81638813
-0.020775383 0.045755353 0.8196668
-0.01839493 0.047056001 0.81577605
0.071479991 0.046724461 0.8152982
-0.017291766 0.051338986 0.81752515
-0.014592066 0.053888433 0.81583351
0.064506888 0.053871065 0.81556678
0.067274369 0.05283184 0.81592113
0.070541985 0.050043017 0.81500024
-0.01308143 0.057726242 0.81645346
0.064074859 0.05812531 0.81779993
0.066354468 0.056423936 0.81959999
-0.011138966 0.062146258 0.8175143
-0.0085013928 0.063718811 0.81540018
0.062756047 0.062744312 0.81751674
-0.010066781 0.06628859 0.81903344
-0.0072148792 0.067766711 0.81718105
-0.0039375885 0.069757454 0.81506705
0.059166431 0.068263359 0.8153336
0.061057698 0.067898899 0.8182534
-0.0065736426 0.072031446 0.81875241
-0.0035636611 0.073289163 0.81640017
0.057901971 0.073247164 0.81678677
0.060245126 0.072438508 0.81966674
-0.0022371481 0.077442214 0.81815845
0.0011300017 0.078409396 0.81568903
0.052734707 0.078546211 0.81580019
0.056583494 0.077326849 0.81722862
-0.00090169965 0.080758579 0.81900012
0.0023385326 0.081954636 0.81762505
0.0056925062 0.083442084 0.81544465
0.044742491 0.084988721 0.81573331
0.047779169 0.082702957 0.81563354
0.052282445 0.081956103 0.81764174
0.055606984 0.081510901 0.81890005
0.0036804366 0.086848676 0.81895566
0.0072779623 0.08795663 0.81766677
0.012803906 0.089614175 0.81640005
0.016592614 0.089515403 0.8155002
0.037126739 0.089519083 0.81553364
0.042759456 0.088621475 0.81657785
0.04780915 0.087356269 0.81851518
0.051559057 0.085867457 0.81928897
0.0092820851 0.091940977 0.81908894
0.012838385 0.092902169 0.81860012
0.017395476 0.09277913 0.81751126
0.022134628 0.093053311 0.8165834
0.027601138 0.093539782 0.81657153
0.032604937 0.092671208 0.81656307
0.03718188 0.09269163 0.81674814
0.042360112 0.092669509 0.81777579
0.014375097 0.096009165 0.81913352
0.017814394 0.096400127 0.81921685
0.022396149 0.096392304 0.81915021
0.027666707 0.097231001 0.81915343
0.032686576 0.097471774 0.8186149
0.037253618 0.097437553 0.818326
0.041667696 0.097307324 0.81883353
0.033493176 0.1006459 0.81966674
0.038088478 0.10067046 0.81986666
-0.03010584 0.032202058 0.824
-0.026980219 0.032392632 0.82236028
-0.025838645 0.036742736 0.82268751
-0.023895947 0.037726477 0.82183981
-0.023180453 0.042912483 0.8236286
0.072557136 0.041228037 0.82059997
-0.0208058 0.047349311 0.8208667
-0.017762683 0.051985044 0.8217333
0.07121522 0.05205112 0.82277781
-0.016261743 0.055916473 0.8233335
-0.014693422 0.0588478 0.82149994
0.067079037 0.0576257 0.82223701
-0.014098403 0.063045301 0.82245332
0.064941905 0.062635101 0.82106656
0.066681914 0.062830791 0.82364458
-0.012411089 0.067326233 0.8224082
0.063434653 0.067242421 0.82137752
0.065525562 0.067039117 0.82358336
-0.010728178 0.071647808 0.82283992
-0.0081759738 0.073693275 0.82089984
0.062396739 0.072325788 0.82210463
0.065247744 0.070601925 0.82493347
-0.010125369 0.075102203 0.82380003
-0.0068244925 0.077615313 0.82259041
-0.0039662514 0.079428576 0.8209998
0.058804762 0.078655913 0.82089996
0.060921714 0.077388123 0.82365
-0.0055172932 0.082015038 0.82396674
-0.0026307562 0.082767971 0.82192487
0.00062676432 0.083942018 0.8203333
0.054178786 0.083948836 0.82039994
0.05761056 0.082588337 0.82204437
-0.0015216052 0.087016225 0.82342672
0.0013932459 0.087110348 0.82142204
0.053253476 0.087663822 0.82184434
0.055942744 0.087367475 0.82384443
0.0026041905 0.091737688 0.82377148
0.0067500197 0.093155071 0.82083321
0.044983812 0.094600819 0.82013315
0.048258919 0.092891827 0.82119977
0.052464455 0.092021309 0.8228296
0.0081300428 0.097637929 0.82286662
0.012690502 0.097990461 0.82136643
0.017157998 0.09863656 0.82070649
0.021748167 0.098628625 0.82063979
0.025877018 0.09922599 0.82053316
0.043464858 0.099201798 0.82033324
0.0472311 0.097844914 0.82291514
0.052132584 0.095851839 0.82433343
0.013306441 0.10155328 0.82393342
0.01770868 0.10242088 0.82320005
0.022098513 0.10250046 0.82230353
0.0274268 0.10235235 0.82112193
0.032560624 0.10276516 0.82093316
0.037172969 0.10281826 0.82135212
0.042042024 0.10251483 0.82241464
0.045217853 0.10122711 0.82440007
0.019092413 0.10589624 0.82493347
0.022662604 0.10682902 0.82423347
0.027490539 0.10718346 0.82302767
0.032668598 0.10698599 0.82297492
0.037484456 0.106466 0.82340002
0.041752089 0.10619428 0.82426673
0.026784977 0.11049977 0.82493347
-0.028603744 0.033775799 0.82500005
-0.027540062 0.037770625 0.82604772
-0.026321165 0.043026056 0.82580012
-0.024020143 0.04457837 0.82611114
-0.025526471 0.046053071 0.82500005
-0.022946861 0.047926255 0.82704979
-0.021379216 0.052014459 0.82825959
-0.018891595 0.053305119 0.82639998
0.069868922 0.053726364 0.82499999
0.071696073 0.05394344 0.82833332
-0.021032222 0.057126138 0.82980001
-0.018075708 0.057527434 0.82725
0.068424158 0.058410641 0.82613343
0.070813164 0.056752373 0.82884425
-0.017722281 0.062288005 0.82774812
0.068420492 0.063016839 0.82608885
0.071167842 0.062650576 0.82937419
-0.016343385 0.066200994 0.82746661
-0.014787024 0.068449706 0.82673335
0.067887023 0.06801796 0.8270933
0.070264153 0.068691932 0.82966685
-0.013512927 0.072344564 0.82731122
0.067224614 0.072591916 0.82794189
0.070753403 0.072008729 0.8293559
-0.011717507 0.076988816 0.8276096
-0.0078356415 0.079847835 0.82533348
0.063270703 0.077263728 0.82724011
0.065558851 0.076335773 0.82886684
-0.010570259 0.081314027 0.82853341
-0.0075239553 0.083331302 0.82724768
0.059232209 0.084610559 0.82686657
0.062054057 0.082466498 0.82850015
-0.0059337262 0.087468222 0.82843351
-0.0036086463 0.088052452 0.82668334
0.058511693 0.087761544 0.82756686
0.060999695 0.08646819 0.82993346
-0.0020146656 0.092143513 0.8274191
0.0006309154 0.092946663 0.82576674
0.054486979 0.093635045 0.82506669
0.057529327 0.092157528 0.82730007
0.060999699 0.091099702 0.82993346
-0.0014281273 0.096117176 0.82882231
0.0021732326 0.096939363 0.82705921
0.0057643428 0.099353671 0.82582217
0.049931142 0.09989512 0.82606667
0.053211559 0.097986907 0.82616669
0.057012126 0.097073637 0.82821131
0.0032095872 0.10075065 0.82888907
0.0075773452 0.10317918 0.82775003
0.012648565 0.10389904 0.82613337
0.016017985 0.10437855 0.8250668
0.047103066 0.10329256 0.82711673
0.052478001 0.10273488 0.82868499
0.056826413 0.10079657 0.82926697
0.0088789044 0.10744805 0.82901138
0.01297853 0.10776908 0.82752585
0.017388482 0.10779368 0.82624167
0.021148248 0.10847715 0.82511121
0.034485888 0.10899166 0.82513344
0.037613019 0.1091355 0.82622218
0.042562846 0.10856917 0.8265866
0.046566468 0.10772111 0.82884783
0.013227376 0.11218499 0.82928604
0.017616684 0.11243979 0.82791114
0.022222204 0.11230465 0.82691836
0.027671725 0.11236692 0.82634538
0.03301267 0.11228453 0.82677025
0.037664302 0.11236268 0.82734799
0.042326018 0.11244851 0.8279779
0.045503069 0.11112491 0.82960004
0.018676145 0.11621615 0.8292225
0.022457667 0.11695016 0.82850021
0.027200103 0.11694463 0.82818669
0.032530829 0.11732367 0.82878804
0.037737414 0.11720707 0.82895589
0.041947525 0.117024 0.82921928
0.02384972 0.12042293 0.82986683
0.026935933 0.12038101 0.82957792
0.033135992 0.12042292 0.82986689
0.039323684 0.12041325 0.82980019
0.040874563 0.12042292 0.82986677
-0.026258588 0.049018245 0.83190483
-0.02577658 0.051928621 0.83308345
-0.023546675 0.052890111 0.83114159
-0.025774 0.057346426 0.83300006
-0.022826066 0.057254389 0.83166003
0.072915353 0.058203649 0.83048886
-0.022208942 0.061730746 0.83241498
-0.019500297 0.064123943 0.83046675
0.072947659 0.06286595 0.83085918
0.075026527 0.061846208 0.83100015
-0.021459443 0.067064479 0.83436859
-0.018178588 0.06830059 0.83193976
0.072358385 0.06779784 0.83086669
0.075026534 0.06725657 0.83100003
-0.02115896 0.071446344 0.83480006
-0.018016867 0.072882921 0.8334592
-0.01486811 0.074236564 0.83126694
0.072412081 0.072892882 0.83063769
-0.026550777 0.07826522 0.83300006
-0.018038649 0.07646586 0.83449984
-0.01437183 0.07743118 0.83237791
0.067748688 0.077557743 0.83134282
0.072046317 0.077432945 0.8323704
-0.012090864 0.082669489 0.83210671
0.064146861 0.08267504 0.83059996
0.067262068 0.081964821 0.83319163
0.070676289 0.080737881 0.83453315
-0.010767065 0.086873703 0.83382225
-0.0078943102 0.088178322 0.83149999
0.062962137 0.087938495 0.83085918
0.066440344 0.087094247 0.83345556
-0.0066887392 0.092541046 0.83298099
-0.0040119854 0.093475595 0.83046675
0.059461422 0.094202481 0.83006674
0.06287723 0.093037695 0.83172506
0.0659886 0.0923554 0.83429998
-0.0055850693 0.097763278 0.8340888
-0.002986382 0.09803956 0.83205557
0.059517127 0.097381763 0.83084434
0.061668262 0.097332209 0.83373338
-0.0019553755 0.10187203 0.83385557
0.0016683773 0.1026234 0.83156663
0.058528453 0.10261083 0.83146662
0.061328012 0.10090288 0.83439982
0.0021889505 0.10697225 0.83331096
0.0063210637 0.10879663 0.83145553
0.048644338 0.10891534 0.83039999
0.05250483 0.10764783 0.831159
0.057909161 0.10651332 0.8331809
0.061372124 0.10563518 0.8349998
0.003749246 0.11019814 0.83426654
0.0082303258 0.11279522 0.8330667
0.012259402 0.11441331 0.83106661
0.047331788 0.11307014 0.83113331
0.05171093 0.11275118 0.83346671
0.05510335 0.11099233 0.83439994
0.0092022438 0.11649871 0.8349331
0.013285367 0.11733014 0.83295238
0.017175555 0.11807954 0.8314777
0.020774312 0.11899376 0.83066666
0.044012368 0.11822151 0.83066672
0.047262106 0.11782457 0.83331847
0.050463039 0.11648942 0.83486658
0.014653536 0.12116785 0.83499974
0.018191248 0.12235876 0.83403796
0.022169147 0.12249917 0.83216679
0.026971893 0.12286208 0.83069998
0.03214195 0.1226249 0.83083707
0.037661541 0.12240748 0.83154166
0.042755712 0.12256086 0.83258337
0.045769997 0.12109042 0.8344667
0.022733884 0.12635425 0.83437318
0.027051501 0.12632526 0.83315557
0.032182846 0.12631352 0.83380955
0.037988868 0.12574719 0.83446652
0.041897826 0.12580246 0.83483309
-0.026614528 0.052824333 0.83500004
-0.025900859 0.05763036 0.83710003
-0.02432647 0.063045099 0.8366465
-0.023563189 0.067759253 0.83722168
-0.027188912 0.073510483 0.83557141
-0.023117606 0.073000088 0.83678365
-0.025835885 0.076123253 0.83500004
-0.022582375 0.077676058 0.83707786
-0.018068155 0.078689173 0.83585179
-0.014936077 0.079236113 0.83506674
0.075455382 0.076968253 0.83575004
-0.022834606 0.081187673 0.83918256
-0.018121405 0.08188206 0.8382957
-0.014459782 0.082591772 0.83757782
0.069169573 0.083902948 0.83513325
0.072611146 0.082694307 0.83665001
-0.012393943 0.087375529 0.83864444
0.068922065 0.087579206 0.83685005
0.07220529 0.086214319 0.83872527
-0.010285973 0.091862164 0.83686656
-0.008713387 0.093291797 0.83573323
0.067786351 0.092215829 0.83727169
-0.010308303 0.097521797 0.83868349
-0.0079431161 0.098061025 0.83663327
0.063986644 0.098368056 0.83660001
0.066363864 0.098343588 0.83904457
-0.0069502657 0.10241834 0.83772373
-0.0035180859 0.10365554 0.83573318
0.062807016 0.10274925 0.83680445
-0.0056175105 0.10691354 0.83893347
-0.0024836073 0.10743263 0.83689624
0.059129 0.10891103 0.8362999
0.062307335 0.1074577 0.83709693
-0.0014445143 0.11127932 0.83851117
0.0020046129 0.11233456 0.83716661
0.00531025 0.11341053 0.83506638
0.052032564 0.1149639 0.8350665
0.057285424 0.1123445 0.8370381
0.060623158 0.11134377 0.83900017
0.003143097 0.11671706 0.83873349
0.0070512295 0.11739524 0.83639985
0.011554964 0.1197928 0.83624429
0.052331671 0.11791752 0.83673328
0.056747455 0.11680989 0.83855844
0.00729211 0.12137282 0.83910018
0.012354409 0.12310548 0.83761328
0.016230889 0.12365112 0.83603323
0.047630887 0.12312068 0.83639169
0.052234754 0.12268751 0.8383038
0.056209844 0.12101135 0.83930016
0.014189943 0.12684643 0.8383112
0.01781957 0.12775998 0.83747411
0.022092728 0.12879002 0.83658338
0.027165899 0.12919146 0.83666658
0.033092149 0.12887044 0.83659995
0.038073387 0.12836118 0.83632213
0.042979237 0.12804154 0.83640951
0.047338307 0.12748654 0.83860958
0.051517915 0.12648559 0.83936685
0.019419516 0.13112292 0.83906674
0.022528423 0.13178708 0.83832222
0.02701671 0.13233611 0.83809161
0.031904552 0.13209791 0.83817148
0.03739085 0.131816 0.83850849
0.042881873 0.13187043 0.83885574
-0.026037 0.062628582 0.84150004
-0.026067942 0.066620573 0.84250003
-0.022103157 0.082938887 0.84111118
-0.017400999 0.084518187 0.84125721
-0.016036207 0.087283351 0.84377605
-0.013487606 0.08849518 0.84186667
0.07212688 0.088550389 0.84239292
-0.015106987 0.092711963 0.84462214
-0.012705959 0.09242817 0.84203333
0.069596305 0.092236049 0.84028572
-0.015100572 0.09738452 0.84426355
-0.012706935 0.097135663 0.84210461
0.068846591 0.097507104 0.84259999
0.071551442 0.097453728 0.84486663
-0.015627449 0.10105947 0.84435457
-0.011933378 0.10167547 0.84294456
-0.0079848701 0.10482982 0.84099996
0.064939775 0.10403144 0.84086651
0.067447729 0.10191861 0.84280002
-0.0072154701 0.10817075 0.84265327
0.064133167 0.10790226 0.84056664
0.066103265 0.10767885 0.84370708
-0.006045246 0.11265981 0.84398335
-0.003022067 0.11332806 0.84214449
0.062414814 0.11331437 0.84204441
0.065243527 0.11158947 0.84479988
-0.0056581334 0.1171174 0.84499991
-0.0025034819 0.11770223 0.84355569
0.0010344541 0.1177247 0.84091651
0.058699403 0.11895674 0.84133327
0.061764129 0.11742631 0.84298325
-0.0015597881 0.12219495 0.84424001
0.0022143978 0.1222617 0.84253353
0.006129466 0.12276981 0.8406499
0.057775319 0.12274788 0.84157336
0.061091382 0.12216453 0.84402668
-0.00093032554 0.12576269 0.84499991
0.0024428763 0.12672143 0.84390491
0.006925703 0.12691359 0.84220004
0.011626241 0.1276768 0.84133327
0.047719512 0.12992238 0.84139979
0.05302177 0.12733775 0.84086657
0.056741845 0.12655938 0.84332228
0.0073974724 0.13179019 0.84477133
0.012227857 0.13195942 0.84350318
0.017712455 0.13328615 0.84163332
0.022593342 0.13451122 0.84073323
0.028854514 0.13445789 0.84039992
0.031989478 0.13445789 0.84039986
0.03747968 0.13447389 0.84049988
0.042985756 0.1345361 0.84088868
0.047788672 0.13246085 0.84260845
0.051656224 0.13160984 0.84418666
0.013055372 0.13616957 0.84495819
0.017950268 0.13810696 0.84358525
0.022643898 0.13794667 0.84260762
0.027321585 0.13775988 0.84146661
0.03201779 0.13770716 0.84114796
0.037524104 0.13776334 0.84148878
0.043088786 0.13799399 0.84289646
0.047586225 0.13638659 0.84459984
0.018765848 0.1414589 0.84486657
0.023005227 0.1419961 0.84431994
0.027619017 0.14238469 0.84369528
0.03210498 0.14279076 0.84344459
0.037392247 0.14263342 0.8433578
0.042380184 0.14295922 0.84444159
0.032948431 0.14617956 0.84489989
0.036102697 0.14619109 0.84496653
-0.021417487 0.084894218 0.84500003
-0.022025548 0.087843299 0.8481667
-0.018302651 0.0884789 0.84670705
-0.021518871 0.090823643 0.84900004
-0.018474091 0.092686526 0.84726572
0.07172256 0.093589023 0.8468734
-0.017505502 0.097624369 0.84633684
0.072857916 0.097619504 0.84630001
0.075862616 0.097934097 0.8490268
-0.015953371 0.10331349 0.84780443
-0.012788477 0.10406411 0.84750462
0.068475612 0.10385482 0.84579986
0.072508566 0.10240766 0.84683895
0.076627113 0.10263523 0.84872812
-0.010826857 0.10697071 0.84866685
-0.008835027 0.10878025 0.84740013
0.068625189 0.10723533 0.84764773
0.071899317 0.1064559 0.84897357
0.075082988 0.10663798 0.84916699
-0.0080471179 0.11272946 0.84748346
0.06715811 0.11241482 0.84657502
0.070345692 0.11218826 0.84933352
-0.0067211781 0.11811718 0.84653348
0.0637182 0.11954115 0.84546661
0.066856727 0.11710408 0.84775436
-0.0063127344 0.12212868 0.84814692
-0.0036924982 0.12314358 0.84590006
0.063421719 0.12326991 0.84676671
0.066343114 0.12158915 0.84878355
-0.0021989606 0.12744552 0.84782684
0.0014339972 0.12897751 0.84546649
0.058490086 0.12851445 0.84586662
0.061860051 0.12752765 0.84777153
0.0031778351 0.13221031 0.84804022
0.0053810477 0.13302529 0.84619999
0.053907812 0.13262671 0.84616667
0.057153244 0.13234305 0.8483144
0.0038184533 0.13594045 0.84966695
0.0071693682 0.13702801 0.84783351
0.011296012 0.13811061 0.84601665
0.049022306 0.13794781 0.84582216
0.052825734 0.13721617 0.84777796
0.056089513 0.13588709 0.84933358
0.0085696829 0.1406379 0.84940034
0.0127162 0.14175588 0.84749091
0.017997582 0.14345282 0.84581107
0.022318278 0.1442548 0.84513319
0.026652753 0.14464781 0.84513319
0.044805355 0.14394738 0.84563327
0.048034675 0.14180677 0.84694088
0.051843952 0.14109458 0.84897804
0.01371718 0.1457675 0.84936696
0.017825535 0.14722686 0.84834307
0.022771511 0.14798228 0.84734184
0.027497966 0.14810322 0.84690374
0.031982858 0.14842078 0.84615237
0.037191074 0.1485146 0.84668583
0.042306527 0.14802101 0.84725469
0.047510259 0.14623488 0.84886682
0.019134963 0.15068059 0.84960026
0.022817098 0.1512381 0.84903371
0.027966503 0.1520458 0.84913355
0.032301452 0.15313679 0.8486076
0.037049007 0.15313366 0.84859288
0.041289993 0.15268229 0.84901136
0.045004942 0.15011822 0.84940028
0.073683955 0.091860287 0.8513
0.077112101 0.092164233 0.85410607
0.077038743 0.096203506 0.85328609
-0.017861335 0.10393494 0.85075003
-0.016841041 0.10628941 0.85270947
-0.012858905 0.10781316 0.85220897
0.072055243 0.10882353 0.85081667
0.076427616 0.10804456 0.85091162
-0.010885574 0.11230867 0.85324168
-0.0088715153 0.11397807 0.85089993
0.072337136 0.11251402 0.85178888
0.075949796 0.11161087 0.85296673
-0.010506801 0.11689016 0.85483354
-0.0088737169 0.11717276 0.85111099
0.068839945 0.11864287 0.85029995
0.071217984 0.11700231 0.85217506
-0.008498285 0.12261084 0.85315001
0.068565823 0.12242115 0.85181665
0.070631929 0.12137029 0.85278928
-0.0065078754 0.12615919 0.85300004
-0.0033194281 0.12909059 0.8513999
0.064093761 0.12894717 0.85045004
0.066483967 0.1265789 0.85261333
-0.00093962834 0.13257748 0.85345
0.001047131 0.13343553 0.85132498
0.059308723 0.1336326 0.85006678
0.062469508 0.13304186 0.8526125
0.065923162 0.1302183 0.85359997
-0.00094085769 0.13592976 0.85456681
0.0020411741 0.13819385 0.85259581
0.0054111471 0.13930893 0.85093325
0.058012031 0.13799711 0.85137916
0.062252417 0.13746057 0.85420012
0.0027001973 0.14277665 0.85409057
0.006802496 0.14274517 0.85136241
0.010165779 0.14396735 0.85040003
0.053542119 0.14298023 0.85080004
0.057754081 0.14269558 0.85343337
0.0038418227 0.14631373 0.8548668
0.0072166962 0.14745817 0.85343337
0.01196312 0.14790267 0.85142499
0.04905938 0.14803134 0.85102499
0.052969899 0.14743307 0.85328752
0.056406509 0.1461882 0.85413337
0.0086187813 0.1517731 0.8542667
0.01279005 0.15210201 0.85246366
0.01757898 0.15250619 0.85096651
0.022862481 0.15351491 0.85071111
0.026832929 0.15353997 0.85084987
0.043458283 0.15341064 0.85013348
0.046762966 0.15225868 0.85253918
0.050829217 0.15094885 0.85410011
0.014194086 0.15573958 0.85423338
0.018490823 0.15633292 0.85400009
0.022930034 0.15714628 0.85323334
0.027686793 0.15705334 0.85272956
0.032439668 0.15775549 0.85224444
0.037174348 0.15761144 0.85146672
0.042168327 0.15713499 0.85210001
0.046022311 0.15720727 0.85356683
0.023770142 0.16061941 0.85483348
0.027744116 0.16055469 0.85448903
0.032914445 0.16090417 0.85423338
0.037282772 0.16085103 0.85395008
0.042101976 0.16061105 0.85478908
-0.016939448 0.10849103 0.85757405
-0.013704652 0.10980899 0.85541397
-0.015759761 0.11143278 0.85872352
-0.012925257 0.11314587 0.85658348
0.075645089 0.11459742 0.85552388
-0.012406737 0.117512 0.85745567
0.073766716 0.1183653 0.85686922
0.075889461 0.11736348 0.85828751
-0.010943099 0.12247484 0.85775006
0.072907425 0.12339991 0.85771126
-0.010563339 0.12711179 0.85943341
-0.0078728218 0.128114 0.85722238
0.06889455 0.12778316 0.85590023
0.072076015 0.12715025 0.85861337
-0.0062856949 0.13156497 0.85893339
-0.0035047394 0.13279387 0.85792005
0.067979462 0.13251956 0.85692513
0.071179442 0.1311031 0.85940003
-0.0025477752 0.13734047 0.85842675
0.064496949 0.13771792 0.85580027
0.067042157 0.1372305 0.85772234
-0.0015850026 0.14161453 0.85722685
0.00065386202 0.14408582 0.85580027
0.059713371 0.1448928 0.85586703
0.063177757 0.14206867 0.85683358
0.067157388 0.14066227 0.8592
-0.00094526191 0.14614958 0.85856664
0.0022525049 0.14803833 0.85717791
0.0054408228 0.14962238 0.85560024
0.054929044 0.14968067 0.85593373
0.058152799 0.14790009 0.8563779
0.061879352 0.14649221 0.85823339
0.0033268239 0.15183108 0.85908896
0.0067786612 0.15300065 0.85668904
0.01022714 0.15438512 0.8555336
0.048532393 0.1544212 0.85573369
0.052340128 0.15307805 0.85600859
0.057512358 0.15176725 0.85873342
0.0070651062 0.15610407 0.85915565
0.012122343 0.15800376 0.857889
0.016887592 0.15874894 0.85617787
0.048592344 0.1578006 0.85679024
0.051308949 0.15743214 0.85767788
0.055172939 0.15514301 0.85973352
0.018085998 0.16251969 0.85833335
0.022796739 0.16303201 0.85676193
0.027805636 0.16329975 0.85637802
0.032262057 0.16337673 0.85594684
0.037372351 0.1633869 0.85600024
0.042177033 0.16328719 0.85631126
0.04684468 0.16255206 0.85768336
0.050354883 0.161515 0.85960013
0.023319919 0.16738263 0.85922867
0.027893053 0.1678068 0.85905933
0.032684185 0.16772906 0.85865933
0.037489697 0.16773443 0.85868889
0.042315457 0.16781655 0.85911113
0.032732747 0.17117554 0.8599335
0.035940323 0.17117554 0.8599335
0.042352188 0.17116228 0.8598668
-0.020217251 0.10892445 0.86100006
-0.02067586 0.11283949 0.86337507
-0.017971514 0.11246209 0.86110532
-0.020304466 0.11582848 0.86471432
-0.017042117 0.1171796 0.86281013
-0.013779191 0.1184057 0.86006671
-0.017060148 0.12212165 0.86371505
-0.013146 0.12264156 0.86060011
0.074442729 0.12160551 0.86006677
0.076723047 0.12164175 0.86315918
-0.020281823 0.12533976 0.86375004
-0.01706201 0.1271829 0.86379576
-0.01265388 0.12774839 0.86141908
0.073728003 0.12895788 0.86108339
0.077137567 0.12687869 0.8632912
-0.016255604 0.13096702 0.86377627
-0.012212215 0.1315991 0.86265004
-0.007910043 0.13353594 0.86133891
0.073193818 0.13328475 0.86187506
0.077044725 0.13219418 0.86354297
-0.0068498105 0.13747568 0.86260557
-0.0041567544 0.13846351 0.86043334
0.069675617 0.13769408 0.86062223
0.072588548 0.13760962 0.86344457
0.077217922 0.13585451 0.86420006
-0.0057878122 0.1415081 0.86436683
-0.0036292456 0.14273906 0.86208898
0.068168357 0.1429671 0.86185008
0.07082174 0.14319026 0.8648169
-0.0020235039 0.14769983 0.86296672
0.064267814 0.14773265 0.86128008
0.067119524 0.14745426 0.86387515
-0.00095201429 0.15121374 0.8647002
0.0013005572 0.15262571 0.8617667
0.058501985 0.15386525 0.86153328
0.061961673 0.15257281 0.86215007
0.065668561 0.15166412 0.86421126
0.0025872085 0.15627316 0.86243999
0.0066858013 0.1583313 0.86185008
0.010280537 0.15839069 0.86000019
0.053615198 0.15847664 0.86046672
0.057120189 0.15733561 0.86188334
0.061341405 0.15694858 0.86380011
0.0077487626 0.16168343 0.86391342
0.011679923 0.16240393 0.86189049
0.015899863 0.16404712 0.86030018
0.04883112 0.1649814 0.861
0.052531656 0.16209911 0.86148566
0.056565825 0.16201985 0.86350489
0.012474068 0.16659936 0.86385012
0.017533001 0.16754481 0.86182678
0.022311537 0.16960219 0.86006677
0.047051411 0.16807753 0.86147505
0.051665749 0.16656001 0.8636446
0.055491664 0.16569029 0.8647002
0.018369297 0.17184521 0.86329538
0.02315188 0.17309342 0.86151117
0.027944932 0.17292199 0.86065936
0.032761343 0.17338254 0.86067623
0.037780982 0.17314379 0.86076677
0.042414058 0.1732142 0.86111671
0.047517121 0.17251529 0.86263341
0.050636038 0.17045666 0.86440009
0.022947818 0.17706072 0.8639335
0.02819567 0.17784022 0.86219168
0.032826539 0.17807931 0.86237782
0.037483059 0.17803667 0.86314172
0.042207964 0.17734163 0.86347342
0.046325296 0.17630774 0.86417788
0.028046524 0.18105036 0.86380023
0.032875556 0.18155752 0.86366367
0.037741456 0.18091878 0.86445016
0.040974412 0.18015306 0.8646335
-0.021321978 0.1180331 0.86673003
-0.020739062 0.12204184 0.86600691
-0.020405099 0.12771809 0.86900002
-0.017092865 0.12638599 0.86541331
-0.017127186 0.13228825 0.8671667
-0.013074744 0.13379639 0.86648893
-0.011645597 0.1366681 0.86834413
-0.0090382965 0.1386971 0.86689657
0.074878402 0.13840966 0.8651002
0.077598847 0.13792928 0.86545157
-0.0074288854 0.14165804 0.86774176
0.073033847 0.14236742 0.86714172
0.076356806 0.14091718 0.86815184
-0.0058215158 0.14637552 0.86940002
-0.0037831129 0.14751518 0.86660004
0.06849061 0.14901334 0.86593342
0.070799381 0.14691846 0.86783344
-0.0025759505 0.15263584 0.86821669
0.067284182 0.15355429 0.86702013
0.070340365 0.15112865 0.86883342
-0.0017667159 0.15677337 0.86876667
0.0022756017 0.15897436 0.86608905
0.063230835 0.15925686 0.86762232
0.066753693 0.15705565 0.86853999
0.0026864996 0.16152664 0.8682583
0.0063235825 0.16376911 0.86730009
0.058774717 0.16343859 0.86555016
0.061204202 0.16276094 0.86794674
0.065516904 0.16010965 0.86933339
0.0039083352 0.16502428 0.86966676
0.007682154 0.16750543 0.86855
0.010899179 0.16876487 0.86672235
0.053428233 0.16864406 0.86610007
0.057516761 0.16811533 0.86787093
0.061480392 0.16581382 0.86956668
0.0087724719 0.17227134 0.86950004
0.011995362 0.17280667 0.86812228
0.015613399 0.17292131 0.86667508
0.052611232 0.17279297 0.86704177
0.056322608 0.17194651 0.86922216
0.013229936 0.17750104 0.86936665
0.016856302 0.17768584 0.86829257
0.020591078 0.17837922 0.86643344
0.044238709 0.17870292 0.86540014
0.048179429 0.17798233 0.86659348
0.051567473 0.17755345 0.86922663
0.01768785 0.18113229 0.86933327
0.022741091 0.1823553 0.86815149
0.027787274 0.18373373 0.86825001
0.033078611 0.18430007 0.86901993
0.038213935 0.18341254 0.86787337
0.042946272 0.18263416 0.86781669
0.047169082 0.18232438 0.86840481
0.023358898 0.18595512 0.86919999
0.028220782 0.18594559 0.86915547
0.041225564 0.18611206 0.86993331
-0.017203212 0.13449295 0.87100005
-0.015620518 0.13647781 0.87333339
-0.013152475 0.13864261 0.87161994
-0.012155726 0.14272541 0.87303275
-0.0085433535 0.14373332 0.87135553
0.077087283 0.14354166 0.87183207
-0.010751804 0.14646523 0.87476659
-0.007933815 0.14790259 0.87227613
0.073175147 0.14789903 0.8717066
0.076226287 0.14694433 0.87438887
-0.0072698006 0.15241629 0.87273335
-0.0042061931 0.15387678 0.87066674
0.072291277 0.15263087 0.87280667
-0.0062563475 0.15721089 0.87344158
-0.0038014492 0.15756661 0.87091678
0.068867654 0.15793207 0.87070018
0.071497597 0.15754777 0.87305564
-0.0016127169 0.16204777 0.87279999
0.0012066321 0.1630799 0.87080008
0.063971549 0.16272882 0.87036681
0.067544691 0.16241686 0.87195003
0.070780277 0.16183181 0.87426662
0.0022951157 0.16735052 0.87336189
0.0063457694 0.16919169 0.87030011
0.062949352 0.16747414 0.87118906
0.066634603 0.16734852 0.87334985
0.0039288579 0.17158264 0.87423325
0.0066230469 0.17262109 0.87126684
0.057921458 0.17336163 0.87091684
0.062493186 0.17203097 0.87237763
0.065879911 0.17156681 0.87414992
0.0078183375 0.17707305 0.87164003
0.011056891 0.17848691 0.87062681
0.053858224 0.17862047 0.87088352
0.057803854 0.17706555 0.87219995
0.062150948 0.17701653 0.8741048
0.008159196 0.18163775 0.87331325
0.012275034 0.18274872 0.87153339
0.016668113 0.18345866 0.87050492
0.02013544 0.18450791 0.87000006
0.049385026 0.1838609 0.87076676
0.052720819 0.18254109 0.87220001
0.05716252 0.18152177 0.87379986
0.061038993 0.18065782 0.87486672
0.012070094 0.18660796 0.87351662
0.017156975 0.18766661 0.87178099
0.021551719 0.18842998 0.87102872
0.027472248 0.18879421 0.87110794
0.033171572 0.18806052 0.87145996
0.038035832 0.18800589 0.87120748
0.043105446 0.18817087 0.87103343
0.047618803 0.18794553 0.8718667
0.052266221 0.18637198 0.87367767
0.017508993 0.19129355 0.87388879
0.021833083 0.19245481 0.87301105
0.02730738 0.19310069 0.87292725
0.033245329 0.19254059 0.87339991
0.038091782 0.19233961 0.8724888
0.042769931 0.19294544 0.87247491
0.047585975 0.19207573 0.87350655
0.022686157 0.19522646 0.87451661
0.027562674 0.19673687 0.87399995
0.032887205 0.1956742 0.87470001
0.037959851 0.19656216 0.87412488
0.043397199 0.19684081 0.87445992
0.047115158 0.19507761 0.87384987
-0.015703987 0.13884033 0.87800002
-0.015695691 0.14203204 0.87753612
-0.015724108 0.14555961 0.87912512
-0.012963347 0.14740445 0.87712544
0.078037508 0.14809723 0.87640518
0.081060976 0.14892198 0.87966675
-0.011201072 0.15148872 0.87794721
-0.0091391196 0.15491948 0.87656677
0.074200794 0.15403119 0.87615013
0.077877812 0.15239263 0.87811226
-0.01080603 0.15538113 0.8791784
-0.0083288141 0.15830244 0.87724173
0.074182428 0.15806639 0.87593341
0.077425405 0.15727885 0.87732977
-0.0071156174 0.16188234 0.87895823
-0.0036874032 0.16296549 0.87598896
0.073012933 0.16293132 0.8775667
0.078145549 0.16151379 0.87917382
-0.0023716923 0.16732652 0.87810957
0.00066960108 0.16956255 0.87640011
0.069311447 0.16791655 0.87631124
0.071988262 0.16680646 0.8790583
-0.0015153723 0.1718265 0.87964422
0.0018375082 0.17321698 0.87721443
0.068078928 0.17313088 0.8779611
0.071233653 0.17023322 0.87986642
0.0028552748 0.17763191 0.87868333
0.0055694184 0.1775976 0.87582237
0.064429708 0.17857012 0.87660003
0.066637278 0.17778389 0.87875819
0.0039511784 0.18155265 0.87919998
0.0059912237 0.18332615 0.8779
0.058915097 0.18353124 0.87563342
0.063114971 0.18318541 0.87819999
0.066305712 0.18167655 0.87979978
0.0082018618 0.18749617 0.87792665
0.011305654 0.18933082 0.87735003
0.0540995 0.18870986 0.87698895
0.057988569 0.18785627 0.87807775
0.06193183 0.18713665 0.87982202
0.0023131242 0.19314002 0.8798334
0.012467998 0.19188628 0.87858665
0.0163668 0.19312473 0.87678671
0.049645908 0.19297376 0.87536681
0.053115353 0.19289671 0.87872219
0.017263262 0.19759671 0.87872499
0.021698389 0.19786997 0.87695736
0.026398648 0.19839843 0.8759501
0.032322638 0.19779922 0.87600005
0.039853521 0.19868809 0.87543339
0.043112472 0.19865783 0.87530005
0.048313934 0.1977789 0.87655884
0.051530372 0.19637612 0.87966657
0.018178128 0.20190208 0.87997752
0.022189034 0.2025741 0.87904161
0.026887907 0.20266971 0.87857044
0.031823732 0.20279805 0.87912583
0.037021257 0.2023695 0.87797678
0.042878825 0.20235951 0.87722337
0.047903419 0.20198223 0.87761366
0.051524784 0.20289956 0.8795715
0.026931724 0.20627229 0.87999982
0.032675959 0.20627227 0.87999976
-0.015777847 0.14852035 0.88212943
0.081091695 0.14734145 0.88000005
-0.013480296 0.15300611 0.88245499
0.081122413 0.15231043 0.88033336
-0.011828979 0.15785228 0.8820197
0.081091695 0.1555263 0.88000005
-0.011680651 0.16267294 0.88324708
-0.0086415894 0.16342556 0.88139993
0.077832691 0.16376072 0.88026661
-0.010868569 0.16614978 0.88426673
-0.0069041653 0.16694812 0.88326675
-0.0042557898 0.16880091 0.88093317
0.074195951 0.16757423 0.88094151
0.077391714 0.16684854 0.88273335
-0.0034385761 0.17224398 0.88178325
0.072761074 0.17204818 0.88246
-0.0017958657 0.17734259 0.8826611
0.000672861 0.17857908 0.88066643
0.069277152 0.17743152 0.88106656
0.071553424 0.17675239 0.88381672
-0.00097293331 0.18083797 0.88370013
0.0018470598 0.18230797 0.88171893
0.0680888 0.18205324 0.88162661
0.0027900874 0.18744357 0.88273811
0.0055970438 0.18748271 0.88016641
0.064202137 0.18792434 0.8809554
0.067123711 0.18670852 0.88191998
-0.0017923547 0.19192657 0.88177788
0.0027297309 0.19201499 0.88219237
0.007044551 0.19211558 0.88170159
0.011753735 0.19445962 0.8802498
0.058196034 0.19262452 0.88121653
0.062257022 0.19183937 0.88288003
0.065032355 0.19093853 0.88480014
0.0023246633 0.19574825 0.88422233
0.0072541684 0.19690782 0.8820461
0.012185026 0.19766925 0.88178325
0.015454954 0.19987582 0.88066649
0.053588785 0.1976909 0.88114727
0.05712387 0.1957116 0.88158768
0.0067193736 0.20112897 0.88377231
0.012626124 0.20102839 0.88393342
0.016700447 0.20332494 0.88141668
0.020369971 0.20466642 0.88013309
0.040067494 0.20466642 0.88013303
0.048288044 0.20472257 0.88037497
0.052459739 0.2008841 0.88149881
0.055054124 0.20053242 0.88356
0.017796468 0.20724866 0.88276005
0.022037959 0.20737875 0.88122219
0.026964784 0.20898126 0.88106656
0.031890459 0.20813818 0.88096648
0.036803167 0.20722581 0.88057202
0.041769683 0.20742583 0.88142186
0.045851815 0.2064797 0.88088465
0.018827813 0.21068925 0.88480014
0.022291727 0.21173015 0.88313341
0.027022237 0.21270616 0.88292223
0.031702723 0.21171586 0.88335562
0.036505379 0.21074684 0.88331378
0.040211648 0.21033211 0.88330013
0.017178942 0.21564326 0.88486665
0.022944598 0.21554174 0.88445002
0.025415054 0.2155133 0.88433349
-0.015910489 0.15886803 0.88954544
-0.014208935 0.15756887 0.88689017
-0.014234632 0.16198665 0.88849401
-0.01279574 0.16763036 0.88713318
-0.0084156198 0.16820902 0.88644993
0.078335688 0.16893962 0.88595355
-0.011464369 0.17178059 0.88785976
-0.0078080166 0.1719573 0.88770819
-0.0042755967 0.17452556 0.88503337
0.074146077 0.1737448 0.88524997
0.077190533 0.17312324 0.88797331
0.080207363 0.17105541 0.88838333
-0.0066135959 0.17687662 0.88857317
-0.0042838096 0.17816029 0.88673311
0.072856911 0.17807247 0.88629991
0.076143824 0.17619392 0.88930011
-0.0059559941 0.18119442 0.88948333
-0.0026318412 0.18312065 0.88679516
0.071868978 0.18248008 0.88769436
-0.002634764 0.18771093 0.88770354
0.00067638833 0.18692589 0.88528347
0.068363599 0.18937816 0.88520008
0.0707599 0.18714666 0.88763332
-0.0059546167 0.19025055 0.88927776
-0.0030426502 0.19083849 0.88625193
0.00067820918 0.19485958 0.8876667
0.063461028 0.19447176 0.88589996
0.066906378 0.19294988 0.88774443
0.07033091 0.19023392 0.88920003
0.05777213 0.19891365 0.88733768
0.061619651 0.19723137 0.88793105
0.066184849 0.19602334 0.88920003
0.0083926385 0.20286874 0.88657969
0.01191863 0.20383389 0.88647985
0.057017319 0.20164765 0.88847369
0.0089727389 0.20598297 0.88935
0.012510433 0.20774759 0.88830942
0.015539579 0.20755972 0.88548893
0.012823408 0.21091305 0.88805538
0.017201815 0.2126368 0.88605702
0.020490317 0.21411006 0.88533336
0.032050129 0.21412006 0.88537484
0.03701669 0.21337505 0.88569796
0.018861149 0.21600883 0.88636667
0.020509603 0.21596007 0.88616663
0.027929254 0.215822 0.88559997
0.032100111 0.21610089 0.88674426
-0.012630364 0.17345476 0.89222264
0.080439515 0.17403579 0.89095455
-0.010974956 0.17774414 0.89292234
-0.0088713039 0.17729652 0.89068353
0.077543885 0.17789856 0.89204025
0.080675654 0.17787285 0.89357024
-0.010994983 0.18305863 0.89455175
-0.0081115346 0.18274044 0.89183837
0.073785678 0.1839617 0.89086688
0.077047199 0.18244067 0.89254653
-0.0074331574 0.18737896 0.89234596
0.07312268 0.18727911 0.89088023
