# .PCD v0.7 - Point Cloud Data file format
VERSION 0.7
FIELDS x y z
SIZE 4 4 4
TYPE F F F
COUNT 1 1 1
WIDTH 1371
HEIGHT 1
VIEWPOINT 0 0 0 1 0 0 0
POINTS 1371
DATA ascii
-0.024170216 -0.022509301 0.78116685
0.058897384 -0.021066358 0.78150022
0.061324935 -0.022257265 0.783243
-0.025739733 -0.018960943 0.78460008
-0.02347249 -0.017445998 0.78215009
0.058177542 -0.017435156 0.78161126
0.060507637 -0.017477373 0.78347784
-0.022262445 -0.012598824 0.78234088
-0.019781396 -0.010875622 0.78045022
0.058168296 -0.012827844 0.78148347
0.06044114 -0.013817141 0.78261673
-0.021358939 -0.0087481104 0.78493327
-0.018844701 -0.0067741647 0.78178352
0.057053339 -0.0072692074 0.78285569
-0.017219182 -0.0031927109 0.78301352
0.053931911 -0.002603035 0.78134573
0.05618215 -0.0029040549 0.78428888
-0.015460178 0.00074218743 0.78275007
-0.013612901 0.0032840113 0.78144181
0.053005416 0.0025599408 0.78235012
0.056223534 0.0007427797 0.78486663
-0.012531137 0.0072857141 0.78207356
0.048646037 0.0080005964 0.78071684
0.052019309 0.0071518486 0.78324008
-0.011715176 0.012087492 0.78330487
-0.0079058558 0.012854905 0.78147244
-0.0037718851 0.014536354 0.78076679
0.044278838 0.01381004 0.78073347
0.047269929 0.012379342 0.78202677
0.050862353 0.011380987 0.78345358
-0.0062188548 0.017009392 0.78316689
-0.0023181457 0.017452776 0.78125936
0.0010813432 0.018400775 0.7804001
0.043430213 0.017489238 0.78291053
0.045924317 0.016783953 0.78396678
-0.0020000332 0.022038197 0.78353339
0.0024696861 0.022751054 0.78137153
0.0078802463 0.024712823 0.78107786
0.012246969 0.024706146 0.7808668
0.015144338 0.024680834 0.78006679
0.033343315 0.024690852 0.78038347
0.038110252 0.023079827 0.78112513
0.041004509 0.021864226 0.78308898
0.0040086801 0.027224295 0.78364462
0.0078957193 0.027674476 0.78262246
0.012258907 0.027639117 0.7816298
0.016819062 0.028018698 0.78065252
0.022421241 0.028457126 0.78016019
0.027728032 0.02773409 0.78059709
0.032666832 0.027637981 0.78159648
0.036935806 0.027514149 0.78325021
0.0093744146 0.030646665 0.78420007
0.012472864 0.031900462 0.78362519
0.017374014 0.032026362 0.78223634
0.022466265 0.032005414 0.78172612
0.027602585 0.032043371 0.78266126
0.032545023 0.031667944 0.78367645
0.036454901 0.030666206 0.78470004
0.018155593 0.035034869 0.78446668
0.02217588 0.035394721 0.78435004
0.026947057 0.035051737 0.7848444
-0.021469599 -0.060896497 0.78900003
-0.01746927 -0.061850209 0.78558344
-0.022509826 -0.056989122 0.78860408
-0.018471321 -0.057785373 0.78661191
-0.022722099 -0.052741788 0.78775799
-0.019341625 -0.052931227 0.7862258
-0.025830016 -0.048321933 0.78735191
-0.023243677 -0.049381208 0.78675342
-0.030309539 -0.041831911 0.78928566
-0.027469903 -0.042257357 0.78695494
0.062089235 -0.042334631 0.78500003
-0.030558046 -0.037810527 0.78811276
-0.028098751 -0.037596144 0.78624839
-0.030606037 -0.032579627 0.78742707
-0.028704908 -0.032870825 0.78565645
0.065017305 -0.030652622 0.78500003
-0.030199364 -0.027050644 0.78641671
0.063035227 -0.027468646 0.78583568
0.065189339 -0.027804324 0.78707725
-0.030649917 -0.023456356 0.78856969
-0.028017232 -0.021942863 0.78689909
0.063641831 -0.022652034 0.78609401
0.065358259 -0.023473421 0.78911668
-0.027311144 -0.017570563 0.78768241
0.06292183 -0.017872399 0.7880801
0.065428369 -0.019090541 0.78996313
-0.026508784 -0.012564196 0.78880894
-0.024313578 -0.011680666 0.78579998
0.059276719 -0.010229045 0.78653342
0.061452966 -0.012223086 0.78936678
-0.026393564 -0.00831002 0.7895667
-0.023084508 -0.0071286126 0.78757089
0.058936998 -0.0069405278 0.78688335
0.060977008 -0.0073307939 0.78955573
-0.022447722 -0.0034112043 0.78886658
-0.019043434 -0.0023265078 0.78601336
0.058656484 -0.0029182665 0.78803897
0.060995877 -0.0043948065 0.78980011
-0.020497654 0.0024606569 0.78935552
-0.01775937 0.0022108406 0.78755826
0.058058128 0.0022919243 0.78766674
0.060967568 1.2727458e-05 0.78943336
-0.01684865 0.0069333841 0.78914768
-0.014074564 0.0080640353 0.78690004
0.05484581 0.008055836 0.78610003
0.057043474 0.0070499019 0.78809327
-0.015596782 0.011029972 0.78966677
-0.013736362 0.012479041 0.78850001
0.048921224 0.014617654 0.7851333
0.053090714 0.012695242 0.78663331
0.055799276 0.012491627 0.78921664
-0.011750977 0.01732075 0.78848678
-0.0086903255 0.018058183 0.7865333
0.043060429 0.018997533 0.7850666
0.047968179 0.017782155 0.78663814
0.051884145 0.017202483 0.7888239
0.055106267 0.016174393 0.78983349
-0.011177157 0.022044251 0.78956676
-0.0073398273 0.022600779 0.78846002
-0.0033130415 0.024414161 0.78704453
0.043144736 0.023158943 0.78658479
0.047561515 0.022564897 0.78906971
0.050691396 0.021318577 0.78990018
-0.0057787518 0.026943656 0.78967792
-0.0023392751 0.027873596 0.78826666
0.0015774491 0.028277919 0.78592223
0.038671248 0.029222637 0.7851333
0.042507287 0.027876496 0.78835553
0.046860036 0.027636046 0.78988016
-0.0012370492 0.031946611 0.78927493
0.0020717178 0.032266941 0.78812587
0.0070026512 0.032343041 0.78673339
0.010853542 0.033615548 0.78539997
0.033572257 0.033629812 0.78573334
0.037482779 0.032619335 0.78652388
0.04237188 0.032193001 0.78959101
0.0020751467 0.035254195 0.78937769
0.0079612453 0.036711432 0.78912324
0.012353626 0.037379391 0.78769726
0.017307306 0.037843488 0.78680515
0.022810411 0.038276374 0.78732497
0.027761631 0.037721511 0.78720278
0.032712556 0.03756788 0.78810757
0.03738948 0.036998715 0.78897995
0.04038259 0.035280515 0.78996688
0.0094429497 0.041156743 0.78993356
0.012677473 0.041723523 0.78953332
0.017528022 0.041849025 0.78912908
0.022683064 0.041856583 0.78927225
0.026919819 0.042415004 0.78941244
0.03116053 0.04150717 0.78960848
-0.031810328 -0.041134726 0.79000002
-0.031810332 -0.038195621 0.79000002
-0.031429157 -0.021124756 0.79274446
0.065431416 -0.020560995 0.78999996
-0.030797157 -0.01767355 0.79234314
-0.028864965 -0.016153093 0.79003704
0.064030908 -0.016170744 0.79089999
0.066260427 -0.017645961 0.79109973
-0.030505508 -0.012300752 0.79438883
-0.028627377 -0.012357374 0.79159987
0.063502669 -0.01219631 0.79219049
0.065986767 -0.012379462 0.79313153
-0.027959587 -0.0068630441 0.79218632
0.063446358 -0.0073608919 0.79280162
0.065742701 -0.0073693842 0.79375792
-0.026626835 -0.0032336139 0.79358673
-0.023982989 -0.0019490275 0.79098898
0.062862985 -0.0027514086 0.7924251
0.065775476 -0.0044190343 0.79415387
-0.022857806 0.001856289 0.79245007
0.059573162 0.0044240048 0.7904669
0.062170018 0.0017314409 0.79223067
-0.020683058 0.0070907874 0.79265344
-0.017820146 0.0088334046 0.79030025
0.059276361 0.0077413027 0.7914167
0.061328847 0.0073991264 0.79411107
-0.020131592 0.010355228 0.79426664
-0.017427268 0.012840008 0.79250675
-0.014130603 0.014708874 0.79003358
0.058499862 0.012828526 0.79188013
-0.015682375 0.017737256 0.79400009
-0.013794625 0.018057289 0.79186666
0.052918021 0.019120544 0.79015023
0.056760468 0.017699664 0.79234284
-0.013447251 0.022144714 0.79314446
0.052694235 0.022309139 0.79152381
0.056116655 0.021421473 0.7937001
-0.011239443 0.025859501 0.79396665
-0.0082514249 0.027981352 0.79130679
0.048941009 0.027646456 0.79018027
0.051615499 0.027295221 0.79276663
-0.0063000913 0.031993702 0.79346675
-0.0032321338 0.032683633 0.79110682
0.044808157 0.033815302 0.79006696
0.047821406 0.032390617 0.79114455
0.05130332 0.032124992 0.79366672
-0.0016119854 0.036125567 0.79235846
0.0020815537 0.038324878 0.79210377
0.0060096998 0.038738478 0.79055572
0.037437592 0.039690655 0.79000026
0.042675316 0.037558556 0.79149526
0.047094621 0.036897112 0.79311436
0.0030763948 0.041888103 0.79451114
0.0070513501 0.042890996 0.79234558
0.012028135 0.043755032 0.79041684
0.01754806 0.044101182 0.79003358
0.022705309 0.044101801 0.79004472
0.028599832 0.044103041 0.79006696
0.032862961 0.043219123 0.79069185
0.037518915 0.042722646 0.79169631
0.041719038 0.041757051 0.79436684
0.008428379 0.047039889 0.7935524
0.012423985 0.047169223 0.79217041
0.01758869 0.047150657 0.79185563
0.022746064 0.047126397 0.79145932
0.02715683 0.04709617 0.79095566
0.032387521 0.047192071 0.79256672
0.037436396 0.047084548 0.79386675
0.01691398 0.050285384 0.7948668
0.022084864 0.050245315 0.7942335
0.027995959 0.050220005 0.79383349
0.030235741 0.050251637 0.79433352
0.036185782 0.050285388 0.7948668
-0.032058634 -0.017757894 0.79616666
-0.035021026 -0.010352161 0.79600006
-0.032443188 -0.012161844 0.79826999
0.067350529 -0.010342577 0.79526311
-0.035021026 -0.0081310906 0.79600006
-0.031792276 -0.0071018315 0.79693133
-0.031379938 -0.0033249469 0.79783034
-0.028723884 -0.0025785007 0.79633462
0.067218788 -0.00325053 0.79720706
-0.027241053 0.0012865294 0.79793584
-0.024156203 0.0039651748 0.79671115
0.063966751 0.0032755404 0.7974447
0.066157199 0.002242367 0.79876286
-0.0234541 0.0074347868 0.79805559
0.063848116 0.0074343365 0.79781657
0.066111468 0.0059521706 0.79821062
-0.021701971 0.012621852 0.79747343
0.06310045 0.012627044 0.79775697
-0.02061085 0.017466223 0.79848343
-0.017947858 0.017781189 0.79596663
0.059198283 0.017766504 0.7953335
0.062155791 0.017834829 0.7983768
-0.016817426 0.022057028 0.79760015
0.057655621 0.0228315 0.79654676
0.060731858 0.021323087 0.79924446
-0.015799567 0.025309414 0.7999332
-0.012939126 0.027531346 0.79722965
0.054099515 0.027431807 0.79670012
0.05624415 0.027015874 0.7990222
-0.011301259 0.031941898 0.79833341
-0.0088031655 0.033115175 0.7967779
0.053411119 0.032649688 0.79750013
-0.0070016808 0.036811806 0.79837787
-0.0029573112 0.037641488 0.79638672
0.048502371 0.038523786 0.79626673
0.051585525 0.036755793 0.79803342
-0.0053553618 0.040925972 0.79978329
-0.002232952 0.042123195 0.79810315
0.0015977897 0.043460816 0.79624444
0.042483252 0.043853782 0.7962001
0.04708942 0.042081814 0.79818523
-0.00088052452 0.046876237 0.7997666
0.0020975124 0.047529593 0.79823709
0.0056549455 0.047688209 0.79593343
0.039196618 0.048864111 0.79580003
0.0420927 0.047325995 0.79793346
0.045360189 0.046878159 0.79979992
0.0030944778 0.051053058 0.79916674
0.007507212 0.051822875 0.79783034
0.012495534 0.052627459 0.79671675
0.017779075 0.052874655 0.79567629
0.02301744 0.053005688 0.79574007
0.02718392 0.053028226 0.7960667
0.032702509 0.052773185 0.79668021
0.037901565 0.052844081 0.79693949
0.041140735 0.052326661 0.79896003
0.0088116918 0.055784941 0.79951668
0.012530822 0.057234127 0.79897779
0.0177234 0.057905179 0.79797792
0.022923658 0.05787994 0.79762983
0.027422838 0.057771899 0.79870009
0.032210108 0.056804679 0.79921329
0.037877306 0.056510925 0.79926664
0.019997358 0.060996696 0.79959995
0.022986991 0.061015338 0.79984432
-0.033705004 -0.02082126 0.80000001
-0.035285003 -0.017889565 0.80200005
-0.033705004 -0.018589029 0.80000001
-0.033001311 -0.013398656 0.8010084
-0.032656174 -0.0078165447 0.80173129
-0.032286812 -0.0029702017 0.80183339
-0.030826587 0.0022535441 0.80275005
-0.028390208 0.0035922606 0.80155718
-0.027076073 0.0074781533 0.80251247
-0.024763249 0.0089455508 0.8003332
0.066377997 0.0082129166 0.80142862
-0.026981344 0.012388574 0.80288464
-0.024480769 0.013123128 0.80085337
0.066425323 0.012693864 0.80200005
-0.023514345 0.018108046 0.80223989
0.064855896 0.018641001 0.80108988
0.066517211 0.017941719 0.80310965
-0.02149947 0.021320831 0.80383337
-0.018811904 0.023113411 0.80115002
0.06238218 0.0228683 0.80128884
0.065097071 0.020953091 0.80406904
-0.017147789 0.027117938 0.80313337
-0.014333912 0.029828085 0.80140001
0.058416262 0.028094398 0.80155557
0.061303407 0.027664473 0.80347925
-0.015884493 0.031429566 0.80423343
-0.01327917 0.033053145 0.80211908
0.054359805 0.034263268 0.80053324
0.057513442 0.03287001 0.80285192
0.060623232 0.031436078 0.80440015
-0.012376218 0.036886677 0.80361122
-0.0093497941 0.038265076 0.80117768
0.053838469 0.037592404 0.80165327
0.057092503 0.036903083 0.80396676
-0.011392801 0.040434208 0.80480021
-0.0079407534 0.042770814 0.80247861
-0.0038686669 0.04470218 0.80080003
0.048784174 0.043590154 0.80089998
0.052295752 0.042596001 0.80321342
-0.0066912388 0.047646351 0.80334175
-0.002803646 0.047914926 0.80113798
0.043886825 0.049130164 0.80013317
0.047410615 0.047969017 0.80203813
0.051404573 0.047681551 0.80392933
-0.0019549914 0.052090507 0.80315238
0.0016081916 0.052677896 0.80126113
0.0050898022 0.053613249 0.80039996
0.043370038 0.052501976 0.80160654
0.04665143 0.052125193 0.80368102
-0.0012608843 0.056501385 0.80441678
0.0021098268 0.057506666 0.80277783
0.0068408009 0.057915863 0.80154723
0.012565785 0.059629191 0.80121112
0.027471993 0.059548996 0.80013317
0.0327348 0.058877427 0.8011167
0.037560832 0.05902027 0.80160946
0.042380601 0.05743948 0.80299628
0.045617294 0.055372927 0.80433345
0.0028647718 0.06211257 0.80441678
0.0075618774 0.062661231 0.80359703
0.012591637 0.062737927 0.80284077
0.017057771 0.062645078 0.80164444
0.022281075 0.063361414 0.8012833
0.027508972 0.062611133 0.80121106
0.032041743 0.06270761 0.80245185
0.03729308 0.062729783 0.8027389
0.041080676 0.062799513 0.80362231
0.009615887 0.06585189 0.80440021
0.012985823 0.066197529 0.80405015
0.017103629 0.067298502 0.80379272
0.022320436 0.067206338 0.80270004
0.027568422 0.067226022 0.80293709
0.031904567 0.067105033 0.80371678
0.036859293 0.066331841 0.80416679
0.018627988 0.070381694 0.80486691
0.022772882 0.071471095 0.80401492
0.027391573 0.071375467 0.80400956
0.030631598 0.070370041 0.80473351
-0.031437211 0.0015118903 0.80561113
-0.031028192 0.0067776176 0.80800003
-0.029514968 0.0075271786 0.80782777
-0.030989792 0.010521239 0.80700004
-0.02954562 0.012047864 0.80866671
-0.027221849 0.01727424 0.8068338
0.068185702 0.018734194 0.80512512
-0.026548505 0.022594383 0.80926824
-0.022693882 0.023011575 0.80632216
0.066853352 0.022536306 0.80716187
0.07002268 0.022586482 0.80900002
-0.021495471 0.026579797 0.80838925
-0.017920336 0.028994212 0.80584449
0.063897856 0.027064443 0.80786657
-0.020510092 0.031624373 0.80920005
-0.01782947 0.032679599 0.80736673
0.062658168 0.032869834 0.80696768
-0.015965473 0.036100768 0.80833328
-0.013927606 0.038528327 0.80668885
0.05874626 0.038499963 0.80608892
0.061954923 0.037364449 0.80777138
-0.013119942 0.042236648 0.80705833
0.054709885 0.043476801 0.80568892
0.057855658 0.042079661 0.80762959
0.06095485 0.040635187 0.80879998
-0.012385776 0.04681474 0.80832493
-0.0095315892 0.048369542 0.80605006
0.054354455 0.048365105 0.80598342
0.056876075 0.046856653 0.80798882
-0.0064185536 0.052142579 0.80836672
-0.0038979747 0.053296372 0.80686659
0.048657775 0.053172633 0.80500025
0.052524481 0.052536543 0.80671668
0.056469116 0.051955778 0.80936676
-0.005420648 0.055730931 0.80953336
-0.0026959358 0.057646919 0.80686677
0.044153772 0.059162453 0.80500025
0.047396272 0.057166215 0.80587506
0.051867373 0.056498256 0.80819994
-0.0016438039 0.062391248 0.80802208
0.0015172365 0.063566752 0.80577344
0.0051190546 0.064403541 0.80500019
0.043457586 0.062986292 0.80601114
0.046984479 0.061786585 0.80776286
0.050441582 0.060248572 0.80953342
-0.00089127745 0.066272132 0.80953324
0.0023404509 0.067261793 0.80848569
0.0071794288 0.06766618 0.80655158
0.012332091 0.06833449 0.80544013
0.033644434 0.068895929 0.80500025
0.03789873 0.068397716 0.80501133
0.042746872 0.067546144 0.8067556
0.045891427 0.066994697 0.80916667
0.0081624379 0.071612068 0.80909532
0.012663843 0.072109513 0.80743694
0.016968913 0.07219629 0.80630833
0.022013353 0.073402122 0.80515021
0.027653079 0.074175753 0.80541682
0.032368831 0.072162785 0.80593342
0.037514478 0.072115786 0.8074944
0.042256676 0.07163851 0.80890673
0.017981496 0.075310528 0.80956674
0.022851331 0.076505229 0.80825835
0.027745277 0.076930158 0.80811113
0.031914338 0.075606048 0.80869997
0.035343684 0.075307436 0.80953336
-0.031104995 0.0090535954 0.81000006
-0.029228847 0.017347425 0.81033343
-0.027965406 0.022860814 0.8120321
0.068621159 0.024129091 0.81026679
0.070182472 0.024146352 0.81084627
-0.026425088 0.026774084 0.81210381
-0.023061192 0.028155273 0.8104561
0.067308158 0.02722346 0.81264448
0.070445836 0.027264567 0.81388897
-0.025546189 0.031410348 0.81338614
-0.02258073 0.032713145 0.81128162
-0.017509054 0.034668446 0.81000024
0.066822335 0.032271042 0.81288296
0.070498735 0.030315671 0.81450003
-0.021225449 0.037540596 0.8134535
-0.017731752 0.037942238 0.81152505
0.064245872 0.03854426 0.81226671
0.066406064 0.036858384 0.81398731
-0.020638514 0.040909838 0.81426686
-0.017565148 0.042334061 0.81252599
0.062942661 0.042523079 0.81252515
-0.01636049 0.04719466 0.81294668
-0.014131583 0.048679229 0.81121689
0.059148252 0.048073668 0.81160003
0.061691508 0.046547942 0.81353337
-0.016077397 0.051495831 0.81400007
-0.012832841 0.05274022 0.81275004
-0.0089563821 0.053295836 0.81066686
0.058525246 0.052972641 0.81344461
0.061376877 0.050006174 0.81440026
-0.012027794 0.056535423 0.81388897
-0.0079150731 0.057535671 0.81181222
-0.0039137546 0.058786221 0.81013352
0.053038061 0.058328751 0.81075567
0.056484107 0.057495471 0.81318897
-0.010013111 0.061388396 0.81466681
-0.0069576916 0.061985526 0.81255555
-0.0036164671 0.063090459 0.81121361
0.048528504 0.064396717 0.81120014
0.052128308 0.061963927 0.81227618
0.055278786 0.061343618 0.81406677
-0.0059541068 0.065598175 0.8136223
-0.0024123248 0.068076588 0.81309521
0.0013756838 0.069406554 0.81096685
0.047984246 0.068176724 0.81172383
0.051347595 0.067040257 0.81362861
-0.0016560351 0.071197875 0.81420004
0.0021347129 0.072545819 0.81231856
0.0063690334 0.073357508 0.81128025
0.043734729 0.073194772 0.81115019
0.047594033 0.072556883 0.81245184
0.050772507 0.072770096 0.81484479
0.003660264 0.076524273 0.81446683
0.0076485234 0.076994792 0.81289095
0.012722719 0.076971255 0.81119275
0.017038886 0.077372767 0.81088597
0.022040868 0.078942478 0.81077796
0.027843989 0.079464853 0.810978
0.032697093 0.077885136 0.81128007
0.037702557 0.077007316 0.81156683
0.042563897 0.077129021 0.81285179
0.046678293 0.076238237 0.81411123
0.0085164933 0.080880724 0.81409341
0.013097513 0.081906691 0.81357789
0.017306184 0.082466856 0.81329447
0.022422615 0.082926877 0.81267679
0.027904149 0.082659803 0.81271851
0.032475241 0.081711411 0.81331104
0.036852401 0.081557624 0.8136667
0.040874492 0.081067599 0.81445014
0.022639025 0.086340025 0.81416678
0.027206903 0.086378917 0.81453359
-0.026753448 0.028835904 0.81550002
0.072061993 0.028818224 0.81500006
-0.026311671 0.033468101 0.81750679
0.069134936 0.032662332 0.81633347
-0.026118061 0.036595799 0.81941676
-0.023392364 0.038415909 0.81760418
0.067116439 0.038995046 0.81646425
-0.021482913 0.042590909 0.8174668
0.067189232 0.042539388 0.81646413
-0.018544342 0.047352027 0.8156535
0.063936219 0.047374167 0.81604016
0.067005567 0.047195539 0.81821108
-0.017351134 0.051976837 0.81678677
-0.014579545 0.05460012 0.81513351
0.0599658 0.054649241 0.81586677
0.062922806 0.052080069 0.81720954
0.067026868 0.050256405 0.81847513
-0.013390416 0.058046442 0.81669348
0.058456168 0.058455572 0.81603348
0.060742758 0.057539709 0.81811988
-0.011827688 0.062358376 0.81745559
0.053822163 0.063687555 0.81500036
0.057417743 0.06251888 0.81670487
0.060218178 0.061737947 0.81930006
-0.010575703 0.066030003 0.81897783
-0.0072100046 0.067723647 0.81665719
-0.003938233 0.069768868 0.81520009
0.05356748 0.067995772 0.81574678
0.05659797 0.06670253 0.81743824
-0.0065025701 0.071871124 0.81898898
-0.0026416208 0.07338617 0.81687629
0.053226847 0.073009156 0.81751108
0.055600185 0.070838802 0.81880015
-0.0022388715 0.077515177 0.81893349
0.0017109683 0.077680163 0.8163715
0.0051864604 0.078906156 0.81560022
0.04470228 0.078848116 0.81500036
0.048357148 0.078012712 0.81682235
0.051383249 0.077286124 0.81851673
-0.00090169965 0.080758579 0.81900012
0.0021516038 0.082244977 0.81862235
0.0067142742 0.08268439 0.81652385
0.012027619 0.084188834 0.81533343
0.029509645 0.084933147 0.81520021
0.032547578 0.084926203 0.81513363
0.037114855 0.084181637 0.81526685
0.043302476 0.082485653 0.81724179
0.047220759 0.080771729 0.8191334
0.0036815358 0.085349903 0.81920016
0.0082594585 0.08681985 0.81868017
0.012678829 0.087979369 0.8181268
0.017386073 0.088170648 0.81708157
0.022687132 0.088801101 0.81590009
0.02825425 0.088546492 0.81655246
0.032637879 0.087900057 0.81739342
0.037368841 0.087695219 0.81779999
0.041076303 0.087559059 0.81846672
0.013618878 0.091490045 0.81959999
0.017433893 0.092067234 0.81930673
0.021998277 0.092137702 0.81857795
0.027354171 0.09294048 0.81893897
0.03248791 0.092523314 0.81910497
0.036997378 0.092077479 0.81940013
-0.026211318 0.039017409 0.82230002
-0.025457758 0.04210325 0.82277918
-0.023509357 0.043195937 0.82171237
0.069445476 0.044248603 0.82000005
-0.021262068 0.047130682 0.82370508
0.069518395 0.047348414 0.82086116
-0.020895356 0.050620198 0.82440013
-0.017794387 0.053609136 0.82319999
0.064141117 0.05420471 0.82062066
0.066986762 0.052454975 0.8211059
-0.016257793 0.058200676 0.82313341
-0.014680901 0.059560228 0.82079989
0.063189775 0.058582556 0.82315969
0.065886334 0.055146463 0.82328969
-0.014329392 0.063128054 0.82253331
0.061967302 0.062720902 0.82221329
-0.01241297 0.067337476 0.82255554
0.058795214 0.067955405 0.82076645
0.06109035 0.067052275 0.82279998
-0.010504737 0.071620315 0.82340002
-0.0077945213 0.073321454 0.82101649
0.057548173 0.072458364 0.82205826
0.060568515 0.070527755 0.82406682
-0.0070450585 0.077555791 0.82273322
-0.0039662514 0.079428576 0.8209998
0.053668462 0.078297272 0.8219465
0.056545306 0.077235684 0.82366669
-0.0055126064 0.081945583 0.82326663
-0.0026289923 0.082721666 0.82146645
0.048295785 0.082890861 0.82071412
0.052608617 0.082467154 0.82274163
0.056012157 0.081337087 0.82486683
-0.0012903741 0.086914651 0.8231833
0.0019686939 0.087353267 0.82190824
0.0057277507 0.088030636 0.82051104
0.043520201 0.087106057 0.82137769
0.047423702 0.087239265 0.82263881
0.051852603 0.086356603 0.82395571
0.0031919575 0.090994038 0.82431126
0.0075225071 0.092488937 0.82169515
0.012653457 0.093577638 0.82071418
0.017464526 0.094288647 0.82073313
0.02204898 0.094639264 0.82046652
0.033532593 0.094658494 0.82063317
0.037748832 0.094296239 0.82079983
0.042002231 0.092733994 0.82162207
0.04688935 0.091612116 0.82374084
0.0081335353 0.09750741 0.82320744
0.012896009 0.097903736 0.8222369
0.017502613 0.097937681 0.82251847
0.022098385 0.097910933 0.82229626
0.027439184 0.09781643 0.82150537
0.032788832 0.097776026 0.82117015
0.03739287 0.097801685 0.82138491
0.042057518 0.097446539 0.82269627
0.045228824 0.095116012 0.82460016
0.02753073 0.1012087 0.8242501
0.032598354 0.10180466 0.82410669
0.037810188 0.10176692 0.82380009
0.041359033 0.10119027 0.82410014
-0.028250556 0.038806859 0.82591677
-0.027562613 0.043292362 0.82670158
-0.026013201 0.047390647 0.82824606
-0.023413753 0.04797845 0.82643855
-0.022506734 0.051303845 0.8271603
-0.019417329 0.053083636 0.82693326
-0.018663114 0.056978095 0.82764453
0.066261806 0.05777204 0.82798219
-0.021033397 0.06484767 0.82984626
-0.017712016 0.062593304 0.8272593
0.063763298 0.063750759 0.82563341
0.066085219 0.062468242 0.82900017
-0.017590489 0.066859864 0.82799864
-0.014263292 0.068655826 0.82613343
0.063496865 0.068100385 0.82716674
0.065590493 0.06788782 0.82926685
-0.013260077 0.072367437 0.82757151
0.062138963 0.072396673 0.82791114
-0.011718177 0.076991618 0.82762975
-0.00860913 0.079886533 0.82573342
0.058630954 0.07786309 0.82707995
0.061469506 0.076119162 0.82931137
-0.010570339 0.081315815 0.8285501
-0.0073351213 0.08305382 0.8266778
0.054513395 0.084467277 0.82546675
0.057104718 0.083424456 0.82730675
-0.0060657761 0.086868934 0.82884455
-0.003377904 0.08798442 0.82676011
0.053528216 0.088116676 0.82608891
0.057016049 0.087835848 0.8282668
-0.0015306124 0.092157267 0.8283335
0.0016581846 0.09273985 0.82619995
0.049395431 0.093193859 0.82568902
0.053096373 0.092356659 0.8273555
0.056687318 0.092166975 0.82911694
-0.00091329648 0.095685042 0.82953352
0.0023689189 0.096865982 0.8280834
0.0057635778 0.098313123 0.8256889
0.043733321 0.099814482 0.82540011
0.046847597 0.097328275 0.82601476
0.051652081 0.097160712 0.82895589
0.0037260251 0.10103354 0.82910019
0.0075782686 0.10279671 0.82776672
0.0129641 0.10303059 0.82655549
0.017587155 0.10302369 0.82650352
0.022193164 0.10294063 0.82583702
0.027573865 0.10366806 0.82551676
0.033363186 0.10410234 0.82591671
0.037210975 0.10409375 0.82585007
0.042489208 0.10350446 0.82683808
0.047001265 0.10176004 0.82873356
0.050895967 0.10027805 0.82923365
0.0099107558 0.10642676 0.82906699
0.013222052 0.10751251 0.82894325
0.017618246 0.107829 0.82798529
0.022229703 0.10772431 0.82718492
0.027641455 0.10776936 0.8275277
0.033059675 0.10782469 0.82794821
0.037676375 0.10778156 0.82761496
0.041840073 0.10738816 0.82854456
0.017953577 0.11168661 0.82918692
0.022280736 0.11259791 0.82908183
0.026404506 0.11208474 0.82908922
0.031562354 0.11106839 0.82917809
0.023840141 0.11574528 0.82953358
-0.028086998 0.048409589 0.8325001
-0.026401157 0.052399181 0.83316123
-0.022917027 0.053484984 0.8307842
-0.025818691 0.055893641 0.83444452
-0.022649631 0.057298642 0.83230233
0.068806827 0.057964846 0.83075368
0.070482925 0.058070034 0.83225
-0.022663003 0.06197897 0.83277655
-0.019499518 0.062576517 0.83043337
0.068271644 0.062582582 0.83052415
0.07077565 0.062229622 0.83203018
-0.022155905 0.066921331 0.83323258
-0.018371513 0.069265217 0.83191705
0.068032332 0.068009593 0.83075553
0.071164839 0.068041928 0.83114964
-0.017098555 0.072637103 0.83419847
-0.014868108 0.074236579 0.83126676
0.064141706 0.073398739 0.83053339
0.067287713 0.072678298 0.83112586
0.071155488 0.07267046 0.83104563
-0.0164869 0.076098934 0.83473319
-0.014897325 0.076707944 0.83290005
0.063213333 0.077903278 0.83188885
0.067072153 0.076353282 0.83326679
0.070518203 0.075910538 0.8326667
-0.012549115 0.08200983 0.83168334
-0.0086543066 0.084938005 0.8300668
0.059498023 0.081900738 0.83057767
0.06234714 0.081932791 0.83315247
-0.010630298 0.086429715 0.83326662
-0.0074406355 0.088610992 0.8326667
0.059541397 0.087371305 0.83118325
0.062053669 0.087635458 0.83369166
-0.0066214576 0.092303902 0.83384436
-0.0036291382 0.093188398 0.83135009
0.058908671 0.093072042 0.83099997
0.061320167 0.093130767 0.83429319
-0.0055871531 0.097799242 0.83439988
-0.0026646806 0.097782567 0.8326084
0.00063435367 0.098858558 0.83026671
0.054859743 0.09736675 0.83071113
0.058099374 0.097601444 0.8327111
-0.0022524525 0.10198186 0.83415228
0.0017428786 0.10236597 0.83186662
0.04867167 0.10356673 0.83086658
0.05238542 0.10228088 0.83139998
0.056323905 0.10210117 0.83403987
0.0026370033 0.10686106 0.8341713
0.0073584891 0.10766272 0.83199257
0.012250304 0.10969621 0.83046663
0.043260358 0.10900681 0.83109987
0.047177125 0.10678182 0.83182216
0.051646225 0.10611098 0.83385324
0.0080300262 0.11159196 0.83453321
0.01305283 0.11303569 0.83229631
0.017290166 0.11398575 0.83076662
0.027989723 0.11378533 0.83024454
0.032662049 0.11336264 0.83091849
0.037825994 0.11284491 0.83089632
0.042377234 0.11251748 0.83276671
0.046922687 0.11057737 0.83419991
0.014638916 0.11716828 0.83416665
0.017922642 0.11760975 0.83316666
0.022151243 0.11775967 0.83149165
0.027002687 0.11758476 0.83162224
0.032485276 0.11777887 0.8329944
0.037935402 0.11782254 0.83330375
0.041867372 0.11795205 0.83422208
0.022950428 0.12215811 0.83468866
0.027097004 0.1226551 0.834548
0.032558173 0.12270483 0.83488864
0.037691597 0.12175816 0.83478642
0.041904397 0.12116301 0.83496642
-0.028950455 0.04816455 0.83500004
-0.030507741 0.054377593 0.83500004
-0.028604472 0.053292189 0.83625007
-0.030507741 0.055930853 0.83500004
-0.027168293 0.057351191 0.8376134
-0.025890892 0.06227662 0.83677787
-0.023543997 0.06848368 0.83655006
-0.022274064 0.072729856 0.83765572
-0.019235233 0.073472068 0.83575994
-0.021275552 0.076524384 0.83940005
-0.017837793 0.077887841 0.83725548
-0.014938465 0.079248779 0.83519995
0.068004772 0.078715608 0.8361333
0.070822477 0.078572288 0.83625948
-0.016053459 0.082750611 0.83920002
-0.014436461 0.08244957 0.83615559
0.06451755 0.083152786 0.83539987
0.067924194 0.082534365 0.83898348
0.071084455 0.081984989 0.83935279
-0.012635395 0.087240852 0.83734989
0.064520977 0.087042958 0.83544439
0.067400016 0.086887293 0.83894783
0.071054578 0.087412827 0.83900005
-0.011078977 0.091956787 0.83773327
-0.0083278595 0.093720719 0.83609992
0.063965335 0.092112675 0.83631992
0.066399902 0.09136939 0.83950007
-0.010298265 0.097426675 0.83786666
-0.0079412907 0.098038666 0.83644432
0.062323753 0.097359978 0.83730578
-0.010319571 0.10153167 0.83960021
-0.006974007 0.10261096 0.83725005
-0.0032572867 0.10414426 0.83549994
0.058675636 0.1030269 0.8365199
0.061639048 0.10266194 0.83862674
-0.0056155017 0.10687565 0.83863342
-0.002483617 0.10744043 0.83695561
0.00063842849 0.10804293 0.8355999
0.05246412 0.10844891 0.83573335
0.056692943 0.10734868 0.83775836
0.060927529 0.10621718 0.83960009
-0.0014443261 0.11126155 0.83837777
0.0021996631 0.11211855 0.83700734
0.0068719415 0.11349207 0.83566654
0.044245481 0.11341055 0.83506656
0.047711212 0.11288133 0.83574665
0.052203462 0.11222439 0.83780009
0.055943724 0.11137313 0.83922237
0.002988664 0.11631846 0.83923346
0.0068853404 0.11683032 0.8373037
0.012140034 0.11804033 0.83622491
0.016222473 0.11970052 0.8355999
0.044324964 0.1175056 0.83656663
0.04735063 0.11718772 0.83763343
0.051254898 0.11607191 0.83933347
0.0072947843 0.12064493 0.83946675
0.012959238 0.1221017 0.83874172
0.01781654 0.12306639 0.83734065
0.021415748 0.12383904 0.83555537
0.038427792 0.12396777 0.83554989
0.043026444 0.12350248 0.8372857
0.047587395 0.12149815 0.83906674
0.019408714 0.12637006 0.83860016
0.022709446 0.12760967 0.83776665
0.027183842 0.12772244 0.83722222
0.032323841 0.12736204 0.83690661
0.038122576 0.1269685 0.83739996
0.041806508 0.12682964 0.83820003
-0.027590005 0.059461597 0.84100002
-0.026052471 0.066581503 0.84200001
-0.026129825 0.073847458 0.84450001
-0.024463629 0.073573202 0.84136367
-0.022927038 0.076425225 0.84259123
-0.019757019 0.078271873 0.84140003
-0.018214371 0.083084434 0.8425867
0.06801144 0.084398597 0.84006673
0.07115338 0.084408619 0.84016663
-0.016654786 0.087620556 0.84313339
-0.013458771 0.089086637 0.84006673
0.069152378 0.088689059 0.84123325
0.071139261 0.085954443 0.84000003
-0.016277252 0.091466039 0.84399998
-0.013475503 0.092327774 0.84111112
0.067366734 0.092401765 0.84179747
-0.01270206 0.097096898 0.84176677
0.064945631 0.096219502 0.84094244
0.066328838 0.097696587 0.84356785
-0.012248119 0.10162298 0.84294683
-0.0087627405 0.10476335 0.84046656
0.063401669 0.10329916 0.84126663
0.06515342 0.10123524 0.84363329
-0.0072078109 0.1080671 0.84184009
0.058643579 0.10946231 0.84053314
0.061915699 0.10839656 0.84237772
-0.006042778 0.11261328 0.84363335
-0.0030208295 0.11328348 0.84181112
0.057687912 0.11328425 0.84182215
0.060883127 0.11271758 0.84441662
-0.0056576873 0.11632233 0.84493327
-0.002052834 0.11743883 0.84327638
0.0015828008 0.11794511 0.84081316
0.052920554 0.11785624 0.84092218
0.057069387 0.11747146 0.84330833
-0.001559778 0.12219673 0.84425336
0.0022143445 0.1222541 0.84248155
0.0066004349 0.12293625 0.84071982
0.010568156 0.12298731 0.84035546
0.048470087 0.1235735 0.84079999
0.052480604 0.12221927 0.84223711
0.056144353 0.12211085 0.84420002
0.0022176434 0.12714307 0.8437261
0.0069277841 0.12694246 0.84239268
0.012211182 0.12707335 0.84231526
0.017895229 0.12803255 0.84097767
0.021022741 0.12979886 0.84059983
0.033561904 0.12978855 0.8405332
0.037482902 0.1297937 0.84056652
0.043386534 0.12830381 0.84104985
0.047799569 0.12700306 0.84279263
0.052103102 0.12675418 0.84462214
0.0072574974 0.13098527 0.84421331
0.012526697 0.13180302 0.84432733
0.017745351 0.13196149 0.84317523
0.022637185 0.1332048 0.84235573
0.027340896 0.13315609 0.84204447
0.032059267 0.1331864 0.84223717
0.037572309 0.13323972 0.84257799
0.042912915 0.13217506 0.84329188
0.046347741 0.1304782 0.84499991
0.014829034 0.13519382 0.84499991
0.0181733 0.13653716 0.84479994
0.022891536 0.13805737 0.84448332
0.027425461 0.13828112 0.84465182
0.032148752 0.13827141 0.84459251
0.037185945 0.13810252 0.84451997
0.041802764 0.13789892 0.84471661
0.025860589 0.14148122 0.84499991
0.033740267 0.14148122 0.84499991
0.036892127 0.14148122 0.84499997
0.040043999 0.14148122 0.84499991
-0.026651539 0.07736142 0.84856784
-0.024084613 0.07821428 0.84641439
-0.023065811 0.082001649 0.84759778
-0.019843118 0.081756942 0.84506673
-0.022933865 0.087353416 0.84806573
-0.01881017 0.087861545 0.84582466
-0.023097748 0.091592833 0.84881037
-0.018098654 0.093493566 0.84636039
0.068506256 0.093670696 0.84617865
0.070905216 0.093130998 0.84843647
-0.016940113 0.097177051 0.84759724
0.068594344 0.097730599 0.84726685
0.071859092 0.097873814 0.84850389
0.075013846 0.099437699 0.84838462
-0.015548136 0.10205638 0.84718752
-0.012774302 0.10394689 0.84654999
0.067460343 0.10267448 0.84718102
0.072737984 0.10243455 0.84851867
-0.011044787 0.10685787 0.84714669
-0.0088162581 0.10854916 0.84559995
0.065881617 0.10687682 0.84793347
0.075068265 0.10582703 0.84900004
-0.010439201 0.11060835 0.84933364
-0.0082034245 0.11287098 0.84734678
0.063372917 0.11215736 0.84611666
0.065569602 0.11214763 0.84902239
-0.0064595602 0.11813565 0.84666669
-0.0040826788 0.11870338 0.84509993
0.058978479 0.1195223 0.84533328
0.062276833 0.11743551 0.84729356
0.065637395 0.11621556 0.84990007
-0.0063152448 0.12218086 0.84850681
-0.003694715 0.12321876 0.84641671
0.058423925 0.1231411 0.84642667
0.061747499 0.12220919 0.8487069
-0.0019875735 0.12714623 0.84723347
0.053768802 0.12854129 0.84604436
0.057037532 0.12721799 0.84771115
0.0027556147 0.13198961 0.84797233
0.0065624733 0.13338691 0.84599996
0.011678078 0.13363248 0.84506649
0.044807125 0.13372737 0.84566665
0.048203364 0.13247286 0.84644169
0.05232266 0.13201918 0.84816676
0.0075088576 0.13686784 0.84887797
0.012279723 0.13725103 0.8471092
0.017986311 0.13942587 0.84524423
0.021134436 0.13992047 0.84506649
0.044451084 0.13777593 0.84638333
0.047643594 0.1370296 0.8480193
0.051361658 0.13595109 0.84973353
0.013114925 0.14153287 0.84884202
0.017803956 0.14232112 0.84732395
0.02274213 0.14248101 0.84626669
0.027737876 0.14299291 0.84618884
0.032204818 0.14297032 0.84605557
0.036953215 0.14329009 0.84640002
0.042483721 0.14225484 0.84648895
0.046065915 0.14170633 0.84948915
0.018464413 0.1457248 0.84911692
0.02303317 0.14637959 0.84865743
0.027552593 0.14701533 0.84858358
0.032105401 0.14702535 0.84864187
0.03704023 0.14599459 0.84838915
0.041403592 0.14564492 0.84865022
0.045009326 0.14539225 0.84948289
-0.028749906 0.079273447 0.85216665
-0.027145855 0.082394533 0.85165566
-0.026785202 0.086868241 0.85281253
-0.026845923 0.091253676 0.8505556
-0.021552667 0.094920732 0.85033339
0.073105291 0.092881523 0.85194445
-0.021057792 0.098245241 0.85172224
-0.01838802 0.099174015 0.85063702
0.071271762 0.10448512 0.85093319
-0.015786946 0.10685003 0.85295564
-0.013249047 0.10814867 0.8517285
0.068338618 0.1080968 0.85194665
0.072741039 0.10734189 0.85266471
-0.011805638 0.11261604 0.8525722
0.068119138 0.112379 0.85318005
0.073923394 0.11122476 0.85406673
-0.010891251 0.11713017 0.85368335
-0.0088681551 0.11709985 0.85057777
0.066959478 0.11746791 0.85326672
-0.0083582448 0.12211294 0.85244447
0.06366425 0.12307292 0.85176665
0.065921873 0.12148331 0.8535834
-0.0065094996 0.12619387 0.8532334
-0.0033217068 0.12916866 0.85191667
0.058598325 0.12907094 0.85126662
0.062415972 0.12692332 0.85279441
-0.00093979342 0.13260064 0.85360003
0.0011794716 0.13414286 0.85163331
0.054079026 0.13403098 0.85092229
0.057723105 0.13245504 0.85339534
0.061209284 0.13035052 0.85446674
-0.00094074756 0.13591388 0.8544668
0.002239923 0.13800403 0.8526445
0.0059382697 0.13873444 0.85064441
0.049830575 0.13847151 0.85064995
0.053376012 0.13832609 0.85341257
0.057218779 0.13589764 0.85436678
0.0027755955 0.14245409 0.85397226
0.0070035672 0.14260344 0.85169625
0.011359056 0.14362249 0.85069996
0.048068594 0.14280154 0.85153335
0.051637389 0.1426397 0.8542918
0.0075519406 0.14718653 0.85377783
0.01256881 0.1474359 0.85215545
0.017790301 0.14817783 0.8509599
0.022065241 0.1487422 0.85056663
0.037132993 0.1487325 0.85051107
0.042216513 0.14812835 0.85067332
0.046784572 0.14756811 0.85292858
0.0086255064 0.15109615 0.8549335
0.013214335 0.15214485 0.85387409
0.018145036 0.1522935 0.85272223
0.022889899 0.15211838 0.85174435
0.027641464 0.15204374 0.85132951
0.032389227 0.15196775 0.85090733
0.037164111 0.15202472 0.85122579
0.041976288 0.15220517 0.85223335
0.045618989 0.15202793 0.85346669
0.022953356 0.1557173 0.85411119
0.028044442 0.1563196 0.85392678
0.032490134 0.15640967 0.85355002
0.037263416 0.15640232 0.85351115
0.042074334 0.15637419 0.85422677
0.045252196 0.15570918 0.85406673
0.075740248 0.095620267 0.85659999
-0.015305726 0.10985001 0.85573357
0.071371414 0.10926422 0.85530025
-0.017105635 0.11252397 0.85791302
-0.013714578 0.11387011 0.8560335
0.069285192 0.11463442 0.85580033
0.072031491 0.11291108 0.85681129
-0.016974596 0.1161823 0.85940003
-0.013097087 0.11835064 0.85734671
0.068952426 0.11832909 0.8566168
0.071897686 0.11737791 0.85840005
-0.011345844 0.12290112 0.85793346
-0.0089170448 0.12410872 0.85526693
0.068057649 0.1227771 0.8570779
0.071171165 0.12229656 0.85930002
-0.010562931 0.12710662 0.85940009
-0.0078695985 0.12806736 0.85691118
0.064486906 0.12814653 0.85566694
0.067100026 0.12776764 0.85846668
-0.0069531137 0.13142669 0.85890001
-0.0035060854 0.13285337 0.85830671
0.059713371 0.13374822 0.85586703
0.06320601 0.1325649 0.85721684
0.067185774 0.13112852 0.85956669
-0.0025483978 0.13737702 0.85865343
0.058654245 0.13747384 0.85593367
0.062540002 0.13676305 0.85813332
-0.0013441164 0.14144161 0.8566668
0.0011851772 0.14429487 0.8554669
0.053637885 0.14359249 0.85570687
0.058215279 0.1419452 0.85728902
0.061553154 0.14067319 0.8592667
-0.00094405079 0.14516367 0.8574667
0.0025715402 0.14732841 0.85706675
0.0059739375 0.1491233 0.85577804
0.048498385 0.14954075 0.85513347
0.05156384 0.14796478 0.85636681
0.055731196 0.14660931 0.85845327
0.0038614469 0.15105759 0.85923338
0.0070535843 0.15293272 0.85780007
0.010768115 0.1539907 0.85628909
0.047917992 0.15322439 0.85616028
0.051245652 0.15234736 0.85839999
0.007872289 0.15594274 0.85973346
0.012396947 0.15757935 0.85847783
0.017436983 0.15784307 0.8570168
0.023014935 0.15852469 0.85640019
0.027386514 0.15880203 0.8557502
0.032574963 0.15920909 0.85580021
0.0373496 0.1591512 0.85548908
0.042141527 0.15877424 0.85560024
0.047026772 0.15763535 0.85734445
0.018292665 0.16152753 0.85966682
0.023312867 0.16253917 0.85897154
0.027869888 0.16287656 0.85834086
0.032684419 0.16273695 0.85865837
0.037494462 0.16216439 0.85880011
0.042277902 0.16208445 0.85837787
0.045499451 0.1621516 0.85873336
0.027111027 0.16632499 0.85966682
0.031121729 0.16633789 0.85973346
-0.021831341 0.11216697 0.86130697
-0.021839565 0.11702417 0.86166084
-0.017007153 0.11814106 0.86105013
0.074566372 0.11700102 0.8614952
0.076202981 0.11704606 0.86183339
-0.020836597 0.12169475 0.86448842
-0.017040946 0.12198646 0.862755
-0.013789338 0.12249597 0.86070001
0.069641441 0.12482463 0.86019999
0.073503062 0.1216419 0.86315614
0.076394558 0.12055442 0.86400002
-0.021848373 0.12508582 0.86200005
-0.016260346 0.1265839 0.86401558
-0.012655155 0.12775718 0.86148101
0.069734983 0.12819718 0.8613556
0.071863413 0.12680587 0.86279172
-0.015461885 0.13026761 0.86446428
-0.012208219 0.1315469 0.86231023
-0.0076935017 0.13391823 0.86105347
0.068175323 0.13336025 0.86193341
0.071571477 0.13021772 0.86413342
-0.010623564 0.13507135 0.86433333
-0.0071888384 0.13788803 0.86308759
-0.004160136 0.13857669 0.86113346
0.064347394 0.13880746 0.86091113
0.067681417 0.13724394 0.8638401
-0.0030920904 0.14268728 0.86177778
0.062680162 0.14296779 0.86153334
0.06551256 0.14264143 0.86392522
-0.0017554591 0.14767009 0.86279172
0.00065722357 0.14882667 0.86019999
0.058048822 0.14772452 0.86076671
0.061614875 0.14749154 0.86291671
0.002264831 0.15228423 0.86165345
0.053106744 0.1532165 0.86088896
0.056799434 0.15234272 0.8631168
0.060311064 0.15197156 0.86443353
0.0033411037 0.15624775 0.86288899
0.0067697018 0.15750828 0.8621667
0.010294884 0.15861171 0.86120015
0.051845875 0.15718363 0.86215562
0.0087109292 0.16062298 0.86340004
0.011715692 0.16224594 0.86241668
0.017507745 0.163287 0.86051124
0.022313328 0.16481525 0.86013341
0.032737825 0.16480248 0.86006677
0.037551869 0.164811 0.86011124
0.042367343 0.16482377 0.86017781
0.047716636 0.16234599 0.86158103
0.051235504 0.1619509 0.86362678
0.013010521 0.16605353 0.86380011
0.017544836 0.1668421 0.86233664
0.023138899 0.16819113 0.86102968
0.028167281 0.16853239 0.86043817
0.032965295 0.16833977 0.86076677
0.037403781 0.16804691 0.86131674
0.042442501 0.16752024 0.86170006
0.046967525 0.16668865 0.86362505
0.019173743 0.17103454 0.86325848
0.022976292 0.17288777 0.86248755
0.02794967 0.17295139 0.86080992
0.032792509 0.17308682 0.86148274
0.03764502 0.17243689 0.8622396
0.042318888 0.17163903 0.86326677
0.045824431 0.17054869 0.86486679
0.022416534 0.17522649 0.86413348
0.027260423 0.17688805 0.86439776
0.03853327 0.17522313 0.86411691
-0.021975104 0.11290908 0.86700004
-0.021129845 0.12237403 0.86550003
0.075068332 0.12343478 0.86729449
-0.020390425 0.12601089 0.868375
-0.017781852 0.12782174 0.86749709
0.073281914 0.12717465 0.86530018
0.075533234 0.12756969 0.86799169
-0.017149316 0.13163286 0.86817074
-0.013091563 0.1339605 0.8675518
0.072759829 0.13254821 0.86675894
0.07522776 0.13258822 0.86913657
-0.011202487 0.13718541 0.86753339
0.068477437 0.13851634 0.86576682
0.071584329 0.13696691 0.86819345
0.075224623 0.13581625 0.86909997
-0.0074287686 0.1423098 0.86761683
-0.0041799443 0.14325951 0.86523336
0.068089128 0.14217143 0.86595845
0.070326887 0.14221306 0.86866665
-0.005819581 0.1471355 0.86911106
-0.0037836418 0.14753932 0.86674178
0.063665278 0.14986475 0.86620021
0.066965796 0.14679356 0.86709052
-0.0058233012 0.15046453 0.86966664
-0.0028065238 0.15221755 0.86780006
0.00066207541 0.15395594 0.86655009
0.058816593 0.15469268 0.86616683
0.062431388 0.15290795 0.86700666
0.066025697 0.15087272 0.86891121
-0.0021149379 0.15660194 0.86909527
0.0018750167 0.15810364 0.86720014
0.0055054734 0.15945277 0.86576676
0.053969603 0.15871933 0.86615425
0.057024557 0.157603 0.8669762
0.061869256 0.15647118 0.86933339
0.0033655893 0.16168195 0.86908889
0.0069338134 0.16325802 0.86779588
0.053610958 0.1632852 0.8668766
0.056586385 0.16249581 0.86912233
0.0083649997 0.16778508 0.86929995
0.011440757 0.1682754 0.86696672
0.015196975 0.16915479 0.86596686
0.048326824 0.16842452 0.86635011
0.052265257 0.16773856 0.86801261
0.0122044 0.17269096 0.86855829
0.016364798 0.172766 0.86676204
0.04422849 0.17383333 0.86520016
0.047826968 0.17303509 0.86825836
0.051453114 0.17192696 0.86912227
0.013634743 0.1762809 0.86933333
0.017098907 0.17733727 0.86884767
0.022224421 0.17798656 0.86713338
0.028561303 0.1786719 0.86719888
0.033470273 0.17857528 0.86869198
0.037885882 0.17838316 0.86775655
0.042746548 0.17760015 0.86787039
0.04603754 0.17780755 0.86888885
0.023090778 0.18165886 0.86927229
0.028616708 0.18143824 0.86886096
0.034709442 0.1811197 0.86927283
0.038274359 0.18175881 0.86923474
0.042816997 0.18177381 0.86930668
0.046068151 0.18116005 0.86946666
-0.020452064 0.12801203 0.87100005
0.076954544 0.12953304 0.87033337
-0.013320409 0.13821094 0.87196416
0.073197886 0.13876568 0.87069863
0.075420156 0.13860083 0.87135947
-0.011880064 0.14251682 0.87194288
-0.0090776049 0.14415914 0.87066674
0.072880723 0.14244922 0.8720867
0.076407179 0.14216849 0.87335461
-0.011381303 0.14746949 0.87299985
-0.0082703829 0.147478 0.87113351
0.068886109 0.14906359 0.87093335
0.070669614 0.14696592 0.87289995
-0.011288914 0.15179463 0.87422127
-0.007667291 0.15264674 0.87173343
0.067867167 0.15298569 0.87173891
0.070834242 0.15137573 0.87493336
-0.0070101018 0.15731354 0.87304276
-0.0042065149 0.15793809 0.8707335
0.063209713 0.15799576 0.87105012
0.06697499 0.15757935 0.87322849
-0.0058587897 0.16114715 0.87496662
-0.0021247366 0.16216667 0.87293804
0.0013149608 0.16234675 0.87092006
0.059147839 0.16204552 0.87104458
0.062575668 0.16250746 0.87352586
0.0025264809 0.16681467 0.87298566
0.0060782009 0.16792631 0.87073356
0.057758916 0.16719998 0.8715167
0.060969241 0.1666345 0.87386656
0.0039296066 0.17080213 0.87439996
0.0069659315 0.17213811 0.87189591
0.010409644 0.17495851 0.87080014
0.053163875 0.1730267 0.87058896
0.057657108 0.17216092 0.87304074
0.0079902122 0.17696202 0.87268883
0.012035581 0.17796254 0.87096685
0.016094346 0.17982489 0.87083352
0.048422117 0.17791 0.87097347
0.052950658 0.17731743 0.8721571
0.056608826 0.17607208 0.87364441
0.0088182054 0.18048573 0.87403333
0.012398332 0.18169172 0.8735733
0.017151104 0.18274485 0.87151438
0.021451816 0.18401861 0.87074691
0.027462373 0.18413766 0.87079859
0.03284907 0.18256234 0.87152719
0.03762868 0.18435304 0.87117767
0.04287893 0.18422347 0.87056679
0.048044972 0.18254836 0.87168568
0.052339517 0.18178852 0.87359512
0.016943822 0.18645227 0.87278867
0.021800088 0.18729667 0.87167788
0.027573306 0.18802451 0.87197572
0.033260167 0.18716206 0.87375575
0.038092088 0.18747532 0.87251109
0.042941991 0.18733262 0.87184447
0.047881339 0.18675616 0.87294275
0.051215019 0.18622974 0.87428319
0.018605089 0.19030619 0.87433326
0.021853713 0.19100933 0.87382764
0.027391523 0.19147609 0.87373322
0.032864425 0.19065829 0.87408334
0.038490918 0.19091924 0.87415981
0.04345059 0.19061683 0.87389147
0.046326004 0.19111992 0.87433326
-0.020608604 0.13307466 0.87766671
-0.01895058 0.13374037 0.87668765
-0.01633412 0.13666722 0.87662727
-0.015713649 0.14219543 0.87854022
-0.014025388 0.14413387 0.87543333
-0.015727174 0.14722449 0.87929624
-0.013487133 0.14827026 0.87581509
0.073020592 0.14760342 0.87766665
0.076064199 0.14550582 0.87879997
-0.01283103 0.15260947 0.87736142
0.071869135 0.15183023 0.87758327
-0.011337899 0.1568117 0.87802964
-0.0091321683 0.15887578 0.87590009
0.069271028 0.15804383 0.87580001
0.071028538 0.15668698 0.87733334
-0.015703987 0.16333908 0.87800002
-0.011356554 0.16088641 0.87947154
-0.0078480747 0.16275416 0.87836665
-0.0042334069 0.16383865 0.8763001
0.067230217 0.16271402 0.87756664
0.071171567 0.1602731 0.87909991
-0.005887582 0.16521029 0.87926662
-0.0023712222 0.16776468 0.87795722
0.0014852626 0.16947547 0.8759501
0.063280173 0.16825119 0.87684292
0.066830851 0.16689239 0.87951106
-0.0015151576 0.17181806 0.87959981
0.0023047663 0.17296125 0.87710011
0.062339082 0.17256297 0.87784195
0.0023099692 0.17769696 0.87900364
0.0055754934 0.1777916 0.87677783
0.058453862 0.17835283 0.87686676
0.061895967 0.17666851 0.87931091
0.0031334194 0.18168342 0.87983322
0.0072196671 0.18293001 0.87795717
0.011021373 0.1836921 0.87640005
0.05462461 0.18347615 0.87666667
0.057481542 0.18253256 0.87866658
0.061385535 0.18004675 0.87983316
0.008870001 0.18726963 0.87916654
0.012337103 0.18763623 0.87800837
0.016189318 0.18904307 0.87601674
0.033312343 0.18641615 0.8751601
0.049695063 0.18908983 0.8762334
0.053338453 0.18781962 0.87791109
0.056460693 0.18658634 0.8797999
0.013792107 0.19222017 0.87936658
0.016832773 0.19286387 0.87764174
0.021914879 0.19398952 0.87627792
0.026793784 0.19381733 0.87550002
0.032677483 0.19319712 0.87564003
0.037260547 0.19358182 0.87590665
0.042801905 0.19319418 0.87562674
0.048615973 0.19292985 0.87780958
0.0514962 0.19215804 0.87908328
0.018150574 0.19669555 0.87865561
0.021728544 0.19721328 0.87818372
0.027073702 0.19742428 0.87795424
0.031788774 0.19767186 0.8781482
0.037292823 0.19750504 0.87806678
0.042726114 0.19776371 0.87855554
0.046574444 0.19786882 0.87902212
0.028572936 0.20136149 0.87999976
0.036775112 0.20134117 0.87991089
0.040880509 0.20135386 0.8799665
-0.021366317 0.13814792 0.88191432
-0.018624634 0.13802367 0.88060033
-0.018238591 0.14271154 0.88173503
-0.017419493 0.14766848 0.88195038
0.074549407 0.14902356 0.88026637
0.077290393 0.14793305 0.88156748
-0.01645305 0.15245377 0.88305789
-0.014112967 0.1540467 0.88090008
0.073955998 0.1527573 0.88101989
0.077248447 0.15276612 0.88296384
-0.015816981 0.15793477 0.88431758
