# .PCD v0.7 - Point Cloud Data file format
VERSION 0.7
FIELDS x y z
SIZE 4 4 4
TYPE F F F
COUNT 1 1 1
WIDTH 1318
HEIGHT 1
VIEWPOINT 0 0 0 1 0 0 0
POINTS 1318
DATA ascii
0.05479905 -0.0056276321 0.068119608
0.054929256 -0.0022686124 0.068119608
0.048051625 -0.026513726 0.071478635
0.048480093 -0.025781795 0.071478635
0.05037418 -0.022422761 0.071478635
0.048051625 -0.026789859 0.074837655
0.048635334 -0.025781795 0.074837655
0.050506592 -0.022422761 0.074837655
0.051410675 -0.020260245 0.071478635
0.051410675 -0.020529419 0.074837655
0.051924199 -0.019063741 0.071478635
0.053115755 -0.015704721 0.071478635
0.052031934 -0.019063741 0.074837655
0.053180784 -0.015704721 0.074837655
0.048051625 -0.027173236 0.078196682
0.04886058 -0.025781795 0.078196682
0.050682634 -0.022422761 0.078196682
0.048051625 -0.027569458 0.081555709
0.049101979 -0.025781795 0.081555709
0.050870657 -0.022422761 0.081555709
0.051410675 -0.020837471 0.078196682
0.051410675 -0.021173537 0.081555709
0.052128047 -0.019063741 0.078196682
0.053196877 -0.015704721 0.078196682
0.052206695 -0.019063741 0.081555709
0.053189963 -0.015704721 0.081555709
0.053938538 -0.012345687 0.071478635
0.054517418 -0.0089866668 0.071478635
0.053973436 -0.012345687 0.074837655
0.054535031 -0.0089866668 0.074837655
0.054769695 -0.0069193393 0.071478635
0.054881275 -0.0056276321 0.071478635
0.055013061 -0.0022686124 0.071478635
0.054769695 -0.0070659518 0.074837655
0.054898143 -0.0056276321 0.074837655
0.05504173 -0.0022686124 0.074837655
0.053941667 -0.012345687 0.078196682
0.054487139 -0.0089866668 0.078196682
0.053872973 -0.012345687 0.081555709
0.054396659 -0.0089866668 0.081555709
0.054769695 -0.0065791011 0.078196682
0.054851711 -0.0056276321 0.078196682
0.054999053 -0.0022686124 0.078196682
0.054768324 -0.0056276321 0.081555709
0.054769695 -0.0056276321 0.081507757
0.054769695 -0.0056092441 0.081555709
0.054902315 -0.0022686124 0.081555709
0.0077433288 -0.052272514 0.084914736
0.011102363 -0.051965654 0.084914736
0.0077433288 -0.052435741 0.088273764
0.011102363 -0.052163139 0.088273764
0.014461383 -0.051396847 0.084914736
0.017820418 -0.050534338 0.084914736
0.014461383 -0.051617995 0.088273764
0.017820418 -0.05077076 0.088273764
0.0077433288 -0.052594125 0.091632783
0.011102363 -0.05233863 0.091632783
0.0077433288 -0.052715242 0.094991811
0.0077433288 -0.052653998 0.093144283
0.0089723915 -0.052653998 0.094991811
0.011102363 -0.052464202 0.094991811
0.014461383 -0.051817164 0.091632783
0.017820418 -0.050963283 0.091632783
0.014461383 -0.051961049 0.094991811
0.017820418 -0.051110581 0.094991811
0.021091282 -0.049294963 0.084914736
0.021179438 -0.049486786 0.088273764
0.021179438 -0.049294963 0.085479289
0.021601871 -0.049294963 0.088273764
0.021179438 -0.049256399 0.084914736
0.024538457 -0.047590256 0.084914736
0.024538457 -0.04779312 0.088273764
0.027617425 -0.045935944 0.084914736
0.027897492 -0.045781717 0.084914736
0.031256512 -0.043723837 0.084914736
0.027880266 -0.045935944 0.088273764
0.027897492 -0.045926377 0.088273764
0.031256512 -0.043853417 0.088273764
0.021179438 -0.049684659 0.091632783
0.022052228 -0.049294963 0.091632783
0.021179438 -0.049850583 0.094991811
0.022430196 -0.049294963 0.094991811
0.024538457 -0.048028678 0.091632783
0.024538457 -0.048247859 0.094991811
0.027897492 -0.046115786 0.091632783
0.027897492 -0.045935944 0.088454306
0.028209522 -0.045935944 0.091632783
0.031256512 -0.044028148 0.091632783
0.027897492 -0.046341628 0.094991811
0.028589085 -0.045935944 0.094991811
0.031256512 -0.044250265 0.094991811
0.0077433288 -0.052798405 0.098350838
0.010131449 -0.052653998 0.098350838
0.011102363 -0.052553326 0.098350838
0.0077433288 -0.052838773 0.10170986
0.010521293 -0.052653998 0.10170986
0.011102363 -0.052593991 0.10170986
0.014461383 -0.052047953 0.098350838
0.017820418 -0.051238701 0.098350838
0.014461383 -0.052110955 0.10170986
0.017820418 -0.051349029 0.10170986
0.0077433288 -0.052852601 0.10506889
0.010565341 -0.052653998 0.10506889
0.011102363 -0.052602321 0.10506889
0.0077433288 -0.052921608 0.10842791
0.011102363 -0.052667171 0.10842791
0.011102363 -0.052653998 0.10802357
0.014461383 -0.052168161 0.10506889
0.017820418 -0.051460564 0.10506889
0.011231169 -0.052653998 0.10842791
0.014461383 -0.052260697 0.10842791
0.017820418 -0.051594317 0.10842791
0.021179438 -0.050033823 0.098350838
0.02285111 -0.049294963 0.098350838
0.021179438 -0.050214097 0.10170986
0.023300022 -0.049294963 0.10170986
0.024538457 -0.048465326 0.098350838
0.024538457 -0.048693582 0.10170986
0.027897492 -0.046580702 0.098350838
0.029017881 -0.045935944 0.098350838
0.031256512 -0.044537678 0.098350838
0.027897492 -0.046810806 0.10170986
0.029421851 -0.045935944 0.10170986
0.031256512 -0.044800505 0.10170986
0.021179438 -0.05037941 0.10506889
0.023750111 -0.049294963 0.10506889
0.021179438 -0.050540924 0.10842791
0.024180546 -0.049294963 0.10842791
0.024538457 -0.048925117 0.10506889
0.024538457 -0.049130723 0.10842791
0.027897492 -0.047063813 0.10506889
0.029818505 -0.045935944 0.10506889
0.031256512 -0.045035169 0.10506889
0.027897492 -0.047332913 0.10842791
0.030259758 -0.045935944 0.10842791
0.031256512 -0.045297891 0.10842791
0.033023283 -0.042576909 0.084914736
0.033189476 -0.042576909 0.088273764
0.033420846 -0.042576909 0.091632783
0.033718809 -0.042576909 0.094991811
0.034615532 -0.041479126 0.084914736
0.037616625 -0.039217889 0.084914736
0.037974566 -0.038938239 0.084914736
0.034615532 -0.04159008 0.088273764
0.037746757 -0.039217889 0.088273764
0.037974566 -0.039040938 0.088273764
0.041333586 -0.035980836 0.084914736
0.041333586 -0.03585887 0.082208157
0.041459918 -0.03585887 0.084914736
0.041333586 -0.036125734 0.088273764
0.041612387 -0.03585887 0.088273764
0.044629931 -0.032499835 0.084914736
0.044692606 -0.032426983 0.084914736
0.044692606 -0.032625318 0.088273764
0.044692606 -0.032499835 0.086016938
0.034615532 -0.0417483 0.091632783
0.037927538 -0.039217889 0.091632783
0.037974566 -0.039180771 0.091632783
0.034615532 -0.041947633 0.094991811
0.037974566 -0.039320961 0.094991811
0.037974566 -0.039217889 0.092548922
0.041333586 -0.036246449 0.091632783
0.041739464 -0.03585887 0.091632783
0.038101673 -0.039217889 0.094991811
0.041333586 -0.03633137 0.094991811
0.041824698 -0.03585887 0.094991811
0.044692606 -0.032775328 0.091632783
0.044692606 -0.032859921 0.094991811
0.047268063 -0.029140815 0.084914736
0.044803858 -0.032499835 0.088273764
0.047480285 -0.029140815 0.088273764
0.044937432 -0.032499835 0.091632783
0.047624648 -0.029140815 0.091632783
0.045004398 -0.032499835 0.094991811
0.047672689 -0.029140815 0.094991811
0.034071058 -0.042576909 0.098350838
0.034368932 -0.042576909 0.10170986
0.034615532 -0.042587668 0.10506889
0.034615532 -0.042576909 0.10489728
0.034629434 -0.042576909 0.10506889
0.034615532 -0.042796537 0.10842791
0.034893468 -0.042576909 0.10842791
0.034615532 -0.042180702 0.098350838
0.037974566 -0.039450318 0.098350838
0.034615532 -0.04238911 0.10170986
0.037974566 -0.039564893 0.10170986
0.038249522 -0.039217889 0.098350838
0.041333586 -0.036370337 0.098350838
0.04184857 -0.03585887 0.098350838
0.03837046 -0.039217889 0.10170986
0.041333586 -0.036411822 0.10170986
0.041876793 -0.03585887 0.10170986
0.044692606 -0.032856852 0.098350838
0.044692606 -0.032821685 0.10170986
0.037974566 -0.039711624 0.10506889
0.037974566 -0.039875418 0.10842791
0.038520277 -0.039217889 0.10506889
0.041333586 -0.036474064 0.10506889
0.041920185 -0.03585887 0.10506889
0.038679138 -0.039217889 0.10842791
0.041333586 -0.036570624 0.10842791
0.041989326 -0.03585887 0.10842791
0.044692606 -0.0328096 0.10506889
0.044692606 -0.032814309 0.10842791
0.044998407 -0.032499835 0.098350838
0.047641933 -0.029140815 0.098350838
0.04496339 -0.032499835 0.10170986
0.04760471 -0.029140815 0.10170986
0.044948012 -0.032499835 0.10506889
0.047590256 -0.029140815 0.10506889
0.04494977 -0.032499835 0.10842791
0.047586739 -0.029140815 0.10842791
0.048051625 -0.027938336 0.084914736
0.049310595 -0.025781795 0.084914736
0.051004827 -0.022422761 0.084914736
0.048051625 -0.02826865 0.088273764
0.049505383 -0.025781795 0.088273764
0.051102757 -0.022422761 0.088273764
0.051410675 -0.021423295 0.084914736
0.051410675 -0.021602571 0.088273764
0.052242428 -0.019063741 0.084914736
0.053178221 -0.015704721 0.084914736
0.052266657 -0.019063741 0.088273764
0.053183883 -0.015704721 0.088273764
0.048051625 -0.028491005 0.091632783
0.049629748 -0.025781795 0.091632783
0.051200032 -0.022422761 0.091632783
0.048051625 -0.028569847 0.094991811
0.049673587 -0.025781795 0.094991811
0.051261544 -0.022422761 0.094991811
0.051410675 -0.021865845 0.091632783
0.051410675 -0.022048712 0.094991811
0.052344561 -0.019063741 0.091632783
0.05322054 -0.015704721 0.091632783
0.052435011 -0.019063741 0.094991811
0.053298116 -0.015704721 0.094991811
0.053842068 -0.012345687 0.084914736
0.054325014 -0.0089866668 0.084914736
0.053841323 -0.012345687 0.088273764
0.054304451 -0.0089866668 0.088273764
0.054677695 -0.0056276321 0.084914736
0.054769695 -0.0040856451 0.084914736
0.054820955 -0.0022686124 0.084914736
0.05463326 -0.0056276321 0.088273764
0.054769695 -0.0032704324 0.088273764
0.054806978 -0.0022686124 0.088273764
0.053865761 -0.012345687 0.091632783
0.054330826 -0.0089866668 0.091632783
0.053953856 -0.012345687 0.094991811
0.054415554 -0.0089866668 0.094991811
0.054657698 -0.0056276321 0.091632783
0.054769695 -0.0039142519 0.091632783
0.054850668 -0.0022686124 0.091632783
0.054737568 -0.0056276321 0.094991811
0.054769695 -0.0052336752 0.094991811
0.05495733 -0.0022686124 0.094991811
0.048051625 -0.02852802 0.098350838
0.049682528 -0.025781795 0.098350838
0.051301032 -0.022422761 0.098350838
0.048051625 -0.028480396 0.10170986
0.049679548 -0.025781795 0.10170986
0.051338911 -0.022422761 0.10170986
0.051410675 -0.02215305 0.098350838
0.051410675 -0.0222525 0.10170986
0.052525908 -0.019063741 0.098350838
0.053442121 -0.015704721 0.098350838
0.052616298 -0.019063741 0.10170986
0.053584993 -0.015704721 0.10170986
0.048051625 -0.028465793 0.10506889
0.049680203 -0.025781795 0.10506889
0.051379353 -0.022422761 0.10506889
0.048051625 -0.028460249 0.10842791
0.049701244 -0.025781795 0.10842791
0.051410675 -0.022484228 0.10842791
0.051410675 -0.022422761 0.10699606
0.051438659 -0.022422761 0.10842791
0.051410675 -0.022351921 0.10506889
0.052710801 -0.019063741 0.10506889
0.053693086 -0.015704721 0.10506889
0.05280149 -0.019063741 0.10842791
0.053801775 -0.015704721 0.10842791
0.05409652 -0.012345687 0.098350838
0.054561526 -0.0089866668 0.098350838
0.054247469 -0.012345687 0.10170986
0.054736644 -0.0089866668 0.10170986
0.054769695 -0.0069253296 0.098350838
0.054769695 -0.0056276321 0.095909372
0.054879457 -0.0056276321 0.098350838
0.055104911 -0.0022686124 0.098350838
0.054769695 -0.00872536 0.10170986
0.055069 -0.0056276321 0.10170986
0.055253178 -0.0022686124 0.10170986
0.054384857 -0.012345687 0.10506889
0.054769695 -0.0099256784 0.10506889
0.054769695 -0.0089866668 0.10231881
0.054897875 -0.0089866668 0.10506889
0.054521978 -0.012345687 0.10842791
0.054769695 -0.010884881 0.10842791
0.055034459 -0.0089866668 0.10842791
0.055230618 -0.0056276321 0.10506889
0.055369407 -0.0022686124 0.10506889
0.055350453 -0.0056276321 0.10842791
0.055468082 -0.0022686124 0.10842791
0.0077433288 -0.053080365 0.11178693
0.011102363 -0.052828997 0.11178693
0.0077433288 -0.05326657 0.11514597
0.011102363 -0.053005531 0.11514597
0.012656868 -0.052653998 0.11178693
0.014461383 -0.052410141 0.11178693
0.017820418 -0.051747635 0.11178693
0.013800144 -0.052653998 0.11514597
0.014461383 -0.052549779 0.11514597
0.017820418 -0.051886618 0.11514597
0.0077433288 -0.053399548 0.11850499
0.011102363 -0.053129941 0.11850499
0.0077433288 -0.053470314 0.12186401
0.011102363 -0.053205952 0.12186401
0.01441136 -0.052653998 0.11850499
0.014461383 -0.052645206 0.11850499
0.017820418 -0.051977411 0.11850499
0.014461383 -0.052719951 0.12186401
0.014461383 -0.052653998 0.11885175
0.014835551 -0.052653998 0.12186401
0.017820418 -0.052042812 0.12186401
0.021179438 -0.050737187 0.11178693
0.024538457 -0.049342796 0.11178693
0.024538457 -0.049294963 0.11108787
0.021179438 -0.050921306 0.11514597
0.024538457 -0.049529701 0.11514597
0.024640813 -0.049294963 0.11178693
0.02503565 -0.049294963 0.11514597
0.027897492 -0.047589719 0.11178693
0.030660734 -0.045935944 0.11178693
0.031256512 -0.045545027 0.11178693
0.027897492 -0.047788307 0.11514597
0.03091085 -0.045935944 0.11514597
0.031256512 -0.045704916 0.11514597
0.021179438 -0.051022232 0.11850499
0.024538457 -0.049624816 0.11850499
0.021179438 -0.051057234 0.12186401
0.024538457 -0.049643487 0.12186401
0.025235429 -0.049294963 0.11850499
0.025268406 -0.049294963 0.12186401
0.027897492 -0.04788433 0.11850499
0.031016365 -0.045935944 0.11850499
0.031256512 -0.045774415 0.11850499
0.027897492 -0.047898993 0.12186401
0.031047314 -0.045935944 0.12186401
0.031256512 -0.045795888 0.12186401
0.0077433288 -0.053472504 0.12522304
0.011102363 -0.053222746 0.12522304
0.0077433288 -0.053381264 0.12858206
0.011102363 -0.053161427 0.12858206
0.014461383 -0.052747771 0.12522304
0.015008017 -0.052653998 0.12522304
0.017820418 -0.052066967 0.12522304
0.014461383 -0.052718058 0.12858206
0.014830366 -0.052653998 0.12858206
0.017820418 -0.052025542 0.12858206
0.0077433288 -0.053218588 0.13194109
0.011102363 -0.053037077 0.13194109
0.0077433288 -0.053049073 0.13530011
0.011102363 -0.05290474 0.13530011
0.014335707 -0.052653998 0.13194109
0.014461383 -0.052653998 0.1313237
0.014461383 -0.052633598 0.13194109
0.017820418 -0.051964998 0.13194109
0.013608813 -0.052653998 0.13530011
0.014461383 -0.052532703 0.13530011
0.017820418 -0.051894054 0.13530011
0.021179438 -0.051032186 0.12522304
0.024538457 -0.049604893 0.12522304
0.021179438 -0.050989449 0.12858206
0.024538457 -0.04956761 0.12858206
0.025193423 -0.049294963 0.12522304
0.025117978 -0.049294963 0.12858206
0.027897492 -0.047872156 0.12522304
0.031017378 -0.045935944 0.12522304
0.031256512 -0.045776114 0.12522304
0.027897492 -0.047805816 0.12858206
0.030929193 -0.045935944 0.12858206
0.031256512 -0.04572317 0.12858206
0.021179438 -0.050960854 0.13194109
0.024538457 -0.049542561 0.13194109
0.021179438 -0.050920844 0.13530011
0.024538457 -0.04952307 0.13530011
0.025057465 -0.049294963 0.13194109
0.025018156 -0.049294963 0.13530011
0.027897492 -0.047745481 0.13194109
0.030864254 -0.045935944 0.13194109
0.031256512 -0.045684949 0.13194109
0.027897492 -0.047737554 0.13530011
0.030880511 -0.045935944 0.13530011
0.031256512 -0.045694232 0.13530011
0.034615532 -0.042980954 0.11178693
0.035117403 -0.042576909 0.11178693
0.034615532 -0.04312402 0.11514597
0.035292327 -0.042576909 0.11514597
0.034615532 -0.043211326 0.11850499
0.035409734 -0.042576909 0.11850499
0.034615532 -0.043252721 0.12186401
0.035465822 -0.042576909 0.12186401
0.037974566 -0.040061191 0.11178693
0.037974566 -0.04022713 0.11514597
0.038862213 -0.039217889 0.11178693
0.041333586 -0.036696002 0.11178693
0.042084515 -0.03585887 0.11178693
0.039028645 -0.039217889 0.11514597
0.041333586 -0.036808193 0.11514597
0.042177409 -0.03585887 0.11514597
0.044692606 -0.032863587 0.11178693
0.044692606 -0.032966867 0.11514597
0.037974566 -0.040326387 0.11850499
0.037974566 -0.040384442 0.12186401
0.039119467 -0.039217889 0.11850499
0.041333586 -0.036896288 0.11850499
0.042257994 -0.03585887 0.11850499
0.039189175 -0.039217889 0.12186401
0.041333586 -0.036979124 0.12186401
0.042334437 -0.03585887 0.12186401
0.044692606 -0.033063173 0.11850499
0.044692606 -0.033150434 0.12186401
0.044990569 -0.032499835 0.11178693
0.047616154 -0.029140815 0.11178693
0.045072168 -0.032499835 0.11514597
0.04766497 -0.029140815 0.11514597
0.045151353 -0.032499835 0.11850499
0.047725797 -0.029140815 0.11850499
0.045225859 -0.032499835 0.12186401
0.047803015 -0.029140815 0.12186401
0.034615532 -0.043258727 0.12522304
0.035479516 -0.042576909 0.12522304
0.034615532 -0.043247014 0.12858206
0.03548044 -0.042576909 0.12858206
0.034615532 -0.043230131 0.13194109
0.035466209 -0.042576909 0.13194109
0.034615532 -0.043228775 0.13530011
0.035459727 -0.042576909 0.13530011
0.037974566 -0.040416986 0.12522304
0.037974566 -0.040453315 0.12858206
0.039241344 -0.039217889 0.12522304
0.041333586 -0.037045702 0.12522304
0.042405218 -0.03585887 0.12522304
0.03929396 -0.039217889 0.12858206
0.041333586 -0.037134364 0.12858206
0.042510211 -0.03585887 0.12858206
0.044692606 -0.033245921 0.12522304
0.044692606 -0.033382133 0.12858206
0.037974566 -0.040470421 0.13194109
0.037974566 -0.040482372 0.13530011
0.039350495 -0.039217889 0.13194109
0.041333586 -0.037259519 0.13194109
0.042665035 -0.03585887 0.13194109
0.039402544 -0.039217889 0.13530011
0.041333586 -0.037370443 0.13530011
0.042803943 -0.03585887 0.13530011
0.044692606 -0.033560216 0.13194109
0.044692606 -0.033737659 0.13530011
0.045308471 -0.032499835 0.12522304
0.047888309 -0.029140815 0.12522304
0.045422673 -0.032499835 0.12858206
0.047971487 -0.029140815 0.12858206
0.045547932 -0.032499835 0.13194109
0.048041284 -0.029140815 0.13194109
0.045682609 -0.032499835 0.13530011
0.048051625 -0.029262483 0.13530011
0.048051625 -0.029140815 0.13244143
0.048133373 -0.029140815 0.13530011
0.048051625 -0.028499201 0.11178693
0.049732029 -0.025781795 0.11178693
0.051410675 -0.022607148 0.11178693
0.048051625 -0.028568134 0.11514597
0.049763352 -0.025781795 0.11514597
0.051410675 -0.022688553 0.11514597
0.051495403 -0.022422761 0.11178693
0.051534832 -0.022422761 0.11514597
0.052872717 -0.019063741 0.11178693
0.053904235 -0.015704721 0.11178693
0.052937508 -0.019063741 0.11514597
0.053988606 -0.015704721 0.11514597
0.048051625 -0.028659806 0.11850499
0.049836695 -0.025781795 0.11850499
0.051410675 -0.022811398 0.11850499
0.048051625 -0.028774232 0.12186401
0.049920142 -0.025781795 0.12186401
0.051410675 -0.022946417 0.12186401
0.051591396 -0.022422761 0.11850499
0.051652431 -0.022422761 0.12186401
0.052996248 -0.019063741 0.11850499
0.054030061 -0.015704721 0.11850499
0.053038597 -0.019063741 0.12186401
0.054035902 -0.015704721 0.12186401
0.054642171 -0.012345687 0.11178693
0.054769695 -0.01160568 0.11178693
0.055140823 -0.0089866668 0.11178693
0.054723084 -0.012345687 0.11514597
0.054769695 -0.012077287 0.11514597
0.055213541 -0.0089866668 0.11514597
0.055448353 -0.0056276321 0.11178693
0.055564582 -0.0022686124 0.11178693
0.055511564 -0.0056276321 0.11514597
0.055614352 -0.0022686124 0.11514597
0.054752409 -0.012345687 0.11850499
0.054769695 -0.012248635 0.11850499
0.055247396 -0.0089866668 0.11850499
0.054734409 -0.012345687 0.12186401
0.054769695 -0.012144417 0.12186401
0.055231184 -0.0089866668 0.12186401
0.055525661 -0.0056276321 0.11850499
0.055601865 -0.0022686124 0.11850499
0.055512995 -0.0056276321 0.12186401
0.055589288 -0.0022686124 0.12186401
0.048051625 -0.028897747 0.12522304
0.049987823 -0.025781795 0.12522304
0.051410675 -0.02306141 0.12522304
0.048051625 -0.02901949 0.12858206
0.050051391 -0.025781795 0.12858206
0.051410675 -0.023170307 0.12858206
0.051702291 -0.022422761 0.12522304
0.051748693 -0.022422761 0.12858206
0.053054094 -0.019063741 0.12522304
0.054032862 -0.015704721 0.12522304
0.053078264 -0.019063741 0.12858206
0.054043412 -0.015704721 0.12858206
0.048051625 -0.02912505 0.13194109
0.050128967 -0.025781795 0.13194109
0.051410675 -0.023329794 0.13194109
0.050248206 -0.025781795 0.13530011
0.051410675 -0.023577809 0.13530011
0.051821947 -0.022422761 0.13194109
0.051940411 -0.022422761 0.13530011
0.053133011 -0.019063741 0.13194109
0.054080576 -0.015704721 0.13194109
0.053226501 -0.019063741 0.13530011
0.054152161 -0.015704721 0.13530011
0.054721445 -0.012345687 0.12522304
0.054769695 -0.01206249 0.12522304
0.055211604 -0.0089866668 0.12522304
0.054725379 -0.012345687 0.12858206
0.054769695 -0.012085721 0.12858206
0.055217266 -0.0089866668 0.12858206
0.05551219 -0.0056276321 0.12522304
0.055613995 -0.0022686124 0.12522304
0.05553171 -0.0056276321 0.12858206
0.055649281 -0.0022686124 0.12858206
0.054762781 -0.012345687 0.13194109
0.054769695 -0.012306228 0.13194109
0.055260867 -0.0089866668 0.13194109
0.054769695 -0.012698635 0.13530011
0.054769695 -0.012345687 0.13232407
0.054830939 -0.012345687 0.13530011
0.05532214 -0.0089866668 0.13530011
0.055575907 -0.0056276321 0.13194109
0.055675834 -0.0022686124 0.13194109
0.05561474 -0.0056276321 0.13530011
0.055686116 -0.0022686124 0.13530011
0.0077433288 -0.052926809 0.13865913
0.011102363 -0.052807435 0.13865913
0.0077433288 -0.052881852 0.14201817
0.011102363 -0.052768201 0.14201817
0.012869954 -0.052653998 0.13865913
0.014461383 -0.052446321 0.13865913
0.017820418 -0.051817596 0.13865913
0.012449384 -0.052653998 0.14201817
0.014461383 -0.052406207 0.14201817
0.017820418 -0.051804736 0.14201817
0.0077433288 -0.052921847 0.14537719
0.011102363 -0.05280225 0.14537719
0.0077433288 -0.053032652 0.14873622
0.011102363 -0.052925795 0.14873622
0.012869388 -0.052653998 0.14537719
0.014461383 -0.052457586 0.14537719
0.017820418 -0.051877394 0.14537719
0.014026418 -0.052653998 0.14873622
0.014461383 -0.052591458 0.14873622
0.017820418 -0.052004218 0.14873622
0.021179438 -0.050902098 0.13865913
0.024538457 -0.049555466 0.13865913
0.021179438 -0.050938562 0.14201817
0.024538457 -0.049647704 0.14201817
0.025094852 -0.049294963 0.13865913
0.02530615 -0.049294963 0.14201817
0.027897492 -0.047791213 0.13865913
0.030951262 -0.045935944 0.13865913
0.031256512 -0.045739651 0.13865913
0.027897492 -0.047922567 0.14201817
0.031081304 -0.045935944 0.14201817
0.031256512 -0.045819864 0.14201817
0.021179438 -0.051018417 0.14537719
0.024538457 -0.049747184 0.14537719
0.021179438 -0.05114761 0.14873622
0.024538457 -0.049866334 0.14873622
0.025538385 -0.049294963 0.14537719
0.025794685 -0.049294963 0.14873622
0.027897492 -0.048053324 0.14537719
0.031242013 -0.045935944 0.14537719
0.031256512 -0.045926213 0.14537719
0.027897492 -0.048183963 0.14873622
0.031256512 -0.046032578 0.14873622
0.031256512 -0.045935944 0.14569233
0.0077433288 -0.05321306 0.15209524
0.011102363 -0.053107679 0.15209524
0.0077433288 -0.053439572 0.15545426
0.011102363 -0.053320527 0.15545426
0.014461383 -0.052774966 0.15209524
0.014461383 -0.052653998 0.14993273
0.015243635 -0.052653998 0.15209524
0.017820418 -0.052176207 0.15209524
0.014461383 -0.052999467 0.15545426
0.0165952 -0.052653998 0.15545426
0.017820418 -0.052397624 0.15545426
0.0077433288 -0.053659603 0.1588133
0.011102363 -0.053568423 0.1588133
0.0077433288 -0.053903058 0.16217232
0.011102363 -0.053839788 0.16217232
0.014461383 -0.053267926 0.1588133
0.017782331 -0.052653998 0.1588133
0.017820418 -0.052644968 0.1588133
0.014461383 -0.053534716 0.16217232
0.017820418 -0.052897379 0.16217232
0.017820418 -0.052653998 0.15893719
0.021179438 -0.051304668 0.15209524
0.024538457 -0.050024062 0.15209524
0.021179438 -0.051493958 0.15545426
0.024538457 -0.050198987 0.15545426
0.026125669 -0.049294963 0.15209524
0.026468456 -0.049294963 0.15545426
0.027897492 -0.048354968 0.15209524
0.031256512 -0.046159402 0.15209524
0.027897492 -0.048530549 0.15545426
0.031256512 -0.046298727 0.15545426
0.021179438 -0.051719099 0.1588133
0.024538457 -0.050384775 0.1588133
0.018837631 -0.052653998 0.16217232
0.021179438 -0.051977277 0.16217232
0.024538457 -0.050601438 0.16217232
0.026778236 -0.049294963 0.1588133
0.027111039 -0.049294963 0.16217232
0.027897492 -0.048690125 0.1588133
0.031256512 -0.046453506 0.1588133
0.027897492 -0.048863381 0.16217232
0.031256512 -0.046638489 0.16217232
0.034615532 -0.043268397 0.13865913
0.035510778 -0.042576909 0.13865913
0.034615532 -0.043342039 0.14201817
0.035600856 -0.042576909 0.14201817
0.034615532 -0.043446466 0.14537719
0.035720736 -0.042576909 0.14537719
0.031397283 -0.045935944 0.14873622
0.034615532 -0.04353179 0.14873622
0.035802215 -0.042576909 0.14873622
0.037974566 -0.040539831 0.13865913
0.037974566 -0.040592164 0.14201817
0.039469182 -0.039217889 0.13865913
0.041333586 -0.03745231 0.13865913
0.042904019 -0.03585887 0.13865913
0.039511532 -0.039217889 0.14201817
0.041333586 -0.037512615 0.14201817
0.043007433 -0.03585887 0.14201817
0.044692606 -0.03386578 0.13865913
0.044692606 -0.033994958 0.14201817
0.037974566 -0.040646955 0.14537719
0.037974566 -0.040684536 0.14873622
0.03954652 -0.039217889 0.14537719
0.041333586 -0.037553161 0.14537719
0.043074757 -0.03585887 0.14537719
0.039569229 -0.039217889 0.14873622
0.041333586 -0.037555918 0.14873622
0.043095082 -0.03585887 0.14873622
0.044692606 -0.034102947 0.14537719
0.044692606 -0.034197241 0.14873622
0.045802116 -0.032499835 0.13865913
0.048051625 -0.029456779 0.13865913
0.048264205 -0.029140815 0.13865913
0.04593274 -0.032499835 0.14201817
0.048051625 -0.029716402 0.14201817
0.048443764 -0.029140815 0.14201817
0.04606232 -0.032499835 0.14537719
0.048051625 -0.029976279 0.14537719
0.048639208 -0.029140815 0.14537719
0.046201199 -0.032499835 0.14873622
0.048051625 -0.030203536 0.14873622
0.048815548 -0.029140815 0.14873622
0.031577647 -0.045935944 0.15209524
0.034615532 -0.043614343 0.15209524
0.035860673 -0.042576909 0.15209524
0.031766653 -0.045935944 0.15545426
0.034615532 -0.04372026 0.15545426
0.035972431 -0.042576909 0.15545426
0.031961337 -0.045935944 0.1588133
0.034615532 -0.043836743 0.1588133
0.036100671 -0.042576909 0.1588133
0.03220059 -0.045935944 0.16217232
0.034615532 -0.04399474 0.16217232
0.036261395 -0.042576909 0.16217232
0.037974566 -0.040689811 0.15209524
0.037974566 -0.040733933 0.15545426
0.03954649 -0.039217889 0.15209524
0.041333586 -0.037519619 0.15209524
0.04308784 -0.03585887 0.15209524
0.039529592 -0.039217889 0.15545426
0.041333586 -0.037482604 0.15545426
0.043037117 -0.03585887 0.15545426
0.044692606 -0.034256607 0.15209524
0.044692606 -0.034213319 0.15545426
0.037974566 -0.040810183 0.1588133
0.037974566 -0.040942505 0.16217232
0.039574176 -0.039217889 0.1588133
0.041333586 -0.037495181 0.1588133
0.043008655 -0.03585887 0.1588133
0.039695203 -0.039217889 0.16217232
0.041333586 -0.037592366 0.16217232
0.043086588 -0.03585887 0.16217232
0.044692606 -0.034164712 0.1588133
0.044692606 -0.034216583 0.16217232
0.046316206 -0.032499835 0.15209524
0.048051625 -0.03035894 0.15209524
0.04892242 -0.029140815 0.15209524
0.046325684 -0.032499835 0.15545426
0.048051625 -0.030442357 0.15545426
0.04898876 -0.029140815 0.15545426
0.046319634 -0.032499835 0.1588133
0.048051625 -0.030518994 0.1588133
0.049050868 -0.029140815 0.1588133
0.046338439 -0.032499835 0.16217232
0.048051625 -0.030557975 0.16217232
0.049098551 -0.029140815 0.16217232
0.050400227 -0.025781795 0.13865913
0.051410675 -0.023888662 0.13865913
0.050581217 -0.025781795 0.14201817
0.051410675 -0.024226427 0.14201817
0.052092195 -0.022422761 0.13865913
0.052261531 -0.022422761 0.14201817
0.053369403 -0.019063741 0.13865913
0.054269612 -0.015704721 0.13865913
0.053538859 -0.019063741 0.14201817
0.05441159 -0.015704721 0.14201817
0.050785244 -0.025781795 0.14537719
0.051410675 -0.02459392 0.14537719
0.050974399 -0.025781795 0.14873622
0.051410675 -0.024950624 0.14873622
0.052431315 -0.022422761 0.14537719
0.052597374 -0.022422761 0.14873622
0.053681731 -0.019063741 0.14537719
0.05454427 -0.015704721 0.14537719
0.053813994 -0.019063741 0.14873622
0.054664582 -0.015704721 0.14873622
0.054769695 -0.013232589 0.13865913
0.054922134 -0.012345687 0.13865913
0.05539149 -0.0089866668 0.13865913
0.054769695 -0.013892859 0.14201817
0.055031598 -0.012345687 0.14201817
0.055473834 -0.0089866668 0.14201817
0.055645049 -0.0056276321 0.13865913
0.055701494 -0.0022686124 0.13865913
0.055688292 -0.0056276321 0.14201817
0.05572176 -0.0022686124 0.14201817
0.054769695 -0.014590874 0.14537719
0.055144489 -0.012345687 0.14537719
0.055555284 -0.0089866668 0.14537719
0.054769695 -0.015214056 0.14873622
0.055251569 -0.012345687 0.14873622
0.055598617 -0.0089866668 0.14873622
0.055730432 -0.0056276321 0.14537719
0.055737525 -0.0022686124 0.14537719
0.05573675 -0.0056276321 0.14873622
0.055744261 -0.0022686124 0.14873622
0.051087976 -0.025781795 0.15209524
0.051410675 -0.025173619 0.15209524
0.051145077 -0.025781795 0.15545426
0.051410675 -0.02528879 0.15545426
0.052713662 -0.022422761 0.15209524
0.052771777 -0.022422761 0.15545426
0.053921431 -0.019063741 0.15209524
0.054745585 -0.015704721 0.15209524
0.053971231 -0.019063741 0.15545426
0.054769695 -0.0157215 0.15545426
0.054769695 -0.015704721 0.15469564
0.054773033 -0.015704721 0.15545426
0.051193446 -0.025781795 0.1588133
0.051410675 -0.025381312 0.1588133
0.051231235 -0.025781795 0.16217232
0.051410675 -0.025442734 0.16217232
0.052799523 -0.022422761 0.1588133
0.052802265 -0.022422761 0.16217232
0.053985447 -0.019063741 0.1588133
0.054769695 -0.015773594 0.1588133
0.054782987 -0.015704721 0.1588133
0.053983063 -0.019063741 0.16217232
0.054769695 -0.015847877 0.16217232
0.054798692 -0.015704721 0.16217232
0.054769695 -0.015591547 0.15209524
0.055314064 -0.012345687 0.15209524
0.055619985 -0.0089866668 0.15209524
0.055339038 -0.012345687 0.15545426
0.055668443 -0.0089866668 0.15545426
0.055745631 -0.0056276321 0.15209524
0.055754155 -0.0022686124 0.15209524
0.05578059 -0.0056276321 0.15545426
0.055784583 -0.0022686124 0.15545426
0.055358797 -0.012345687 0.1588133
0.055712551 -0.0089866668 0.1588133
0.055384904 -0.012345687 0.16217232
0.055755079 -0.0089866668 0.16217232
0.055834353 -0.0056276321 0.1588133
0.055851579 -0.0022686124 0.1588133
0.055929184 -0.0056276321 0.16217232
0.055975229 -0.0022686124 0.16217232
0.0077433288 -0.054170996 0.16553134
0.011102363 -0.054088399 0.16553134
0.0077433288 -0.054385215 0.16889037
0.011102363 -0.054280698 0.16889037
0.014461383 -0.053779691 0.16553134
0.017820418 -0.05317156 0.16553134
0.014461383 -0.053998023 0.16889037
0.017820418 -0.053429216 0.16889037
0.0077433288 -0.05452612 0.17224939
0.011102363 -0.054429203 0.17224939
0.0077433288 -0.054627195 0.17560841
0.011102363 -0.054522082 0.17560841
0.014461383 -0.054142639 0.17224939
0.017820418 -0.053595483 0.17224939
0.014461383 -0.054211929 0.17560841
0.017820418 -0.053685397 0.17560841
0.019893691 -0.052653998 0.16553134
0.021179438 -0.052270457 0.16553134
0.024538457 -0.050877512 0.16553134
0.020780668 -0.052653998 0.16889037
0.021179438 -0.052531987 0.16889037
0.024538457 -0.051159605 0.16889037
0.027523994 -0.049294963 0.16553134
0.027897492 -0.049326926 0.16889037
0.027897492 -0.049294963 0.16843782
0.02795212 -0.049294963 0.16889037
0.027897492 -0.049087495 0.16553134
0.031256512 -0.046851873 0.16553134
0.031256512 -0.047106966 0.16889037
0.021179438 -0.052704886 0.17224939
0.021179438 -0.052653998 0.17107105
0.021339372 -0.052653998 0.17224939
0.024538457 -0.051373884 0.17224939
0.021179438 -0.052798644 0.17560841
0.021618769 -0.052653998 0.17560841
0.024538457 -0.05149731 0.17560841
0.027897492 -0.049536049 0.17224939
0.028305426 -0.049294963 0.17224939
0.027897492 -0.049685478 0.17560841
0.028562978 -0.049294963 0.17560841
0.031256512 -0.04735595 0.17224939
0.031256512 -0.047547236 0.17560841
0.0077433288 -0.05467023 0.17896745
0.011102363 -0.054570243 0.17896745
0.0077433288 -0.054678723 0.18232647
0.011102363 -0.054608032 0.18232647
0.014461383 -0.054261371 0.17896745
0.017820418 -0.053712413 0.17896745
0.014461383 -0.054287046 0.18232647
0.017820418 -0.053674936 0.18232647
0.0077433288 -0.054715052 0.1856855
0.011102363 -0.054632097 0.1856855
0.0077433288 -0.054794207 0.18904452
0.011102363 -0.054653779 0.18904452
0.014461383 -0.05428417 0.1856855
0.017820418 -0.053636074 0.1856855
0.014461383 -0.054285631 0.18904452
0.017820418 -0.053623259 0.18904452
0.021179438 -0.05281736 0.17896745
0.021676555 -0.052653998 0.17896745
0.024538457 -0.051538184 0.17896745
0.021179438 -0.052769125 0.18232647
0.021536425 -0.052653998 0.18232647
0.024538457 -0.051501811 0.18232647
0.027897492 -0.049762785 0.17896745
0.028700545 -0.049294963 0.17896745
0.027897492 -0.049756497 0.18232647
0.028706387 -0.049294963 0.18232647
0.031256512 -0.04765594 0.17896745
0.031256512 -0.047672123 0.18232647
0.021179438 -0.052704468 0.1856855
0.021332666 -0.052653998 0.1856855
0.024538457 -0.051417425 0.1856855
0.021179438 -0.052655265 0.18904452
0.021183148 -0.052653998 0.18904452
0.024538457 -0.051349312 0.18904452
0.027897492 -0.049694359 0.1856855
0.028618082 -0.049294963 0.1856855
0.027897492 -0.049645215 0.18904452
0.028535947 -0.049294963 0.18904452
0.031256512 -0.047649428 0.1856855
0.031256512 -0.04760541 0.18904452
0.032490462 -0.045935944 0.16553134
0.034615532 -0.044237867 0.16553134
0.036493659 -0.042576909 0.16553134
0.032834694 -0.045935944 0.16889037
0.034615532 -0.044513553 0.16889037
0.036802262 -0.042576909 0.16889037
0.033175081 -0.045935944 0.17224939
0.034615532 -0.044780284 0.17224939
0.037113667 -0.042576909 0.17224939
0.033467695 -0.045935944 0.17560841
0.034615532 -0.045029685 0.17560841
0.037369162 -0.042576909 0.17560841
0.037974566 -0.041162118 0.16553134
0.037974566 -0.041466445 0.16889037
0.039939731 -0.039217889 0.16553134
0.041333586 -0.0378187 0.16553134
0.04326281 -0.03585887 0.16553134
0.040249467 -0.039217889 0.16889037
0.041333586 -0.038104802 0.16889037
0.043483734 -0.03585887 0.16889037
0.044692606 -0.034344107 0.16553134
0.044692606 -0.034531817 0.16889037
0.037974566 -0.041759104 0.17224939
0.037974566 -0.041994795 0.17560841
0.040522188 -0.039217889 0.17224939
0.041333586 -0.038387105 0.17224939
0.043733895 -0.03585887 0.17224939
0.040769249 -0.039217889 0.17560841
0.041333586 -0.038643822 0.17560841
0.043965936 -0.03585887 0.17560841
0.044692606 -0.034779936 0.17224939
0.044692606 -0.035036281 0.17560841
0.046356559 -0.032499835 0.16553134
0.048051625 -0.030514792 0.16553134
0.049099356 -0.029140815 0.16553134
0.04644385 -0.032499835 0.16889037
0.048051625 -0.030545115 0.16889037
0.049123973 -0.029140815 0.16889037
0.046613425 -0.032499835 0.17224939
0.048051625 -0.030701458 0.17224939
0.049223065 -0.029140815 0.17224939
0.046819925 -0.032499835 0.17560841
0.048051625 -0.030909598 0.17560841
0.049350023 -0.029140815 0.17560841
0.03362748 -0.045935944 0.17896745
0.034615532 -0.045156926 0.17896745
0.037534624 -0.042576909 0.17896745
0.033646896 -0.045935944 0.18232647
0.034615532 -0.045173392 0.18232647
0.037607551 -0.042576909 0.18232647
0.033637285 -0.045935944 0.1856855
0.034615532 -0.045172036 0.1856855
0.037659943 -0.042576909 0.1856855
0.033613428 -0.045935944 0.18904452
0.034615532 -0.045170784 0.18904452
0.037704349 -0.042576909 0.18904452
0.037974566 -0.042159289 0.17896745
0.037974566 -0.042241141 0.18232647
0.040961683 -0.039217889 0.17896745
0.041333586 -0.038839176 0.17896745
0.044168293 -0.03585887 0.17896745
0.041110277 -0.039217889 0.18232647
0.041333586 -0.038994595 0.18232647
0.04435879 -0.03585887 0.18232647
0.044692606 -0.035276636 0.17896745
0.044692606 -0.035493895 0.18232647
0.037974566 -0.04229638 0.1856855
0.037974566 -0.042340174 0.18904452
0.041235238 -0.039217889 0.1856855
0.041333586 -0.039122701 0.1856855
0.044537038 -0.03585887 0.1856855
0.041333586 -0.039224073 0.18904452
0.041333586 -0.039217889 0.18881004
0.041340083 -0.039217889 0.18904452
0.044687897 -0.03585887 0.18904452
0.044692606 -0.035689533 0.1856855
0.044692606 -0.035853818 0.18904452
0.047082275 -0.032499835 0.17896745
0.048051625 -0.031255975 0.17896745
0.049562067 -0.029140815 0.17896745
0.047317445 -0.032499835 0.18232647
0.048051625 -0.031577989 0.18232647
0.049788445 -0.029140815 0.18232647
0.047499657 -0.032499835 0.1856855
0.048051625 -0.031807199 0.1856855
0.049957871 -0.029140815 0.1856855
0.047658205 -0.032499835 0.18904452
0.048051625 -0.031999111 0.18904452
0.050060451 -0.029140815 0.18904452
0.051258057 -0.025781795 0.16553134
0.051410675 -0.025486737 0.16553134
0.051314116 -0.025781795 0.16889037
0.051410675 -0.025596872 0.16889037
0.052813083 -0.022422761 0.16553134
0.052877843 -0.022422761 0.16889037
0.054005146 -0.019063741 0.16553134
0.054769695 -0.016047895 0.16553134
0.054843754 -0.015704721 0.16553134
0.054068327 -0.019063741 0.16889037
0.054769695 -0.016376927 0.16889037
0.054923385 -0.015704721 0.16889037
0.051402777 -0.025781795 0.17224939
0.051410675 -0.025766835 0.17224939
0.051410675 -0.02597253 0.17560841
0.051410675 -0.025781795 0.17253684
0.052989036 -0.022422761 0.17224939
0.051513702 -0.025781795 0.17560841
0.053126872 -0.022422761 0.17560841
0.054177493 -0.019063741 0.17224939
0.054769695 -0.016855195 0.17224939
0.055042684 -0.015704721 0.17224939
0.054320991 -0.019063741 0.17560841
0.054769695 -0.01739502 0.17560841
0.055169642 -0.015704721 0.17560841
0.055446923 -0.012345687 0.16553134
0.055837929 -0.0089866668 0.16553134
0.055560917 -0.012345687 0.16889037
0.055971682 -0.0089866668 0.16889037
0.056059271 -0.0056276321 0.16553134
0.056138039 -0.0022686124 0.16553134
0.056220204 -0.0056276321 0.16889037
0.056334138 -0.0022686124 0.16889037
0.055696666 -0.012345687 0.17224939
0.056120247 -0.0089866668 0.17224939
0.055822939 -0.012345687 0.17560841
0.056248426 -0.0089866668 0.17560841
0.056386083 -0.0056276321 0.17224939
0.05652231 -0.0022686124 0.17224939
0.056513041 -0.0056276321 0.17560841
0.056666493 -0.0022686124 0.17560841
0.051410675 -0.02623494 0.17896745
0.051410675 -0.026511475 0.18232647
0.051657349 -0.025781795 0.17896745
0.053279728 -0.022422761 0.17896745
0.051805317 -0.025781795 0.18232647
0.053408027 -0.022422761 0.18232647
0.054463863 -0.019063741 0.17896745
0.054769695 -0.017935783 0.17896745
0.055288613 -0.015704721 0.17896745
0.054582536 -0.019063741 0.18232647
0.054769695 -0.01839447 0.18232647
0.055394918 -0.015704721 0.18232647
0.051410675 -0.026721224 0.1856855
0.051410675 -0.026817277 0.18904452
0.05190298 -0.025781795 0.1856855
0.053472131 -0.022422761 0.1856855
0.051941663 -0.025781795 0.18904452
0.05349651 -0.022422761 0.18904452
0.054640055 -0.019063741 0.1856855
0.054769695 -0.018605322 0.1856855
0.055461943 -0.015704721 0.1856855
0.054674 -0.019063741 0.18904452
0.054769695 -0.018739015 0.18904452
0.055524141 -0.015704721 0.18904452
0.055916756 -0.012345687 0.17896745
0.056346029 -0.0089866668 0.17896745
0.055974424 -0.012345687 0.18232647
0.05640462 -0.0089866668 0.18232647
0.05659461 -0.0056276321 0.17896745
0.056751639 -0.0022686124 0.17896745
0.056661665 -0.0056276321 0.18232647
0.056799918 -0.0022686124 0.18232647
0.056046873 -0.012345687 0.1856855
0.056470126 -0.0089866668 0.1856855
0.05611515 -0.012345687 0.18904452
0.05653584 -0.0089866668 0.18904452
0.056712002 -0.0056276321 0.1856855
0.056843609 -0.0022686124 0.1856855
0.056760073 -0.0056276321 0.18904452
0.056890994 -0.0022686124 0.18904452
-0.036814153 0.02460359 0.027811304
-0.035923988 0.026516467 0.027811304
-0.035923988 0.02460359 0.025699768
-0.029291078 0.02460359 0.01773423
-0.029205948 0.024900764 0.01773423
-0.029205948 0.02460359 0.017676055
-0.033203557 0.02460359 0.021093253
-0.032564968 0.026500121 0.021093253
-0.032564968 0.02460359 0.02042054
-0.031894535 0.02796261 0.021093253
-0.029205948 0.02796261 0.018682055
-0.029388234 0.031321645 0.021093253
-0.029205948 0.031321645 0.020913836
-0.027577743 0.02796261 0.01773423
-0.025846913 0.02460359 0.015827358
-0.025846913 0.02796261 0.016851984
-0.022487894 0.02460359 0.014666297
-0.022487894 0.02796261 0.015668549
-0.025846913 0.029839799 0.01773423
-0.0238377 0.031321645 0.01773423
-0.022487894 0.031321645 0.017332844
-0.025846913 0.031321645 0.018587325
-0.029205948 0.031503618 0.021093253
-0.022487894 0.031946182 0.01773423
-0.025846913 0.03415516 0.021093253
-0.024961412 0.034680665 0.021093253
-0.022487894 0.034680665 0.019867294
-0.022487894 0.035882205 0.021093253
-0.035338596 0.02460359 0.024452277
-0.033942774 0.02796261 0.024452277
-0.032564968 0.02796261 0.022017404
-0.032564968 0.030061334 0.024452277
-0.031580687 0.031321645 0.024452277
-0.03518866 0.02796261 0.027811304
-0.032842472 0.031321645 0.027811304
-0.032564968 0.031321645 0.026968423
-0.029205948 0.033745944 0.024452277
-0.032564968 0.031653106 0.027811304
-0.029538006 0.034680665 0.027811304
-0.029205948 0.034680665 0.026910175
-0.029205948 0.034962445 0.027811304
-0.028041109 0.034680665 0.024452277
-0.025846913 0.034680665 0.021770705
-0.025846913 0.036239833 0.024452277
-0.022513807 0.038039684 0.024452277
-0.022487894 0.038039684 0.024428748
-0.025846913 0.037492037 0.027811304
-0.024954379 0.038039684 0.027811304
-0.022487894 0.03805095 0.024452277
-0.022487894 0.039455801 0.027811304
-0.019128874 0.036923409 0.021093253
-0.019128874 0.038039684 0.022425134
-0.015769839 0.037721008 0.021093253
-0.015769839 0.038039684 0.02145981
-0.019128874 0.039443642 0.024452277
-0.015769839 0.040263087 0.024452277
-0.019128874 0.041001886 0.027811304
-0.018007532 0.041398704 0.027811304
-0.015769839 0.041398704 0.026428651
-0.015769839 0.042080581 0.027811304
-0.042663336 0.0010904074 0.027811304
-0.044063315 0.0010904074 0.031170331
-0.043546274 0.004449442 0.031170331
-0.042642042 0.0012198538 0.027811304
-0.042642042 0.004449442 0.028956402
-0.044791445 0.0010904074 0.034529354
-0.044430211 0.004449442 0.034529354
-0.042065501 0.004449442 0.027811304
-0.042970851 0.0078084618 0.031170331
-0.042642042 0.0078084618 0.030319519
-0.042642042 0.010127127 0.031170331
-0.04396306 0.0078084618 0.034529354
-0.043527335 0.011167496 0.034529354
-0.042642042 0.011167496 0.031528492
-0.041435882 0.0078084618 0.027811304
-0.040847987 0.011167496 0.027811304
-0.042505056 0.011167496 0.031170331
-0.045167834 0.0010904074 0.037888378
-0.044867188 0.004449442 0.037888378
-0.045370236 0.0010904074 0.041247405
-0.045042962 0.004449442 0.041247405
-0.044488028 0.0078084618 0.037888378
-0.044065133 0.011167496 0.037888378
-0.044685394 0.0078084618 0.041247405
-0.044234976 0.011167496 0.041247405
-0.043001249 0.014526516 0.034529354
-0.042642042 0.014526516 0.033072095
-0.042642042 0.016144514 0.034529354
-0.040202126 0.014526516 0.027811304
-0.041973487 0.014526516 0.031170331
-0.039324716 0.017885536 0.027811304
-0.04110986 0.017885536 0.031170331
-0.042137191 0.017885536 0.034529354
-0.039769337 0.021244571 0.031170331
-0.039283022 0.018022805 0.027811304
-0.039283022 0.021244571 0.03006487
-0.038138404 0.021244571 0.027811304
-0.039283022 0.022286579 0.031170331
-0.038080558 0.02460359 0.031170331
-0.040821344 0.021244571 0.034529354
-0.039283022 0.024216458 0.034529354
-0.039059907 0.02460359 0.034529354
-0.043488815 0.014526516 0.037888378
-0.042642042 0.017696634 0.037888378
-0.043619692 0.014526516 0.041247405
-0.042740062 0.017885536 0.041247405
-0.042642042 0.017885536 0.038693152
-0.042581752 0.017885536 0.037888378
-0.042642042 0.018192783 0.041247405
-0.041286379 0.021244571 0.037888378
-0.039531574 0.02460359 0.037888378
-0.039283022 0.02460359 0.035755903
-0.041472673 0.021244571 0.041247405
-0.039709866 0.02460359 0.041247405
-0.045473814 0.0010904074 0.044606432
-0.045093611 0.004449442 0.044606432
-0.045524284 0.0010904074 0.047965452
-0.045122474 0.004449442 0.047965452
-0.044695288 0.0078084618 0.044606432
-0.044200689 0.011167496 0.044606432
-0.044679761 0.0078084618 0.047965452
-0.044147089 0.011167496 0.047965452
-0.045560971 0.0010904074 0.051324479
-0.045158342 0.004449442 0.051324479
-0.045586273 0.0010904074 0.054683506
-0.045180872 0.004449442 0.054683506
-0.044715181 0.0078084618 0.051324479
-0.044154257 0.011167496 0.051324479
-0.044741824 0.0078084618 0.054683506
-0.044192851 0.011167496 0.054683506
-0.043601066 0.014526516 0.044606432
-0.04274191 0.017885536 0.044606432
-0.043530405 0.014526516 0.047965452
-0.042642042 0.017881289 0.047965452
-0.042642042 0.017885536 0.047934249
-0.042640641 0.017885536 0.047965452
-0.042642042 0.018190101 0.044606432
-0.041470975 0.021244571 0.044606432
-0.039711758 0.02460359 0.044606432
-0.041342646 0.021244571 0.047965452
-0.039582923 0.02460359 0.047965452
-0.043460563 0.014526516 0.051324479
-0.042642042 0.017507479 0.051324479
-0.043475837 0.014526516 0.054683506
-0.042642042 0.017376766 0.054683506
-0.042515114 0.017885536 0.051324479
-0.042460859 0.017885536 0.054683506
-0.041159496 0.021244571 0.051324479
-0.039366856 0.02460359 0.051324479
-0.041015595 0.021244571 0.054683506
-0.039283022 0.024433136 0.054683506
-0.039283022 0.02460359 0.052575849
-0.039179623 0.02460359 0.054683506
-0.036074921 0.02796261 0.031170331
-0.035923988 0.02796261 0.030588251
-0.035923988 0.028214946 0.031170331
-0.036896273 0.02796261 0.034529354
-0.035923988 0.029351175 0.034529354
-0.039283022 0.025046438 0.037888378
-0.037423059 0.02796261 0.037888378
-0.035923988 0.029978916 0.037888378
-0.039283022 0.025361985 0.041247405
-0.03760545 0.02796261 0.041247405
-0.035923988 0.030136123 0.041247405
-0.033730313 0.031321645 0.031170331
-0.034378335 0.031321645 0.034529354
-0.032564968 0.032710135 0.031170331
-0.030556172 0.034680665 0.031170331
-0.029205948 0.035838366 0.031170331
-0.032564968 0.033348083 0.034529354
-0.031191632 0.034680665 0.034529354
-0.029205948 0.03642416 0.034529354
-0.026270479 0.038039684 0.031170331
-0.025846913 0.038039684 0.029880539
-0.027088583 0.038039684 0.034529354
-0.034795463 0.031321645 0.037888378
-0.034893781 0.031321645 0.041247405
-0.032564968 0.033681124 0.037888378
-0.031510428 0.034680665 0.037888378
-0.029205948 0.036716223 0.037888378
-0.032564968 0.033784628 0.041247405
-0.031630203 0.034680665 0.041247405
-0.029205948 0.036805093 0.041247405
-0.027530551 0.038039684 0.037888378
-0.027652889 0.038039684 0.041247405
-0.025846913 0.038324088 0.031170331
-0.022487894 0.04044506 0.031170331
-0.025846913 0.038903832 0.034529354
-0.022487894 0.041099697 0.034529354
-0.025846913 0.039257765 0.037888378
-0.022607878 0.041398704 0.037888378
-0.022487894 0.041398704 0.037031911
-0.022487894 0.041470975 0.037888378
-0.025846913 0.039384395 0.041247405
-0.022895649 0.041398704 0.041247405
-0.022487894 0.041651338 0.041247405
-0.039283022 0.025348395 0.044606432
-0.037552446 0.02796261 0.044606432
-0.035923988 0.030051604 0.044606432
-0.039283022 0.025112554 0.047965452
-0.037380263 0.02796261 0.047965452
-0.035923988 0.029873088 0.047965452
-0.039283022 0.024743214 0.051324479
-0.037087455 0.02796261 0.051324479
-0.035923988 0.029453799 0.051324479
-0.036792874 0.02796261 0.054683506
-0.035923988 0.029052034 0.054683506
-0.034827635 0.031321645 0.044606432
-0.034656271 0.031321645 0.047965452
-0.032564968 0.033682078 0.044606432
-0.031518772 0.034680665 0.044606432
-0.029205948 0.036731899 0.044606432
-0.032564968 0.033405721 0.047965452
-0.031214252 0.034680665 0.047965452
-0.029205948 0.036523968 0.047965452
-0.02756846 0.038039684 0.044606432
-0.027423665 0.038039684 0.047965452
-0.034239516 0.031321645 0.051324479
-0.033890665 0.031321645 0.054683506
-0.032564968 0.033024848 0.051324479
-0.030870959 0.034680665 0.051324479
-0.029205948 0.036249757 0.051324479
-0.032564968 0.032712817 0.054683506
-0.030597478 0.034680665 0.054683506
-0.029205948 0.03601101 0.054683506
-0.027201101 0.038039684 0.051324479
-0.026963249 0.038039684 0.054683506
-0.025846913 0.039344043 0.044606432
-0.022949606 0.041398704 0.044606432
-0.022487894 0.041692972 0.044606432
-0.025846913 0.039288968 0.047965452
-0.022929356 0.041398704 0.047965452
-0.022487894 0.041687369 0.047965452
-0.025846913 0.039180338 0.051324479
-0.022910699 0.041398704 0.051324479
-0.022487894 0.04167974 0.051324479
-0.025846913 0.039010376 0.054683506
-0.022822902 0.041398704 0.054683506
-0.022487894 0.041626304 0.054683506
-0.020597056 0.041398704 0.031170331
-0.019128874 0.041398704 0.028965816
-0.019128874 0.042058319 0.031170331
-0.015769839 0.043414682 0.031170331
-0.021950662 0.041398704 0.034529354
-0.019128874 0.042840451 0.034529354
-0.015769839 0.044291049 0.034529354
-0.01241082 0.042911112 0.027811304
-0.01241082 0.04444176 0.031170331
-0.011219427 0.044757754 0.031170331
-0.0090517998 0.043620616 0.027811304
-0.0090517998 0.044757754 0.029987864
-0.014480501 0.044757754 0.034529354
-0.01241082 0.044757754 0.032047458
-0.0090517998 0.045303762 0.031170331
-0.01241082 0.045459956 0.034529354
-0.0090517998 0.04642269 0.034529354
-0.019128874 0.043352902 0.037888378
-0.016010255 0.044757754 0.037888378
