# .PCD v0.7 - Point Cloud Data file format
VERSION 0.7
FIELDS x y z
SIZE 4 4 4
TYPE F F F
COUNT 1 1 1
WIDTH 1320
HEIGHT 1
VIEWPOINT 0 0 0 1 0 0 0
POINTS 1320
DATA ascii
0.016465152 0.017146705 0.35418761
0.039084658 0.032110475 0.3045314
0.034545794 0.036214888 0.30457905
0.037896372 0.034762263 0.30254698
0.042171489 0.034649063 0.29711279
0.03788282 0.038356364 0.29739454
0.039683502 0.03983723 0.29306701
0.023224235 0.0057821525 0.35248601
0.018199146 0.011757653 0.35488403
0.010789406 0.018403102 0.35270455
0.022293732 0.0089348918 0.3496066
0.016777253 0.017629748 0.34951928
0.022643659 0.010065582 0.3460325
0.016647831 0.016729102 0.34548444
0.028316164 0.0262227 0.31595421
0.026910648 0.031461474 0.31228647
0.04174421 0.020404777 0.30879587
0.035926554 0.026326869 0.30942819
0.029473932 0.033859629 0.30925709
0.022587661 0.038420998 0.30766988
0.042002458 0.025139827 0.30587521
0.035622675 0.03236803 0.30759263
0.027868977 0.03891363 0.30470625
0.01960057 0.044091575 0.30238199
0.043694414 0.026503185 0.30145431
0.038563717 0.03528877 0.30061996
0.029874193 0.040598873 0.30050221
0.047186315 0.023626121 0.29688352
0.042191558 0.031467475 0.29697153
0.034844872 0.039275248 0.2965118
0.027658371 0.043861538 0.29509792
0.044322163 0.033495501 0.29287624
0.036811791 0.040925369 0.29229072
0.028533172 0.044693854 0.29182982
0.044959694 0.033968031 0.28791109
0.038362369 0.041142263 0.28744587
0.029686518 0.045936219 0.28730017
0.013022347 0.0019852184 0.35824159
0.008347 0.0094796838 0.35927731
0.0022010556 0.015373757 0.35874608
0.01640051 0.0038829967 0.35619599
0.010352604 0.011285082 0.35673314
0.0040908665 0.017511416 0.35567784
0.018833406 0.0055584065 0.35482636
0.0052615581 0.019691568 0.35144678
0.025249917 0.004179542 0.34896737
0.0093817338 0.019630976 0.34689006
0.028054029 0.0011339271 0.343297
0.023445792 0.0088955052 0.34364146
0.016237505 0.016095281 0.3421587
0.028535113 0.0020598751 0.34037739
0.019859035 0.012443405 0.33892003
0.01310309 0.018976897 0.33676696
0.024190936 0.017615367 0.32296428
0.020283619 0.022781609 0.32300949
0.03114903 0.015310538 0.32042643
0.024602015 0.022879612 0.32067603
0.016916219 0.029094063 0.31735969
0.035684586 0.013476089 0.31616041
0.030371934 0.021322355 0.31685951
0.02342118 0.028408065 0.31637231
0.015271645 0.03429684 0.31512076
0.041392427 0.011748172 0.31109431
0.035831597 0.019449979 0.31285033
0.029618997 0.026305657 0.31295344
0.021511631 0.03344693 0.31228241
0.013900086 0.03920823 0.31026012
0.0416128 0.017145723 0.30918097
0.031751346 0.027191358 0.30970463
0.016113209 0.041501619 0.30658019
0.047986537 0.011574293 0.30328119
0.044953078 0.017964751 0.30509996
0.013745002 0.044865754 0.3012107
0.048555274 0.017192882 0.30046877
0.019870542 0.044610851 0.29793283
0.051728666 0.014577093 0.29562038
0.0481821 0.021816315 0.29544619
0.021214211 0.04564359 0.29324514
0.052098922 0.016005412 0.29198444
0.0486423 0.023648903 0.29145744
0.027628448 0.045006756 0.28947005
0.018786047 0.048315864 0.28812301
0.050233565 0.024898166 0.28692874
0.045924719 0.031505782 0.28496513
0.0328083 0.043780278 0.28424653
0.02469879 0.04848567 0.28440157
0.054186411 0.021993086 0.28221291
0.048283022 0.02962644 0.28211057
0.041469425 0.036860742 0.28174216
0.034335148 0.043754447 0.28113297
0.0264978 0.049404796 0.28006428
0.051637534 0.026062626 0.27840725
0.04514613 0.033695959 0.27701771
0.039295118 0.041367795 0.27675825
0.031895064 0.048010051 0.2759569
0.044623699 0.035357956 0.27291101
0.039974492 0.041613039 0.27164403
0.032670543 0.047553033 0.27210748
0.01478488 -0.0030256566 0.35814065
0.013467895 -0.00095533859 0.35821086
0.019524595 -0.0059259995 0.35539156
0.017209601 -0.0030152155 0.35585722
0.026517112 -0.0018192278 0.34334403
0.027793314 0.001120857 0.33836544
0.022736171 0.0076132682 0.33588597
0.0097725932 0.018437387 0.33757791
0.026409347 0.0045737298 0.33126023
0.019176504 0.011065967 0.33144885
0.011741517 0.020188345 0.33175915
0.027899148 0.0051915217 0.32734865
0.021111446 0.012983164 0.32730314
0.014618019 0.019806853 0.32704753
0.030113943 0.0073963301 0.32380357
0.023829855 0.014905035 0.32396674
0.015757304 0.021613296 0.32281658
0.0084238835 0.027443592 0.32015672
0.034667198 0.0050646355 0.31800267
0.028822292 0.013065692 0.32178694
0.017129524 0.024284476 0.31983951
0.010918188 0.030316517 0.31830889
0.04005868 0.0031525474 0.3138161
0.03546121 0.01019647 0.316329
0.0055366047 0.03700516 0.31110498
0.04286778 0.0052382927 0.31078225
0.010113091 0.037995934 0.31041995
0.0042193532 0.040917899 0.30645692
0.045312747 0.0072323214 0.30729723
0.0048464797 0.043770246 0.30178738
0.047838096 0.0080317669 0.30356908
0.006919302 0.046002049 0.29852885
0.050307296 0.0093846936 0.29876122
0.0084110461 0.047557946 0.2939125
0.051815506 0.010558877 0.29380721
0.010314986 0.048760649 0.28954372
0.052556559 0.012595221 0.28910017
0.011874301 0.050020792 0.28485432
0.053743042 0.014154097 0.28470731
0.014624368 0.05059636 0.28029302
0.054478101 0.019500742 0.28048539
0.020455664 0.050038733 0.27761897
0.056589819 0.016516671 0.27552521
0.051668677 0.025034536 0.27501658
0.045691453 0.031124547 0.27407476
0.021432329 0.05054656 0.27276281
0.052137189 0.025524953 0.27106836
0.045973316 0.033262424 0.27099884
0.03884311 0.041451268 0.2693626
0.031443037 0.047550865 0.26944998
0.023217419 0.05022195 0.26830983
0.049714781 0.029799379 0.26584417
0.043219142 0.037492074 0.26577693
0.035596997 0.04400415 0.26483148
0.028407477 0.04943876 0.2651608
0.046506882 0.033986516 0.26154968
0.040461011 0.041182071 0.26034859
0.04157028 0.041349683 0.25746125
0.028089784 0.00034483988 0.32588896
0.0037867175 0.022100128 0.32284695
0.032876633 -0.0025992673 0.31892535
0.0090414071 0.023090001 0.32179216
0.0025238851 0.027968094 0.31859973
0.037967451 -0.0048609357 0.31615773
0.036113106 -0.0014682282 0.31722969
0.0023393584 0.03095505 0.31586662
0.043422595 -0.0059453659 0.31069627
0.041479502 -0.0033833049 0.31287932
0.039346665 -6.8331137e-05 0.31457487
-0.00076218694 0.037574086 0.30857426
0.045430832 -0.0049001481 0.30824044
0.044868149 -0.0018818192 0.30961484
-0.0022778902 0.041826889 0.30309245
0.048519641 -0.0034654159 0.30416059
-0.00080909207 0.044263925 0.29978079
0.050520018 -0.0019656699 0.30034301
0.052621812 -0.00082544051 0.29574034
-0.00017026626 0.049057998 0.28849554
0.0049362574 0.049776502 0.28747034
0.055459827 0.002011871 0.28667682
0.01058815 0.050844252 0.2819899
0.0019197911 0.050774474 0.28340501
0.055095002 0.0072165839 0.28213978
0.0083012357 0.05133529 0.27834722
0.055924378 0.0084315855 0.27751255
0.013430055 0.051848415 0.27431485
0.057265252 0.009952398 0.27334601
0.020078201 0.051285598 0.26981115
0.011288768 0.052934431 0.26921016
0.056282196 0.015166324 0.2692695
0.021519344 0.051093098 0.26686043
0.056105051 0.015325088 0.26544166
0.05235295 0.024070665 0.26334172
0.026633956 0.048776194 0.26174581
0.018562026 0.052168138 0.2624276
0.052304566 0.024729505 0.25945505
0.046966668 0.033229936 0.25923622
0.036357414 0.043939915 0.25811639
0.027823292 0.04849875 0.25756645
0.050164998 0.029360034 0.25441939
0.043981131 0.036868323 0.25420165
0.036883704 0.043589294 0.2537812
0.02904834 0.04879158 0.25329801
0.044438541 0.037021957 0.24985826
0.037756529 0.043737438 0.24938032
-0.00026890263 0.018970555 0.32429349
0.029121343 -0.0073708734 0.32105264
0.026727153 -0.0034083985 0.32286087
-0.0028853156 0.023130976 0.32071054
0.033758689 -0.0099211046 0.31849936
0.032081977 -0.0058799544 0.31964439
-0.00099900179 0.026610292 0.31823069
-0.0043560788 0.028341513 0.31551325
-0.0086991247 0.03177166 0.31380591
-0.010054804 0.035819594 0.31496328
0.039172012 -0.010270149 0.31270936
0.037066735 -0.008323513 0.31567109
-0.0030977111 0.031023538 0.31345558
-0.0066589909 0.033242442 0.31176376
-0.0094966097 0.036822181 0.31069621
0.041467126 -0.0087278783 0.31078911
0.039874375 -0.0072937645 0.31378996
-0.0046732575 0.036225148 0.30900395
-0.0080652786 0.037630111 0.3061499
-0.011925547 0.040950142 0.30544031
-0.013471995 0.04342087 0.30426055
0.044859234 -0.0094922967 0.30671167
-0.0031401403 0.039161701 0.30518317
-0.0061810222 0.039875574 0.30269957
0.047691405 -0.010775069 0.3021124
0.047557287 -0.008043183 0.30405724
-0.004919719 0.042703863 0.2996012
-0.0072466657 0.044097509 0.29651874
0.049741633 -0.0095346328 0.29803285
0.050635617 -0.0058748238 0.29826012
-0.0057787951 0.046104312 0.2934967
-0.0093041603 0.046815529 0.29319397
0.052217886 -0.0078888405 0.29343778
-0.0037974976 0.047746796 0.28912234
-0.0067822449 0.048876662 0.2867229
0.054565564 -0.0057911221 0.28934121
-0.0021052752 0.050104804 0.28486156
0.056080714 -0.0046613049 0.28462401
0.056105629 -0.0014034882 0.28485665
-0.00019816123 0.050478593 0.28015471
-0.004556641 0.050691001 0.28086475
0.056667 -0.0035003535 0.27954364
0.056706578 -0.00013682432 0.28064194
0.00229262 0.050834745 0.27548251
0.056243978 0.0063296799 0.27606717
0.0039202087 0.052538864 0.2708236
0.057393752 0.0077535566 0.27103516
0.0049390569 0.052923508 0.26662242
0.057445072 0.0085842907 0.26731595
0.010385176 0.052371226 0.26333982
0.056604095 0.014434839 0.26228267
0.015904035 0.051954921 0.25910679
0.058392689 0.011066576 0.25807366
0.055072926 0.019519068 0.25825354
0.02170576 0.050174505 0.25539276
0.056409042 0.015985247 0.25399414
0.053014144 0.024075223 0.25256538
0.022442127 0.050227217 0.25026768
0.052717652 0.025051963 0.24854803
0.04769804 0.032264564 0.24813211
0.0415636 0.039651096 0.24695337
0.033256892 0.047019448 0.24718818
0.025234992 0.051071122 0.24646458
0.050547719 0.028902547 0.24363193
0.044751633 0.036641601 0.24325556
0.037720472 0.043726206 0.24259326
0.029815719 0.048531309 0.24226606
0.041641187 0.040187847 0.23842466
-0.0048527727 0.019546092 0.32289454
0.031346507 -0.012996444 0.32070524
0.028126493 -0.010079045 0.3212482
0.024701772 -0.0077660736 0.32100672
-0.0070233876 0.022382796 0.32054338
-0.0086712213 0.024720404 0.31823426
-0.010667117 0.027459854 0.31722638
0.033980489 -0.015324271 0.31742385
0.03381227 -0.012732862 0.31846544
-0.0074093258 0.026793502 0.31606388
-0.010372876 0.028936706 0.31448826
-0.011109203 0.032220896 0.31466997
0.036032919 -0.014130045 0.31290776
0.035747278 -0.011463277 0.31592506
0.038811747 -0.013946541 0.30836466
-0.010779806 0.038067784 0.30530119
-0.011289922 0.039517689 0.30393636
0.047752291 -0.018226234 0.3023634
0.04543924 -0.015156728 0.30401266
0.041193217 -0.014147922 0.30596486
-0.0095728561 0.039046906 0.30202943
-0.012354514 0.040374495 0.29980206
-0.015675213 0.042110223 0.29875085
0.04706892 -0.018091444 0.30054373
0.047709942 -0.014175296 0.30031848
-0.01100851 0.042445675 0.29608724
-0.013433382 0.043659922 0.29515001
0.050462201 -0.015518248 0.29530612
0.0499207 -0.012406973 0.29651934
-0.012137204 0.046531055 0.2902804
0.053242829 -0.013728727 0.29144213
0.05219876 -0.011244835 0.29240933
-0.0072800927 0.046578489 0.28986391
-0.01052139 0.047875129 0.28693429
0.055454504 -0.012559887 0.28758314
0.054697968 -0.0089692306 0.28840601
-0.0072191171 0.04885523 0.28291231
0.055931613 -0.011442078 0.28323862
0.055930752 -0.008173991 0.28345555
-0.0031960718 0.049839903 0.27706611
-0.0064060427 0.050033845 0.27714956
0.056312781 -0.0104356 0.27881008
0.056701522 -0.0068042912 0.2784937
-0.0014166925 0.05036056 0.27386007
-0.0042097494 0.050752006 0.27287984
0.057497609 -0.0046264976 0.2740643
0.057477094 -0.0011483394 0.27328858
-0.0023093689 0.052369878 0.27006656
0.056720175 -0.0045281332 0.26940054
0.057516348 -0.00013038144 0.26899451
0.056933492 0.0012775455 0.26516566
0.0037425663 0.051603913 0.25992665
0.057659257 0.006762702 0.2599878
0.0047053583 0.052354645 0.25644177
0.015254995 0.051974617 0.25245735
0.058418103 0.0095204264 0.2512475
0.055138588 0.017439796 0.24981129
0.017065188 0.051482193 0.2480683
0.056368999 0.014917336 0.24665099
0.053298444 0.022219859 0.24629176
0.018488385 0.05060792 0.24335822
0.053320721 0.023862973 0.24192187
0.047338717 0.031583868 0.2398541
0.032520358 0.046572756 0.23883471
0.024392676 0.049287599 0.23959258
0.050496757 0.028305881 0.23667473
0.045406971 0.035902645 0.23676547
0.037527386 0.043443281 0.23639047
0.029278785 0.048053682 0.23478571
0.048172422 0.032109819 0.23220906
0.042186975 0.040332846 0.2324132
0.033689741 0.045972098 0.23119056
0.044752777 0.036459312 0.2287142
0.038241699 0.042334981 0.22799647
0.035278641 -0.022966787 0.31340376
0.03409728 -0.018243067 0.31561193
0.037689991 -0.022255227 0.31021225
0.035692099 -0.018386267 0.3116093
0.039900802 -0.02057175 0.30688378
0.038322739 -0.017277721 0.3075695
0.043985859 -0.021137886 0.30336937
0.042102426 -0.019267263 0.30442899
0.048419878 -0.023560321 0.29701349
0.047617234 -0.02019304 0.29831502
-0.015352469 0.043371525 0.29395279
0.050768152 -0.021757044 0.29403988
0.050194904 -0.018765664 0.29458144
0.053126413 -0.019767437 0.2897602
0.052711658 -0.017377933 0.29073611
-0.013168951 0.048928104 0.28349334
0.055461369 -0.017160086 0.28534374
-0.011080729 0.047963351 0.28041551
-0.013483701 0.048551477 0.27999818
0.055820465 -0.01779457 0.28119335
0.055483766 -0.014417561 0.28048968
-0.0099040773 0.049668029 0.27601731
-0.013230659 0.048643958 0.27521569
0.056114279 -0.01311986 0.27622968
-0.0088187419 0.049311917 0.27091798
-0.012178592 0.04946119 0.2709547
0.056704096 -0.011787945 0.27124423
0.057245478 -0.0080324616 0.27175099
-0.002490215 0.050086819 0.26513445
-0.006462913 0.049152866 0.26542684
0.057729524 -0.010920223 0.26713556
0.056980357 -0.0069606453 0.26683682
-0.0012504403 0.050612994 0.26209497
-0.0044424329 0.050172351 0.26105934
0.057115957 -0.0062425211 0.26291648
0.056772966 -0.0016867816 0.26310062
-0.0002632793 0.050876081 0.25802693
-0.0035257041 0.050910648 0.25835848
0.057580441 -0.003435567 0.25740051
0.056597516 -0.00043371879 0.25830248
-0.0016728528 0.052457865 0.25465244
0.056495506 0.0043225624 0.25323907
0.0045105126 0.052721366 0.24932203
0.05691947 0.0048447084 0.2485792
0.010275735 0.052623712 0.24527508
0.057279855 0.0076933075 0.24420431
0.020695234 0.048565023 0.24106303
0.011488063 0.05171375 0.24034843
0.057957329 0.0088113677 0.23950347
0.054696184 0.016641568 0.238134
0.016400252 0.050161336 0.23577005
0.055821963 0.013970943 0.23481536
0.053278312 0.021939984 0.23496836
0.022388253 0.048710529 0.23173183
0.054643419 0.01890089 0.23032919
0.050401989 0.026410472 0.2306838
0.032450218 0.045936685 0.22843426
0.023331817 0.049111109 0.22735849
0.049895179 0.026835185 0.22565627
0.044998471 0.035190459 0.22519201
0.03723453 0.042168364 0.22448778
0.0290218 0.047490664 0.2237128
0.049981266 0.028676972 0.22127298
0.044926118 0.035035472 0.22055903
0.038242601 0.0415558 0.21936637
0.049324762 -0.024860289 0.29615325
0.050401427 -0.023974845 0.29356575
0.054750241 -0.020356389 0.27722299
-0.012741284 0.048996337 0.27223173
0.055800706 -0.018615304 0.27433568
0.056345761 -0.015309229 0.27396673
-0.010665741 0.048757639 0.26802686
-0.012920721 0.04973422 0.26909846
0.056343857 -0.018127624 0.26862568
0.056636948 -0.015019465 0.26987556
-0.0095990337 0.048745953 0.26395223
-0.012003651 0.049805582 0.26352236
0.057822969 -0.013282012 0.26472268
-0.0081507843 0.049764983 0.2594111
-0.010366114 0.050736643 0.25883147
0.057365946 -0.012174411 0.26078892
0.057488613 -0.0082540978 0.26072231
-0.0058207847 0.050993271 0.25556505
-0.0095441937 0.051390111 0.25604582
0.057208486 -0.0072775353 0.25661755
-0.0035670456 0.051988378 0.25175133
0.057448488 -0.0043200254 0.25178367
0.057436742 -0.00026875921 0.25118566
-0.0020067822 0.051884457 0.24592716
0.057290442 -0.0040047728 0.24811774
0.057311319 -0.00022712164 0.24659669
0.0033334084 0.053006392 0.24236593
0.057002917 0.0042894725 0.24208772
0.0060876776 0.052961908 0.23796371
0.011173613 0.052055344 0.23453394
0.056783546 0.0070485286 0.23407817
0.01661402 0.051927879 0.23069146
0.055792399 0.01265914 0.22861794
0.021899328 0.050984628 0.22556078
0.014490867 0.052647464 0.22496715
0.052922692 0.021286946 0.22318473
0.029366851 0.047669835 0.22085994
0.019579835 0.05151692 0.22127724
0.050894298 0.025962673 0.21875417
0.045198996 0.035138119 0.21814951
0.03726932 0.042806488 0.21747199
0.029410932 0.047533955 0.2173878
0.050711006 0.027383819 0.21445152
0.045203708 0.034897052 0.21460512
0.03887023 0.042124718 0.21450496
0.029777421 0.047375418 0.21253142
0.041705351 0.037407231 0.21049327
0.035814065 0.043015126 0.20995373
0.054399505 -0.022011422 0.27268633
0.059331756 -0.021732975 0.26642185
0.055474125 -0.021964597 0.26679304
-0.01350097 0.049978223 0.2606447
0.060145374 -0.021063868 0.26446649
0.057657659 -0.019114533 0.26292929
0.058211572 -0.018276 0.25915661
0.057473201 -0.015227813 0.25904456
-0.011964487 0.050755605 0.25349432
0.056875654 -0.01407578 0.25479993
0.056376964 -0.010323944 0.25283363
-0.0073874909 0.050303943 0.24783137
-0.010117505 0.050657295 0.24798992
0.056346051 -0.0096668154 0.24910459
-0.0060002226 0.051231802 0.24400222
-0.0083974693 0.052103162 0.24498647
0.057338156 -0.0065055136 0.24470729
-0.0035274513 0.052314788 0.23950341
0.057731271 -0.0049454644 0.23990202
0.057436943 -0.0013566855 0.24064985
-0.0013120808 0.052822273 0.23468342
0.057222895 -0.00034715794 0.23604938
0.00046906807 0.052316658 0.23128927
0.056298643 -0.00018036738 0.23202756
0.0089667737 0.051201306 0.22750467
0.056459665 0.0059906691 0.2266725
0.010895263 0.051772628 0.22257566
0.053732578 0.014782522 0.22207221
0.013388986 0.051391646 0.2188189
0.053835317 0.015517486 0.21727577
0.023594264 0.048392218 0.21397638
0.053619433 0.016805757 0.21222788
0.051517978 0.024096921 0.21292615
0.024115158 0.048036285 0.21012729
0.052660931 0.021220889 0.20859551
0.047965333 0.029833704 0.20780057
0.041153286 0.037905347 0.20729855
0.033576865 0.043960948 0.20648235
0.02601804 0.048211075 0.20529872
0.048283264 0.029771768 0.20267907
0.041882392 0.03807633 0.20212388
0.033900112 0.043181248 0.20177072
0.043947361 0.035694674 0.1986278
0.052176591 -0.026579294 0.27367795
0.053192358 -0.028099474 0.27025035
0.052994318 -0.025906794 0.27171275
0.053792454 -0.024511017 0.26662681
0.055160414 -0.023060616 0.26135173
0.056610644 -0.021410188 0.25701505
0.05693398 -0.019418228 0.25189766
0.056389753 -0.016541932 0.25113481
0.056304645 -0.0150798 0.2471858
0.056482382 -0.011607619 0.24678114
-0.0096733794 0.050871417 0.24146616
0.05781433 -0.01377728 0.24268201
0.05750123 -0.010491733 0.24284169
-0.0084054843 0.051881727 0.23724958
0.057811253 -0.0092215836 0.23774299
-0.0045624729 0.053174816 0.23253587
-0.007208582 0.052803125 0.23210195
0.056598566 -0.0078908 0.23404446
0.056926891 -0.0037312452 0.23356831
-0.0013616625 0.052597396 0.22886842
-0.0056593716 0.052096684 0.22908422
0.056023538 -0.0026601516 0.22901022
0.0032328609 0.051238485 0.22437894
-0.00013484433 0.051863525 0.22367987
0.056044631 -0.0011996087 0.22462133
0.0090039838 0.050941139 0.21967137
0.0011860803 0.051926028 0.21996677
0.055688068 0.0073987693 0.21965092
0.0059735924 0.051398974 0.2155686
0.055556636 0.0088883378 0.2149879
0.016193353 0.049632356 0.21162075
0.055935066 0.010663699 0.21021488
0.022184066 0.048393868 0.20739681
0.01401544 0.050712932 0.20643693
0.053074729 0.019310627 0.20626843
0.022913124 0.048089396 0.20376599
0.054652758 0.01640868 0.20158896
0.051078059 0.024342796 0.20120984
0.037749887 0.040111527 0.19920492
0.029457208 0.046009254 0.19837311
0.02073497 0.04873981 0.19982123
0.051081587 0.024937589 0.19602463
0.04543972 0.032812901 0.1963903
0.038204279 0.040356938 0.19599974
0.030336177 0.046204016 0.19459197
0.050302617 0.026804199 0.19271505
0.04583424 0.032845918 0.19128004
0.038826007 0.040663119 0.19112128
0.031117236 0.046056338 0.19077489
0.043172758 0.037902605 0.18716338
0.036717147 0.042570263 0.18732515
0.055398315 -0.02193203 0.25124094
0.055614188 -0.021618709 0.2454567
0.054908071 -0.020227704 0.24478745
0.057552628 -0.019812146 0.24262911
0.056087233 -0.019434145 0.24041468
0.057428233 -0.015047722 0.2365371
-0.009310862 0.052888595 0.23035634
0.057447691 -0.014563862 0.23066774
0.05659309 -0.0098352935 0.23145634
-0.0081754047 0.051778935 0.22613031
-0.01151837 0.052800704 0.22503197
0.055813439 -0.0092743021 0.22727081
0.055651873 -0.0044002142 0.226129
-0.0048201364 0.050627269 0.22198886
0.056474 -0.0075976495 0.22238937
0.056031827 -0.004219275 0.22216281
-0.001271788 0.052099705 0.21737495
0.055376232 -0.0025218893 0.21858478
0.0041131265 0.051646985 0.21306551
0.056345165 0.0021377169 0.21361279
0.0051459 0.051101174 0.20924231
0.056743629 0.003201833 0.20894256
0.010933142 0.051631998 0.20469245
0.054399386 0.0089315623 0.20387596
0.017356258 0.049757708 0.20126295
0.008723272 0.051978976 0.19981316
0.054642964 0.014157888 0.19951344
0.019202013 0.049512688 0.19741085
0.054940905 0.015565883 0.19473025
0.052634023 0.022847861 0.19397649
0.020066921 0.049387205 0.19247958
0.054925412 0.01627326 0.19055763
0.051432081 0.024252789 0.19025111
0.033862054 0.044048503 0.18831745
0.025808699 0.048830584 0.18813607
0.050661556 0.024466889 0.18552172
0.046229139 0.032587402 0.1857926
0.039836913 0.041198827 0.18383113
0.030788619 0.046084959 0.1840781
0.044707906 0.032105569 0.18145728
0.039177999 0.04033599 0.18013304
0.032299325 0.044206642 0.18043855
0.055313788 -0.022290552 0.24251655
0.056810874 -0.018703971 0.23494595
0.056916226 -0.017271552 0.22921741
-0.010703309 0.051464282 0.22316158
-0.012158994 0.052178014 0.2227805
0.057204634 -0.015067646 0.2256465
0.056282423 -0.011236714 0.22500488
-0.010043593 0.049932636 0.2193971
-0.013014311 0.051316693 0.21858793
0.057511464 -0.013895547 0.22090906
0.057117358 -0.010067567 0.22057512
0.054965269 -0.0051143132 0.21915367
-0.0079886448 0.050959714 0.21487018
-0.012297817 0.051874213 0.21561116
0.056624368 -0.0090864357 0.21522233
0.05541737 -0.0052772053 0.21556738
-0.0034800656 0.051458772 0.20979127
-0.0066668149 0.051332019 0.21033686
0.056954868 -0.0081934109 0.21183836
0.056311786 -0.0044908896 0.21122003
-0.001243405 0.051582169 0.20624465
0.056979973 -0.0024626888 0.206671
0.0040557943 0.051217437 0.20202005
0.057726629 -0.0016568247 0.20237181
0.055270769 0.0060134437 0.20193005
0.0015036557 0.051524416 0.19886804
0.055397596 0.0072684474 0.19759631
0.012687944 0.050606087 0.19375402
0.056613408 0.0051080342 0.1929867
0.054711469 0.012323005 0.19273087
0.013766684 0.050076768 0.18989265
0.055871274 0.0098815151 0.18952948
0.05359868 0.01786012 0.18698823
0.015380947 0.050181001 0.18483388
0.053401701 0.018452605 0.18354318
0.024558049 0.048354227 0.18103653
0.017168477 0.050714076 0.17925161
0.050744481 0.023256024 0.17902774
0.045353714 0.031210838 0.17907739
0.038331408 0.039299037 0.17654678
0.030024614 0.045034114 0.17784435
0.02180554 0.049388491 0.17678809
0.048235152 0.028079133 0.17405471
0.042469997 0.035462219 0.17302346
0.034452334 0.041676924 0.17319462
0.027527293 0.046584226 0.17272371
0.039206147 0.038620286 0.16882497
0.056175694 -0.016889438 0.22225305
-0.01426252 0.05218482 0.21660084
0.056363244 -0.016495023 0.21720439
-0.011552066 0.050436832 0.21276405
0.056234788 -0.016663451 0.21354061
0.056028254 -0.013036786 0.21262825
-0.0078652371 0.050854936 0.20724797
0.056272574 -0.010360917 0.20890325
-0.0066189282 0.051973403 0.20412332
0.056991398 -0.0056996997 0.20538932
-0.0022673849 0.051442981 0.20026073
-0.0058204718 0.05210926 0.19921321
0.057157725 -0.0042151343 0.20071328
0.057117797 -0.00041848607 0.19901612
-0.00051341392 0.051393092 0.19562811
-0.0048714578 0.052874021 0.19639298
0.0057183504 0.050972786 0.19083548
0.056609511 0.0023193713 0.19092903
0.0075508952 0.051036596 0.18700439
0.056153301 0.0033040158 0.18690562
0.055018052 0.011511756 0.18499497
0.0092341863 0.051248394 0.18302512
0.054418489 0.012410728 0.18094426
0.010653852 0.050912239 0.17880249
0.053176105 0.017061865 0.17714143
0.023647325 0.048220135 0.17419013
0.01620244 0.050105251 0.17351168
0.053194627 0.017275995 0.17203736
0.048793241 0.026877634 0.17128351
0.034494556 0.041507334 0.16950256
0.024649138 0.046880558 0.17001674
0.052893445 0.018899158 0.1689406
0.048054852 0.026651278 0.16659319
0.042516124 0.035314266 0.16631961
0.034175724 0.040992588 0.16581577
0.027372733 0.046061322 0.16510692
0.045447245 0.030421883 0.16215515
0.038885169 0.037827067 0.16096678
0.03139253 0.043975897 0.16093349
0.055474371 -0.017878793 0.21005768
0.055780515 -0.016737277 0.20707056
0.055420488 -0.014356814 0.20649412
-0.0097100567 0.051752634 0.20082012
0.054068573 -0.012907118 0.20195824
-0.009138681 0.052175753 0.19768161
0.054671086 -0.012053961 0.19853723
0.054259948 -0.0082134213 0.19628528
-0.002635235 0.050656676 0.1920799
-0.0056015123 0.051793106 0.19322205
0.05488167 -0.0057176221 0.19218254
0.05563838 -0.0026893802 0.19198936
-0.0018601865 0.049658082 0.18708795
-0.0051262677 0.050414406 0.18989077
0.055663146 -0.00250021 0.18801177
0.055820212 8.6823478e-05 0.18418095
0.0029590093 0.050983477 0.17992613
0.055621557 0.0061064642 0.17936105
0.0038524307 0.050841365 0.17630154
0.05512847 0.010620782 0.17376369
0.0094272178 0.050323777 0.17082465
0.055100136 0.012238979 0.17056507
0.014711386 0.049763933 0.16688943
0.054657221 0.013314098 0.16598594
0.051631436 0.020275719 0.16584152
0.020231806 0.047661036 0.1630463
0.052272618 0.016926268 0.16159609
0.048585445 0.026633106 0.16044879
0.042396519 0.033651564 0.15906942
0.030835237 0.044254515 0.15827674
0.021560933 0.047888052 0.15870994
0.049091235 0.027112288 0.1559093
0.042471778 0.033478525 0.15532529
0.035439968 0.041610286 0.15533525
0.027777709 0.046964921 0.15435362
0.038629878 0.036977772 0.15117818
0.031744201 0.04459158 0.15028444
0.054706581 -0.021719255 0.20866317
0.055390678 -0.020401038 0.20430392
0.054864667 -0.019095397 0.19987664
0.054294039 -0.015931133 0.20005432
0.054433852 -0.014768863 0.19673297
0.053009499 -0.011935119 0.19508836
0.053473376 -0.010700898 0.19128007
-0.0072231665 0.048406959 0.18534902
0.056743681 -0.011414915 0.18345755
0.055078603 -0.0080963355 0.18646103
-0.0018482227 0.050001167 0.18133986
-0.0059817322 0.049035076 0.1807462
0.056114957 -0.0072085168 0.18234971
0.055500314 -0.0031363107 0.18144745
-0.00097581372 0.05012637 0.17680505
-0.0038008317 0.05014972 0.175879
0.05528684 -0.0022578426 0.1774433
0.055842496 0.00017007254 0.17325276
0.0061348882 0.049738429 0.16854173
0.056057736 0.0016713049 0.16894427
0.01246047 0.049914926 0.16373259
0.054692663 0.0062864088 0.16364783
0.01413258 0.049923211 0.16028589
0.053687602 0.011368252 0.15896165
0.0191883 0.048837975 0.15625113
0.011554789 0.051367085 0.15510669
0.052770019 0.015663058 0.15470093
0.025838073 0.04708128 0.15089667
0.017083844 0.049473025 0.15108693
0.051402103 0.021280725 0.1493175
0.04507225 0.029136717 0.14911413
0.038746819 0.03692279 0.14841452
0.031806622 0.043538962 0.14730722
0.022229759 0.047767639 0.14742023
0.050289288 0.023149403 0.1453706
0.045929294 0.029639836 0.14418459
0.039005179 0.036894131 0.14385363
0.031775117 0.043823011 0.14320239
0.046387956 0.030251786 0.14020306
0.04054299 0.036315411 0.13939369
0.043455172 0.035344172 0.13611513
0.054193065 -0.023005074 0.19710192
0.054054771 -0.02106129 0.19317782
0.053371929 -0.016760141 0.19313219
0.054154973 -0.020440023 0.18946281
0.053674966 -0.016415045 0.18904448
-0.010621941 0.048428759 0.18372324
-0.012672747 0.04865098 0.18282649
0.055117093 -0.015323557 0.18470174
0.054464787 -0.011414647 0.18508917
-0.0084108915 0.049597129 0.17979789
-0.011227878 0.050251052 0.17925042
0.05629345 -0.013779169 0.18010575
0.055225421 -0.0095822401 0.17843515
-0.0063891485 0.050914679 0.17492551
-0.0088537708 0.052846987 0.17452449
0.054193072 -0.0091682673 0.17431715
0.05492555 -0.0052229539 0.17415518
-0.0014980976 0.049976073 0.17051798
-0.0043660942 0.051561631 0.17068553
-0.0070897471 0.054302648 0.17049915
0.054705493 -0.0080484282 0.17098132
0.054880686 -0.0055637322 0.17121273
-0.0041384995 0.051122792 0.16645575
-0.0064104665 0.05377838 0.166922
0.055865504 -0.0015393142 0.16697729
0.0049138088 0.049277514 0.16328961
0.055169806 9.4912946e-05 0.16222656
0.0065266453 0.050560839 0.15818596
0.054108694 0.0042770803 0.15654379
0.0091768112 0.051957525 0.15329123
0.055051155 0.0062900428 0.15138268
0.053443402 0.013632886 0.15202308
0.01039793 0.051643241 0.1485469
0.052983545 0.014417609 0.14811626
0.01698144 0.049932159 0.1453855
0.052619919 0.014891153 0.14302114
0.04898024 0.024849575 0.14169395
0.022107163 0.04738903 0.14153546
0.050277609 0.019832741 0.13836375
0.046765801 0.029452812 0.13747534
0.035444509 0.039861452 0.13703418
0.027082264 0.045161396 0.13632825
0.04780782 0.026349977 0.13323218
0.044237781 0.033499215 0.13352135
0.035954583 0.039715361 0.13218009
0.028572701 0.045494907 0.13088953
0.040673926 0.03642235 0.12747806
0.032620326 0.043368168 0.12752265
0.053235009 -0.025309689 0.19619301
0.056625608 -0.024521511 0.19081625
0.054122515 -0.024339279 0.19106996
0.057194579 -0.024053585 0.1894488
0.053770836 -0.023006167 0.18676928
0.055157557 -0.020088768 0.18274987
0.05588688 -0.016437432 0.17725235
0.055875987 -0.014995568 0.17291802
0.055099946 -0.011421483 0.17297506
0.055514228 -0.01429503 0.16869706
0.054828063 -0.010094071 0.16830039
0.054473475 -0.006326519 0.16789615
-0.0056449696 0.050614309 0.16297159
-0.0077892989 0.052449364 0.16287008
0.054176118 -0.0086554997 0.16299781
0.054718509 -0.0056360569 0.16459867
-0.0010874067 0.050002955 0.15961862
-0.0058829542 0.049850293 0.15827346
-0.0085657928 0.05164282 0.15839455
0.054474421 -0.0037182365 0.15971103
-0.0038920175 0.050820172 0.15448934
-0.0063463785 0.053487208 0.1537838
0.054859944 -0.0014646109 0.15528592
0.0020430144 0.051718071 0.15133068
-0.0018626247 0.051114507 0.15034333
0.055608347 0.003391169 0.1503506
0.056713887 0.00073100254 0.14593267
0.055053748 0.0091053043 0.1451399
0.0062008966 0.051773354 0.14109701
0.054841965 0.0096874703 0.14150694
0.01660818 0.049019605 0.13791174
0.0074338466 0.051714703 0.13755161
0.05317273 0.014321566 0.13708434
0.024704788 0.045230743 0.13434833
0.016948989 0.048628047 0.13363108
0.05282297 0.01468431 0.13229233
0.048692182 0.023532003 0.13164529
0.025256138 0.045541633 0.13003263
0.018125709 0.048127364 0.12957901
0.04809719 0.023684453 0.12683666
0.044575147 0.03216929 0.12630117
0.027954817 0.045975894 0.12449241
0.045128569 0.029550003 0.12276024
0.040878069 0.036265668 0.12175351
0.032666635 0.043533605 0.1216802
0.052832268 -0.024871968 0.18334311
0.053745355 -0.022309285 0.17651257
0.054976009 -0.021804249 0.16894421
0.055547617 -0.018682614 0.17056179
0.054762684 -0.017554691 0.16738153
0.053878374 -0.014016055 0.16612691
0.0538316 -0.01226663 0.16123956
-0.0059065353 0.049766317 0.15611735
-0.0082111582 0.051890295 0.15587384
0.054051891 -0.010171458 0.1568957
0.054124609 -0.0055065341 0.15685695
-0.005845068 0.051092066 0.15172312
-0.0075357947 0.052454725 0.15459216
0.054675072 -0.0093153715 0.15307996
0.054702945 -0.0052227173 0.15351316
-0.0035424214 0.050600223 0.14829576
0.055506527 -0.0036753472 0.14895985
-0.0019124709 0.050318886 0.14286339
0.056138001 -0.0027654227 0.14439288
0.0036031697 0.051470451 0.13918859
0.055548921 0.0034044851 0.13893926
0.0058734715 0.051247731 0.134267
0.054480042 0.0079079978 0.13411042
0.006983215 0.05050163 0.1295653
0.054438177 0.0088779368 0.12970495
0.016642528 0.048787929 0.12716115
0.055247318 0.010017332 0.12502706
0.051778287 0.01822181 0.1255511
0.021995012 0.047493424 0.12245119
0.013944779 0.050175499 0.12168068
0.052016929 0.01856572 0.12121749
0.045407392 0.027447648 0.1202684
0.035101168 0.039166972 0.11799574
0.02721791 0.045218527 0.11847287
0.018287327 0.048487272 0.11763561
0.048639655 0.02266413 0.11569369
0.043088559 0.031406585 0.11478323
0.03640832 0.038034059 0.11429238
0.027642028 0.044593371 0.11403811
0.047833923 0.024848986 0.1122545
0.04341916 0.031658202 0.10949492
0.036806621 0.038092457 0.10870212
0.029686384 0.044616401 0.10839498
0.036601048 0.039901126 0.10558957
0.032089032 0.044287123 0.10521299
0.054218147 -0.023760978 0.16396779
0.053973533 -0.020313963 0.16407683
0.053928085 -0.019235751 0.1601249
0.053036615 -0.015416846 0.16133869
0.0555159 -0.017836787 0.15518528
0.054082841 -0.013353305 0.15554607
0.056743436 -0.017159201 0.15111244
0.055318184 -0.011510834 0.1502932
-0.0064980108 0.048918732 0.14504921
-0.0097552408 0.048953071 0.1443187
0.055102859 -0.010401573 0.1463992
-0.0057208426 0.049493548 0.14095771
-0.0087406226 0.051001687 0.14005455
-0.010354947 0.053745549 0.13854542
0.056137532 -0.0076959673 0.1422132
0.055223662 -0.0047807992 0.14068308
-0.0030470956 0.050249882 0.13671339
-0.007707864 0.052977458 0.13597995
0.05469729 -0.0030895695 0.13773629
0.054641347 -2.0969659e-05 0.13684192
-0.00082505681 0.04992681 0.13275403
-0.0084192771 0.055306971 0.13262761
0.054337487 -0.0029642731 0.13336933
0.0039850976 0.050956689 0.12910986
0.055831969 0.0038112123 0.12775958
0.010294175 0.05062867 0.12325704
0.0016014501 0.051287957 0.12362176
0.055863664 0.0074292738 0.12323695
0.0072906837 0.051165055 0.1191389
0.016904155 0.049257293 0.11529362
0.053534709 0.0135452 0.11439812
0.04947773 0.022142831 0.11378598
0.022091672 0.046310306 0.11197788
0.051381007 0.01773148 0.10939342
0.046979088 0.02816141 0.10822517
0.026754731 0.045335181 0.10756081
0.019148044 0.047409244 0.10717827
0.046933673 0.027550682 0.10470861
0.040744253 0.035404988 0.10405785
0.034131505 0.041768648 0.10314637
0.025192145 0.045617763 0.10254282
0.043884668 0.03154226 0.10019588
0.037636824 0.038059168 0.099092782
0.030470833 0.04410734 0.099748671
0.054280818 -0.026991494 0.16071659
0.054579806 -0.024602015 0.15811348
0.055272639 -0.023757668 0.1536091
0.058264416 -0.021007191 0.15081382
0.055951074 -0.016074674 0.1473738
-0.013506982 0.04812143 0.1427564
0.055988964 -0.015634369 0.14376393
0.055063456 -0.012789411 0.14329737
-0.0073427558 0.051000737 0.13312623
0.054635044 -0.010178972 0.13529333
0.05402375 -0.0072218664 0.13457578
-0.0045228396 0.04938715 0.12964499
-0.008377431 0.051754631 0.12970877
0.054125477 -0.0054218434 0.13015965
-0.0035304315 0.049720258 0.12530786
-0.00863491 0.052832875 0.1255601
0.05446396 -0.0041502323 0.12560815
0.054851204 -0.00072681159 0.12697518
-0.00088773295 0.050389964 0.12085623
0.055212755 -7.8946352e-05 0.12165302
0.0011375677 0.05067119 0.11723411
0.05450622 0.0058951024 0.11538881
0.0061088353 0.050385136 0.11302555
0.053274997 0.010710159 0.11087406
0.011136923 0.048394572 0.10815316
0.053756703 0.0079209954 0.10810846
0.052138709 0.016049245 0.10701281
0.016388915 0.047127478 0.10323602
0.05378652 0.012799513 0.10236126
0.050016254 0.021257268 0.10235953
0.018690731 0.046643961 0.099128664
0.049681935 0.022298809 0.098245203
0.04430782 0.030335682 0.097275436
0.029595885 0.044102009 0.096561849
0.052193522 0.018846421 0.093951285
0.047133092 0.027272444 0.093368948
0.041072395 0.034712698 0.093676805
0.034311086 0.041400246 0.093173504
0.026928172 0.045822769 0.091611207
0.040806036 0.034587678 0.088666379
0.034484826 0.041297987 0.088238358
0.028182488 0.046285342 0.08810997
-0.017157676 0.047744319 0.13799742
0.053737927 -0.010751683 0.13131645
-0.0082598347 0.049662367 0.12685817
0.054709986 -0.012619531 0.12804443
0.053893313 -0.0086291153 0.12754112
-0.0050967131 0.049502544 0.12201971
-0.0082947779 0.050235026 0.12289721
0.055072166 -0.012395868 0.1241163
0.054311894 -0.0077059083 0.12294179
-0.0039905421 0.049851708 0.11840272
-0.0075073261 0.050451674 0.11822516
0.054376494 -0.005499132 0.11855501
0.054665752 -0.0017068051 0.11860138
-0.0019948408 0.05026849 0.11432338
-0.005720634 0.050841112 0.1135149
0.054484628 -0.0046437923 0.11411577
0.054388575 -0.00085752644 0.1142801
-0.00030699372 0.050200094 0.10933357
0.05378069 -0.00050462969 0.11033213
0.0087165702 0.048557371 0.10573286
0.00020876899 0.050555002 0.10585207
0.01079979 0.048899367 0.10248482
0.054762345 0.0078711621 0.10223097
0.016766554 0.047400251 0.097504556
0.0079151466 0.049706928 0.097926855
0.053878292 0.012108246 0.096626282
0.022965088 0.045990102 0.092844665
0.014740452 0.047974817 0.093431354
0.052287132 0.016436927 0.091079593
0.024119427 0.046026498 0.08915323
0.051654249 0.016652726 0.087471068
0.047119461 0.025651455 0.086504877
0.041102234 0.033688862 0.085662305
0.034254082 0.040896364 0.084882557
0.025669079 0.045963112 0.08476603
0.043471757 0.029879941 0.081099927
0.037022531 0.036664233 0.080513299
0.030083552 0.043325469 0.080646574
0.041726574 0.033209763 0.07721293
0.055943847 -0.018228067 0.12704414
0.057518579 -0.017001299 0.12260205
0.054831982 -0.012904296 0.12161738
-0.011395752 0.050176837 0.11694127
-0.012751766 0.051108599 0.11664474
0.056830525 -0.016740024 0.11709988
0.055251144 -0.012881003 0.11743188
0.054332219 -0.0091251731 0.11775595
-0.0042346604 0.049951598 0.11095721
-0.009922158 0.049752109 0.11213762
-0.012891855 0.050886143 0.11252522
0.060276382 -0.014799936 0.11534572
0.055627078 -0.011774801 0.11274469
0.054983296 -0.0072603337 0.1126889
-0.003753271 0.050279178 0.10743874
-0.0066402629 0.050404537 0.1078608
0.05613821 -0.010402054 0.10924286
0.055558614 -0.0063483734 0.10893571
0.053943031 -0.0016732682 0.10716969
-0.0010891035 0.050372679 0.10271466
-0.0059791524 0.050354473 0.10424328
0.054512605 -0.0055031572 0.10478634
0.05382663 -0.001452513 0.10268754
0.0042539854 0.050016828 0.0986287
-0.00044655614 0.049955785 0.098427951
0.0066014417 0.04970447 0.094772935
0.053696789 0.0054676887 0.093890309
0.012114633 0.048414901 0.091222584
0.05318623 0.010397181 0.090123534
0.013303416 0.047404565 0.086125791
0.053133164 0.011534434 0.085988581
0.050025884 0.018186007 0.084286571
0.050588489 0.016255483 0.081575513
0.04698538 0.025062211 0.080063879
0.036903568 0.03640531 0.078028977
0.029952846 0.043039337 0.077382743
0.020502347 0.046095323 0.077759445
0.047175866 0.024968829 0.076072991
0.041320577 0.034106769 0.074843585
0.034009151 0.039814174 0.074305832
0.025293782 0.044554166 0.073844194
0.045413133 0.030470837 0.070355058
0.039057273 0.038015824 0.070066154
0.030647557 0.04304469 0.069932342
0.045691889 0.029712703 0.06755513
0.034164645 0.04093615 0.066603124
0.052933816 -0.021816548 0.12372082
0.056687802 -0.017399019 0.11604339
-0.01284625 0.048682958 0.1085186
0.055781458 -0.017663512 0.11144471
0.055099647 -0.014730554 0.11010772
-0.0090118852 0.049867019 0.10627115
-0.012078805 0.049797535 0.10452253
0.055642448 -0.013581581 0.10639781
0.053958684 -0.0096534956 0.10439742
-0.0075370483 0.05017145 0.10088527
-0.010702476 0.050350353 0.099583924
0.053798817 -0.0073556043 0.10145408
-0.0016957466 0.049636692 0.09635371
-0.0059298966 0.049749382 0.096390426
-0.0094959773 0.05134451 0.096759439
0.05292524 -0.0032405965 0.096678078
-0.0001928173 0.050342675 0.093068898
-0.0033894368 0.05014639 0.09162432
0.052652795 -0.0016414523 0.091630459
0.0056480933 0.049424686 0.086446404
0.053544648 -0.0010033771 0.088438511
0.052034497 0.0065928642 0.086443663
0.0071666017 0.048957154 0.083461523
0.05347826 0.0037982948 0.083082616
0.051047038 0.012129482 0.081683636
0.012774598 0.046629444 0.079665482
0.051420145 0.0091460571 0.078285873
0.017358679 0.046031106 0.0749138
0.049951941 0.014325542 0.072514892
0.047545228 0.021664951 0.072469175
0.019277854 0.045695722 0.070539057
0.047559377 0.023046877 0.068846047
0.024248708 0.044043008 0.066025674
0.049272291 0.020529715 0.064704895
0.045056902 0.028454533 0.063725233
0.036296468 0.035440248 0.061801851
0.029788049 0.04213639 0.062492728
0.044510312 0.028768979 0.059434116
0.035996228 0.036690228 0.059214473
0.030412544 0.042506222 0.058138311
0.054997936 -0.018815121 0.10845155
-0.013769165 0.049851082 0.10160732
0.053056136 -0.011409232 0.098593056
-0.0079153664 0.049780503 0.093531787
-0.0099592656 0.050846174 0.093233168
0.053615149 -0.0090960227 0.094726264
0.052969571 -0.0058193021 0.093713403
-0.0071642753 0.049764454 0.089654744
-0.010545069 0.051306807 0.089094639
0.054443985 -0.0079461467 0.089838982
0.053330034 -0.0045621693 0.090523779
-0.0011963695 0.049729731 0.084612906
-0.0044106152 0.049056433 0.085427821
0.055236053 -0.0073752739 0.085451007
0.054435059 -0.0029766206 0.085655034
-0.0041220114 0.04917362 0.080578923
0.054895755 -0.0019671544 0.080891192
0.0060692113 0.048394971 0.077033401
0.054332145 -0.0012656376 0.076542258
0.052042726 0.006725572 0.076961517
0.0067038108 0.047698751 0.071934462
0.050788149 0.011842238 0.071852684
0.0091629252 0.047602221 0.068236768
0.051004484 0.012970805 0.067544758
0.019039955 0.046234135 0.064617634
0.05156697 0.014619682 0.062863708
0.047918111 0.022330569 0.060732067
0.019832045 0.046355955 0.060115159
0.051465787 0.015380716 0.059079409
0.047826525 0.023501534 0.057777941
0.041381843 0.031562209 0.056272566
0.033958603 0.038453389 0.055297315
0.025539806 0.044825874 0.056024849
0.048575372 0.023643339 0.053926885
0.042026397 0.032042813 0.052290261
0.033977915 0.038847033 0.051893473
0.026450938 0.04516001 0.051738679
0.047879737 0.024953138 0.049708009
0.042375945 0.031810179 0.048435509
0.033973776 0.039087027 0.048061967
0.028336054 0.04448586 0.047335625
0.053000845 -0.021745751 0.10086721
0.052640054 -0.019753207 0.10064274
0.051875331 -0.017011628 0.09793812
0.052318931 -0.016161827 0.092134178
0.053667873 -0.012377366 0.09178859
0.053721398 -0.015149109 0.087351799
0.054570809 -0.011005716 0.087935209
-0.008693872 0.047776222 0.082483351
-0.012314586 0.048523024 0.083615005
0.054771379 -0.010250228 0.083348334
-0.0062717628 0.048302792 0.078870237
0.0548447 -0.0083810892 0.07924521
0.055288121 -0.0048360657 0.078298271
-0.0010756981 0.049529739 0.074394166
-0.0037423819 0.049344007 0.074762225
0.060378522 -0.009433182 0.073773444
0.055493411 -0.0081066974 0.074980617
0.05432323 -0.0043825023 0.073646605
0.05336187 -0.00019336864 0.073448241
-0.0035814065 0.049372017 0.070765436
0.053284641 -0.0028652959 0.070943773
0.051541619 0.0057119261 0.068308771
0.0017058812 0.048077893 0.065003812
0.051548176 0.0065823589 0.06464994
0.052147504 0.0067715123 0.059584796
0.013472185 0.047426049 0.056658924
0.052525204 0.0080044977 0.05563575
0.049656227 0.016336383 0.055011451
0.014629176 0.046835177 0.052190483
0.050861828 0.014113443 0.050688803
0.048145242 0.021794083 0.050172269
0.024051188 0.044979446 0.048027575
0.016171046 0.046607189 0.048149347
0.048118185 0.022333305 0.046005487
0.042611014 0.030947629 0.045578778
0.03479119 0.037894081 0.044969499
0.025293075 0.04435771 0.04396981
0.047975749 0.023743436 0.042076468
0.042272788 0.030628782 0.041231871
0.034920946 0.037689984 0.040497363
0.027842686 0.043634579 0.039173126
0.035600297 0.037282981 0.036283374
0.052876238 -0.023514133 0.094447613
0.051649511 -0.02078723 0.095011473
0.052415807 -0.019846242 0.090327442
0.053517289 -0.017923435 0.085813224
-0.010813564 0.047572695 0.079918563
-0.013948526 0.048302926 0.080102742
0.053920053 -0.016531499 0.081021607
0.054111525 -0.013016498 0.080494642
-0.0094690919 0.047793306 0.076312423
-0.012978267 0.048819274 0.075193346
0.054723583 -0.01525913 0.075565517
0.055081882 -0.011332357 0.077426672
-0.0085721202 0.048235003 0.071314752
-0.011467274 0.049494859 0.070774853
0.057622146 -0.012371857 0.073653817
0.056537889 -0.0096112508 0.072745502
-0.0019287895 0.048549443 0.067195892
-0.0059954338 0.048772208 0.067456126
-0.009458134 0.050649174 0.067929745
0.059309788 -0.010916777 0.070272267
0.056752924 -0.0090807937 0.067636311
0.053804629 -0.0053049866 0.067619145
-0.0012555066 0.047929347 0.063130617
-0.0050722286 0.047813095 0.062836766
0.056877397 -0.0093591046 0.063401997
0.053075761 -0.0037008971 0.064147472
0.052917875 -0.00062088855 0.063224435
0.0019182395 0.04790321 0.059333384
0.0059579108 0.047741644 0.054537475
0.053052917 0.0063033327 0.054180861
0.0081964042 0.048296809 0.050378978
0.051527239 0.010985641 0.049974263
0.013696622 0.046879694 0.046742022
0.051001459 0.012106782 0.04467994
0.019571431 0.045496218 0.042529762
0.049434289 0.016886555 0.040370762
0.044575363 0.02664792 0.03803879
0.029005783 0.042377241 0.037084579
0.021215521 0.044546962 0.037120044
0.047492497 0.022048958 0.035842955
0.042356066 0.029563822 0.034901381
0.03534827 0.036902297 0.033775628
0.027228128 0.043119598 0.033636093
0.044261247 0.027072966 0.031708121
0.037798159 0.032778338 0.030295908
0.031799272 0.040145569 0.030164421
0.054522533 -0.018048313 0.073983729
-0.0083422605 0.047883503 0.064368129
-0.01153749 0.048702918 0.063580334
0.056964964 -0.013914907 0.065169275
-0.0061273072 0.047340937 0.059864998
-0.010220254 0.048134543 0.060422659
0.056021303 -0.0098351855 0.061576128
0.053044964 -0.0064188316 0.060915649
-0.00085761584 0.046978742 0.05661279
-0.0054658912 0.04727767 0.056401014
0.055183791 -0.010025213 0.056242406
0.053484015 -0.0066941883 0.056232035
0.052947186 -0.0021350328 0.056566536
0.053803325 -0.0046453457 0.05203259
0.053688135 -0.00062162802 0.051561654
0.053853929 0.00070448965 0.047282815
0.0087445751 0.048550777 0.043504536
0.053842567 0.001186043 0.043157876
0.05145967 0.0093345437 0.04203248
0.010100199 0.047381945 0.038674891
0.0023710597 0.051581286 0.040127575
0.050988581 0.011237361 0.03811866
0.019051168 0.044196833 0.033822656
0.011625813 0.047982477 0.034569561
0.049139455 0.01574629 0.033598423
0.020845616 0.044102259 0.030360281
0.040587921 0.029343219 0.027071774
0.034617342 0.035817541 0.026791871
0.026792305 0.04205095 0.026577532
0.01794233 0.045886874 0.026964664
0.034853425 0.035844963 0.023208916
0.026218377 0.041338049 0.0229159
-0.012440048 0.048485126 0.057353139
-0.00687721 0.047028236 0.052956522
-0.011334881 0.047891118 0.053506076
0.055525344 -0.011698943 0.053954899
-0.0061917976 0.046412196 0.048827112
0.055289924 -0.010665851 0.050505102
0.054579645 -0.007258093 0.050116599
-0.004705213 0.047243185 0.04456526
0.054099675 -0.005955752 0.045314431
0.054286603 -0.0017858744 0.044944048
-0.0025237054 0.049146127 0.039916098
-0.0066732075 0.050184436 0.04001838
0.053831331 -0.0050481278 0.040688097
0.053774945 -0.00079408102 0.040503442
-0.0024838801 0.049339458 0.035787463
0.052479066 0.0044604 0.035100281
0.052175224 0.0092310458 0.031777799
0.011863226 0.046364501 0.028292537
0.048605591 0.013671264 0.028829038
0.029013423 0.038111079 0.019612372
0.022649864 0.042516246 0.022337317
0.030596457 0.036052801 0.017271042
-0.012376713 0.047616199 0.049911082
-0.011720443 0.047006711 0.04680717
0.0547393 -0.011988994 0.046955109
-0.0060994998 0.047410827 0.042021334
-0.010872021 0.048772912 0.042997301
0.054134171 -0.012594324 0.043040991
0.053602822 -0.008831488 0.041615188
-0.0054279678 0.047938038 0.039543808
-0.0085874405 0.049617395 0.040632784
0.053946316 -0.006752383 0.038370669
0.053447351 -0.0033563264 0.037129045
0.05417202 -0.0052696243 0.034353793
0.053507641 -0.001785621 0.033778012
0.054187045 -0.0056654848 0.029829681
0.05364478 -0.0014226437 0.029463232
0.052626841 -0.00041574426 0.025376499
0.049478542 0.0069985725 0.023330688
0.023315538 0.035814382 0.012283444
0.053860396 -0.014747111 0.040596366
0.053445429 -0.013085186 0.03697598
0.052738667 -0.011440488 0.036380589
0.0529567 -0.013984947 0.032924652
0.053186234 -0.008873377 0.032741845
0.054692931 -0.0053896345 0.027072608
0.0534973 -0.0041108876 0.028122008
0.054877102 -0.005488079 0.023882449
0.053165827 -0.0029786266 0.022929192
0.051206328 -0.0024398975 0.018917024
0.024335094 0.03435161 0.0098999143
0.016941847 0.034207143 0.0070800185
