# .PCD v0.7 - Point Cloud Data file format
VERSION 0.7
FIELDS x y z
SIZE 4 4 4
TYPE F F F
COUNT 1 1 1
WIDTH 1320
HEIGHT 1
VIEWPOINT 0 0 0 1 0 0 0
POINTS 1320
DATA ascii
-0.028972428 0.01024395 0.31637573
-0.0099130673 0.033035833 0.31319392
-0.017750619 0.027657131 0.31547409
-0.02543214 0.01939727 0.31566182
-0.031684645 0.012631165 0.31344551
-0.036055088 0.0059396112 0.31072015
-0.012391586 0.035867564 0.31029814
-0.018055158 0.030429225 0.31284213
-0.036895078 0.010555029 0.30948275
-0.040509369 0.0046424679 0.30602077
-0.013443806 0.038967904 0.30700529
-0.042656772 0.0057400316 0.30205286
-0.015349608 0.04140567 0.30214554
-0.044205915 0.0069138315 0.29767385
-0.017106948 0.041999366 0.29781601
-0.044529758 0.0128155 0.29510477
-0.013872527 0.044566266 0.29198948
-0.022410315 0.040750362 0.29294589
-0.044034541 0.018592982 0.29094625
-0.046779305 0.011346681 0.28932771
-0.019075386 0.044666409 0.2878263
-0.042400181 0.023099646 0.28709137
-0.045324869 0.016063366 0.28558862
-0.020415913 0.045919009 0.28322807
-0.028821141 0.04054296 0.28380182
-0.036919169 0.034386639 0.28212494
-0.043049656 0.025629982 0.28249201
-0.021697059 0.046283867 0.27968383
-0.029088333 0.04124599 0.27865112
-0.037011247 0.034681804 0.2790677
-0.043380111 0.027190655 0.27829021
-0.026370021 0.044620443 0.2747432
-0.033920798 0.039019633 0.27416724
-0.040618569 0.031564146 0.2733618
-0.045611225 0.025377892 0.27331519
-0.037511334 0.03640876 0.26993525
0.0053075082 0.0057293973 0.3589305
0.0024553256 0.0044226553 0.35993558
-0.0071277409 -0.0067039956 0.35827565
0.0050552757 0.012994392 0.35561195
0.004151742 0.0090427138 0.35715008
0.0020788978 0.0063134753 0.35780406
-0.0083285924 -0.0039672358 0.35754573
0.0057483627 0.015381277 0.35301286
0.0022589387 0.020013466 0.34420872
-0.018346995 -0.0020458559 0.34369785
-0.016955346 -0.00099677686 0.33650768
-0.0048776185 0.018447457 0.33366349
-0.017594367 0.0030088676 0.3328273
-0.0034866012 0.018296067 0.32946041
-0.012243168 0.013967619 0.32855216
-0.017283199 0.0062580919 0.32846323
-0.0089516705 0.018032933 0.3245866
-0.015508903 0.010742347 0.32399264
-0.021863593 0.0035479236 0.32270187
-0.0079297824 0.023801733 0.32098496
-0.015231412 0.017149253 0.3223711
-0.021743616 0.0098625589 0.32022828
-0.027929924 0.002138989 0.3184993
-0.029991522 -0.00080440659 0.31607354
-0.037584782 -0.0096843224 0.31818873
-0.0055748923 0.029172063 0.31687418
-0.031213639 0.0040058699 0.3160001
-0.00044203736 0.036506496 0.31081435
-0.0067565404 0.031682394 0.31417814
-0.037314251 -0.0015711095 0.30851787
0.0019010231 0.041662104 0.30646631
-0.0052890759 0.037292387 0.30932137
-0.039871819 0.00018277764 0.30516514
0.00032947585 0.043415099 0.30359644
-0.0074280351 0.040803298 0.30411676
-0.0011999514 0.045271158 0.29916701
-0.0082019642 0.041771807 0.3015371
-0.044862323 0.00029617548 0.29539716
-0.0056058541 0.044874012 0.29475862
-0.04613211 0.006067019 0.29237348
-0.0071297269 0.046448607 0.29036957
-0.047367964 0.0080704857 0.28770143
-0.0090395119 0.047760107 0.28592405
-0.045541458 0.014303952 0.28336787
-0.048885852 0.0063206218 0.28210834
-0.014541252 0.04758691 0.28175139
-0.048261363 0.01141293 0.27841473
-0.015058039 0.048105754 0.27679151
-0.046391875 0.02162867 0.27420881
-0.047830377 0.013492279 0.2745086
-0.020266335 0.046916075 0.27202404
-0.028160391 0.042895652 0.27193904
-0.045822769 0.023240913 0.27057257
-0.021689551 0.047369659 0.2680057
-0.028853614 0.042101193 0.26821545
-0.037010539 0.036065858 0.26735073
-0.042978182 0.028172776 0.26708826
-0.025534149 0.045552157 0.26508966
-0.033115845 0.039271787 0.26474363
-0.039675709 0.032384779 0.26215911
-0.045047235 0.02537518 0.2625528
-0.015790083 -0.0022324515 0.33685002
-0.015781967 -0.0018798271 0.33074796
0.00052220933 0.019360162 0.32832646
-0.017691147 0.0029683961 0.32661545
-0.018983226 -0.00034698565 0.325836
-0.003419512 0.019879181 0.3245315
-0.023135385 -0.0026851427 0.32038718
-0.026988696 -0.0069581494 0.31837586
-0.029795952 -0.0098789502 0.3188234
0.0021156957 0.027691413 0.31830123
-0.025721254 -0.001303223 0.31945682
-0.029010439 -0.0042511877 0.31637779
-0.032188468 -0.0079790624 0.31574821
-0.034702335 -0.011060225 0.3166185
0.0080264378 0.035279091 0.31274813
0.0050937543 0.032503027 0.3143245
0.0010353485 0.030832408 0.31580573
-0.031874735 -0.0023528058 0.31329486
-0.033907838 -0.0059580673 0.31219351
-0.035420164 -0.0096235946 0.31132057
0.0098062539 0.040018711 0.3083753
0.0067522004 0.038485736 0.31008291
0.0027402081 0.035851274 0.31162277
-0.036568239 -0.0045665558 0.30987141
-0.037561934 -0.0080056116 0.30660579
0.0084742196 0.041558228 0.30532777
0.0050215404 0.040900137 0.30707765
0.002625009 0.038800657 0.30839285
-0.039791852 -0.0055651497 0.30289939
0.0063673854 0.043852702 0.30198863
0.0031572822 0.043795437 0.30290768
-0.042025752 -0.0038112011 0.29839766
-0.042949792 -0.0071684606 0.29524752
0.0052197929 0.045821704 0.29785693
0.0016710851 0.045614056 0.29843765
-0.045338754 -0.0023573935 0.29454747
-0.044460885 -0.0054203421 0.29314092
0.0036102831 0.047706164 0.29286623
0.000130089 0.047169343 0.29379392
-0.047298431 -3.7988648e-05 0.29041219
-0.046947509 -0.0035955105 0.28895637
0.0020085908 0.049227975 0.28845897
-0.0045116898 0.047420643 0.28817707
-0.048600256 -0.0016028937 0.28458774
0.0014884267 0.049980141 0.28567782
-0.0058408342 0.048614152 0.28454366
-0.049025513 -0.00031134114 0.28004748
-0.007647112 0.049701847 0.28013995
-0.048622027 0.0047578029 0.2759786
-0.0089876968 0.050285939 0.27512035
-0.048911124 0.011217764 0.27232507
-0.010659762 0.050170358 0.2706925
-0.046952747 0.016544934 0.26854336
-0.05065684 0.0083638374 0.26685292
-0.015354637 0.048968278 0.26686221
-0.046768039 0.017629396 0.26402095
-0.015678184 0.048268102 0.26284704
-0.024746604 0.045064338 0.26133412
-0.031680394 0.038976856 0.26102906
-0.04022973 0.032009631 0.2595703
-0.045698434 0.023408407 0.25976661
-0.048143119 0.015039135 0.26012987
-0.027626436 0.041704364 0.25696403
-0.035854522 0.036017738 0.25644353
-0.042954091 0.028798221 0.25586981
-0.031782195 0.039175224 0.25271463
-0.038875833 0.032087743 0.25252733
-0.045288496 0.025162827 0.25183639
0.0054579759 0.016160492 0.32817599
-0.014763564 -0.003802516 0.3275044
0.0077026333 0.020416228 0.32429653
0.0057158908 0.018196076 0.32519469
-0.017615046 -0.0070514427 0.32196042
0.010115391 0.024665069 0.31878278
0.0072443443 0.022660142 0.32022157
0.0039166128 0.02066366 0.32205364
-0.020302756 -0.0060305675 0.32033256
-0.024564257 -0.0079771923 0.31933284
0.012640051 0.031639088 0.31575316
0.0089436276 0.028695829 0.31717891
0.0054547386 0.02646671 0.31854868
-0.0327693 -0.014737696 0.31276643
0.011069139 0.034370273 0.3131704
0.0083223851 0.032113265 0.3149859
-0.035432179 -0.011697936 0.30980176
0.012431973 0.038529802 0.3086915
0.010056622 0.037570588 0.31061137
-0.037057858 -0.011863225 0.30462873
-0.037196375 -0.013789951 0.30237782
0.011776431 0.041075397 0.30419987
-0.039248157 -0.0093256617 0.30137926
-0.039842673 -0.01269774 0.29904473
-0.041854955 -0.016064959 0.29727396
0.010588137 0.043865599 0.29975352
-0.040378526 -0.007987909 0.298996
-0.041425839 -0.011287802 0.29508176
-0.042792886 -0.013769551 0.29275474
0.0088029802 0.045775287 0.29636911
-0.043562077 -0.0095944088 0.29131246
-0.043985751 -0.012358751 0.29040506
-0.047648959 -0.014728976 0.28737918
0.0073977243 0.047348548 0.29194069
-0.046545237 -0.0072298143 0.28745532
-0.047315814 -0.011502622 0.28550762
-0.050249204 -0.013882117 0.28362653
0.005967563 0.048659198 0.28701255
-0.048316643 -0.0051074363 0.28315118
-0.047898851 -0.0091540106 0.28173521
0.0036291219 0.050458059 0.28253359
-0.048690964 -0.0035685431 0.2778337
-0.048647285 -0.0078580659 0.27894244
0.0024963766 0.051517036 0.2780301
-0.048558719 0.002009578 0.2738224
-0.048231818 -0.0015735645 0.27311203
0.0023871437 0.051578581 0.27406394
-0.049906746 0.0036435295 0.27001336
-0.0039143208 0.051664725 0.26850486
-0.05068475 0.0055630896 0.26498172
-0.004540544 0.051537268 0.26536569
-0.012913307 0.048847247 0.26434112
-0.050317612 0.007692555 0.26112181
-0.014063645 0.04916539 0.25996381
-0.046549279 0.017139502 0.25692147
-0.049538732 0.0088204965 0.25691482
-0.014822641 0.049870323 0.25515386
-0.023683038 0.044506259 0.25494912
-0.046182282 0.021800835 0.25320479
-0.048385605 0.014245374 0.25215375
-0.019940354 0.048092246 0.25074285
-0.027825555 0.042779602 0.25069347
-0.0353944 0.035756897 0.24933273
-0.042429596 0.028648619 0.24899253
-0.047164656 0.019069202 0.24789169
-0.024450615 0.045442179 0.24604309
-0.032106429 0.040230036 0.24529019
-0.038859122 0.03257481 0.24440143
-0.046812475 0.02611557 0.24447033
-0.02881645 0.043370984 0.24211425
-0.035441242 0.036633663 0.24073875
-0.043128971 0.029915731 0.2397626
-0.04769766 0.024071932 0.24054796
0.015090154 0.020657834 0.32165256
0.011468425 0.019387141 0.32233217
-0.018229039 -0.0093315002 0.32103539
-0.020403992 -0.012079314 0.31972662
0.014385095 0.023620056 0.31887171
0.010584897 0.022059459 0.3201437
0.016632255 0.028940732 0.31505263
0.013368953 0.027766228 0.31738919
-0.030051412 -0.01969618 0.30789906
0.01763883 0.032669488 0.30834314
-0.033353843 -0.015994392 0.30611205
-0.032462355 -0.019119669 0.30515802
0.016295215 0.035403412 0.30701765
-0.035959601 -0.01761223 0.30246148
-0.038277719 -0.019107051 0.30157638
0.019145157 0.040582135 0.30068666
0.016381405 0.039955899 0.30246732
-0.038480885 -0.0155637 0.3005015
-0.041180789 -0.018266557 0.29846039
-0.042931508 -0.020862738 0.2962386
0.017839173 0.042623959 0.2973662
0.015210743 0.041840635 0.29946417
-0.042545609 -0.016535606 0.29347521
-0.04351677 -0.020093992 0.29265159
0.016007071 0.044428457 0.29290059
0.012064729 0.04533831 0.2936132
-0.045084782 -0.014372709 0.2891717
-0.04670959 -0.016704485 0.28862244
0.014029039 0.046559066 0.28819817
0.010622954 0.047125828 0.28904936
-0.049084857 -0.015242871 0.28518826
0.013760149 0.048450626 0.28431064
0.0098933391 0.048142526 0.28559643
-0.047775116 -0.011424802 0.28000623
-0.050334584 -0.013691433 0.28047135
0.015753096 0.051144473 0.28165802
0.012379693 0.050213225 0.28011823
0.0084569473 0.049926154 0.28102109
-0.048087172 -0.0088390075 0.27558407
-0.0489446 -0.015132794 0.27621171
0.0095805302 0.050466593 0.27513015
0.0073721465 0.050761983 0.27595854
-0.048233453 -0.0047904179 0.27183756
-0.048430774 -0.007817477 0.27070186
0.0079553388 0.051368691 0.27106425
0.0040724482 0.051210068 0.2708039
0.00036547519 0.050516006 0.26991281
-0.048729584 -0.0031126142 0.26655722
-0.04888567 -0.0060691871 0.266599
0.003342472 0.051526513 0.26626441
0.0013231169 0.049974903 0.26606742
-0.049241878 -0.00077308156 0.26224655
-0.049991786 0.0042195991 0.25792122
-0.0032543167 0.05140879 0.25790244
-0.049359247 0.0067961197 0.25379092
-0.0042753723 0.05240497 0.25316003
-0.011842763 0.04954724 0.25209349
-0.049465753 0.0085917842 0.24978673
-0.0089405589 0.050566569 0.24940759
-0.017746272 0.047543913 0.24663314
-0.048765026 0.014044654 0.24556994
-0.014170505 0.048986882 0.24302235
-0.022388913 0.045617469 0.24315289
-0.04814136 0.01486557 0.24088696
-0.022649471 0.04548993 0.23861119
-0.031388026 0.040059734 0.23738632
-0.038213603 0.033152729 0.23706245
-0.044669218 0.025087947 0.23629722
-0.027154876 0.042345274 0.23343867
-0.034993581 0.036688428 0.23299348
-0.040706988 0.029313087 0.23217207
-0.032857448 0.038931616 0.22979692
-0.036874261 0.034633934 0.2293773
0.018034564 0.025409078 0.31691489
0.025229564 0.031205054 0.31296623
0.023076557 0.029169975 0.31284642
0.020208118 0.027626887 0.31469545
-0.030021584 -0.021908311 0.30765098
0.025132669 0.032426093 0.30832013
0.021337137 0.031451449 0.30869326
0.017953759 0.030136723 0.31057361
-0.032180101 -0.022343783 0.30487901
0.023071086 0.035946693 0.30314395
0.020856466 0.034056768 0.30471072
0.025746692 0.040040623 0.30061188
0.022659045 0.0401005 0.30022442
0.024449717 0.041711714 0.29590228
0.021435181 0.042433828 0.29623821
-0.04326988 -0.021993553 0.29147217
0.022563174 0.043967195 0.29076552
0.018982515 0.044448987 0.2920174
0.021200839 0.046470903 0.28638482
0.017333111 0.04625874 0.28781098
0.019198433 0.049698502 0.28239518
0.016329987 0.048241131 0.28527588
0.020383531 0.053500324 0.27617148
0.017438356 0.051002417 0.27777874
0.013695832 0.051452406 0.27749649
-0.046555441 -0.013292469 0.27288669
-0.047933862 -0.01588548 0.27251428
-0.049233343 -0.019115623 0.27145645
0.016604031 0.051068686 0.27476552
0.012884969 0.05079538 0.27398884
-0.048039977 -0.01150565 0.26911449
-0.048977129 -0.01375627 0.26852474
0.0113864 0.051272571 0.26935226
-0.048708454 -0.0091242138 0.26421043
-0.049567074 -0.012266349 0.26333874
0.0089948103 0.052073181 0.26436475
0.0054427963 0.052300222 0.26481137
-0.04910136 -0.0034091156 0.26029298
-0.049043261 -0.0072338358 0.25978222
-0.04998748 -0.011241959 0.25989488
0.0088810455 0.051511735 0.26083121
0.0041317232 0.051299855 0.26091373
0.00093787163 0.05083805 0.26073462
-0.04971436 -0.0025974698 0.25667068
-0.049752876 -0.0052854158 0.25599295
0.0041201804 0.05094507 0.25662613
0.00020855479 0.051124386 0.25572899
-0.050469771 -0.00030465238 0.25119564
-0.05046536 -0.0038081184 0.2522434
-0.049609259 0.0064190812 0.24702835
-0.0030125342 0.051662881 0.24819621
-0.011440067 0.049743749 0.2453182
-0.050713662 0.0046753082 0.24282357
-0.012132745 0.049884655 0.24191347
-0.048234615 0.013119312 0.238639
-0.0094671994 0.050592221 0.23734546
-0.017476637 0.048563004 0.23727596
-0.045762137 0.018002003 0.23483649
-0.013973452 0.049035408 0.23405954
-0.022416219 0.046034977 0.23246258
-0.042007998 0.028235033 0.23013628
-0.045605611 0.020033047 0.23013109
-0.022218373 0.045952804 0.22737956
-0.031088114 0.040695891 0.22806117
-0.038258713 0.033791661 0.22760209
-0.04413119 0.025334993 0.22621486
-0.023797089 0.044933628 0.22392899
-0.030478094 0.040443588 0.22288191
-0.037869226 0.034020144 0.22177264
-0.043892525 0.025276272 0.22266787
0.028013013 0.031519793 0.3109774
0.027026527 0.033194713 0.30671787
0.026405253 0.035345688 0.30360484
0.026896916 0.039297014 0.29756635
0.029390609 0.043581109 0.29268625
0.027199093 0.041099537 0.29307145
0.027601853 0.045756176 0.28745884
0.025736395 0.044259589 0.28910434
0.026656767 0.046969939 0.28408405
0.023990925 0.046716586 0.28562582
0.024722207 0.049100611 0.28053501
0.023046814 0.048411459 0.28244451
0.021249805 0.050674707 0.27644384
-0.047345288 -0.018961569 0.26926103
-0.048481558 -0.01990936 0.26925039
0.019663647 0.050576165 0.27192762
-0.047023322 -0.019272145 0.26737455
0.018544665 0.05052004 0.26768026
0.01509976 0.050777484 0.26640579
-0.048312627 -0.015424421 0.26210505
0.014677534 0.050120495 0.26167136
-0.04900644 -0.010047073 0.2575486
-0.049085468 -0.012916975 0.25723976
0.011069452 0.050438225 0.25797072
0.007694304 0.050819546 0.25843176
-0.049291808 -0.0087123122 0.253667
-0.049515631 -0.013413392 0.2527006
0.010825949 0.0503124 0.25462776
0.0063254666 0.050801091 0.25342351
-0.049151286 -0.0073809717 0.24897942
0.0056291055 0.050682563 0.24811548
0.0022110436 0.050256252 0.24871096
-0.0497557 -0.0037567075 0.24401385
0.0003867466 0.050643738 0.24410322
-0.049443189 0.00037649646 0.23964825
-0.04979261 -0.0026319716 0.23955563
-0.0036371294 0.050224766 0.2389746
-0.049283899 0.002412837 0.23523775
-0.04696317 0.010778604 0.23101756
-0.049073029 0.0035287701 0.2314457
-0.011786781 0.049466074 0.23063344
-0.046966594 0.013115257 0.22777659
-0.012636974 0.049097113 0.2261515
-0.019834185 0.047186296 0.22515735
-0.046907708 0.01503282 0.22277147
-0.021338928 0.046101417 0.22163489
-0.030562824 0.039853685 0.2193853
-0.041640978 0.027943892 0.21914652
-0.045426197 0.020584958 0.21938607
-0.022653181 0.045664668 0.21669132
-0.030584563 0.040746193 0.21600041
-0.037764177 0.034297578 0.21560472
-0.043779682 0.025391558 0.21438482
-0.026856087 0.044412293 0.21152321
-0.034669198 0.037809975 0.21103111
-0.040861327 0.030624619 0.21027333
0.031769164 0.03700776 0.2961413
0.032413386 0.042172652 0.2896221
0.030742755 0.040409379 0.29193562
0.030820679 0.043524828 0.28730026
0.030018821 0.045473225 0.28372699
0.025628911 0.048757832 0.27597263
0.024752669 0.050253779 0.26932558
0.022290966 0.050464191 0.26936758
0.024420651 0.050786618 0.26712957
0.020910846 0.050150301 0.26499641
0.020391423 0.049085245 0.26018843
0.018247111 0.049031079 0.26003668
-0.048065461 -0.016837846 0.25496447
0.019178621 0.050694425 0.25532904
0.015387744 0.050267123 0.25622568
-0.049447794 -0.013814481 0.25110638
-0.049637906 -0.01812201 0.25192875
0.016911794 0.053112559 0.25201312
0.013134044 0.051728241 0.25171575
0.0092879683 0.050150514 0.25000882
-0.048711851 -0.0092484895 0.24570704
-0.048947487 -0.012959722 0.24657401
0.011457296 0.051685534 0.24717894
0.0091295745 0.050604176 0.24685463
-0.049526323 -0.0078625549 0.24261463
-0.04951036 -0.01119592 0.2411927
0.0099298637 0.052202895 0.24384156
0.0063849781 0.051560577 0.24226171
0.0033833012 0.050375596 0.24111664
-0.050332025 -0.0059278738 0.23766759
-0.05043643 -0.0094262753 0.23586649
0.0054622721 0.052323662 0.23717389
0.0021354053 0.05086188 0.23749778
-0.050162964 -0.0034672003 0.23277727
0.0057715774 0.052959353 0.23365146
0.00088606961 0.051425278 0.23304701
-0.049603306 0.0019814055 0.22924209
-0.049916632 -0.0019174404 0.22863927
-0.0042376202 0.050546959 0.22797522
-0.048411299 0.0028788894 0.22410542
-0.010410836 0.049237318 0.22363985
-0.048004061 0.0082570929 0.2201598
-0.014134001 0.047819078 0.21936321
-0.048175972 0.010566453 0.21585074
-0.015635466 0.048120573 0.21442777
-0.045360986 0.019621365 0.21246943
-0.047411002 0.012120919 0.21191007
-0.021289738 0.046685372 0.20987573
-0.042003322 0.028431818 0.20779109
-0.045534074 0.021300036 0.20758435
-0.021771833 0.045899227 0.2057493
-0.029325102 0.041289918 0.20528659
-0.036959454 0.034133174 0.20496276
-0.043264881 0.026438337 0.20368624
-0.026449958 0.042933866 0.20138371
-0.033685572 0.038573343 0.2004804
-0.039268516 0.030873701 0.20038283
-0.045912389 0.023196811 0.19984937
0.023609798 0.048763704 0.25785643
0.022095045 0.050723452 0.25392655
0.021025034 0.05160071 0.24997139
-0.048676118 -0.014441326 0.24294239
0.01815185 0.050766088 0.24375814
0.014694165 0.051375996 0.24488655
-0.048936471 -0.014052954 0.23977908
-0.048636403 -0.016573016 0.23688641
0.011692652 0.050931618 0.24009809
-0.050546259 -0.012108581 0.23546681
-0.049627207 -0.01537724 0.23430607
0.011496361 0.051586609 0.23527861
0.0081537291 0.052641913 0.23522851
-0.051180895 -0.010370014 0.23039961
0.0064769741 0.052228637 0.23134226
-0.049435433 -0.0053934027 0.22614998
-0.051484238 -0.0096636843 0.22709858
0.0026789363 0.051062502 0.22616616
-0.049382195 -0.0028493702 0.22240454
0.00092037767 0.051184621 0.22183204
-0.04821822 0.0061174128 0.21731487
-0.049837522 -0.0017946605 0.21753615
-0.0083559919 0.049259588 0.21648163
-0.048091516 0.0031536594 0.21358484
-0.0097264498 0.049382053 0.21307155
-0.011111148 0.049903661 0.20859089
-0.04651618 0.015610302 0.205075
-0.015320059 0.048405297 0.20351815
-0.046072915 0.019971784 0.20189959
-0.020061348 0.04553128 0.19891441
-0.029180009 0.042180758 0.19816247
-0.037231252 0.034384418 0.19682154
-0.042624358 0.026404763 0.19739467
-0.046323348 0.018286679 0.1967707
-0.024724782 0.043391183 0.19486567
-0.033265844 0.038628839 0.19324613
-0.039331999 0.030843263 0.19285971
-0.045039374 0.022618793 0.19300494
-0.036163945 0.034879204 0.18860748
0.016646191 0.04858835 0.23818496
0.018030034 0.052043464 0.23224321
0.015659666 0.051001057 0.23351836
-0.050027695 -0.016945703 0.22510612
0.013381375 0.052532081 0.22893289
0.0095625445 0.051994048 0.22836438
-0.049549062 -0.010598712 0.22336936
-0.051188119 -0.01405463 0.22331598
0.0087423772 0.049804531 0.2245537
-0.048683383 -0.0069362503 0.22031906
-0.049126565 -0.0097510349 0.21747574
0.0049393829 0.050107397 0.21946773
-0.049458116 -0.0051271319 0.21471575
-0.049926862 -0.0090101939 0.21530312
0.0019044876 0.051083028 0.21510112
-0.047883909 0.00079418719 0.21066657
-0.048860997 -0.0027740058 0.21034518
0.0011942647 0.051087864 0.21097004
-0.047010116 0.007456677 0.2069532
-0.0045316033 0.0501922 0.20641831
-0.047318161 0.0084251817 0.20258233
-0.0036276672 0.050123889 0.20267153
-0.013504598 0.048244074 0.20042798
-0.0466897 0.0097573232 0.19727999
-0.010105757 0.048372738 0.19732404
-0.01800612 0.04609308 0.19634104
-0.046326399 0.011019697 0.1935744
-0.019346338 0.046125583 0.19244736
-0.027547903 0.0410643 0.19071242
-0.04514917 0.021467045 0.1900672
-0.015401611 0.048908912 0.18902421
-0.024146568 0.043851804 0.18661803
-0.031909205 0.038498368 0.18658233
-0.038950048 0.0308249 0.18643728
-0.044687122 0.022352081 0.18500012
-0.027994018 0.041278541 0.18208629
-0.03655998 0.035148498 0.18217647
-0.04152865 0.027752256 0.18196079
-0.033793572 0.037961435 0.17878744
0.022509409 0.047237884 0.23899752
0.022695737 0.047417216 0.23553094
0.020222463 0.047526278 0.23645681
0.02092406 0.050290037 0.23147693
0.020138197 0.051309496 0.22546542
-0.047817908 -0.019309856 0.21975625
0.015381785 0.050701424 0.22344413
0.012564605 0.049280573 0.22210327
-0.047507428 -0.013042513 0.21765438
-0.048589043 -0.016035149 0.2162199
0.011124628 0.049466029 0.21788558
0.0070952345 0.049255479 0.21579528
-0.049332678 -0.01049857 0.21238157
-0.050555106 -0.013733506 0.21358576
0.009764934 0.049811177 0.21295989
0.006628098 0.049979329 0.21276933
-0.048981879 -0.0056287833 0.20828742
-0.049153127 -0.0088549182 0.20820218
0.004955953 0.050496627 0.20808443
-0.048635311 -0.0041628797 0.20395556
0.001876941 0.050767615 0.20456302
-0.048206434 0.0013548937 0.20138714
-0.049012728 -0.0019601528 0.19954032
0.0013300329 0.050818689 0.20101306
-0.00616174 0.048617862 0.19940993
-0.048927143 -0.00036183558 0.1958701
-0.0078263674 0.048786707 0.19457567
-0.048006102 0.0053679086 0.19060239
-0.012127081 0.048800398 0.190299
-0.047009379 0.010550741 0.18704942
-0.0097839944 0.048954885 0.1866909
-0.018630769 0.04670047 0.18425119
-0.045952577 0.016503152 0.18346256
-0.014594609 0.048192054 0.18155512
-0.023594139 0.043787543 0.18003353
-0.039407372 0.029557683 0.17879301
-0.043497313 0.02139282 0.17766517
-0.046912536 0.013046244 0.1791974
-0.022972653 0.043532878 0.17509243
-0.03076941 0.038109582 0.17553359
-0.038156927 0.030662555 0.17517832
-0.042419821 0.021899644 0.17442444
-0.026947327 0.041243065 0.17201364
-0.034633856 0.034697626 0.17038608
-0.039411444 0.027821632 0.17063814
0.025594817 0.047045112 0.23346293
0.024683326 0.048071027 0.23160547
-0.047635723 -0.019465014 0.21786076
0.021162461 0.050330773 0.22068292
0.01786126 0.04926993 0.2199713
-0.047648989 -0.019354876 0.21438494
0.015591806 0.049644008 0.21627164
-0.047568031 -0.014688345 0.20936763
-0.047861643 -0.016640522 0.20859382
0.012909764 0.049547173 0.21059084
-0.04718842 -0.012673941 0.20480093
0.0095708687 0.050936729 0.20673525
-0.048656128 -0.0095301084 0.20111528
0.0095533803 0.051442284 0.20160845
0.0060311556 0.050992645 0.20234942
-0.049247846 -0.0055604428 0.19819799
-0.05004447 -0.0092141163 0.19679874
0.0088312291 0.052109547 0.1980167
0.0043681823 0.050479949 0.19763836
0.00018802658 0.049166705 0.19620511
-0.048816163 -0.0031337794 0.19343421
-0.049645547 -0.0068337023 0.19237012
0.002914153 0.050206788 0.19288909
-0.048031222 0.0025793053 0.18811074
-0.048092946 -0.0010876562 0.18885052
-0.0065674298 0.050021373 0.18767595
-0.048379146 0.00081389956 0.18468708
-0.0076565575 0.0495212 0.1840359
-0.047837898 0.0061068684 0.17978814
-0.012433793 0.048504815 0.17903394
-0.047462925 0.011516113 0.17624503
-0.012508102 0.047794759 0.17453453
-0.040309723 0.024988979 0.17202821
-0.043932237 0.016468246 0.17197517
-0.018708799 0.045495346 0.16934332
-0.026720291 0.041189406 0.1695323
-0.032762572 0.036485035 0.16847956
-0.040491745 0.026584037 0.16842055
-0.022854507 0.043711126 0.16522905
-0.030399721 0.038690004 0.16489041
-0.038134672 0.031272251 0.16450524
-0.042402357 0.023825433 0.16292801
-0.030554127 0.038577072 0.16074902
-0.037793975 0.031147815 0.16059995
0.023494016 0.049624972 0.21683553
0.021431826 0.047349352 0.21658933
0.021128016 0.047710784 0.21365601
0.020089019 0.046137705 0.2094034
0.015879827 0.048048399 0.20831168
0.01832894 0.048314057 0.20389125
0.013888545 0.050253008 0.20472658
-0.046666387 -0.013136962 0.20081329
-0.047185183 -0.014767675 0.19756681
0.013824722 0.050808407 0.19961447
-0.04982347 -0.014014576 0.19446012
0.010936221 0.050829135 0.19445515
0.0078396499 0.050537184 0.19466197
-0.049508341 -0.010393366 0.19062474
-0.048692584 -0.01281474 0.18914732
0.010250315 0.050651185 0.19192696
0.0065819677 0.05030274 0.19040203
-0.047402665 -0.0041229036 0.18552458
-0.047803812 -0.007568568 0.18705571
0.0043856893 0.0503802 0.18571302
0.00012001581 0.050157845 0.18586037
-0.047559649 -0.0025541447 0.18134677
0.0027409866 0.050772458 0.18095794
-0.047244601 0.0021192245 0.17757264
-0.047237746 -0.00072287768 0.17662704
-0.0058547519 0.049556211 0.17682958
-0.0032249205 0.050169062 0.17355892
-0.01125047 0.047762111 0.17177019
-0.045804076 0.0095894467 0.16857991
-0.0074458197 0.049296647 0.16849339
-0.015249101 0.045887765 0.16679344
-0.045373842 0.011627831 0.16432813
-0.012682812 0.047260121 0.1632781
-0.021937095 0.04397855 0.16246438
-0.043605123 0.017164482 0.15965211
-0.019049738 0.045280255 0.15766519
-0.025578994 0.041113082 0.15820485
-0.033677537 0.034859896 0.15697348
-0.040468097 0.027135281 0.15732905
-0.04411028 0.018796423 0.15589219
-0.025752326 0.041095775 0.15315056
-0.033386674 0.034806166 0.15308717
-0.040789019 0.028038889 0.15290022
-0.032940391 0.035677291 0.14960539
-0.040836837 0.028765477 0.14882296
0.026937019 0.047854576 0.2109389
0.023432832 0.047172714 0.21039164
0.026005231 0.047196068 0.20762163
0.022533476 0.046529606 0.20662263
0.021182679 0.04760512 0.20214915
0.014867842 0.049403556 0.19309783
-0.048201509 -0.013301807 0.18690097
0.013853375 0.048655368 0.18859556
-0.046854764 -0.010827802 0.18328401
-0.047991849 -0.013425021 0.18310717
0.0089066233 0.049493022 0.18371618
-0.047569439 -0.0044452008 0.17814389
-0.048184659 -0.0082298666 0.17954931
-0.049775664 -0.011862544 0.17865077
0.0061916653 0.05036822 0.17884779
-0.047068439 -0.0039377119 0.17414477
-0.048787478 -0.0076252595 0.17525989
-0.050386317 -0.011270076 0.17536694
0.0039658956 0.050738357 0.17444563
0.00069732592 0.050671767 0.17396766
-0.046782233 -0.001562031 0.17004189
0.0031653009 0.050808854 0.17020077
-0.004268527 0.049339309 0.16990277
-0.04678994 -0.00021412782 0.16516951
-0.005691845 0.049289558 0.16556108
-0.047970809 0.0058019124 0.16255182
-0.0061288215 0.049465567 0.16103727
-0.046855137 0.010791132 0.15803879
-0.0066651031 0.049504839 0.15709227
-0.01529594 0.046030924 0.15636161
-0.046698317 0.013496403 0.15373254
-0.011991242 0.047502991 0.15188676
-0.021260457 0.044150691 0.15107015
-0.027798407 0.039186589 0.15097433
-0.046007112 0.014198989 0.14860249
-0.021327343 0.043235302 0.14700976
-0.028878113 0.038325794 0.1472601
-0.036365706 0.032370072 0.14629874
-0.042985927 0.023687521 0.14544433
-0.025215965 0.040887151 0.14189643
-0.032345627 0.035566181 0.14173856
-0.040011276 0.02787229 0.14118397
-0.029705739 0.038653664 0.13837871
0.028898593 0.046968035 0.20460039
0.027729657 0.047006525 0.20083404
0.024873609 0.046905361 0.19977903
0.023516273 0.04591538 0.19477347
0.021059982 0.047010131 0.19130313
0.019915383 0.046109729 0.18950331
0.015794393 0.047525063 0.18511969
-0.047304872 -0.016465509 0.18045166
0.01499751 0.048259374 0.1815066
0.012032486 0.047814228 0.18159711
-0.049071398 -0.01515591 0.17721641
0.013366962 0.049477872 0.17723724
0.011436576 0.048659489 0.17856964
-0.047575332 -0.008868169 0.17168131
-0.049785718 -0.012631074 0.17198873
0.0094569623 0.048890978 0.17303768
-0.046489924 -0.0052952524 0.1680564
-0.046847217 -0.0095631853 0.16794091
-0.049224779 -0.012766231 0.16828936
0.0054773241 0.050250761 0.16799358
-0.046356812 -0.0041028205 0.16302222
0.0040453188 0.05060637 0.16319785
0.0014434811 0.050336182 0.16373599
-0.047207825 -0.00070357695 0.15951964
-0.0040682573 0.050083779 0.15903819
-0.04755009 0.0010100827 0.15493533
-0.005599631 0.050048873 0.15455115
-0.048087206 0.0060472209 0.15135485
-0.0058747604 0.049856938 0.15033853
-0.014389141 0.046820808 0.14885899
-0.047930218 0.0087352134 0.14596915
-0.010890594 0.047998242 0.14598417
-0.018924523 0.043981165 0.14424914
-0.046272516 0.014003547 0.14233381
-0.015755868 0.046434246 0.14019823
-0.024367334 0.04235239 0.14039415
-0.043150734 0.023418782 0.13836029
-0.046035111 0.014406677 0.13788646
-0.025319984 0.042127445 0.13628793
-0.03237474 0.035670504 0.13557491
-0.038870156 0.027851846 0.13476777
-0.043611623 0.020161536 0.13347709
-0.025561994 0.04223812 0.13188285
-0.032485124 0.036405165 0.13084978
-0.038937066 0.028468978 0.13053775
-0.029703058 0.03938869 0.12732214
0.029604763 0.045977287 0.19750121
0.028215732 0.047032606 0.19441986
0.025896464 0.046565358 0.19374448
0.027589776 0.047535848 0.1898551
0.024355371 0.04658496 0.18875828
0.020613089 0.045684308 0.18718192
0.023560803 0.04780164 0.18367726
0.019744765 0.046767041 0.18436724
0.022033457 0.049104121 0.17953533
0.018533578 0.048313357 0.18006939
0.021101076 0.050115805 0.17570496
0.017131634 0.049337886 0.1755904
0.014134809 0.048704319 0.17119139
-0.047333851 -0.011283709 0.16543308
-0.048736624 -0.013223855 0.16506487
0.013475133 0.048781797 0.16604432
0.0096940268 0.048900455 0.16586119
-0.046339821 -0.009938173 0.16194552
-0.048450746 -0.013431938 0.16110045
0.013220252 0.050698146 0.16205135
0.0089309476 0.049229316 0.16073209
-0.046680249 -0.0047057755 0.15724972
-0.046550736 -0.0092573483 0.15633827
-0.049656127 -0.011913704 0.15582299
0.0059209466 0.049379315 0.15705109
0.0035172738 0.049560256 0.15632594
-0.04732554 -0.0024495944 0.15343121
-0.047569215 -0.0052679349 0.15124023
0.0016225073 0.049542122 0.1524477
-0.048240431 -0.00092511438 0.14906824
-0.048499815 -0.0035089757 0.14736834
-0.0032386705 0.049534827 0.14770415
-0.04862503 -0.0020896811 0.14437425
-0.0041052625 0.049272284 0.14352846
-0.048624232 0.0082338937 0.13907638
-0.0052651949 0.049152449 0.13875484
-0.013310015 0.047123842 0.13856515
-0.047688439 0.0092436932 0.13527802
-0.010255432 0.048014775 0.13361931
-0.018570798 0.044885833 0.1334365
-0.045126401 0.013585676 0.13037118
-0.015028885 0.046420626 0.12925476
-0.024234757 0.042133883 0.1285975
-0.038799137 0.02848763 0.12760633
-0.042966299 0.018746553 0.12643343
-0.020428248 0.043873511 0.12415034
-0.028583091 0.039871652 0.12457007
-0.035143912 0.032794867 0.1243754
-0.041973434 0.024109032 0.12286353
-0.025114419 0.042601991 0.12031126
-0.032516889 0.037148226 0.11972803
-0.038680632 0.029549977 0.11868447
0.032115892 0.04552111 0.18986803
0.030835191 0.046267927 0.18703145
0.028464228 0.047247637 0.18475127
0.022776145 0.048994936 0.17678598
0.022976901 0.049264725 0.17216721
0.019806225 0.047918588 0.17190507
0.021736924 0.049208485 0.16797817
0.019160464 0.04834218 0.16817409
0.021219902 0.050691329 0.163293
0.017131912 0.04961187 0.16424328
-0.048521578 -0.016910844 0.16126236
0.014668709 0.050064046 0.16015568
-0.046995066 -0.010145398 0.15461665
0.013889659 0.049225822 0.15565598
0.0093602929 0.049104091 0.15497991
-0.046699293 -0.0091557186 0.15026882
-0.049043767 -0.010683892 0.15099475
0.0077881832 0.048810631 0.14976612
0.0055867583 0.048238352 0.14903268
-0.04831671 -0.0065880381 0.14520788
-0.048014671 -0.010336567 0.14435697
0.003768798 0.049189527 0.14559469
-0.048877805 -0.0043504983 0.14115995
-0.050030701 -0.0098354165 0.1399931
0.0011721253 0.050095677 0.14114895
-0.048955139 -0.0034798644 0.13670635
-0.052830491 -0.0089365691 0.1360043
-0.054398045 -0.0095290989 0.13545385
-0.002837237 0.049906842 0.13716337
-0.0045538694 0.049851805 0.13320059
-0.045350242 0.011360705 0.12709874
-0.0473326 0.0033181384 0.1287992
-0.0081636757 0.047923408 0.12775367
-0.043715466 0.016679451 0.12441432
-0.046600223 0.009512661 0.12419951
-0.013389384 0.046120442 0.12184536
-0.043549649 0.018718274 0.12038535
-0.047063507 0.011235785 0.11914325
-0.024103843 0.042804189 0.11730474
-0.04345395 0.019436313 0.11539471
-0.023455914 0.041314602 0.11321247
-0.031086877 0.036130603 0.11260474
-0.03744439 0.029100426 0.11178029
0.02400272 0.048844993 0.16683409
0.025057338 0.052623391 0.1626102
0.022741243 0.050441999 0.16251099
0.021418607 0.050022319 0.15718806
0.019449253 0.049615599 0.15784216
0.019276649 0.050113298 0.15437064
0.016223291 0.049180437 0.15295535
0.015488513 0.048622333 0.14764652
0.01187196 0.048325859 0.14863479
0.014679452 0.050273385 0.14439675
0.01028635 0.048646048 0.14361638
0.0056097806 0.048789728 0.14262921
-0.049712837 -0.010162819 0.13895881
-0.051279284 -0.013112355 0.13692197
0.0092380922 0.049193721 0.13887212
0.0058192052 0.048935596 0.13876796
-0.048140123 -0.0057795048 0.13263512
-0.050343104 -0.008614175 0.13379166
-0.051736083 -0.014947865 0.13519913
0.0035102051 0.049258411 0.13519579
-0.047402199 -0.0046247467 0.12932432
-0.052491147 -0.009120604 0.12900901
-0.054125562 -0.0096752178 0.12947577
0.0025981758 0.048435904 0.12937397
-0.046895891 0.00061035529 0.12518668
-0.047270153 -0.0029241629 0.12506068
-0.052722353 -0.0087566953 0.12544209
-0.0070116501 0.048129149 0.12505239
-0.046374783 0.0023960341 0.12112308
-0.0072997641 0.047916397 0.12093705
-0.046855662 0.0075347647 0.11795694
-0.0078000091 0.048252679 0.11599278
-0.01611954 0.045597099 0.11541772
-0.045872882 0.014411863 0.11312455
-0.0097723436 0.048477463 0.11292237
-0.017611798 0.044026531 0.11134934
-0.025356939 0.039529901 0.10971665
-0.044100795 0.014576049 0.10841602
-0.017605443 0.043610491 0.10776407
-0.026535613 0.038720854 0.10590965
-0.03400242 0.032703903 0.10622758
-0.040355429 0.025616359 0.1053642
-0.043087434 0.016887784 0.10568017
-0.026720818 0.039215565 0.10135144
-0.033914082 0.032963946 0.10040855
-0.040160187 0.025727052 0.099401772
-0.036535427 0.031306498 0.096823454
0.021256313 0.048611805 0.15081897
0.019971926 0.047790948 0.14905009
0.021570958 0.04887747 0.14505535
0.018664142 0.048732791 0.14628217
-0.044698145 -0.017043654 0.13957137
-0.047600951 -0.022137336 0.1372624
0.019208262 0.051410474 0.14165545
0.015959682 0.050400399 0.14195952
-0.04731648 -0.015260091 0.13879588
-0.048617974 -0.018542655 0.13670552
0.019661129 0.051384553 0.13756928
0.015187964 0.050891481 0.13766557
0.012066642 0.049656313 0.13820216
0.010117304 0.048124395 0.13296154
0.0062815435 0.048325129 0.13243398
-0.047675487 -0.0072992221 0.12676817
-0.049168862 -0.0094789173 0.12765139
0.0060805269 0.048144847 0.12715423
-0.047821693 -0.0052975435 0.12278128
-0.049409933 -0.0092269536 0.12297523
-0.051331785 -0.012662975 0.12267017
0.0040671472 0.048779473 0.12203747
0.0012082495 0.048104789 0.12303686
-0.04703778 -2.2295862e-06 0.11924583
-0.047722392 -0.0037901979 0.11863267
-0.048970312 -0.0080023892 0.11920351
0.0028453432 0.049196504 0.11795151
-0.047245517 0.0015051551 0.11451834
-0.04751461 -0.0022592582 0.1138218
-0.0059859175 0.049203943 0.11342561
-0.046843782 0.0033336487 0.11012095
-0.0072277207 0.048488554 0.109694
-0.04453364 0.012162048 0.10634124
-0.046521027 0.0040873103 0.10604507
-0.01209853 0.046603512 0.10537189
-0.019135877 0.042675674 0.10444349
-0.043592695 0.014936465 0.10259277
-0.013152407 0.046060793 0.10038179
-0.021300646 0.042620525 0.100061
-0.042512093 0.020368643 0.098287642
-0.016926743 0.044457778 0.096397579
-0.026586641 0.03947458 0.095471203
-0.033575103 0.03324493 0.094685793
-0.039732516 0.02555548 0.094110608
-0.022641459 0.042156197 0.091202319
-0.029794646 0.036521647 0.090152502
-0.036751315 0.029345479 0.089544475
-0.042336445 0.021523787 0.090094149
-0.033696417 0.034058604 0.086171687
0.024472523 0.047024455 0.14762101
0.025418788 0.051898465 0.14489865
0.024847534 0.049158923 0.14469942
-0.043398142 -0.019690704 0.1385777
-0.045600265 -0.021525305 0.13784015
-0.046739187 -0.020021955 0.13459662
0.019570246 0.051730052 0.13488105
0.017611375 0.051383048 0.13462922
0.017364064 0.049437217 0.13045752
0.013885224 0.047798425 0.13015723
0.017160088 0.050373986 0.12649196
0.012232853 0.048148621 0.12589109
-0.050417922 -0.013621697 0.11976385
0.010183865 0.048593886 0.12097174
0.0075658467 0.048742976 0.12230325
-0.047949404 -0.0066596474 0.11651248
-0.048302103 -0.011077749 0.11622238
-0.049148221 -0.014973864 0.11646211
0.0094243661 0.049675696 0.11700535
0.0053695124 0.049825076 0.11707759
-0.047489852 -0.0053277425 0.11253136
-0.047893822 -0.0089964885 0.11224532
0.0045751333 0.049870685 0.11255413
0.0006410405 0.049082518 0.11156964
-0.047426909 -0.0041504391 0.10779589
0.0034082457 0.049444485 0.10892469
-0.0042418912 0.048121266 0.10601777
-0.046247028 0.0030036736 0.10306537
-0.047384582 -0.0014199838 0.10286319
-0.0097606964 0.04708048 0.10223472
-0.046494536 0.0046413932 0.098651588
-0.007398339 0.048497058 0.097862244
-0.014554438 0.045394477 0.097722113
-0.044942889 0.0099548157 0.094685793
-0.0082636904 0.048581276 0.093344569
-0.016111465 0.045291856 0.093892872
-0.041907109 0.018658584 0.091192782
-0.044823665 0.011200879 0.090340078
-0.016669877 0.045886576 0.08908385
-0.040267117 0.025319446 0.08724457
-0.043387268 0.016960783 0.085937977
-0.021596607 0.043140866 0.085001707
-0.02986647 0.037321419 0.084599376
-0.037561901 0.03036019 0.083589494
-0.042354688 0.022202905 0.082710981
-0.030536568 0.037685186 0.079399765
-0.037503529 0.030962761 0.080082238
-0.041988675 0.02290019 0.078634858
-0.033493415 0.036315337 0.076100886
0.022253783 0.049915932 0.12778586
0.019442711 0.048900571 0.12724441
0.022193277 0.050420277 0.12316829
0.017854139 0.049257327 0.12359643
0.015123704 0.048236709 0.1223647
0.014542101 0.047776233 0.1188392
-0.047823392 -0.013987899 0.11439979
-0.047401063 -0.016016323 0.11176735
0.012581227 0.048455864 0.11381793
-0.047129549 -0.011372326 0.10891503
0.010794012 0.049091667 0.10907346
0.0079749022 0.049482968 0.10967886
-0.047414511 -0.0093093738 0.10490471
0.013363712 0.056094285 0.10376245
0.0066713467 0.048440639 0.10515147
0.0031415354 0.047098503 0.10441166
-0.04741478 -0.0043593273 0.10171252
-0.04738437 -0.0067687146 0.10033619
0.0014843997 0.046869136 0.10072833
-0.046989832 -0.002247408 0.096709132
-0.0034843702 0.04815942 0.096675217
-0.04670465 -1.0576099e-05 0.092832565
-0.0047366768 0.048311871 0.091370404
-0.046063602 0.0047364216 0.088615
-0.010412849 0.047185197 0.086179614
-0.043859921 0.0098244585 0.083992898
-0.010410115 0.047047332 0.082106948
-0.019358374 0.042368378 0.080318391
-0.042555496 0.019937072 0.079185367
-0.043563418 0.01143696 0.080736578
-0.019182045 0.042191435 0.076299608
-0.035646535 0.029300325 0.075038612
-0.041633468 0.021191381 0.074799597
-0.020797754 0.04205668 0.072742879
-0.029763686 0.037443254 0.070690453
-0.035645552 0.029167786 0.071456552
-0.041264817 0.022315981 0.07014662
-0.029096143 0.038115434 0.067662597
0.021363124 0.049188554 0.12091774
0.019731864 0.048369039 0.11748111
0.016133759 0.047894351 0.11576647
0.019670814 0.047772475 0.1133396
0.015877491 0.04775399 0.11183423
-0.045824848 -0.013616726 0.10770255
-0.046099439 -0.016695265 0.10652953
0.018951783 0.050641485 0.10594827
0.015077993 0.048712771 0.10733879
-0.047555692 -0.011485657 0.1017608
-0.047561564 -0.015334902 0.10217863
0.017418707 0.052301452 0.10362011
0.013171267 0.049348429 0.10261792
0.0089684911 0.048447188 0.10228068
-0.047650166 -0.010064278 0.098605573
-0.049561441 -0.012774235 0.09802264
0.0075331647 0.048371352 0.098516166
0.0041375812 0.04740629 0.098412693
-0.046630561 -0.0049748011 0.093965411
-0.047207966 -0.0088400841 0.093627334
-0.050377794 -0.011960428 0.093262136
0.005780071 0.048456531 0.094155192
0.0026290193 0.048066854 0.094519258
-0.046269648 -0.0032122545 0.089759171
-0.046377771 -0.0075408798 0.089340806
0.0014754273 0.048496556 0.089293659
-0.046086773 -0.0013872553 0.085056841
0.00029558688 0.048475079 0.085149705
-0.043984197 0.0078648552 0.081549823
-0.046359465 5.0541013e-05 0.080552399
-0.0082660094 0.047422871 0.079502583
-0.045217171 0.0052517429 0.076300025
-0.014152225 0.044970613 0.07554239
-0.04410962 0.010664338 0.072697818
-0.014517164 0.044794321 0.071274698
-0.030123668 0.033178624 0.070329249
-0.041542724 0.020927079 0.069041193
-0.044785768 0.012098232 0.068501532
-0.019225802 0.04323338 0.066444457
-0.028744146 0.03793731 0.064789593
-0.035059586 0.029529786 0.0660851
-0.041591801 0.021641199 0.064805627
-0.019898873 0.043029912 0.062556982
-0.028626574 0.037655495 0.06128037
-0.035522826 0.029967558 0.061008811
-0.041222788 0.022271186 0.060626507
-0.032285035 0.034593582 0.056467772
0.024900325 0.046650201 0.11288208
0.022360528 0.047074761 0.10983115
0.020648889 0.048719779 0.10605353
0.017230252 0.050330609 0.10260171
0.017585874 0.051458359 0.096606195
0.014589034 0.049129553 0.096928
0.014321478 0.048344351 0.092814505
0.010165475 0.048043266 0.092302263
-0.045694076 -0.0057521779 0.085973084
-0.046583112 -0.010400968 0.087508202
-0.048803173 -0.013079586 0.086973488
0.008032009 0.047414862 0.087840855
0.0041600373 0.04838413 0.086829603
-0.045695812 -0.0048171561 0.082451046
-0.045762643 -0.0094874389 0.082621217
0.0070937816 0.048156861 0.083141565
0.0031099785 0.04809735 0.082105696
-0.046024282 -0.0034948215 0.078294218
0.0028018001 0.048157707 0.078204572
-0.045765426 0.002846837 0.074748456
-0.045748737 -0.0016176105 0.074137449
0.0010003224 0.047895685 0.074885547
-0.0069844853 0.045958698 0.072478235
-0.044434842 0.0031873062 0.069797873
-0.045495994 -0.00054544769 0.070529699
-0.0077434164 0.045515612 0.068149149
-0.044596925 0.010202155 0.065703392
-0.0083465129 0.045923114 0.064652324
-0.043197222 0.015234156 0.061922073
-0.045239404 0.006837666 0.061414003
-0.014150253 0.045644239 0.058930814
-0.021987833 0.041916482 0.058872879
-0.042410295 0.016368628 0.056638062
-0.014644361 0.045877583 0.054657459
-0.023266189 0.041155517 0.054945409
-0.032604668 0.034410842 0.053856969
-0.038393829 0.026268037 0.054069161
-0.041776348 0.017970689 0.052853405
-0.023867141 0.041831449 0.049698591
-0.0311614 0.035530508 0.049569845
-0.037872635 0.026686054 0.048666596
0.025661519 0.046555895 0.10644239
0.025418218 0.049083501 0.10594743
0.024692271 0.047557689 0.10545248
0.019300304 0.049473904 0.090953887
0.016008329 0.048512645 0.089440107
0.015098788 0.047798917 0.084449708
0.011338897 0.047545396 0.085305572
-0.046384133 -0.010930957 0.080261469
-0.0482843 -0.014658611 0.08034575
0.014193544 0.048432715 0.080661178
0.0099207107 0.048319347 0.080749214
-0.046204433 -0.0094334986 0.076507807
-0.047278982 -0.014730988 0.075427353
0.0078145191 0.048628934 0.076370418
0.004296232 0.049189366 0.075976551
-0.046214893 -0.0040992331 0.072394311
-0.045972008 -0.0074282885 0.071836591
0.0028247423 0.04827489 0.072081923
-0.04560161 -0.0023610462 0.06743443
0.0019067489 0.04759359 0.068021536
-0.045043793 0.002636265 0.063522279
-0.045141567 -0.00066744909 0.063027024
-0.0066447612 0.046435989 0.06223911
-0.045717705 0.0026853401 0.056007981
-0.044783913 0.010479711 0.05528909
-0.0099711362 0.047436491 0.053970337
-0.042727493 0.015848536 0.051359236
-0.014472127 0.045899101 0.049507797
-0.022248555 0.04299552 0.047159553
-0.037121419 0.027744943 0.045914233
-0.04256561 0.01789177 0.046958685
-0.019486967 0.04368037 0.04433924
-0.02704227 0.038706899 0.043998778
-0.034159247 0.031900544 0.043717027
-0.040392395 0.024529684 0.0430215
-0.023632467 0.040207278 0.03983736
-0.030107267 0.035075616 0.039203167
-0.037621465 0.028684547 0.038357794
-0.043299284 0.020959066 0.037189543
-0.044101354 0.023005873 0.033490002
0.02096054 0.048246913 0.087366343
0.02054723 0.048963133 0.083881259
0.01778619 0.048249759 0.082822978
-0.048415795 -0.017205462 0.076624453
0.016734576 0.048931304 0.078816831
0.012296673 0.048247591 0.077413857
-0.04585693 -0.011290358 0.072589815
-0.047469392 -0.01446436 0.073622286
-0.048294112 -0.017261129 0.0734393
0.015315291 0.04860986 0.075366318
0.011560099 0.048147686 0.073605061
-0.044855509 -0.010227401 0.068561256
-0.046801705 -0.014159052 0.069061458
-0.048224472 -0.017232204 0.069284081
0.0095362868 0.047761112 0.069598377
0.0062492806 0.04782318 0.069994628
-0.045256317 -0.0083521139 0.064553201
-0.047084346 -0.01304006 0.064499497
0.0051646065 0.047333792 0.06493026
-0.045015559 -0.0025553014 0.060256541
-0.04535725 -0.007326372 0.060161948
0.0040399842 0.04731746 0.060452342
-0.045466453 -0.0010435041 0.056095421
-0.045758251 -0.0046615303 0.055719018
0.0027226377 0.047794893 0.056216657
-0.045858674 0.0054653157 0.051520586
-0.0019171238 0.047694769 0.051342249
-0.043593407 0.010498786 0.047095358
-0.04638993 0.0022741742 0.047307551
-0.0078569073 0.047004629 0.046383619
-0.043025464 0.012174604 0.043347418
-0.046270955 0.0037337542 0.044352651
-0.013405287 0.044460226 0.041481197
-0.041741818 0.017118953 0.039245605
-0.044561513 0.0093813986 0.040596664
-0.017592873 0.043378018 0.036883414
-0.025573708 0.038311221 0.036019266
-0.032323286 0.032824025 0.03584832
-0.042790003 0.019899219 0.035152078
-0.018528843 0.042643003 0.032071888
-0.025538759 0.037942737 0.032028496
-0.033584006 0.031627283 0.032152832
-0.039834812 0.026571088 0.031900287
-0.022971861 0.040274207 0.028837085
-0.029037274 0.034613989 0.028694332
-0.036813941 0.028446829 0.027080119
0.017142858 0.046614625 0.0697667
-0.047719106 -0.017712738 0.06562072
0.01382673 0.046905763 0.067510843
-0.047418021 -0.014178568 0.06131506
0.011246616 0.046516024 0.062896907
-0.04596585 -0.009479491 0.058142006
-0.047394108 -0.012858722 0.057911217
0.010763429 0.046864308 0.057589471
0.0068187006 0.04767644 0.058641851
-0.046111777 -0.0079368427 0.053912342
-0.046741039 -0.011792611 0.053307533
0.0057326034 0.047813356 0.053527474
-0.046011791 -0.0016786102 0.049283743
-0.045580208 -0.0052734055 0.04946506
0.0039554164 0.047814351 0.048689961
0.00036116131 0.048338681 0.049422622
-0.045624167 -0.0019493252 0.044674516
-0.045342039 0.0053182226 0.040591061
-0.0018782243 0.04663153 0.040046215
-0.0099049732 0.044431664 0.039648533
-0.045094095 0.0063407384 0.038973272
-0.0078299902 0.04574649 0.036459029
-0.013684506 0.04479618 0.032797396
-0.020495286 0.041221097 0.030151427
-0.025401141 0.038211856 0.025691271
-0.032871049 0.031653415 0.024713695
-0.038399536 0.025460441 0.023907125
-0.029036865 0.034585487 0.021357775
-0.034881052 0.026759896 0.020525813
0.019942276 0.045248922 0.06398958
0.019430455 0.045194902 0.061421931
0.016334992 0.045100212 0.060905516
0.01425891 0.045954429 0.056203425
-0.046884678 -0.01385857 0.050721467
-0.048556879 -0.016407596 0.052183628
0.011535248 0.047142252 0.052587152
0.0079913624 0.047852498 0.050196767
-0.045371659 -0.0089729633 0.047250211
-0.046127357 -0.013346631 0.046917975
-0.048500344 -0.016361767 0.047953248
0.010511363 0.047960602 0.047813833
0.0071238298 0.048161365 0.047329247
-0.044966236 -0.0076312888 0.043258965
0.0056834538 0.047869749 0.04340595
0.0012494214 0.046948656 0.041684449
-0.046404436 -0.00082312338 0.03731519
-0.045680933 -0.0041868482 0.039060295
0.0047392547 0.047297195 0.038872182
0.0023236573 0.046567813 0.038344204
-0.045504041 -0.0004560519 0.033831418
-0.046986632 -0.0044300277 0.033760965
-0.026581619 0.035075594 0.01892674
-0.027167631 0.033456393 0.0160321
0.024175595 0.047558576 0.062430561
0.023211174 0.044900529 0.063461185
0.024469271 0.047498047 0.060127676
0.021714121 0.045261055 0.058133781
0.018124994 0.044472247 0.057459414
0.020299282 0.045685925 0.053314507
0.017643282 0.045246344 0.053948104
0.016119707 0.046249725 0.048580647
-0.045842916 -0.015477204 0.043860137
0.01385602 0.047329042 0.045046687
-0.044517767 -0.0092684161 0.039507806
-0.045830023 -0.013796305 0.039824426
0.011417458 0.047707744 0.040745914
0.0084644184 0.047517091 0.03977561
-0.045059666 -0.00854785 0.035980523
-0.046725824 -0.011084335 0.035858214
0.0081806127 0.047065794 0.035496891
-0.046452221 -0.0069052372 0.033505321
-0.028412145 0.028963033 0.011609852
