# .PCD v0.7 - Point Cloud Data file format
VERSION 0.7
FIELDS x y z
SIZE 4 4 4
TYPE F F F
COUNT 1 1 1
WIDTH 1301
HEIGHT 1
VIEWPOINT 0 0 0 1 0 0 0
POINTS 1301
DATA ascii
-0.0093270689 -0.039330795 0.31285787
-0.030727929 -0.02224341 0.31084868
-0.024879079 -0.029535115 0.31177548
-0.018183332 -0.036872845 0.3114537
-0.009947449 -0.041309614 0.30943093
-0.036335379 -0.019790981 0.30747244
-0.030571951 -0.02789736 0.30791816
-0.024431171 -0.034785911 0.30767444
-0.015699655 -0.041097023 0.30630958
-0.0083218124 -0.045751169 0.30338854
-0.038742118 -0.021668222 0.30362475
-0.033313654 -0.028751623 0.30417946
-0.026510309 -0.035970706 0.30379227
-0.017833563 -0.042900473 0.30215085
-0.0094917249 -0.047678038 0.30046225
-0.040278289 -0.022862658 0.29905581
-0.031102885 -0.035093628 0.29851028
-0.019854002 -0.04459393 0.29792202
-0.01146926 -0.049324289 0.29618382
-0.039273597 -0.028601792 0.29491067
-0.032587465 -0.035962783 0.2946198
-0.027110307 -0.042240649 0.29335356
-0.017367303 -0.048827946 0.29275167
-0.0423088 -0.025611095 0.29066604
-0.037580442 -0.033607353 0.29028329
-0.030867793 -0.040932734 0.28997576
-0.022847869 -0.04695642 0.28874743
-0.014228344 -0.052108277 0.28796566
-0.038442336 -0.034311041 0.28550312
-0.032412622 -0.042153247 0.2854192
-0.024021069 -0.047820173 0.28391886
-0.037998263 -0.035420451 0.28147981
-0.033562727 -0.042974856 0.28056803
-0.025214884 -0.048266966 0.28014973
-0.033397656 -0.04261402 0.27718303
0.00086353347 -0.014276855 0.35680726
0.0041468828 -0.018045316 0.35666496
0.0065351832 -0.020689365 0.35653919
0.0062108315 -0.020926323 0.35518175
-0.018098585 -0.0057690893 0.34096104
-0.01401955 -0.013762978 0.34009302
0.00067948177 -0.024670735 0.33904216
-0.01386982 -0.013577388 0.33662152
-0.0081945788 -0.021704903 0.33466116
-0.012754356 -0.013979136 0.33204043
-0.0080628674 -0.020579711 0.33043516
-0.012793845 -0.019388225 0.32537597
-0.0071031339 -0.024989586 0.32371041
-0.019009387 -0.017494082 0.32268921
-0.012131594 -0.024769407 0.32227433
-0.0051142061 -0.030772321 0.31913075
-0.027364077 -0.011848506 0.31760433
-0.021907186 -0.02010007 0.3189646
-0.014937754 -0.027299207 0.31927678
-0.0071591474 -0.033564996 0.31671518
0.00017234869 -0.038377799 0.31468135
-0.030134209 -0.013834224 0.31467175
-0.024862351 -0.020829046 0.31631604
-0.0055690594 -0.039027035 0.31313244
0.0013265219 -0.042937942 0.30927715
-0.035644814 -0.012151984 0.31014881
-0.029695569 -0.0189703 0.31172177
-0.0036403611 -0.043352958 0.30757609
4.6810135e-05 -0.044760153 0.30601329
-0.038473137 -0.01392222 0.30689594
-0.0060885586 -0.045913998 0.30438182
-0.041611414 -0.011254131 0.3004851
-0.0069570411 -0.048216894 0.29967681
-0.00026726909 -0.049775545 0.29764596
-0.042471021 -0.017077666 0.29753664
-0.0057901423 -0.050818983 0.29448739
-0.044581637 -0.013772102 0.29262853
-0.042018496 -0.022065274 0.29235682
-0.0079975966 -0.052677941 0.29034373
-0.044570409 -0.019197596 0.28801009
-0.01371978 -0.052418236 0.28571656
-0.0056662522 -0.05423218 0.28514335
-0.043174222 -0.024614677 0.28404534
-0.038777377 -0.032236431 0.28235728
-0.0146397 -0.052618749 0.28174913
-0.045171913 -0.02223615 0.28005868
-0.041339353 -0.029259056 0.27895698
-0.037070107 -0.036290951 0.27818733
-0.020267829 -0.050677039 0.27761731
-0.042131282 -0.030373603 0.27425319
-0.036681015 -0.038475499 0.27457023
-0.029480737 -0.045905985 0.2736029
-0.02131715 -0.04994534 0.27238545
-0.042102046 -0.031981993 0.2701959
-0.037584417 -0.039246842 0.26970989
-0.030330345 -0.045541741 0.26900998
-0.04067836 -0.036052417 0.26666105
-0.033830293 -0.042367585 0.26597261
-0.01638459 -0.0017554103 0.33786741
-0.01503133 -0.0071081542 0.33475173
-0.0011941055 -0.021818668 0.33252546
0.0028235214 -0.020978026 0.33253282
-0.013584507 -0.011995343 0.32870412
-0.0062810061 -0.020972749 0.32819676
-0.020265603 -0.0059369216 0.32366207
-0.014971282 -0.01313333 0.32569632
-0.007466123 -0.021794328 0.32557815
-8.5762702e-05 -0.026213706 0.32288307
0.0035214406 -0.02948736 0.32263744
0.0057935854 -0.032171618 0.32172731
-0.023421433 -0.0075259833 0.32074404
-0.002337886 -0.028794393 0.32013106
0.00099803414 -0.032107133 0.31914762
0.004272854 -0.035058267 0.31807634
-0.027360082 -0.0092376228 0.31788808
0.0025799386 -0.038135447 0.31533203
0.0061134677 -0.039494704 0.31336734
-0.031555038 -0.0063011702 0.31358644
0.0017878991 -0.040693156 0.31240433
0.0045914929 -0.042309135 0.30981836
0.0075576026 -0.043516204 0.30760026
-0.036867283 -0.0052277185 0.30858707
0.0029114094 -0.044754051 0.30568171
0.0062767826 -0.046229221 0.30413881
-0.040134341 -0.0071475022 0.30410421
0.0016423631 -0.046297379 0.30303743
0.0047090203 -0.0482651 0.30011189
-0.041578669 -0.0084126294 0.30033788
0.0030629691 -0.050179277 0.29557043
-0.043648973 -0.0096103083 0.29551315
0.0010961629 -0.052204028 0.29150501
0.0041610952 -0.053238243 0.28905621
-0.044769622 -0.011704536 0.29046249
0.0030375719 -0.054144092 0.28575513
-0.045237437 -0.012468418 0.28580165
-0.0028314814 -0.054705635 0.28252181
0.0021957792 -0.054816552 0.2830745
-0.04555542 -0.017074954 0.28136003
-0.0052425899 -0.054564133 0.27785096
-0.045917466 -0.01943998 0.27686113
-0.014219504 -0.053825241 0.27312818
-0.0064990819 -0.055225745 0.27344519
-0.04459691 -0.025164887 0.27271223
-0.019603116 -0.050864819 0.27028626
-0.011449073 -0.054792881 0.26928386
-0.046871774 -0.022169396 0.26808518
-0.042831197 -0.029399227 0.26817811
-0.021069139 -0.050097674 0.26656854
-0.012779942 -0.054181628 0.26616448
-0.045360412 -0.025824007 0.26469991
-0.040531211 -0.03353538 0.26272205
-0.033651412 -0.040966969 0.26215366
-0.025779258 -0.046781771 0.26249811
-0.01693034 -0.052956726 0.26256406
-0.041328926 -0.034185499 0.2582632
-0.034343418 -0.041365977 0.2576676
-0.028488709 -0.046717286 0.25705978
-0.038749054 -0.038446523 0.25522548
-0.032086641 -0.045310061 0.25370768
-0.016265567 -0.002062493 0.33014584
0.0020585619 -0.019539054 0.32930964
0.0048219757 -0.020434689 0.32978916
-0.018612668 0.0011033518 0.32541892
-0.01422759 -0.0043217419 0.32692522
0.00083597377 -0.020571239 0.32686564
0.003684774 -0.021745125 0.32464883
0.008573995 -0.025557747 0.32360387
0.01036488 -0.02740334 0.32465664
-0.019539924 -0.0031916378 0.32425162
0.002533325 -0.023754939 0.32321686
0.0062975856 -0.029150538 0.32336023
0.008870082 -0.030596197 0.32077566
-0.02592789 0.0026996713 0.31647441
0.007320663 -0.033875037 0.31800506
0.0083725732 -0.036718864 0.31527013
-0.02889457 0.0012537446 0.3139571
0.010785198 -0.037637133 0.31152436
0.013125638 -0.03803882 0.3092266
-0.033476919 0.0023268675 0.30934078
0.011612987 -0.041933015 0.30688962
0.014199052 -0.043962996 0.30510807
-0.038570315 0.0053681284 0.30433819
-0.037267998 0.0017661117 0.30669555
0.010229092 -0.045676287 0.30395567
0.013599966 -0.046148889 0.30181071
-0.040498115 0.0036029406 0.30156404
-0.040480483 0.00036815368 0.30250525
0.011692271 -0.048301455 0.29723155
-0.042039737 0.0024303049 0.29687497
0.0094257053 -0.050602175 0.29347754
-0.04370787 0.00095571764 0.29392812
0.0077214036 -0.05238957 0.28936815
0.01112568 -0.052782707 0.28707018
0.0062467754 -0.054144654 0.28451994
0.0095317103 -0.054093584 0.28323933
-0.00024680421 -0.054952174 0.27923355
0.0041188318 -0.055115178 0.27977768
-0.0013894215 -0.054921217 0.27643898
0.0028867181 -0.055662334 0.27518666
-0.047757279 -0.013221785 0.27491221
-4.1052699e-06 -0.055596109 0.27122942
-0.047543623 -0.014098329 0.27045584
-0.0093436465 -0.054969754 0.26665133
-0.047336817 -0.015021969 0.26635033
-0.010679698 -0.054362506 0.26351997
-0.047013473 -0.020958092 0.26248816
-0.04358279 -0.028009528 0.26074681
-0.020465411 -0.049445927 0.25934881
-0.01144368 -0.054204345 0.25887936
-0.044430193 -0.025296029 0.25672424
-0.041548178 -0.033148598 0.25619629
-0.021042686 -0.049531709 0.25488603
-0.01441383 -0.053245775 0.25420314
-0.041845761 -0.033884365 0.25209838
-0.035160899 -0.041790057 0.2515721
-0.026544657 -0.047733266 0.25064608
-0.018653125 -0.051100589 0.25111035
-0.038232755 -0.037431881 0.24735162
-0.032146506 -0.045399316 0.24679598
-0.024376269 -0.050234277 0.24578753
0.0082858372 -0.019114126 0.32697064
0.010935428 -0.020993104 0.32646778
-0.016815517 0.0028911303 0.32591659
-0.015112014 0.001123141 0.32632765
0.0072773928 -0.020347809 0.32464492
0.010259659 -0.022517653 0.32420665
0.013439198 -0.025410764 0.32152784
-0.019525032 0.0036972091 0.32058018
0.013355717 -0.027358424 0.31891453
0.015155843 -0.029536862 0.31571242
0.020673819 -0.033363484 0.3148396
-0.025980011 0.0091141127 0.31474173
-0.024809923 0.0059260335 0.31679162
-0.023282118 0.0031478154 0.31859651
0.014454767 -0.032858111 0.31403387
0.019030068 -0.034774285 0.31261247
0.021076299 -0.036826164 0.31166381
-0.03232773 0.011329672 0.31078276
-0.030275855 0.0075281123 0.31204471
-0.028122894 0.0043160832 0.31402773
0.014004597 -0.035353921 0.31134862
0.016175957 -0.037628792 0.30915061
0.019296654 -0.040720411 0.30815962
-0.034668662 0.010013605 0.30767229
-0.033657342 0.0061293039 0.30892673
0.017325167 -0.044169344 0.30513671
0.020964991 -0.044979095 0.30320749
-0.037307106 0.0081103919 0.30442113
-0.035898283 0.0058644451 0.30641907
0.016193967 -0.046702564 0.30022967
0.019764869 -0.046413824 0.29884923
-0.040106867 0.0063072089 0.29982498
0.014859099 -0.047800831 0.29703879
0.017583571 -0.048232518 0.29455772
-0.041644685 0.0062422697 0.29478088
0.015475942 -0.050983071 0.2913298
0.019377364 -0.051352672 0.28836486
-0.0436255 0.00272098 0.29121196
0.014083067 -0.052749522 0.28701183
0.017579747 -0.053369597 0.28641453
-0.045015417 0.0024023503 0.28671551
0.012593597 -0.054264028 0.28211358
0.015420493 -0.054659218 0.2811487
-0.046834193 0.00092127919 0.28219536
0.010190686 -0.05530595 0.27768654
0.014416059 -0.055480756 0.27853891
0.0045352411 -0.056309957 0.2729097
0.0086528286 -0.055991419 0.27303788
-0.049246058 -0.005721014 0.27332011
0.0028994381 -0.056139432 0.26878786
0.0072455984 -0.05748634 0.26804453
-0.049302056 -0.0075128153 0.26859242
0.0012508798 -0.056076519 0.26433009
0.0061741825 -0.058243085 0.26325116
0.0084062219 -0.060413755 0.26368347
-0.047758654 -0.012613159 0.26465154
-0.00029013678 -0.056109603 0.26023522
0.003409287 -0.05696572 0.26044729
-0.04771366 -0.013218625 0.25993457
-0.0098296273 -0.054359607 0.25568917
-0.0017594285 -0.056260604 0.25682917
-0.046704359 -0.018628223 0.25493735
-0.015933681 -0.052586734 0.25213313
-0.00695174 -0.054213881 0.25138077
-0.045566652 -0.024418605 0.25067675
-0.020680979 -0.050065883 0.24795562
-0.012962274 -0.054417897 0.24751726
-0.045788698 -0.024945676 0.24567476
-0.04176084 -0.032873556 0.24561119
-0.034626331 -0.040840048 0.24434793
-0.027040396 -0.0476375 0.24350446
-0.018319422 -0.05243098 0.24310762
-0.045611117 -0.025870861 0.24201959
-0.041666731 -0.033517681 0.24093068
-0.035208721 -0.041174352 0.24054086
-0.027345579 -0.046920288 0.23987144
-0.019761002 -0.051645711 0.24009925
-0.03920307 -0.037602227 0.2353119
-0.031417582 -0.04380586 0.23520705
-0.017188318 0.012428848 0.32037985
-0.015013272 0.0093054129 0.32125953
0.018276989 -0.023771513 0.31787467
-0.021294054 0.013820495 0.31662884
-0.019072244 0.01149745 0.31788427
-0.017521754 0.0082897441 0.31946704
0.015630251 -0.026209202 0.31783244
0.019337472 -0.027794583 0.31557736
0.021678317 -0.031964011 0.31491491
-0.028464168 0.01568483 0.31341624
-0.02491514 0.013447413 0.31438708
-0.022579107 0.010380719 0.31640214
-0.035631347 0.018294755 0.3101269
-0.031914562 0.014277545 0.31061471
-0.028360832 0.011572823 0.31290886
-0.03522449 0.018320408 0.30664948
-0.033296194 0.014455045 0.30664682
-0.042470712 0.022722144 0.3039766
-0.03655719 0.015088101 0.2997185
-0.03587674 0.012708543 0.30204529
0.023220558 -0.046248008 0.29754594
0.024817768 -0.047242522 0.29604149
-0.041210625 0.016288023 0.29567835
-0.038739663 0.014482475 0.2969186
-0.038831428 0.0099458406 0.29828486
0.02104375 -0.048060227 0.29323003
0.023756929 -0.047595453 0.29209128
-0.043678012 0.015185319 0.29123893
-0.041323207 0.012744871 0.2929461
-0.040208612 0.0087181795 0.29592937
0.021370988 -0.050570764 0.28819475
-0.045132626 0.014140625 0.28835699
-0.043053545 0.011221217 0.28796837
-0.042564914 0.0068796091 0.28927037
0.018717453 -0.053108536 0.28320009
-0.04731635 0.013087051 0.28428686
-0.045333657 0.0097818747 0.28454891
0.017562963 -0.054701768 0.28033608
-0.048564136 0.010299947 0.27744281
-0.047525633 0.007637782 0.28050718
0.016110526 -0.055638801 0.27484396
-0.047403365 0.0068241358 0.2760385
-0.046882782 0.0036552157 0.27561507
0.011364136 -0.056043766 0.27092668
0.015259085 -0.056501895 0.27034891
0.018089289 -0.05787003 0.26802075
-0.048215412 0.0010701213 0.27122822
0.0099379774 -0.057223212 0.26777342
0.01358442 -0.056412626 0.2660459
0.0073134284 -0.059377864 0.26130933
0.011222163 -0.060237356 0.26198462
0.01327882 -0.061920933 0.26137599
-0.049141057 -0.0044991467 0.26160288
0.0016403515 -0.056508981 0.25771165
0.006063208 -0.057738371 0.25780621
0.010377862 -0.059198588 0.257781
-0.048915587 -0.0063567068 0.25742763
-0.0041047279 -0.054642841 0.25282541
0.00080352277 -0.055592328 0.25294128
0.0057035349 -0.05711031 0.25423351
-0.047930025 -0.012094162 0.25295633
4.1389838e-05 -0.055323482 0.2489737
-0.048024498 -0.012836302 0.24823084
-0.010408789 -0.055115994 0.24399117
-0.04829013 -0.014062332 0.24394608
-0.04625925 -0.02244297 0.24315265
-0.0080466997 -0.054790296 0.23948234
-0.045997575 -0.022858486 0.23855054
-0.042004131 -0.031247675 0.23735523
-0.021761119 -0.04911707 0.23630604
-0.013098449 -0.052801441 0.2359004
-0.044578817 -0.024229113 0.23419273
-0.041225262 -0.032006234 0.23375243
-0.035261992 -0.040763166 0.23283005
-0.026511986 -0.045565028 0.23239917
-0.0181436 -0.051750127 0.23097003
-0.041122597 -0.032286841 0.2292079
-0.035007458 -0.040019158 0.22919142
-0.027404668 -0.045388084 0.22831562
-0.018352458 -0.052821688 0.22806418
-0.035834979 -0.040050004 0.22452205
-0.029319972 -0.045780741 0.22438759
-0.017197423 0.013433293 0.32091492
0.021418817 -0.023835862 0.31682464
-0.021764982 0.016006803 0.3173463
-0.018903758 0.013964742 0.31896397
-0.023605928 0.015798738 0.3152954
-0.036909055 0.023546323 0.3017323
-0.033757851 0.019138552 0.30347076
-0.038449243 0.022125609 0.2994535
-0.035773687 0.017573677 0.30071831
-0.040129926 0.020165058 0.295762
-0.042467341 0.018861322 0.291475
-0.04554262 0.016849309 0.28735903
-0.047002356 0.0168334 0.283005
-0.047182012 0.013879692 0.27823359
0.02028005 -0.054142527 0.27420112
-0.047158018 0.012287242 0.27294636
-0.047175914 0.0083279088 0.27323723
0.019046796 -0.057057619 0.2690281
-0.046272926 0.0086458288 0.27004069
-0.045838475 0.0055249371 0.26797763
0.015521156 -0.056868237 0.26417589
0.017328162 -0.058461137 0.26438561
-0.047261983 0.003673723 0.26418027
0.012631055 -0.058549047 0.25885409
0.015816847 -0.059713893 0.26126558
-0.047968905 0.0018902719 0.26005977
0.012809467 -0.057637624 0.2540257
-0.050193846 -0.0042405725 0.25472653
0.0062968861 -0.056339875 0.25050205
0.011036037 -0.056844279 0.25141805
-0.050488278 -0.0056649745 0.25143617
0.00050717592 -0.055723432 0.24665216
0.0052581299 -0.056661025 0.24643302
0.0096718986 -0.057928532 0.24648127
-0.048862167 -0.011126108 0.24608821
-0.00046534836 -0.05597654 0.24252844
0.0038414057 -0.056715734 0.24150285
-0.048788704 -0.011971198 0.24150312
-0.0013815574 -0.056394279 0.23736769
-0.048234876 -0.016996132 0.23766011
-0.0076664593 -0.055653624 0.23421395
-0.046819337 -0.017460503 0.23309028
-0.044115108 -0.025686814 0.2319794
-0.0092309639 -0.055113118 0.22942975
-0.044262864 -0.027031813 0.2280463
-0.026166677 -0.045942958 0.22642922
-0.019153191 -0.052185666 0.22599041
-0.044972807 -0.023839168 0.22396305
-0.041597061 -0.031906366 0.22294688
-0.036677908 -0.039922472 0.22164929
-0.027486002 -0.046341203 0.22170618
-0.019299472 -0.051377423 0.22075018
-0.041451782 -0.031448185 0.21839902
-0.035963502 -0.039754745 0.21759558
-0.028742805 -0.046623856 0.21693474
-0.035130803 -0.040527087 0.2138401
-0.029760279 -0.04661116 0.21286845
-0.033518288 0.023893896 0.30203527
-0.038949706 0.023040295 0.29611439
-0.040574901 0.021703746 0.29220855
-0.04432236 0.020627666 0.28491932
-0.045797061 0.017475907 0.27904215
-0.045323849 0.018399522 0.27525261
-0.046452504 0.016242329 0.2717278
-0.046499915 0.014467224 0.2673161
-0.045461547 0.010752954 0.26590034
-0.045624319 0.0099595822 0.26074156
-0.046472333 0.0054894239 0.2615782
-0.046666082 0.0083886608 0.25774294
-0.046882547 0.0053670667 0.25843424
-0.048855908 0.0067545045 0.25406516
-0.048575528 0.0036437958 0.2533305
0.013713226 -0.055829488 0.2476106
-0.049206816 0.00081549957 0.24883991
0.0075635798 -0.056762449 0.24359119
0.0098507348 -0.056714416 0.24344581
-0.048821986 0.00090246089 0.24431774
0.0075194724 -0.056014907 0.2385388
0.010535695 -0.055996139 0.2386536
0.0013571214 -0.056080095 0.23414358
0.0046395026 -0.0559549 0.23471013
-0.04890763 -0.010238724 0.23560661
0.00038933381 -0.055862602 0.23107308
-0.047035746 -0.01506358 0.23036465
-0.0029440168 -0.055897124 0.22633421
-0.046290491 -0.019514393 0.22591776
-0.008288743 -0.05416514 0.22251856
-0.046813555 -0.017087132 0.22220883
-0.044317529 -0.025545083 0.22044331
-0.013451362 -0.053215519 0.21890479
-0.045791216 -0.022668915 0.21639538
-0.041466866 -0.031279184 0.21574485
-0.036352165 -0.037652139 0.21500531
-0.023624677 -0.048852395 0.2145189
-0.013576409 -0.052634105 0.21397364
-0.044705193 -0.027108397 0.21148139
-0.03861006 -0.035497416 0.21173808
-0.032609649 -0.043086346 0.2110706
-0.024678774 -0.048836626 0.21049431
-0.040710088 -0.032402385 0.20742258
-0.035518989 -0.038429931 0.20709321
-0.028650889 -0.045869123 0.20700252
-0.045337435 0.020711634 0.26909664
-0.04799068 0.020901646 0.26631725
-0.046631195 0.017924316 0.2645624
-0.05030736 0.019047728 0.2602894
-0.047675498 0.016079873 0.26020816
-0.045286842 0.012226271 0.2613605
-0.04826197 0.015339982 0.2562595
-0.047158595 0.010962892 0.25631467
0.020020865 -0.053856283 0.24919084
-0.0483227 0.009672109 0.25108951
0.019258533 -0.055305567 0.24613014
-0.048011445 0.0080908854 0.24654368
-0.048081681 0.0052175019 0.24715468
0.015398135 -0.054951027 0.24097729
-0.048019618 0.0079147946 0.24276561
-0.048177138 0.0038653854 0.24142188
0.012420163 -0.055097397 0.23718157
-0.048607551 0.0021822192 0.2368404
0.007851325 -0.055729985 0.23245639
0.011209918 -0.055224136 0.23123604
0.006171098 -0.055376038 0.22855642
-0.048076667 -0.0087990649 0.22711563
0.0010963436 -0.056042947 0.22481528
0.0041373093 -0.055705167 0.22384778
-0.046796799 -0.012872932 0.22318196
-0.0019072164 -0.055914812 0.21978632
0.0022772085 -0.055824451 0.21901181
-0.046928056 -0.014557617 0.21933532
-0.007220136 -0.053886898 0.215942
-0.047227647 -0.015420096 0.21421897
-0.0161315 -0.051063649 0.21084911
-0.0080405623 -0.053592805 0.21121299
-0.047318347 -0.016600378 0.21005985
-0.045449767 -0.025302144 0.20914781
-0.014058914 -0.052645393 0.2068339
-0.045426615 -0.022167904 0.2055378
-0.042324468 -0.030128913 0.20588553
-0.03543685 -0.038182903 0.20432821
-0.027351107 -0.045399498 0.20383042
-0.019685915 -0.049965382 0.2033374
-0.044127643 -0.027074061 0.20088816
-0.039576367 -0.034668595 0.20048529
-0.031937201 -0.040746134 0.19929415
-0.023742601 -0.047600973 0.19868279
-0.041904341 -0.031387843 0.19584185
-0.036705893 -0.038823031 0.19462636
-0.029616866 -0.044479482 0.19440717
-0.046150565 0.021050947 0.26300454
-0.047565874 0.019968128 0.25886542
-0.047146842 0.021042868 0.25323308
-0.046689674 0.017146938 0.25266245
-0.048249364 0.020136163 0.25058332
-0.046599314 0.016367812 0.24899006
-0.047378145 0.012498522 0.24772599
0.020888876 -0.0549438 0.24240437
-0.047595479 0.015625162 0.24387181
-0.047862206 0.011427699 0.24454185
-0.049715169 0.012921317 0.24085793
-0.048555963 0.010072866 0.24029714
-0.047959376 0.0061518196 0.23907962
0.016360197 -0.053784922 0.23536551
-0.049444638 0.0093790088 0.23511362
-0.048865482 0.0050326027 0.23514393
0.014213324 -0.054951385 0.23017195
-0.053829849 0.0097330473 0.22911501
-0.051149771 0.0080520995 0.23028672
-0.0493844 0.0032187738 0.23128718
0.0086430144 -0.055352181 0.22551385
0.012283133 -0.055143788 0.22555652
-0.055510752 0.0079594273 0.22878382
-0.053301156 0.0082299169 0.22770002
-0.049148716 0.0031971093 0.22656438
0.0078652948 -0.054957747 0.22224897
0.0094562639 -0.054485038 0.2196199
-0.047069237 -0.0064757112 0.22086379
0.0048368517 -0.054895937 0.21697789
0.0092977304 -0.054583684 0.2179839
-0.00098330528 -0.054875776 0.21287671
0.00314188 -0.054363459 0.21238768
-0.04815267 -0.013370175 0.21267885
-0.0023111086 -0.054862194 0.20918089
-0.047890767 -0.014551887 0.2075353
-0.0039004683 -0.054729007 0.2043131
-0.046337884 -0.019589562 0.20336238
-0.0095633361 -0.053269863 0.20029283
-0.044995304 -0.024980936 0.19965309
-0.026232205 -0.04548049 0.19583273
-0.019903202 -0.049860369 0.19634414
-0.010865826 -0.053831615 0.19715995
-0.044092521 -0.025305126 0.19488779
-0.041022811 -0.033152521 0.19318783
-0.0282712 -0.045161169 0.19225842
-0.020059362 -0.049627926 0.19241685
-0.041591506 -0.02958752 0.18959337
-0.037290301 -0.039364614 0.18930265
-0.02932938 -0.044919208 0.18822247
-0.021344185 -0.048759598 0.18768883
-0.038041435 -0.039526213 0.18489566
-0.03007948 -0.044411201 0.1848025
-0.037884533 -0.03914094 0.18106198
-0.046898417 0.019287609 0.24722812
-0.047712669 0.016999934 0.24372721
-0.048830427 0.014235795 0.2374216
-0.0504044 0.012843564 0.23456579
0.018491918 -0.052660886 0.22364712
0.0180688 -0.05299978 0.22221303
-0.050259423 0.0092532467 0.22421825
-0.049233638 0.0055674054 0.22397396
0.013403684 -0.054015134 0.21942163
-0.048919063 0.0044091363 0.21965614
-0.047543809 0.00051096641 0.21870488
0.0073913094 -0.054164544 0.21431395
0.011481002 -0.054760177 0.21420023
0.015605165 -0.055654123 0.21437734
-0.048337571 0.001594618 0.21396083
-0.046622064 -0.0054082125 0.21412265
0.0065684821 -0.05397021 0.20987341
0.010222347 -0.054766096 0.20956174
-0.047269143 -0.0058049411 0.21105492
0.0037778541 -0.0551515 0.20668739
0.0082628615 -0.055182092 0.20550287
-0.047939733 -0.0077599324 0.20559987
0.0028346386 -0.055658136 0.20137855
-0.047632232 -0.013307046 0.20123887
-0.0024820045 -0.053711385 0.19724637
-0.04643466 -0.017336296 0.1971212
-0.0034741685 -0.053118438 0.19331896
-0.046005201 -0.018933559 0.1925008
-0.018441552 -0.049178183 0.18822604
-0.0095656645 -0.053108979 0.18926728
-0.043476686 -0.02403868 0.1866118
-0.040240686 -0.031197039 0.186023
-0.019374931 -0.049124997 0.18485337
-0.011401758 -0.052533414 0.1855765
-0.042065967 -0.028473606 0.18217003
-0.03204013 -0.041908372 0.1811167
-0.024664212 -0.046666212 0.18110067
-0.016761631 -0.050399795 0.18072093
-0.037051216 -0.038116675 0.17748892
-0.029531945 -0.043523971 0.17784438
-0.021645367 -0.049232572 0.17663962
0.019392174 -0.052798286 0.2198039
-0.048629779 0.011622243 0.22172612
0.01834145 -0.053657822 0.21708387
-0.048570979 0.010727756 0.21798509
-0.049258109 0.0070009287 0.21671394
0.016329592 -0.055307515 0.21201032
-0.048640117 0.010125577 0.21435553
-0.048911098 0.0055452902 0.21269864
0.011688089 -0.055241138 0.20748261
0.016340205 -0.054994859 0.20720059
-0.048269093 0.0027302764 0.20861951
-0.048272051 7.0897862e-05 0.20744544
0.010584127 -0.055107646 0.20350963
0.014218159 -0.055971112 0.2039409
0.008617213 -0.055227257 0.19958335
-0.047209963 -0.0061878953 0.19849443
0.0039070304 -0.054444987 0.19457355
-0.0016384982 -0.053084724 0.19063172
-0.04792618 -0.01176429 0.19017065
-0.0034001879 -0.053347349 0.18664867
-0.045517378 -0.017955266 0.18536478
-0.01023365 -0.053180754 0.18247154
-0.047477286 -0.0144135 0.18157595
-0.044004053 -0.023239298 0.18063635
-0.011192661 -0.053161286 0.17753786
-0.043269068 -0.023347985 0.17538264
-0.040070888 -0.031042052 0.17563686
-0.028889759 -0.042735524 0.17445806
-0.019996749 -0.049665675 0.17417887
-0.011958098 -0.052953705 0.17397115
-0.041630864 -0.027305024 0.17163691
-0.035769656 -0.035714094 0.17107674
-0.028545085 -0.042194273 0.17040136
-0.019532196 -0.048375316 0.17034346
-0.035300378 -0.0362004 0.16682744
-0.029120456 -0.042007159 0.16649753
-0.048208583 0.012770174 0.21492243
-0.048801109 0.011387192 0.21128106
0.019736273 -0.054395664 0.20399073
-0.047337048 0.0073932242 0.20627517
0.013784869 -0.05425673 0.2007992
0.018126436 -0.054502465 0.20007035
-0.047301486 0.0047227293 0.20194131
0.012363696 -0.054600157 0.19677037
0.016132779 -0.054145876 0.19697616
-0.047117718 0.0043943934 0.19803396
-0.046738558 0.00086719729 0.19711137
0.0069885664 -0.053936459 0.19223008
0.010481229 -0.053911798 0.19235566
-0.047387768 -0.0041984487 0.19173658
0.0013676006 -0.052695982 0.18812129
0.005123144 -0.0536405 0.1879591
0.0098957457 -0.053990886 0.18845963
-0.00025596283 -0.05321297 0.18424827
0.0038830116 -0.05415047 0.18320879
-0.047573812 -0.011020496 0.18351158
0.0010630917 -0.054079033 0.17949057
-0.047514364 -0.011426819 0.1791504
-0.0046185553 -0.053567708 0.17541295
-0.04695899 -0.012312874 0.17586118
-0.044363439 -0.021555491 0.17398411
-0.0099085588 -0.051990077 0.17038715
-0.04511787 -0.019101866 0.16993678
-0.041619375 -0.027114037 0.16907561
-0.019862354 -0.047508709 0.1673848
-0.011280185 -0.051527902 0.16614139
-0.041682251 -0.02688089 0.16486779
-0.0364778 -0.034664225 0.16486183
-0.028694103 -0.042417999 0.16398078
-0.019945487 -0.047098182 0.16281497
-0.041290313 -0.027317248 0.16116861
-0.03636869 -0.035584155 0.16019338
-0.029827828 -0.04283056 0.15940958
-0.021115627 -0.047239736 0.15869921
-0.033519566 -0.039714038 0.1543752
-0.026706971 -0.043901309 0.15548074
-0.04653281 0.014162691 0.20409226
-0.046368089 0.010687336 0.20297918
0.02040546 -0.053463526 0.1965096
-0.046277508 0.0096624419 0.19914168
0.018886125 -0.05371191 0.19371474
-0.046610311 0.0074880961 0.1947445
-0.046389766 0.0032541603 0.1945399
0.013535514 -0.05425233 0.1910437
0.017600706 -0.053194407 0.1886875
-0.047254529 0.0064550396 0.19063297
-0.046827659 0.0025731418 0.1909534
0.011247765 -0.054388531 0.18573064
0.016028052 -0.053982563 0.18521535
-0.047355909 0.0052001327 0.18694758
-0.047401149 0.00098702312 0.18572795
0.0056205969 -0.054840624 0.18060452
0.010509051 -0.05481248 0.18068945
0.013759866 -0.055848394 0.17978686
-0.047525547 -0.0039601047 0.1812655
0.0036701113 -0.054430857 0.17729086
0.007509103 -0.054760534 0.17599362
-0.047718283 -0.0051337723 0.17659682
0.0019417834 -0.054041956 0.17272347
0.0065872613 -0.054807819 0.17280295
-0.046768915 -0.010426965 0.17259195
-0.0071417298 -0.051435061 0.16721356
0.0005503092 -0.053347081 0.16829708
-0.044993363 -0.015299637 0.16656259
-0.0039160829 -0.052355111 0.16345763
-0.044889048 -0.021188438 0.16213885
-0.013617784 -0.049431298 0.15979952
-0.044941358 -0.018756259 0.15828764
-0.041588645 -0.026022311 0.15835577
-0.023824634 -0.045463443 0.15653297
-0.014944237 -0.049789198 0.15569884
-0.043892108 -0.022332892 0.15423176
-0.038803622 -0.029761374 0.1535399
-0.03340999 -0.039439823 0.15139884
-0.025227888 -0.044764288 0.15300155
-0.01653474 -0.049730562 0.15108487
-0.036584094 -0.034597632 0.14823157
-0.030100463 -0.042448763 0.14728606
-0.021480955 -0.047123663 0.14859757
-0.033934899 -0.038436212 0.14371884
-0.046111431 0.016945738 0.20052245
-0.046156883 0.016175983 0.19675577
-0.045821924 0.012629099 0.19684303
0.021561481 -0.05335851 0.19050652
0.022765808 -0.054352775 0.1903356
-0.046740193 0.015498852 0.19249254
-0.046282977 0.012025693 0.19230676
0.020142667 -0.05371964 0.1876919
0.022841604 -0.054252904 0.18844429
-0.047492623 0.0094234906 0.18847525
0.01743483 -0.054248933 0.18328252
-0.048013613 0.0070407353 0.18406907
0.015393374 -0.056154616 0.17872718
-0.048034962 0.0059353281 0.17964631
-0.048439622 0.0018624719 0.17849693
0.010514529 -0.055160105 0.17468017
0.013782432 -0.056609966 0.17367974
-0.048323564 0.0004597567 0.17473996
0.0075892881 -0.055177305 0.17009658
0.011369847 -0.05615712 0.16869351
-0.047582012 -0.0033578407 0.17009836
0.0031166077 -0.053793229 0.16636664
0.0068532359 -0.055418216 0.16555539
0.011205053 -0.055709355 0.16534615
-0.046297595 -0.0096352249 0.16514745
0.0015442949 -0.053828821 0.16199425
0.0059063286 -0.054088026 0.1617471
-0.046182759 -0.0091846231 0.16116858
-0.0073661059 -0.051283181 0.15708053
0.00039589033 -0.054035939 0.15771323
-0.044893082 -0.014492325 0.15521803
-0.0050413143 -0.052929491 0.1521754
-0.045381073 -0.016197911 0.15122569
-0.042322367 -0.024366507 0.15105966
-0.011400983 -0.052589405 0.14951056
-0.043078646 -0.021028725 0.14757425
-0.039720599 -0.028761031 0.14669901
-0.021299675 -0.046817221 0.14554426
-0.012375053 -0.053044617 0.14483845
-0.039559126 -0.029488616 0.14231706
-0.033535425 -0.037776284 0.1415759
-0.025343582 -0.044056095 0.14171797
-0.017566819 -0.050121702 0.14144796
-0.041440293 -0.026996914 0.13861126
-0.037105251 -0.033327442 0.13697392
-0.029283309 -0.041329857 0.1357044
-0.021566121 -0.046656311 0.13648096
-0.045726482 0.022266123 0.19296175
-0.046469972 0.018997569 0.1946125
-0.04705479 0.017454311 0.19021171
-0.04702688 0.016085796 0.18598452
-0.046658196 0.012797935 0.18623504
-0.047056608 0.012814155 0.18182579
-0.047065128 0.01318809 0.17798147
-0.047529209 0.0081522614 0.17785564
0.016164871 -0.055600338 0.17023394
-0.047391679 0.0066205133 0.1716432
-0.047301054 0.0044517107 0.17159849
0.015373353 -0.055404693 0.16721046
0.017519802 -0.056436867 0.16806614
-0.04731299 0.0029569771 0.16729212
0.013676723 -0.055540778 0.16217029
-0.047747791 0.0013967212 0.16290361
0.0081468448 -0.05411246 0.1590656
-0.048155624 0.00019917823 0.15895712
-0.046738982 -0.0073195696 0.15875903
0.0035977568 -0.053150404 0.15380007
0.0065062847 -0.053391881 0.15553486
-0.046631962 -0.0090846494 0.15449619
0.0017159153 -0.052990012 0.15032178
-0.047447138 -0.0094967894 0.14946252
-0.0044707116 -0.052469857 0.14579567
0.00029038638 -0.052421831 0.14704087
-0.045698002 -0.014802192 0.14509213
-0.0098631233 -0.052995615 0.1413506
-0.045266919 -0.015451847 0.13999745
-0.041787893 -0.023981415 0.14079201
-0.012314092 -0.051940806 0.13775465
-0.043827001 -0.021686476 0.13586947
-0.04073735 -0.029379915 0.13555944
-0.030278651 -0.039812826 0.13481361
-0.021718659 -0.046717711 0.13469157
-0.013340691 -0.050956182 0.13340586
-0.040933937 -0.030366726 0.13105425
-0.03376504 -0.037451249 0.13063884
-0.025411164 -0.043551534 0.13011485
-0.017930251 -0.049044639 0.12918222
-0.040561311 -0.029714257 0.12669837
-0.034814257 -0.037552215 0.12494558
-0.026264444 -0.043726556 0.12607336
-0.046315171 0.019071881 0.18442604
-0.046212342 0.017898437 0.1793116
-0.046731472 0.015565575 0.17496732
-0.045228511 0.012446534 0.1742985
-0.045284823 0.012149148 0.17047852
-0.045939416 0.009344751 0.16508576
-0.046753265 0.0055316333 0.16620639
0.016604342 -0.054978639 0.15858048
0.017754786 -0.056083903 0.16035074
-0.046720438 0.0061193779 0.16030881
0.0099317804 -0.052437648 0.15523487
0.014588065 -0.053229488 0.1563375
-0.04814107 0.0021242183 0.15668449
0.0094696954 -0.051703542 0.15138206
-0.047835682 0.0018595476 0.15271273
0.0047581177 -0.052641835 0.14763498
0.0079114418 -0.051935859 0.14756817
0.0029327702 -0.052317843 0.14347503
-0.047144961 -0.0082755219 0.14394209
-0.0021488853 -0.052315302 0.14070618
0.0013440009 -0.052561112 0.13919973
-0.045928389 -0.013091356 0.13802028
-0.0060101151 -0.053494077 0.13475966
-0.045770772 -0.013818629 0.13308191
-0.011418859 -0.051212378 0.13056761
-0.0023290589 -0.053219989 0.130723
-0.044005182 -0.019201767 0.12882084
-0.016811471 -0.049258612 0.12620133
-0.0087290164 -0.051939946 0.12543666
-0.042151541 -0.024814822 0.12479532
-0.025615402 -0.043944098 0.12322026
-0.017448813 -0.048624717 0.12239313
-0.041921575 -0.025470559 0.12023371
-0.038120296 -0.033167981 0.12004447
-0.031075418 -0.040822893 0.11944199
-0.021964304 -0.045926601 0.11803705
-0.0366599 -0.033231378 0.11527765
-0.031206926 -0.040029846 0.11446565
-0.028657872 -0.043489527 0.11065406
-0.045058724 0.017916586 0.17502561
-0.04589618 0.016253725 0.16741231
-0.045481309 0.013587534 0.16771942
-0.046119332 0.015645148 0.16339844
-0.045884944 0.0125833 0.16422343
-0.046019737 0.011522971 0.15947548
0.01362158 -0.051213458 0.15280899
0.01816429 -0.052824188 0.15371439
0.020604113 -0.053449754 0.15211672
-0.046834707 0.0096735898 0.15540704
-0.046331912 0.0070251822 0.1549938
0.013098627 -0.05088767 0.14915156
0.016355356 -0.052742004 0.14924443
0.020012593 -0.054626804 0.15041265
-0.046181671 0.0053929705 0.14963913
0.0098034497 -0.051770598 0.14508662
0.014858333 -0.053160474 0.14407343
-0.046793178 0.0028218012 0.14571625
-0.046737812 0.00077128783 0.14375952
0.0078467764 -0.052881196 0.14138234
0.011065962 -0.053150106 0.1398108
-0.046360001 -0.0053869653 0.14066255
0.0022772923 -0.052435841 0.13649675
0.0065325201 -0.053462539 0.13634154
0.0097672921 -0.054182917 0.13522694
-0.046914235 -0.0056662261 0.13726044
0.0020411238 -0.052540727 0.13284081
0.0046356916 -0.052847564 0.13206905
-0.047313653 -0.0079619326 0.1327917
-0.0051807556 -0.052498311 0.12712759
0.0036070049 -0.053133018 0.12842548
-0.045906365 -0.012798712 0.12661207
-0.006421918 -0.052655663 0.12364072
-0.045146003 -0.01391125 0.12188125
-0.042638358 -0.022591135 0.12180704
-0.007987408 -0.052644465 0.11908013
-0.043512538 -0.019428549 0.11750382
-0.02055973 -0.046927072 0.11555648
-0.013183007 -0.050836794 0.11527181
-0.041369438 -0.024598558 0.11283493
-0.037859567 -0.032084472 0.11343825
-0.021859627 -0.04581869 0.11184436
-0.013929993 -0.049213998 0.1109876
-0.037101027 -0.032019213 0.10799831
-0.031917483 -0.039964899 0.1087901
-0.022812694 -0.045861803 0.10681713
-0.036654081 -0.033285242 0.10420531
-0.031929947 -0.039704438 0.10375828
-0.045749895 0.019512396 0.16116747
-0.045857407 0.018251317 0.15672791
-0.045873053 0.014294365 0.15629566
0.022258263 -0.052020952 0.15254351
-0.047191966 0.016799632 0.15206042
-0.046707653 0.013161637 0.1529451
-0.049985573 0.015560795 0.14640695
-0.046594299 0.011685589 0.14853668
-0.045523264 0.0078010838 0.14757401
0.014561778 -0.052238122 0.14233965
-0.049968313 0.013343221 0.14548093
-0.046863072 0.010534355 0.14448708
-0.045502879 0.0074894615 0.14291698
0.014336241 -0.053393655 0.13819864
-0.045951515 0.0057377852 0.13777021
-0.046832144 0.0012015291 0.13786066
0.013757657 -0.053261235 0.13315955
-0.046406902 0.0042639431 0.13428175
-0.046870027 0.00032364577 0.13443533
0.0076415949 -0.052969441 0.12964183
0.01100981 -0.053454727 0.12844318
-0.046866968 -0.0049285498 0.12917984
0.0061336104 -0.05317802 0.12489909
-0.046542645 -0.0057469197 0.12486607
0.0010199845 -0.053140894 0.1220994
0.0040542427 -0.053582363 0.12064368
-0.045711026 -0.010817837 0.12127465
0.0024113115 -0.053874478 0.11681902
-0.04584527 -0.011924226 0.11642319
-0.0070883315 -0.052019596 0.11203331
-0.046181135 -0.012651056 0.11174029
-0.041739807 -0.021806002 0.11076808
-0.011463534 -0.048988707 0.10784
-0.003574159 -0.052593015 0.10876411
-0.041773535 -0.022831172 0.10579228
-0.038232893 -0.030486953 0.10566336
-0.016587349 -0.04731866 0.10344654
-0.041459031 -0.024465296 0.10150045
-0.037891921 -0.031861447 0.10197556
-0.031763915 -0.039371789 0.10053331
-0.023396727 -0.045014184 0.10072953
-0.039889865 -0.028589996 0.097082496
-0.034693811 -0.035334103 0.096199632
-0.028170263 -0.041665886 0.095933855
-0.03514846 -0.036103737 0.092389643
-0.029108735 -0.042206094 0.091175437
-0.046618782 0.02062978 0.15485221
-0.048096567 0.019509889 0.15037003
-0.047339462 0.016945951 0.14671165
-0.04694543 0.014226675 0.14542392
-0.046957266 0.013049714 0.14147344
-0.047341451 0.011591323 0.1374703
-0.046530709 0.0083891694 0.13823587
0.015869007 -0.052955631 0.13141358
0.017916728 -0.053258978 0.13046396
-0.048455335 0.0097352024 0.13331696
-0.047212131 0.0062085651 0.13270006
0.013940742 -0.053858034 0.12770271
0.015906697 -0.055645879 0.12715805
-0.046837844 0.0066219214 0.12888151
-0.045736879 0.002544295 0.12695998
0.011687612 -0.054309972 0.1226576
0.014471846 -0.056630336 0.12272882
-0.045681193 0.00085449032 0.12285817
0.0074785929 -0.053683437 0.11881083
0.011313507 -0.054109089 0.11808199
-0.046496335 -0.0042015109 0.1183989
0.0054674037 -0.053817604 0.11383677
0.00014932081 -0.053043876 0.11032909
0.0033844933 -0.053344704 0.10964388
-0.047023058 -0.01104754 0.10945052
-0.0013898425 -0.052677572 0.10559779
-0.043993182 -0.015703775 0.10519737
-0.010823835 -0.049275469 0.10235846
-0.0027798973 -0.052372213 0.1016199
-0.042454023 -0.021361019 0.10016036
-0.012295807 -0.049389821 0.098309219
-0.04372067 -0.017307624 0.096163571
-0.040346671 -0.026948271 0.094774961
-0.025701188 -0.042026691 0.093391716
-0.019541919 -0.046922736 0.093557417
-0.041990768 -0.023152661 0.091170609
-0.037989475 -0.031499717 0.090161741
-0.032238375 -0.038884684 0.089957833
-0.024186097 -0.044769101 0.088932097
-0.039530419 -0.028356854 0.087421894
-0.03507347 -0.035368413 0.085017502
-0.028766187 -0.041638691 0.084277987
-0.032509919 -0.039015558 0.080813944
-0.047061369 0.017036218 0.1393944
-0.047246497 0.017225055 0.13552561
-0.047401927 0.014787868 0.13478562
-0.047605667 0.013823124 0.13047266
-0.04751686 0.010645878 0.12800789
-0.045436237 0.0089552831 0.12454748
-0.045514092 0.0073300675 0.12104088
-0.045111194 0.0037393495 0.12083417
0.012428971 -0.053486586 0.11501622
0.015448354 -0.055136621 0.11709166
-0.046348207 0.0060032308 0.11583138
-0.045707285 0.0030867178 0.11688572
0.011597658 -0.052728355 0.11215729
-0.04653839 0.0010778811 0.11240244
0.0067547206 -0.052958041 0.10707039
0.010438487 -0.052935924 0.10796553
-0.047187157 -0.005600499 0.10616499
0.0008765962 -0.05269742 0.10234135
0.0053442512 -0.052724987 0.10293901
-0.046020426 -0.0097800549 0.1016348
0.0041475538 -0.052537877 0.098406971
-0.045918521 -0.010527819 0.097964525
-0.0056024287 -0.05128891 0.094902217
-0.046413809 -0.011774711 0.092882812
-0.043708444 -0.019348128 0.093209565
-0.0083875023 -0.05060368 0.090671599
-0.046779439 -0.012962785 0.088684261
-0.04365753 -0.021309387 0.089688241
-0.013806164 -0.047886372 0.086673915
-0.045904364 -0.017906971 0.085040271
-0.040523566 -0.026631869 0.084837973
-0.035756294 -0.034439363 0.08234483
-0.023924086 -0.044224422 0.082461417
-0.014661539 -0.047301836 0.081918836
-0.041109387 -0.027144734 0.079651833
-0.035723783 -0.035372805 0.079793572
-0.028039068 -0.041629165 0.078934848
-0.020586185 -0.046176367 0.077852786
-0.038793355 -0.031367745 0.075443208
-0.032758784 -0.038929805 0.074840426
-0.025394522 -0.043029621 0.074607313
-0.032886546 -0.038831539 0.070792615
-0.044770807 0.014110419 0.12194598
-0.045310728 0.010950942 0.11831355
-0.047666486 0.012046762 0.11165166
-0.046681702 0.0087671634 0.11468071
0.015284916 -0.051568896 0.10955775
0.017141117 -0.051323235 0.1074174
-0.046970055 0.0074289013 0.11019659
-0.045770712 0.004876053 0.10911906
0.012706567 -0.052476764 0.10498565
0.015685402 -0.05251864 0.10383707
-0.045370735 0.0028283875 0.10532039
0.0081684627 -0.052602295 0.1001398
0.011439979 -0.052948143 0.10045326
0.014335902 -0.053618796 0.1001488
-0.04454954 0.0022059567 0.10076314
0.0058755819 -0.052382953 0.096342027
0.0096268877 -0.053356107 0.095687926
0.01191251 -0.055593852 0.093498886
0.0041811354 -0.052705735 0.092466593
0.0080747064 -0.053903427 0.091499746
-0.046425752 -0.0082721673 0.092089415
0.0016235393 -0.052161917 0.088140547
-0.047030818 -0.010117099 0.086916149
-0.0072006732 -0.049961247 0.082253337
0.0009014383 -0.052145187 0.084010184
-0.045509931 -0.015186246 0.082018077
-0.012732204 -0.047602445 0.078898549
-0.0044746082 -0.050331391 0.080155551
-0.043340337 -0.020103816 0.077230275
-0.017694436 -0.046355963 0.075289428
-0.042880885 -0.02084177 0.072585285
-0.037624378 -0.029950172 0.070902586
-0.026181119 -0.041388791 0.071140468
-0.018630352 -0.044937298 0.070706248
-0.03752137 -0.029952446 0.06732589
-0.032232273 -0.037995584 0.066862166
-0.023262084 -0.042893551 0.067100227
-0.032557815 -0.038054507 0.062213004
-0.033495497 -0.038763419 0.058805943
-0.043190084 0.018213788 0.12112957
-0.043905102 0.016934671 0.11677212
0.020889403 -0.050244693 0.10979366
-0.045330845 0.015594652 0.11262673
0.021418849 -0.050567202 0.10607636
-0.047028858 0.014226396 0.10824215
-0.047173627 0.0098484755 0.10713387
0.019782921 -0.052278742 0.10200071
-0.046330769 0.0088931657 0.10274369
-0.044785172 0.0057725422 0.10179442
0.016667742 -0.053681366 0.097863615
-0.046597827 0.0081244241 0.098300397
-0.045164201 0.0044729449 0.097716928
0.014394619 -0.054725539 0.094054103
-0.046270136 0.0022172481 0.093692422
0.0098692514 -0.054411314 0.088706732
0.01295289 -0.055451676 0.089202344
-0.046839945 0.0014659222 0.088837922
0.0046780277 -0.052292429 0.085517466
0.0086166058 -0.053708263 0.084606171
0.012934251 -0.054500498 0.084276021
0.0031726118 -0.052198425 0.080672979
-0.046719495 -0.0083481371 0.079805255
0.0014018193 -0.052550398 0.075792253
-0.045152768 -0.013363827 0.075401127
-0.0080776215 -0.048996717 0.07345289
0.00029125065 -0.052349612 0.072258115
-0.043575525 -0.018363226 0.070985496
-0.013456972 -0.047473129 0.069162607
-0.0056685116 -0.05187897 0.067802608
-0.043284334 -0.019598927 0.066937268
-0.038977288 -0.028073546 0.065063298
-0.023222392 -0.042707331 0.063889205
-0.014292786 -0.047733136 0.06423384
-0.0069979485 -0.052084014 0.064194798
-0.041946378 -0.024165336 0.061576545
-0.036118358 -0.034063559 0.06041044
-0.027263058 -0.041136641 0.060369551
-0.019147445 -0.04539068 0.059747219
-0.041386966 -0.024849838 0.05805558
-0.036756959 -0.035331517 0.057120264
-0.029123385 -0.041205462 0.056394875
-0.021036522 -0.044777811 0.056438386
-0.033825282 -0.038752265 0.052784443
-0.042366758 0.021762272 0.11802173
-0.043626186 0.023419481 0.11193329
-0.043497182 0.020854473 0.11508244
-0.044625312 0.022667572 0.10883176
-0.044427395 0.020386592 0.10982019
-0.045105509 0.019063152 0.10380572
-0.04636763 0.014150677 0.10390109
-0.045363747 0.013221305 0.099767268
-0.045844756 0.012492025 0.095855951
-0.046751074 0.0093842763 0.092651248
-0.046470106 0.0056786276 0.09204942
-0.046491373 0.0083233658 0.088684559
-0.046041694 0.0042644814 0.086427152
0.014755942 -0.052821722 0.080317914
-0.045973197 0.0033895466 0.083778322
0.0054623503 -0.052244939 0.07730788
0.010282602 -0.052668095 0.078187585
0.004871523 -0.052675329 0.073792279
0.0094477758 -0.052974354 0.073280811
-0.044893198 -0.0069295503 0.073180676
0.002577424 -0.052410014 0.069206595
0.0085122492 -0.053721245 0.070119083
-0.045296062 -0.012169052 0.067996562
0.0020179413 -0.052428026 0.065085828
-0.043828756 -0.017320327 0.063703954
0.00014220923 -0.052184641 0.061955214
-0.043292046 -0.018120121 0.059367001
-0.0096738636 -0.04984381 0.05632937
-0.044896349 -0.014381078 0.05651027
-0.041722696 -0.023489263 0.054830492
-0.023355633 -0.043442067 0.052985251
-0.014460975 -0.04712721 0.051812232
-0.044209763 -0.020699838 0.049152434
-0.038941767 -0.027634323 0.049737155
-0.03217452 -0.035789039 0.047971308
-0.023675671 -0.04213807 0.048534274
-0.015897546 -0.04743813 0.047396541
-0.042498425 -0.024529725 0.045511663
-0.036410462 -0.031687044 0.044132173
-0.029390261 -0.038833681 0.043467522
-0.017257536 -0.053955473 0.040418565
-0.044690166 0.020701285 0.10378152
-0.044444606 0.017417695 0.099195302
-0.045432314 0.016723327 0.093501866
-0.046709888 0.015873156 0.090415061
-0.046665009 0.01271531 0.090627015
-0.044770177 0.0080970321 0.084737539
-0.044765212 0.006143285 0.080105901
0.015464829 -0.052095931 0.075431824
-0.044548661 0.0044218358 0.075213015
-0.04576996 0.00074997172 0.075808227
0.013195546 -0.053997163 0.071594059
-0.045330971 0.0039100703 0.071814835
0.0085897949 -0.053575076 0.06690079
0.012076573 -0.05596637 0.06711179
-0.044471264 -0.0054189637 0.066952109
0.0040423833 -0.053129479 0.063200891
0.0083561316 -0.052794598 0.062274396
0.002090307 -0.052556615 0.058890283
-0.045811683 -0.011903783 0.057794869
0.00024367869 -0.052753013 0.054295838
-0.0090124905 -0.050521288 0.050732195
-0.045108803 -0.014609063 0.048911631
-0.021845581 -0.042807691 0.045394421
-0.013558315 -0.048638131 0.047644675
-0.0060570538 -0.051740866 0.045712531
-0.043137006 -0.024453469 0.043594182
-0.031648036 -0.036066182 0.041484416
-0.019566163 -0.044387132 0.042133391
-0.01209541 -0.051811609 0.041942477
-0.042872906 -0.023924194 0.039597332
-0.036866877 -0.031837963 0.039236128
-0.030396363 -0.038935289 0.038709939
-0.0207553 -0.043749779 0.038907707
-0.039715454 -0.029025296 0.035561979
-0.034657549 -0.036396895 0.036568582
-0.042676844 0.014152286 0.081444502
-0.042897321 0.013034855 0.078018725
-0.044168979 0.0092657488 0.078650832
-0.043813802 0.0089052655 0.073464036
0.016810916 -0.052962217 0.068904817
-0.044547807 0.0073457211 0.06901139
-0.044821367 0.0057633836 0.065675914
-0.044526581 0.0012163185 0.064458132
0.010007564 -0.052886598 0.059798002
0.01350506 -0.053898945 0.059334815
-0.044048764 0.00025575422 0.060507655
0.0047161672 -0.052316993 0.055065274
0.0084941499 -0.052296791 0.055876553
0.012372557 -0.053616039 0.054571509
-0.043913759 -0.0046082977 0.055113614
0.0030013714 -0.052659132 0.052122653
0.006785864 -0.051860072 0.051448941
-0.044871889 -0.010362729 0.050065935
0.00022411905 -0.051243477 0.047181666
0.004392866 -0.052443907 0.049042523
-0.044830345 -0.011204639 0.04629463
-0.00073601119 -0.050943788 0.042972744
-0.044541672 -0.012595711 0.042665601
-0.0044909436 -0.050101712 0.03851217
-0.044341765 -0.013682974 0.038908064
-0.043280471 -0.021798301 0.036512434
-0.042011023 -0.022628412 0.032975614
-0.036498372 -0.029870182 0.031477451
-0.04171586 -0.022087805 0.029260099
-0.03565162 -0.029232522 0.028056979
-0.042096525 0.01860987 0.078824878
-0.042374838 0.017427791 0.075445831
-0.042670026 0.014903353 0.070688128
-0.044023857 0.013642562 0.067282021
-0.043461256 0.011148455 0.065823793
-0.04431922 0.0069756061 0.062286794
-0.043691929 0.0068152156 0.057791293
-0.043837778 0.0036563296 0.058011711
0.013376622 -0.052358843 0.053979039
-0.043527439 0.0022258144 0.052808285
0.01011543 -0.051238038 0.048526108
0.013341861 -0.052295927 0.049757898
-0.04343538 0.00070311688 0.048299372
0.0034239274 -0.050974265 0.044612467
0.006923249 -0.051194392 0.044668078
0.0023273844 -0.050952382 0.040625989
0.0059203859 -0.050845563 0.039796591
-0.04321672 -0.0090048201 0.038718045
0.0017526262 -0.050016083 0.036632895
-0.043814547 -0.015478138 0.030522704
-0.040295858 -0.020844294 0.024590909
-0.034234349 -0.028465157 0.025243759
-0.037519217 -0.024455026 0.021443188
-0.041613556 0.022028938 0.073669136
-0.042862777 0.020992618 0.070761144
-0.042311255 0.018469382 0.069310367
-0.045102812 0.019115999 0.065739036
-0.044261541 0.016951911 0.065853119
-0.043007463 0.015089738 0.060836315
-0.043205455 0.011090746 0.060458541
-0.043478809 0.0143631 0.05676049
-0.043355338 0.010210309 0.055964828
-0.043939091 0.0085712392 0.051283777
-0.043446779 0.0052432809 0.051105917
0.014196336 -0.051477343 0.046671808
-0.044686556 0.0067429338 0.046799242
-0.043985102 0.0034296457 0.047133029
0.010760689 -0.050320998 0.04179728
0.013313062 -0.051105142 0.044893503
-0.043972611 0.0025324915 0.042724371
0.0087054968 -0.051012598 0.038357615
-0.043531872 0.0014240574 0.038363516
0.002963772 -0.04941576 0.03392309
0.0068037547 -0.051238261 0.033697546
-0.043913111 -0.0088202618 0.032280803
0.003793126 -0.0502747 0.03120631
-0.04320848 -0.011611329 0.026264608
-0.04104434 -0.018625814 0.022480488
-0.039932121 -0.020259729 0.019464493
-0.038781445 -0.020638019 0.015669405
-0.042119201 0.022174228 0.066563904
-0.042295087 0.017981254 0.057281196
-0.042571463 0.016467065 0.052958906
-0.043122314 0.012626297 0.053245008
-0.042397942 0.016219113 0.048725307
-0.043715037 0.012345737 0.049509645
-0.04425437 0.010363929 0.045066476
-0.044078663 0.0079222396 0.040423453
-0.043603972 0.0048466641 0.03970176
-0.042951837 0.0046074018 0.036208391
-0.041713104 0.0013144277 0.032974184
-0.034902949 -0.021262612 0.011282027
-0.04202953 0.020455411 0.051188409
-0.042346984 0.019284826 0.047028005
-0.042232398 0.017748883 0.04278934
