# .PCD v0.7 - Point Cloud Data file format
VERSION 0.7
FIELDS x y z
SIZE 4 4 4
TYPE F F F
COUNT 1 1 1
WIDTH 1296
HEIGHT 1
VIEWPOINT 0 0 0 1 0 0 0
POINTS 1296
DATA ascii
-0.0043405294 -0.05890429 0.20683765
0.0013290644 -0.058593482 0.20707482
0.0061295629 -0.057762176 0.20731479
0.010930121 -0.058123171 0.20617288
0.015868187 -0.056273222 0.20681044
0.020085216 -0.054255992 0.2076509
-0.014154375 -0.058387607 0.20340168
-0.0089759827 -0.059010029 0.20293489
-0.0038146377 -0.058817655 0.2025398
0.00080895424 -0.059187979 0.20252293
0.0054998994 -0.05779466 0.20310453
0.010693192 -0.057031006 0.20342183
0.015441895 -0.055599332 0.2034587
0.0012015104 -0.05908829 0.19830182
-0.054656386 -0.024640113 0.25883657
-0.053442478 -0.026846349 0.26018852
-0.054535985 -0.025471866 0.2567426
-0.053161502 -0.027501017 0.25652388
-0.054361939 -0.028397322 0.25210989
-0.051465511 -0.030546308 0.25329435
-0.048586309 -0.032480985 0.25176609
-0.055521429 -0.031476289 0.24516761
-0.051291347 -0.030974478 0.24770236
-0.04842186 -0.033574045 0.24897951
-0.054728627 -0.032506585 0.24391282
-0.051088691 -0.034490377 0.24401769
-0.04836756 -0.035607129 0.24644583
-0.049997389 -0.036310792 0.23996031
-0.047963977 -0.038412333 0.23948717
-0.045979917 -0.039710104 0.2356773
-0.044531465 -0.04079181 0.23088872
-0.042433321 -0.042806417 0.23048946
-0.041080952 -0.043314636 0.22654366
-0.039623737 -0.046253383 0.22210476
0.034128964 -0.04268536 0.22069865
0.038889825 -0.04059568 0.22173399
-0.038539767 -0.047980785 0.21779996
-0.036952734 -0.050058186 0.21659771
0.034513533 -0.043367118 0.21713769
-0.035470009 -0.050808907 0.21370941
0.03104043 -0.046639085 0.21359062
0.034323454 -0.043710679 0.213761
-0.033817768 -0.052268147 0.20898438
-0.030815005 -0.053899825 0.20848167
0.02628237 -0.049699038 0.20979306
0.029915154 -0.046407998 0.20912611
-0.032332361 -0.053512394 0.20513266
-0.029631793 -0.054920018 0.20436257
-0.024923384 -0.056301892 0.20419955
-0.020833731 -0.056431681 0.20374072
0.021305203 -0.052890986 0.20468777
0.025272131 -0.05051446 0.20510954
0.028732657 -0.04794541 0.20402491
-0.028126299 -0.054210842 0.20067698
-0.023715556 -0.055837899 0.20054007
-0.01921314 -0.056696266 0.20076054
-0.014585972 -0.05788222 0.20007154
-0.0099017024 -0.058576018 0.19983211
-0.0044087172 -0.058410257 0.19951934
-0.00031942129 -0.058074832 0.19951105
0.0062601566 -0.056945145 0.19969487
0.010547519 -0.055982083 0.19987616
0.015647113 -0.055126578 0.20051473
0.020160198 -0.05344975 0.20023817
0.024150968 -0.051219761 0.20020816
-0.01462698 -0.056409419 0.19632363
-0.0096344352 -0.057198942 0.19576317
-0.0041464567 -0.059236526 0.19675845
0.0009393692 -0.058616877 0.19633219
0.0056798458 -0.056393504 0.19530308
0.010991454 -0.055443436 0.19569898
0.015717089 -0.055068105 0.19510949
0.019415557 -0.053862602 0.19644624
-0.0085991621 -0.05804494 0.19246843
-0.0043609142 -0.057697445 0.19245982
0.00025624037 -0.057351053 0.19246161
-0.05449599 -0.02185744 0.25967094
-0.056226254 -0.023943961 0.25425416
-0.054352939 -0.025726616 0.25449824
-0.056345403 -0.026809424 0.25010058
-0.054158509 -0.027393818 0.25081527
-0.056690097 -0.028963208 0.24627304
-0.053138793 -0.028728127 0.2467984
-0.055757701 -0.031540155 0.24206597
-0.053591132 -0.031695247 0.24059212
-0.05490756 -0.031656444 0.23820972
-0.05151242 -0.032636553 0.23714769
-0.049843132 -0.033342659 0.2317335
-0.047945321 -0.035493523 0.23284909
-0.049873412 -0.037412167 0.22820035
-0.047034264 -0.037839979 0.2281943
-0.049515605 -0.038123548 0.22368121
-0.045623899 -0.039270073 0.22426134
-0.042256355 -0.041415989 0.22484386
-0.044603407 -0.040730536 0.22003371
-0.041930437 -0.043215096 0.21971312
-0.041086674 -0.044051558 0.21548176
-0.039504766 -0.046238095 0.21108562
-0.037037551 -0.048561037 0.2113626
0.035074592 -0.041024476 0.21069226
-0.038826466 -0.048336089 0.20645756
-0.03616333 -0.050407887 0.20688421
0.03123945 -0.044803143 0.20624334
0.033156991 -0.042446077 0.20631593
-0.038245618 -0.048672497 0.20284128
-0.0348351 -0.05093354 0.20228839
-0.031977415 -0.053318024 0.20187956
0.026625454 -0.048705339 0.20182568
0.030450463 -0.046682239 0.20231283
0.03352344 -0.044357061 0.20134497
-0.032981575 -0.051316619 0.19876862
-0.029856682 -0.053180337 0.19796151
-0.025544047 -0.054071426 0.19808775
0.026266754 -0.049564391 0.19782758
0.030220687 -0.047872961 0.19783983
0.033955812 -0.045461208 0.19689664
-0.028685808 -0.054144144 0.19291261
-0.02433008 -0.055487394 0.19381648
-0.019172549 -0.055583924 0.19414818
-0.01473546 -0.055959851 0.19313025
-0.011404872 -0.056356311 0.19220516
0.0070296526 -0.05535695 0.19234711
0.010161102 -0.054606557 0.19257098
0.015538573 -0.054562986 0.19229624
0.021143198 -0.052755862 0.19382948
0.025180876 -0.050537497 0.19340649
0.028751731 -0.047947973 0.19276571
-0.027927995 -0.056289017 0.18931276
-0.024862111 -0.056829929 0.18877587
-0.019457817 -0.0564861 0.18880031
-0.014236391 -0.05725199 0.18921217
-0.0099117756 -0.057748705 0.18930307
-0.0042615533 -0.057355404 0.18937144
0.0013467073 -0.056497782 0.18916389
0.0057054162 -0.056447744 0.18946648
0.010387659 -0.055815071 0.18936878
0.014922142 -0.054851532 0.18935084
0.019690871 -0.052770525 0.18951377
0.024115443 -0.050840586 0.18960172
-0.022916317 -0.056375027 0.18541828
-0.018845618 -0.057509929 0.18401256
-0.014346778 -0.058276445 0.1838319
-0.0094235539 -0.059155226 0.18516034
-0.0047001243 -0.05828616 0.18497685
0.0007327199 -0.057739109 0.18493018
0.005962491 -0.058282882 0.18527001
0.010671556 -0.056407452 0.18492714
0.014129043 -0.054357827 0.1857087
-0.012805581 -0.058949172 0.18010768
-0.0091501474 -0.059247702 0.18078545
-0.0042458773 -0.058421969 0.18097037
0.00086283684 -0.058808416 0.18105039
0.0056706071 -0.058985263 0.18063831
0.0092730522 -0.057418168 0.18016532
-0.056057394 -0.027398735 0.23776948
-0.054600716 -0.030788839 0.23561585
-0.052784204 -0.029340863 0.2339263
-0.054735959 -0.030814648 0.22851437
-0.052369773 -0.030544102 0.23016053
-0.051468551 -0.033056498 0.22573844
-0.050855696 -0.035431117 0.22124633
-0.047671854 -0.03740114 0.22112441
-0.049552441 -0.036879182 0.21693605
-0.046366394 -0.03860572 0.21701562
-0.048612297 -0.038619936 0.21350312
-0.045900226 -0.039304256 0.21239942
-0.042687595 -0.041827619 0.21305904
-0.044757187 -0.040831864 0.20799494
-0.042045712 -0.042976767 0.20847857
-0.043393254 -0.042543948 0.20363724
-0.041240335 -0.044953525 0.2041378
0.035302222 -0.040107429 0.2047984
-0.039725244 -0.045905381 0.19972968
-0.036741138 -0.047854066 0.19884568
0.035707712 -0.041857868 0.19975752
-0.038408875 -0.046540797 0.19619969
-0.034895957 -0.04767251 0.19528449
-0.031691492 -0.049919248 0.19509614
0.034881651 -0.043753773 0.19512498
-0.033446908 -0.049685776 0.18982601
-0.031009436 -0.050526232 0.1910364
0.030578136 -0.046009004 0.18988186
0.034291029 -0.044336259 0.1914956
-0.033338845 -0.052284002 0.18612072
-0.029938638 -0.053415596 0.18655139
0.020403206 -0.050291866 0.18551144
0.025482357 -0.048730254 0.186248
0.028035939 -0.047600925 0.18530452
-0.024412274 -0.055388868 0.18243778
-0.021149516 -0.057138175 0.18248093
0.012218833 -0.055068016 0.18183973
0.015507996 -0.052263141 0.18193325
0.019817173 -0.05096066 0.18137732
0.024027348 -0.050013274 0.18169716
0.027649045 -0.049099594 0.18255949
-0.023623943 -0.055495054 0.17854002
-0.019358873 -0.057046682 0.17742249
-0.014800072 -0.058130205 0.17764673
-0.0090535283 -0.058437318 0.17740795
-0.0041921139 -0.057886481 0.17738804
0.00072872639 -0.056835264 0.17709193
0.0055299997 -0.057808518 0.17693296
0.010964155 -0.055351973 0.17727044
0.014714837 -0.053157628 0.17777264
0.020109117 -0.051632881 0.17835042
0.023310065 -0.050988883 0.17820421
-0.01877898 -0.057478845 0.17447644
-0.014112115 -0.057732403 0.17388088
-0.0093515515 -0.058405697 0.17391494
-0.0045204759 -0.057812005 0.17352557
0.00087589025 -0.057345301 0.17319152
0.0060496926 -0.057186931 0.17343003
0.010705054 -0.055767596 0.17323911
0.014088809 -0.054743469 0.17357144
0.00019335747 -0.05779779 0.17019364
0.0040709972 -0.05760625 0.17023364
-0.056576014 -0.025120765 0.23173666
-0.05690217 -0.027249515 0.22803742
-0.054834306 -0.027220637 0.22426596
-0.053523064 -0.030078769 0.22434869
-0.052327156 -0.030847907 0.21901453
-0.050644934 -0.034198403 0.21447745
-0.049790382 -0.037371874 0.21067071
-0.046722531 -0.038239658 0.21021777
-0.049544394 -0.038445175 0.20699185
-0.046730757 -0.039726019 0.20613036
-0.049071908 -0.037583441 0.202676
-0.045975924 -0.040543497 0.20142829
-0.044627249 -0.041586816 0.19793892
-0.041852713 -0.043836057 0.19708782
-0.039695501 -0.044846296 0.19341797
-0.036465764 -0.046434164 0.19231039
0.036978602 -0.040219188 0.19274801
-0.039073944 -0.045265734 0.18840483
-0.035940289 -0.047835231 0.18873116
0.035107851 -0.043362796 0.18848991
-0.035652399 -0.049555719 0.18410572
-0.029942393 -0.051844776 0.18360367
0.03042829 -0.045705676 0.184367
0.033352852 -0.044552028 0.18469065
-0.03331387 -0.049479336 0.18101922
-0.029743791 -0.051042736 0.17973545
-0.026664436 -0.053460777 0.18017635
0.026009202 -0.048918664 0.17971489
0.030198932 -0.046543479 0.17951569
0.033524632 -0.043742448 0.17996728
-0.027639091 -0.053063333 0.17505991
-0.025180459 -0.054742336 0.1757504
-0.021853566 -0.055141509 0.17681602
0.016586781 -0.05164212 0.1757867
0.020505726 -0.051267862 0.17575917
0.025616765 -0.049687356 0.17509392
0.029013753 -0.047385216 0.1745638
-0.027314246 -0.053771377 0.17119467
-0.024231791 -0.055492163 0.17258865
-0.019753933 -0.055563718 0.17125359
-0.014637709 -0.056711704 0.17045534
-0.0092915893 -0.057017565 0.17028472
-0.004245162 -0.056792527 0.16968411
0.00037246943 -0.056803465 0.16982231
0.006532073 -0.056772351 0.16998932
0.011058688 -0.055400819 0.16993234
0.016375899 -0.053785652 0.17129585
0.020656705 -0.052869439 0.17163119
0.024958253 -0.050858527 0.17060849
-0.017644823 -0.054847836 0.1668956
-0.014174402 -0.056260854 0.16610909
-0.0095443726 -0.05709359 0.16647646
-0.0044867992 -0.057442516 0.16660783
0.00022006035 -0.056986779 0.16657111
0.0055738091 -0.055832833 0.16628602
0.010210395 -0.05577451 0.16640082
0.015143752 -0.054198921 0.16594249
0.019839406 -0.053855747 0.16594914
0.024285138 -0.052075177 0.16664833
-0.0080407262 -0.056372732 0.16276252
-0.0049507022 -0.056413114 0.16286996
-0.00024139881 -0.056026906 0.16286042
0.0060113668 -0.055660993 0.16290456
0.01186192 -0.055060416 0.16228947
0.01394856 -0.054569304 0.16271791
-0.058758616 -0.023943067 0.22453868
-0.057222724 -0.025060594 0.22236609
-0.054427028 -0.026103884 0.22073638
-0.053046584 -0.026285201 0.21679959
-0.051436722 -0.029767424 0.21307269
-0.050424397 -0.031281382 0.20628381
-0.049777687 -0.033411443 0.20291984
-0.050071001 -0.037170291 0.19905686
-0.049507439 -0.037373304 0.19484556
-0.046388805 -0.03983289 0.19473475
-0.04461658 -0.040071964 0.1907953
-0.042084396 -0.042129874 0.19034964
-0.040964007 -0.043034017 0.18592939
-0.039643049 -0.045432806 0.18159157
-0.036145508 -0.047456801 0.1802128
-0.038813114 -0.046497405 0.17647979
-0.035069048 -0.047666788 0.17700949
-0.031565845 -0.049401402 0.17663702
0.033465207 -0.04255259 0.17622709
-0.038663328 -0.047817051 0.17364413
-0.034502208 -0.048423827 0.17279673
-0.030287802 -0.050465107 0.17319658
0.031162858 -0.045086563 0.17294711
0.033226609 -0.042181283 0.17276254
-0.032925606 -0.049449265 0.16941485
-0.029997468 -0.051992089 0.16878557
-0.02491343 -0.052696407 0.16848466
-0.020725965 -0.053549886 0.16797766
0.025752544 -0.050155491 0.16859594
0.029426813 -0.047916293 0.16896605
-0.028956711 -0.05330196 0.16382584
-0.025010347 -0.053376198 0.16444919
-0.019839644 -0.053889871 0.16464597
-0.01582557 -0.05487752 0.1644592
0.0028939247 -0.054704934 0.16411147
0.02542603 -0.050311506 0.16308367
0.02894181 -0.049015552 0.1654785
-0.027786374 -0.05518648 0.15919939
-0.024652481 -0.055081487 0.1592522
-0.019591928 -0.055289149 0.15972427
-0.014313519 -0.055957943 0.15966359
-0.0093004704 -0.055657506 0.15970725
-0.0045124888 -0.056116968 0.1594218
0.00027447939 -0.055361181 0.15927011
0.005025506 -0.054969609 0.16009742
0.0101614 -0.05489105 0.1595228
0.015923619 -0.054010838 0.16005006
0.020379186 -0.053029448 0.15979958
-0.01929903 -0.056401163 0.15530622
-0.014421165 -0.056769967 0.15496865
-0.0094739199 -0.056413829 0.15476796
-0.0037819743 -0.05624783 0.15466473
0.00080132484 -0.055748016 0.15439624
0.0056760311 -0.055511117 0.15466139
0.010002255 -0.055219054 0.15467736
0.014604092 -0.054941773 0.15505847
0.018967986 -0.053100407 0.15558556
-0.011575222 -0.057554692 0.15136179
0.0065361261 -0.056350797 0.15143815
-0.055097044 -0.019787729 0.2163848
-0.055000126 -0.020893931 0.21428913
-0.053483367 -0.022075713 0.21387583
-0.051780164 -0.02482599 0.20989439
-0.057786345 -0.026240915 0.20530394
-0.051766574 -0.027025938 0.20523351
-0.050846696 -0.029496878 0.20107216
-0.052035391 -0.032579601 0.19686097
-0.051158071 -0.033996284 0.19207504
-0.04775542 -0.03533873 0.19050181
-0.046112359 -0.037266374 0.18790728
-0.044649422 -0.038410574 0.18379396
-0.042843044 -0.040605336 0.18337366
-0.043888152 -0.03953141 0.17881188
-0.042108536 -0.041316867 0.17908397
-0.04093045 -0.044734955 0.17577943
-0.039881289 -0.046410471 0.17022768
-0.036413193 -0.047720373 0.17075568
0.034860075 -0.040818453 0.1710543
0.036904097 -0.040093899 0.17126051
-0.034692645 -0.047858506 0.16709268
-0.032540023 -0.04968065 0.1653319
0.031986475 -0.044416368 0.1677222
0.033856869 -0.04211852 0.16635031
-0.033647656 -0.049380779 0.1609824
-0.031435192 -0.050837547 0.16208759
0.029364467 -0.046632707 0.16136464
-0.033378065 -0.051066518 0.15657991
-0.030427098 -0.052385867 0.15718421
0.025406837 -0.048444837 0.15707886
0.028309822 -0.046124071 0.15818968
-0.028652132 -0.054179072 0.15335512
-0.024435103 -0.055761576 0.15345982
-0.019797742 -0.056661665 0.15311667
-0.015538692 -0.056822807 0.15263623
-0.0091938972 -0.056161582 0.15256706
-0.0060358644 -0.055918306 0.15256694
0.0042778254 -0.05485329 0.15245846
0.012101412 -0.054618567 0.15260521
0.015974045 -0.053030252 0.15265271
0.020440042 -0.050393373 0.15343186
0.023933887 -0.047862679 0.15366548
-0.02517128 -0.054541409 0.14973077
-0.019480586 -0.055655956 0.1488103
-0.014369249 -0.056702375 0.14923751
-0.0093545318 -0.056046635 0.14891663
-0.0044882298 -0.055409819 0.14919189
0.00055193901 -0.056133062 0.14947173
0.0055732131 -0.05572328 0.14882722
0.010478556 -0.054679185 0.14943495
0.014481425 -0.052038819 0.14910161
-0.013078392 -0.055871755 0.14554149
-0.010672569 -0.055534154 0.14547935
-0.0027266145 -0.054851353 0.1454505
0.00029879808 -0.055424422 0.14577958
0.0057341456 -0.05559212 0.14601892
0.01055038 -0.054900736 0.14588818
0.013260007 -0.053009927 0.14520165
-0.056620538 -0.019294143 0.21171951
-0.054580092 -0.019666195 0.21065944
-0.056883812 -0.020172954 0.20639893
-0.053644836 -0.021656036 0.20721784
-0.057869554 -0.023957551 0.20375144
-0.053886652 -0.024602622 0.20282459
-0.053195357 -0.026719809 0.19934022
-0.053231061 -0.031461447 0.19069183
-0.050884902 -0.032309651 0.18558976
-0.048200011 -0.033416718 0.18568864
-0.049805284 -0.032359064 0.18111107
-0.046901941 -0.035196126 0.18135402
-0.045488358 -0.037615657 0.17661956
-0.045177341 -0.03981474 0.17202434
-0.04197824 -0.041240752 0.17364135
-0.044986606 -0.041830838 0.16806877
-0.041675389 -0.04324168 0.16852009
-0.044359803 -0.042631507 0.16400158
-0.04056412 -0.044456035 0.163957
-0.036088824 -0.045415461 0.16411385
0.03589195 -0.039454639 0.16428292
0.036801696 -0.03874287 0.16235304
-0.040945292 -0.04377389 0.1603052
-0.036346197 -0.046064913 0.15962639
0.033722997 -0.039181799 0.15904659
0.037387371 -0.038199037 0.15877661
-0.035422325 -0.048751593 0.15561259
0.030182838 -0.043345034 0.15425497
0.034032643 -0.041863829 0.15466598
0.037311792 -0.041702241 0.15504092
-0.034194529 -0.050686717 0.15069327
-0.031012654 -0.051988423 0.15090755
0.020795226 -0.047884226 0.14961311
0.024503827 -0.04528448 0.15039265
0.027956486 -0.044129699 0.15145889
0.035119772 -0.043094218 0.15211996
0.037380338 -0.043497831 0.15234825
-0.029342175 -0.052342594 0.14649823
-0.024691761 -0.053685367 0.1459918
-0.020345211 -0.054417044 0.1451461
-0.016034007 -0.054757535 0.14499381
-0.0057393312 -0.054162771 0.14507475
0.01547724 -0.051439613 0.14605284
0.019902349 -0.048918694 0.14607233
0.023609877 -0.046681792 0.14551625
-0.023404121 -0.052715778 0.14221436
-0.019252479 -0.053660959 0.14123207
-0.01481694 -0.054379791 0.14145502
-0.0097793937 -0.054608554 0.14233133
-0.0046077967 -0.054581821 0.14212647
0.0007827282 -0.054967374 0.14219385
0.005612731 -0.054259986 0.14205557
0.010544777 -0.053046942 0.14171115
0.015566111 -0.051424563 0.14120221
0.018899024 -0.049371094 0.1421797
-0.018208742 -0.055194288 0.13687378
-0.014442682 -0.055530667 0.13679126
-0.0097692013 -0.055830121 0.13706776
-0.0050957203 -0.056081027 0.1373243
0.00018656254 -0.055978537 0.13760826
0.0052283406 -0.054664135 0.13730964
0.0092195272 -0.053193331 0.13692144
0.014341056 -0.051847726 0.13790265
-0.017337024 -0.056818664 0.13292798
-0.014580607 -0.056551218 0.13333675
-0.0098313689 -0.056425035 0.13343862
-0.0047420263 -0.056301862 0.1339846
-0.0008046031 -0.056278288 0.13410327
-0.057444096 -0.016833723 0.20971078
-0.05723995 -0.018290043 0.20606709
-0.055509448 -0.020990133 0.20203143
-0.053624749 -0.026788831 0.18742675
-0.05250603 -0.029390216 0.18292516
-0.051298141 -0.031270593 0.17880264
-0.048069119 -0.033653408 0.17826965
-0.058741868 -0.032335579 0.17414495
-0.050366938 -0.032813102 0.17430577
-0.047823131 -0.034161091 0.17510232
-0.049884915 -0.034733206 0.16971609
-0.047653675 -0.035972953 0.1715588
-0.048929393 -0.037232995 0.16692141
-0.047660053 -0.038511097 0.16489369
-0.044732153 -0.040491641 0.16148663
-0.043501079 -0.040780514 0.15652779
-0.040548205 -0.042930067 0.15693247
-0.037432313 -0.044831604 0.15572214
0.035637319 -0.036989093 0.15769282
0.03757894 -0.037332982 0.15844899
-0.039292276 -0.043044597 0.1519804
-0.037063837 -0.044530153 0.15220267
-0.038303137 -0.044376731 0.1486803
-0.036392748 -0.046496898 0.14743969
0.02610755 -0.043860197 0.14788112
0.030055046 -0.042012006 0.14811811
0.034062743 -0.041668087 0.14810267
-0.034338474 -0.049366117 0.14393622
-0.030854702 -0.050849795 0.14336208
0.02508533 -0.046056449 0.14402318
0.029147148 -0.043324739 0.14346987
0.032674015 -0.041050583 0.14351878
-0.033139586 -0.04948467 0.13971758
-0.029943228 -0.049938321 0.13914236
-0.025446177 -0.050513566 0.13930681
-0.021779537 -0.052645147 0.13937226
0.020556569 -0.048915386 0.1400398
0.024279356 -0.047062546 0.13992709
0.028520525 -0.043818563 0.13963005
-0.028068125 -0.050355703 0.13591757
-0.0243541 -0.051089346 0.13518843
-0.02087003 -0.053557336 0.13551033
0.0066165924 -0.053305417 0.13481578
0.010947347 -0.052244127 0.13508531
0.014716506 -0.051573187 0.13521317
0.019621611 -0.049020857 0.13538137
0.023645759 -0.04752925 0.13510355
-0.019750595 -0.054777265 0.13064182
-0.013610125 -0.056510091 0.13101605
-0.0091251731 -0.056001514 0.13112068
-0.0045098662 -0.054084808 0.12977833
0.00080376863 -0.053013712 0.13074985
0.0055160522 -0.052420229 0.13180974
0.010606527 -0.051976413 0.13141608
0.015246034 -0.051308423 0.13128486
0.018675625 -0.049167722 0.13173077
-0.018707633 -0.056186467 0.12784439
-0.014711142 -0.055868924 0.12723181
-0.01000762 -0.055980057 0.12610638
-0.005353272 -0.055263042 0.12519273
-0.0019738674 -0.054610372 0.12554705
0.011726558 -0.052707076 0.1260536
0.014119089 -0.052603364 0.12608874
-0.054230809 -0.023303151 0.18537924
-0.056121588 -0.022657454 0.1800606
-0.054063141 -0.025138617 0.18182161
-0.056747675 -0.026280522 0.17484543
-0.053753138 -0.027023226 0.17659786
-0.056561887 -0.02816692 0.17100784
-0.052470982 -0.029940963 0.17303172
-0.051798046 -0.032504439 0.16763455
-0.050526738 -0.03376767 0.16417235
-0.048223734 -0.034472704 0.16166243
-0.046204805 -0.035757661 0.15879259
-0.045257688 -0.037280887 0.15461102
-0.043286681 -0.040970147 0.1540446
-0.044810832 -0.040046155 0.14977619
-0.041411996 -0.041434139 0.15064052
-0.044627368 -0.041776478 0.14615977
-0.04088515 -0.043445885 0.14651033
-0.037944078 -0.044141948 0.14515764
-0.043950021 -0.042425454 0.14255255
-0.040660739 -0.044500053 0.14141741
-0.037046194 -0.045873016 0.14243445
0.034280419 -0.039913654 0.14181343
-0.040139556 -0.045854509 0.13713413
-0.035620928 -0.047408581 0.1369836
0.026563942 -0.044899702 0.1371327
0.029856682 -0.042285353 0.13636872
0.033637881 -0.040077001 0.13753033
-0.033870697 -0.047524393 0.13281038
-0.030397534 -0.049384475 0.13283104
-0.025807142 -0.050379097 0.13194984
0.022091269 -0.047377884 0.13195398
0.025225639 -0.04535085 0.13163504
0.028020859 -0.043002427 0.13233575
-0.029487371 -0.050536752 0.12759483
-0.024838686 -0.051674247 0.12815312
-0.00010818243 -0.051344812 0.12681735
0.0047309995 -0.050336838 0.12741706
0.0098705888 -0.050783575 0.12765479
0.01467371 -0.051001757 0.12774184
0.019740224 -0.047695965 0.12784883
0.023185849 -0.046421915 0.12766194
-0.028599381 -0.051479399 0.12417699
-0.024434388 -0.053029358 0.12362318
-0.019684792 -0.053758949 0.12332004
-0.014431119 -0.054387897 0.12328439
-0.011316299 -0.05534336 0.1229315
0.00049579144 -0.052918524 0.1237729
0.0049705505 -0.051837832 0.1237041
0.0095376968 -0.051948577 0.12368598
0.014934957 -0.051020414 0.12318205
0.019399464 -0.048250377 0.12394661
-0.024429321 -0.053886533 0.12009709
-0.01973474 -0.05447039 0.12051236
-0.014801979 -0.054674208 0.11901107
-0.0097516179 -0.054433942 0.11891782
-0.0045446157 -0.055162519 0.11957674
0.00033777952 -0.054495424 0.11945
0.0051537752 -0.054206163 0.11948695
0.010141015 -0.053019077 0.11913344
0.01468879 -0.051647872 0.11893629
-0.014549613 -0.055455118 0.1158457
-0.0093871951 -0.055336356 0.11508857
-0.0041334629 -0.055651695 0.11541008
0.0001796484 -0.055702716 0.11602243
0.0050364137 -0.055212438 0.11597162
0.010373592 -0.054024339 0.11606806
0.013675094 -0.053385615 0.11589762
-0.055321932 -0.02062273 0.1819056
-0.055933535 -0.021915495 0.17853945
-0.055757821 -0.024034053 0.17463556
-0.055702209 -0.026251495 0.17203721
-0.053057015 -0.026762813 0.16889504
-0.052990854 -0.028187513 0.16686261
-0.051742911 -0.029779792 0.16036522
-0.050739527 -0.030147493 0.15781376
-0.048435867 -0.031745434 0.15582386
-0.047543883 -0.034053683 0.15196535
-0.046586752 -0.037047386 0.14828059
-0.046154737 -0.039488196 0.14303353
-0.044632912 -0.041059017 0.13875166
-0.041997492 -0.043461293 0.13782945
0.03776896 -0.03492558 0.13684961
-0.041337073 -0.043884546 0.13415286
0.034454167 -0.037660956 0.13438332
-0.040674329 -0.045736492 0.13009182
-0.035377502 -0.046765655 0.13047823
0.029925108 -0.041452378 0.13023284
0.033237636 -0.0380795 0.13102344
-0.039883733 -0.04622218 0.1254966
-0.034906447 -0.046390563 0.12595305
-0.031298399 -0.04862842 0.12593073
0.026031256 -0.043543756 0.12573847
0.029332042 -0.041278243 0.12522948
-0.03368324 -0.047747135 0.12239542
-0.029935598 -0.049592972 0.12133696
-0.026812911 -0.051999211 0.12182876
0.02034682 -0.046899408 0.12119671
0.024520159 -0.045428455 0.12157669
0.028825521 -0.043366343 0.12170931
-0.027982712 -0.050855994 0.11864793
-0.025361061 -0.052243233 0.11713948
-0.020043135 -0.053088337 0.11725347
-0.016948819 -0.053144038 0.11826523
0.017174244 -0.050128132 0.11721855
0.019852221 -0.048149496 0.11731916
0.023649633 -0.046698242 0.11706244
0.027599096 -0.044328988 0.11767211
-0.024549842 -0.052942812 0.11438297
-0.019143462 -0.053045541 0.11309528
-0.015131354 -0.054203451 0.11299457
-0.010975838 -0.054866314 0.11305653
-0.0057555437 -0.054958045 0.11283707
0.00047713518 -0.054254413 0.11300328
0.0054126978 -0.053420931 0.11280116
0.010037422 -0.050910592 0.11183619
0.015105605 -0.050385565 0.11261734
0.019865394 -0.048564583 0.11248674
0.022765398 -0.0477947 0.11372288
-0.018068254 -0.05436334 0.10859018
-0.014524102 -0.055048019 0.1085796
-0.0097991228 -0.055502355 0.10895171
-0.0049297214 -0.055075824 0.10892951
-6.1392784e-05 -0.054649293 0.1089073
0.0048408508 -0.05404371 0.10880511
0.0097182989 -0.05240193 0.10845502
0.014130354 -0.050314367 0.10922232
-0.0092950463 -0.054822952 0.10509952
-0.0049331784 -0.055371106 0.10505953
-4.0709972e-05 -0.054863095 0.10500067
0.0045254827 -0.053679258 0.10506686
-0.053691864 -0.027398407 0.15711734
-0.051270127 -0.02891314 0.1539675
-0.05064708 -0.030088931 0.15074554
-0.048467457 -0.032067001 0.14869308
-0.048263609 -0.03297466 0.14558497
-0.04808253 -0.035409331 0.14133531
-0.047144294 -0.03715542 0.13648158
-0.045933187 -0.038812876 0.13229063
0.035206914 -0.035281569 0.13167015
0.038232803 -0.034128219 0.13245603
-0.045567393 -0.041227937 0.1282559
0.034455836 -0.035228699 0.1277574
0.038059294 -0.03536284 0.12828135
-0.044229388 -0.042319536 0.12368693
-0.041698992 -0.043980837 0.12368538
-0.036413908 -0.045561075 0.12356748
0.030614734 -0.039750725 0.12461934
0.03334105 -0.036273271 0.12440035
0.037780583 -0.035162032 0.12466303
-0.04361856 -0.043579787 0.12026405
-0.040101588 -0.045564502 0.11893424
-0.035869777 -0.045984983 0.1195704
-0.032632768 -0.047825098 0.11981656
0.029506445 -0.041434288 0.11883342
0.03217113 -0.03895846 0.1178424
-0.039257646 -0.046246886 0.11446544
-0.034479022 -0.04677701 0.1148613
-0.030434132 -0.048200727 0.11497956
-0.027534723 -0.050201416 0.11483567
0.026128292 -0.045355082 0.11541631
0.028987169 -0.04231748 0.11434781
-0.024494112 -0.048998773 0.10995456
-0.021629333 -0.051345766 0.11110841
0.019800603 -0.048852235 0.11054098
0.024965584 -0.04654181 0.11057242
0.02883929 -0.042824566 0.10993546
-0.023380995 -0.051183164 0.10472321
-0.020657718 -0.053058922 0.10632401
-0.014737666 -0.053749949 0.10441425
0.011464477 -0.051898926 0.10509291
0.015335143 -0.051069647 0.10639804
0.020136416 -0.049084455 0.10644218
0.024653077 -0.047030061 0.10488757
-0.019479334 -0.052124143 0.10125645
-0.014525771 -0.052747428 0.1009722
-0.0097311139 -0.054727197 0.10181966
-0.0045112967 -0.055097431 0.1015962
0.00060546398 -0.054750323 0.10144543
0.0058050752 -0.052984387 0.10180935
0.0098648071 -0.052388728 0.10148045
0.0150581 -0.050593019 0.10133754
0.019367576 -0.048949301 0.10103305
-0.0091539025 -0.053863376 0.097487919
-0.005066216 -0.054096282 0.09684395
0.00019407272 -0.053654075 0.097278796
0.0030972958 -0.053457171 0.096841596
0.0089510083 -0.051710486 0.097139023
-0.054934144 -0.023944139 0.15577319
-0.053288221 -0.02241376 0.15219918
-0.051983893 -0.025395334 0.14859703
-0.049446166 -0.026533991 0.14649904
-0.04898417 -0.026553035 0.14126819
-0.049260974 -0.030969501 0.1403918
-0.049153984 -0.032053769 0.13820174
-0.049500525 -0.032594144 0.13548151
-0.048964739 -0.034437358 0.13390681
-0.048710167 -0.035595477 0.12998503
-0.047618866 -0.038204968 0.12448276
-0.045861006 -0.040722966 0.12073248
0.034796178 -0.03347373 0.12089007
0.037895441 -0.032809049 0.12189057
-0.044399619 -0.042338669 0.11658546
-0.042371452 -0.043321282 0.11574807
-0.036768615 -0.044502199 0.11556425
0.034305215 -0.036543608 0.11582329
0.03771019 -0.033601016 0.11510145
-0.040556848 -0.044816613 0.1123028
-0.035933554 -0.045454979 0.11155184
-0.031714201 -0.046803802 0.11140414
0.030541241 -0.040744275 0.11174714
0.033503175 -0.03766036 0.111375
-0.039229095 -0.0442608 0.10732069
-0.036094487 -0.04580009 0.10722198
-0.030455351 -0.046077311 0.10754286
-0.025695205 -0.04677844 0.10802441
0.029682875 -0.041680723 0.10730281
0.03364861 -0.039167583 0.10846656
-0.037514806 -0.04679504 0.10402559
-0.029944479 -0.047825783 0.10336073
-0.02586633 -0.049429655 0.10357922
0.02442646 -0.046346456 0.10241377
0.029498816 -0.042143166 0.1031928
-0.029114962 -0.049188465 0.099105559
-0.025132 -0.050050229 0.099104784
-0.020299673 -0.051286042 0.098287903
-0.0158149 -0.051911473 0.098739855
-0.011530101 -0.052435726 0.098537825
0.014776886 -0.049609512 0.098173521
0.02023232 -0.047673225 0.098191582
0.02472353 -0.046007693 0.098888658
-0.023967266 -0.050371766 0.095318668
-0.019468546 -0.051742524 0.094492994
-0.014443517 -0.052851409 0.095016174
-0.0098544359 -0.053362399 0.094907187
-0.0046460629 -0.053410947 0.093829744
-0.00013595819 -0.052994579 0.094521545
0.0056369901 -0.051652104 0.094927244
0.010457635 -0.050695926 0.094395183
0.01508069 -0.04913488 0.094573461
0.018768251 -0.0474374 0.094592206
-0.018093824 -0.053333461 0.090579949
-0.014689028 -0.054287046 0.090249412
-0.0092685819 -0.054426461 0.090516977
-0.0045610666 -0.053932995 0.090683214
0.00035142899 -0.053143054 0.09007933
0.0052371025 -0.052148014 0.091058604
0.0093832612 -0.050952673 0.090280078
0.013290048 -0.049312532 0.090737157
-0.014905393 -0.054429382 0.086215191
-0.0093864799 -0.05484727 0.086167268
-0.0058500767 -0.054728121 0.085694812
-0.00049000978 -0.052803904 0.086428814
0.0027043819 -0.053054988 0.08666905
-0.05600071 -0.020097345 0.15254363
-0.057121694 -0.018021703 0.14821777
-0.0540061 -0.019500494 0.14887741
-0.062746942 -0.022669077 0.14282936
-0.057758451 -0.020506918 0.1438913
-0.05178225 -0.02096796 0.14460197
-0.048725128 -0.021597564 0.1428318
-0.061445713 -0.022972047 0.14005193
-0.050146639 -0.023797631 0.1383737
-0.048695624 -0.022695005 0.14150554
-0.050522089 -0.025881112 0.13610828
-0.050892115 -0.028783858 0.13117316
-0.050340235 -0.030668676 0.12818292
-0.048676372 -0.03299576 0.12268635
-0.047897696 -0.036020041 0.12043103
0.036008477 -0.03181687 0.11784279
0.037628889 -0.031794995 0.11788743
-0.045767665 -0.036519289 0.11445376
0.03614378 -0.033377618 0.1149511
0.037357807 -0.032388359 0.11515834
-0.044022202 -0.040237308 0.10985585
-0.041904867 -0.041574061 0.10932484
0.036298275 -0.035940975 0.11070966
0.036393046 -0.035508156 0.11052122
-0.04080075 -0.042324007 0.10549735
-0.035893559 -0.044283688 0.1065478
0.034020483 -0.036971629 0.10461413
0.037075639 -0.035127133 0.10587513
-0.038993955 -0.043492854 0.10111635
-0.035330653 -0.045575023 0.10151675
-0.032340884 -0.04651317 0.10137471
0.029464245 -0.041558504 0.10039847
0.032886267 -0.03932339 0.10175773
-0.035270095 -0.04517284 0.09664204
-0.03081882 -0.047245771 0.096982442
-0.027206063 -0.049070776 0.096406929
0.029429018 -0.041418463 0.097072922
0.032535613 -0.040758252 0.096514516
-0.029092908 -0.047053277 0.092671059
-0.025381982 -0.048947006 0.092555664
-0.022033751 -0.050150275 0.092562579
0.019725919 -0.046899289 0.092741393
0.024251103 -0.04491964 0.092702113
0.027920187 -0.041774362 0.093184553
-0.024315 -0.04962346 0.087933265
-0.020348549 -0.051615238 0.088539891
0.0052264929 -0.05140695 0.08779522
0.0093390942 -0.051069647 0.087786876
0.014490247 -0.049941063 0.088740282
0.019409776 -0.048160195 0.088593833
0.023586154 -0.04548955 0.088695161
-0.023093402 -0.051881313 0.085139625
-0.019542217 -0.052358747 0.084193163
-0.01538831 -0.054497987 0.083764039
-0.010965288 -0.05415079 0.083945565
-0.0042017102 -0.054333121 0.083984785
-0.00037199259 -0.053874493 0.084211521
0.0050049424 -0.051754832 0.084072493
0.010024548 -0.049741566 0.083516382
0.015168309 -0.049256891 0.08370503
0.019364238 -0.048678249 0.083965741
-0.01451087 -0.053042918 0.080064408
-0.0092302561 -0.053121179 0.080303572
-0.0045866966 -0.054070771 0.079794519
0.00042033195 -0.053333074 0.079624914
0.0048567653 -0.051695049 0.080143087
0.010444224 -0.049815387 0.079897754
-0.056560338 -0.014063358 0.14494601
-0.055296898 -0.016264319 0.14759579
-0.056584477 -0.017832309 0.14199635
-0.053895593 -0.018065155 0.14246255
-0.057980537 -0.019469649 0.13758558
-0.052840769 -0.01917398 0.1379967
-0.049992979 -0.020394742 0.13967338
-0.056149125 -0.020051301 0.13491598
-0.052640319 -0.022175968 0.13445881
-0.052694678 -0.024122536 0.12955737
-0.051574171 -0.025571942 0.12483475
-0.049313903 -0.028743684 0.12444467
-0.051418424 -0.027623951 0.12122076
-0.049077094 -0.029405415 0.12115239
-0.04760474 -0.030227125 0.11616551
-0.046459436 -0.033018649 0.11155625
-0.045156181 -0.03611362 0.10799213
-0.042837203 -0.038238525 0.10313659
0.037879884 -0.033113509 0.10228511
-0.041445017 -0.040748298 0.09906628
0.03544414 -0.035284311 0.099552207
0.037278116 -0.033110052 0.098626934
-0.040400982 -0.042738289 0.094812118
-0.036463022 -0.044485629 0.095033906
0.030579984 -0.03962037 0.094098829
0.03494668 -0.037130892 0.094925515
0.037097216 -0.03475377 0.093901776
-0.040190876 -0.045006692 0.090393655
-0.036219001 -0.045998693 0.091004573
-0.031255722 -0.045935482 0.090699188
0.029606819 -0.038747162 0.089999162
0.032593012 -0.038029671 0.090993159
-0.039601922 -0.047200024 0.086411022
-0.035931945 -0.047698528 0.086324356
-0.030964911 -0.047324926 0.086330108
-0.02710104 -0.048042774 0.086449139
0.024746001 -0.043986619 0.085581474
0.027285695 -0.040928721 0.086359702
-0.038765907 -0.0468584 0.082138024
-0.036439717 -0.047920197 0.08273565
-0.03018105 -0.047505021 0.082309358
-0.025682569 -0.048532337 0.081589811
-0.021285057 -0.05016762 0.081167839
0.013820469 -0.048063934 0.081013195
0.021225929 -0.047110617 0.081750177
0.024044156 -0.044730723 0.08162453
-0.023627222 -0.048216522 0.077824317
-0.019749403 -0.050595641 0.077746324
-0.015482485 -0.052121282 0.077273957
-0.010368049 -0.051283151 0.076873265
-0.0066803098 -0.052167654 0.076711848
-0.00095891953 -0.052103847 0.076899819
0.0056762695 -0.050898373 0.077483051
0.0098192096 -0.049511045 0.077618264
0.014732242 -0.048442513 0.077545188
0.01950556 -0.047487795 0.077028446
0.023629487 -0.045017749 0.078058533
-0.018486619 -0.051101446 0.072954997
-0.015134811 -0.051261306 0.072235391
-0.010173917 -0.051004112 0.072299913
-0.005309701 -0.051297694 0.072634354
-0.00016725063 -0.051700056 0.073217973
0.0047720671 -0.05109024 0.072688863
0.0099643469 -0.049238622 0.072732523
0.014414787 -0.048339397 0.073042318
0.018700182 -0.047545731 0.0729381
-0.0045833588 -0.052114815 0.068891302
-5.5193901e-05 -0.052276433 0.068684265
0.0046440363 -0.051528335 0.06867893
-0.056128681 -0.016326278 0.13787332
-0.054530025 -0.016100526 0.13872054
-0.057243168 -0.017814726 0.13011107
-0.054043829 -0.018583834 0.13082141
-0.054210067 -0.020721316 0.12703836
-0.056661665 -0.022005379 0.11958142
-0.053857446 -0.022967339 0.12157788
-0.056221783 -0.025152117 0.11731663
-0.05234921 -0.025961339 0.11748704
-0.050813615 -0.026614547 0.11373087
-0.048291206 -0.028055698 0.1134031
-0.048304439 -0.028355092 0.1085484
-0.046714783 -0.031454742 0.10496565
-0.04510361 -0.034804791 0.10066422
-0.044826686 -0.035949379 0.095185541
-0.042753816 -0.03790006 0.0979807
0.039566159 -0.031240731 0.096027933
-0.04465133 -0.038525492 0.090873204
-0.042462826 -0.039531767 0.093254469
0.03600502 -0.034484506 0.090071552
0.039008021 -0.032947183 0.094049685
-0.043684423 -0.040055633 0.087941907
-0.042422354 -0.041323781 0.087477289
0.031111538 -0.037180245 0.086562686
0.033845127 -0.034774452 0.08736857
0.036479235 -0.033420533 0.087750815
-0.040621042 -0.043633372 0.082829677
0.029109418 -0.038148612 0.083076678
0.031863928 -0.035881758 0.082282208
-0.038331866 -0.044835359 0.079330347
-0.035613894 -0.045934826 0.078727387
-0.030411959 -0.045510352 0.078100882
-0.025048137 -0.046708226 0.077034734
0.026320994 -0.04218775 0.07955765
0.028215766 -0.039851695 0.077107035
-0.035392761 -0.04590106 0.073457643
-0.025404751 -0.046510309 0.074138209
-0.021671832 -0.048614353 0.074386671
0.024274826 -0.044134349 0.073942587
0.027085423 -0.041326642 0.074531421
-0.020805359 -0.049326688 0.069529817
0.0091786981 -0.049307913 0.070348874
0.015479982 -0.048066765 0.069973931
0.019872665 -0.046847433 0.069767818
0.023107886 -0.044641882 0.069495156
-0.019153059 -0.050942719 0.065796182
-0.014760554 -0.051125795 0.066828385
-0.010094464 -0.050813735 0.066620484
-0.0052754879 -0.051292241 0.064810172
0.00037968159 -0.052181661 0.064924464
0.0053812861 -0.051354796 0.06532608
0.0098831654 -0.049591184 0.065940008
0.014261723 -0.048461378 0.064729705
0.019275308 -0.0461092 0.065406278
-0.0049003363 -0.051253706 0.061433837
-0.00068372488 -0.051273525 0.060672536
0.0042846799 -0.05109933 0.060781911
0.0094547868 -0.049272239 0.060993895
0.012843549 -0.048770905 0.060872898
-0.057452023 -0.017222941 0.12513632
-0.055121362 -0.017445236 0.12494177
-0.057178199 -0.019282758 0.12143188
-0.054991722 -0.0190624 0.12201186
-0.056159019 -0.023650825 0.11214729
-0.053377509 -0.024692535 0.11117547
-0.051945508 -0.025020659 0.10711559
-0.04926616 -0.026956677 0.10653573
-0.051009417 -0.025327921 0.10240533
-0.048400462 -0.027678847 0.10231846
-0.047938108 -0.030183852 0.097958229
-0.047685385 -0.032127559 0.093331777
-0.047371626 -0.034689367 0.089360587
-0.045177639 -0.036322206 0.084744386
-0.043329477 -0.039849222 0.084164642
0.034791172 -0.032966554 0.084397756
0.037067652 -0.032395035 0.08451926
-0.042231619 -0.040344417 0.080734454
0.030470848 -0.036381185 0.079690002
0.034276724 -0.034141272 0.080614172
0.036188304 -0.032773674 0.07816916
-0.040264726 -0.041882455 0.075968608
-0.037937164 -0.044425339 0.075431898
-0.032073975 -0.043899298 0.075398013
0.03069663 -0.037553161 0.076549038
0.033637166 -0.036833286 0.076576665
-0.039965868 -0.04350847 0.071172073
-0.036655664 -0.045366108 0.071466878
-0.030958951 -0.044381261 0.071947351
-0.026001394 -0.045700252 0.070921406
0.0294016 -0.039258391 0.071739569
0.033211112 -0.038131893 0.071330175
-0.038924515 -0.045173973 0.067351714
-0.035725236 -0.046731561 0.067313835
-0.030670166 -0.046144187 0.067218319
-0.025748312 -0.046477377 0.067576483
0.025113583 -0.042507172 0.066948995
0.028878868 -0.039149165 0.067296043
-0.034815848 -0.047753185 0.062541589
-0.030380309 -0.047904074 0.062478915
-0.02551502 -0.048648238 0.063047782
-0.021292746 -0.049677968 0.062984869
-0.015583575 -0.049833089 0.062162861
-0.010488451 -0.048968881 0.061925575
0.01959753 -0.046209931 0.06265603
0.02400732 -0.043195903 0.062619016
-0.034963369 -0.050544977 0.057750329
-0.030070841 -0.049535513 0.05766423
-0.025203764 -0.050296366 0.058249339
-0.020265639 -0.050506294 0.058554426
-0.015161753 -0.049623996 0.05830659
-0.01028645 -0.050156355 0.058775499
-0.0055732727 -0.050533652 0.058619961
-0.00025963783 -0.050654948 0.05754973
0.004763782 -0.05024299 0.057539538
0.0097389221 -0.049261063 0.058579788
0.01501137 -0.048445851 0.058675066
0.019830883 -0.046730459 0.058459088
0.02221334 -0.045423597 0.055757359
-0.033228636 -0.050914586 0.054463431
-0.024016857 -0.050388634 0.054563597
-0.019765258 -0.050348371 0.0537671
-0.014782488 -0.050910503 0.053313509
-0.0098562837 -0.051181167 0.053654477
-0.0050588846 -0.052145571 0.054350838
-1.8119812e-05 -0.051656336 0.054301158
0.00513345 -0.05057174 0.053945526
0.0096539259 -0.049565434 0.054237351
0.014529824 -0.048072666 0.054449394
0.0189448 -0.04636848 0.054219142
-0.019549012 -0.052033067 0.0499091
-0.014579952 -0.052395374 0.049827889
-0.0095266104 -0.051613986 0.050100252
-0.0049672723 -0.051900089 0.049962476
0.00081419945 -0.051523089 0.049118742
0.0045116544 -0.050688446 0.04955636
0.0073763132 -0.049734235 0.049806878
-0.056474924 -0.020903766 0.10821482
-0.055883825 -0.020335853 0.10493203
-0.053687572 -0.022170842 0.10382351
-0.058454454 -0.023772776 0.099312447
-0.052570283 -0.022788048 0.099997811
-0.048560083 -0.025642514 0.099569522
-0.058357716 -0.025007337 0.097102128
-0.052153289 -0.025414705 0.095487826
-0.05190146 -0.027232111 0.090938769
-0.054658771 -0.0302549 0.088522904
-0.051213622 -0.030021966 0.087610237
-0.048578501 -0.030984938 0.08536642
-0.046383977 -0.031661928 0.082039766
-0.044722438 -0.034911364 0.079286866
-0.043228626 -0.03631407 0.076900773
-0.04303968 -0.037476212 0.073725656
-0.043593407 -0.040588319 0.067715183
-0.042744398 -0.04020077 0.069813684
-0.041171432 -0.041259378 0.064999834
-0.03831923 -0.042497337 0.06321384
0.030097723 -0.037495762 0.064009741
0.033226013 -0.035760522 0.065463051
-0.036089838 -0.045508385 0.060411111
0.025616646 -0.041565478 0.059593335
0.028192282 -0.038983881 0.060653403
-0.039609253 -0.04749161 0.054335073
-0.037142098 -0.046460956 0.055803463
0.024906158 -0.042241812 0.056502506
-0.036247253 -0.048621655 0.053153858
-0.030264854 -0.048687756 0.051763967
-0.025263548 -0.048616737 0.051059708
-0.019515932 -0.050584942 0.051053122
0.010710478 -0.048457533 0.05117555
0.014558434 -0.046946079 0.051303223
0.01981777 -0.04467696 0.050931528
0.02384305 -0.043226331 0.051837429
-0.024991274 -0.049490988 0.048351362
-0.020338893 -0.05025804 0.046271935
-0.015548348 -0.051325291 0.046842888
-0.010422111 -0.05094853 0.04666473
-0.0057925582 -0.051077127 0.046924487
-0.0011174679 -0.050626963 0.04659386
0.005397439 -0.050441533 0.046924159
0.0096014738 -0.049132526 0.04743816
0.0145576 -0.046814114 0.046897218
0.018249094 -0.044994175 0.047764584
-0.015377045 -0.050975323 0.042839386
-0.010309339 -0.050449073 0.042962022
-0.0049943924 -0.050352365 0.042528726
0.00013738871 -0.049575329 0.042328693
0.0048460364 -0.050170243 0.042294212
0.010026217 -0.048817217 0.042336859
-0.056797147 -0.018892169 0.10365691
-0.056549549 -0.020858884 0.099001788
-0.05423218 -0.021059155 0.097939812
-0.056311846 -0.022922963 0.094384514
-0.05477798 -0.02283746 0.09625157
-0.056247652 -0.025903463 0.091104202
-0.05439508 -0.024990737 0.089823179
-0.056085944 -0.027965665 0.087412231
-0.052265882 -0.026106089 0.083575629
-0.048057914 -0.028118193 0.079930328
-0.046645164 -0.030912876 0.076056346
-0.045879841 -0.033301413 0.071592286
-0.045687258 -0.035795301 0.067155764
-0.044591308 -0.037781298 0.062499866
-0.042473316 -0.039647579 0.06225346
0.033889592 -0.034363717 0.061958149
-0.040808439 -0.039921045 0.058263376
-0.037870407 -0.041698098 0.059040919
0.030121565 -0.035918444 0.056900516
0.033079863 -0.034297764 0.059237406
-0.039064229 -0.041292429 0.054028526
-0.037603378 -0.042958021 0.054941818
0.028962016 -0.037109822 0.053652719
-0.039311051 -0.046513796 0.05193834
-0.035115778 -0.044508636 0.048390344
-0.032229125 -0.04625988 0.048273787
0.024451613 -0.041981697 0.048352376
0.027232766 -0.039485455 0.049075082
-0.030339003 -0.047296137 0.045062162
-0.025336564 -0.048082888 0.044725217
-0.021898329 -0.048097014 0.043916114
0.019257784 -0.044258833 0.044865526
0.02354002 -0.042170167 0.044853814
-0.029145956 -0.047370374 0.041306801
-0.025000572 -0.048959643 0.040401228
-0.020127535 -0.049947023 0.041132577
-0.015011072 -0.050532877 0.039737917
-0.0099804401 -0.050100327 0.040197589
-0.0057815909 -0.050243229 0.039970048
-0.00068235397 -0.049692512 0.039888598
0.010386825 -0.048420697 0.039670713
0.014734626 -0.046330452 0.040656097
0.018748581 -0.043934524 0.040186621
0.022786796 -0.042476594 0.04086379
-0.024337411 -0.051332414 0.036194928
-0.019737363 -0.051161528 0.036021002
-0.014686942 -0.050974727 0.036134668
-0.0096833706 -0.051046163 0.036385305
-0.0050313473 -0.050193608 0.036396183
-8.0823898e-05 -0.050073504 0.036090411
0.0050338507 -0.049926698 0.036677934
0.0095897913 -0.049097925 0.036146767
0.013463378 -0.047768712 0.035591848
-0.023587108 -0.051423818 0.032130487
-0.020174205 -0.051677436 0.031445034
-0.014769673 -0.052267164 0.03151489
-0.0096151829 -0.05240202 0.031132139
-0.0047259927 -0.052032083 0.03160993
-0.0006095171 -0.051863164 0.031175084
0.0043487549 -0.050880373 0.031090654
0.0095736384 -0.049761504 0.030701704
0.013047159 -0.04909569 0.030485459
-0.010649681 -0.053494662 0.027029492
-0.0055474043 -0.053046942 0.027002849
-0.0005004406 -0.052313536 0.027788468
-0.010463476 -0.054204792 0.024511047
-0.006205678 -0.053811908 0.024478026
-0.054394841 -0.022915721 0.081384711
-0.055078268 -0.022866011 0.079455219
-0.051646769 -0.023827076 0.078148119
-0.051409006 -0.025946707 0.073502555
-0.048274875 -0.028780252 0.0740325
-0.050359011 -0.028373599 0.069029823
-0.048051953 -0.030337095 0.070070967
-0.048026979 -0.030330062 0.064850703
-0.046320319 -0.034322381 0.061184779
-0.04511261 -0.035420597 0.056055382
-0.043340743 -0.037138104 0.055243894
0.033386588 -0.032344818 0.055212811
-0.045278072 -0.036389261 0.052230582
-0.041983485 -0.03843087 0.051487252
0.033493042 -0.032060862 0.052520826
-0.040920734 -0.040567935 0.047110632
-0.037539005 -0.042013109 0.045837656
0.029747307 -0.035472721 0.047089651
0.03260684 -0.033849597 0.046363994
-0.035627544 -0.042943478 0.042549439
0.026339173 -0.039752126 0.042457141
0.028876901 -0.036778539 0.042440303
-0.034837306 -0.04384762 0.037742265
-0.031475186 -0.045953512 0.038281389
-0.027893126 -0.046411455 0.037951179
0.020597517 -0.042626053 0.037955649
0.024038315 -0.040628344 0.037351675
0.027669191 -0.038155496 0.038121618
-0.034116387 -0.045919299 0.032572843
-0.030975342 -0.047616839 0.033625402
-0.026892543 -0.04760319 0.033402808
0.016102791 -0.045255691 0.033857711
0.019323826 -0.043521613 0.033539034
0.022984087 -0.041440457 0.033539899
-0.033966005 -0.047441661 0.029510356
-0.030711472 -0.049624801 0.028895028
-0.025762439 -0.048719108 0.028610177
-0.02059269 -0.050815165 0.028037466
-0.016493857 -0.051479191 0.028580554
0.015980244 -0.046943843 0.029431142
0.019719779 -0.045021296 0.028537489
-0.035539091 -0.051181763 0.024663962
-0.030447125 -0.050345004 0.025399305
-0.020205081 -0.050177753 0.024773039
-0.015390813 -0.051682174 0.025817521
-0.00022369623 -0.051956266 0.025655039
0.005109489 -0.049705684 0.025611348
0.010103822 -0.049902976 0.025938548
0.015435994 -0.048353285 0.025310673
0.019576311 -0.048618525 0.025637932
-0.019128442 -0.05055365 0.022092257
-0.014641464 -0.051803082 0.022496857
-0.0097817183 -0.051949054 0.020342175
-0.0045667887 -0.052118242 0.021086279
-0.00028330088 -0.05114764 0.021942411
0.005472362 -0.049520344 0.022592194
0.010459125 -0.050384194 0.0223139
0.015299737 -0.049784034 0.021995787
0.019202352 -0.048048049 0.022370882
-0.0044917464 -0.052375704 0.01787195
-0.054733634 -0.021822393 0.076145753
-0.05460459 -0.02422905 0.072560713
-0.053496182 -0.024702132 0.069033161
-0.050715089 -0.026873678 0.064480796
-0.048923671 -0.028161466 0.062318847
-0.047865808 -0.029845625 0.058413997
-0.04678607 -0.032072335 0.053816959
-0.045891166 -0.034685999 0.049024299
0.032097936 -0.030017793 0.04821308
-0.045473933 -0.03649509 0.044566698
-0.043062747 -0.038279444 0.044627257
0.032682657 -0.032566935 0.045056619
-0.044267178 -0.037697345 0.039426781
-0.041079342 -0.039360881 0.040435202
0.030841649 -0.034298837 0.039761223
0.033745408 -0.03196618 0.039618947
-0.04057169 -0.040921152 0.035697199
-0.036938488 -0.043082356 0.03637246
0.029302716 -0.036766201 0.035668232
0.032489121 -0.034405261 0.034636326
-0.038687289 -0.04204917 0.030282296
-0.036421895 -0.044179082 0.031531908
0.025002062 -0.040025383 0.031106986
0.028766453 -0.037437409 0.031034507
0.031507134 -0.036320597 0.032111056
-0.035492718 -0.046122342 0.026522435
-0.02508235 -0.047017694 0.025750138
0.023864269 -0.041188627 0.026609786
0.026749134 -0.038897574 0.026458211
-0.03571409 -0.048084021 0.023266353
-0.02835542 -0.048821151 0.022685476
-0.025048018 -0.046271622 0.022590972
-0.023017526 -0.047069013 0.021943722
0.024087548 -0.042989433 0.022709794
0.026834965 -0.04251644 0.021584455
-0.036176205 -0.051616222 0.021939401
-0.020816505 -0.048247278 0.019154284
-0.015725553 -0.05004701 0.018870536
0.00076329708 -0.050032198 0.018747363
0.0043336153 -0.048347294 0.018939886
0.0089806318 -0.048584253 0.018786374
0.012949586 -0.047955602 0.018115703
0.024427295 -0.043072701 0.019820545
-0.015236795 -0.049844265 0.014268164
-0.010407329 -0.050536186 0.014790002
-0.0056268573 -0.05073759 0.014356617
-0.00083243847 -0.050231963 0.015411351
0.0041117072 -0.049337924 0.016041223
0.0091969371 -0.049829543 0.016249601
-0.0033897758 -0.049675882 0.010457817
-0.055803239 -0.021002233 0.069067553
-0.052200317 -0.0228163 0.065307751
-0.048253417 -0.027287364 0.055197045
-0.048743188 -0.026953638 0.051149979
-0.051018298 -0.02726078 0.047338501
-0.048419118 -0.029583454 0.047078088
-0.04836756 -0.032173991 0.042201735
-0.046875656 -0.034893394 0.038119592
-0.044942319 -0.037128776 0.034547783
-0.043125749 -0.038067847 0.032517798
0.035269499 -0.032242507 0.033986337
0.037640095 -0.030277729 0.031075247
-0.040522277 -0.039425492 0.029273875
