# .PCD v0.7 - Point Cloud Data file format
VERSION 0.7
FIELDS x y z
SIZE 4 4 4
TYPE F F F
COUNT 1 1 1
WIDTH 1308
HEIGHT 1
VIEWPOINT 0 0 0 1 0 0 0
POINTS 1308
DATA ascii
-0.040775776 -0.025177836 0.23378715
-0.038841724 0.033505678 0.22976264
-0.041095614 0.029846311 0.22924456
-0.043270946 0.025666237 0.22926524
-0.044244587 0.020191193 0.22838518
-0.043354839 -0.020538211 0.22885209
-0.040284783 -0.024209738 0.22975829
-0.041432977 0.027992368 0.22513285
-0.043076158 0.024634004 0.22494361
-0.043792009 0.01992619 0.22490385
-0.044693112 0.014788389 0.22464502
-0.045730233 0.010996401 0.22455439
-0.046707571 -0.015491486 0.22464392
-0.043709934 -0.019933462 0.22480747
-0.043143928 0.022976398 0.22137691
-0.044412076 0.019505978 0.22051372
-0.045717269 0.014897704 0.22037633
-0.047984302 0.011075795 0.22100686
-0.048483342 0.0061591864 0.22111584
-0.049206287 -0.0054955482 0.21956137
-0.047467798 -0.0099102259 0.21986359
-0.045936376 -0.0148561 0.22070539
-0.046566099 0.013979673 0.21724461
-0.050231457 0.01046133 0.216401
-0.050365001 0.0052898526 0.21661313
-0.050573379 0.00031161308 0.21642746
-0.049367368 -0.0048825741 0.2162433
-0.047769666 -0.0093394518 0.21573871
-0.049963027 0.0099503994 0.21230344
-0.051020116 0.0051106215 0.21258505
-0.051153362 6.6757202e-05 0.21174075
-0.049976498 -0.0051327944 0.21156049
-0.048345178 -0.0094922185 0.2125226
-0.050458103 -0.00029015541 0.20813502
-0.0084187984 0.047546685 0.27389315
-0.01130414 0.045531869 0.27484185
-0.010351062 0.047725201 0.26972991
-0.012595356 0.045455694 0.27022094
-0.012618631 0.051957607 0.26533574
-0.013814718 0.048509479 0.26538473
-0.015350878 0.044780433 0.26756245
-0.016535997 0.048275828 0.26183036
-0.01772356 0.045735359 0.26483351
-0.019587606 0.047287703 0.25787297
-0.021843076 -0.042812228 0.25867012
-0.022034645 0.045664608 0.25349349
-0.023828149 0.044967175 0.24879301
-0.026921511 -0.039465725 0.2483559
-0.02699095 0.044445515 0.24493727
-0.030456841 -0.03590858 0.24346551
-0.026168048 -0.039162517 0.24400526
-0.028911352 0.043217123 0.23942074
-0.030891031 0.040895998 0.23909292
-0.030678064 -0.036237597 0.23935238
-0.031830251 0.038916111 0.235625
-0.034503639 -0.031477928 0.23482645
-0.032542944 -0.035465121 0.23482934
-0.033052921 0.037356019 0.23043033
-0.036012769 0.036047578 0.23123446
-0.036909163 -0.027543068 0.23019943
-0.034673661 -0.030665219 0.23096338
-0.033609658 -0.033732295 0.23009005
-0.036799312 0.033935308 0.22639313
-0.038069546 -0.025994778 0.22632834
-0.036571443 -0.028112471 0.22420391
-0.03719449 0.032412231 0.22311917
-0.039620101 0.029884934 0.2228519
-0.041679859 0.026213646 0.22266576
-0.041877747 -0.021854937 0.22125295
-0.039591759 -0.024826527 0.22212508
-0.041538268 0.028335094 0.21805169
-0.042467654 0.02455014 0.21842669
-0.043727994 0.02059859 0.21758755
-0.04472506 -0.016092062 0.21761265
-0.042527854 -0.020516336 0.21806717
-0.039618611 -0.024718702 0.21832311
-0.04132092 0.028213382 0.21410744
-0.042425305 0.023539424 0.21326558
-0.044161201 0.019160271 0.21379863
-0.045188218 0.014584482 0.21379317
-0.046084464 -0.012218654 0.21437159
-0.045307964 -0.015733838 0.21388316
-0.043406188 -0.020145476 0.21300873
-0.045532644 0.01833117 0.20847858
-0.047298044 0.014397621 0.20898463
-0.048461199 0.0094922185 0.20845045
-0.048985273 0.0045486093 0.2085727
-0.04921326 -0.0060474873 0.20827881
-0.048092037 -0.010634184 0.20903826
-0.046280295 -0.015777469 0.20866409
-0.046041727 -0.017866373 0.20665476
-0.046783298 0.017416894 0.2045808
-0.048445195 0.01405549 0.20442618
-0.049268037 0.009341836 0.20443089
-0.048964947 0.0042555332 0.20429839
-0.049531609 -0.00064373016 0.20505621
-0.049350291 -0.0055639744 0.20468447
-0.048692793 -0.010637164 0.20459083
-0.046896875 -0.014475107 0.2052314
-0.049805403 0.0080457926 0.20059319
-0.049653918 0.0045270324 0.20066203
-0.049207032 -0.00098454952 0.20090891
-0.049007922 -0.00438416 0.2008206
-0.0050264597 0.051435828 0.27020544
-0.0052780509 0.049352586 0.27354121
-0.007953465 0.052448988 0.26756966
-0.0083631873 0.050033092 0.26929682
-0.011306524 0.052381337 0.26503617
-0.010786414 0.050151944 0.26655203
-0.012457758 0.052321315 0.26089475
-0.013114333 0.049513936 0.25937524
-0.015061885 0.04787451 0.25596014
-0.017625809 0.046814799 0.25158659
-0.019972682 0.04685533 0.24716941
-0.023179263 -0.042084455 0.24572721
-0.021617889 0.046792865 0.24200761
-0.023021251 0.04580307 0.24180597
-0.024347425 -0.041209936 0.24142948
-0.024337679 -0.043994486 0.24098897
-0.024363995 0.055330634 0.23830608
-0.023597956 0.046779752 0.23720524
-0.02547738 0.045305014 0.2376897
-0.02587992 -0.040468752 0.23721811
-0.026476324 0.04266113 0.23288783
-0.028399825 0.040358782 0.2333931
-0.028381854 -0.0392735 0.23368487
-0.028369188 0.041842043 0.22917572
-0.030139804 0.039874315 0.22940627
-0.033386976 -0.031679511 0.22835705
-0.032655329 -0.03609103 0.22947404
-0.030223817 -0.038927317 0.22912365
-0.031585574 0.038411319 0.22517499
-0.03314817 0.035910964 0.22368863
-0.033239543 -0.03108108 0.22445199
-0.032451004 -0.034806252 0.22536719
-0.034560651 0.033828259 0.22011639
-0.037306488 -0.026642025 0.22018823
-0.035720646 -0.02899307 0.22056565
-0.036364079 0.032750368 0.2152368
-0.038755834 0.0305776 0.21677299
-0.039038807 -0.025779009 0.2154732
-0.036908388 -0.028769612 0.2158027
-0.040002525 0.029948831 0.21168251
-0.041726887 0.025026858 0.21136434
-0.043061018 -0.021387458 0.210852
-0.040079027 -0.025058866 0.21107116
-0.04025507 0.028541088 0.20695288
-0.041866928 0.024542689 0.20741256
-0.043554664 0.020566106 0.20789506
-0.044086397 -0.020626783 0.20774898
-0.041486561 -0.023588836 0.20779505
-0.042901933 0.024443746 0.20343746
-0.044723928 0.020413876 0.20276465
-0.046418339 0.01636517 0.20188753
-0.048083216 -0.01115489 0.20219648
-0.046964318 -0.015202284 0.20296171
-0.045292944 -0.01979804 0.20279011
-0.044750452 0.01849401 0.19879943
-0.046630532 0.01502794 0.19834393
-0.048683733 0.0101372 0.19846606
-0.049563527 0.0044884682 0.19819897
-0.048952669 0.0004760623 0.19826153
-0.048616946 -0.0048527718 0.19848306
-0.048203468 -0.0097342134 0.19846125
-0.047496617 -0.01489979 0.19854404
-0.0463548 -0.018423438 0.19902049
-0.047517151 0.013520718 0.19445413
-0.049038261 0.010323346 0.19405165
-0.049778581 0.0053766966 0.1942502
-0.048539609 0.00016582012 0.19467759
-0.048080742 -0.0045281649 0.19492699
-0.0015997291 0.054531455 0.27111331
-0.0016602874 0.051152587 0.27110648
-0.0082302094 0.054513097 0.25518897
-0.0079624653 0.050703764 0.25593585
-0.010104358 0.048635602 0.2522572
-0.012063205 0.053622961 0.24521777
-0.012744308 0.048884869 0.24804744
-0.014249504 0.052864373 0.24239719
-0.015745938 0.049701452 0.24444166
-0.016521543 0.054095626 0.2396149
-0.017565578 0.049683332 0.23985645
-0.019780934 0.0536654 0.23539594
-0.019876063 0.049233437 0.23539031
-0.021383286 0.046420753 0.23408231
-0.020993054 0.047852814 0.22889471
-0.023266017 0.045636594 0.23119593
-0.024936378 0.044548988 0.22676393
-0.027966201 0.04163599 0.22567245
-0.029814392 -0.03932023 0.22561929
-0.02622354 0.043413401 0.22221619
-0.028771162 0.040417194 0.22191933
-0.031504393 -0.032649338 0.2210393
-0.02938816 -0.036606014 0.22211549
-0.027916819 -0.038478851 0.21997824
-0.029497504 0.039249361 0.2178082
-0.031769991 0.036165774 0.2177691
-0.032242328 -0.031949639 0.21784273
-0.029836029 -0.034947097 0.21755555
-0.030972481 0.038805246 0.21284468
-0.033172131 0.035683513 0.21346845
-0.033655703 -0.030873179 0.21269652
-0.032073945 0.037923217 0.20972385
-0.034928262 0.034799099 0.20883019
-0.036946476 0.030731916 0.20768787
-0.037975848 -0.027590632 0.2075651
-0.036160797 -0.029502392 0.20872459
-0.036260605 0.03385675 0.20405568
-0.038316399 0.030354738 0.20441146
-0.040713966 0.026724935 0.20364197
-0.039050072 -0.025972545 0.20445937
-0.036544561 -0.029299378 0.20366952
-0.037669957 0.032966971 0.2001583
-0.03961587 0.029780388 0.1998722
-0.041559458 0.025172055 0.19994855
-0.042722225 0.021635234 0.1990512
-0.042498589 -0.022406101 0.19950886
-0.03992331 -0.025183737 0.19989695
-0.040821016 0.028412223 0.19547236
-0.042118251 0.024745107 0.19542056
-0.043980867 0.02012074 0.19575909
-0.044960052 0.016572952 0.19452733
-0.046527267 -0.01026839 0.19481958
-0.0455679 -0.015526533 0.1944728
-0.043495506 -0.020869732 0.19550575
-0.041711718 -0.023761868 0.19491808
-0.042751223 0.02347225 0.19155627
-0.044502884 0.019691706 0.19092998
-0.046361893 0.015076399 0.19127727
-0.047713518 0.0098925829 0.19015446
-0.047922611 0.0048433542 0.19018281
-0.0467152 -0.00038278103 0.19061857
-0.046189249 -0.0057272911 0.19105776
-0.045734257 -0.010671854 0.19109012
-0.045302123 -0.015846491 0.19090982
-0.043617696 -0.020038486 0.191496
-0.045929462 0.019120812 0.18640766
-0.047246128 0.014690697 0.1865555
-0.047666043 0.0096616149 0.18665403
-0.047864348 0.0046011806 0.18667901
-0.047154635 -0.00061166286 0.18640456
-0.046967149 -0.0057429075 0.18630208
-0.046021909 -0.011013389 0.18595
-0.045534253 -0.014985144 0.18692417
-0.048101127 0.013816833 0.1815846
-0.048344851 0.0094320774 0.18163079
-0.049255818 0.0044778585 0.18189585
-0.049097687 -0.00064885616 0.18180177
-0.048818231 -0.0057994127 0.18166707
-0.048148811 -0.009714067 0.18185036
-0.049952924 0.0082882643 0.17806816
-0.050343215 0.0043618679 0.17787576
-0.050751626 -0.00094342232 0.17759496
-0.050797462 -0.0055543184 0.17757316
-0.0049110055 0.052474022 0.25437823
-0.0053696632 0.053204417 0.2502901
-0.0069288015 0.050143838 0.25098857
-0.008407712 0.053348422 0.24682847
-0.0086060166 0.049998045 0.24769816
-0.012676775 0.054435372 0.24284911
-0.014707208 0.052775621 0.23913521
-0.016247511 0.052662253 0.23275262
-0.016254753 0.049922943 0.23239481
-0.017161846 0.053472757 0.22959635
-0.018024504 0.049516559 0.22809586
-0.019887865 0.048208416 0.22381133
-0.022896081 0.046103716 0.22343698
-0.024221182 -0.040643454 0.22234228
-0.02079767 0.047462702 0.22028668
-0.023216128 0.045099616 0.21923555
-0.025308669 -0.040339828 0.21879402
-0.02544266 0.042952538 0.21573319
-0.027743816 0.041130424 0.21535517
-0.027495295 -0.035985589 0.21438155
-0.025690645 -0.039249361 0.21590367
-0.026137352 0.042486668 0.21145196
-0.027490169 0.040858626 0.21010949
-0.029201984 -0.034665108 0.21040946
-0.030990273 0.038620949 0.20644407
-0.031645447 -0.032183826 0.2064862
-0.032783091 0.0384444 0.20129301
-0.034771681 0.036218166 0.2036192
-0.036580354 -0.030007124 0.20194471
-0.03364104 0.037526965 0.19807273
-0.036332399 0.034973264 0.19792354
-0.039423734 -0.026475072 0.19765107
-0.036051303 -0.029071391 0.19796474
-0.036900461 0.033580244 0.19383383
-0.038888276 0.030313551 0.19319224
-0.039741337 -0.026076078 0.19302897
-0.0398314 0.027499318 0.18860471
-0.041692555 0.025068402 0.18906575
-0.042823046 -0.021133602 0.18832107
-0.041194052 -0.023837328 0.18882002
-0.043360233 0.024111927 0.18476707
-0.045491219 0.021178186 0.18515563
-0.045886725 -0.015668452 0.1847017
-0.043604493 -0.019380331 0.18464901
-0.044182837 0.023106158 0.17908758
-0.0460338 0.01929915 0.18093583
-0.047553927 0.015265584 0.18141299
-0.048035741 -0.011611819 0.18135853
-0.046245933 -0.015012622 0.18051158
-0.046478212 0.019105971 0.17668146
-0.04854542 0.01467824 0.17598432
-0.049875826 0.0098645687 0.17629427
-0.049601942 0.0040642619 0.17497915
-0.051361471 9.6857548e-05 0.17554998
-0.050701022 -0.0059776306 0.17527391
-0.049042165 -0.010028601 0.17577244
-0.047231674 -0.013953209 0.17613907
-0.048559695 0.01317203 0.17292857
-0.049220026 0.0098026991 0.17224351
-0.048839658 0.0056895018 0.17169842
-0.049792767 0.00023233891 0.17198312
-0.049800575 -0.0042654276 0.17250545
-0.04881382 -0.0081464052 0.17284127
-0.0048831403 0.055583835 0.24680865
-0.0057148933 0.055601776 0.24532375
-0.0140782 0.053221643 0.23046955
-0.013487756 0.052797377 0.22550669
-0.014668167 0.050508082 0.22547114
-0.015196055 0.052927077 0.22047158
-0.017123163 0.049858093 0.22064449
-0.01739639 0.052536726 0.21633978
-0.018065542 0.048249245 0.21631457
-0.019923031 0.053039432 0.21230842
-0.019261241 0.04754293 0.21236499
-0.022053987 0.044984162 0.21286814
-0.024153054 -0.038163722 0.2120136
-0.022446752 -0.040937781 0.21322757
-0.023584664 0.043545663 0.20823117
-0.026325822 -0.037451267 0.20919284
-0.024105847 -0.040200531 0.20851558
-0.025230885 0.042062402 0.20424028
-0.027294874 0.040592313 0.20485096
-0.027415425 -0.034826875 0.204328
-0.026454985 -0.043777466 0.20222792
-0.027290285 0.042064071 0.19963259
-0.02980414 0.040647507 0.20039415
-0.031385839 -0.032759666 0.20032723
-0.030213296 -0.034941018 0.19732933
-0.031391263 0.039083958 0.19541791
-0.033848435 -0.030998945 0.19586982
-0.031594366 -0.033169031 0.19514896
-0.032455742 0.038213968 0.19129106
-0.034673572 0.034179568 0.19032925
-0.035345823 -0.030288994 0.19109733
-0.033615202 -0.033213079 0.19052352
-0.0344069 0.034448981 0.18602365
-0.03624332 0.0303967 0.18658817
-0.038214892 -0.026931763 0.18642785
-0.035520285 -0.030498981 0.18622877
-0.036234915 0.03426218 0.18167558
-0.037968338 0.030014217 0.18203747
-0.040147305 0.026575744 0.18137968
-0.040930122 -0.021871567 0.18125279
-0.039651364 -0.024968624 0.18233241
-0.037413627 -0.02866292 0.18239023
-0.039799154 0.029834628 0.17741549
-0.041113555 0.026197433 0.17757553
-0.04503426 -0.016988993 0.17678244
-0.042353392 -0.01992774 0.17762049
-0.039551556 -0.022969425 0.17754029
-0.041391492 0.028618932 0.17414272
-0.043192655 0.024240971 0.1738326
-0.044359058 0.020303965 0.1724261
-0.046694577 0.01716578 0.1723181
-0.047470272 -0.011809289 0.17234786
-0.04514581 -0.016146779 0.17269425
-0.043093771 -0.019743204 0.17299755
-0.044840157 0.01963985 0.1683937
-0.046771735 0.015251517 0.16877568
-0.047836959 0.010485291 0.16859996
-0.04794541 0.0047362447 0.16803128
-0.048292458 0.00033664703 0.16811627
-0.04765293 -0.0054651499 0.1684031
-0.046053022 -0.010616601 0.16831036
-0.044955134 -0.015907168 0.16877641
-0.043928951 -0.019470453 0.16928221
-0.046270221 0.01839745 0.16506019
-0.047143102 0.014704466 0.16462255
-0.047702402 0.0096993446 0.16421673
-0.047839522 0.0045793056 0.16393536
-0.047832876 -0.00037801266 0.1636678
-0.04717055 -0.0056137443 0.16390033
-0.049446106 0.0029663444 0.15889995
-0.048545539 0.0012172461 0.160355
-0.011005044 0.053489685 0.22276106
-0.01083982 0.055094361 0.22013219
-0.016953617 0.053727388 0.21492256
-0.016795784 0.050272584 0.21485241
-0.017584234 0.049410343 0.2099845
-0.0195494 -0.042640686 0.20976865
-0.018602431 0.047522783 0.20665915
-0.02136755 0.045733273 0.20543213
-0.023482352 -0.037197173 0.2048713
-0.022385806 -0.041155398 0.20521173
-0.021115988 -0.044513285 0.2049832
-0.022233963 0.044575572 0.20135505
-0.023038834 -0.037203133 0.20080146
-0.022816598 -0.04109776 0.20114329
-0.021440238 -0.044684947 0.2024537
-0.023959875 0.044069886 0.1971212
-0.022803813 -0.036222517 0.19766493
-0.023314327 -0.039577961 0.19779657
-0.027455002 0.042624593 0.19267234
-0.029342026 -0.0353477 0.19442667
-0.029509574 0.040244699 0.18779558
-0.032776326 -0.03468293 0.18848224
-0.031110168 0.039502025 0.18347412
-0.033349991 0.03689456 0.18569946
-0.034817278 -0.03192842 0.18298401
-0.033785403 -0.033786595 0.18351631
-0.032915801 0.038676381 0.17892498
-0.035099626 0.036458313 0.17989844
-0.038134128 -0.02647084 0.17969735
-0.035367012 -0.030180693 0.17874546
-0.034817964 -0.0346663 0.1811897
-0.036819875 0.034867048 0.17560464
-0.039179176 0.031902373 0.17608267
-0.039048731 -0.025374532 0.1762103
-0.035480618 -0.029880762 0.17522629
-0.03755796 0.033233523 0.17197978
-0.039576501 0.029979944 0.17130509
-0.041412175 0.025899291 0.17145884
-0.042497784 -0.021252692 0.1714464
-0.039712936 -0.02493459 0.17157383
-0.040078223 0.028494596 0.16655016
-0.041535765 0.024811745 0.1670275
-0.044030964 0.021667123 0.16698053
-0.044983387 -0.015246332 0.16611437
-0.043127954 -0.020386338 0.16661315
-0.040578872 -0.023561478 0.16808642
-0.041828424 0.023283601 0.16218489
-0.044700772 0.019989133 0.16250235
-0.046952635 0.015303195 0.16214451
-0.047492415 0.010626793 0.16184995
-0.047585219 0.0063404441 0.16184694
-0.047181487 -0.0057770014 0.16160072
-0.046179831 -0.010479808 0.16325168
-0.044904172 -0.014905572 0.16228135
-0.043936372 -0.018702567 0.16257949
-0.045154214 0.019257903 0.15856944
-0.046801627 0.01460588 0.15804182
-0.047524452 0.0095444918 0.15825997
-0.048659176 0.0047740936 0.15863036
-0.048348963 -0.0008918047 0.15824549
-0.047647476 -0.0054405332 0.15843534
-0.04641977 -0.0098536015 0.15747279
-0.045189321 -0.01396513 0.1575793
-0.046458095 0.013471365 0.15430205
-0.047333986 0.0091724396 0.15277685
-0.049006641 0.0042594075 0.15334855
-0.049267918 -1.3768673e-05 0.15340792
-0.048288316 -0.0046979189 0.15323392
-0.04728052 -0.0080678463 0.15351385
-0.048677742 0.0074255466 0.14963566
-0.049493551 0.0040698051 0.14945619
-0.049449146 1.7166138e-05 0.14925332
-0.014411956 0.05339098 0.20352496
-0.015302092 0.050011754 0.20359035
-0.015812486 0.04925406 0.19843304
-0.018566281 0.04642874 0.20138623
-0.017708421 0.047803283 0.19496441
-0.020492464 0.045870125 0.1940437
-0.0218665 -0.039877176 0.19734944
-0.023036122 0.045137882 0.19129944
-0.025262952 0.043858767 0.18668187
-0.026463598 0.043759823 0.1817345
-0.029256523 0.041447401 0.18174106
-0.027415246 0.042842567 0.17847201
-0.029847682 0.040604234 0.17711735
-0.032743007 -0.032801747 0.17696024
-0.032179743 -0.035644352 0.17728402
-0.032203585 0.039410055 0.17311567
-0.035475433 0.036468387 0.17219016
-0.034675896 -0.031083107 0.1728595
-0.034113258 -0.034927964 0.17293449
-0.032721043 0.038143218 0.1681208
-0.034985185 0.034706295 0.16819885
-0.037638456 0.031334519 0.16841543
-0.036329716 -0.026915073 0.167484
-0.03408438 -0.029853225 0.16803272
-0.033222497 -0.033391654 0.16905721
-0.034246862 0.037703514 0.16459244
-0.03662625 0.034236193 0.16381764
-0.038815916 0.030073524 0.16372609
-0.040419817 0.026187897 0.16306025
-0.039664537 -0.022438645 0.16238759
-0.037910283 -0.024766684 0.16400231
-0.037613779 0.033200622 0.15971923
-0.039280415 0.029307604 0.15907431
-0.041149259 0.025227785 0.15970722
-0.040959209 -0.02103281 0.1592506
-0.039719552 -0.022860408 0.15698195
-0.039959759 0.029209137 0.15569715
-0.04184556 0.023808956 0.15512322
-0.043806136 0.019932449 0.15519927
-0.043930024 -0.016732693 0.15565452
-0.042534411 -0.020001888 0.15439647
-0.040311247 -0.022890925 0.15538132
-0.043305695 0.022327125 0.14959161
-0.044647723 0.019100904 0.15096711
-0.046291173 0.014417112 0.15192167
-0.047517389 -0.0030283928 0.15092856
-0.046337068 -0.010733604 0.1515584
-0.044946283 -0.015210629 0.15078077
-0.043508768 -0.01985836 0.15051609
-0.045318246 0.018120348 0.1475694
-0.04659909 0.014750242 0.14649855
-0.048262417 0.0098276138 0.14745744
-0.048897266 0.0055245161 0.14652167
-0.048114121 0.00016343594 0.14572428
-0.047579974 -0.0050691366 0.14638802
-0.046851844 -0.010060251 0.14607289
-0.045542657 -0.014053464 0.1464622
-0.048407674 0.01038909 0.14227645
-0.048217654 0.0054290891 0.1426829
-0.047736347 0.00047385693 0.14254402
-0.049301118 0.0085622072 0.13894071
-0.012754619 0.053072214 0.19702247
-0.015629411 0.050257385 0.1961118
-0.013854384 0.052993953 0.19247749
-0.016229451 0.049515486 0.19252282
-0.016335845 0.053705275 0.18628016
-0.017266631 0.049200296 0.18773198
-0.020779878 0.046067119 0.18793207
-0.018624842 0.052651048 0.18372577
-0.019726336 0.049254417 0.18338329
-0.022457898 0.046063602 0.18401691
-0.021383941 0.047494769 0.17920762
-0.022920728 0.045429587 0.17835099
-0.025134623 0.043860316 0.17521417
-0.027418315 0.042520404 0.17129266
-0.030547559 0.041067958 0.17054772
-0.031851202 -0.036998332 0.17035724
-0.031321168 0.040283024 0.16684484
-0.032422602 -0.031680942 0.1651883
-0.031201482 -0.035959125 0.16538598
-0.032416373 0.039135933 0.16215605
-0.03577733 0.035982132 0.16150334
-0.035281658 -0.026693344 0.1617095
-0.032531083 -0.030045629 0.16192247
-0.031879365 -0.037779152 0.16132827
-0.033437669 -0.039201736 0.16186334
-0.033468306 0.037720203 0.15752529
-0.03664881 0.034726679 0.15757607
-0.035938293 -0.026062429 0.15741569
-0.03340143 -0.037779272 0.15823168
-0.03684324 0.033957243 0.15330999
-0.038622558 0.029380679 0.15235661
-0.040878236 0.025664091 0.15236853
-0.038498044 -0.025132656 0.15288776
-0.03981629 0.029025555 0.14876787
-0.041911244 0.024739742 0.14909767
-0.043782502 -0.017721891 0.14759922
-0.043457896 -0.020638466 0.14806148
-0.041221321 -0.023295999 0.14842719
-0.041444838 0.025027752 0.14396261
-0.043570101 0.0205217 0.14396785
-0.04554081 0.01701653 0.14307903
-0.045692593 -0.012558579 0.14287627
-0.044524997 -0.01545167 0.14387393
-0.042801231 -0.01949966 0.14465761
-0.043869972 0.019562781 0.13905834
-0.04632318 0.015176415 0.13969226
-0.048266619 0.011878788 0.13857307
-0.048182696 0.0044026971 0.13969706
-0.047633737 -0.00057309866 0.1395302
-0.047174186 -0.0055912733 0.13983399
-0.046926022 -0.009991765 0.13970017
-0.04496932 -0.013634801 0.13928935
-0.046914756 0.014731765 0.13462643
-0.048922926 0.010035455 0.13549988
-0.048635364 0.0047809482 0.13564195
-0.04826507 -0.00055718422 0.13478123
-0.047641009 -0.0058618188 0.13501906
-0.047704607 -0.0096714497 0.13448232
-0.046653837 -0.01299727 0.1349684
-0.048516363 0.0097184181 0.13128184
-0.048058301 0.0044031143 0.13105406
-0.048733026 0.00095766783 0.13036235
-0.0090019107 0.054970562 0.19855756
-0.0090488195 0.055244505 0.19412717
-0.011524737 0.057446241 0.18866166
-0.012232423 0.054925203 0.18975848
-0.012320161 0.062682688 0.1862669
-0.013284147 0.058816195 0.18609452
-0.014245212 0.054442048 0.18609619
-0.017437041 0.053785145 0.18200797
-0.0186598 0.049054265 0.18102214
-0.018586755 0.053275406 0.17743653
-0.019239873 0.049458563 0.17736375
-0.019898325 0.052323461 0.17244774
-0.019861519 0.048813581 0.1724084
-0.022212982 0.044937611 0.17196274
-0.02104634 0.047000647 0.16826504
-0.023229599 0.044191957 0.16781959
-0.025164425 0.04319644 0.16354862
-0.026745498 0.041953325 0.16018957
-0.029043257 0.041226387 0.15825878
-0.031919211 -0.031368017 0.15848738
-0.031616211 -0.035739541 0.15943547
-0.030531198 0.040110826 0.15444313
-0.033383399 -0.030213714 0.15464401
-0.03189832 -0.034897745 0.15407017
-0.033304513 0.038251996 0.15062408
-0.034235924 0.036571383 0.15003531
-0.037227839 -0.027275383 0.15058163
-0.035780758 -0.030335009 0.1503917
-0.034156829 -0.033682346 0.15001613
-0.033285201 0.038471937 0.14603074
-0.035262078 0.034985781 0.1461163
-0.037421554 0.03134048 0.14627431
-0.037313074 -0.026476264 0.14732322
-0.035373449 -0.029111087 0.14621675
-0.036268175 0.033312023 0.14156686
-0.037996888 0.030030847 0.14218725
-0.040178746 0.025848985 0.1411318
-0.041078538 -0.020807147 0.14152116
-0.038363367 -0.024690866 0.14230576
-0.039005727 0.029325962 0.13764189
-0.041049302 0.024895668 0.13776536
-0.043075383 0.02162838 0.13758917
-0.043299943 -0.016365886 0.13779873
-0.040961087 -0.020477891 0.13756078
-0.038750201 -0.024507701 0.138302
-0.040640652 0.028101683 0.13301004
-0.042014599 0.024522483 0.13281403
-0.044266045 0.019790351 0.1334127
-0.046458274 0.01650548 0.13238738
-0.046802163 -0.004427135 0.1323328
-0.04677102 -0.011431575 0.13225752
-0.04452306 -0.01573056 0.13292989
-0.042573661 -0.019083023 0.13240725
-0.042839468 0.02288568 0.12917413
-0.044774175 0.01934135 0.12827475
-0.046612203 0.014560223 0.12872331
-0.048199445 0.0094951987 0.12837626
-0.047694534 0.0045253038 0.1283168
-0.0478324 -4.529953e-06 0.12832956
-0.047456115 -0.0045721531 0.12888163
-0.047539741 -0.0098124146 0.12886688
-0.045706809 -0.014886975 0.12836382
-0.045465618 0.017678499 0.12457531
-0.047229677 0.013772428 0.12399947
-0.048434705 0.0092426538 0.12381911
-0.048578709 0.004881382 0.12383684
-0.048421979 0.00047039986 0.1237333
-0.047797292 -0.004901886 0.12343297
-0.047360748 -0.01018095 0.12414274
-0.046000004 -0.01387465 0.124499
-0.048532486 0.0095723867 0.11950379
-0.049706638 0.0053771734 0.11892726
-0.049215198 0.00029116869 0.11938243
-0.048623204 -0.0032604933 0.12004525
-0.0043216944 0.056901276 0.19089407
-0.0049838722 0.056900501 0.18930325
-0.016249359 0.052714884 0.16850552
-0.017407984 0.051846504 0.16615683
-0.019110143 0.048918605 0.16602772
-0.021471083 0.046856165 0.16386265
-0.021665126 0.046036005 0.16063601
-0.024492651 0.044625044 0.15759204
-0.02643609 0.044901848 0.15301482
-0.029361427 0.041850567 0.15197726
-0.028272539 0.044040561 0.14829008
-0.030775398 0.04097414 0.1488093
-0.031495064 -0.035865664 0.14767665
-0.030719399 -0.039295614 0.14625803
-0.031560361 0.039937496 0.14356045
-0.034583569 0.036701441 0.14281173
-0.034066141 -0.030147851 0.14342064
-0.030744582 -0.035918772 0.14444941
-0.032225251 0.038083076 0.14009131
-0.034521043 0.035637498 0.13907944
-0.035256565 -0.026801944 0.13880861
-0.033109576 -0.028839231 0.13983744
-0.03591907 0.033682823 0.13455687
-0.038289666 0.030892491 0.13553078
-0.038077384 -0.024494171 0.13433635
-0.036777496 0.032826483 0.13062505
-0.0389539 0.030076265 0.13117759
-0.041421741 0.026303768 0.13051058
-0.041290969 -0.021084905 0.13189164
-0.038781166 -0.023770809 0.13089332
-0.039525688 0.028335869 0.12642781
-0.042165935 0.024656415 0.126828
-0.044454873 0.02115202 0.12607045
-0.044578701 -0.017445624 0.12669936
-0.041496098 -0.020394444 0.12676033
-0.041938365 0.023821235 0.12247562
-0.043839544 0.019596696 0.12207144
-0.045569599 0.015746117 0.1213276
-0.047397435 -0.010377228 0.12135483
-0.045247436 -0.015237093 0.12194125
-0.043721259 -0.01789093 0.12261692
-0.045262098 0.014900684 0.11759996
-0.048042387 0.01113987 0.11744466
-0.049461067 0.0071802139 0.11673651
-0.04943186 0.00013923645 0.11665864
-0.047848493 -0.005521059 0.11759964
-0.046229631 -0.010424376 0.11825747
-0.044589996 -0.014551282 0.11830712
-0.047642291 0.009898901 0.11338172
-0.048540354 0.0048248768 0.11280764
-0.047115833 0.00075888634 0.11320443
-0.049145907 0.0040037632 0.10904066
-0.014146745 0.054225922 0.16689306
-0.016631633 0.059573531 0.16229814
-0.014210731 0.054463863 0.16299391
-0.016659319 0.051058769 0.16284835
-0.017444134 0.062238038 0.16076827
-0.01586777 0.059118032 0.15958315
-0.015921891 0.05363369 0.15879022
-0.017974913 0.049849749 0.15901521
-0.018473029 0.053224921 0.15369497
-0.020414472 0.049890041 0.15435688
-0.022027642 0.046532094 0.1549011
-0.020499378 0.053293467 0.15072478
-0.021978647 0.049623787 0.14960758
-0.023558199 0.046470284 0.14992093
-0.02290374 0.04801333 0.14599536
-0.024491668 0.046018004 0.14544497
-0.026859522 0.04379642 0.141847
-0.029696584 0.041392922 0.14102755
-0.0301691 -0.032733202 0.14148533
-0.027987093 -0.035754859 0.1415742
-0.028245777 0.042867303 0.13770722
-0.029902279 0.039692163 0.13713954
-0.031110793 -0.030480981 0.13683903
-0.028807968 -0.034723878 0.13742429
-0.030900329 0.039134562 0.13238265
-0.032916337 0.036051035 0.13289537
-0.033460557 -0.027604818 0.13253626
-0.031705737 -0.029725432 0.13184425
-0.031796932 0.037507296 0.12873428
-0.034810841 0.034251809 0.12800305
-0.037588358 0.030979514 0.12718768
-0.035705507 -0.025881052 0.12734166
-0.033137411 -0.028934419 0.12771955
-0.037299395 0.03340888 0.12334525
-0.038417459 0.030341744 0.12438595
-0.038987458 -0.022180796 0.1225673
-0.037251651 -0.024621844 0.12326584
-0.038364768 0.033110142 0.11849516
-0.03978461 0.029121161 0.12053537
-0.040832698 0.025069594 0.11966532
-0.041483015 0.022179067 0.11927324
-0.040673584 -0.020650446 0.11980633
-0.039473832 0.032338738 0.11477936
-0.040934026 0.02987051 0.1153504
-0.041735947 0.025550604 0.11563653
-0.042886257 0.020403028 0.11605675
-0.04405722 0.016375303 0.11523966
-0.044353217 -0.010448933 0.11448117
-0.043435305 -0.015197217 0.11540898
-0.041668892 -0.019912839 0.11581554
-0.042514116 0.029791951 0.11031661
-0.043274343 0.025461316 0.11059014
-0.043819726 0.020220101 0.11076639
-0.044582099 0.015017152 0.1110322
-0.04599148 0.010278463 0.1101518
-0.046772063 0.0063908696 0.10996635
-0.046274275 -0.0012769699 0.11094838
-0.045035541 -0.0052828789 0.11102831
-0.044024825 -0.0096547008 0.11080619
-0.043097943 -0.014110327 0.111409
-0.043824494 0.025335371 0.10702015
-0.044044197 0.018264413 0.10704467
-0.045391768 0.014139593 0.10642747
-0.046986163 0.0097304583 0.10629383
-0.048395067 0.0048615336 0.10629729
-0.047486901 -0.00029611588 0.10667939
-0.04605633 -0.0046117902 0.10576647
-0.044520438 -0.0082993507 0.10699099
-0.047855407 0.0095748901 0.10190163
-0.048801243 0.0045802593 0.10153983
-0.047650188 9.4115734e-05 0.10204063
-0.011285067 0.05638957 0.16042691
-0.012697279 0.05547291 0.15629612
-0.01425916 0.054567099 0.15220909
-0.018352032 0.052962542 0.14716633
-0.020203143 0.051344037 0.14689587
-0.019912392 0.049090862 0.14304934
-0.020408124 0.047507107 0.13948415
-0.024051547 0.046055794 0.13895877
-0.026332706 -0.037140906 0.13908657
-0.025416791 0.044738054 0.13465221
-0.027715832 -0.035553694 0.13401324
-0.027220011 0.044008136 0.13054399
-0.029553473 0.040872931 0.12977262
-0.029867738 -0.031870067 0.13111955
-0.029803932 -0.034406185 0.13069797
-0.027448833 0.042887449 0.12646644
-0.03020227 0.039214969 0.12601309
-0.032710791 0.035668075 0.12531684
-0.031234115 -0.030724049 0.12602103
-0.031056643 -0.0343678 0.1271736
-0.031880319 0.038451552 0.12151279
-0.034158051 0.035670042 0.12212031
-0.035609096 -0.026386142 0.12118603
-0.032764584 -0.029059827 0.12144933
-0.034240693 0.037191689 0.11649389
-0.036391288 0.035213888 0.11686943
-0.036946237 -0.025611043 0.1170034
-0.034901947 -0.028686881 0.11615159
-0.035808086 0.037208438 0.11333243
-0.03738606 0.034646571 0.11205084
-0.040402293 -0.02153182 0.11275943
-0.038751334 -0.024818182 0.11205306
-0.036956102 -0.028662801 0.112235
-0.038100779 0.03366071 0.10852886
-0.040650636 0.032210171 0.10956875
-0.043164521 -0.011960387 0.10829287
-0.042384833 -0.016159177 0.10919657
-0.041092604 -0.020061374 0.10887777
-0.039426208 -0.02403599 0.1070061
-0.04272598 0.030210257 0.10493884
-0.044181287 0.025254607 0.10471994
-0.044054329 0.020143867 0.10492418
-0.044623613 0.015521646 0.10440478
-0.045198709 -0.0066695213 0.1034812
-0.044382781 -0.010476351 0.10476991
-0.043937892 -0.015127301 0.10504933
-0.042028666 -0.019280553 0.10393547
-0.043242604 0.029355645 0.10012946
-0.044010758 0.024954677 0.099454828
-0.044553876 0.019686699 0.099636145
-0.045964986 0.014556348 0.10018877
-0.04786393 0.0093995333 0.099038638
-0.04709515 -3.0696392e-05 0.099096157
-0.046079636 -0.0050017238 0.10004788
-0.045802623 -0.010391593 0.099877827
-0.045743614 -0.014855862 0.099809878
-0.043872237 -0.018700182 0.09993457
-0.044353604 0.023905873 0.09575291
-0.045640647 0.020152807 0.094989017
-0.04641062 0.014342487 0.095585093
-0.047596663 0.0094581842 0.095728561
-0.047840089 0.005089879 0.095150843
-0.046865582 9.0718269e-05 0.09468089
-0.046149462 -0.0051453114 0.094560727
-0.046111286 -0.010730505 0.09448953
-0.045554698 -0.014923573 0.095250592
-0.048564881 -0.003575623 0.089606509
-0.011520177 0.056141615 0.15310971
-0.012051493 0.055594742 0.14910899
-0.01328209 0.055275321 0.14478908
-0.014977813 0.053326011 0.14127217
-0.017447203 0.050867081 0.14122413
-0.016186833 0.052376151 0.13701783
-0.01854977 0.049227059 0.13669713
-0.019921482 0.04893446 0.13180108
-0.021045685 0.052861691 0.12659641
-0.022702217 0.049008369 0.12720089
-0.025467396 0.045661211 0.12635128
-0.025101423 0.057923198 0.12063503
-0.023206949 0.05428648 0.1236563
-0.023598015 0.049280882 0.12300461
-0.02571699 0.044352114 0.12296724
-0.029126495 -0.031746566 0.12330041
-0.027202874 -0.035523295 0.12124652
-0.027986705 0.043329418 0.1197428
-0.02978611 0.040434361 0.11948242
-0.030045837 -0.031873465 0.11987347
-0.02778551 -0.03507185 0.11831451
-0.028440833 0.043645382 0.11421717
-0.031055868 0.040374458 0.11524058
-0.032563239 -0.030940056 0.11518788
-0.03050378 -0.033146262 0.11433756
-0.031948209 0.039655447 0.11050961
-0.034257442 0.036837697 0.10888267
-0.037296802 -0.027038336 0.10953277
-0.034884334 -0.02930516 0.10851895
-0.036175191 0.035110295 0.10583318
-0.037588924 -0.026876211 0.10535359
-0.035257757 -0.029462576 0.10579931
-0.037027299 0.033621967 0.10089878
-0.039843917 0.031726658 0.10158894
-0.040938318 -0.021644115 0.10249733
-0.038777322 -0.024821877 0.10059582
-0.040952027 0.030571818 0.097436763
-0.042776793 -0.020647764 0.097720198
-0.040347904 -0.025303602 0.096926324
-0.04277131 0.028790712 0.093575135
-0.044836044 0.024989486 0.093495831
-0.045033127 0.018170834 0.092780039
-0.045314848 0.01489985 0.092227623
-0.045455277 0.011346936 0.092253849
-0.046117127 0.0069839954 0.092499062
-0.046280801 -0.0072809458 0.0924301
-0.046589583 -0.010799408 0.092529938
-0.045139968 -0.015786052 0.09249346
-0.0422979 -0.019871473 0.092784211
-0.04289782 0.027873516 0.089366838
-0.04441756 0.024186134 0.088299528
-0.045798242 0.019748449 0.088896289
-0.045686185 0.015388489 0.088285401
-0.046064794 0.010314584 0.088643894
-0.046028465 0.0049390197 0.088574097
-0.046817005 -0.00029844046 0.088869616
-0.047611594 -0.005751133 0.089165226
-0.047810942 -0.0099614263 0.0892113
-0.045729578 -0.014574647 0.088492379
-0.043639809 -0.018648148 0.089232489
-0.045181632 0.023400366 0.084504344
-0.045657873 0.019881129 0.084680684
-0.0457353 0.014932573 0.084179409
-0.046670973 0.0098342299 0.083641209
-0.046793312 0.0044738054 0.083642401
-0.047242999 -0.00037109852 0.083481826
-0.048087418 -0.0054056644 0.084730662
-0.047649682 -0.0098103285 0.084102787
-0.046434075 -0.013175249 0.084695347
-0.047751814 0.008195281 0.079656996
-0.013526499 0.054897606 0.13887538
-0.014161348 0.053854585 0.13344531
-0.016337156 0.052842975 0.13009535
-0.018686175 0.05504179 0.12570493
-0.021415114 0.057624459 0.12108477
-0.022469401 0.054118752 0.12092265
-0.023739636 0.048385918 0.12048712
-0.021993697 0.057545543 0.11749732
-0.022394389 0.053520501 0.1171414
-0.023789108 0.048992157 0.11685697
-0.024763227 0.046039999 0.11562765
-0.026608348 -0.036396563 0.11560851
-0.025173485 0.045640111 0.11228166
-0.027130604 -0.035748482 0.11151829
-0.027454793 0.044225276 0.1090369
-0.029614866 0.041082978 0.10765193
-0.031142503 -0.031692028 0.10887509
-0.029237479 -0.034583747 0.1067872
-0.030552208 0.039797127 0.10353944
-0.033746958 0.036505103 0.10291562
-0.032274336 -0.031524301 0.10309803
-0.029075921 -0.034226418 0.10415619
-0.031448245 0.038314044 0.098591484
-0.03453964 0.035687685 0.099001713
-0.035092652 -0.030040681 0.098990969
-0.035868019 0.034307122 0.094379261
-0.038713008 0.031196773 0.093393669
-0.038314134 -0.025766015 0.093312249
-0.036454678 -0.030257165 0.093484327
-0.036971807 0.033243001 0.090073988
-0.03930366 0.030633688 0.08976464
-0.040435493 -0.022631288 0.090705439
-0.038071543 -0.02579236 0.089648172
-0.038597316 -0.029374242 0.088868484
-0.041148096 0.028596282 0.086274967
-0.043298692 0.025932789 0.085640587
-0.044283211 -0.017021537 0.085648425
-0.042084843 -0.020197511 0.086202249
-0.040308654 -0.022880077 0.087733641
-0.041453242 0.027377605 0.082888521
-0.044190168 0.025112748 0.08174143
-0.04515183 0.020544052 0.081539907
-0.045329154 0.015527546 0.081373848
-0.046374232 0.010790646 0.08101479
-0.046379238 0.0054024458 0.080962785
-0.04645437 -0.0044673085 0.08089719
-0.045434505 -0.010042071 0.080383725
-0.044095725 -0.01554507 0.081680723
-0.042351931 -0.019330144 0.082821317
-0.04618603 0.024922729 0.077164449
-0.046214342 0.020428598 0.077131279
-0.046135604 0.015019298 0.077039845
-0.047250658 0.010003567 0.077249356
-0.047230303 0.0043963194 0.077428259
-0.047978848 2.5510788e-05 0.077723451
-0.04719913 -0.0046032071 0.077322938
-0.04609865 -0.0096645951 0.077052929
-0.043666452 -0.014106393 0.077590503
-0.047150046 0.024799228 0.07269714
-0.047060609 0.020652175 0.0728103
-0.04696995 0.014512479 0.072706081
-0.048042327 0.0095624924 0.071966656
-0.049111813 0.004331708 0.072404929
-0.049827039 -4.8279762e-05 0.072688378
-0.048508435 -0.0047755241 0.072034247
-0.047201633 -0.0084739923 0.073363282
-0.049056053 0.0076196194 0.067491271
-0.049429476 0.0049740076 0.067637421
-0.050230712 0.00097215176 0.06816534
-0.049672842 -0.0030361414 0.06865371
-0.0069870055 0.05687505 0.13458084
-0.0090766549 0.055311859 0.13629003
-0.0082901716 0.057805061 0.13222705
-0.010579377 0.055289388 0.13211213
-0.011664748 0.055224538 0.12777005
-0.018141776 0.057058692 0.11308236
-0.019768238 0.054220617 0.11402578
-0.021396726 0.051034689 0.11336956
-0.021588981 0.050001264 0.10959081
-0.023874491 0.046601057 0.10952378
-0.023225516 -0.036747158 0.10752057
-0.025060028 -0.038018584 0.11018007
-0.022553205 0.04990685 0.10496349
-0.024325967 0.045235753 0.10455359
-0.025968492 -0.036347091 0.10671481
-0.024481207 0.049932241 0.10111288
-0.02646488 0.044446588 0.10133157
-0.027115852 -0.03478384 0.10140543
-0.028394103 0.043797612 0.096870668
-0.031064123 0.040662646 0.097580202
-0.028722644 0.04366982 0.093117401
-0.031823993 0.039213836 0.092694208
-0.034193486 0.036018193 0.091493383
-0.034716696 -0.032389283 0.092997119
-0.032439798 0.03790307 0.087338462
-0.034604192 0.034651995 0.087107942
-0.037589163 -0.026115 0.086512193
-0.036565632 -0.031180382 0.089266017
-0.034392297 -0.034744918 0.08698608
-0.035260201 0.033073187 0.084120609
-0.037044674 0.031400681 0.082929678
-0.036740124 -0.025683403 0.082228996
-0.036530554 -0.029350042 0.082099296
-0.038498521 0.030256629 0.079397328
-0.04102999 0.027169347 0.079762824
-0.040343195 -0.020510316 0.079303123
-0.038084954 -0.025726795 0.078898378
-0.040376008 0.029946804 0.074865051
-0.041998088 0.027049243 0.075288124
-0.044403315 -0.012378097 0.074996032
-0.042946696 -0.015494585 0.074892975
-0.040887833 -0.018801093 0.074813582
-0.041760832 0.029196858 0.070601054
-0.044445634 0.02595675 0.069693722
-0.046569318 0.019623399 0.069915749
-0.046362191 0.015079379 0.069773741
-0.045560479 -0.010410547 0.070621409
-0.043748498 -0.014662385 0.069745131
-0.045761883 0.024008334 0.066457666
-0.045783073 0.019487858 0.065665551
-0.046591192 0.014405489 0.065424033
-0.04814741 0.010123849 0.066105403
-0.048668563 0.0055682063 0.064322919
-0.049602926 -0.00011873245 0.065195717
-0.047705919 -0.0055587292 0.065487958
-0.045933545 -0.01008749 0.065854765
-0.044725657 -0.012954533 0.066255309
-0.047075808 0.014815331 0.061023772
-0.048594117 0.010802746 0.061366558
-0.049188256 0.0054666996 0.061591119
-0.049662322 0.00011688471 0.06175819
-0.047658145 -0.005284667 0.060955405
-0.048726797 0.0097379088 0.058434218
-0.04880777 0.005218029 0.058425009
-0.04863447 -0.00025045872 0.058284968
-0.017002076 0.05509758 0.11164597
-0.018024772 0.054834187 0.10819266
-0.018391788 0.05418551 0.10329474
-0.021695912 0.049746037 0.10286707
-0.023681343 0.049059153 0.09921775
-0.02519691 0.046230555 0.097492017
-0.024032712 0.047757328 0.093112811
-0.025734305 0.046170473 0.094795629
-0.027305514 0.044567943 0.090008035
-0.029796839 0.040907979 0.089646831
-0.02881676 0.043748975 0.08561144
-0.030978173 0.040133715 0.085843153
-0.033667654 -0.031422734 0.08474452
-0.032463998 -0.035221577 0.085160531
-0.030190647 0.043007493 0.081333466
-0.031825006 0.039433062 0.080985822
-0.033914834 0.035500884 0.081027545
-0.033337384 -0.031806111 0.080665626
-0.033539623 -0.0351578 0.080967851
-0.033288598 0.039289594 0.075927563
-0.035252631 0.035705686 0.076841213
-0.037059098 -0.025525808 0.075813182
-0.035888731 -0.029869914 0.076889493
-0.035081625 -0.034503341 0.07747025
-0.035153717 0.038817167 0.071317174
-0.03728193 0.035251737 0.072988488
-0.039038002 0.03203702 0.073011316
-0.039326876 -0.021613717 0.073190011
-0.037520856 -0.024400711 0.073727943
-0.036254942 0.038818002 0.068840243
-0.038578033 0.035375714 0.067882188
-0.040726006 0.030774653 0.068161316
-0.043213338 -0.016718864 0.067498602
-0.040578544 -0.019793749 0.068235137
-0.038636476 -0.02274394 0.069300152
-0.040208131 0.029533148 0.063801557
-0.042671621 0.025286913 0.063046038
-0.045164108 0.020423651 0.062835664
-0.045579821 -0.010359526 0.0627096
-0.043987721 -0.015294552 0.063652962
-0.041578472 -0.019837499 0.063130319
-0.043204099 0.023618698 0.058957338
-0.04519558 0.019837558 0.059143722
-0.045717865 0.016597509 0.058074862
-0.046336293 -0.0098391175 0.058837771
-0.044688433 -0.015051186 0.058824271
-0.042645037 -0.01923275 0.059244514
-0.045645177 0.019718289 0.054405421
-0.047029436 0.015423298 0.055116534
-0.048821926 0.010766149 0.05592522
-0.048267305 0.0049703121 0.05559805
-0.048475176 -0.00047206879 0.055211544
-0.047789812 -0.0050673485 0.055833548
-0.046715111 -0.0098746419 0.054269433
-0.046047091 -0.013567805 0.054913044
-0.047598153 0.014662445 0.051946968
-0.048462301 0.010186613 0.051311821
-0.048635066 0.0044665337 0.050903589
-0.048627049 -1.847744e-05 0.050680131
-0.048140615 -0.0040552616 0.051205546
-0.047809988 -0.0080657005 0.051806688
-0.01520741 0.055144548 0.10056702
-0.015947074 0.053578258 0.097599931
-0.019756794 0.05021596 0.096223041
-0.01814869 0.04901433 0.092595831
-0.024461806 0.047607183 0.088395879
-0.026157439 0.047597051 0.084210612
-0.027506769 0.045885503 0.083797313
-0.024932742 0.047301412 0.079721369
-0.028659731 0.044570446 0.078698792
-0.030018896 0.04306668 0.075988568
-0.031162798 0.041248143 0.073507257
-0.033511311 -0.029669404 0.072856762
-0.029934049 -0.032970726 0.073201872
-0.031863511 0.041315198 0.069250382
-0.034341574 -0.026161075 0.069292255
-0.0323475 -0.029141903 0.070348538
-0.035270691 0.040116549 0.066079356
-0.037043095 -0.023277462 0.06557823
-0.035961032 0.039093375 0.062059104
-0.037648857 0.034978271 0.061466247
-0.039728135 0.030155897 0.060889602
-0.04124856 -0.021173298 0.060567379
-0.037164122 -0.023634315 0.060632765
-0.037476361 0.032937646 0.057356805
-0.039689451 0.029255629 0.05660364
-0.041922212 0.02498579 0.056562871
-0.043479711 -0.015720606 0.055671483
-0.041108131 -0.020130277 0.056507021
-0.040764868 0.028450906 0.051827252
-0.042705446 0.024630308 0.051995665
-0.043814719 0.021778226 0.051540136
-0.043414474 -0.015109301 0.051626533
-0.041735053 -0.018094599 0.051797777
-0.044257343 0.019366622 0.048771739
-0.045785129 0.015413642 0.048490465
-0.047927111 0.0099226832 0.048034221
-0.04813838 0.0053972006 0.048088431
-0.048130125 0.00083631277 0.048035324
-0.047146291 -0.0052306652 0.04799515
-0.046580791 -0.0099436045 0.049179822
-0.046528488 0.018612266 0.043404602
-0.047351241 0.015077174 0.043769978
-0.048708141 0.0098046064 0.04437843
-0.048699945 0.0045694709 0.044570535
-0.04754746 -6.1750412e-05 0.04341235
-0.047216237 -0.0048199296 0.043740772
-0.045621604 -0.008870244 0.044687361
-0.048410684 0.019469857 0.038255952
-0.048341215 0.015316129 0.039395474
-0.048178971 0.0099077225 0.03956046
-0.048456967 0.005212307 0.039478205
-0.048632264 0.0022318363 0.040209375
-0.010915428 0.055848837 0.096513845
-0.012687445 0.053609133 0.093786106
-0.015219152 0.050606728 0.093343154
-0.013480067 0.053544521 0.090174541
-0.016479731 0.049841046 0.089534357
-0.015401602 0.052161574 0.085538097
-0.018834442 0.049696207 0.085009046
-0.020528674 0.049479246 0.080192007
-0.022688538 0.0478912 0.076753058
-0.023720473 0.047005951 0.075210728
-0.025839329 0.04494226 0.072150059
-0.027450234 -0.035776138 0.070862271
-0.02850914 0.044386744 0.067356743
-0.03230536 -0.027629972 0.06635467
-0.030317098 -0.030835748 0.067012526
-0.02778554 -0.035265028 0.067419268
-0.02999866 0.044349313 0.063028902
-0.032842338 0.041885674 0.063312829
-0.03351897 -0.025790393 0.063929349
-0.030811042 -0.028745651 0.062986135
-0.031848162 0.043475032 0.0598571
-0.033780754 0.040572524 0.05905214
-0.034207791 -0.026042581 0.059229881
-0.034184456 0.039073646 0.054660499
-0.036532223 0.034772038 0.054665148
-0.038477123 0.031042635 0.053786457
-0.03959161 -0.021025777 0.053767174
-0.036096931 -0.024721444 0.054591566
-0.036432147 0.038397908 0.048845291
-0.037990898 0.034457505 0.04955107
-0.040275276 0.029944062 0.049791813
-0.042272568 -0.01638186 0.049047798
-0.039783984 -0.020919144 0.049533844
-0.037554801 -0.024401963 0.049729735
-0.038458943 0.033068061 0.045029879
-0.039605021 0.029829979 0.045212567
-0.041342616 0.025472879 0.046009481
-0.042571157 0.02134788 0.046224773
-0.042154551 -0.01478827 0.045971841
-0.0400213 -0.019782782 0.044882804
-0.04066813 0.029286504 0.041149341
-0.042612195 0.025388122 0.041552983
-0.044372469 0.021047294 0.042371117
-0.045936793 -0.0072582364 0.040803038
-0.045150876 -0.010222554 0.042007975
-0.042843699 -0.01477623 0.04148557
-0.041212082 -0.018861294 0.042423032
-0.0425933 0.028857648 0.037504874
-0.045727909 0.025507212 0.036985748
-0.047183394 0.020940661 0.037660293
-0.048182011 0.014311552 0.03655874
-0.048157275 0.0098861456 0.036667429
-0.048275471 0.0056346655 0.036815725
-0.047693312 -0.00013250113 0.037429057
-0.047471315 -0.0051823854 0.037772201
-0.045453221 -0.010005593 0.036166869
-0.043987751 -0.01392442 0.03704872
-0.046942919 0.029038608 0.031503126
-0.047833204 0.026260853 0.032738589
-0.046156943 0.01983732 0.033051692
-0.048266232 0.014554441 0.032593571
-0.04837209 0.010320723 0.031721972
-0.048790157 0.0054168701 0.032171391
-0.048334271 -0.00017261505 0.031879954
-0.047763169 -0.0048675537 0.03153988
-0.047457695 -0.0086024404 0.031344645
-0.048939019 0.014390528 0.028249906
-0.049041688 0.010286093 0.027023809
-0.048777729 0.0051631927 0.028064655
-0.049054205 -0.00031358004 0.028144525
-0.049062371 -0.0049140453 0.028097289
-0.050760865 0.012594163 0.025052415
-0.0088303089 0.057273746 0.089732841
-0.010756016 0.054736137 0.091508135
-0.0096080303 0.057246566 0.087084755
-0.012860179 0.054210901 0.08724685
-0.011536151 0.057263494 0.082935102
-0.014769077 0.054085493 0.08305154
-0.01467365 0.057968736 0.077984817
-0.016229212 0.054035246 0.078207947
-0.017445266 0.051080763 0.076467253
-0.018441975 0.050127149 0.073298462
-0.020231783 0.048301816 0.069667943
-0.02304402 0.046728969 0.069913603
-0.022156894 0.048275232 0.064505488
-0.025148004 0.04676187 0.065851159
-0.027754694 -0.035846412 0.064859122
-0.026979327 -0.037905812 0.063813835
-0.024601698 0.048305511 0.059573144
-0.027333915 0.046282768 0.060310453
-0.028683424 -0.031169713 0.059967279
-0.027586669 -0.035257936 0.061099142
-0.026961565 -0.038075686 0.061790586
-0.028458148 0.045203209 0.056075603
-0.029790848 -0.030293584 0.056317955
-0.028034478 -0.033805966 0.055257827
-0.029893517 0.043705225 0.052276433
-0.033219814 0.04053247 0.052399874
-0.03394857 -0.026637077 0.052038133
-0.031056345 -0.030274212 0.051933318
-0.030062407 -0.032876134 0.051147014
-0.03457135 0.040658355 0.047975361
-0.035505265 -0.026300669 0.047203988
-0.032967925 -0.029583454 0.047818154
-0.035182059 0.038842797 0.042432599
-0.037030637 0.035136819 0.042592458
-0.038704723 0.032324672 0.041749083
-0.037956089 -0.023941994 0.042816423
-0.037604332 0.03451556 0.038509183
-0.039438397 0.031352282 0.039036475
-0.040641576 -0.017421544 0.03807842
-0.040251821 -0.020329475 0.039488576
-0.038336903 -0.024176836 0.038915418
-0.039912462 0.033939719 0.034179799
-0.041924298 0.030729651 0.034891538
-0.042547017 -0.015914798 0.034537159
-0.040405333 -0.019575596 0.034352712
-0.042145431 0.031215072 0.030131029
-0.045127273 -0.011786103 0.030131599
-0.044345528 -0.014699817 0.029704204
-0.042841494 -0.017753243 0.028910538
-0.047549397 0.012336373 0.027518379
-0.04825151 0.004950881 0.025736587
-0.048616737 -0.00051903725 0.025862413
-0.048713982 -0.0051117539 0.025860744
-0.047080159 -0.0099451542 0.02599998
-0.045895219 -0.014495611 0.024999904
-0.048289388 0.0096510649 0.02202438
-0.048504919 0.0047388673 0.021736311
-0.048467815 0.00011491776 0.021664696
-0.048431426 -0.004263103 0.021855252
-0.047321975 -0.010113418 0.023027258
-0.045929611 -0.014067233 0.022266256
-0.0094545484 0.057162166 0.085029997
-0.012212038 0.057225943 0.080234803
-0.013781667 0.05717206 0.074916996
-0.014627486 0.057595968 0.071780212
-0.015547097 0.054429293 0.071654595
-0.015887201 0.05164957 0.070773877
-0.014886975 0.053287446 0.067322083
-0.016905546 0.050842524 0.066588499
-0.0192976 0.04981482 0.063219458
-0.020619363 0.049723506 0.057748824
