# .PCD v0.7 - Point Cloud Data file format
VERSION 0.7
FIELDS x y z
SIZE 4 4 4
TYPE F F F
COUNT 1 1 1
WIDTH 1345
HEIGHT 1
VIEWPOINT 0 0 0 1 0 0 0
POINTS 1345
DATA ascii
0.023303688 0.0091941357 0.31120917
0.03168869 -0.024301767 0.30611259
0.029147983 -0.013554633 0.3067618
0.030007482 -0.0092114806 0.30652657
0.02933979 -0.0041461587 0.30688891
0.02676183 0.00060772896 0.30663821
0.026914299 0.0053885579 0.30680928
0.024796724 0.0085679293 0.30657965
0.030172527 -0.0088829398 0.30316982
0.029340774 -0.0038853884 0.30244085
0.02923727 0.0010091066 0.30184704
0.028853983 0.0058752894 0.30250332
0.026919186 0.0088935494 0.30383646
0.030049145 0.0025852323 0.29846328
0.049130231 -0.0042547584 0.26513278
0.048592448 -0.00013357401 0.26551062
0.04752332 0.0028467774 0.26589191
0.053818464 -0.0091797709 0.25954536
0.052002251 -0.0044264793 0.26236773
0.050716966 0.00033628941 0.26247859
0.049523652 0.0036543608 0.26237163
0.055135638 -0.013012171 0.258068
0.055289268 -0.0088924766 0.25708437
0.054870129 -0.0039701462 0.25778976
0.053598166 0.0015535355 0.25805274
0.052626342 0.0057780147 0.25743806
0.055280954 -0.0015044212 0.25541505
0.055430651 0.0014827847 0.25326011
0.055094123 0.0064197779 0.25271341
0.054261565 0.010143876 0.25092283
0.057048291 0.00073242188 0.24951515
0.056777775 0.00604707 0.24901053
0.020379186 -0.024490952 0.31419358
0.02194339 -0.022561193 0.31755221
0.02058211 -0.016848266 0.31905606
0.0234828 -0.024176836 0.31233919
0.023367345 -0.021971107 0.31469831
0.025000036 -0.023783028 0.30871406
0.026690125 -0.022114575 0.3090196
0.028557658 -0.024422169 0.30420548
0.026618361 -0.020091474 0.30442446
0.027028739 -0.015343785 0.30347407
0.025276482 -0.013250232 0.29976466
0.026878923 -0.0098951459 0.29909107
0.026991695 -0.0052030087 0.29854858
0.027511537 -0.0017287731 0.2981644
0.026978314 0.0053911805 0.29908901
0.02509138 0.0077844262 0.2988601
0.026598275 -0.0079425573 0.29547039
0.026183605 -0.0042880774 0.29513255
0.027261317 0.00038683414 0.29481608
0.026406825 0.0049893856 0.29508823
0.038760245 -0.011262417 0.27548864
0.037594557 -0.007330358 0.27620998
0.037017345 -0.0024327636 0.27549711
0.035849094 0.0023807287 0.27546042
0.04157424 -0.014864683 0.27192664
0.040824205 -0.011509895 0.272508
0.040716171 -0.0069000721 0.27286619
0.040360868 -0.002083838 0.27298602
0.038800508 0.0027184486 0.27287284
0.036783427 0.0073449016 0.27246571
0.03616488 0.010816336 0.27188721
0.043848336 -0.014813721 0.26800722
0.043607652 -0.011228561 0.26850134
0.044534981 -0.0063838959 0.26887998
0.044712722 -0.0015696883 0.26910877
0.042859972 0.0032217503 0.26893389
0.039828539 0.0080184937 0.26852629
0.038370669 0.012254953 0.2677719
0.047691822 -0.01861304 0.26265389
0.04655093 -0.015118361 0.2643885
0.047205031 -0.010709763 0.26447606
0.049010575 -0.0064421296 0.26554692
0.047753453 -0.002025187 0.26653019
0.046068281 0.0048766136 0.26528412
0.043302774 0.0085104704 0.26447579
0.041343391 0.013318896 0.26427656
0.039712131 0.016974807 0.26369762
0.050316304 -0.018920124 0.25839314
0.050246298 -0.014812768 0.25995213
0.050925612 -0.010460496 0.26093256
0.051298827 -0.0071211457 0.26228514
0.047573805 0.0058033466 0.26046824
0.045529962 0.0090017319 0.26017767
0.043487608 0.013811827 0.25995594
0.042001307 0.017988563 0.25936681
0.052666008 -0.018498182 0.25490746
0.053789556 -0.014693379 0.25591454
0.055400461 -0.011257052 0.25660768
0.054984033 -0.0063086748 0.25514033
0.052092463 0.0080583692 0.25514808
0.049456179 0.0099257827 0.25648746
0.046587706 0.014493346 0.25552538
0.044664919 0.018322706 0.25445694
0.054876924 -0.017539799 0.25077665
0.05546242 -0.014167607 0.25137636
0.055986434 -0.0091991425 0.25203332
0.05414474 -0.0045074224 0.25125596
0.055650592 -2.2172928e-05 0.25130486
0.052801728 0.0082215071 0.2537128
0.051948249 0.011313736 0.25206661
0.049704432 0.014786005 0.25173026
0.0471614 0.018977165 0.24975434
0.056697488 -0.016725421 0.24623057
0.056533039 -0.013336599 0.24612883
0.055712163 -0.0086853504 0.24637726
0.054814279 -0.0036664605 0.24592307
0.056209683 0.00090032816 0.24753138
0.056788862 0.0058428049 0.24648586
0.054223597 0.010694265 0.2475349
0.051588684 0.015487313 0.24677902
0.049204022 0.019682169 0.24594846
0.057627857 -0.011499882 0.24265036
0.056965768 -0.0082892776 0.24264899
0.056666076 -0.0028730631 0.24144953
0.057017386 0.0014377832 0.24230903
0.057423532 0.0061668158 0.24343061
0.054891557 0.011050045 0.24227187
0.052987903 0.015535653 0.24177626
0.051120758 0.018996596 0.2425873
0.058297396 -0.0018572807 0.23787117
0.057663321 0.0019155741 0.23763359
0.057162315 0.0068436861 0.2382375
0.055745184 0.010743141 0.23760721
0.022517264 -0.021525741 0.30022746
0.024246186 -0.017458677 0.30102423
0.023467302 -0.019697249 0.29848155
0.024119139 -0.015900552 0.29764292
0.025462985 -0.012147427 0.29670733
0.023679286 -0.014324546 0.29320115
0.026384711 -0.010290861 0.29284853
0.02647543 -0.0046007633 0.29223379
0.026120633 -0.0011234283 0.29170439
0.027510017 -0.013501883 0.28600311
0.028073519 -0.0095901489 0.28781775
0.027703047 -0.0039411187 0.28795165
0.026628017 0.00097358227 0.28850847
0.025575608 0.0056298375 0.28870288
0.025741816 0.009093225 0.28649369
0.029975742 -0.013519585 0.28288323
0.029953152 -0.0093123913 0.28328323
0.029994816 -0.0037866831 0.28379193
0.029124677 0.0011976957 0.28346121
0.027158916 0.005355835 0.28385153
0.02583921 0.0083479881 0.28332728
0.034429014 -0.018676102 0.27819848
0.034311771 -0.014048815 0.27930138
0.033516943 -0.0085476637 0.27988663
0.032713234 -0.0030274391 0.2802074
0.031578302 0.0017944574 0.28017783
0.030343592 0.0065176487 0.27913752
0.027450323 0.0099599361 0.2785328
0.037187785 -0.021682978 0.27320012
0.037857115 -0.018003285 0.27488273
0.03736034 -0.013055503 0.27673906
0.035775185 -0.0075888634 0.27823144
0.035385132 -0.0026845932 0.27755323
0.034004867 0.002129674 0.27747747
0.033055007 0.0071117282 0.27590531
0.03147918 0.011583447 0.2747595
0.028440714 0.01364094 0.27448842
0.040441871 -0.026032388 0.26887703
0.040766478 -0.022689342 0.27046871
0.041082084 -0.017907262 0.27144668
0.039987057 -0.013507605 0.27405199
0.034558058 0.0089652538 0.27388436
0.034746438 0.013439178 0.27123895
0.031959534 0.016183972 0.27008924
0.043629378 -0.026014626 0.26591647
0.044077307 -0.022044718 0.26640695
0.043475986 -0.017663419 0.26795071
0.037123859 0.013313353 0.26873326
0.035592735 0.017829239 0.26648909
0.033372283 0.021108747 0.26577955
0.045920074 -0.025963187 0.26198456
0.046793669 -0.021288812 0.26235861
0.047233403 -0.017011285 0.2626268
0.039029062 0.019470334 0.26286426
0.037137747 0.02271229 0.26198414
0.033601016 0.024806082 0.26157504
0.049263716 -0.025431097 0.25789386
0.049801707 -0.021844029 0.25838873
0.041425288 0.020406067 0.25820687
0.039067686 0.023645043 0.2578499
0.036090523 0.027085543 0.2557629
0.051304668 -0.029008806 0.25335273
0.051978648 -0.025734663 0.2536408
0.052095562 -0.021679938 0.25384361
0.04326427 0.020905375 0.25381011
0.041472763 0.024136901 0.25356671
0.039237022 0.02738446 0.25322887
0.054420412 -0.028483152 0.24921885
0.054306686 -0.02524209 0.24934044
0.054204762 -0.020571291 0.24932688
0.046148926 0.021391034 0.24963984
0.043830931 0.024630308 0.24927416
0.041793704 0.028321922 0.24858651
0.054171205 -0.028228402 0.24594375
0.055666089 -0.024409533 0.24465564
0.056123972 -0.019569278 0.24500212
0.048742861 0.021463394 0.24431285
0.04575038 0.02490896 0.24507353
0.042959392 0.028212786 0.24601331
0.056948483 -0.019154668 0.24036548
0.057468414 -0.013751924 0.24056607
0.05749917 -0.0080546141 0.24035719
0.05671078 -0.0048443079 0.24032637
0.052269369 0.017727017 0.23955771
0.049726129 0.021012247 0.2405405
0.046973854 0.023862243 0.241864
0.058812648 -0.017360151 0.23616126
0.058933318 -0.013813376 0.23573473
0.058648288 -0.0090535879 0.2363216
0.057891399 -0.0042324066 0.23621801
0.057201266 0.0021494031 0.23510095
0.057088256 0.0061712265 0.23527023
0.055136681 0.012339234 0.23607996
0.053306401 0.016456962 0.23649564
0.050342768 0.020264208 0.23570654
0.049052745 0.022755086 0.23742291
0.058878183 -0.013684273 0.23146498
0.059452176 -0.0088860393 0.23265645
0.05784899 -0.0036132336 0.23264667
0.057639182 0.0020019412 0.23177761
0.056713343 0.0067669153 0.2310738
0.055834472 0.011619151 0.23123905
0.053827912 0.016103804 0.23226193
0.051991224 0.018592358 0.23139825
0.018193066 -0.023122013 0.29751736
0.02094391 -0.020306349 0.29490703
0.022592783 -0.016933084 0.2945058
0.0222435 -0.018955708 0.28964421
0.023572981 -0.016120195 0.29102096
0.024858654 -0.018823862 0.28495142
0.025785595 -0.015315413 0.28721747
0.027448297 -0.022773623 0.28010336
0.027870357 -0.019788504 0.28128424
0.028787732 -0.015805662 0.28329965
0.023435682 0.010203123 0.2816959
0.023392439 0.014010429 0.28045148
0.031024665 -0.023452163 0.27652279
0.03120178 -0.019252896 0.27932724
0.025091887 0.011452138 0.27934539
0.024079978 0.014906704 0.27721992
0.020199835 0.019545317 0.27681074
0.034706354 -0.027781963 0.27129012
0.034834504 -0.023799717 0.27362615
0.034008265 -0.020439625 0.2758289
0.026875257 0.01636833 0.27302155
0.023815751 0.019829154 0.27171817
0.02235347 0.025358021 0.27058434
0.037101686 -0.030995369 0.26722175
0.038327515 -0.028332472 0.26890466
0.037510991 -0.024785995 0.27154773
0.029832184 0.017365932 0.2701197
0.027613759 0.02096951 0.26843125
0.024932772 0.025672317 0.26789171
0.023579001 0.028837144 0.268554
0.039612651 -0.031186521 0.26337528
0.041585237 -0.02816087 0.26582038
0.030458033 0.022714078 0.26566106
0.028497815 0.026327968 0.26401246
0.026285827 0.029510438 0.2626912
0.042203277 -0.030869603 0.25940821
0.044419885 -0.028393865 0.26077303
0.031306803 0.027084529 0.26039559
0.028569072 0.030367911 0.25876066
0.045312136 -0.031373978 0.25496402
0.047025681 -0.027888656 0.25651366
0.034087777 0.027982652 0.25634465
0.031285137 0.032021403 0.2549589
0.030048013 0.03594023 0.25378612
0.047261059 -0.033951998 0.25064424
0.049416363 -0.031402588 0.25122526
0.037712634 0.029203475 0.25136608
0.034946263 0.032486618 0.2509113
0.032242209 0.036680341 0.24969813
0.050144553 -0.033840656 0.24641171
0.052424133 -0.030878246 0.2470527
0.039635241 0.029708683 0.2469582
0.037373602 0.03275758 0.24679703
0.033213764 0.036935568 0.24748573
0.051985383 -0.03295809 0.24198195
0.053319365 -0.029630303 0.24243936
0.055079997 -0.0256657 0.24194327
0.044133991 0.025517464 0.24129018
0.04099375 0.028843105 0.24214956
0.037780404 0.032330215 0.24287137
0.054084957 -0.02952832 0.23772934
0.055753767 -0.024239242 0.23836967
0.056763977 -0.020811021 0.2371411
0.044976681 0.025056839 0.23820767
0.041315377 0.028153896 0.23782942
0.055924475 -0.027907073 0.23332998
0.056814969 -0.02379024 0.23374322
0.057659805 -0.019321382 0.23392901
0.048846364 0.021589994 0.23324117
0.046930552 0.024755239 0.23375562
0.043791652 0.028443217 0.23318809
0.057344735 -0.026763976 0.23044607
0.057629347 -0.0235461 0.2292144
0.057739347 -0.018450618 0.22931197
0.057718575 -0.013495028 0.22873548
0.057183653 -0.0086316466 0.22884831
0.056626767 -0.0037732124 0.22895566
0.056865066 3.4868717e-05 0.22893205
0.053177536 0.015956998 0.22893718
0.049679697 0.02063036 0.22909442
0.04736203 0.025060654 0.22916159
0.044753879 0.028384149 0.23013279
0.058649302 -0.022219837 0.22605881
0.05800426 -0.017775059 0.22546557
0.057684332 -0.012944698 0.22484913
0.057460696 -0.0082508326 0.22482726
0.057719111 -0.0033718348 0.22514138
0.057370067 0.0014871955 0.22530213
0.05550766 0.0063357353 0.22508508
0.05442661 0.011189222 0.22506344
0.052511454 0.016050756 0.22483519
0.050133169 0.01973176 0.22553065
0.058756411 -0.0069588423 0.2202709
0.058280766 -0.0028990507 0.22036162
0.058642954 0.0019747615 0.22070861
0.056144536 0.0068277121 0.22032619
0.054244936 0.011609077 0.2209191
0.052753836 0.016392708 0.22161648
0.060177147 -0.0058158636 0.21738639
0.059991151 -0.0022226572 0.21634594
0.059810609 0.0026574135 0.21575379
0.057913274 0.0066086054 0.21646681
0.061074674 0.0034404397 0.2120358
0.060106277 0.0061970949 0.21137506
0.018806547 -0.022309661 0.29330257
0.02008009 -0.021426737 0.28865889
0.021674097 -0.025415897 0.28189245
0.022206306 -0.021779299 0.28451073
0.024943292 -0.026344955 0.2791732
0.025135338 -0.023060918 0.28206494
0.027201593 -0.029237986 0.27381548
0.028340071 -0.026489437 0.27613616
0.020617008 0.019996524 0.27485085
0.018564552 0.023624897 0.27500278
0.017784595 0.026517153 0.27456596
0.03068921 -0.033116937 0.26829478
0.03153652 -0.030634463 0.2708104
0.031454623 -0.0269171 0.27350375
0.021313906 0.021061718 0.27262187
0.020940691 0.024267256 0.27155328
0.020439148 0.027728617 0.27111045
0.034760237 -0.034295559 0.26555285
0.022576392 0.029941142 0.26598978
0.036625028 -0.037596405 0.26013571
0.038040578 -0.034387231 0.26244274
0.024177253 0.03126657 0.26153058
0.022911191 0.034356117 0.26093787
0.039126873 -0.037449956 0.25687426
0.041050673 -0.033987224 0.25788394
0.026899904 0.031571865 0.25886959
0.025928736 0.035194099 0.2574062
0.022113085 0.038268924 0.25735077
0.042399198 -0.036716342 0.25239822
0.04275924 -0.033729434 0.25455245
0.029209673 0.036628187 0.252556
0.024127126 0.038780928 0.25291952
0.045036256 -0.036584198 0.24874213
0.030827463 0.039334059 0.2478815
0.047974229 -0.03588891 0.24447563
0.031989813 0.036512733 0.24420571
0.049586654 -0.035405993 0.23968485
0.036058545 0.032746315 0.23922989
0.032479405 0.035289764 0.24071571
0.050985217 -0.034573436 0.23553413
0.05333209 -0.031967163 0.23579916
0.041255563 0.029434681 0.23509422
0.038046241 0.031393111 0.23566496
0.051723063 -0.033771276 0.23121819
0.054720461 -0.03073293 0.23102644
0.042942196 0.029948533 0.23059443
0.039910376 0.031905174 0.23119697
0.055920362 -0.029012978 0.22669226
0.057162166 -0.0256145 0.22634414
0.047690332 0.022402227 0.225611
0.046732932 0.025595605 0.22608596
0.04374218 0.028772712 0.22661033
0.040647238 0.031900108 0.22766235
0.055621505 -0.028758168 0.22332209
0.05728662 -0.024260998 0.22251701
0.058145553 -0.019691348 0.22255519
0.05747965 -0.014860392 0.22185189
0.057105362 -0.010401309 0.22132674
0.049823463 0.020494819 0.22241166
0.046586066 0.024399042 0.22212985
0.044764161 0.027495384 0.22349116
0.056841314 -0.022546113 0.21896923
0.057474941 -0.019172072 0.21847567
0.057569861 -0.014181674 0.21793035
0.058259487 -0.0097070336 0.21810731
0.054470032 0.011133194 0.21764073
0.052925706 0.015654802 0.21831146
0.050753951 0.020228982 0.21778759
0.047384202 0.023661137 0.2177287
0.058725119 -0.0083566904 0.21378842
0.059797525 -0.0040743351 0.21358714
0.060018301 0.00034493208 0.21269664
0.057913303 0.0075207949 0.21386066
0.056454062 0.010939837 0.21399495
0.055018783 0.015614629 0.2138702
0.051997542 0.020292997 0.21353894
0.058348745 -0.006867826 0.2101953
0.059092999 -0.0029371977 0.20949358
0.060968518 0.0016832352 0.20950672
0.060313046 0.0069578886 0.20925164
0.058627248 0.011236072 0.20959127
0.055123895 0.015531778 0.20944795
0.053051442 0.019230604 0.21021345
0.05980888 0.0022440553 0.20565042
0.05974704 0.006771028 0.20546716
0.05787766 0.01157546 0.20606661
0.025029898 -0.043951392 0.2748633
0.021609008 -0.039285719 0.27601743
0.02149722 -0.035679579 0.27586296
0.022270739 -0.031003416 0.27671668
0.026178479 -0.045421839 0.27340937
0.024706125 -0.035436571 0.27189869
0.025427878 -0.031404197 0.27380115
0.027011573 -0.045009434 0.26873222
0.027906716 -0.038140118 0.26674554
0.028103173 -0.035480857 0.26823765
0.030727088 -0.043313503 0.26303819
0.030871421 -0.039551973 0.26342186
0.030790001 -0.034630239 0.26664004
0.033186257 -0.043346643 0.25888392
0.034152865 -0.039518893 0.25998276
0.035300404 -0.041718483 0.2550799
0.036051959 -0.039958835 0.25449628
0.037892461 -0.041143119 0.24993178
0.039104104 -0.039072096 0.2510998
0.040600479 -0.040623665 0.24562502
0.04230991 -0.038878024 0.24608061
0.042861819 -0.040128231 0.24122015
0.043812782 -0.038422406 0.24151364
0.02907154 0.037426114 0.241135
0.025790989 0.040058672 0.24204803
0.044666171 -0.039782166 0.2383512
0.045664489 -0.038362861 0.23699805
0.029735625 0.036561847 0.23685569
0.026354402 0.038915396 0.23783979
0.048599809 -0.036592126 0.23281488
0.034203053 0.033928871 0.23364827
0.029872835 0.036124408 0.23356283
0.050344348 -0.035295546 0.22833034
0.036437064 0.034057856 0.22873303
0.033845454 0.035333395 0.22617635
0.052221477 -0.033162773 0.22391453
0.052660942 -0.031556129 0.22493359
0.039848447 0.030574441 0.2249158
0.037985474 0.032341003 0.22371373
0.052059919 -0.032908678 0.22055531
0.054144681 -0.02918762 0.21981183
0.055414051 -0.025958061 0.21926019
0.042191178 0.028908491 0.22042802
0.053957641 -0.028289318 0.21626377
0.055592179 -0.023988008 0.21557215
0.056467593 -0.018918395 0.21489927
0.056010902 -0.01557076 0.21412483
0.04529044 0.025866568 0.21605608
0.044332385 0.027921796 0.21591833
0.055943668 -0.022522151 0.21150216
0.055862665 -0.018651307 0.21141019
0.056085825 -0.013806581 0.21130982
0.056570649 -0.0098848939 0.21081418
0.049480081 0.021629989 0.21023434
0.046144068 0.024267673 0.21201071
0.044328779 0.027157605 0.21169278
0.055649221 -0.013347328 0.20744422
0.056575716 -0.0080506206 0.20651218
0.057970643 -0.0045179725 0.20687285
0.052949488 0.017335951 0.2063953
0.050248206 0.02023381 0.20650068
0.056831717 -0.0079259872 0.20300999
0.0579409 -0.0027502775 0.20292774
0.057807684 0.0019176006 0.20193374
0.05683288 0.0070940256 0.20132747
0.055618882 0.011694551 0.20230588
0.053851038 0.015660048 0.20267621
0.052247018 0.018310905 0.20323226
0.058035731 0.00082492828 0.19834772
0.056129366 0.0056998134 0.19851953
0.018006802 -0.034612238 0.27714399
0.020368725 -0.041952729 0.27353084
0.020950675 -0.03859663 0.27376637
0.018595934 -0.032926917 0.27731389
0.023713022 -0.046866655 0.26802337
0.022550315 -0.042280793 0.26980796
0.022249192 -0.038808227 0.27049264
0.025435328 -0.044917047 0.26599249
0.025812745 -0.041357577 0.26655671
0.024671078 -0.038494349 0.26853532
0.029347211 -0.044387758 0.2627182
0.031532645 -0.045855403 0.25657228
0.033226728 -0.044203877 0.25290078
0.034536064 -0.041573942 0.25247225
0.035031497 -0.044547439 0.24806869
0.037341535 -0.047222316 0.24130341
0.037871718 -0.0440377 0.24404457
0.040536582 -0.043538451 0.23998576
0.023356259 0.041674972 0.23893508
0.042475879 -0.043040156 0.23520997
0.044048876 -0.039563954 0.23491356
0.025324464 0.041076899 0.23522204
0.023622781 0.044975042 0.23307541
0.044703215 -0.041711807 0.23081404
0.045390785 -0.039241672 0.2319282
0.029009461 0.03735894 0.23142949
0.027427256 0.041109979 0.23136112
0.026182294 0.04520911 0.23091915
0.046539307 -0.040960073 0.22629407
0.047530353 -0.03834331 0.2264986
0.030549794 0.037392259 0.22666529
0.029425085 0.041518688 0.22755113
0.028723061 0.044899106 0.22873822
0.046376884 -0.040099621 0.2221179
0.048764944 -0.036249042 0.22206649
0.033571869 0.034278095 0.22104773
0.048513383 -0.034605026 0.2179006
0.050989687 -0.032280207 0.21697053
0.036432296 0.032765806 0.21813098
0.05215916 -0.030814052 0.21286884
0.053515166 -0.027275622 0.21368977
0.040486604 0.029923499 0.21318832
0.037922859 0.031741917 0.21447244
0.05447948 -0.028487921 0.20882949
0.054427475 -0.025564611 0.20925578
0.055069506 -0.020112753 0.20860192
0.043091595 0.024600387 0.2078619
0.041963428 0.028409243 0.20911887
0.054736555 -0.024054527 0.20576629
0.054613233 -0.019639373 0.20451581
0.055183589 -0.015055656 0.20505756
0.055269986 -0.010907531 0.20466882
0.048543274 0.021450579 0.20408759
0.046400726 0.022940278 0.20527944
0.054966241 -0.014425457 0.2004396
0.055849046 -0.0096969604 0.20010242
0.055858791 -0.0052396059 0.20035952
0.052366018 0.015384793 0.19972131
0.049843192 0.020569682 0.20016414
0.047300458 0.023468554 0.20047739
0.056071341 -0.0077396631 0.19603226
0.056290478 -0.0038221478 0.1959798
0.057318538 0.0010355115 0.19587144
0.055882096 0.0058846474 0.19655418
0.054348946 0.010793924 0.19661993
0.051818401 0.015650511 0.19557169
0.049989581 0.01904124 0.19587377
0.056596041 0.0012550354 0.19330019
0.055419087 0.0061937571 0.19325498
0.054342508 0.011133611 0.19323835
0.026461363 -0.048845708 0.25210151
0.028385788 -0.047172487 0.25422397
0.02842927 -0.048875332 0.24879739
0.029795289 -0.046846628 0.2512404
0.031450033 -0.049379826 0.24542513
0.033975154 -0.049360096 0.24107358
0.036396444 -0.048186958 0.23701045
0.037764162 -0.047094226 0.23225436
0.020210981 0.044226408 0.23501733
0.040207028 -0.045903385 0.22619274
0.041855216 -0.044313669 0.22917709
0.043933123 -0.043377519 0.22428504
0.025459588 0.037506461 0.2217204
0.025217831 0.040640652 0.22321925
0.04472661 -0.0418818 0.21937582
0.046350986 -0.038177609 0.21885192
0.027689427 0.037005007 0.21888062
0.045500934 -0.039926171 0.21449789
0.046845704 -0.036554396 0.21513003
0.034462631 0.033374906 0.21451187
0.030553401 0.036619067 0.21503177
0.047960818 -0.035331011 0.21055222
0.035562396 0.033107281 0.21106979
0.033632815 0.037068069 0.21111843
0.031382799 0.041042328 0.21018109
0.049274206 -0.033717394 0.20716947
0.050557315 -0.031453848 0.20614615
0.03986609 0.027800441 0.20548692
0.036227226 0.032508492 0.20613042
0.035631776 0.037658572 0.2059752
0.036364019 0.040848672 0.20696321
0.051042557 -0.029057503 0.20279944
0.052189767 -0.02534467 0.20182791
0.052517772 -0.021285951 0.20108268
0.042602837 0.024825633 0.20266593
0.039957345 0.028170347 0.20213503
0.037192166 0.031530499 0.2015734
0.051671088 -0.024789274 0.19826648
0.053024501 -0.01991272 0.19773751
0.054152399 -0.014150202 0.19683105
0.044763297 0.024971247 0.19773826
0.041474879 0.028467894 0.19766685
0.053873569 -0.019389272 0.19337568
0.054329813 -0.013848007 0.1934832
0.054362476 -0.0093638301 0.19318321
0.05442512 -0.0045583844 0.19234326
0.050153047 0.017746866 0.19243553
0.048207343 0.020519853 0.19332638
0.045413375 0.02422756 0.19318053
0.042571187 0.027489126 0.19342658
0.054978967 -0.014544606 0.1890575
0.054976583 -0.01005286 0.18875089
0.054528147 -0.0047571063 0.18910709
0.054481685 0.00073182583 0.18924719
0.053692043 0.0056939721 0.18931448
0.052261621 0.010378182 0.18918079
0.050343275 0.01502347 0.18869016
0.047984362 0.019489765 0.18898168
0.045691073 0.022934794 0.18975574
0.055742174 -0.01306504 0.18535325
0.05562371 -0.0093861222 0.18430921
0.055889547 -0.004581213 0.18418476
0.055384547 0.00039714575 0.18433836
0.054561585 0.0053679943 0.18439808
0.052650422 0.010338187 0.18413743
0.050344437 0.013487339 0.18537641
0.056789577 -0.0031269789 0.17970887
0.056005418 0.00086903572 0.17959139
0.055362463 0.0056421757 0.17969319
0.057313681 0.0028890371 0.17643246
0.022588313 -0.050652623 0.24954966
0.024791241 -0.055287361 0.24565676
0.025278866 -0.05199188 0.24757159
0.028916746 -0.054603577 0.24074981
0.028466821 -0.052480102 0.24374875
0.031314999 -0.053425193 0.23883262
0.031921327 -0.051628172 0.23403272
0.034412563 -0.05002439 0.23015562
0.037065029 -0.047861814 0.22651714
0.038445979 -0.046999335 0.22191897
0.040081531 -0.04554522 0.22112903
0.023200929 0.039322972 0.22041324
0.041026056 -0.04473263 0.21675521
0.023714662 0.040161729 0.21678126
0.043707967 -0.043170869 0.212641
0.028534859 0.038481832 0.21326104
0.026204586 0.041033089 0.2127991
0.024908423 0.043555677 0.21259853
0.044369757 -0.042043388 0.20854881
0.046602577 -0.038377106 0.20842195
0.045626879 -0.040555835 0.20497933
0.046916604 -0.036798596 0.20403287
0.049217045 -0.033390045 0.20291933
0.03530699 0.0338642 0.20289868
0.034421265 0.038014472 0.20289007
0.0469715 -0.034978926 0.19965801
0.049323976 -0.031634748 0.19941548
0.051053494 -0.027878761 0.19860548
0.036079764 0.033400834 0.19966766
0.034154654 0.037261069 0.19911346
0.031877249 0.040141284 0.19889918
0.049884051 -0.030820549 0.19490203
0.051804185 -0.026099145 0.19500199
0.039521635 0.029846191 0.19442198
0.036313295 0.032606244 0.1948885
0.034025252 0.035496771 0.19579425
0.051380724 -0.029768944 0.19086489
0.052575886 -0.025253832 0.19109768
0.053022295 -0.020659685 0.18997014
0.042387068 0.02630192 0.18900949
0.03996104 0.028854609 0.18984568
0.037736952 0.031000018 0.19140962
0.051919222 -0.023516417 0.18707249
0.052813113 -0.019985855 0.18581221
0.054742008 -0.015881419 0.18627116
0.046566427 0.020892143 0.18558267
0.044258207 0.024217367 0.18646595
0.041173071 0.027126551 0.18640849
0.053884774 -0.017838299 0.18106142
0.055182934 -0.014451861 0.18165049
0.056317121 -0.010474563 0.18165231
0.050094873 0.015550375 0.18348825
0.04769367 0.020071089 0.18211943
0.04495281 0.023029149 0.18091473
0.055804551 -0.014061451 0.17752442
0.056692094 -0.0086878538 0.17812154
0.056732237 -0.0050747395 0.1777806
0.056758285 0.0010586381 0.17788258
0.054314554 0.0077815652 0.17669728
0.052401066 0.010763109 0.17827544
0.050769567 0.015319109 0.17791015
0.048657119 0.018444657 0.1773943
0.056126118 -0.0020375848 0.17489341
0.055884629 0.0011892915 0.17393613
0.055227935 0.0058967471 0.17425016
0.052533776 0.0089524388 0.17275104
0.051036775 0.013039351 0.17342404
0.021504372 -0.053989351 0.24750921
0.024715036 -0.056419969 0.241409
0.026190847 -0.056951284 0.23619601
0.028584003 -0.054927111 0.23268929
0.029078424 -0.053781867 0.22905955
0.032079279 -0.051126599 0.22707936
0.033664107 -0.050611436 0.22319779
0.03557229 -0.049139738 0.2189894
0.038031459 -0.047777295 0.21456918
0.040540963 -0.051558495 0.2107465
0.040579021 -0.047908485 0.21030876
0.041869938 -0.046420991 0.20580605
0.04293561 -0.043508053 0.20547345
0.043528676 -0.041118145 0.20130324
0.045162708 -0.038573444 0.20068288
0.043500781 -0.040161014 0.19756261
0.045953244 -0.037060142 0.19742146
0.047359407 -0.03556788 0.19294304
0.049676955 -0.032571018 0.19280723
0.0343678 0.033725798 0.19176808
0.031904995 0.037689328 0.19250911
0.030988604 0.040765762 0.19352987
0.048011482 -0.034003377 0.18793064
0.050084949 -0.031352282 0.1883885
0.050790071 -0.026220918 0.18831655
0.034761071 0.032190323 0.18804273
0.032058299 0.03466469 0.18828657
0.031864166 0.039669454 0.1885244
0.0503048 -0.029948533 0.18391028
0.050641119 -0.02562952 0.18373981
0.039063931 0.029224753 0.18377706
0.036515355 0.03188777 0.18332121
0.050312847 -0.024766207 0.18045565
0.052062988 -0.020801902 0.17990628
0.042235196 0.025108516 0.1793668
0.039330751 0.028034329 0.18043041
0.05333963 -0.018870771 0.17539528
0.055003762 -0.013856053 0.17468512
0.054776847 -0.010504484 0.174826
0.046951592 0.020000696 0.17552605
0.043984205 0.023595273 0.17543796
0.053940952 -0.015074611 0.17100635
0.053918183 -0.00989604 0.17128274
0.054003358 -0.0045987964 0.17127493
0.054001242 1.3768673e-05 0.17001399
0.053992331 0.0050342679 0.17033145
0.051049352 0.010487795 0.17093644
0.049344033 0.015124321 0.17107153
0.046584278 0.019931316 0.17074874
0.044904113 0.023205817 0.17131838
0.054160446 -0.0099024773 0.16767535
0.05412674 -0.0053107142 0.16678771
0.052847713 0.00024861097 0.16704032
0.052431673 0.0051953793 0.16810766
0.050809622 0.010580659 0.16669443
0.049847692 0.015188694 0.16640896
0.047276616 0.020285308 0.16747549
0.025587559 -0.059589028 0.23473498
0.025969863 -0.056665599 0.22988686
0.028565049 -0.054435313 0.22551706
0.029189944 -0.054697752 0.2207602
0.030618757 -0.051741242 0.21626303
0.034775853 -0.052113473 0.21180877
0.034922421 -0.050459325 0.21278927
0.038891852 -0.049788058 0.20784673
0.038431525 -0.048440218 0.20436037
0.03985253 -0.043257415 0.19881406
0.039270639 -0.041964054 0.19457236
0.042308807 -0.040032387 0.19465014
0.04286167 -0.038339376 0.18969265
0.045074672 -0.035774291 0.18611822
0.048008889 -0.033803701 0.1853368
0.033986092 0.033331633 0.18528488
0.031964123 0.036764145 0.18642849
0.0297786 0.040036559 0.18534288
0.046204865 -0.035322249 0.181234
0.048941553 -0.033035934 0.1817337
0.035463393 0.033310235 0.1817939
0.031582654 0.037131906 0.18132725
0.028654754 0.041210473 0.18247104
0.047977835 -0.034838378 0.17652684
0.049114347 -0.031383693 0.17707583
0.049648046 -0.026253819 0.17733023
0.050513297 -0.022782981 0.1771464
0.03964144 0.028404415 0.17705551
0.036676764 0.032558262 0.17730185
0.032282025 0.036453247 0.17740616
0.049972355 -0.030741692 0.17232451
0.051307797 -0.025786579 0.17281917
0.052213788 -0.021293461 0.1726732
0.04350251 0.02480787 0.17186856
0.040012598 0.02803421 0.17276493
0.03682363 0.031886578 0.17321298
0.05181396 -0.028743804 0.16750455
0.052595109 -0.025314808 0.16796347
0.053536057 -0.020196974 0.16858026
0.053644836 -0.015434504 0.16759986
0.044340789 0.024533272 0.16824421
0.040656626 0.027840436 0.16837516
0.052614987 -0.019934654 0.16478555
0.052608967 -0.014507234 0.16358764
0.054104328 -0.0095940232 0.16415648
0.053375155 -0.0038430095 0.16394849
0.052065909 0.00056946278 0.16329451
0.050683618 0.0055244565 0.16406353
0.050756395 0.0095019341 0.16375829
0.048954934 0.017279565 0.1642855
0.047376871 0.019809663 0.16395234
0.044749677 0.024041533 0.16340257
0.053011984 -0.013539433 0.16001616
0.053757191 -0.0095664263 0.15980525
0.052515298 -0.0045794249 0.16044639
0.050807416 -0.00088453293 0.16014768
0.049543977 0.0052948594 0.16015251
0.051346272 0.010462523 0.15988542
0.050568998 0.015197515 0.16024481
0.04770571 0.018891454 0.15928097
0.046434879 0.022705257 0.16030921
0.052147627 0.010695159 0.15491326
0.051166654 0.014683604 0.15470459
0.048657745 0.01818192 0.15539621
0.024546504 -0.057275772 0.22442088
0.028411388 -0.054717243 0.21693441
0.036144018 -0.046060205 0.20043194
0.03502807 -0.045307994 0.196704
0.037515014 -0.042935312 0.19194382
0.037959039 -0.041589141 0.18812755
0.040052116 -0.039700508 0.18795046
0.039868265 -0.04103595 0.18256506
0.042223871 -0.038344204 0.18340269
0.044481695 -0.038033426 0.17916414
0.027706861 0.041645825 0.17871323
0.046697259 -0.037245691 0.1747396
0.030773222 0.036892593 0.17346385
0.02848345 0.040511489 0.17535457
0.048716754 -0.034905791 0.17057949
0.050536394 -0.032478571 0.17040524
0.034342468 0.032766879 0.17016634
0.030955315 0.034970641 0.17045557
0.050128579 -0.033867121 0.16577153
0.05030936 -0.031364918 0.16687202
0.038982153 0.028717518 0.16632524
0.036137521 0.030928493 0.16647187
0.050427735 -0.029046178 0.16292138
0.050967753 -0.025092125 0.1618057
0.051623911 -0.019746125 0.16183017
0.051873922 -0.016265512 0.16124995
0.042104661 0.025953233 0.16092195
0.039747596 0.028336287 0.16210838
0.051403195 -0.024576485 0.15788572
0.051968753 -0.020746469 0.15760626
0.052619994 -0.015483499 0.15754087
0.05305618 -0.010687888 0.156666
0.051913083 -0.0056864619 0.15734281
0.04992196 -0.00044161081 0.15761079
0.049368083 0.0043869019 0.15775354
0.046011776 0.020775795 0.1570874
0.043704599 0.0243361 0.15776898
0.040921211 0.027758658 0.15710498
0.052993655 -0.01997602 0.15316923
0.053482533 -0.015470743 0.15291609
0.053313017 -0.010371864 0.15320496
0.052102864 -0.005300045 0.15315251
0.051147699 -0.00022500753 0.15318437
0.050595045 0.0048511028 0.15334694
0.051525354 0.0083187819 0.15299366
0.049871683 0.016004145 0.15208139
0.0468871 0.019787192 0.15314542
0.044430494 0.023196399 0.15257545
0.04189375 0.026711524 0.15377627
0.054920048 -0.018463373 0.14870895
0.054307997 -0.014682174 0.14921387
0.054651082 -0.0098766088 0.1483124
0.053520024 -0.0047978163 0.14828612
0.052912951 0.00028723478 0.1484343
0.052088588 0.0053655505 0.1485094
0.051896453 0.010440171 0.1487935
0.049948215 0.015284777 0.14870484
0.047110498 0.018863559 0.14838393
0.045395911 0.022144675 0.14923801
0.054950714 -0.0095577836 0.1448433
0.052664161 0.001465559 0.14484246
0.052032113 0.0057480931 0.14447848
0.050889105 0.011258483 0.14447804
0.049950629 0.014182806 0.14481623
0.032531202 -0.048727036 0.19757909
0.033484817 -0.049514771 0.19452229
0.033760488 -0.045828283 0.1945866
0.034668505 -0.048489034 0.18982536
0.034357339 -0.045480609 0.19039723
0.035543919 -0.047756553 0.18480402
0.036326587 -0.044099689 0.18532673
0.037965059 -0.043290019 0.18188307
0.04069221 -0.041551769 0.17698172
0.044492781 -0.040013373 0.17340687
0.026316106 0.04071629 0.17207038
0.045726717 -0.038315058 0.16831824
0.029428422 0.033715487 0.1663613
0.028523088 0.036546826 0.16839504
0.026418388 0.039426148 0.16847038
0.04672718 -0.03682518 0.16363855
0.04910171 -0.032000005 0.16290833
0.032934666 0.031951308 0.16332372
0.045999646 -0.03544426 0.1599284
0.047791064 -0.031579733 0.15946592
0.049758613 -0.028201759 0.15890743
0.034087777 0.031826973 0.15912779
0.047240078 -0.02981329 0.1553141
0.049916595 -0.026621103 0.15459134
0.038958788 0.02958715 0.15436091
0.034606159 0.031562924 0.15533517
0.051121712 -0.024370313 0.15082516
0.052545846 -0.02132237 0.15042193
0.042755783 0.025383115 0.15038256
0.040086448 0.027766824 0.15002958
0.053044081 -0.018868148 0.14536028
0.052773923 -0.015371561 0.14550962
0.046590179 0.020092726 0.14625825
0.044287592 0.023923159 0.14629526
0.040257663 0.027504206 0.14610545
0.053032547 -0.017998219 0.14180405
0.052278608 -0.013733983 0.14184679
0.055058748 -0.0093798637 0.14286597
0.054065347 -0.0043065548 0.14311089
0.053577721 0.00059473515 0.14277516
0.052337855 0.0059796572 0.14216663
0.051546574 0.010730684 0.14223231
0.050319791 0.015411198 0.14286633
0.047094524 0.018989444 0.14158286
0.043812275 0.022912383 0.1415536
0.054630876 -0.0090543628 0.13890488
0.053592563 -0.0046066046 0.13802369
0.053230643 0.00041288137 0.13796555
0.052814931 0.0049237013 0.13769235
0.051892936 0.0097913742 0.13794844
0.051222384 0.014890194 0.13808094
0.047795594 0.018944025 0.13658805
0.05343309 -1.9073486e-06 0.13324134
0.052356422 0.0062229633 0.13361908
0.051677465 0.010185361 0.13382037
0.050672174 0.015252411 0.13429113
0.029631972 -0.052864552 0.19130808
0.030832499 -0.052023292 0.18684253
0.034044445 -0.050912499 0.18348768
0.03410691 -0.049229741 0.17935613
0.034656703 -0.04565841 0.17866495
0.034607172 -0.047861993 0.17532092
0.035747975 -0.044920325 0.17441103
0.038039923 -0.041956842 0.16957471
0.038647413 -0.041600347 0.16531123
0.026030153 0.036076427 0.16412832
0.024270207 0.039515436 0.16514446
0.043447644 -0.03729558 0.1590056
0.026562095 0.036082923 0.16026314
0.023409337 0.039381623 0.16128923
0.043617904 -0.035290003 0.15559281
0.044674277 -0.032891214 0.15548842
0.031284094 0.03314805 0.15617491
0.028051525 0.035877466 0.15604533
0.044460833 -0.034979463 0.15227751
0.046293437 -0.031400859 0.15259205
0.032337099 0.032664061 0.15288167
0.047459185 -0.030973673 0.14809902
0.049129367 -0.026736617 0.14857341
0.037708342 0.029064298 0.14717443
0.034510076 0.03149581 0.14809449
0.048983634 -0.029695451 0.14416243
0.049340814 -0.025528491 0.14388849
0.04954645 -0.02150619 0.14340456
0.041925728 0.024454713 0.1428362
0.038660109 0.02835983 0.14321966
0.035580933 0.03248924 0.14380763
0.04968363 -0.025857806 0.14012249
0.050825536 -0.020483613 0.13888626
0.051897407 -0.014683187 0.13923623
0.044712782 0.02138567 0.13993998
0.041983902 0.023759127 0.13857396
0.039374352 0.027775288 0.13883553
0.052084327 -0.0196172 0.13455115
0.052867621 -0.015682101 0.13464738
0.052667856 -0.010726988 0.13470562
0.052572221 -0.005636692 0.1341735
0.052205443 -0.00072336197 0.13427855
0.052207947 0.0033210516 0.13396455
0.046866 0.019767761 0.13390099
0.043085605 0.023160338 0.13431089
0.053274632 -0.018812776 0.1309108
0.053610891 -0.015001595 0.12999792
0.053481042 -0.010043263 0.12979083
0.05347684 -0.0048915148 0.13016494
0.053154945 0.0002655983 0.1301998
0.052504897 0.0051790476 0.13032959
0.051455587 0.010515809 0.13035019
0.049584031 0.015107572 0.13051598
0.047632396 0.019288421 0.12964563
0.053653717 -0.0080024004 0.12633778
0.053688556 -0.0044823289 0.12569211
0.053618699 0.00075054169 0.12513764
0.053008765 0.0058879256 0.12530138
0.052042633 0.010507345 0.12556095
0.050381392 0.014448285 0.12499662
0.048355103 0.018649518 0.12550284
0.054709911 -0.0023397803 0.12162383
0.054730326 0.0011796951 0.12097521
0.053838581 0.0059613585 0.12119575
0.05298838 0.0097484589 0.12098856
0.031216919 -0.050805807 0.17593202
0.033304632 -0.048415005 0.17169032
0.034205496 -0.04583627 0.17086428
0.034223974 -0.047324479 0.16719529
0.035188437 -0.044657409 0.16765055
0.036519229 -0.042924643 0.1632299
0.037293911 -0.041349173 0.16041853
0.038628191 -0.039342165 0.15825905
0.023888111 0.039568543 0.15965344
0.040134251 -0.037663639 0.15478091
0.02674973 0.036776781 0.15406744
0.024395585 0.03940928 0.15348966
0.043596447 -0.035900593 0.1497661
0.027097255 0.035275757 0.14955647
0.023739129 0.038879812 0.15052636
0.045334339 -0.0354653 0.14564301
0.032461286 0.034200728 0.14670087
0.030199617 0.036823511 0.14613681
0.029113084 0.040270329 0.14601453
0.048166573 -0.034057379 0.14358945
0.047939181 -0.03217566 0.14152028
0.04882735 -0.028626561 0.1414599
0.034409583 0.033085644 0.14136551
0.032571256 0.036688805 0.14168175
0.032277048 0.039720178 0.14338739
0.048254728 -0.030611157 0.13656522
0.049004078 -0.026967645 0.13707806
0.049370289 -0.02313298 0.13838683
0.038528472 0.030110359 0.13754191
0.035006285 0.032232881 0.13740452
0.048947901 -0.029651403 0.13229109
0.049361289 -0.025294185 0.13274516
0.051053047 -0.021915138 0.13320763
0.041105092 0.025511086 0.13261952
0.039629698 0.028008819 0.13320179
0.037273496 0.030431271 0.13439508
0.050295293 -0.024632096 0.12883328
0.052060127 -0.020627856 0.12828825
0.053719997 -0.015910029 0.12761424
0.043046832 0.023386776 0.12855981
0.03985247 0.026773393 0.12860461
0.052605361 -0.019491315 0.12353565
0.053495228 -0.014746249 0.12394141
0.053609937 -0.0097626448 0.12412341
0.053666204 -0.0043357611 0.12404241
0.049719542 0.016344965 0.12306358
0.047462225 0.020366549 0.12365605
0.043298066 0.02374047 0.12352242
0.052738667 -0.015323818 0.11993562
0.053425521 -0.0088445544 0.11993162
0.054500878 -0.0047412515 0.11929049
0.055092812 0.00057417154 0.11829586
0.05426842 0.0057244897 0.11838563
0.053392172 0.010396957 0.11888136
0.051057547 0.014985919 0.11975987
0.048261166 0.019638538 0.11935844
0.054397941 0.00028663874 0.11542912
0.053166509 0.0051190853 0.11515938
0.052879214 0.0099164248 0.11560579
0.050522596 0.015352607 0.11589624
0.027787745 -0.053529382 0.17297688
0.029486567 -0.051424623 0.17001384
0.03101939 -0.050068378 0.16492958
0.032175511 -0.048823178 0.16106786
0.03339541 -0.045667946 0.16048117
0.033928245 -0.043489695 0.15606321
0.034848541 -0.04121995 0.15604575
0.036852121 -0.040046394 0.15167297
0.039394885 -0.039245725 0.14817704
0.024569869 0.037445128 0.1479726
0.024313331 0.039267898 0.1471016
0.041120023 -0.03895843 0.14365159
0.043258429 -0.037575364 0.13896616
0.045931637 -0.033820331 0.13829769
0.026831746 0.036973417 0.136802
0.043659896 -0.036074162 0.13492204
0.045815051 -0.033081412 0.13418366
0.032704592 0.033334553 0.13364412
0.029285729 0.035965383 0.13434581
0.026549369 0.03890574 0.13500248
0.04753381 -0.031023979 0.1298625
0.047913551 -0.02781266 0.13022538
0.037115335 0.029306054 0.12875094
0.034629941 0.03174454 0.12990208
0.031924576 0.034392595 0.12915294
0.048592031 -0.029828727 0.12514926
0.04950285 -0.026077092 0.125376
0.038470984 0.028636694 0.12549008
0.035872638 0.032306194 0.12484016
0.033679426 0.035705864 0.12524073
0.049394488 -0.028783917 0.12143423
0.050536007 -0.024961233 0.12159617
0.05165416 -0.021657228 0.12184675
0.04272002 0.025008321 0.12119289
0.040455401 0.028105855 0.12222891
0.03761512 0.031421304 0.1198345
0.050907552 -0.023201704 0.11868145
0.052176893 -0.019878149 0.11753376
0.052843541 -0.014616191 0.11780332
0.051871479 -0.011108518 0.11697258
0.043966085 0.023888826 0.11762168
0.041458398 0.027786076 0.11760767
0.051475316 -0.020121157 0.11353619
0.052194387 -0.015271604 0.11370499
0.051837713 -0.010184824 0.11279787
0.05231446 -0.0051683784 0.11312635
0.052758515 -0.00027918816 0.1122729
0.051603556 0.0053717494 0.11181469
0.049950063 0.010489166 0.11221577
0.047674775 0.014283061 0.11178784
0.046406031 0.019253194 0.11258422
0.044176221 0.023758352 0.11345877
0.052825928 -0.0095679164 0.10877909
0.053137422 -0.004468143 0.10812481
0.052744985 0.00053274632 0.10813363
0.051631063 0.0057183504 0.10812046
0.050775111 0.010039926 0.10813637
0.0490008 0.014127851 0.10802294
0.046898425 0.018292189 0.10857244
0.054176271 -0.0077953935 0.10427548
0.054943442 -0.0036203861 0.10364683
0.053758979 0.00096559525 0.10387166
0.052368104 0.0061121583 0.10421826
0.051906526 0.009671092 0.10329214
0.049988896 0.013859749 0.1043954
0.026708007 -0.05323869 0.16727009
0.027246982 -0.054661989 0.16281922
0.029141963 -0.052652776 0.16170661
0.030321628 -0.054273188 0.16105868
0.030264378 -0.05107075 0.15838946
0.031143963 -0.049178779 0.15472843
0.03236562 -0.045889199 0.15459777
0.030863285 -0.048215032 0.15068386
0.033082604 -0.043951392 0.15010493
0.035566568 -0.043026626 0.14521606
0.03797406 -0.043617427 0.14068751
0.040241778 -0.041755557 0.13673998
0.042268217 -0.037544668 0.1327454
0.026025474 0.037606359 0.13103808
0.04314512 -0.036095619 0.12834005
0.044897616 -0.033671856 0.12752034
0.028668106 0.036938667 0.12783439
0.029694021 0.039827287 0.12691899
0.045825124 -0.033203483 0.1232876
0.032143891 0.037193775 0.12341632
0.047761559 -0.030532897 0.11978991
0.048478752 -0.026787579 0.11753355
0.035572886 0.033196449 0.11923288
0.03170979 0.035403132 0.11987473
0.048527569 -0.025959194 0.11450128
0.05082202 -0.02283603 0.11402191
0.039478272 0.029193044 0.11382537
0.036808848 0.031535506 0.11433317
0.049942732 -0.020265579 0.10948353
0.050715327 -0.015887916 0.11059014
0.05134213 -0.011973619 0.11037694
0.042486787 0.02437228 0.1105165
0.040065944 0.027892828 0.10973163
0.050531924 -0.019204736 0.10513259
0.051686585 -0.014942884 0.10676111
0.052783966 -0.010136604 0.10619058
0.052865207 -0.00624156 0.10577698
0.047962338 0.016285002 0.10569398
0.04569903 0.019964933 0.10662891
0.043184161 0.023365736 0.1063232
0.04054004 0.026588261 0.10558243
0.053578436 -0.018792868 0.10091776
0.053499579 -0.014389396 0.10137805
0.053903878 -0.0095789433 0.10191485
0.054006517 -0.0052067637 0.10128346
0.053531885 0.00034946203 0.10091791
0.052275658 0.0046389699 0.10124838
0.051412463 0.010403633 0.10153404
0.049116015 0.015212655 0.10175359
0.046351492 0.019270182 0.10155612
0.043473542 0.022587538 0.10260892
0.054982424 -0.018651843 0.09806788
0.053958356 -0.014302671 0.098021746
0.053215981 -0.0090740919 0.098155111
0.053524196 -0.0041466355 0.097252488
0.053943664 0.00034302473 0.097035199
0.053479493 0.0050349236 0.097504437
0.052784145 0.010240555 0.097655386
0.05057776 0.0149315 0.097446859
0.046935141 0.017994463 0.096958041
0.053503156 0.00015610456 0.093334317
0.052569121 0.0053801537 0.093394339
0.051338106 0.010601521 0.093337685
0.050180256 0.014084101 0.093167752
0.027059466 -0.054252684 0.15641202
0.027418375 -0.059248149 0.15162061
0.027042955 -0.055724919 0.15173168
0.028698146 -0.051277518 0.15126021
0.029502749 -0.049310982 0.14650358
0.030478895 -0.046283185 0.14793809
0.03117907 -0.048923731 0.14200182
0.032521129 -0.04625237 0.14354439
0.033267021 -0.047309577 0.14049037
0.033993959 -0.047074974 0.13797466
0.036195189 -0.04485631 0.13423534
0.036613673 -0.042671859 0.12895785
0.038766652 -0.040054858 0.12951244
0.038313001 -0.042248607 0.12491299
0.039682657 -0.039455891 0.12465937
0.041877627 -0.037628353 0.12102957
0.042560339 -0.03642261 0.11654659
0.044674277 -0.032894611 0.11694671
0.032345444 0.034058034 0.11626805
0.027581811 0.036438465 0.11534967
0.044863999 -0.031721234 0.11233474
0.046054244 -0.027666271 0.11159189
0.03363049 0.033558965 0.11295106
0.030669272 0.036244571 0.11207195
0.029027641 0.039664805 0.11267264
0.046159923 -0.026149809 0.10735397
0.04898119 -0.022454441 0.1077487
0.038106948 0.029911458 0.10681163
0.033560395 0.032212734 0.10755609
0.047781557 -0.024619102 0.10278994
0.050422907 -0.021300316 0.10329348
0.0505597 -0.016688526 0.10314181
0.040961564 0.025135577 0.10279971
0.03891319 0.028262615 0.10321432
0.036197126 0.030930996 0.10239774
0.032465518 0.04069072 0.10364898
0.049787343 -0.023441195 0.098527968
0.052665979 -0.021582484 0.099779427
0.041992724 0.02386266 0.098362774
0.039371312 0.027391315 0.097638011
0.052632809 -0.020010829 0.094835013
0.052114487 -0.01550436 0.094175011
0.051447511 -0.010619342 0.094501078
0.052410543 -0.0061395764 0.09429124
0.045732021 0.019613445 0.095041841
0.042831421 0.023458004 0.093907863
0.040906131 0.026009262 0.094317496
0.052840024 -0.015261412 0.090146273
0.051993519 -0.010006726 0.090244323
0.053317666 -0.0049207211 0.090944916
0.052869886 0.00040560961 0.090254486
0.051040113 0.0047633648 0.089889497
0.049320519 0.0091274381 0.089568615
0.048066378 0.014581025 0.089929998
0.045704007 0.019231856 0.090469807
0.043265611 0.022867262 0.091171622
0.052743733 -0.0081099272 0.086639136
0.05302605 -0.0045102835 0.08609426
0.052429855 0.00074273348 0.086293042
0.051131666 0.0051127076 0.08613801
0.050305188 0.0097712874 0.085478038
0.049059063 0.014181554 0.085745573
0.023922145 -0.056119859 0.15348203
0.024166018 -0.056147099 0.14876564
0.025705338 -0.053857744 0.14867087
0.024660051 -0.055466533 0.14453317
0.026823759 -0.052828014 0.14540614
0.027494371 -0.054909348 0.13992591
0.029373825 -0.052113414 0.14073224
0.030376613 -0.050569355 0.13613112
0.032981992 -0.046688378 0.13115855
0.034231424 -0.045265436 0.12757988
0.036234498 -0.044564843 0.12281619
0.038497478 -0.043065071 0.11862697
0.040585458 -0.039822996 0.11840226
0.039639473 -0.041793227 0.11368044
0.041770756 -0.038199186 0.11362238
0.042567372 -0.036999583 0.10920562
0.043924987 -0.033593416 0.10972984
0.028595656 0.038249731 0.10958131
0.028607845 0.040858626 0.10978515
0.042692006 -0.035145998 0.1053697
0.044027269 -0.031537592 0.10614432
0.031990707 0.033538103 0.10480665
0.030072272 0.036003113 0.10617454
0.028719544 0.039873421 0.1062419
0.044532388 -0.031159878 0.10162014
0.046087801 -0.027965546 0.10123697
0.033040166 0.033042312 0.10137057
0.03052035 0.035661578 0.1012575
0.028680503 0.039073467 0.10209963
0.046966016 -0.025974989 0.096673012
0.04984498 -0.023216009 0.095717072
0.037614286 0.029171109 0.097105026
0.035185575 0.031846404 0.096386045
0.04863143 -0.024879217 0.093206257
0.050316185 -0.021781802 0.091438681
0.042411625 0.024626374 0.090980202
0.039241612 0.028227329 0.091702849
0.036787599 0.031534314 0.091251612
0.050568014 -0.019863546 0.08767575
0.052902609 -0.017066479 0.087873846
0.051876068 -0.011807561 0.087900877
0.045529872 0.019725502 0.087987214
0.04311949 0.023526847 0.088110685
0.040515602 0.028021693 0.086957335
0.051842153 -0.018632174 0.084445447
0.052418232 -0.014802694 0.084273666
0.052385122 -0.009914577 0.084189445
0.052673399 -0.0051454902 0.083025992
0.052155375 -0.00075852871 0.083185345
0.051202655 0.0044996738 0.083242685
0.0494712 0.0080020428 0.082838893
0.047789991 0.016123533 0.083482116
0.046072423 0.019223452 0.084329873
0.043972284 0.023383558 0.08407563
0.041626781 0.027170002 0.083212852
0.052039921 -0.012930155 0.080191731
0.053302616 -0.0094506741 0.079311162
0.053068638 -0.0051603317 0.079063118
0.051515251 -0.00042390823 0.079107165
0.050841033 0.0048481226 0.079280049
0.050290704 0.010114789 0.079503596
0.049003899 0.014853358 0.079656482
0.04629308 0.018523335 0.078975379
0.053228796 -0.0043863654 0.074645191
0.050661147 0.0051994324 0.075377643
0.050578952 0.010475695 0.075795978
0.049586177 0.013992429 0.075688988
0.027234077 -0.051755786 0.13259889
0.028198659 -0.049240828 0.12982367
0.03069219 -0.048225284 0.12464766
0.033071756 -0.048387349 0.11943795
0.034680903 -0.047277927 0.11574377
0.036803395 -0.045365751 0.11664267
0.035445213 -0.047038913 0.11319526
0.036810964 -0.044721961 0.11164887
0.03788656 -0.042290807 0.1081114
0.038483441 -0.040016055 0.10628618
0.039401531 -0.037691951 0.10242277
0.041598439 -0.034373641 0.10185128
0.040973991 -0.036457241 0.096993268
0.042633653 -0.033320129 0.097870708
0.0279167 0.036395907 0.098263144
0.025183856 0.037846029 0.096864015
0.043100238 -0.036006451 0.093045652
0.043697059 -0.032184601 0.093991935
0.045303643 -0.028368592 0.094983339
0.029147387 0.034629285 0.094287992
0.045058846 -0.03150177 0.08963567
0.046589911 -0.026788175 0.090100974
0.032912493 0.033384025 0.089888394
0.046529621 -0.025252759 0.084670424
0.048068047 -0.022046924 0.085064143
