# .PCD v0.7 - Point Cloud Data file format
VERSION 0.7
FIELDS x y z
SIZE 4 4 4
TYPE F F F
COUNT 1 1 1
WIDTH 1291
HEIGHT 1
VIEWPOINT 0 0 0 1 0 0 0
POINTS 1291
DATA ascii
-0.0075831413 -0.053280264 0.20657301
-0.0029382706 -0.054061294 0.20568189
0.0017926693 -0.05497539 0.20601249
0.0058236122 -0.055541694 0.206844
-0.0332008 -0.038099974 0.20249635
-0.027968943 -0.04093641 0.20251331
-0.02458787 -0.043530405 0.20185748
-0.020403683 -0.04675144 0.20147151
-0.016237915 -0.048903108 0.20145714
-0.012311935 -0.051484227 0.20137221
-0.0081776977 -0.053373992 0.20104659
-0.0037252903 -0.054206908 0.20219249
-0.020565391 -0.04844436 0.19687681
-0.016884804 -0.050811201 0.19688921
-0.013242364 -0.052984715 0.19670676
-0.0088039637 -0.054172665 0.1963972
-0.014225125 -0.053408295 0.19348763
-0.042286634 0.0083740652 0.26610881
-0.047811627 0.0087803006 0.26159224
-0.043683887 0.0075186491 0.261076
-0.046415329 0.0087572634 0.25726596
-0.043735385 0.005811125 0.25630882
-0.042603612 0.0021963716 0.25565371
-0.051677942 0.0063551664 0.25075075
-0.043707967 0.0038406849 0.25208172
-0.042538404 0.0018610954 0.25235805
-0.052066207 0.0056163669 0.24926098
-0.045170844 0.0011656582 0.24731593
-0.044386744 -0.0012812614 0.24815987
-0.046950698 -0.0011201501 0.24335213
-0.045716107 -0.0037190616 0.24376728
-0.04794991 -0.003356576 0.23920761
-0.046385169 -0.0060265362 0.23884602
-0.046922565 -0.0035687685 0.23539869
-0.045699179 -0.0073440075 0.23439239
-0.04462117 -0.0087644756 0.23060854
-0.044084132 -0.011956662 0.23013176
-0.043541729 -0.014371097 0.22569261
-0.043493032 -0.016082942 0.2210101
-0.042260766 -0.019054621 0.22302605
0.02691561 -0.056507498 0.21978433
0.0299263 -0.055637598 0.21919371
-0.043761015 -0.017520845 0.21770851
-0.042561531 -0.020641685 0.21677931
0.020168424 -0.054665148 0.21711709
0.024555087 -0.055134445 0.21610852
0.028839111 -0.056344748 0.21675302
-0.041888833 -0.022629291 0.21229538
-0.039988518 -0.02612555 0.21158171
0.01582098 -0.055681914 0.21157485
0.019058585 -0.05649063 0.2126396
0.023013175 -0.057837129 0.21202326
0.026682734 -0.057992876 0.21330561
-0.041754723 -0.023233026 0.20850423
-0.039082408 -0.027602106 0.20809424
0.0095482469 -0.056024432 0.20818925
0.013971806 -0.055636197 0.20807248
0.018354416 -0.056488901 0.20712602
-0.038937688 -0.028818071 0.20261258
-0.036895871 -0.03228721 0.20380437
-0.031030774 -0.037811488 0.2038525
0.0033978224 -0.055116564 0.20361161
0.0084030628 -0.055244535 0.20392144
0.01184833 -0.055539072 0.20256546
-0.039886832 -0.03075704 0.19803274
-0.037030756 -0.03350845 0.19883147
-0.033509254 -0.037227362 0.2003324
-0.028768301 -0.038582206 0.19923565
-0.024914026 -0.041658521 0.19881451
-0.021794796 -0.044458687 0.19911659
-0.0021482706 -0.053893 0.19955474
0.0028660297 -0.055180609 0.19936809
0.0077372789 -0.055751711 0.19832075
-0.03757894 -0.034411579 0.19449358
-0.034189463 -0.037756413 0.19473167
-0.028242767 -0.039340526 0.19518681
-0.02481401 -0.042179734 0.1945871
-0.021744013 -0.044920146 0.19575648
-0.017392993 -0.049900115 0.19531281
-0.0083053112 -0.0535824 0.19616897
-0.0028304458 -0.054320514 0.19539909
-0.032607675 -0.039092153 0.19050185
-0.024121881 -0.043839186 0.18998782
-0.02142185 -0.046956927 0.19067915
-0.017304897 -0.04964608 0.19053064
-0.01313448 -0.052188635 0.19038437
-0.0074186325 -0.053370416 0.19075699
-0.020101488 -0.048472852 0.18600206
-0.018601239 -0.049291074 0.1860088
-0.047011614 0.010927379 0.25774059
-0.04578644 0.011014938 0.25388953
-0.044764042 0.0077337027 0.25393322
-0.046958566 0.010087848 0.25031662
-0.044910669 0.0073518157 0.24959598
-0.044910908 0.0037201643 0.24717648
-0.04765141 -0.000102669 0.23599462
-0.046517015 -0.0019022524 0.2324207
-0.045310736 -0.0038580894 0.23071964
-0.044475853 -0.0058561265 0.22741915
-0.043659866 -0.0088945031 0.22681715
-0.044105768 -0.0071976781 0.22218223
-0.043070793 -0.0086557567 0.22239529
-0.043967605 -0.011878014 0.21853115
-0.044630289 -0.01443252 0.21448518
0.030352354 -0.055782288 0.21573476
-0.045123816 -0.017414898 0.21095783
-0.044021666 -0.020284206 0.21066165
-0.044177651 -0.018133491 0.20667666
-0.04288578 -0.021834999 0.20635235
-0.040028811 -0.025072813 0.20585078
0.021236897 -0.055632859 0.2047883
0.022319853 -0.056313783 0.20828354
-0.04142642 -0.022565454 0.20168895
-0.039840341 -0.025835991 0.2019667
0.01538825 -0.05474034 0.20144042
0.019110501 -0.054241717 0.20240027
-0.041413009 -0.024294376 0.19742045
-0.040144205 -0.026936978 0.1970631
0.0088865757 -0.056308001 0.19621633
0.013453066 -0.054922968 0.19754142
-0.039914012 -0.030123323 0.19262634
-0.038205862 -0.034307122 0.19219582
-0.029112637 -0.039217174 0.19248395
-0.0016775131 -0.054077417 0.19187544
0.0027177334 -0.054161578 0.1928011
0.0076805353 -0.055738777 0.19273813
0.012366176 -0.055460393 0.19199876
-0.036652565 -0.03392902 0.18850891
-0.033997893 -0.038070798 0.18845226
-0.028316498 -0.03937006 0.18820451
-0.025455594 -0.043072343 0.18821816
-0.021795273 -0.046298981 0.18740378
-0.016520739 -0.049138218 0.18741699
-0.011183262 -0.051900387 0.18739979
-0.0074614882 -0.052683532 0.18707334
-0.0028645396 -0.054237872 0.18833528
0.0025264025 -0.054894447 0.18798582
0.0073298812 -0.056075156 0.18820046
-0.033158302 -0.039429218 0.18364976
-0.028471708 -0.040635169 0.18351613
-0.024972022 -0.044059366 0.18373369
-0.021098673 -0.047005624 0.18376307
-0.016847551 -0.049634635 0.1840886
-0.012886882 -0.050926507 0.18364452
-0.0077700019 -0.052308381 0.18349598
-0.0029678345 -0.054076284 0.18350123
0.0026878715 -0.055286825 0.18455003
-0.03276062 -0.039967954 0.17962329
-0.026223779 -0.043573797 0.17937003
-0.022281289 -0.0452874 0.1801496
-0.016849995 -0.047976673 0.18009774
-0.012273312 -0.051015377 0.1795644
-0.007560432 -0.052621096 0.18002163
-0.0046670437 -0.054408461 0.18009405
-0.046069026 0.0033429861 0.23376687
-0.046238542 0.0018068552 0.22940876
-0.04473114 0.0012181699 0.22548385
-0.044194341 -0.0016416907 0.22503768
-0.043803334 -0.0039713681 0.22104181
-0.044838071 -0.0060475767 0.21623649
-0.043276668 -0.0095938742 0.21746661
-0.0455935 -0.0084671676 0.21228796
-0.04421252 -0.0091002584 0.20877934
-0.044179082 -0.01307857 0.20802176
-0.043042362 -0.016028285 0.20337558
-0.041571021 -0.018078268 0.20195326
0.023684978 -0.053183466 0.20208931
-0.042496979 -0.016931653 0.19827861
-0.041877627 -0.020112723 0.19866943
0.021596193 -0.052357614 0.19866094
-0.043309808 -0.018462837 0.19527547
-0.041908503 -0.021575511 0.19394602
0.01548177 -0.05400309 0.19380288
0.019096136 -0.052849084 0.194308
-0.041361988 -0.023877054 0.18939386
-0.040452957 -0.026773661 0.19092457
0.01551348 -0.054156482 0.18899946
-0.042192698 -0.024026245 0.18601848
-0.039933801 -0.027989924 0.18574263
-0.036722898 -0.031124234 0.1854016
0.0097880363 -0.055348247 0.18529378
0.01366812 -0.054600418 0.18487839
-0.040376008 -0.028631419 0.1809967
-0.036750793 -0.032238692 0.18153121
-0.034104943 -0.03548643 0.18233754
-0.029856682 -0.039607286 0.18144761
-0.00067639351 -0.054625154 0.18132977
0.0032433271 -0.054698706 0.18135805
0.0074242949 -0.054961443 0.1811081
-0.036180615 -0.033727646 0.1771851
-0.033945203 -0.037434667 0.1775081
-0.029287219 -0.040760428 0.17814587
-0.025865614 -0.043521941 0.17664377
-0.019703388 -0.044503182 0.17658331
-0.01613009 -0.047510594 0.17720018
-0.012810647 -0.050848573 0.17720769
-0.0066801906 -0.052001745 0.17705522
-0.0020569563 -0.053504586 0.17678498
0.0019916296 -0.053782582 0.17670073
-0.033532739 -0.038053721 0.17293285
-0.030560493 -0.039657474 0.17313318
-0.024095416 -0.04159078 0.17404358
-0.018439353 -0.045933515 0.17086391
-0.015641332 -0.047599345 0.17270271
-0.011769414 -0.050883144 0.17305942
-0.007011652 -0.051789582 0.17259435
-0.0039502978 -0.052779198 0.17360251
-0.031137824 -0.040272027 0.16938289
-0.018832624 -0.046682 0.16935478
-0.016097426 -0.049268126 0.16812305
-0.012704968 -0.051196277 0.1682968
-0.009991467 -0.05209139 0.16867541
-0.045099735 0.0063228011 0.22666694
-0.043951035 0.0030318797 0.22323997
-0.043713331 0.00058785081 0.21857144
-0.044753671 -0.000313133 0.21368583
-0.045257211 -0.0045346916 0.20953792
-0.04377532 -0.005972594 0.20531583
-0.0429883 -0.0093363822 0.20517731
-0.041871548 -0.011378407 0.2002762
-0.042754292 -0.012899965 0.19585554
0.02605617 -0.050170571 0.19571839
-0.043270707 -0.015318751 0.19196756
-0.042694986 -0.018108457 0.19156875
0.022863448 -0.050872624 0.19104747
0.025375664 -0.050124973 0.19315074
-0.043567479 -0.016989917 0.18696259
-0.042673707 -0.019956082 0.18852328
0.020136952 -0.052017033 0.18820094
-0.043821931 -0.017669976 0.18451671
-0.043330431 -0.022603422 0.18379833
0.015615821 -0.054378927 0.18329208
0.020140469 -0.053699434 0.18308063
-0.042938113 -0.023436159 0.17907707
-0.040912628 -0.028389931 0.1786087
0.0097546577 -0.054768413 0.17863677
0.014174938 -0.054216057 0.17901175
0.018589735 -0.055594146 0.17874382
-0.042194724 -0.025436819 0.17573555
-0.040066361 -0.028529018 0.17450614
-0.037447691 -0.032675058 0.17470075
-0.026778579 -0.039500713 0.17385079
-0.023545861 -0.040911168 0.17376481
-0.020499825 -0.042552531 0.17377351
0.0039992929 -0.054559499 0.17409553
0.0083153248 -0.054623485 0.17490558
0.012968063 -0.05463925 0.17431132
-0.038524628 -0.029820412 0.17106216
-0.035822451 -0.03249979 0.1701424
-0.034797251 -0.036406457 0.17060761
-0.02746743 -0.039515018 0.1703852
-0.023561835 -0.041454405 0.1703489
-0.020050287 -0.044236869 0.17121421
-0.0020133257 -0.053466886 0.17052819
0.0032995939 -0.054328024 0.1699615
0.0077474713 -0.055338949 0.16993056
-0.035155177 -0.034594178 0.16654624
-0.033831954 -0.038561225 0.1666093
-0.02893734 -0.040761858 0.16559827
-0.024935901 -0.042586476 0.1655122
-0.021057844 -0.04544726 0.16640444
-0.018039346 -0.048929423 0.16631143
-0.011886239 -0.052134722 0.16629742
-0.007609725 -0.052756637 0.16634871
-0.0029004812 -0.054307371 0.16589203
0.0020940304 -0.054989517 0.16531399
0.0050806999 -0.055445135 0.16642238
-0.033857584 -0.039694488 0.16155547
-0.030464888 -0.041163743 0.16055641
-0.026030302 -0.043678194 0.16083375
-0.02153492 -0.046590537 0.16142386
-0.017603517 -0.049362332 0.16163233
-0.013064742 -0.051457405 0.16268778
-0.0075995922 -0.053012103 0.1613881
-0.0029067993 -0.055354059 0.16134664
0.0012781024 -0.05554086 0.16164151
-0.018465161 -0.048131555 0.15713206
-0.044979811 0.009621352 0.22358568
-0.043545902 0.0082369149 0.22024138
-0.048019469 0.0071273744 0.21406545
-0.044871688 0.0058170557 0.21598144
-0.049197972 0.0061385334 0.21152955
-0.045502365 0.004034996 0.21132892
-0.044001758 0.0029767454 0.20752341
-0.043578982 -0.0015235543 0.20681745
-0.043089509 -0.0032098591 0.20188791
-0.04208827 -0.0069204271 0.20269245
-0.04266417 -0.0045838654 0.19820026
-0.041463614 -0.0065310001 0.19897881
-0.043691635 -0.0065749586 0.19397937
-0.04267478 -0.0088231266 0.19442688
0.029021144 -0.048415899 0.19307826
-0.04439199 -0.0089070499 0.18935673
-0.043649852 -0.011994809 0.18971904
0.026611388 -0.049348325 0.18922596
-0.045111895 -0.010430694 0.18540742
-0.04410398 -0.013520539 0.18520789
0.02366221 -0.050734788 0.18646346
0.027831316 -0.048438579 0.18613701
-0.04611671 -0.012448341 0.18073677
-0.044544876 -0.016221642 0.180654
-0.044574857 -0.017734855 0.175961
-0.043397188 -0.02122733 0.1756172
-0.044392526 -0.02014935 0.17186783
-0.042716026 -0.023284167 0.17251061
0.015000343 -0.054809928 0.17249928
0.019503236 -0.054730266 0.17238985
0.023010194 -0.054086626 0.17227875
-0.042426527 -0.024232686 0.16801535
-0.039236784 -0.027854055 0.16857843
-0.036321938 -0.031665951 0.16766696
0.0093505383 -0.055403352 0.16754685
0.014241934 -0.054308116 0.16849814
0.016955853 -0.054458499 0.16609381
-0.03986156 -0.027223259 0.16381672
-0.03634727 -0.031829476 0.16394958
0.0038456917 -0.054868996 0.16284069
0.0077100992 -0.055662155 0.16404811
0.012704492 -0.05459702 0.16408163
-0.039245248 -0.029517889 0.15935388
-0.036789894 -0.032975078 0.15949866
-0.034930646 -0.036396593 0.15862498
-0.027995586 -0.040618509 0.15818983
-0.026938438 -0.042036384 0.15845039
-0.011133909 -0.04970324 0.15824267
-0.0069970489 -0.052725613 0.15849626
-0.0027276874 -0.054269075 0.15828016
0.0026088953 -0.054867834 0.15905607
0.0072512627 -0.055277824 0.15970984
-0.036314368 -0.035031021 0.15419307
-0.034098387 -0.037776589 0.15467629
-0.029619217 -0.040422797 0.1547614
-0.024904132 -0.042767107 0.15471569
-0.020306349 -0.045258611 0.15473467
-0.015902758 -0.047982991 0.15485796
-0.01148957 -0.049356282 0.1545637
-0.0080364347 -0.052249223 0.15466443
-0.0026029348 -0.052930385 0.15473983
0.0016288161 -0.053399771 0.15550026
-0.03331244 -0.038803995 0.15031174
-0.030409694 -0.041033536 0.14998066
-0.023594499 -0.043042451 0.15094641
-0.019852996 -0.045243531 0.15101612
-0.01652205 -0.048750669 0.149995
-0.012522876 -0.051432133 0.14991224
-0.0087915659 -0.054429203 0.14997295
-0.0041418076 -0.053139865 0.15089089
-0.016602099 -0.050344259 0.14568004
-0.012549818 -0.052027553 0.14645067
-0.008724153 -0.05412215 0.14647406
-0.048808455 0.006891489 0.20895073
-0.049262404 0.0074549019 0.20640063
-0.045101404 0.0045338571 0.20529503
-0.041567922 0.0030336678 0.20454031
-0.047278523 0.0064741671 0.200001
-0.045195699 0.0030844212 0.20080101
-0.043053865 0.00047466159 0.20095235
-0.045488775 0.00027647614 0.19481657
-0.043829203 -0.0016783476 0.19657831
-0.04412514 -0.0028271377 0.19163339
-0.043482661 -0.0050045252 0.1863976
-0.045342743 -0.011075675 0.18293397
-0.046240389 -0.012950599 0.17820291
-0.046225011 -0.013154805 0.17646004
-0.045562744 -0.014052659 0.17391203
-0.044911325 -0.017291218 0.16996615
0.024924934 -0.053844303 0.16975419
-0.045130253 -0.01906392 0.16534159
-0.044218779 -0.022540599 0.16549471
0.015419424 -0.053931713 0.164368
0.020143628 -0.054201633 0.16526559
0.025550604 -0.054323047 0.16517809
-0.044806957 -0.019097477 0.16166788
-0.04321599 -0.023301661 0.16107371
-0.040935636 -0.02671659 0.16090003
0.015214384 -0.053801626 0.16036841
0.018821895 -0.053830802 0.16062775
-0.042505741 -0.024500549 0.15684411
-0.040125728 -0.027685583 0.15699181
-0.038206995 -0.031359524 0.15701839
0.0055657625 -0.053764462 0.15679809
0.0087404251 -0.05374983 0.15628269
0.013073087 -0.053609878 0.15676451
-0.040094852 -0.030383855 0.15301439
-0.037553668 -0.0326882 0.15315241
-0.0012312531 -0.053386182 0.15231588
0.0032762885 -0.053409308 0.15304893
0.0078417659 -0.053037107 0.15256047
-0.039146423 -0.030853152 0.14879605
-0.036377072 -0.033481807 0.14854774
-0.034495294 -0.038029909 0.14862064
-0.02858901 -0.040828586 0.14925209
-0.025329888 -0.041895747 0.14843658
-0.020923734 -0.044243515 0.14813867
-0.018460393 -0.046659023 0.14848772
-0.0021487474 -0.054093599 0.14880386
0.0029129982 -0.054074824 0.14855883
-0.032929659 -0.03769505 0.14440414
-0.030496776 -0.041139245 0.14390746
-0.025370538 -0.0421938 0.14364573
-0.021221936 -0.045283467 0.14393127
-0.018108487 -0.048882872 0.14429048
-0.013393521 -0.051681906 0.14412639
-0.0082089901 -0.053941578 0.14358076
-0.0031802654 -0.054167688 0.1440936
0.00075697899 -0.054525822 0.14440688
-0.029094815 -0.04210645 0.13871974
-0.02508229 -0.043372184 0.13967583
-0.021451831 -0.04624179 0.13967478
-0.017382681 -0.049562961 0.13913
-0.012695074 -0.05162096 0.13922617
-0.0079312921 -0.053625762 0.13993827
-0.0035915375 -0.054232448 0.14013442
-0.015477419 -0.05051738 0.13542059
-0.013914466 -0.05133152 0.13541704
-0.047294676 0.010303497 0.20230198
-0.045018077 0.0097956359 0.20064306
-0.048068404 0.009208113 0.19822547
-0.044977725 0.007373631 0.19708483
-0.045448303 0.0048948228 0.19480531
-0.044464469 0.0029113591 0.1880167
-0.043751955 2.3841858e-05 0.18927933
-0.043876052 -0.0011449158 0.18541716
-0.043674946 -0.0038406253 0.18071477
-0.043675065 -0.0058144927 0.17628996
-0.043645263 -0.0071243346 0.17166512
-0.044579625 -0.01197204 0.16773616
-0.044831455 -0.014442742 0.16303
0.02513504 -0.053099066 0.16352126
-0.04459703 -0.01736173 0.1589295
-0.043689191 -0.020964831 0.15840241
0.021137118 -0.053380579 0.15876228
0.024976373 -0.053180367 0.16037992
-0.044497132 -0.019616067 0.15446362
-0.042736828 -0.022174954 0.15434811
-0.039980412 -0.025406778 0.15366831
0.011999726 -0.051870465 0.15336245
0.016028047 -0.052168995 0.15463603
0.019998968 -0.052649021 0.15536979
-0.04202944 -0.023622096 0.15004465
-0.040004492 -0.026692748 0.1499404
0.0095909834 -0.052166104 0.14980817
0.013479829 -0.051650435 0.14938226
-0.039947629 -0.027627945 0.14499351
-0.036217988 -0.031818658 0.14493731
-0.034600019 -0.034097522 0.14446619
0.0048148632 -0.053947896 0.14508131
0.0086610317 -0.053293049 0.14515719
0.01225853 -0.05293715 0.14537308
-0.039888084 -0.029303044 0.1405991
-0.037086725 -0.032141328 0.14057025
-0.033364713 -0.035508692 0.14049023
-0.0012695789 -0.053864688 0.14146838
0.0035256147 -0.0543859 0.14113301
0.0083680749 -0.054211348 0.14032403
-0.037350178 -0.033614337 0.13614836
-0.033499599 -0.036643744 0.13678077
-0.030323684 -0.039487749 0.13808376
-0.025487423 -0.042765111 0.13770136
-0.020906508 -0.045982152 0.13672736
-0.010284662 -0.052075118 0.13688502
-0.0074474812 -0.052713484 0.13660583
-0.0025173426 -0.05407384 0.13712654
0.0018925071 -0.055294216 0.13769466
0.0070701838 -0.055318743 0.13682029
-0.037444711 -0.035594463 0.13210212
-0.034247756 -0.038229287 0.13278584
-0.030366421 -0.041709721 0.13325568
-0.025403619 -0.043831497 0.13309191
-0.020820439 -0.04604578 0.13325615
-0.017127037 -0.048765421 0.13304482
-0.012447 -0.051431268 0.13307603
-0.0078808069 -0.052837133 0.13277949
-0.0033929348 -0.053693503 0.13344486
-0.03439033 -0.039685726 0.12910368
-0.029848814 -0.042688489 0.12852781
-0.025984406 -0.04414168 0.12845768
-0.021006703 -0.045827061 0.12926339
-0.017338037 -0.048183084 0.12940283
-0.013256788 -0.05138877 0.12975223
-0.0087254047 -0.052705199 0.12939502
-0.043922246 0.007155478 0.19132255
-0.04572916 0.0056314766 0.18747418
-0.042838812 0.0044722855 0.18195115
-0.043617666 0.00023576617 0.18140183
-0.044141769 0.0021529198 0.17823635
-0.043752968 -0.00049859285 0.17709266
-0.043579519 -0.0019515455 0.17329036
-0.043677986 -0.005135566 0.16974126
-0.044264913 -0.0072769523 0.16542307
-0.044754028 -0.0092885196 0.16105029
-0.044502616 -0.013349742 0.15624994
0.027163506 -0.050198168 0.15593967
-0.043059349 -0.015041798 0.15100184
0.018173575 -0.05003202 0.15180662
0.022458911 -0.05112493 0.15144825
-0.04393971 -0.019462407 0.14973196
-0.043171763 -0.020651221 0.14782158
0.01677686 -0.051254421 0.1483531
0.020602465 -0.051604629 0.147836
0.023887575 -0.052149594 0.14691368
-0.042914867 -0.02182591 0.14383069
0.015473843 -0.05282262 0.14361599
0.02033484 -0.053037435 0.1431413
0.022696257 -0.05427441 0.14313847
-0.043106556 -0.023582637 0.13911751
-0.041264415 -0.027341783 0.13937089
0.0097932816 -0.054510832 0.13795352
0.014331222 -0.054255962 0.1389614
0.019337893 -0.054457098 0.13942268
-0.043027878 -0.025171965 0.13500521
-0.040897012 -0.029260755 0.1347228
-0.038704932 -0.032255083 0.13439055
0.0029982924 -0.054037869 0.13338418
0.0083361864 -0.054214805 0.13407485
0.014310956 -0.053583145 0.13502458
-0.040703773 -0.030527294 0.12977301
-0.038943648 -0.033954859 0.12986489
-0.0016880631 -0.053512394 0.12998541
0.0029702187 -0.054142773 0.12942435
0.0075740814 -0.053989708 0.13008733
-0.037343144 -0.035266072 0.12549801
-0.034579456 -0.039009511 0.12639068
-0.03089422 -0.041475207 0.12644072
-0.024481416 -0.043628722 0.12633987
-0.021118522 -0.044760704 0.12542145
-0.016258538 -0.047352374 0.12573181
-0.011082768 -0.049655557 0.1252863
-0.0067923069 -0.051886916 0.12574311
-0.0024111271 -0.052525192 0.12447979
0.001860857 -0.053556919 0.12532173
-0.036287069 -0.036842406 0.12052085
-0.034435093 -0.040005326 0.12220301
-0.029996634 -0.042821437 0.12236439
-0.025654078 -0.044368446 0.12211175
-0.020781636 -0.045743018 0.12116854
-0.016691566 -0.048549026 0.12169088
-0.012163103 -0.050359339 0.12141608
-0.0078332424 -0.052166611 0.12043847
-0.0035353899 -0.053095162 0.1211129
-0.034084558 -0.040144235 0.1179557
-0.030382037 -0.04281798 0.11792
-0.026659966 -0.044978052 0.11723362
-0.021160662 -0.046873599 0.11704938
-0.016983211 -0.049705774 0.1167271
-0.012865424 -0.051554263 0.1166154
-0.0092558861 -0.052815825 0.11714865
-0.017019987 -0.051314324 0.11288385
-0.013409078 -0.052774966 0.1133595
-0.042512119 0.011108458 0.18193804
-0.0419119 0.0087169409 0.18067436
-0.043284237 0.0062986016 0.17697369
-0.042848885 0.0035825968 0.17492376
-0.043281794 0.0025541186 0.17162018
-0.043495417 0.00011649728 0.16684471
-0.044480443 -0.0018843114 0.16205826
-0.044827819 -0.0044414699 0.15785813
-0.044658303 -0.0065510273 0.15386543
-0.044021726 -0.0098946691 0.15421462
-0.044424534 -0.0079419017 0.14998612
-0.043413043 -0.011121184 0.14986321
0.027434111 -0.049973935 0.15029666
-0.043054223 -0.014269233 0.14520618
0.026687026 -0.051443428 0.14716479
-0.043532491 -0.015896231 0.14020789
-0.04425931 -0.017515808 0.13561246
-0.043248892 -0.020197004 0.13686171
0.020371199 -0.053809077 0.13593158
-0.044505 -0.019528985 0.13218082
-0.042923212 -0.022377253 0.13221
0.011476874 -0.053493321 0.13174392
0.015360832 -0.052849084 0.13180043
0.019218385 -0.053360522 0.13186599
-0.042628586 -0.023929387 0.12789713
-0.041330874 -0.027809829 0.12777962
0.0093079805 -0.054032743 0.12808199
0.013278604 -0.053362697 0.12763689
-0.041724682 -0.025921553 0.12345649
-0.039758921 -0.029257268 0.12328367
-0.037934065 -0.032884419 0.12229826
-0.00051116943 -0.053266108 0.12251247
0.0040110946 -0.054016799 0.12321492
0.0090978742 -0.053050846 0.12308826
-0.040647984 -0.029711694 0.11793007
-0.037920356 -0.033961594 0.11870079
-0.0019640923 -0.0533517 0.11849292
0.0030989647 -0.053658724 0.11822383
0.0061709881 -0.053791016 0.11961
-0.037874937 -0.034390748 0.11358489
-0.034655809 -0.038176775 0.11383422
-0.030006945 -0.041170925 0.11371832
-0.024521351 -0.044048548 0.11425348
-0.021924376 -0.046389371 0.11459239
-0.0075211525 -0.053446621 0.11535059
-0.0024819374 -0.053569943 0.11379503
0.00010514259 -0.054033101 0.11321233
-0.029017031 -0.041154832 0.10980134
-0.026139379 -0.043804049 0.11067237
-0.02119422 -0.046664566 0.11123641
-0.017849684 -0.050541848 0.11069061
-0.013362885 -0.053148955 0.11064027
-0.0080356598 -0.05343619 0.1107025
-0.025779665 -0.044798702 0.10572185
-0.017110586 -0.049895972 0.10733874
-0.013095617 -0.051899552 0.10729842
-0.0092662573 -0.052768558 0.10689054
-0.026176095 -0.046595335 0.10214072
-0.044814408 0.013964683 0.1814989
-0.043225646 0.013137102 0.18149529
-0.044361353 0.01427418 0.17861097
-0.042771637 0.011826932 0.17813157
-0.04183197 0.0097145438 0.17271058
-0.047487736 0.0085763037 0.16871838
-0.043802857 0.0080161989 0.1685565
-0.043915033 0.006070286 0.16441697
-0.045401573 0.0038453937 0.1600045
-0.049211442 0.0043848157 0.15447456
-0.046489239 0.00130409 0.15562451
-0.045539975 -0.002723366 0.15508342
-0.051041365 0.0024098754 0.15132198
-0.047900558 -0.00073838234 0.15138176
-0.045555055 -0.003990531 0.15129077
-0.047486424 -0.0023416877 0.14722055
-0.04506743 -0.0056472123 0.14690807
-0.044102311 -0.00756374 0.14329687
-0.042991519 -0.0097777843 0.14380145
-0.044258058 -0.0092021525 0.13821477
-0.043414474 -0.011771828 0.13888571
-0.04541862 -0.011330843 0.13438831
-0.044866681 -0.014461696 0.13389041
-0.045260787 -0.016383201 0.12921663
0.017372489 -0.052337617 0.12846892
0.019970179 -0.053334206 0.12834583
0.022591829 -0.054307431 0.12821095
-0.04535234 -0.017928094 0.12539829
-0.043684661 -0.020444483 0.1241761
0.016601682 -0.052078098 0.12474473
0.019931912 -0.052690923 0.12436427
0.023484707 -0.053620011 0.12594251
-0.042515278 -0.022715598 0.12157528
-0.040932775 -0.025253683 0.1202554
0.011451006 -0.052564144 0.12108941
0.01455307 -0.052630842 0.12112878
0.018796444 -0.053057462 0.11963399
-0.041738749 -0.023761362 0.1170453
-0.041306257 -0.026228309 0.11685841
0.0094622374 -0.053331226 0.11672921
0.014854968 -0.052770197 0.11707304
-0.04009968 -0.029982179 0.11260574
-0.039499938 -0.033538371 0.11144938
0.0033949614 -0.053688049 0.11221789
0.0080837011 -0.054133683 0.11178617
0.011584044 -0.053796738 0.11293764
-0.039994419 -0.031798303 0.10711475
-0.037596643 -0.034467846 0.10761051
-0.033204436 -0.037436813 0.10784005
-0.029149354 -0.040412575 0.10699122
-0.020983398 -0.044286221 0.106838
-0.018485665 -0.047438115 0.10672446
-0.0071834922 -0.053009003 0.10658641
-0.0024145246 -0.053311706 0.10743944
0.0027450323 -0.054167897 0.10729338
0.0071496964 -0.054487556 0.10826291
-0.040148973 -0.032497555 0.10356094
-0.03739053 -0.035303682 0.10267231
-0.033516288 -0.038536072 0.10309809
-0.029969335 -0.041096836 0.10375591
-0.026991785 -0.043008 0.10387786
-0.020818472 -0.045164019 0.103485
-0.016441464 -0.048135221 0.10372181
-0.011753917 -0.050723583 0.10376306
-0.0074696541 -0.052431077 0.1035663
-0.0030771494 -0.054167867 0.10240051
0.0013440847 -0.054985762 0.10233861
-0.032943845 -0.040540606 0.099324733
-0.030750751 -0.042737424 0.099701703
-0.027468324 -0.045356005 0.099783927
-0.021718979 -0.046957493 0.099505544
-0.017047644 -0.049573988 0.099561125
-0.012500405 -0.051513642 0.099669516
-0.0086798072 -0.053188354 0.099592298
-0.0033812523 -0.055119544 0.098960519
-0.03118366 -0.043517143 0.094939023
-0.027607441 -0.046657026 0.094757348
-0.022031546 -0.048032433 0.095147014
-0.017124593 -0.050825268 0.094499469
-0.013181329 -0.052315742 0.094428509
-0.030952692 -0.045867234 0.090292573
-0.027326941 -0.046854675 0.090915918
-0.040645123 0.01583308 0.17305575
-0.041965246 0.013693362 0.17107402
-0.044609427 0.012335062 0.16537845
-0.044493914 0.01195839 0.16082904
-0.045052409 0.0081546009 0.1620101
-0.047200561 0.0076909959 0.15783432
-0.048861623 0.0077984333 0.15247276
-0.04663229 0.0051199794 0.15571299
-0.049977183 0.0040976107 0.14815304
-0.048454642 0.0016441643 0.148653
-0.050266743 0.0029035509 0.1460661
-0.047260404 0.00075533986 0.14436272
-0.04509151 -0.0034574568 0.14405897
-0.044277072 -0.0028038919 0.13996774
-0.043537617 -0.0054846704 0.13503471
-0.044498503 -0.0074631274 0.13015603
-0.045202971 -0.01138711 0.13154389
-0.045542479 -0.0094387829 0.12623592
-0.046019435 -0.012940615 0.1284114
-0.045870423 -0.010223746 0.12369974
-0.045226574 -0.014448553 0.12232463
0.023342967 -0.051786631 0.12156875
0.025426507 -0.05191499 0.12219356
-0.044291258 -0.016362995 0.11880369
-0.042751372 -0.019665867 0.11821492
0.021234751 -0.052056253 0.11886148
0.024980068 -0.051736832 0.11840601
-0.041546643 -0.020412683 0.11332379
0.01691848 -0.051717907 0.11379971
-0.040790677 -0.022701204 0.10934366
-0.039651453 -0.025597572 0.11014266
0.013903618 -0.053111672 0.10998292
-0.040732622 -0.023908585 0.10543318
-0.039438844 -0.026729196 0.1052234
0.0054944754 -0.054335624 0.10468622
0.009278059 -0.053679824 0.10566716
0.013006687 -0.053097218 0.10669152
-0.039931297 -0.029234022 0.10018885
-0.037725449 -0.034211636 0.099873364
-0.03423059 -0.036926746 0.10018757
0.0035345554 -0.054683566 0.1003741
0.007389009 -0.054632187 0.10086536
-0.039780378 -0.029874086 0.096767932
-0.037219703 -0.033056259 0.096657395
-0.033478141 -0.036166698 0.095668614
-0.0061294436 -0.052018821 0.095467091
-0.0024501085 -0.053122044 0.095161885
0.0022581816 -0.054031044 0.096845806
0.0064967871 -0.054401577 0.096814692
-0.032119036 -0.038288385 0.0915851
-0.031761885 -0.041677743 0.092443347
-0.021924973 -0.048319101 0.092336804
-0.018712163 -0.049957782 0.092316568
-0.011878848 -0.052749485 0.092017084
-0.0082218647 -0.051902324 0.091958225
-0.0026699305 -0.052468747 0.092060924
-0.031047761 -0.042822748 0.088205159
-0.026451588 -0.046183348 0.087584972
-0.021595776 -0.047749519 0.089349568
-0.01742363 -0.0488199 0.088734925
-0.013393879 -0.051673472 0.089201063
-0.029312253 -0.044499129 0.084602416
-0.026572227 -0.045335561 0.084373176
-0.024133921 -0.046685964 0.08342272
-0.045625925 0.013445586 0.16057265
-0.045047164 0.010658056 0.15663359
-0.048260927 0.0041811168 0.1412752
-0.050754309 0.0036867857 0.14089563
-0.046066761 0.0029517114 0.13846532
-0.043913603 0.0004696548 0.13699663
-0.044693232 0.0022129714 0.13468269
-0.043910503 -0.0014836192 0.13382538
-0.044666708 -0.0031851232 0.12880297
-0.045551598 -0.0057581961 0.12455614
-0.045738935 -0.0088932216 0.12037425
-0.045915127 -0.0099599957 0.11636092
-0.044316828 -0.013938546 0.11627086
0.023224235 -0.050229698 0.11534475
0.027305543 -0.048278362 0.11395083
-0.045710504 -0.01151076 0.11166497
-0.043891728 -0.015173972 0.11163007
-0.042274833 -0.019200653 0.11080308
0.022315204 -0.050043464 0.11133589
0.02602613 -0.050679088 0.1092317
-0.044624805 -0.016857326 0.10657196
-0.042289615 -0.020378441 0.10785122
0.021313488 -0.05132404 0.10646226
-0.045058846 -0.019288391 0.10209891
-0.042063832 -0.022424817 0.10355122
0.011787534 -0.052442729 0.10283852
0.01596719 -0.051691294 0.10333517
0.019180298 -0.052184194 0.10039634
-0.045999706 -0.019869775 0.098221123
-0.043599606 -0.023220152 0.098967999
-0.041822433 -0.026189715 0.09969607
0.010919333 -0.054214388 0.09880659
0.015054703 -0.053342909 0.098679662
0.018423915 -0.054512352 0.09781605
-0.043658376 -0.024521083 0.094403803
-0.04067862 -0.0280357 0.094090223
-0.037182212 -0.032049537 0.093669951
0.0041649342 -0.052741081 0.093557
0.0090014935 -0.053497523 0.093678772
0.012770116 -0.053902179 0.095436275
0.017906964 -0.054737866 0.094758153
-0.040559888 -0.029297978 0.089179158
-0.036749423 -0.032793462 0.089485228
-0.03332305 -0.036295921 0.089834511
-0.005797863 -0.051293254 0.088348448
-0.0022455454 -0.052419245 0.089044392
0.0030921698 -0.053360462 0.089602441
0.0074096322 -0.053829789 0.089145005
-0.039933741 -0.031580001 0.085755914
-0.037178159 -0.034442127 0.084572494
-0.033365548 -0.037526637 0.084975541
-0.031029105 -0.040697485 0.085460842
-0.020783067 -0.046365857 0.085561752
-0.015783548 -0.047886103 0.085630625
-0.011734545 -0.050602883 0.086011708
-0.0075034499 -0.0515939 0.085677534
-0.0022008419 -0.053419858 0.084776908
0.0022226572 -0.053993434 0.08436203
-0.032181978 -0.038253903 0.081836045
-0.030210972 -0.041183829 0.081355453
-0.02665174 -0.045024157 0.081146359
-0.020663977 -0.046220303 0.081296593
-0.016425133 -0.047771603 0.08159703
-0.012541533 -0.049864531 0.081089795
-0.0077542067 -0.052049339 0.08120662
-0.0030013919 -0.054352999 0.080570728
-0.029529214 -0.04131636 0.077565104
-0.025825262 -0.044596523 0.077583045
-0.021845698 -0.046427906 0.0767937
-0.016551971 -0.047937721 0.077482343
-0.011725068 -0.050469607 0.077477992
-0.0079548359 -0.0529522 0.07717672
-0.0044287443 -0.054201096 0.077434808
-0.045677423 0.0039104521 0.13431074
-0.044104218 0.0033853054 0.1308821
-0.044143796 0.001953572 0.12609659
-0.045079231 -0.0019018352 0.12273224
-0.045576811 -0.0042697489 0.11784489
-0.045426846 -0.0056827068 0.11316152
-0.045758367 -0.0094932616 0.10953562
0.027915835 -0.049117535 0.1102788
-0.046003342 -0.0095897317 0.10525961
-0.045827866 -0.012482703 0.10526635
0.026737094 -0.051520407 0.1059195
-0.045779943 -0.014872521 0.10066995
0.020911634 -0.051984847 0.1014545
0.025939167 -0.050726861 0.099973232
-0.045800686 -0.01777336 0.096135587
0.01997447 -0.054745257 0.096311241
-0.044828355 -0.018914998 0.092785865
-0.043843806 -0.0223203 0.091884971
0.014563084 -0.053033918 0.09244144
0.020439506 -0.053605646 0.091423154
-0.042455912 -0.023495436 0.087812394
-0.041078448 -0.026950747 0.086212367
0.010077953 -0.052512854 0.086998522
-0.041505456 -0.024803221 0.083533823
-0.039921403 -0.029376954 0.08296898
-0.037682414 -0.032106876 0.081590116
0.004157424 -0.054010987 0.082516015
0.007358551 -0.053465754 0.083149195
-0.039507747 -0.028857052 0.07875669
-0.036584139 -0.033254921 0.078152061
-0.033662438 -0.035763502 0.077912539
0.0033191442 -0.054060459 0.078181207
0.0071125031 -0.053767949 0.078887552
-0.03600502 -0.033902556 0.074056149
-0.032850385 -0.036706537 0.074165791
-0.029730022 -0.040075809 0.074595511
-0.025596976 -0.043409467 0.074422687
-0.020337164 -0.045959085 0.074534893
-0.017298341 -0.047870934 0.074655116
-0.013038456 -0.050634861 0.075277865
-0.0078504086 -0.053228557 0.07460469
-0.0029948354 -0.054520428 0.074903548
-0.00026011467 -0.054932177 0.07588774
-0.028557241 -0.039479554 0.070737094
-0.024898052 -0.042855233 0.070805192
-0.021631122 -0.045283049 0.070585489
-0.01652652 -0.04848972 0.070457101
-0.012465656 -0.051135331 0.06999445
-0.008059144 -0.053358078 0.070239127
-0.0034785271 -0.054087996 0.070621014
-0.04412508 0.0090968609 0.132414
-0.04310751 0.0087776184 0.1281317
-0.042859972 0.0066482127 0.12339367
-0.043957174 0.004478842 0.11850901
-0.044247627 0.0011370182 0.12062557
-0.044814825 -0.00019848347 0.11635007
-0.044574678 -0.0020742118 0.11114444
-0.045272708 -0.0052305162 0.10652556
-0.045707345 -0.0074415505 0.10218859
-0.045443654 -0.0083906651 0.098311007
-0.045651197 -0.013182461 0.09771055
-0.045300245 -0.013995171 0.093541086
0.026170433 -0.050432295 0.093578577
-0.044152975 -0.016628534 0.088493288
0.020828724 -0.050645053 0.089289337
0.025345445 -0.052167922 0.089468718
-0.043303967 -0.01785937 0.084255815
-0.042685091 -0.02107054 0.084997326
0.016208768 -0.050699621 0.085503697
0.021164656 -0.052374184 0.085155815
0.024101138 -0.05370754 0.085358739
-0.043871522 -0.018972427 0.081821501
-0.042238712 -0.022189498 0.080728441
-0.040410399 -0.025761008 0.080394506
0.0104146 -0.052208394 0.080596715
0.015325546 -0.051839828 0.0804708
0.020295501 -0.053545088 0.081313908
0.022856176 -0.05585584 0.080488145
-0.042603016 -0.023451 0.075839579
-0.040732503 -0.027410179 0.076230168
-0.038013935 -0.030119091 0.076963663
0.00584203 -0.053137541 0.074953437
0.0098430514 -0.052290261 0.075803071
0.013728619 -0.051587611 0.076738089
-0.042961955 -0.025222212 0.07212466
-0.040747404 -0.028859794 0.07133919
-0.037398934 -0.032006562 0.071957111
-0.034393787 -0.035019457 0.072180688
0.0040774345 -0.053011924 0.071695745
0.0079211593 -0.052562088 0.071336329
-0.040420532 -0.030207962 0.066574931
-0.036971211 -0.033391774 0.067856371
-0.032932401 -0.036594003 0.068525106
-0.028804898 -0.039625078 0.068529665
-0.024783731 -0.04170242 0.067354769
-0.019750237 -0.044039637 0.067232043
-0.016567945 -0.046019167 0.067516148
-0.0016199946 -0.052841783 0.067236722
0.0024661422 -0.052671343 0.068516076
-0.039911926 -0.031408995 0.063948706
-0.036910892 -0.034232706 0.063940272
-0.033175707 -0.037124187 0.063473597
-0.02955395 -0.039322674 0.062673286
-0.025122344 -0.042028576 0.063070431
-0.020443201 -0.04481405 0.063198134
-0.01568675 -0.046650648 0.063217863
-0.012155592 -0.049237579 0.062972054
-0.007188201 -0.050902158 0.06309323
-0.002363503 -0.052209467 0.064352974
-0.033479214 -0.038613409 0.059467126
-0.030011058 -0.040042132 0.059307802
-0.025525451 -0.042433679 0.058818597
-0.021426797 -0.045443088 0.057657231
-0.011856079 -0.0502069 0.058214385
-0.0089725256 -0.051368922 0.058405388
-0.021353543 -0.047339797 0.054395217
-0.044436455 0.014413685 0.12693985
-0.043991864 0.011924893 0.12766011
-0.044058442 0.0096287131 0.12263156
-0.04473561 0.0080360472 0.11746843
-0.044034123 0.0052396953 0.11245327
-0.043530464 0.0038212538 0.10797508
-0.043376327 0.00095894933 0.1089219
-0.044066429 0.0026384592 0.1045693
-0.043304682 0.00048488379 0.10419478
-0.044076264 -0.0012481511 0.099064529
-0.045261383 -0.004483521 0.095192671
-0.045047522 -0.0082985759 0.091929138
-0.044262767 -0.010990888 0.086843938
-0.04407078 -0.014477164 0.082162023
-0.044308305 -0.015856355 0.078099668
-0.043617725 -0.019000322 0.078814834
0.020823061 -0.052657068 0.077710271
0.022921324 -0.054323554 0.077921897
-0.044164181 -0.017195195 0.074267566
-0.043580651 -0.020807356 0.074134618
0.011952639 -0.051536858 0.073106349
0.01592952 -0.05107969 0.073720038
0.018997431 -0.050997406 0.075461
-0.04341805 -0.023077846 0.069397867
-0.041711509 -0.027062476 0.068602234
0.0096797943 -0.052133232 0.069319606
0.013862371 -0.050884843 0.068481237
-0.042857766 -0.024832845 0.064370394
-0.042128325 -0.027980804 0.066054493
0.0048742294 -0.052058756 0.065455139
0.0089969635 -0.052415967 0.064075634
-0.040213346 -0.02905196 0.061409462
-0.036825657 -0.03315261 0.060793776
-0.034056365 -0.036168993 0.060613621
-0.0044242144 -0.051089168 0.060340274
-0.00087141991 -0.050911933 0.06052639
0.0037804842 -0.05183813 0.061173368
0.0080316067 -0.052942693 0.059468884
-0.036812782 -0.03270182 0.057130564
-0.03390801 -0.036584288 0.056161065
-0.029517055 -0.039829373 0.056107093
-0.024858236 -0.043270737 0.056306023
-0.0164783 -0.046499103 0.057032753
-0.013044 -0.049122036 0.056022543
-0.006698668 -0.051602572 0.057014573
-0.0025906563 -0.051845253 0.056240845
0.002350688 -0.051745653 0.057167936
-0.033070862 -0.037177354 0.051087577
-0.029387534 -0.039416909 0.05238812
-0.025327802 -0.042684883 0.052141655
-0.021683812 -0.045259327 0.051027048
-0.017143488 -0.048169553 0.051816363
-0.012377203 -0.050877005 0.051897008
-0.0079373121 -0.052577645 0.051636267
-0.004365921 -0.052379221 0.051797319
-0.02793777 -0.042116642 0.046610843
-0.026785135 -0.043570489 0.046961438
-0.021691561 -0.046496302 0.046859663
-0.017023206 -0.048747212 0.046976399
-0.012222648 -0.051355749 0.047516536
-0.0094334483 -0.052824318 0.046672713
-0.027025342 -0.044284493 0.044268917
-0.021176696 -0.048690587 0.043807607
-0.012352943 -0.052030027 0.044278096
-0.043956757 0.01464206 0.12292244
-0.044623017 0.014398307 0.11988534
-0.04464066 0.013719499 0.11427523
-0.044250846 0.012812495 0.1109281
-0.04382807 0.010165513 0.11076291
-0.046906233 0.010668665 0.10477842
-0.04430902 0.0072857738 0.10595624
-0.048560739 0.0081103146 0.10121021
-0.045006871 0.0048180223 0.10183278
-0.04849714 0.0049752593 0.096714199
-0.045791745 0.0025856495 0.098036945
-0.04900825 0.0039398372 0.094215333
-0.046454549 0.0010668337 0.093346328
-0.045199692 -0.0021506548 0.091720819
-0.045358658 -0.0030883253 0.088529259
-0.044493139 -0.0055482686 0.084499419
-0.04359889 -0.0059953332 0.080912292
-0.044287682 -0.010214061 0.08062017
-0.044603169 -0.012613088 0.075210214
0.02290076 -0.049278736 0.07402873
0.025909781 -0.048588544 0.073165417
-0.044227958 -0.015541047 0.071322292
0.02120769 -0.048968107 0.071252197
-0.044618487 -0.01712817 0.067339182
-0.043630719 -0.020600945 0.066481739
0.017417252 -0.050337791 0.067143887
-0.045207858 -0.018636465 0.062021244
-0.043816745 -0.022150517 0.062612697
0.015503287 -0.051439643 0.062345613
0.019014955 -0.052032083 0.060844112
-0.044497252 -0.019700617 0.058260459
-0.042836249 -0.02367425 0.058482546
-0.040104985 -0.027720839 0.058514584
0.0064314604 -0.052203625 0.058504511
0.010441184 -0.052907258 0.058950234
0.014601946 -0.05163905 0.057068158
0.017967105 -0.05234322 0.058159072
-0.042937636 -0.024431199 0.053755928
-0.040453434 -0.027186245 0.054338563
-0.03721118 -0.031368375 0.053822536
0.00081676245 -0.051233053 0.054262597
0.0040365458 -0.051809609 0.054416228
0.008893013 -0.052735984 0.054162402
-0.040419102 -0.028722674 0.049167324
-0.036951423 -0.032359719 0.049616922
-0.03426981 -0.035901099 0.049813379
-0.028000474 -0.039355695 0.049336541
-0.023348987 -0.041639447 0.049471457
-0.00099146366 -0.051806599 0.049827088
0.0038852692 -0.051656753 0.048716497
-0.040683031 -0.030835271 0.045058798
-0.037523746 -0.033877462 0.0442716
-0.033146143 -0.037143886 0.044669937
-0.029113114 -0.04003185 0.044698339
-0.024399817 -0.043636888 0.045454722
-0.022758126 -0.044486523 0.045448434
-0.016409218 -0.04843986 0.043671768
-0.012928367 -0.049756736 0.044472706
-0.0062828064 -0.052915692 0.045346688
-0.0026468039 -0.05281356 0.044510346
0.0014135838 -0.052847862 0.044148277
-0.038458586 -0.034115911 0.040499102
-0.033406377 -0.038142473 0.040051471
-0.02966392 -0.041587025 0.040873688
-0.026717246 -0.044924915 0.041216563
-0.021980762 -0.046580464 0.041407507
-0.016872168 -0.048015237 0.040542047
-0.012500823 -0.04983288 0.040339272
-0.0082007647 -0.052683711 0.04134823
-0.0026218891 -0.053549439 0.039716553
-0.033904076 -0.039241731 0.037048262
-0.030784428 -0.04177174 0.035633665
-0.027219415 -0.045638978 0.036735278
-0.022107959 -0.047973335 0.036584359
-0.017207861 -0.048805773 0.036251616
-0.012468576 -0.050357163 0.036670785
-0.0080656409 -0.052997321 0.036807578
-0.03039372 -0.044622123 0.03086907
-0.027847052 -0.046762019 0.031799469
-0.023198903 -0.047011495 0.03232244
-0.044714272 0.014005333 0.10832448
-0.050704896 0.012301058 0.10343218
-0.047156334 0.011051029 0.10420172
-0.044667482 0.011686981 0.10648315
-0.04846549 0.0085842311 0.099387884
-0.048038483 0.0032689571 0.090315163
-0.047049284 0.0026184916 0.08638835
-0.045403659 -0.0015759468 0.085609138
-0.047420681 0.00082495809 0.082632661
-0.045839429 -0.0025120676 0.083051592
-0.044890523 -0.004535079 0.078378141
-0.044751227 -0.0057610273 0.073303431
-0.043994308 -0.0081789196 0.067786604
-0.043778896 -0.010960549 0.068809003
0.025524259 -0.046958774 0.068610549
0.027488589 -0.047462106 0.068406373
-0.044892848 -0.0099777579 0.063618228
-0.045028508 -0.013227135 0.064906538
0.023219109 -0.048648536 0.065304875
0.02734828 -0.048439503 0.06377621
-0.045903563 -0.011926979 0.059528697
-0.045849442 -0.014921784 0.060694266
0.022453129 -0.050904691 0.061101068
-0.044917464 -0.01740846 0.055817533
-0.043816507 -0.02080673 0.054511894
0.016032219 -0.05229786 0.055513788
0.019865036 -0.052786916 0.055915821
0.023607314 -0.052064121 0.05280887
-0.043707252 -0.021031737 0.051534701
0.015838504 -0.051793784 0.051294614
0.019436717 -0.052665323 0.051221121
-0.04345274 -0.024345458 0.047739726
-0.042014718 -0.02711004 0.047544699
0.0059438944 -0.05188483 0.04633237
0.0092043877 -0.051947266 0.047689181
0.013905346 -0.051385671 0.047809999
0.023247778 -0.056504577 0.04653142
-0.043215513 -0.025478601 0.042543154
-0.041716874 -0.029440165 0.042667013
0.0042366982 -0.053447008 0.042862814
0.0079097152 -0.053007036 0.042286348
-0.042983651 -0.026497841 0.038306516
-0.041018844 -0.030141741 0.037934821
-0.037284195 -0.035031617 0.039091151
0.0031106472 -0.054275602 0.038315188
0.0081644058 -0.053346574 0.038275462
-0.039937973 -0.03207165 0.035871219
-0.037611961 -0.034549236 0.035579186
-0.035092711 -0.037576228 0.033839446
-0.016136765 -0.049568653 0.033878487
-0.012621582 -0.050941288 0.034187507
-0.0073913336 -0.053869396 0.03426246
-0.0030316114 -0.054798812 0.035218518
0.00192523 -0.054580301 0.034017723
-0.034040451 -0.039194614 0.029769335
-0.032146215 -0.042440265 0.030325685
-0.02587074 -0.04654178 0.028613601
-0.020870984 -0.046605259 0.029562477
-0.016879678 -0.047709912 0.029723559
-0.011379242 -0.050497174 0.029776547
-0.0081088543 -0.052355975 0.029148344
-0.0040000677 -0.053390771 0.030037705
-0.030753613 -0.042704761 0.026000682
-0.02663976 -0.044874847 0.026003066
-0.02321583 -0.045001298 0.025274489
-0.043378711 0.003593713 0.077324063
-0.045043468 0.00098344684 0.075604677
-0.0463714 -0.00067412853 0.070948869
-0.045657575 -0.003769666 0.07046935
-0.044868827 -0.0040202141 0.066658795
-0.045885503 -0.0064388514 0.061839242
-0.046427965 -0.0083547831 0.057826091
0.028021455 -0.048340499 0.059551287
-0.046224356 -0.0099844337 0.052725513
-0.045225263 -0.013014883 0.053317178
0.024405837 -0.050835997 0.054183591
-0.044288278 -0.015130401 0.048544835
0.018492639 -0.050624788 0.047197562
0.02122879 -0.051982343 0.047844213
0.024765015 -0.0514189 0.048223477
-0.044220567 -0.016897082 0.04349364
-0.043154478 -0.019402206 0.045654159
0.016139388 -0.051041633 0.044805329
0.020398259 -0.052275389 0.044186693
0.022435069 -0.054863751 0.045013081
-0.044758797 -0.018377483 0.039938223
-0.043387651 -0.021719873 0.0400999
0.011562169 -0.051566184 0.040890437
0.015364408 -0.051013559 0.04024322
0.01958859 -0.052861273 0.040361863
-0.043311 -0.024144828 0.035334032
-0.04178369 -0.02845946 0.034754794
0.010409117 -0.052806824 0.035084676
0.014833212 -0.052929282 0.034568947
0.017379761 -0.054853022 0.034814667
-0.042994261 -0.025880903 0.030835602
-0.040302277 -0.029303282 0.031895552
-0.03760922 -0.032583743 0.031452212
0.0073788166 -0.053979486 0.031511668
0.013182998 -0.05407849 0.031288359
0.015336752 -0.057135493 0.03210542
-0.041108847 -0.028964311 0.027144734
-0.037204385 -0.03259027 0.027228538
-0.034596562 -0.036030442 0.027602676
-0.020977736 -0.044860333 0.026771102
-0.014555812 -0.047112733 0.026283327
-0.012183785 -0.048393637 0.027331624
-0.0058341026 -0.052315563 0.026548896
-0.0015623569 -0.052680463 0.027286235
0.0026402473 -0.052827686 0.026913736
0.0069443583 -0.053566128 0.028330777
-0.036306024 -0.033464551 0.023252398
-0.032970965 -0.036856741 0.022479836
-0.029307723 -0.040588021 0.022673134
-0.024015307 -0.041909277 0.022035513
-0.020090103 -0.044298917 0.022522632
-0.016714752 -0.046007156 0.02214602
-0.011127293 -0.048247099 0.022533927
-0.0065778494 -0.050044358 0.023140553
-0.0017419457 -0.052027404 0.023416076
-0.046960235 0.0014475286 0.064290091
-0.045825899 -0.0014647543 0.06457001
-0.050464749 0.001051873 0.059458394
-0.048513353 -0.0010005832 0.05985688
-0.046944022 -0.0035623312 0.060532141
-0.049342036 -0.0017371476 0.055419493
-0.047044754 -0.0043969154 0.054762471
-0.046571493 -0.0061442554 0.05085637
-0.046630383 -0.0096898079 0.046549391
-0.045265675 -0.012630731 0.046424191
-0.047849774 -0.011061281 0.041608643
-0.045426905 -0.014317244 0.043381672
-0.048121989 -0.013150036 0.03840242
-0.046008825 -0.015994787 0.038295191
0.016996086 -0.051195443 0.037492018
0.018658936 -0.052061617 0.037488263
-0.047524929 -0.014120042 0.034124356
-0.04568398 -0.018447518 0.033721011
-0.044251561 -0.022585779 0.032820676
0.019935846 -0.0536924 0.035825681
-0.045962811 -0.020618558 0.029259894
-0.044808984 -0.022797257 0.028889779
0.013860106 -0.053629518 0.028873865
0.0175789 -0.054922223 0.028590266
-0.044179797 -0.025018871 0.025547359
-0.041970491 -0.028469592 0.024457365
0.0060669184 -0.052267909 0.024856959
0.0090823174 -0.053153425 0.025178138
0.013456941 -0.054738373 0.025285367
0.017235816 -0.055967689 0.024957184
-0.043089747 -0.02562362 0.021394428
-0.040718675 -0.02887252 0.020177629
-0.037090659 -0.032883644 0.020501819
-0.034070373 -0.035627067 0.019518703
-0.028896332 -0.037995875 0.019363552
-0.023476839 -0.040066451 0.019020796
-0.019061863 -0.043377727 0.019454747
-0.013459504 -0.045089602 0.019955277
-0.010961711 -0.046916783 0.019832581
-0.0058909655 -0.049423337 0.019761652
-0.0015891194 -0.05090192 0.019765854
0.0034621358 -0.052892774 0.020777315
0.0078114271 -0.054304719 0.020133346
0.011577845 -0.054923028 0.020582199
-0.03886205 -0.030019343 0.016069468
-0.036414504 -0.032967448 0.016278084
-0.032977343 -0.034643322 0.015695542
-0.028653264 -0.036486596 0.016553104
-0.022850394 -0.039572626 0.016567707
-0.018714964 -0.043242365 0.017226785
-0.015037179 -0.044704765 0.015971273
-0.010397971 -0.047808051 0.015815556
-0.0062651634 -0.04953891 0.014720947
-0.0012106299 -0.051548809 0.014994949
0.0032530427 -0.053069025 0.014367044
0.0082141161 -0.055055767 0.015489906
0.011148453 -0.05638656 0.015046269
0.0061414242 -0.05704546 0.013361093
-0.051064014 0.0028339028 0.053769816
-0.048034608 0.00042134523 0.052039731
-0.048211455 -0.00092715025 0.04829542
-0.046679795 -0.0016928017 0.045391452
-0.047290325 -0.0058993399 0.045156073
-0.04855144 -0.0052861571 0.037940245
-0.048340559 -0.0079079568 0.041042071
-0.049259424 -0.0065983236 0.03552125
-0.049148917 -0.010789663 0.0358545
-0.048161685 -0.012131512 0.031055633
-0.04637897 -0.016175508 0.030584011
-0.048829079 -0.012591928 0.026136134
-0.046245277 -0.015813917 0.026651833
-0.04506433 -0.018629074 0.021948487
-0.044656694 -0.021175653 0.022956014
-0.043254733 -0.023028463 0.018208172
0.01023984 -0.054158062 0.017419398
0.014363945 -0.055519998 0.018860191
0.01771605 -0.056082845 0.020726889
-0.042547405 -0.024741471 0.013894793
-0.040148377 -0.028361648 0.013885256
-0.036906719 -0.030983746 0.012365483
-0.03159225 -0.03320244 0.012284305
-0.026896119 -0.033066511 0.012531932
-0.024302244 -0.035482138 0.01510039
-0.0093740225 -0.044088542 0.011226233
-0.0027962923 -0.050574601 0.012573387
