# .PCD v0.7 - Point Cloud Data file format
VERSION 0.7
FIELDS x y z
SIZE 4 4 4
TYPE F F F
COUNT 1 1 1
WIDTH 1348
HEIGHT 1
VIEWPOINT 0 0 0 1 0 0 0
POINTS 1348
DATA ascii
0.034250438 0.039094299 0.25189972
0.030849099 0.042889714 0.25105685
0.027016222 0.045645803 0.25016975
0.02303952 0.047819853 0.25022441
0.026787102 0.046333522 0.2471879
0.010209918 0.0015863776 0.32188344
0.0093622804 0.0042346716 0.32132757
0.010999858 0.003888905 0.31825912
0.010665596 0.0057835281 0.31846201
0.0095872283 0.008646965 0.31472611
0.007171452 0.012321174 0.31255525
0.0042248368 0.015213847 0.31262726
0.0057732463 0.012150019 0.30941033
0.0042962432 0.016789764 0.309641
0.0027218461 0.019871622 0.30908406
0.0082483292 0.014621109 0.30475438
0.0061044693 0.018683672 0.30547869
0.0024238229 0.022322834 0.30537623
-0.0014289618 0.025632799 0.30460864
0.017230749 0.012017936 0.29913694
0.014614642 0.014012933 0.29993343
0.011018634 0.016963899 0.30121446
0.0080781579 0.02055037 0.30253857
0.0037819743 0.023908108 0.30253214
-0.00068736076 0.026590586 0.30241251
-0.0068417788 0.030021071 0.30221117
-0.0070881248 0.032405406 0.29929733
0.019287229 0.012688667 0.29600441
0.017223299 0.016418308 0.29699987
0.013876557 0.018763214 0.29810756
-0.0044384599 0.032922059 0.29644561
-0.0081725121 0.032787919 0.29545754
-0.016167521 0.039372861 0.2952261
0.024658203 0.011416018 0.29158318
0.022478878 0.01505971 0.29256302
0.018338561 0.018032283 0.29475027
-0.0072885156 0.036788762 0.29290962
-0.010266304 0.039224118 0.29164034
-0.014050424 0.041186064 0.29192001
-0.017322481 0.042211771 0.29145533
0.029461682 0.01129055 0.28668654
0.027768552 0.013726681 0.28813106
0.024443865 0.016758293 0.28989041
-0.0053047538 0.039483875 0.29084826
-0.0080820322 0.042201489 0.28865999
-0.011842549 0.044159681 0.28753179
-0.016707718 0.043197066 0.28842503
0.031928122 0.012423784 0.28286254
0.030163288 0.01514554 0.28492975
-0.0072146058 0.044614255 0.28532493
-0.0111022 0.046184599 0.28305656
-0.016763628 0.048572332 0.2810964
0.035464823 0.011273056 0.27682108
0.033891261 0.013801247 0.27886999
0.032161057 0.016779453 0.2805562
-0.008996129 0.048462331 0.27995867
-0.012645662 0.051127821 0.27957499
0.038338244 0.013117492 0.2742182
0.035686851 0.016226023 0.27493119
0.033672035 0.018717378 0.27617007
-0.0074675083 0.050513327 0.27687454
-0.011102021 0.053762347 0.2749759
0.040302277 0.015459985 0.26994836
0.037661493 0.018811524 0.27133459
0.035019577 0.020307273 0.27334034
-0.0073150992 0.053329378 0.27327538
-0.010465205 0.055511117 0.26994699
-0.013710678 0.057248622 0.26898658
0.040885985 0.016756892 0.26564288
0.039887369 0.0196082 0.26676786
-0.0055334568 0.05516836 0.26644909
-0.0097616911 0.055584759 0.26512015
-0.012455642 0.056544214 0.26656699
0.042165756 0.018812865 0.26131475
0.040637195 0.022100806 0.26209593
-0.0036588311 0.056621969 0.26190752
-0.0077745914 0.056812167 0.26230991
0.043337107 0.021055847 0.25650454
0.041866124 0.024066508 0.25766969
0.040053964 0.026764214 0.25872648
0.0031265616 0.055937052 0.25750214
-0.0013362765 0.057550371 0.25756818
-0.0052937865 0.0575656 0.25700462
0.042163014 0.025866866 0.25319308
0.040426612 0.029557049 0.25267786
0.018482327 0.048111439 0.25291657
0.0040402412 0.05747509 0.2538656
-0.00061506033 0.05899772 0.25213999
0.041382194 0.026969045 0.24900983
0.039440572 0.03012079 0.24785988
0.03679955 0.03386125 0.24857382
0.03384161 0.037996709 0.24914511
0.031703472 0.040601313 0.24849109
0.020816207 0.048374683 0.24999838
0.017571628 0.049949467 0.24981241
0.01367563 0.053106636 0.24982928
0.0096266866 0.05614078 0.24980007
0.0048956275 0.058763832 0.24875937
0.00043874979 0.060065866 0.24861757
0.036758304 0.035050422 0.2441913
0.03396517 0.038757086 0.24431656
0.03053689 0.042322338 0.24448489
0.026850522 0.045517772 0.2440428
0.022518575 0.048467517 0.24445324
0.018278718 0.05135271 0.24436517
0.014201701 0.054148793 0.24451183
0.010551035 0.056941956 0.24491726
0.0062013268 0.058334351 0.2447093
0.033208311 0.039745092 0.24021702
0.029821217 0.042281747 0.24019156
0.026653826 0.046183914 0.23963396
0.022774637 0.049259067 0.24047582
0.019568503 0.051663399 0.23989426
0.010059655 0.00087600946 0.31779003
0.0061044693 0.0070590675 0.31176144
0.0079243779 0.0054532886 0.30593461
0.0060998201 0.0085285902 0.3074457
0.012655079 0.0047239363 0.30205584
0.011120498 0.0087226629 0.30284542
0.0082318187 0.010941684 0.30525631
0.018954456 0.0033202469 0.2987439
0.016502559 0.0071924627 0.29897732
0.01060921 0.012429416 0.30168635
-0.012203872 0.030497015 0.29764014
-0.014128387 0.032236546 0.29685998
0.02104944 0.0061103404 0.29358792
0.018893063 0.0086953342 0.29615247
-0.010029912 0.031557471 0.29560721
-0.01405406 0.033964157 0.2950303
-0.016514361 0.036697298 0.29452646
0.025458515 0.0045269728 0.28884429
0.023745477 0.0063433647 0.29040861
-0.019472659 0.042856574 0.2896713
0.030516505 0.0036407709 0.28318131
0.028623641 0.0067649484 0.28577107
-0.01918906 0.043986261 0.28552687
0.032884538 0.0061501861 0.28058904
0.031383216 0.0089683831 0.28330177
-0.016997576 0.045645267 0.28224039
0.035178125 0.0071477294 0.27676958
0.040020525 0.0060855448 0.26997405
0.037539482 0.0078820288 0.27192885
0.041272044 0.0075998008 0.26709008
0.040069938 0.011460692 0.26841253
-0.019504428 0.05524537 0.2653836
0.042995274 0.0088689327 0.26277959
0.04114145 0.01294291 0.26373923
-0.012142777 0.054977417 0.26468801
-0.014997542 0.05613184 0.26416582
-0.01933068 0.055640668 0.26381731
0.04350704 0.010681868 0.25880802
0.04229486 0.014908761 0.25939208
-0.010353625 0.056574941 0.25942242
-0.013965189 0.056412905 0.25971496
0.042740881 0.016912997 0.25492221
-0.0091353655 0.057224452 0.25460869
0.042649209 0.019270957 0.25108337
0.041494429 0.022112608 0.24949677
-0.0068947077 0.058382034 0.25026602
0.040673018 0.023922741 0.24560486
0.040101349 0.027363211 0.24555312
-0.0016943812 0.059688777 0.24544109
-0.005386889 0.059675813 0.24655466
0.040933251 0.025298506 0.24108429
0.039280415 0.029325038 0.24197714
0.03668201 0.034295291 0.24177425
0.0088160634 0.055676222 0.24124782
0.0030187368 0.056919307 0.24059312
-0.00022745132 0.058483005 0.24241413
0.036143482 0.032929152 0.23811977
0.033454359 0.036596626 0.23710598
0.030121207 0.040713698 0.23740767
0.026925921 0.044017553 0.23714639
0.022345066 0.047575504 0.23738919
0.018368661 0.050280899 0.23730437
0.01353842 0.052837878 0.23772641
0.0087231994 0.055167854 0.2369297
0.0047457814 0.0566082 0.23676036
0.03183049 0.038268685 0.23381446
0.029796481 0.041113287 0.23237829
0.026553094 0.044756919 0.23344682
0.022976041 0.048227698 0.23358165
0.018420756 0.051153749 0.23310898
0.013736188 0.05316186 0.2322589
0.0089936852 0.056123435 0.23210268
0.030799687 0.042630762 0.22777645
0.027131259 0.045925945 0.22870941
0.023769557 0.049628019 0.22859107
0.01917392 0.052063853 0.22811966
0.01519531 0.054035097 0.22787891
0.026420712 0.048179597 0.22397496
0.025376201 0.049463362 0.22407304
0.0046622753 0.0023493171 0.3081696
0.003597796 0.0051193535 0.30963689
0.0099129081 0.001416862 0.30414325
0.0078362226 0.0026090443 0.30651438
0.01303333 0.0019403398 0.30157673
0.024447322 -0.0044945776 0.29433876
0.020754933 -0.0015672743 0.2954278
0.018013597 0.00051161647 0.29628587
0.024568081 -0.0044347644 0.29163271
0.022824347 -0.00024375319 0.29170543
0.019872665 0.0027219057 0.2940439
0.030694246 -0.0056009889 0.28506374
0.026413739 -0.0014824569 0.28649223
0.025213182 0.0011627078 0.28817064
0.031663954 -0.0032041073 0.28225642
0.029470503 -0.00035637617 0.28297871
0.027582467 0.002861768 0.28598213
0.034455657 -0.0012591183 0.27819753
0.03223896 0.0018388331 0.27982432
0.036160648 0.00082463026 0.27410728
0.041287482 -0.00037130713 0.26884812
0.038727045 0.0035974979 0.27104002
0.042678297 0.0017790198 0.26485837
0.041540563 0.0042740107 0.26821578
0.043388546 0.0040293038 0.26052678
0.044469178 0.0078856647 0.26094174
-0.017221868 0.055714369 0.26079911
-0.022630394 0.055855185 0.26062483
-0.025768638 0.058625102 0.25928783
0.043698907 0.0054039061 0.256217
0.044271231 0.0093457401 0.25673026
-0.016206145 0.056565523 0.25734651
-0.021022022 0.056475729 0.25586987
-0.025312304 0.059507608 0.25616652
0.043567896 0.010606229 0.25239754
0.042741716 0.014145195 0.2526527
-0.015369415 0.057249337 0.25236708
-0.019426048 0.05819124 0.25202322
0.04333204 0.012504846 0.24697737
0.041909039 0.015456051 0.24802585
-0.01301378 0.058826387 0.2480485
-0.015408278 0.061275214 0.24871404
0.044306159 0.014583051 0.24204122
0.042893648 0.017612398 0.24409862
0.041789889 0.021100521 0.24460314
-0.0078091621 0.059093773 0.2432795
-0.012560546 0.058024675 0.24347381
0.04260695 0.019266009 0.23965172
0.041552067 0.023120105 0.23966788
0.039968848 0.026978701 0.23873954
-0.0022656918 0.05850929 0.2396668
-0.0069903731 0.058595747 0.23937301
0.040901959 0.024024636 0.23512639
0.038359344 0.028205216 0.23535277
0.036097646 0.032543182 0.23485516
0.0024706125 0.057690501 0.235606
-0.0013859868 0.058443427 0.23490535
-0.0052033663 0.059016794 0.2346576
0.040479124 0.025369942 0.23115771
0.038145065 0.028903633 0.23058431
0.036248863 0.033629179 0.2310373
0.032764137 0.036969364 0.23094933
0.012119651 0.054767817 0.22978948
0.0089783072 0.056483209 0.2296332
0.0044104457 0.057876468 0.23087429
0.00014704466 0.059479803 0.2307276
-0.0045169592 0.060066998 0.23158391
0.038259089 0.031602561 0.2258433
0.037776232 0.035588413 0.22660087
0.034126878 0.039033979 0.22672151
0.030369341 0.042608052 0.22515218
0.026635349 0.045973688 0.22524332
0.021832883 0.050599992 0.22542353
0.019015908 0.052570075 0.22537185
0.013728023 0.054491222 0.22617511
0.0095513463 0.055617958 0.22593383
0.005435288 0.057445258 0.22653238
0.0014414191 0.059198827 0.22726564
0.038147151 0.037152737 0.22212629
0.035487592 0.040851623 0.22222887
0.030960262 0.043556809 0.22204565
0.026978076 0.046479613 0.22178741
0.022891521 0.05015561 0.22210012
0.019497871 0.052373707 0.22200333
0.015052795 0.054063112 0.22190212
0.010917842 0.055577904 0.22238545
0.03485471 0.040758282 0.21868508
0.031466901 0.04283163 0.21752827
0.027269781 0.045264572 0.21836899
0.023373067 0.048517287 0.2184106
0.019276023 0.051604301 0.21838187
0.026790082 -0.01035288 0.28772449
0.025610328 -0.0068955719 0.28920013
0.032773137 -0.0092094839 0.28311175
0.02970624 -0.0079088509 0.28553456
0.026782095 -0.0040468276 0.28647614
0.033582509 -0.0083199441 0.28004098
0.032810509 -0.0060883164 0.28153449
0.03869909 -0.0083713233 0.27404022
0.036049783 -0.0064647496 0.27614617
0.034498274 -0.0034588575 0.27761483
0.037275851 -0.0048891902 0.27255517
0.040671766 -0.0051470399 0.26733315
0.042529702 -0.0022148788 0.26223803
0.043565392 6.0319901e-05 0.25859278
0.044074774 0.0024495125 0.25468743
-0.024418533 0.057085514 0.25585645
-0.02518791 0.057939619 0.25338352
0.044135988 0.003750056 0.25065541
0.043425739 0.0067124069 0.2494158
-0.021920025 0.057335585 0.2492574
-0.024548829 0.057790548 0.25092298
0.045304298 0.0058323145 0.24558656
0.043951213 0.0093821883 0.24624531
-0.01826328 0.05845347 0.24522857
0.045662999 0.0066378117 0.24155657
0.044636786 0.011179239 0.24143074
0.043213904 0.016056001 0.24046956
-0.015998662 0.057272553 0.24069144
0.045398712 0.011630207 0.23654221
0.042688727 0.016280293 0.23666416
-0.0097201467 0.058131754 0.23716356
-0.013622582 0.05778712 0.236827
0.046080112 0.01345396 0.23214413
0.043052673 0.017343163 0.23237564
0.041578233 0.021326035 0.23192696
-0.0092650652 0.058089614 0.23297606
-0.012255967 0.057742804 0.23328505
0.046014547 0.015438706 0.22887556
0.043478966 0.017695963 0.22892974
0.04076308 0.022502571 0.22825815
0.038773179 0.026875108 0.22732787
-0.0018653274 0.059633613 0.22766693
-0.0053160787 0.059506416 0.22750197
0.039723396 0.023983896 0.22448377
0.038555682 0.027894974 0.22388862
0.03747946 0.031357855 0.22224237
0.0030654669 0.056770712 0.2236058
-0.0002168417 0.057228625 0.224016
0.037285149 0.033724248 0.22014515
0.012659013 0.053609431 0.21854489
0.0079524517 0.054969728 0.21938722
0.0048217177 0.054678142 0.2183039
0.035579503 0.034903198 0.21667342
0.0333336 0.037943393 0.21551715
0.029508173 0.041180342 0.2135597
0.025885046 0.044575334 0.21454136
0.02198863 0.047850639 0.21458881
0.017808318 0.050891131 0.21453498
0.013366461 0.05283162 0.21484019
0.0091392994 0.054481864 0.21469013
0.029158533 0.041228235 0.21091814
0.024985015 0.044291437 0.21087019
0.021636784 0.046952128 0.21087722
0.018140495 0.049491286 0.21083097
0.015277803 0.052267611 0.21037214
0.034267306 -0.010711759 0.27808928
0.036395669 -0.010772437 0.27585328
0.036888719 -0.011790633 0.26822925
0.03769505 -0.0089248121 0.27048647
0.038758337 -0.0096004605 0.26464933
0.041951716 -0.0080653429 0.26017988
0.040691316 -0.0052352846 0.26314008
0.043849051 -0.0055324137 0.25679833
0.044493318 -0.0038859844 0.25211936
0.044625044 -0.00021770597 0.25196505
0.0442397 -0.0024051368 0.2472692
0.044568479 0.0011560917 0.24764417
0.045514286 -0.00076439977 0.24351563
0.045194089 0.0024881959 0.24323611
-0.022007167 0.056252927 0.24226831
0.04545939 0.0054046512 0.23839246
-0.022145033 0.056160897 0.23859565
-0.025545835 0.056972325 0.23789014
0.046774149 0.0078925192 0.23473592
-0.016817749 0.05763644 0.23425077
-0.021305025 0.056687087 0.23421298
0.04821521 0.01040116 0.22990958
0.047667086 0.012088478 0.23102187
-0.011085868 0.057203889 0.22908686
-0.01528573 0.056984186 0.23059593
0.046005428 0.013690889 0.22636788
0.042572379 0.017292917 0.22526722
0.040151954 0.020481199 0.22496395
-0.0084347129 0.055958986 0.22324808
-0.01230067 0.05692184 0.2245364
0.041357219 0.017751932 0.22171991
0.039338648 0.021998048 0.22113194
0.037345409 0.026124656 0.22052972
-0.0037225485 0.055794269 0.22140972
0.038678885 0.02278164 0.21716021
0.036531031 0.026112229 0.21674518
0.034628332 0.029099464 0.21668421
0.0015209317 0.054836005 0.2175308
-0.0024552941 0.055567265 0.21552937
0.03361851 0.030506283 0.21178673
0.03255266 0.034963489 0.21271323
0.0080342889 0.054446548 0.21233056
0.0030490756 0.055660933 0.21281354
-0.00025463104 0.055683315 0.21246473
0.032177866 0.035619736 0.20863058
0.028966486 0.040311396 0.2080778
0.025215685 0.044372648 0.20850311
0.022137582 0.047091484 0.20822434
0.018633425 0.050201982 0.20885061
0.014119089 0.053722233 0.20876257
0.0089999437 0.055244923 0.20877756
0.0041881204 0.056225449 0.20814775
0.032030404 0.037350148 0.20403485
0.029706657 0.040406257 0.20388119
0.026293099 0.044127375 0.20412053
0.02243042 0.047467113 0.2041914
0.018297613 0.050582856 0.20416127
0.014318466 0.053824037 0.20418774
0.009534657 0.055775166 0.20402341
0.029757857 0.040905505 0.20051377
0.026920855 0.045346886 0.19928069
0.023244917 0.048849523 0.19942515
0.019169033 0.05201754 0.19941817
0.01473397 0.054898083 0.19927751
0.011010766 0.056083769 0.19974689
0.029748142 0.043785393 0.19593267
0.027323723 0.046753854 0.19574712
0.02463001 0.049092591 0.1956542
0.017940283 0.053667456 0.19607894
0.035274446 -0.014305681 0.26633209
0.039263785 -0.0158315 0.26111758
0.038330555 -0.01329276 0.2622745
0.041057646 -0.013795167 0.25832993
0.039296031 -0.013283968 0.25987017
0.042081118 -0.012295216 0.25364524
0.043385923 -0.0086606145 0.25363618
0.042983532 -0.0085760951 0.24934582
0.051103055 -0.011962056 0.24307759
0.04618305 -0.0083671808 0.24302463
0.043825269 -0.0060778558 0.24481736
0.050252199 -0.010235488 0.24156646
0.046478331 -0.0079095066 0.24144314
0.044971883 -0.0035664141 0.24012081
-0.026746094 0.055519789 0.24084221
0.048965752 -0.0036966503 0.2357776
0.045940936 -0.0018438697 0.23567389
0.044913709 0.0016520619 0.23791556
-0.023866415 0.056426316 0.2363313
-0.027650893 0.055555731 0.23614262
0.044812977 0.0030914843 0.23269562
-0.023683131 0.056428343 0.2318977
-0.027472913 0.05632481 0.23231398
0.044841051 0.0050404966 0.22827177
-0.017345846 0.055667371 0.22690214
-0.020821035 0.056029022 0.22727488
0.046414495 0.0091562867 0.22592629
0.044903457 0.009934485 0.22307874
-0.011994183 0.05531013 0.22252382
-0.016453445 0.055742145 0.22418492
-0.020828724 0.057748973 0.22331016
0.043702304 0.011498481 0.2200924
0.042048037 0.015220374 0.21907268
0.039713681 0.018524379 0.21872763
-0.0060192347 0.054383695 0.21813367
-0.0095285177 0.05421716 0.21924166
0.041961551 0.015693992 0.21444659
0.039585412 0.020144105 0.21479176
0.037986338 0.023615777 0.21462341
-0.0058264136 0.055052936 0.21484087
-0.0086841583 0.054949909 0.21432965
0.043252409 0.017143965 0.20997478
0.040133417 0.021508366 0.21018176
0.037180483 0.025689393 0.21059524
0.034810305 0.02862373 0.2112685
-0.0035962462 0.055747926 0.20993988
-0.0079959631 0.056271195 0.20950703
0.045180976 0.01729691 0.20663191
0.040314436 0.02291289 0.20553599
0.037615299 0.026708245 0.20566536
0.035064518 0.031224757 0.20623486
0.032726228 0.033895105 0.20467947
0.0018966198 0.055330098 0.20492227
-0.0015009046 0.055603653 0.20612757
0.037263632 0.027861595 0.20131086
0.03496635 0.031796694 0.20110075
0.032131553 0.035451293 0.20118086
0.0083323121 0.055967271 0.20010547
0.0042716861 0.055442214 0.20134796
0.03383702 0.032832235 0.197035
0.031397223 0.036353052 0.19645874
0.029631853 0.041141987 0.19791864
0.0091819167 0.05580166 0.19612752
0.0048138499 0.055572033 0.19761299
0.031073511 0.038617462 0.1923082
0.030508935 0.042398036 0.19286565
0.027015507 0.04573518 0.19236906
0.022424161 0.048192888 0.19209282
0.018335998 0.050020367 0.19264351
0.01417923 0.053592265 0.19271754
0.010200799 0.055767685 0.19219922
0.029733121 0.042491198 0.18857031
0.02696228 0.045169979 0.187631
0.023454249 0.047782391 0.18821691
0.019075811 0.050141871 0.18839775
0.040005386 -0.01748082 0.26093394
0.037659705 -0.017509699 0.26230586
0.041297853 -0.015775144 0.25120294
0.048461676 -0.01717025 0.24513303
0.041929841 -0.014051735 0.24647187
0.042402208 -0.011265218 0.24705701
0.052062988 -0.016120166 0.24585898
0.049120724 -0.015147418 0.24346589
0.045766234 -0.012408435 0.24348442
0.044077873 -0.0093397796 0.24423979
0.050694525 -0.010727584 0.23896585
0.047280371 -0.010042191 0.23886417
0.045624077 -0.0072596967 0.23886393
0.049010038 -0.0073421597 0.23678772
0.046001494 -0.0066329837 0.23646353
0.043049276 -0.00083705783 0.23024984
-0.028211653 0.055518568 0.22915743
0.042904913 0.0019263327 0.22559439
-0.024092853 0.055772692 0.22583251
-0.02724725 0.056536168 0.22548051
0.042638958 0.0038129985 0.22072582
0.044291615 0.0078186393 0.22010599
-0.018264353 0.053311914 0.21976264
-0.021681905 0.055998117 0.22037135
-0.025758088 0.057431608 0.22069608
0.043042719 0.0045699775 0.2174658
0.043112874 0.0091769397 0.21621899
-0.012227595 0.053796023 0.21696071
-0.017027676 0.052671313 0.21634682
0.042936385 0.011039048 0.21185176
-0.012096226 0.054688871 0.21194164
-0.015483856 0.05406335 0.21209942
0.04345268 0.01262936 0.20747341
0.041717708 0.018574715 0.20805876
-0.010410607 0.055405468 0.20784007
0.043784022 0.013955712 0.2038741
0.042989969 0.018170893 0.20356779
0.04147023 0.021148413 0.20421518
-0.00077706575 0.054420173 0.20336126
-0.0046536922 0.054901749 0.20306788
-0.0075547099 0.055269092 0.2040994
0.0418064 0.018542349 0.19927864
0.04073751 0.023165733 0.19951098
0.03837949 0.026997626 0.19973217
0.00041788816 0.054804415 0.20015083
-0.0024221539 0.054442763 0.19896345
0.039923251 0.024657875 0.19564812
0.038019061 0.027261138 0.19496541
0.035249531 0.031511992 0.19505368
0.03242594 0.034975648 0.19434129
0.0018370152 0.055034399 0.19428869
0.038704872 0.027977079 0.19030677
0.035991013 0.032548696 0.19105427
0.032963812 0.036551237 0.19103162
0.031343639 0.039186895 0.18984477
0.016277611 0.050887883 0.18981628
0.014957786 0.051991791 0.18983285
0.0083667636 0.056310475 0.19051157
0.0045338869 0.05589807 0.19013093
0.038406074 0.029767305 0.18712954
0.036283851 0.033277065 0.18605427
0.03374964 0.037224382 0.18628024
0.030814946 0.041165411 0.1861748
0.026904047 0.045009255 0.18509804
0.022518337 0.04832077 0.18577634
0.017839134 0.050849169 0.18605365
0.013693631 0.053335309 0.18659423
0.0095098615 0.054998338 0.18633126
0.0053417087 0.056447029 0.18731047
0.033229768 0.037849277 0.18232936
0.030219674 0.041855693 0.18162352
0.026740611 0.045343935 0.1815905
0.022659779 0.048574954 0.18159845
0.018083513 0.051400691 0.1814087
0.014239073 0.053738147 0.18123901
0.010539472 0.053775668 0.18231207
0.029112577 0.043363661 0.17799008
0.026866794 0.046014696 0.17749909
0.02311492 0.049287379 0.17702049
0.019354463 0.05195421 0.17733288
0.015943229 0.053432524 0.17792529
0.039901197 -0.019855082 0.24854587
0.044738948 -0.018408507 0.24521475
0.042124093 -0.017135441 0.24558513
0.041278064 -0.0057628453 0.23071502
0.04135263 -0.005504936 0.22904183
0.040000081 -0.0049355924 0.22662123
0.040193856 -0.0022975802 0.2225412
0.041435778 -0.00030943751 0.21755986
-0.023038268 0.05369696 0.21686773
0.042623758 0.0021951795 0.21388291
0.042246878 0.0044347048 0.21204598
-0.01966244 0.05301252 0.21553905
-0.023713887 0.053455174 0.21319498
0.043052137 0.0031308234 0.20925848
0.042292893 0.0061408579 0.20940991
-0.017768204 0.053853869 0.210784
-0.021916926 0.054575175 0.21022879
0.042714 0.0090564489 0.2046933
-0.013033926 0.055021614 0.20483379
-0.017679751 0.05316788 0.20624594
0.042737365 0.011486769 0.20136027
0.042689621 0.013379753 0.20001672
-0.011606276 0.054051936 0.20089547
0.042029142 0.01523748 0.19656102
0.040902197 0.0191966 0.19661294
-0.0051801801 0.053949177 0.19672506
-0.0096046925 0.053518146 0.19714741
0.042323768 0.016667604 0.19184078
0.039636195 0.020629287 0.19205688
-0.0044609904 0.053550541 0.19232647
0.043235481 0.01850915 0.18769591
0.040046096 0.021882743 0.18731074
0.03902787 0.026456773 0.18703662
0.0012198091 0.056166828 0.18823607
-0.0031390786 0.054896384 0.18710171
0.038848937 0.023545593 0.18391025
0.037564814 0.027458876 0.18305635
0.036452711 0.031395495 0.18314099
0.0072351098 0.054265469 0.18268418
0.0027829409 0.054936588 0.18288141
-0.00101161 0.054928869 0.18393934
0.036691844 0.029263943 0.17862773
0.034603119 0.032269984 0.17935318
0.032229483 0.03613767 0.17817599
0.030252159 0.039753377 0.17819875
0.0077663064 0.053936005 0.17845273
0.0023801923 0.055133998 0.17926753
0.031742752 0.036934465 0.1746389
0.029174984 0.04091543 0.17432922
0.026670575 0.045342684 0.17442068
0.022600532 0.049489021 0.17466637
0.019575715 0.051407695 0.17455065
0.013864219 0.053262562 0.1744774
0.0093309879 0.053945839 0.17404634
0.028591514 0.041749865 0.16938013
0.026618659 0.044520527 0.16999781
0.022847354 0.048058867 0.17009363
0.018478811 0.050543964 0.17030627
0.014517128 0.052183479 0.17012861
0.025712192 0.046505958 0.16641551
0.022907436 0.048502833 0.16726771
0.036589324 -0.0094136596 0.22311799
0.038563073 -0.0065320134 0.21964015
0.040009499 -0.0046235323 0.21675865
0.04233706 -0.0021085143 0.21134369
-0.028211474 0.053346246 0.21328811
0.043134511 0.001000911 0.2075675
-0.021143854 0.052369535 0.20723112
-0.024602711 0.053484589 0.20740704
-0.027255714 0.053968906 0.20740874
0.043414176 0.002974093 0.20309494
0.042810977 0.0059317052 0.20365469
-0.019340813 0.053094178 0.20269446
-0.023618758 0.054091454 0.20310999
0.043372273 0.004110992 0.19801135
0.042780042 0.0081909597 0.19858722
-0.015397727 0.052109599 0.1966586
-0.018443763 0.052444518 0.19974707
0.044603109 0.0064076781 0.19341259
0.043858826 0.010084927 0.19435962
-0.011938989 0.052365273 0.19342493
0.044292748 0.011583626 0.19010662
0.043054044 0.014722854 0.19151531
-0.0067171454 0.053595454 0.19058029
-0.010087252 0.053254485 0.18897544
0.044022024 0.013301522 0.18598892
0.043599486 0.016607344 0.18491639
-0.0054692626 0.055229187 0.18674062
-0.0093972087 0.055129886 0.18417566
0.042632103 0.019047946 0.18173945
0.040322602 0.02250132 0.18191987
0.038413763 0.025879413 0.18081492
-0.0037658811 0.055496037 0.18152952
-0.0062199235 0.055964321 0.17779195
0.042680323 0.020663589 0.17855161
0.040483296 0.022749215 0.17703927
0.038056672 0.027194947 0.17702723
0.035087645 0.031614035 0.17620495
0.003223002 0.055563331 0.17666396
-0.002440393 0.055936009 0.17672098
0.040902495 0.024441868 0.17283422
0.038839161 0.027330905 0.17225361
0.035391331 0.031184494 0.17254788
0.032732129 0.035019457 0.17239445
0.03037411 0.038422644 0.17159063
0.010934174 0.053426474 0.17153046
0.0075543523 0.054353654 0.17244127
0.0028577447 0.055463135 0.17223462
-0.0016918182 0.055963486 0.17326316
0.038818836 0.028375328 0.16844201
0.035728753 0.032398015 0.16772336
0.033095896 0.036685586 0.16807562
0.030326545 0.040479124 0.16824037
0.026530921 0.044843316 0.16705281
0.016949892 0.051640064 0.16746962
0.012788713 0.052406162 0.16766211
0.0083694458 0.053407669 0.16764283
0.0035758615 0.054368913 0.16847426
0.034879506 0.034134328 0.16414249
0.032522678 0.037197888 0.16373521
0.02960211 0.041174382 0.16308975
0.026450932 0.045003235 0.16322309
0.02234441 0.048525363 0.16353059
0.018215954 0.050677121 0.16324353
0.013871729 0.052214324 0.16335589
0.029323101 0.041408002 0.15945023
0.025927365 0.045293123 0.15977895
0.022828877 0.048299462 0.15993434
0.019018769 0.0507209 0.15978307
0.039126813 -0.016283959 0.21946858
0.036671042 -0.013304889 0.22145067
0.034446061 -0.01385352 0.22274505
0.038203716 -0.012052327 0.21716605
0.039358377 -0.009088248 0.21358345
0.041058719 -0.007222563 0.20930658
0.042596638 -0.0057119429 0.20431252
0.042644441 -0.0015441179 0.20461275
0.046037257 -0.0074232519 0.19943093
0.04428488 -0.0042873919 0.19982962
0.043198526 -0.00055250525 0.20048217
-0.026956499 0.051281363 0.19795738
0.045131266 -0.0015483499 0.19559722
0.043842852 0.0016519725 0.19708495
-0.021105289 0.050322801 0.19565706
-0.024428308 0.051201522 0.19749592
0.045321524 -9.2387199e-07 0.19204427
0.044656694 0.0028197467 0.19206806
-0.018725991 0.051600218 0.1917576
-0.022980452 0.053596586 0.18988548
0.044377208 0.0053461492 0.18809818
0.044167578 0.0079782903 0.18653147
-0.013678968 0.052621335 0.18815155
-0.01770401 0.05325067 0.18729024
-0.021456778 0.054041684 0.18793337
0.043339014 0.0088018179 0.1829688
0.042412281 0.012848377 0.18197501
-0.012141049 0.054618448 0.1835272
-0.015692651 0.055806696 0.18365502
0.043402135 0.011172652 0.17859066
0.042356431 0.014900625 0.17860046
-0.010441363 0.055390745 0.17899328
-0.01390326 0.056089431 0.17903674
0.04406935 0.012918264 0.174169
0.042413473 0.016472548 0.17405725
0.041660368 0.020180792 0.17461836
-0.0044255853 0.055992901 0.17272586
-0.0075152516 0.055962324 0.17436951
0.042607784 0.018699348 0.16943741
0.041369438 0.022004306 0.17038924
-0.0035703778 0.055835634 0.16958719
0.043126881 0.020317674 0.16494793
0.040427983 0.022868931 0.16451252
0.03865844 0.027498454 0.16572684
0.036416113 0.030678809 0.165371
0.0051651001 0.053832144 0.16593072
0.0014424324 0.054527551 0.16534886
-0.00089424849 0.055334002 0.16690618
0.042648613 0.022745401 0.16091442
0.038011611 0.028179884 0.1616199
0.035020232 0.031945914 0.16154012
0.032290995 0.036291689 0.16098604
0.012262642 0.052269936 0.16121444
0.0077058673 0.053645134 0.16210842
0.0038629174 0.054540157 0.16128683
0.038235962 0.02970311 0.1581828
0.035343289 0.032985538 0.15799671
0.032493889 0.0367634 0.15724134
0.029416084 0.040710598 0.15653801
0.026361406 0.044247031 0.15666494
0.022125959 0.046973497 0.15668786
0.017108619 0.049067765 0.15637362
0.012254775 0.051524878 0.15784264
0.0074941516 0.05355531 0.15812051
0.032666206 0.038382918 0.15200701
0.030744076 0.041284889 0.15239102
0.026954353 0.044864655 0.15255865
0.022090256 0.047243506 0.15239501
0.017071605 0.048767477 0.15334618
0.033088088 0.039202094 0.14863908
0.031244457 0.042664319 0.1478827
0.027404666 0.04592669 0.14765719
0.023459792 0.047673911 0.14751393
0.037956417 -0.018670231 0.21966825
0.037021339 -0.016042084 0.22094534
0.039519489 -0.015639126 0.21701069
0.039405048 -0.014271319 0.21461867
0.039001822 -0.014272958 0.21099301
0.040579915 -0.012519151 0.20664315
0.044632733 -0.0091040134 0.20238273
0.042255342 -0.0099725723 0.20415713
0.045714259 -0.0085214376 0.19912486
0.04498297 -0.0058490038 0.19421767
-0.025928855 0.050846845 0.19394277
0.044009447 -0.0034864545 0.19008307
0.04388088 -0.0010327697 0.18883322
-0.025547028 0.05238077 0.1912861
-0.027852833 0.053854734 0.19120757
0.043381155 0.0010380149 0.18411122
0.044563651 0.0030375123 0.17998517
0.043783426 0.0070558488 0.18081963
0.044669926 0.0051119924 0.17542416
0.04393667 0.008577168 0.17723465
-0.01343888 0.054688156 0.17606083
0.044252217 0.010194391 0.17234737
0.042913616 0.014529198 0.17161959
-0.012041509 0.05427295 0.17168128
-0.014016688 0.054646492 0.17320791
0.043746412 0.012362897 0.16794729
0.042840779 0.015853524 0.16793194
-0.0098757148 0.054384202 0.1680364
0.043631494 0.013755709 0.16333613
0.043341577 0.017645419 0.16311586
-0.0036516786 0.054927349 0.16312948
-0.0080780983 0.05447188 0.16246784
0.043857694 0.019369453 0.15843162
0.040877461 0.024035364 0.1588245
0.038873017 0.026696503 0.15842789
0.0012171865 0.054621488 0.15831205
-0.0038332343 0.055309683 0.15805161
-0.007206738 0.055821985 0.15840548
0.043425739 0.020576507 0.15498117
0.041637838 0.02337265 0.15351212
0.03809911 0.0265674 0.15362695
0.03581202 0.030946344 0.15506691
0.033342898 0.033950239 0.15462139
0.011031926 0.049790025 0.1537157
0.0058965087 0.05169183 0.1535992
0.0015490651 0.053751379 0.15323442
-0.0023834109 0.055239379 0.15403527
0.042243123 0.023669749 0.15002564
0.036853671 0.028349251 0.14922523
0.035174549 0.031266481 0.14991719
0.033008993 0.035261631 0.15122324
0.018915117 0.047423601 0.14968753
0.016412199 0.048602074 0.15039468
0.012066603 0.050267458 0.150608
0.0067383051 0.052829176 0.14877743
0.0037804842 0.054466367 0.14835817
0.03510803 0.033437043 0.14525062
0.033462942 0.037218779 0.14608738
0.031214118 0.04148671 0.14517087
0.026721418 0.045627952 0.14534616
0.021924138 0.048270941 0.14595842
0.017907917 0.049328417 0.14629918
0.012497902 0.05162093 0.14575589
0.008579731 0.054147243 0.14467639
0.035612762 0.034507006 0.14169729
0.033723891 0.038388491 0.1411379
0.030263245 0.042290598 0.1414766
0.026563227 0.045299292 0.14177388
0.022627056 0.047531903 0.14103535
0.017966568 0.050123215 0.14096713
0.013518035 0.052814782 0.14127439
0.0093012452 0.055240184 0.14142483
0.032656074 0.040230215 0.13770074
0.030805528 0.042083234 0.13781708
0.027022839 0.045132995 0.13709602
0.023237586 0.048335105 0.13697845
0.018662572 0.051314563 0.136805
0.015334904 0.052953571 0.13746041
0.036441147 -0.023523241 0.21664067
0.040496528 -0.024782687 0.21138199
0.036899567 -0.020863116 0.21325408
0.040739894 -0.02350089 0.20930569
0.036723137 -0.020005167 0.2093785
0.038492978 -0.017605096 0.20301385
0.041283846 -0.015366226 0.19979356
0.043210268 -0.013379902 0.1948695
0.043359935 -0.0078636408 0.19074784
0.041222394 -0.006564796 0.18612583
0.04232949 -0.0042610466 0.18233398
0.042298198 -0.0021933317 0.18555008
0.043721616 -0.0024946928 0.17846787
0.044353008 -0.0014277697 0.17428261
0.045076728 0.0023666918 0.1739974
0.044355631 0.0040364265 0.16923869
0.043848217 0.0085219145 0.16844803
-0.016094089 0.053582698 0.16887105
0.04472357 0.0040433109 0.16502362
0.043764651 0.0081725717 0.16466862
-0.01296699 0.053682834 0.16555184
-0.016681969 0.053810656 0.16421798
0.043946326 0.010320336 0.16055709
-0.011826158 0.054220915 0.16209239
-0.015180767 0.055244088 0.16010505
0.044577956 0.01257357 0.15676826
0.044209123 0.015099615 0.15644324
-0.0097019076 0.05572474 0.15647426
-0.013284028 0.056980938 0.15713811
0.044605196 0.013508439 0.15239435
0.043765783 0.017307103 0.15208632
0.04262954 0.021464467 0.15135628
-0.0037142634 0.055559725 0.15198886
-0.0086044669 0.056158572 0.15219194
0.043439448 0.018557221 0.14728317
0.040964425 0.022786796 0.14741719
0.037672222 0.026225179 0.14762196
0.001095295 0.054797769 0.14740407
-0.0034802556 0.055102289 0.14770597
0.043237388 0.02051124 0.14378822
0.041098416 0.023063213 0.14278877
0.036410093 0.026836157 0.1435954
0.0360021 0.030703604 0.14319095
0.0028268099 0.055161983 0.14329836
0.0353778 0.033725917 0.13831228
0.012472034 0.053730041 0.13890639
0.0079441667 0.054263562 0.13742036
0.0050031543 0.055923134 0.14035234
0.035108805 0.034142017 0.13462502
0.03317523 0.036642522 0.13467625
0.030479491 0.041024506 0.13463378
0.02733326 0.044698387 0.13451779
0.023042858 0.048543453 0.13419187
0.018504262 0.051562279 0.13403666
0.01336962 0.052737951 0.13508403
0.010291278 0.053478032 0.1355378
0.029589295 0.041588783 0.13021624
0.026776135 0.045343697 0.13035953
0.022621632 0.048010796 0.1304549
0.01840812 0.050091594 0.13058183
0.014536738 0.05195573 0.13136929
0.037642658 -0.028193533 0.21317612
0.035235465 -0.025684834 0.21420138
0.039599359 -0.028601855 0.2116186
0.036132514 -0.02466172 0.21043818
0.040180266 -0.023849308 0.20733948
0.035983384 -0.022859722 0.20606689
0.038809717 -0.020664424 0.20203282
0.041624963 -0.015791386 0.19131057
0.040244877 -0.013676077 0.18790953
0.04184109 -0.014841288 0.18427651
0.040533662 -0.010778844 0.18469201
0.041719437 -0.0092386007 0.1801033
0.042113245 -0.0073904693 0.17512384
0.043846548 -0.0052092671 0.17048129
0.043958366 -0.0014975071 0.17143565
0.045129716 -0.002840966 0.1657984
0.044589102 -0.00052693486 0.16812611
0.044806778 0.0022175908 0.16296995
-0.019842088 0.053698331 0.1626249
0.044504225 0.0043749511 0.15865624
0.044686496 0.0081224442 0.15745977
-0.018792868 0.054918826 0.16038519
0.045248091 0.0066511631 0.15346932
0.044960797 0.00942114 0.15368888
-0.015735388 0.056680024 0.15370283
0.045877039 0.0078274906 0.14832518
0.045398057 0.01148051 0.14922094
-0.012333333 0.055250615 0.14882368
-0.014092982 0.056086898 0.1486755
0.045116603 0.01271674 0.14483008
0.044028342 0.016186833 0.14555681
-0.0059431195 0.054295421 0.14527178
-0.0090152621 0.05507043 0.14575461
-0.013096392 0.055206954 0.14490992
0.044421852 0.014587641 0.14145279
0.043328106 0.018180013 0.14104906
0.039757967 0.023271799 0.14068252
0.036359906 0.025325269 0.1408231
0.034937501 0.027692348 0.14024115
-0.0043666959 0.05436182 0.14095765
0.04296273 0.019663036 0.136365
0.04165858 0.023022652 0.13638937
0.037920177 0.026071638 0.13669339
0.034923375 0.029289722 0.13694268
0.0051520467 0.053695321 0.13538077
0.0019624829 0.054368019 0.13579547
-0.0023645759 0.054712296 0.13711885
0.042450726 0.024307251 0.13182974
0.039236009 0.027881294 0.13186771
0.035753906 0.031213194 0.13177514
0.031976283 0.035769969 0.1306271
0.01025182 0.051730275 0.13126439
0.0071368814 0.053201288 0.1319246
0.003085196 0.054435164 0.13136119
0.043363035 0.026487321 0.12711924
0.039686739 0.028939486 0.12661451
0.035927415 0.032673955 0.12684882
0.032168686 0.036399186 0.12708059
0.029243529 0.039441377 0.12730256
0.01977849 0.046850264 0.12541395
0.017146766 0.049092144 0.12641299
0.012716472 0.05180493 0.12737042
0.0083216429 0.053462744 0.12698659
0.0049579144 0.054723114 0.12714958
0.043027461 0.027613759 0.12320673
0.038516402 0.030706376 0.12307599
0.036201417 0.033422649 0.12287194
0.032423079 0.037197948 0.12264299
0.028561234 0.0403063 0.12323737
0.025644302 0.043167859 0.1235528
0.021354496 0.0458754 0.12335837
0.016844869 0.048721582 0.12291792
0.012793243 0.051569879 0.12329629
0.01043278 0.05303812 0.12318295
0.032716751 0.037797838 0.12004288
0.030660093 0.040518552 0.11847652
0.025534332 0.044305623 0.11917008
0.022241294 0.046216369 0.12011029
0.036218762 -0.026095897 0.20346846
0.040817678 -0.015985638 0.18564577
0.04023093 -0.016064227 0.18093252
0.04001677 -0.01392445 0.18232197
0.041773379 -0.01415202 0.17708409
0.041794419 -0.011890113 0.17947608
0.042553961 -0.012951136 0.17291546
0.042407632 -0.010749042 0.17435324
0.044160366 -0.010979176 0.16909438
0.044493973 -0.0082376897 0.16984791
0.044295967 -0.010473132 0.16553909
0.044360995 -0.0068173707 0.16462678
0.043619454 -0.0040504634 0.1599853
0.042786479 -0.0012947619 0.1592305
0.042898059 -0.0033136606 0.15592626
0.043120563 0.00010830164 0.15500867
0.043595552 0.0018250048 0.15145165
0.043482721 0.0032491088 0.14656246
0.045249999 0.0076633692 0.14439887
0.044932187 0.0085121691 0.14143223
-0.011474192 0.053979576 0.14179373
-0.015442371 0.054630697 0.14330167
0.044368207 0.011787057 0.13782984
0.04381901 0.014569491 0.13661194
-0.010076404 0.052982837 0.13836971
0.044219911 0.012857199 0.13337734
0.043581426 0.015860021 0.13409311
-0.0058617592 0.053064853 0.13334954
0.042856634 0.017609984 0.12970355
0.042818666 0.021744907 0.1299527
-0.00010412931 0.054643154 0.12974936
-0.0039171576 0.053600371 0.13047189
0.043598831 0.019614249 0.12514275
0.04368186 0.023690164 0.12551269
0.0060469508 0.052631855 0.12393743
0.0015978813 0.05435738 0.12579018
-0.0011318922 0.0545021 0.12472767
0.0439592 0.021355748 0.12155294
0.04253155 0.025008053 0.12072314
0.039326727 0.028477252 0.12101109
0.035694063 0.032532603 0.11978965
0.019347012 0.047243416 0.11973606
0.01669389 0.048767835 0.12020375
0.012325346 0.05045256 0.11999752
0.007145226 0.052409589 0.12070094
0.0021228194 0.053135663 0.12126724
0.041278243 0.026854098 0.11589076
0.039504707 0.027550101 0.11663769
0.035241783 0.032479525 0.11559178
0.033363223 0.036181271 0.1161292
0.028255701 0.041418999 0.1162696
0.025969803 0.042950153 0.11619087
0.020997822 0.04568693 0.11583821
0.016735375 0.047753721 0.11640854
0.011728346 0.049225032 0.11662097
0.032305419 0.036997348 0.11205734
0.030113876 0.040900797 0.11249413
0.024591208 0.043434709 0.11218186
0.023228526 0.044843107 0.11036952
0.030697286 0.041761428 0.10853995
0.040215075 -0.018523067 0.18034035
0.041841924 -0.016436487 0.17561787
0.041861773 -0.016563237 0.17095998
0.043232262 -0.014100939 0.16626775
0.043790817 -0.011787713 0.16137472
0.04494679 -0.011457801 0.15701824
0.043700397 -0.008166194 0.15793437
0.045853198 -0.010136425 0.15285933
0.044087768 -0.0068849623 0.1533547
0.043423593 -0.0025349557 0.15343469
0.043834209 -0.0050384104 0.1494081
0.043330669 -0.0014714301 0.14853838
0.04318285 0.00010320544 0.14422435
0.043397963 0.0028496683 0.14039916
-0.018143356 0.053239226 0.14012995
0.044007838 0.0042846203 0.13610381
0.044068456 0.0074076653 0.13652456
-0.013167918 0.051888555 0.13595751
-0.017968059 0.052856863 0.13540524
-0.01964134 0.055967063 0.13425559
0.0440979 0.0054290295 0.13217205
0.044440687 0.01010561 0.13141727
-0.0072368979 0.053089142 0.13051981
-0.012956917 0.051694334 0.13072741
-0.016269743 0.052188128 0.13202924
0.045356929 0.012150019 0.127325
0.043859541 0.015656143 0.12746364
-0.0069355369 0.053034872 0.12740332
-0.011423767 0.052320927 0.12744248
0.04502672 0.014130563 0.12346947
0.04420191 0.017033666 0.12366074
-0.00030845404 0.053184718 0.12262258
-0.0049284101 0.053466886 0.1223937
0.045204103 0.015414864 0.11910851
0.044216335 0.019147724 0.11879988
0.042141497 0.023738533 0.11802103
0.037193418 0.027667403 0.11803846
0.0057640672 0.05207032 0.11798219
0.00076752901 0.052725375 0.11836638
-0.0032988191 0.053604633 0.11822103
0.044239223 0.020021141 0.11410142
0.042262733 0.023805171 0.11396112
0.038624346 0.02786693 0.11396794
0.036037803 0.030109733 0.11419474
0.015377104 0.047025263 0.11298712
0.010417163 0.049153894 0.11398496
0.0061771274 0.050986826 0.11367466
0.0013091564 0.052719086 0.11392261
0.042313695 0.024516404 0.10933454
0.039083779 0.028079718 0.10901327
0.035381913 0.031929582 0.10931005
0.033080757 0.035917163 0.10902785
0.024153173 0.043439388 0.10919602
0.020395577 0.045482874 0.10960419
0.015782118 0.047863394 0.10949714
0.011281312 0.049895257 0.10903536
0.0069085956 0.051729411 0.10878398
0.003111124 0.053401589 0.10910563
0.040362954 0.029003441 0.10446383
0.03560102 0.0330787 0.10448222
0.032058716 0.036601812 0.10577707
0.028857291 0.039941728 0.10410734
0.025037646 0.042714477 0.10457592
0.020900548 0.04583317 0.10529305
0.016292751 0.048725128 0.10434382
0.012131631 0.050624967 0.10406201
0.034988582 0.035093188 0.10054044
0.029091716 0.039420724 0.10044996
0.02341336 0.043933243 0.10047309
0.020877838 0.046438515 0.10063921
0.017331243 0.048961192 0.099912956
0.015008926 0.050919026 0.099634662
0.020140469 0.048628986 0.097272471
0.04199487 -0.017719507 0.16510934
0.042922318 -0.016285688 0.16004109
0.044107854 -0.015274346 0.1553801
0.045510471 -0.012728065 0.15021324
0.045161307 -0.01040107 0.14887536
0.043330252 -0.0077555478 0.14668077
0.042067111 -0.0060813129 0.1430788
0.042619228 -0.0020852089 0.14208236
0.042743981 -0.0014722347 0.13753378
0.043157637 0.00092929602 0.13296688
0.043903649 0.004344523 0.12895465
-0.017573595 0.053995639 0.13011134
0.043828964 0.005797416 0.12648904
0.044392705 0.0078255832 0.12433875
-0.013361335 0.051589906 0.12449127
-0.018848896 0.05214256 0.12569985
-0.020987093 0.053841382 0.12570727
0.045067728 0.011170238 0.12030251
-0.011290133 0.052846998 0.12023984
0.044175684 0.011744052 0.11535658
0.044115067 0.014755666 0.11577125
-0.0066589713 0.053481728 0.115467
0.044511318 0.013122708 0.11150812
0.044591427 0.016258627 0.11200292
-0.00022470951 0.053602725 0.11222167
-0.0036464334 0.053650439 0.1118971
0.043684185 0.019235849 0.10777052
0.042623341 0.02262795 0.10689054
0.0053161383 0.053297371 0.10671113
0.0014240146 0.05395633 0.10741703
-0.0027312636 0.053291678 0.10765462
0.043914616 0.021091282 0.10219689
0.042457759 0.024581462 0.10293944
0.038661659 0.030112296 0.10245673
0.036286473 0.032455623 0.10196431
0.031620085 0.03549549 0.10177101
0.029838502 0.037485331 0.10196041
0.011984646 0.051499426 0.10197721
0.0074005127 0.053229392 0.10332878
0.0022223592 0.053633034 0.10217811
0.042685986 0.026095003 0.097919747
0.03985095 0.030371577 0.098857567
0.036698401 0.033883274 0.099415824
0.032259107 0.03622967 0.09866564
0.028980434 0.039470971 0.099272445
0.02496624 0.042601168 0.099269852
0.016669929 0.050115377 0.098821893
0.012802303 0.052547991 0.099603847
0.0091611147 0.054295003 0.098277554
0.0042616129 0.054789364 0.098183706
0.042247832 0.028001547 0.093263403
0.040600061 0.030016929 0.094475582
0.037283659 0.033380121 0.094481066
0.032918513 0.03640461 0.094355717
0.029222786 0.040252417 0.094910756
0.024782717 0.043180972 0.094978079
0.021516502 0.046109706 0.094576403
0.01747781 0.048954606 0.095079407
0.013622403 0.052111179 0.095971182
0.04180342 0.030328244 0.090972558
0.037255466 0.033495396 0.090845391
0.034077346 0.035484731 0.090683237
0.029432833 0.04103291 0.090332106
0.026192307 0.042972922 0.090137146
0.044001758 -0.017087996 0.15346721
0.044242561 -0.016392678 0.14897054
0.043147206 -0.013133466 0.14391917
0.042602837 -0.0097430348 0.14282554
0.043798625 -0.011740416 0.13910374
0.042437494 -0.0076164007 0.14032909
0.044604063 -0.0094786584 0.13474581
0.043049634 -0.0060880184 0.13631052
0.045004308 -0.0088157952 0.1321454
0.044016719 -0.0049360394 0.13134682
0.043409526 -0.0012841821 0.13009763
0.044035316 -0.0041896999 0.12748501
0.04348129 -0.00026470423 0.12629443
0.043529689 0.0019950271 0.12184894
0.043210983 0.0056468844 0.12246537
-0.019444466 0.051459789 0.12228745
-0.021453798 0.053765208 0.12365788
0.043629825 0.0040020943 0.1182176
0.043761313 0.0065577328 0.11900987
-0.017412663 0.05297479 0.11793409
-0.021847785 0.054596335 0.11609383
0.044254482 0.0051851273 0.11291029
0.044317067 0.0086940527 0.11359908
-0.012654245 0.052170515 0.11365257
-0.016977012 0.052046508 0.11356516
-0.020747602 0.056007385 0.11290009
0.045449615 0.0066827536 0.1097637
0.044752538 0.010848939 0.1086867
-0.0079440475 0.05216974 0.10895886
-0.011233091 0.052350163 0.10871165
0.045019805 0.012331486 0.10426359
0.04339999 0.015833169 0.10577147
-0.0064409971 0.052198857 0.1041462
0.04481256 0.014054686 0.10019697
0.043901384 0.017471969 0.10105096
-0.0010888577 0.053276241 0.10124741
-0.0050016642 0.053308964 0.10068257
0.044273078 0.01965335 0.095972613
0.043293655 0.023701757 0.096049204
0.0012565255 0.053765982 0.095474139
-0.0026736856 0.053839177 0.096145943
0.043786407 0.022066742 0.09270741
0.043329358 0.024644017 0.091792092
0.015592635 0.047845244 0.09097977
0.011449397 0.049559623 0.090284906
0.0065366626 0.051088691 0.09218435
0.043391049 0.027172595 0.088379763
0.040765405 0.030519575 0.088151954
0.036183 0.032833338 0.088142745
0.032240629 0.036506653 0.088583373
0.02912122 0.038796544 0.086568676
0.024323881 0.042568028 0.087755643
0.020344913 0.045204043 0.088385306
0.015640318 0.047247022 0.08686354
0.012890637 0.048465103 0.086556397
0.043662131 0.028622806 0.083512239
0.041211426 0.031045377 0.08294221
0.035979688 0.033211052 0.083535157
0.03248173 0.035964817 0.082948886
0.028845012 0.038927823 0.083582126
0.025006652 0.042847931 0.082901321
0.020744503 0.046289474 0.082938515
0.016397715 0.048224866 0.082845233
0.042243838 0.03087905 0.079451106
0.024603426 0.044298828 0.07833641
0.021459579 0.046224028 0.079147957
0.019244313 0.047880113 0.079122595
0.042848051 -0.020009309 0.14581019
0.042641103 -0.017910123 0.14203578
0.044085801 -0.01609531 0.13730717
0.044502497 -0.013201028 0.13271832
0.044696867 -0.01119712 0.12754953
0.044945896 -0.0085790157 0.12931728
0.043892324 -0.0065936446 0.12483105
0.043366969 -0.0050401986 0.1197447
0.043391228 -0.0015232563 0.12039684
0.042497933 -0.0002605021 0.11474459
0.044024944 0.0013979375 0.11073612
-0.019176662 0.052242786 0.11164625
-0.020857453 0.053827047 0.11124133
0.044528782 0.0040069222 0.10677339
-0.013792634 0.051833421 0.10680069
-0.018266737 0.052426189 0.10694741
0.044978917 0.0061247349 0.10297196
0.044768631 0.0086590946 0.10109864
-0.012463868 0.051726937 0.10187538
-0.015793562 0.052250564 0.1031877
0.044665754 0.01048106 0.097068265
-0.0072324872 0.053246677 0.097761884
-0.011061549 0.052520782 0.096580729
0.044698894 0.013319969 0.094538674
0.044402361 0.015039206 0.093541577
-0.005553484 0.053355843 0.093893781
0.042491257 0.017712384 0.089387499
0.042970955 0.021784037 0.088472657
0.005102694 0.050125062 0.088716708
-0.00021111965 0.051004142 0.089292757
0.042029381 0.018752098 0.08525788
0.042232573 0.021571994 0.084257834
0.0093873739 0.04921332 0.084910534
0.0049740672 0.050261945 0.084116809
0.001807332 0.051174253 0.0835995
0.043052673 0.025148183 0.081697993
0.036098301 0.032475948 0.080352329
0.032714903 0.035503924 0.080481313
0.028474927 0.038980246 0.08053603
0.015198886 0.048942685 0.080397211
0.011428237 0.049511969 0.08125069
0.0064927936 0.05148232 0.079758607
0.0027397275 0.052455187 0.080295287
0.042359412 0.026957422 0.076664172
0.040229201 0.030956089 0.076390736
0.036192119 0.033023238 0.076589577
0.032715499 0.035979807 0.076670907
0.028648257 0.039611816 0.076825164
0.0256266 0.043273568 0.076472752
0.021548569 0.046676934 0.076347969
0.017068803 0.048994124 0.076690458
0.012570262 0.05050984 0.076658063
0.0080059767 0.051930815 0.076860242
0.040371954 0.029934376 0.072665513
0.037863076 0.031351596 0.072479248
0.031199992 0.036352932 0.072408944
0.028541267 0.04013133 0.071994126
0.025199115 0.043514878 0.071659833
0.022125483 0.046622962 0.071503729
0.017932177 0.049121022 0.072034746
0.013125718 0.050612628 0.072455972
0.042832971 -0.018707514 0.13273475
0.043696761 -0.014628172 0.12634391
0.043801844 -0.012703091 0.12109943
0.043242514 -0.0094799399 0.12191096
0.04410249 -0.010685533 0.11689068
0.043301821 -0.0083613396 0.11787821
0.042288423 -0.0058545172 0.11263283
0.04135257 -0.0041283071 0.11429743
0.043157637 -0.0039634407 0.10923134
0.043406427 -0.0025703013 0.10644598
0.043750823 -0.00089970231 0.10350539
-0.020929217 0.050256163 0.103287
-0.022600472 0.051229924 0.10318394
0.044562876 0.0022224784 0.1000161
-0.018485129 0.052381039 0.10028251
-0.021426141 0.052418381 0.10187091
0.044936478 0.0042168796 0.095147237
0.044626534 0.00738433 0.096075371
-0.014691651 0.051963896 0.09550257
-0.017346799 0.051891506 0.096796289
0.045703411 0.0065236092 0.090137921
0.0448246 0.0094178319 0.090849325
-0.011522233 0.05186221 0.090330645
0.044151187 0.010868728 0.08661785
0.042716444 0.014729202 0.087583147
-0.0017341375 0.050111473 0.086304329
-0.0067389607 0.051154226 0.087065689
-0.010858536 0.051937729 0.085561357
0.044568717 0.013259113 0.082609795
0.043088138 0.017204016 0.082786284
-0.0013005137 0.050998509 0.082736813
