# .PCD v0.7 - Point Cloud Data file format
VERSION 0.7
FIELDS x y z
SIZE 4 4 4
TYPE F F F
COUNT 1 1 1
WIDTH 1348
HEIGHT 1
VIEWPOINT 0 0 0 1 0 0 0
POINTS 1348
DATA ascii
0.022191763 -0.011453509 0.29488036
0.011246026 0.03586781 0.2925702
0.010324657 0.038135707 0.29218134
0.025975794 -0.01780051 0.28737092
0.026204288 -0.014798284 0.29046777
0.012731791 0.03963238 0.28826144
0.011585891 0.04416281 0.287056
0.02874285 -0.017838597 0.28427961
0.015459657 0.040052474 0.28536674
0.013907522 0.044992507 0.28396681
0.012686253 0.049078882 0.28312048
0.030717641 -0.021454692 0.27774909
0.031628817 -0.018276632 0.27969345
0.016934305 0.041997135 0.28283277
0.016389668 0.046126842 0.28037116
0.015059024 0.049555898 0.27962947
0.033617973 -0.021599352 0.27480999
0.03476727 -0.018130124 0.2757729
0.01880461 0.047733724 0.27551034
0.016939342 0.0509305 0.27528128
0.037670016 -0.020790756 0.27085066
0.02004689 0.05127573 0.27134007
0.016474783 0.054185808 0.27052388
0.040097743 -0.020744145 0.26705435
0.021879911 0.05108279 0.26702136
0.04185766 -0.020617068 0.26216707
0.043561041 -0.017284989 0.26140979
0.02655527 0.049549699 0.26200807
0.023143232 0.052234828 0.26196405
0.043833315 -0.019502223 0.25793126
0.045274079 -0.016259372 0.25754386
0.028221339 0.049432576 0.25801536
0.026013136 0.053230047 0.25804296
0.026668042 0.056505203 0.25756469
0.044641912 -0.018143773 0.25350067
0.04611814 -0.015607119 0.25399169
0.029501379 0.049814224 0.25379181
0.02883333 0.053799629 0.25386038
0.028900385 0.056979954 0.25405499
0.047988057 -0.01425302 0.24963187
0.034556985 0.045344412 0.24863617
0.031515598 0.049310505 0.24982224
0.02997601 0.053874612 0.24971686
0.049522996 -0.012107968 0.24523215
0.051462233 -0.0086423755 0.24469154
0.037015617 0.041389227 0.24533157
0.034365594 0.04455477 0.24432267
0.032477915 0.046980917 0.24455048
0.052043378 -0.0078401566 0.24079625
0.05311653 -0.0032243729 0.24012087
0.042690217 0.036581337 0.23991634
0.039534301 0.040307045 0.24051593
0.052146137 -0.0070983768 0.23717557
0.052526355 -0.0023949146 0.23591922
0.051904023 0.0043197274 0.23658822
0.052517623 0.0068807602 0.23567481
0.049148679 0.019537568 0.23641573
0.049071252 0.02122438 0.23568033
0.046759576 0.027686238 0.23665945
0.044842958 0.032176197 0.23691423
0.042024314 0.036259353 0.23644446
0.039975405 0.03853178 0.23606162
0.052262664 -0.00081920624 0.23100547
0.053546965 0.0027093887 0.23223977
0.05247587 0.0079859495 0.23184432
0.052802324 0.013211906 0.23262541
0.051276654 0.018694341 0.23233812
0.050171018 0.022765338 0.23254137
0.048128188 0.02780515 0.23237644
0.045421958 0.031925499 0.23211239
0.042970836 0.034301758 0.2316231
0.054163992 0.0045150518 0.2277144
0.053935647 0.010283828 0.22835802
0.053859293 0.013857305 0.22741018
0.052535892 0.018642068 0.2273661
0.050494254 0.023135006 0.22744144
0.048537254 0.026932716 0.22733067
0.0045955777 -0.009249568 0.31132442
0.006049037 -0.0078297853 0.30720237
0.0065882802 -0.0045520067 0.30805576
0.0084314644 -0.0060421228 0.30451751
0.0093230903 -0.0038291812 0.30476266
0.0145154 -0.016357481 0.29722592
0.014724225 -0.01164645 0.29958293
0.012400985 -0.007889688 0.30117637
0.011643946 -0.0039462447 0.30200058
0.016873121 -0.019808114 0.29400241
0.017403752 -0.016946733 0.29549962
0.021357924 -0.023286343 0.2894223
0.020040631 -0.020402968 0.29030147
0.020225555 -0.017045796 0.29188287
0.021757931 -0.027967036 0.28688383
0.022853732 -0.024254143 0.28546533
0.023393571 -0.02008003 0.28756359
0.025396526 -0.023883402 0.28137153
0.026178211 -0.02076298 0.28407955
0.02849704 -0.023735881 0.27741173
0.011795491 0.052168489 0.27748731
0.029560447 -0.026039779 0.27244765
0.031836599 -0.024230659 0.273018
0.033516705 -0.025967658 0.26811367
0.034836799 -0.023738563 0.27045134
0.015424073 0.05423218 0.26788113
0.036608934 -0.026120603 0.26403728
0.019017696 0.052298903 0.26451835
0.017536044 0.053911567 0.26427731
0.038752764 -0.025779605 0.25986168
0.019341469 0.05429405 0.26145437
0.040796131 -0.024405181 0.25551483
0.041745782 -0.021814585 0.25506383
0.041969895 -0.023778141 0.2512463
0.043469608 -0.020165443 0.25124583
0.042969108 -0.022684634 0.24711742
0.044191599 -0.019569933 0.24660759
0.046224117 -0.015782773 0.2466666
0.030458629 0.04939419 0.24638365
0.029323816 0.053438902 0.24645416
0.02828908 0.05630523 0.24653436
0.0453403 -0.018313468 0.24242841
0.04720515 -0.014686763 0.24254195
0.03330332 0.045765996 0.24139948
0.031121671 0.049006999 0.24248914
0.028797984 0.053605378 0.24239348
0.028081328 0.056713402 0.24322657
0.046812534 -0.016675174 0.23853435
0.04804498 -0.013257384 0.23822694
0.037640095 0.041537404 0.23729776
0.03384456 0.044749558 0.2378488
0.030276895 0.048174143 0.23859055
0.047885954 -0.011843264 0.23441689
0.04911235 -0.0082002878 0.23302667
0.049911708 -0.004491508 0.23346667
0.040554553 0.037212074 0.23365481
0.038135529 0.040539801 0.23385619
0.034831703 0.044124842 0.23376553
0.050142825 -0.0065481663 0.22925465
0.051337004 -0.0028572679 0.22956787
0.05246079 0.001042068 0.22869451
0.051496625 0.0058577657 0.22874783
0.044482231 0.031472564 0.22853146
0.040628433 0.036070704 0.22946383
0.038101286 0.039982975 0.22987799
0.051196396 -0.0053004622 0.22545604
0.05185166 -0.001727879 0.22442453
0.05288744 0.0025525689 0.22535096
0.051736116 0.0076233745 0.22540073
0.048897743 0.024037957 0.22425459
0.046967596 0.027867138 0.22398154
0.044219613 0.03183192 0.22516267
0.041248262 0.034927905 0.22539939
0.052838564 -0.00060683489 0.22036873
0.052547306 0.0036539435 0.21996377
0.050046802 0.0096837282 0.22195725
0.04972595 0.012999475 0.22125344
0.049226493 0.018112481 0.22109781
0.048216999 0.022967041 0.22005875
0.046482623 0.026563346 0.22076438
0.048557609 0.024907768 0.21587275
0.018629491 -0.025879145 0.28798231
0.019664794 -0.030525029 0.28206381
0.020963371 -0.027420402 0.28434539
0.02120325 -0.028996468 0.27867106
0.023651421 -0.027158678 0.27925336
0.024803221 -0.028317034 0.27457994
0.026193738 -0.02663064 0.27575937
0.027116418 -0.032557487 0.26834938
0.027140915 -0.029364169 0.2698746
0.029283583 -0.032120049 0.26557666
0.030636877 -0.029327571 0.26682976
0.032081008 -0.0323596 0.26168463
0.034029245 -0.029276609 0.26350373
0.03647691 -0.028804243 0.25787571
0.038114458 -0.027762175 0.25306803
0.039805055 -0.026137531 0.24862818
0.041282654 -0.025075495 0.24409692
0.043542981 -0.022304177 0.24316244
0.041455746 -0.02390188 0.24007039
0.043612033 -0.02083528 0.23972504
0.028265059 0.050798833 0.23879562
0.025608808 0.053234994 0.238277
0.024079651 0.055667639 0.23804103
0.044472396 -0.018711746 0.23574667
0.046781123 -0.015827179 0.23499183
0.029485047 0.048974693 0.23534839
0.025755405 0.052542865 0.23542581
0.046427131 -0.014428318 0.23110954
0.047676742 -0.010997832 0.23081954
0.035464346 0.042294145 0.23016505
0.034086347 0.044914663 0.23052473
0.030150115 0.048558235 0.2308376
0.026943237 0.051607192 0.23186655
0.046477199 -0.012797832 0.22663687
0.048949063 -0.0093672872 0.22685628
0.038803458 0.037139714 0.22655617
0.03644523 0.039889514 0.22593792
0.033524513 0.044065535 0.22664069
0.03115648 0.049067318 0.22679494
0.030034065 0.052384913 0.22604127
0.029111981 0.057134688 0.22693788
0.049751997 -0.0082454085 0.22257836
0.051464796 -0.0044164062 0.22197007
0.04923445 0.0072130561 0.22157262
0.042793453 0.032176077 0.22146492
0.039500624 0.036196589 0.2221718
0.036090374 0.039582372 0.22281201
0.050273627 -0.0069611669 0.21868186
0.051203907 -0.0031732917 0.2178605
0.052492797 0.00099188089 0.2175896
0.049944937 0.007889986 0.21870385
0.049542665 0.011699617 0.21777047
0.048484355 0.017015338 0.21771459
0.048104346 0.021482408 0.21719123
0.045431793 0.027772129 0.21812944
0.042405158 0.031143129 0.21772693
0.039948672 0.034546435 0.21860765
0.050558239 -0.0015718937 0.21407364
0.051989913 0.0027310252 0.21381243
0.05074811 0.0074907541 0.21340947
0.050423861 0.012144268 0.21384643
0.050177038 0.017589509 0.21430285
0.049190462 0.022689462 0.21401046
0.045675099 0.02693671 0.21385662
0.043061525 0.029667795 0.21465693
0.051004112 0.0076000094 0.21032743
0.050478041 0.01282692 0.20906018
0.051427722 0.017561853 0.20945136
0.049796104 0.022395313 0.20931883
0.046935946 0.025492489 0.20955972
0.051198125 0.017896771 0.20602767
0.049719989 0.021113932 0.2058246
0.018123329 -0.0317083 0.28116244
0.020457625 -0.033821046 0.27585122
0.019912809 -0.031385958 0.277971
0.021879941 -0.03444463 0.27149686
0.022553563 -0.030906796 0.27317193
0.024331272 -0.037830651 0.26830211
0.024779707 -0.034902632 0.26796308
0.027106225 -0.037147939 0.2632015
0.026912093 -0.034739137 0.26410547
0.030345768 -0.036674321 0.26147935
0.030182898 -0.033950627 0.26044059
0.032227337 -0.031102598 0.25645557
0.033869684 -0.030513763 0.25109872
0.034700722 -0.030055225 0.24635752
0.037009865 -0.028147757 0.24619137
0.036958039 -0.027755916 0.24122311
0.040015519 -0.024932683 0.23743127
0.040324867 -0.023513198 0.23398243
0.041463673 -0.020969212 0.23323421
0.024286896 0.054191113 0.23245551
0.020766258 0.056220174 0.23306967
0.042724192 -0.018913448 0.22881882
0.044751108 -0.01589793 0.22723888
0.025983423 0.053389251 0.22894432
0.023925543 0.056794465 0.22890346
0.043228686 -0.018338621 0.22500174
0.044913828 -0.015132785 0.22397463
0.02998513 0.045394957 0.22306018
0.029139638 0.048056483 0.22384395
0.02651453 0.053274632 0.22474264
0.02559343 0.055666864 0.22507404
0.046664566 -0.012845099 0.22017859
0.048296511 -0.010011673 0.22017984
0.036331475 0.037155092 0.21834897
0.034813195 0.039917827 0.21946283
0.032080889 0.043252647 0.22095992
0.047734737 -0.011327505 0.21572243
0.048817962 -0.0088248849 0.21553318
0.037509263 0.035301745 0.21483748
0.035020769 0.038865387 0.21520756
0.049583137 -0.0068395138 0.2112541
0.050456256 -0.0030700564 0.21154861
0.042967677 0.027376354 0.21053152
0.040578812 0.031076252 0.2119415
0.038533688 0.03377074 0.21027844
0.050148576 -0.0062443614 0.20742483
0.05146426 -0.0017686486 0.20675568
0.05104816 0.0029294491 0.2074732
0.049892664 0.0078466535 0.20697515
0.050163984 0.011246979 0.20610531
0.04730171 0.024315238 0.20534687
0.044416308 0.026524007 0.20636402
0.052068651 -0.0015630722 0.2032031
0.052012205 0.0026858449 0.20199709
0.051176637 0.0061527491 0.20144404
0.04931888 0.012378752 0.20406865
0.049069852 0.017401397 0.20269881
0.047784328 0.022221506 0.20315115
0.045307457 0.026082993 0.20318823
0.025487542 -0.034523189 0.25583863
0.027465463 -0.039579391 0.25158802
0.027510345 -0.034144104 0.25261191
0.028409779 -0.03284508 0.2481948
0.029996932 -0.03287667 0.24423577
0.031343579 -0.030066192 0.24221747
0.031017125 -0.029895365 0.23963957
0.0359523 -0.027436912 0.23598297
0.038572073 -0.025168836 0.23175751
0.039241731 -0.023389935 0.23120068
0.039306998 -0.024639308 0.22609006
0.040354908 -0.022344053 0.22651146
0.041573644 -0.020734489 0.22187524
0.043472886 -0.017211497 0.22177039
0.026344955 0.049569905 0.22151197
0.024166435 0.053167641 0.22115992
0.022551417 0.056471169 0.22136371
0.042599142 -0.01857841 0.21721093
0.043133438 -0.016327322 0.21750705
0.029190719 0.043886662 0.21751426
0.027067184 0.048337519 0.21824382
0.024867177 0.053267777 0.21775825
0.024537623 0.056353211 0.21596329
0.045005172 -0.01450783 0.21333565
0.034168571 0.040153444 0.21287887
0.030322045 0.043870628 0.21356554
0.027918994 0.047585547 0.21367614
0.04614079 -0.012571335 0.20924775
0.047833145 -0.010117292 0.20955662
0.038539708 0.030960381 0.20838617
0.036327422 0.03585273 0.20945545
0.03515017 0.03972584 0.20972829
0.033080161 0.043678105 0.20907141
0.047380328 -0.012128294 0.20536365
0.049075127 -0.0088243484 0.2050169
0.049788207 -0.0052117705 0.20483778
0.042597681 0.02748543 0.20420121
0.039640784 0.030526578 0.20526282
0.038743734 0.035421968 0.20534749
0.036521792 0.040309489 0.20504706
0.034495264 0.043571591 0.2046905
0.050457239 -0.0072786808 0.20061164
0.051353037 -0.0032864809 0.20067357
0.051499248 0.00036853552 0.19975744
0.048102915 0.0082962513 0.2010325
0.047869384 0.011661172 0.20034961
0.047068298 0.015497088 0.20010315
0.046085179 0.021545351 0.19967674
0.043318182 0.026508331 0.2004364
0.040558457 0.031129479 0.20009924
0.039164126 0.035991073 0.20037971
0.037646592 0.03915894 0.20101647
0.05085969 -0.0060490966 0.1965277
0.051585257 -0.0026206374 0.19613437
0.050924718 0.0023068786 0.1962954
0.049056917 0.0068954229 0.1965609
0.04668802 0.011936128 0.19675873
0.046861619 0.016985476 0.19614695
0.045679569 0.021921992 0.19580792
0.043905377 0.026612341 0.19577055
0.042507112 0.031916797 0.19621547
0.040808558 0.035659432 0.19655184
0.047711253 0.018265665 0.19219552
0.046998858 0.020715058 0.19215964
0.022601962 -0.036916256 0.25394645
0.024708033 -0.038868368 0.24932025
0.025212646 -0.036434114 0.25124297
0.025719881 -0.038961828 0.24453543
0.026747167 -0.035224497 0.24633311
0.027617007 -0.037770927 0.24050249
0.028407037 -0.033920586 0.24163972
0.028358549 -0.036695123 0.23689939
0.029561043 -0.033167839 0.23656349
0.031624109 -0.029648304 0.23728792
0.030883968 -0.032343507 0.23132001
0.032240242 -0.029189825 0.23225053
0.032132804 -0.03139621 0.22802858
0.034173638 -0.027878463 0.22877435
0.034909368 -0.027032495 0.22435986
0.037559897 -0.024294913 0.21971829
0.039868474 -0.022314847 0.21877114
0.039420187 -0.022072852 0.21525918
0.02377364 0.052026689 0.21418892
0.041587412 -0.020174921 0.21103255
0.043105066 -0.016240001 0.209846
0.026294053 0.047951877 0.210178
0.022929043 0.052211165 0.21076296
0.020990342 0.055637479 0.21109562
0.043374479 -0.01908648 0.20651574
0.044727594 -0.015011966 0.20696948
0.030315787 0.04501158 0.20529838
0.026684165 0.047873497 0.20638601
0.023323953 0.052640676 0.20623086
0.044724524 -0.017993391 0.2024679
0.046004027 -0.014186144 0.20186572
0.047472775 -0.010092676 0.20124982
0.034281254 0.04068476 0.20099585
0.030971915 0.044500411 0.20132904
0.02823323 0.047415674 0.20185749
0.046930104 -0.013202488 0.19785474
0.048431903 -0.0092849135 0.19772087
0.035524547 0.040047944 0.19730143
0.031534791 0.043742418 0.19753359
0.048062295 -0.0084986687 0.19313429
0.049257457 -0.0032648444 0.19193606
0.048851609 0.0025282502 0.192241
0.047183692 0.0068201423 0.1926267
0.045084357 0.011466801 0.19290791
0.046030164 0.015654683 0.19235305
0.044383466 0.023854911 0.19245832
0.043874383 0.025490284 0.19242428
0.040839761 0.030283272 0.19271873
0.038453609 0.035192847 0.19235747
0.035296619 0.039821386 0.1943392
0.04886356 -0.0072960854 0.18978383
0.049266756 -0.0034690499 0.18862958
0.048949182 0.0014180541 0.1885079
0.04773891 0.0061189532 0.18870415
0.045302749 0.011191189 0.18882917
0.046367645 0.016209662 0.18884479
0.046182334 0.021565437 0.18880461
0.044674039 0.025866985 0.18923916
0.041079968 0.030749857 0.18849693
0.039436758 0.034026504 0.1882358
0.050179809 -0.0022650957 0.18477316
0.050568849 0.0017446876 0.1840388
0.049688816 0.006691277 0.18414025
0.047364414 0.012411177 0.18384854
0.047563463 0.01656121 0.18422703
0.047179401 0.021511197 0.1844836
0.045160264 0.026419342 0.1842245
0.042105019 0.031321406 0.18364035
0.040935338 0.03460896 0.18352456
0.051581681 0.0026474595 0.17963196
0.051238358 0.0072268248 0.17965929
0.048860252 0.012887299 0.17999528
0.048046827 0.017095327 0.17918836
0.046234846 0.021930635 0.17986004
0.044598997 0.026771486 0.18058811
0.043364942 0.031711102 0.18057783
0.053322911 0.0094884634 0.17504226
0.022426844 -0.041290104 0.24445941
0.027270854 -0.04041034 0.23978321
0.025542319 -0.039206982 0.23469739
0.027104378 -0.036614954 0.23405705
0.026485324 -0.038168609 0.23126288
0.029112995 -0.035446346 0.2303959
0.03012687 -0.033117056 0.22570215
0.031706095 -0.030392885 0.22543274
0.032400846 -0.028322637 0.221489
0.034081012 -0.026944578 0.21690147
0.03764832 -0.026260078 0.21278135
0.037505746 -0.025673449 0.20877211
0.039588898 -0.023181021 0.20837934
0.020193994 0.055874646 0.20900272
0.040178061 -0.021882355 0.20346968
0.024959087 0.04995507 0.20410357
0.023567557 0.052060783 0.20281498
0.021659166 0.055981159 0.20386045
0.043630123 -0.018622339 0.19865195
0.026197135 0.048547626 0.19875257
0.02341342 0.0524019 0.19913925
0.022423208 0.055325329 0.20029454
0.042986095 -0.018453896 0.19587456
0.044121683 -0.015573978 0.19503002
0.030869484 0.045278072 0.19600652
0.027711391 0.047858596 0.19438468
0.02424264 0.05427897 0.19555317
0.045113802 -0.013117135 0.19098972
0.046034455 -0.010958195 0.19038568
0.035292983 0.036907136 0.19065689
0.03346473 0.039046049 0.19000809
0.031015575 0.043090165 0.19130175
0.047676414 -0.0085830688 0.18683575
0.045243621 0.010336757 0.18651234
0.037149131 0.035748661 0.18678741
0.03453058 0.038304806 0.18529908
0.048436433 -0.0067126155 0.18272273
0.049543917 -0.003935039 0.18228416
0.046830624 0.0099002123 0.18348853
0.038557559 0.036428928 0.18116648
0.036936879 0.038495362 0.18198268
0.049695313 -0.0021659732 0.17777739
0.051632077 0.0019722581 0.17880847
0.050451577 0.0073797107 0.17745136
0.049149483 0.011554122 0.17841022
0.046415985 0.022203505 0.17731364
0.043940932 0.02668184 0.17791991
0.042160928 0.03091538 0.17772235
0.040627539 0.034558833 0.17875944
0.051453739 0.0028263927 0.17302395
0.050821066 0.0074561834 0.17336212
0.049747556 0.012680829 0.17413114
0.048104376 0.017486215 0.17362408
0.046068817 0.02194947 0.17344709
0.044279158 0.026358187 0.1737283
0.043960273 0.029058218 0.17442559
0.052481353 0.0032767653 0.16899152
0.052383989 0.0086582899 0.16983365
0.049983144 0.01276356 0.16998838
0.047935367 0.018794835 0.17050372
0.047418892 0.019789398 0.16864668
0.023572922 -0.040189445 0.23125593
0.025152504 -0.038034379 0.22752242
0.024612159 -0.037828267 0.22397338
0.026931256 -0.034831524 0.22373609
0.027185559 -0.031858623 0.21643703
0.028601199 -0.030180037 0.21864466
0.02809757 -0.031650603 0.21497224
0.030228823 -0.029647171 0.21395849
0.031582952 -0.029269993 0.21090452
0.034792781 -0.02593559 0.20510937
0.035598755 -0.024097323 0.20084073
0.037740946 -0.021639049 0.1975757
0.022908539 0.051608682 0.19670422
0.018979281 0.056126118 0.19761078
0.039751977 -0.019520581 0.19274433
0.04263413 -0.01650846 0.19243206
0.026154935 0.049719751 0.19231422
0.023484409 0.052369356 0.19344805
0.021035194 0.055624604 0.19295134
0.04064548 -0.018961072 0.18903081
0.04272747 -0.015884578 0.18843101
0.028584242 0.044422686 0.18829726
0.025094748 0.047646344 0.1883453
0.023772597 0.049937606 0.18986599
0.043274313 -0.014406383 0.18421192
0.045458674 -0.010471165 0.18413474
0.032120049 0.040777802 0.18473758
0.028931618 0.043587148 0.18421094
0.02649352 0.046485007 0.18430306
0.043248415 -0.0137586 0.18055849
0.045115054 -0.0097663999 0.1795135
0.035083532 0.039718509 0.18032359
0.029003799 0.043656945 0.18047021
0.046617985 -0.0087701082 0.17539595
0.048178971 -0.0046784878 0.17471908
0.040812671 0.03223747 0.17453681
0.037402004 0.035365045 0.17515014
0.034217119 0.038079679 0.17463259
0.048399657 -0.0081704259 0.17026927
0.048754334 -0.0033265352 0.17077129
0.049327165 -0.00054550171 0.17118083
0.044698298 0.022875845 0.16976504
0.042615294 0.025758445 0.17001839
0.040837824 0.030672789 0.17088883
0.036733925 0.034875453 0.17165492
0.049407482 -0.0069624782 0.16714714
0.049991786 -0.0025082827 0.1666844
0.050249338 0.0017380714 0.16546653
0.049750447 0.0067514777 0.16570799
0.048909485 0.011747539 0.16583352
0.046476483 0.016597807 0.16630106
0.044179499 0.021552145 0.16593899
0.042156518 0.026339471 0.16743194
0.040590465 0.029651701 0.1671804
0.050335735 -0.0013843775 0.1625704
0.050665081 0.0020799041 0.16207461
0.049947143 0.0073670149 0.1618854
0.049275428 0.011345387 0.16147678
0.046343267 0.01734823 0.16205005
0.045334518 0.020883143 0.16211931
0.023235321 -0.039843738 0.22606395
0.021904469 -0.035678923 0.21995948
0.022627771 -0.034009278 0.21593802
0.02504766 -0.032234609 0.21842612
0.026121944 -0.033384621 0.21258996
0.027365983 -0.031511545 0.21218883
0.028375983 -0.029324949 0.2074102
0.029040635 -0.028082132 0.20333229
0.031433463 -0.026631534 0.19887774
0.03475517 -0.024539471 0.19824211
0.033340514 -0.02607125 0.19421883
0.036083639 -0.023703039 0.19476037
0.016174912 0.057478547 0.19513796
0.03540206 -0.02556783 0.19047673
0.038106143 -0.022744715 0.19061504
0.019973636 0.052458346 0.18890215
0.015907586 0.055725396 0.18879299
0.039068282 -0.021889269 0.18569736
0.02347216 0.048889756 0.18443049
0.021709889 0.051193416 0.18582092
0.017677128 0.054562569 0.18483718
0.040661812 -0.019588411 0.18212773
0.04125917 -0.016963303 0.18101309
0.024317324 0.047628284 0.18107004
0.021725655 0.052334011 0.18091331
0.021635294 0.054524183 0.17898686
0.042131603 -0.014998853 0.17716588
0.030104518 0.03988868 0.17699687
0.028270602 0.043221414 0.17666985
0.024449766 0.04719907 0.17753993
0.043192774 -0.013594449 0.17347412
0.045538723 -0.011253834 0.17352735
0.032296121 0.040076017 0.17310776
0.028666466 0.043314874 0.1717336
0.046591818 -0.010813773 0.16946681
0.037449181 0.034335136 0.16918497
0.034365356 0.039038301 0.16921423
0.030830204 0.042749345 0.16679175
0.048300803 -0.0085658431 0.16486882
0.049750447 -0.0044355392 0.16450043
0.042629242 0.023368418 0.16379006
0.040588617 0.025746882 0.1641918
0.03817898 0.02989316 0.1637228
0.037075639 0.034576118 0.16485082
0.034372389 0.039356649 0.16518883
0.048950136 -0.0070815086 0.16020219
0.050035715 -0.0031217337 0.16031538
0.050477684 0.0023137927 0.15935318
0.049730599 0.0064902306 0.15944557
0.04597944 0.013747811 0.16055731
0.04660064 0.016837656 0.15968503
0.044661462 0.022147298 0.16035919
0.042110294 0.025631487 0.16000496
0.038598984 0.02952987 0.15936036
0.048962772 -0.0014885664 0.15612684
0.048908949 0.0024837255 0.1561415
0.049045563 0.0076355934 0.15572326
0.049326539 0.011857688 0.1561753
0.04688701 0.016574562 0.15589349
0.045956761 0.02150172 0.15556724
0.043292582 0.024928868 0.15555279
0.048977375 0.0088125467 0.1522042
0.049351335 0.012010217 0.15080531
0.047218442 0.016428113 0.15133725
0.045778632 0.020975173 0.15167229
0.05034247 0.012526333 0.14698826
0.017475694 -0.037461877 0.21636342
0.020132661 -0.035868287 0.21428047
0.021642566 -0.034773469 0.20953585
0.023708999 -0.031612217 0.20857243
0.022735476 -0.03399843 0.20464526
0.02317369 -0.031387508 0.20494573
0.026258439 -0.029876173 0.2006654
0.028798044 -0.029264987 0.19617362
0.030397654 -0.028728902 0.19139813
0.033584028 -0.026782811 0.18719591
0.034826934 -0.025913596 0.18321161
0.017494559 0.053730011 0.18471907
0.035790443 -0.024774551 0.18093474
0.037333965 -0.022502244 0.17951451
0.021779776 0.050348699 0.17871358
0.01861468 0.05413717 0.18155758
0.038586676 -0.020117342 0.17530762
0.04041779 -0.016972244 0.17498963
0.022469461 0.047510982 0.17426871
0.021136522 0.051367462 0.17525528
0.03967762 -0.018510401 0.17196064
0.040396154 -0.015733004 0.17032801
0.023610592 0.046802461 0.1704766
0.020636916 0.051184654 0.17129187
0.042475104 -0.013858736 0.16634308
0.028956354 0.044423342 0.16630732
0.026175201 0.047572374 0.16504745
0.025182843 0.051351547 0.16382699
0.043712169 -0.013407707 0.16159897
0.045280546 -0.011065483 0.16096912
0.036920846 0.030996084 0.16070776
0.035060436 0.035108626 0.16101609
0.031935275 0.039218783 0.16089995
0.030205458 0.043068349 0.16123255
0.02622503 0.049872994 0.16225623
0.025655746 0.051556051 0.16220315
0.045347273 -0.013244092 0.15630989
0.046469271 -0.0095406175 0.15660037
0.048576027 -0.0043864846 0.15635113
0.040695548 0.027418315 0.15630735
0.038051367 0.030581653 0.15716489
0.035428345 0.034389615 0.1566283
0.032832563 0.038399994 0.15659247
0.030459046 0.042067766 0.15763621
0.047220856 -0.0082241893 0.15315841
0.047363758 -0.0039447546 0.15258859
0.046878994 0.0010173321 0.15171181
0.047409952 0.0050282478 0.15193628
0.041389793 0.026742756 0.15228556
0.038383514 0.030185223 0.15303908
0.036100566 0.03436923 0.1526026
0.034568369 0.038255811 0.15270208
0.047783136 -0.0027894974 0.1471744
0.047341317 0.0014459491 0.14738305
0.047607481 0.0063208938 0.14812298
0.049346596 0.010010302 0.14882825
0.046634853 0.016673386 0.14844488
0.044246316 0.021636665 0.14839049
0.040886611 0.024851143 0.14832999
0.049458683 0.0020352006 0.14273386
0.04965508 0.007085681 0.1438518
0.050127685 0.011845529 0.14504187
0.047060072 0.017244399 0.14465745
0.045546174 0.021231234 0.14352964
0.051916629 0.0017899275 0.13813056
0.050457865 0.0078011155 0.13943689
0.050681442 0.012605846 0.14046411
0.04812336 0.017118394 0.13993563
0.046785653 0.021887064 0.13896118
0.014726162 -0.039916098 0.21431081
0.016614139 -0.038627386 0.21140464
0.018391162 -0.040543497 0.20474704
0.018532455 -0.037472785 0.20645712
0.022057205 -0.039953887 0.20229284
0.021520376 -0.036053479 0.20338453
0.023711562 -0.034993827 0.19942395
0.025653839 -0.03492552 0.19501828
0.027032554 -0.031846225 0.19371317
0.026659608 -0.034194469 0.18989374
0.028072596 -0.031491578 0.19050868
0.028953731 -0.033401847 0.18495347
0.030405819 -0.030036747 0.18599616
0.029633105 -0.032413781 0.18202518
0.032037616 -0.029496789 0.18119763
0.032867014 -0.027631462 0.17683713
0.035859942 -0.024419844 0.17653386
0.033120394 -0.026138186 0.17285155
0.036114722 -0.023191571 0.17224018
0.018398106 0.053513706 0.17254405
0.018516064 0.053722799 0.17080848
0.037117362 -0.02124238 0.16800641
0.039100885 -0.017404139 0.16828345
0.022376716 0.048439205 0.16865449
0.020063668 0.051733255 0.16792338
0.037913859 -0.020293176 0.16346745
0.03991282 -0.017268956 0.16406868
0.023918629 0.048214793 0.16615103
0.022933125 0.052000999 0.16493295
0.020130336 0.05465591 0.1633219
0.041781366 -0.016290128 0.15990625
0.028320789 0.045130134 0.15987067
0.026288629 0.047917664 0.16031657
0.025370836 0.051029921 0.15936191
0.043642133 -0.015924335 0.15550523
0.032045305 0.040687859 0.15535347
0.030572653 0.044188201 0.15581892
0.027220309 0.048501194 0.15551762
0.025885403 0.050809503 0.15408973
0.044657469 -0.014085054 0.15082575
0.046198428 -0.0098391175 0.15085621
0.046690762 -0.0057217479 0.1501693
0.036931574 0.030446112 0.14984171
0.036241293 0.034659803 0.14995937
0.034144104 0.040136337 0.15090291
0.032322109 0.044106781 0.15095161
0.028778493 0.047588587 0.15088163
0.045974612 -0.0088733435 0.14601208
0.047712713 -0.0043283701 0.14701699
0.040321469 0.025412142 0.1458777
0.03701961 0.029981196 0.14619605
0.035725296 0.034806073 0.1463816
0.034589589 0.039110422 0.14638351
0.032867938 0.043377101 0.14679538
0.029858172 0.04665643 0.14693074
0.046273589 -0.0068303943 0.14264436
0.048705786 -0.0031189919 0.14201127
0.041515201 0.025543034 0.14194222
0.038116336 0.030055583 0.14137851
0.03509587 0.035424769 0.14233474
0.050752044 -0.0025340319 0.13732041
0.051223814 0.0028520823 0.13797198
0.050622642 0.0078548789 0.13637076
0.049458623 0.012059391 0.13632034
0.047053039 0.0153777 0.1357349
0.04551056 0.020809352 0.13611291
0.043378234 0.025902629 0.13739054
0.040250272 0.029473305 0.1363395
0.051472217 -0.00098186731 0.133444
0.051845759 0.0026189685 0.13294397
0.049936175 0.0060833693 0.13265534
0.047495186 0.011353374 0.13324054
0.05133605 0.0017257333 0.12872978
0.015078545 -0.039369524 0.2074296
0.02008152 -0.039748967 0.19644584
0.022596121 -0.037272036 0.19024889
0.024588406 -0.038439512 0.1854073
0.025667727 -0.036076903 0.18649887
0.026470244 -0.038011789 0.18243144
0.027334869 -0.036201417 0.18282728
0.028486788 -0.037572145 0.17949952
0.028878152 -0.034007847 0.17899035
0.029209703 -0.031910837 0.17476474
0.030618668 -0.029496253 0.17359512
0.031833738 -0.027107775 0.17020826
0.032805026 -0.026468754 0.16551615
0.03576076 -0.023581803 0.16580568
0.034999251 -0.025879383 0.16084747
0.03695336 -0.021941841 0.16120957
0.035494328 -0.024693429 0.15747409
0.038005471 -0.020908237 0.15680964
0.039572716 -0.020164728 0.15217142
0.041132987 -0.018760443 0.14834006
0.042734981 -0.016193211 0.14716546
0.026292026 0.049638867 0.14958648
0.023049325 0.04986614 0.14665006
0.043280512 -0.014687598 0.14354207
0.043786824 -0.012288153 0.14311574
0.032545626 0.040294528 0.14367904
0.02995342 0.044018209 0.1430807
0.044256896 -0.013604879 0.13857697
0.045159578 -0.010319114 0.13973998
0.045308411 -0.0066503882 0.13956581
0.037016869 0.032344103 0.14000736
0.034785211 0.034637332 0.13995533
0.032371968 0.039067566 0.13917492
0.031090081 0.043107867 0.13937013
0.046736121 -0.0083913207 0.13533215
0.047439575 -0.0061382651 0.13579012
0.043581605 0.017823994 0.13468026
0.040462732 0.027966261 0.13444449
0.037871599 0.030456126 0.13555656
0.0351215 0.034206986 0.1354156
0.032865047 0.039495707 0.13545965
0.031780183 0.042793155 0.13627987
0.046715081 -0.0075876117 0.13170622
0.048241913 -0.0039018989 0.13075472
0.050709248 -0.00018012524 0.13016607
0.047509223 0.0076102018 0.13029699
0.04608345 0.011534929 0.13024567
0.043400466 0.015142798 0.13114689
0.041873872 0.021336138 0.13068013
0.040656358 0.025425136 0.13059898
0.038936406 0.029170334 0.13030024
0.047929287 -0.0018761754 0.12712209
0.050255835 0.0018589497 0.12625413
0.04821521 0.0068932176 0.12618093
0.046395004 0.011962831 0.12596183
0.045560747 0.015358984 0.12596051
0.042402208 0.021421492 0.12656538
0.041866213 0.024258316 0.12662412
0.039833963 0.028711379 0.12688832
0.048139036 0.0063693523 0.12239112
0.046531498 0.01403147 0.12249206
0.047082067 0.015555918 0.12051822
0.022210836 -0.038782418 0.1864575
0.02095598 -0.037285805 0.18797939
0.026218593 -0.032894969 0.17194818
0.028501153 -0.031563222 0.1691566
0.029074728 -0.030310333 0.16726427
0.030379981 -0.029994309 0.16263025
0.033218533 -0.028951705 0.15864424
0.035488307 -0.026955187 0.1550986
0.036286235 -0.024421334 0.15502994
0.036720634 -0.026495457 0.15080164
0.037358224 -0.023517191 0.15044586
0.036261767 -0.025524497 0.14668672
0.039374381 -0.020950854 0.14595257
0.023238242 0.048374176 0.14475463
0.020352632 0.050091803 0.14388894
0.039187729 -0.019985616 0.14127748
0.042290747 -0.017491519 0.1412145
0.023812354 0.047370255 0.14119218
0.043028235 -0.015814483 0.1367539
0.029694378 0.044492483 0.13567345
0.026475489 0.047242403 0.13633333
0.043661177 -0.014131784 0.13369943
0.043609977 -0.011383474 0.13207071
0.033998907 0.034786284 0.13175808
0.031932443 0.038844109 0.13202275
0.029659867 0.042911351 0.13181753
0.026924163 0.047260284 0.13306104
0.045296252 -0.0082990527 0.12833391
0.046286792 -0.0055717826 0.12802519
0.040662587 0.016473472 0.1288629
0.039639652 0.018068254 0.12955402
0.036602676 0.031694233 0.12966238
0.034799188 0.033859313 0.12733163
0.03231889 0.038223803 0.12792166
0.046464235 -0.0037131906 0.12431057
0.041765034 0.01695466 0.12467648
0.041680694 0.019871294 0.12429364
0.040147305 0.026119053 0.12428971
0.038623065 0.029945791 0.12431522
0.035655081 0.032261491 0.12378268
0.046400785 -0.0014682412 0.12099861
0.047973275 0.0024198294 0.12032782
0.0481143 0.0076909065 0.12011062
0.047129661 0.011653841 0.12063669
0.044498861 0.016718686 0.12010305
0.043494344 0.020978272 0.12011622
0.041152537 0.025832176 0.1199068
0.039248884 0.029844701 0.11978762
0.049520254 0.0032595992 0.11641012
0.04921335 0.0065074563 0.11609976
0.047702014 0.0112499 0.11615036
0.046581924 0.016223252 0.11548485
0.043595552 0.021439672 0.1155235
0.042885602 0.024765015 0.11650075
0.040195823 0.029862344 0.11594166
0.050286174 0.005059123 0.11000283
0.046942472 0.016828954 0.11169924
0.021153212 -0.036145627 0.17282091
0.022110701 -0.035055995 0.16902779
0.023649007 -0.034015715 0.1655926
0.025016576 -0.033055425 0.16062956
0.029283673 -0.030473232 0.15583692
0.028808028 -0.030236065 0.1520222
0.034211695 -0.027498245 0.1467291
0.035007834 -0.025810301 0.14299758
0.03582406 -0.023601115 0.14393227
0.017570585 0.051068783 0.14207219
0.035748363 -0.024996221 0.13916235
0.036691576 -0.022365153 0.13824101
0.021502137 0.04900831 0.1386659
0.017665982 0.050636113 0.13836665
0.038111985 -0.020659089 0.13458396
0.022889346 0.049315631 0.13641326
0.02035439 0.051146507 0.13473482
0.03983283 -0.019059777 0.13046642
0.041132212 -0.015219033 0.13028906
0.025764704 0.044904351 0.13056861
0.024478495 0.046723485 0.12932773
0.022029519 0.050703824 0.13158162
0.041709185 -0.018085957 0.12611274
0.042001665 -0.015726686 0.12523387
0.041799486 -0.011508584 0.12554331
0.032902181 0.035462737 0.12490724
0.030550718 0.038808405 0.1249551
0.027848721 0.042611659 0.12526797
0.026058018 0.045957625 0.12642036
0.042919517 -0.015411258 0.12166135
0.043935955 -0.0098218918 0.12132619
0.045205057 -0.0049955249 0.12021433
0.033428609 0.034146547 0.12124558
0.030478448 0.037860155 0.12084554
0.044528902 -0.0092206597 0.11768548
0.044812262 -0.004696548 0.11633895
0.044985116 -0.00077992678 0.1167738
0.037864536 0.030492783 0.11697628
0.03380096 0.033745885 0.11534031
0.033400476 0.038377941 0.11411597
0.047270834 -0.0041623712 0.11263873
0.046627671 0.00069582462 0.11316483
0.046581447 0.0062901974 0.1124268
0.045097232 0.011416674 0.11233647
0.041328162 0.019546807 0.11116724
0.040011585 0.025527298 0.11295067
0.0389691 0.029844463 0.1130463
0.037062109 0.035563469 0.10961415
0.035401911 0.038412392 0.11065309
0.048402548 -0.0035018325 0.1086645
0.048162043 0.0014992952 0.10881723
0.047355533 0.0075288415 0.10908173
0.045546412 0.011783957 0.10877703
0.045062661 0.015952229 0.10861088
0.041619033 0.021338046 0.10940804
0.040591419 0.025354564 0.10926421
0.040111899 0.030821681 0.10870551
0.0376122 0.035766959 0.10795952
0.037202001 0.039205432 0.10812999
0.049514413 -0.0014953613 0.10433315
0.049041629 0.0016947985 0.10414027
0.049516588 0.0072669387 0.10424609
0.047242433 0.012372434 0.10383455
0.04617396 0.016662538 0.10382713
0.049125642 0.0067249537 0.1002401
0.046827793 0.016177952 0.10024633
0.019813061 -0.040575683 0.16689841
0.019374609 -0.037724674 0.16758852
0.018704325 -0.039283037 0.16359071
0.020771027 -0.036473334 0.16227542
0.022489071 -0.034418404 0.15739666
0.023614228 -0.032695353 0.15376197
0.028871596 -0.030023396 0.1492963
0.02856487 -0.029770434 0.14551194
0.031253338 -0.028406501 0.14062421
0.032797396 -0.026864767 0.13646261
0.034957707 -0.024770856 0.13518165
0.015949309 0.052683651 0.13514327
0.033061683 -0.026530802 0.13247718
0.036584437 -0.024361551 0.13207386
0.0178321 0.053309262 0.13028194
0.016204596 0.053002656 0.13246559
0.037759215 -0.021917701 0.12867121
0.022168279 0.048551083 0.12770732
0.018956542 0.051042914 0.12768333
0.016421854 0.05364579 0.12698491
0.039293289 -0.020661771 0.12441714
0.023423493 0.047890365 0.12374149
0.020599008 0.051563442 0.12364741
0.019471318 0.054154098 0.12346335
0.040774256 -0.019456923 0.12000652
0.042423904 -0.01602757 0.11887948
0.029316902 0.03861022 0.11822005
0.026021659 0.042702854 0.11922823
0.023186624 0.046588123 0.1197726
0.021377891 0.049398839 0.11997782
0.042409718 -0.014837205 0.11472903
0.043616533 -0.010195792 0.11482202
0.031971067 0.034522891 0.11697014
0.030985117 0.038137078 0.11528169
0.027046293 0.041974247 0.11436288
0.044869781 -0.013822615 0.10983108
0.045787036 -0.0093924403 0.11061467
0.035256267 0.034273744 0.11105011
0.032378078 0.039081037 0.11038344
0.02992624 0.042216182 0.10934608
0.045926541 -0.013371289 0.10554381
0.047109663 -0.0088438988 0.10550235
0.048088312 -0.0052959919 0.10623719
0.040707946 0.020048499 0.10652618
0.03979063 0.025693715 0.10540913
0.039497435 0.02908963 0.10616548
0.037070334 0.034588993 0.10510139
0.035239309 0.038865805 0.10637282
0.031508893 0.042733312 0.1052676
0.04616034 -0.0068315864 0.10151275
0.04798466 -0.0037115812 0.10227911
0.048485219 0.002705574 0.10211809
0.041766763 0.020865858 0.10246919
0.040363789 0.025258839 0.101386
0.038874567 0.029560983 0.10120787
0.03654325 0.033536732 0.10098107
0.048137605 -0.0020290017 0.098969325
0.048228651 0.001042068 0.098165795
0.047601819 0.0057607293 0.097071454
0.046761006 0.011148751 0.097811267
0.046276897 0.016363382 0.09789668
0.042181134 0.02079159 0.097544178
0.041209817 0.024850905 0.097234294
0.04005897 0.028330505 0.096793935
0.045980334 0.011472166 0.093699291
0.045301735 0.017152727 0.093513325
0.01613161 -0.041285694 0.1626067
0.01735273 -0.039140761 0.15948261
0.021582901 -0.044626713 0.15581499
0.018949896 -0.03764528 0.1560611
0.020888448 -0.045390666 0.15274586
0.020066857 -0.035918415 0.15200494
0.023391247 -0.032508135 0.15093009
0.020730913 -0.034362733 0.14802189
0.02320832 -0.032247961 0.14717828
0.024123669 -0.031688631 0.14102001
0.027625322 -0.031054318 0.13762648
0.030405253 -0.029598236 0.1340618
0.031949401 -0.027946413 0.13007449
0.031909138 -0.026048899 0.12457986
0.034861982 -0.023987234 0.12491409
0.035563707 -0.022839069 0.12018596
0.019304752 0.052001297 0.11943589
0.018591642 0.054596364 0.11940606
0.03755793 -0.020049036 0.11589848
0.0216344 0.047447622 0.11674516
0.019098788 0.050919712 0.11610256
0.018006623 0.05406332 0.1162955
0.038883835 -0.018995345 0.11175875
0.040746689 -0.017106056 0.11265676
0.025898218 0.043422818 0.11263599
0.022542298 0.046783388 0.11260585
0.020339131 0.053934515 0.11053018
0.041988492 -0.018406451 0.108265
0.043219626 -0.0165627 0.1089236
0.02758956 0.043941438 0.10859628
0.023306876 0.046938598 0.10835169
0.022030771 0.05088681 0.1070853
0.044408232 -0.017790794 0.10355823
0.045261592 -0.014857709 0.10342012
0.031461537 0.039510548 0.10271065
0.029667437 0.044460535 0.10470472
0.025508761 0.046092331 0.10417096
0.023302317 0.053040504 0.10397027
0.043635249 -0.014895856 0.099705592
0.044937313 -0.010257125 0.098769262
0.045952082 -0.0059922338 0.098326191
0.037749261 0.031568706 0.09808965
0.035035431 0.035194099 0.098880216
0.031569242 0.037669957 0.098107055
0.044469595 -0.0082071424 0.094944939
0.045081556 -0.0039612651 0.094336286
0.046025574 0.00090295076 0.093611583
0.042121142 0.021617055 0.09505038
0.040279865 0.026275456 0.094122455
0.038457453 0.030730844 0.094461188
0.035371691 0.034440398 0.094530448
0.046610713 0.0012654066 0.090042576
0.046795189 0.0064416528 0.091607317
0.046067417 0.011702776 0.09129031
0.044660807 0.016053855 0.090736195
0.042924345 0.020793498 0.091183171
0.040450215 0.024823904 0.091162369
0.03899616 0.02940762 0.091346607
0.048619002 0.0017798543 0.086111024
0.049363732 0.0070667863 0.086968794
0.047248065 0.011702359 0.086831018
0.044956028 0.015884995 0.085780725
0.043217957 0.020834804 0.08580111
0.041366875 0.024281442 0.085378394
0.049899459 0.003403604 0.082306758
0.049426436 0.0073479414 0.081466064
0.048115373 0.011916399 0.081142023
0.046572 0.015466988 0.081630394
0.044493377 0.020849943 0.081985667
0.014420867 -0.041867137 0.1579432
0.016505569 -0.042138994 0.15317689
0.016958058 -0.04653722 0.14947776
0.017216355 -0.041028917 0.14814757
0.018199354 -0.037824214 0.14874236
0.018832624 -0.035847962 0.14507662
0.021117985 -0.033782303 0.14073385
0.021421492 -0.032119274 0.14285038
0.023644626 -0.034047782 0.13596354
0.026978612 -0.038556933 0.12922244
0.026857078 -0.034014225 0.13122933
0.027756751 -0.033492208 0.12730564
0.028295577 -0.03057307 0.12615196
0.029540479 -0.028688252 0.12308888
0.031349659 -0.026726902 0.11862718
0.032066882 -0.025605857 0.11899908
0.033663154 -0.023481548 0.11385442
0.017915964 0.051791966 0.11320154
0.017481863 0.053529441 0.11319791
0.035754263 -0.022685111 0.10924689
0.018554509 0.051350296 0.10959418
0.016585141 0.053755343 0.11096923
0.037883222 -0.022384286 0.10490881
0.022949576 0.047553718 0.10585211
0.020595729 0.051492035 0.10514639
0.040807098 -0.020547032 0.10224213
0.024704635 0.042160511 0.099633172
0.024068713 0.046738684 0.10174526
0.022538692 0.05055207 0.10246773
0.042536378 -0.015673637 0.096944377
0.028612375 0.039588571 0.096621498
0.024388492 0.042367339 0.09760119
0.042062461 -0.013979673 0.091936037
0.043542325 -0.010069072 0.092210039
0.044005722 -0.0056172609 0.091803715
0.033395827 0.034717619 0.090856954
0.030908555 0.038206756 0.092759773
0.028336704 0.040587187 0.091300949
0.043487668 -0.0077050328 0.087832913
0.044508487 -0.0040363669 0.087661758
0.038288653 0.025677204 0.087134108
0.036434174 0.029140174 0.086713687
0.033095777 0.033654392 0.088206366
0.046101272 -0.0037591457 0.08309333
0.039479494 0.025470078 0.08405973
0.037845731 0.028775156 0.082416549
0.046932697 -0.0027993321 0.079876974
0.048601359 0.0012646317 0.079845235
0.048370928 0.0042043924 0.078500077
0.048473924 0.0094782114 0.079098865
0.044536829 0.017143905 0.079188034
0.042303056 0.021464407 0.078684494
0.040343702 0.025611341 0.08022882
0.047628194 0.002579391 0.076059267
0.047485113 0.0060972571 0.07636939
0.046516776 0.011425197 0.075537577
0.045103222 0.015449107 0.075679258
0.042861342 0.020004928 0.07584469
0.015314758 -0.046571314 0.14705209
0.014071763 -0.044002712 0.146843
0.015326947 -0.041013181 0.14225827
0.016999066 -0.037873387 0.14131035
0.01819557 -0.040911615 0.13534267
0.017795742 -0.037740767 0.13759755
0.020396739 -0.040313721 0.13049273
0.019422233 -0.03791374 0.13319533
0.023859262 -0.038971603 0.12995453
0.021656573 -0.037514627 0.13118614
0.02690807 -0.042898953 0.12692051
0.024989009 -0.039465904 0.12605236
0.025250554 -0.035696685 0.12410928
0.026162744 -0.035001874 0.1208912
0.027207971 -0.031131923 0.12000798
0.0268929 -0.033010185 0.1144657
0.027915657 -0.030449331 0.11546896
0.03058672 -0.028612196 0.11220275
0.032236457 -0.027400911 0.1074367
0.033552587 -0.026456237 0.10274778
0.037182808 -0.022288024 0.098317042
0.019777536 0.047179878 0.097510234
0.017722636 0.049265206 0.096569166
0.037677199 -0.019580185 0.0949146
0.039703608 -0.017509818 0.094007418
0.024453104 0.04267931 0.094762132
0.02140981 0.04594022 0.094433114
0.037959099 -0.019184291 0.09021984
0.039520234 -0.016475976 0.089770332
0.028893441 0.039047301 0.089437708
0.024900436 0.042617381 0.090093121
0.022013843 0.046495199 0.091244444
0.040563971 -0.014366448 0.085616782
0.042271197 -0.0099521875 0.085849151
0.030532271 0.033760905 0.084397063
0.028309405 0.037598491 0.086134389
0.043449879 -0.010342836 0.080735669
0.044281423 -0.007096827 0.081423387
0.032178164 0.032197714 0.080374673
0.045239866 -0.0092234015 0.075743422
0.046183646 -0.0052154064 0.077059552
0.045075476 -0.0011635423 0.075541154
0.037866652 0.024184585 0.075111315
0.036311567 0.028324068 0.077164248
0.032663614 0.031721771 0.076615199
0.046032786 -0.0088565946 0.072197929
0.045822412 -0.0045053363 0.073550001
0.045626819 0.0012404919 0.073093072
0.044727981 0.0062414408 0.07225363
0.043055713 0.010684192 0.071018711
0.041578948 0.015446961 0.071374282
0.040628761 0.019544721 0.072869644
0.043012917 0.011925519 0.067193314
0.042561948 0.015184879 0.067017779
0.042134285 0.019156516 0.065613136
0.044090033 0.014980078 0.064049795
0.012813389 -0.045788646 0.14439292
0.012736201 -0.044639289 0.14069091
0.014606237 -0.043414652 0.13600247
0.018175721 -0.042468369 0.13172732
0.021367252 -0.041821361 0.12786059
0.022259474 -0.040444911 0.12259059
0.022915483 -0.037624419 0.12212916
0.023376107 -0.040605187 0.11897121
0.023372829 -0.035864651 0.11719675
0.024004906 -0.038652956 0.11285673
0.024753809 -0.034968555 0.11320372
0.026947021 -0.033833742 0.10928558
0.028198868 -0.032134354 0.10445882
0.029254258 -0.030321896 0.10600434
0.030907035 -0.028867424 0.10099335
0.032954395 -0.026068151 0.096743897
0.034234226 -0.023622751 0.096040025
0.015654027 0.050261676 0.094867781
0.034366965 -0.023246288 0.091270432
0.017219335 0.049807727 0.091566905
0.036261678 -0.022704542 0.08680211
0.038383067 -0.01892817 0.087499365
0.020225108 0.046549022 0.086619511
0.018290758 0.050450027 0.086216584
0.038082153 -0.021124959 0.082850978
0.039418936 -0.017311871 0.083537385
0.026196271 0.037821949 0.08300139
0.023270488 0.041722476 0.083201662
0.020503134 0.045978248 0.083254114
0.01985687 0.050652921 0.082318202
0.039391935 -0.020591676 0.079269394
0.041052699 -0.01619792 0.079114988
0.029474378 0.034804046 0.079501852
0.026946813 0.037424624 0.078703746
0.023887157 0.041339397 0.078995451
0.020655632 0.050423324 0.079357728
0.041835606 -0.01519376 0.073936775
0.043652177 -0.011990845 0.074771449
0.033742487 0.028881729 0.073636279
0.031297237 0.03391242 0.074048504
0.028450966 0.03805083 0.073508546
0.043069124 -0.014396369 0.070324674
0.044020653 -0.010065436 0.069223359
0.043876439 -0.0043638945 0.069769755
0.043511212 6.5028667e-05 0.070083454
0.0376755 0.021819949 0.071833506
0.035920441 0.02398175 0.069081739
0.034587979 0.029014647 0.069285646
0.03267175 0.034040749 0.069234595
0.030783832 0.03780061 0.068566784
0.044977635 -0.0079903603 0.065909013
0.044999659 -0.0039739609 0.066352233
0.044402272 0.00080388784 0.066887006
0.043842554 0.0051086545 0.06657587
0.042652488 0.0096334815 0.06678687
0.041567326 0.015945971 0.067648873
0.040319622 0.019942939 0.067267492
0.036742866 0.024235547 0.064771369
0.035192966 0.02951777 0.064658746
0.033354074 0.033814251 0.065304175
0.03228581 0.036455214 0.065118954
0.046058476 -0.0031644106 0.062154431
0.046223283 0.00095927715 0.062478591
0.046052814 0.005482018 0.061906267
0.043728232 0.010716796 0.061442126
0.043639779 0.016339481 0.061451126
0.042652965 0.020429909 0.062024791
0.037904441 0.023663819 0.062247325
0.035880804 0.028939784 0.061922837
0.044458896 0.012313545 0.05637889
0.044168264 0.016358793 0.056545515
0.043721557 0.020670772 0.056288261
0.045618534 0.013465405 0.052643169
0.045270741 0.015231609 0.05268221
0.044029593 0.020570278 0.052213807
0.020718217 -0.040121198 0.1153401
0.022166848 -0.039902747 0.11204837
0.021939099 -0.037168801 0.1141413
0.024174035 -0.038926721 0.10839354
0.024632931 -0.035694957 0.10629128
0.026170731 -0.033436179 0.10257898
0.026604205 -0.031324208 0.097114429
0.028830469 -0.028754532 0.093957588
0.030794859 -0.02760005 0.089878008
0.032989919 -0.026505589 0.084511295
0.036188066 -0.024314284 0.084092006
0.033128142 -0.026203215 0.080662355
0.036010921 -0.02403301 0.080116168
0.020243675 0.045803547 0.080675527
0.018629611 0.048454821 0.080271646
0.038044214 -0.021713078 0.076286897
0.023627758 0.04241544 0.076340631
0.020337313 0.046364963 0.077227637
0.020312011 0.049627364 0.076767609
0.03783074 -0.02003783 0.071921602
0.040811002 -0.017467439 0.071987972
0.024460614 0.041914046 0.072483823
0.021138996 0.044214666 0.071018502
0.018693447 0.049321055 0.072489783
0.038812578 -0.019175768 0.067971662
0.041196525 -0.015234828 0.067110524
0.043075383 -0.011394262 0.066690072
0.028699815 0.039657772 0.066866115
0.025449097 0.041701496 0.067155257
0.041687846 -0.013117373 0.063909784
0.042192459 -0.010804892 0.062058557
0.033510119 0.03401798 0.063410684
0.030430317 0.038121104 0.06249221
0.026909441 0.040952861 0.062241662
0.043312907 -0.005684495 0.059061933
0.04523778 -0.0015107989 0.058787901
0.037204087 0.0244115 0.059629042
0.034196138 0.028547645 0.058803517
0.032467872 0.033489764 0.059238601
0.044511974 -0.0036007762 0.054235209
0.046952546 0.00015944242 0.055093516
0.043804139 0.0059127212 0.054974664
0.04066813 0.009177804 0.055915643
0.038315833 0.023951471 0.054989893
0.046600938 -0.0024752617 0.05030014
0.046834528 0.0014593601 0.051050026
0.044922918 0.0046955943 0.049334604
0.043969274 0.011807621 0.049696226
0.044231296 0.015689731 0.049681891
0.044263512 0.020831108 0.049648244
0.039565861 0.024161637 0.049065638
0.045852423 0.0050860047 0.045783449
0.04507497 0.012391984 0.044239361
0.044611871 0.016151428 0.045029599
0.044967204 0.021281064 0.045457084
0.041635901 0.024691164 0.045051802
0.046777189 0.015670121 0.042722542
0.04543674 0.02150768 0.043438364
0.021903098 -0.035725057 0.1002094
0.021332681 -0.0347839 0.095087454
0.023547918 -0.033419669 0.089813754
0.025358111 -0.031452179 0.090734705
0.027742863 -0.029995859 0.086927935
0.029302657 -0.029511273 0.082687154
0.031893849 -0.027210891 0.077672228
0.033005446 -0.026381433 0.0730692
0.035306931 -0.023641527 0.073935553
0.018396765 0.045562387 0.07395269
0.035461903 -0.023007333 0.06976606
0.018031418 0.045992136 0.069870457
0.016542912 0.050178587 0.069340602
0.036513805 -0.021484673 0.065232232
0.038344383 -0.018352449 0.064537391
0.022769809 0.043184221 0.064653948
0.020077944 0.045524359 0.065126225
0.01783973 0.049091816 0.066131338
0.039454281 -0.016713202 0.06053986
0.041345954 -0.012823045 0.059802193
0.024361491 0.042603016 0.059628058
0.022165239 0.04620856 0.059714932
