# .PCD v0.7 - Point Cloud Data file format
VERSION 0.7
FIELDS x y z
SIZE 4 4 4
TYPE F F F
COUNT 1 1 1
WIDTH 1329
HEIGHT 1
VIEWPOINT 0 0 0 1 0 0 0
POINTS 1329
DATA ascii
0.022301486 -0.10752817 0.77599478
0.027117375 -0.10776121 0.77767622
0.013663769 -0.10354362 0.77860004
0.017279746 -0.10273861 0.77798885
0.022175523 -0.10290765 0.77790004
0.025306536 -0.1043755 0.77940005
-0.00086411997 -0.11532758 0.78486657
0.0030320613 -0.1163037 0.78324461
0.0078902971 -0.11723968 0.7820335
0.012258664 -0.11703043 0.78160572
0.017506473 -0.11719649 0.78340966
0.022109265 -0.11672273 0.78198349
0.027746502 -0.11674241 0.7826001
0.032744206 -0.11621517 0.78346688
0.036800243 -0.11560177 0.78425002
0.04009122 -0.11523943 0.78426671
-0.0014483469 -0.11195145 0.78372014
0.0029880039 -0.11227611 0.78105247
0.008078984 -0.11235341 0.78014296
0.010778915 -0.11461253 0.78000015
0.017329777 -0.11464068 0.7801919
0.023871304 -0.11461253 0.78000015
0.028242648 -0.11377034 0.78019345
0.032646812 -0.11240072 0.78112435
0.037105653 -0.11213754 0.78297806
0.040675469 -0.1123181 0.78424007
-0.0013510124 -0.10765719 0.78394455
0.0027818941 -0.10757676 0.78159457
0.0078736078 -0.1072055 0.78040493
0.010778915 -0.10590678 0.78000015
0.029690145 -0.10590678 0.78000015
0.032815352 -0.10729162 0.78164685
0.036818683 -0.10771567 0.78378528
0.040128712 -0.10950615 0.78499991
0.003279171 -0.10328112 0.78394455
0.0078965891 -0.10263353 0.78272229
0.011961792 -0.10215773 0.78130019
0.017329313 -0.1001308 0.78021681
0.02278984 -0.10050636 0.78031683
0.027709903 -0.10233615 0.7815513
0.031925492 -0.10309511 0.78384769
0.0093831802 -0.099275984 0.78493321
0.01246928 -0.097812571 0.78345019
0.017349353 -0.097341053 0.78112793
0.022460958 -0.097389922 0.78152245
0.027432658 -0.097767122 0.783485
0.017861895 -0.094543934 0.78443998
0.022245983 -0.094226107 0.78422672
0.025486207 -0.094895639 0.78493321
0.049203694 -0.12631543 0.78966665
0.051369399 -0.1262088 0.78900003
0.0020751222 -0.12039901 0.78940004
0.007225493 -0.12035833 0.78913331
0.010884866 -0.12013467 0.78766662
0.017494109 -0.12013213 0.78765005
0.023413036 -0.12034816 0.78906643
0.027090816 -0.12034307 0.78903311
0.034482133 -0.12046003 0.78979999
0.049204826 -0.12411487 0.78968495
0.052129164 -0.12296274 0.7893635
0.055546835 -0.12084485 0.78911549
-0.0025228146 -0.11746494 0.78818327
0.0017011767 -0.11811598 0.78641671
0.013058191 -0.11985505 0.78583342
0.016705569 -0.11827777 0.78506655
0.022583196 -0.11887573 0.78579998
0.027488306 -0.1184719 0.78635567
0.032869246 -0.11848864 0.78646678
0.037674762 -0.1178716 0.78722876
0.042802222 -0.11662205 0.78797144
0.047003657 -0.11605495 0.78981686
0.053634353 -0.11826363 0.78985012
0.056544945 -0.11745462 0.78935176
-0.0052839373 -0.11228236 0.7891165
-0.0034338657 -0.11301614 0.78656673
0.043763589 -0.11246169 0.78780824
0.04682935 -0.11334485 0.78935993
0.056213859 -0.11349224 0.78987515
-0.0033162551 -0.1071841 0.78761107
0.038238015 -0.10578189 0.78626674
0.041879758 -0.10750704 0.78786963
-0.0021557868 -0.10283399 0.78842914
0.0013347714 -0.10171172 0.78683347
0.03397613 -0.10204769 0.78660011
0.037142735 -0.10303789 0.7881856
0.040845532 -0.10375944 0.78942209
-0.00086920272 -0.099116743 0.78948331
0.0022198986 -0.097984686 0.78865325
0.0070624794 -0.097244889 0.78742003
0.011356923 -0.095562458 0.78642225
0.02944774 -0.09556824 0.78646666
0.032814126 -0.097701311 0.788306
0.03594451 -0.099862017 0.78956681
0.0035501579 -0.092565179 0.78996688
0.0079639219 -0.092679456 0.78937918
0.012506244 -0.092638969 0.78810662
0.017278291 -0.092075281 0.78692728
0.022805074 -0.091707125 0.78621912
0.027300151 -0.092654079 0.78733331
0.031275902 -0.092501104 0.78942221
0.013259244 -0.088352643 0.78909314
0.017526446 -0.088055998 0.78906637
0.022543803 -0.087522998 0.78907865
0.026611293 -0.088577561 0.78935552
0.047811549 -0.12505731 0.79100001
-0.0064972294 -0.12160408 0.79342669
-0.0023499664 -0.12157342 0.7922557
0.0020877589 -0.12261196 0.79422235
0.0065314695 -0.12260509 0.79417783
0.011716601 -0.12261882 0.79426676
0.019120041 -0.12259823 0.79413342
0.027263559 -0.12258794 0.79406673
0.031544145 -0.12049054 0.79000026
0.037586432 -0.12096506 0.79311115
0.042064361 -0.12108539 0.79390013
0.047187768 -0.12212201 0.79295719
0.051747154 -0.12113801 0.79103345
0.055117905 -0.12342966 0.79000002
-0.0067830631 -0.11785005 0.79200751
0.037503924 -0.11923191 0.79140013
0.042712543 -0.11934993 0.7921834
0.047989942 -0.11804303 0.79047638
0.051756334 -0.11735559 0.79009545
-0.007417303 -0.11241126 0.79224771
0.048414584 -0.11174542 0.79051441
0.052263182 -0.1126071 0.79140562
0.057100065 -0.1121982 0.79025012
-0.0065972777 -0.1073356 0.79188341
0.044805635 -0.10726753 0.79002243
0.047836561 -0.10745265 0.79139268
0.052417498 -0.10777065 0.79373336
0.056526415 -0.10767746 0.79169464
-0.0059423619 -0.1027863 0.79271424
-0.0038208403 -0.10076538 0.79090011
0.038177542 -0.10139489 0.79006696
0.042985231 -0.10234648 0.79175341
0.047237236 -0.10334237 0.7937417
-0.0053179744 -0.098970629 0.79420006
-0.0023489918 -0.09754888 0.79166675
0.0013405997 -0.095560521 0.79043353
0.034490868 -0.095508121 0.79000026
0.03763305 -0.097667582 0.79127288
0.041630894 -0.098040603 0.79266679
-0.00087417528 -0.093776204 0.79400015
0.0019161968 -0.092447571 0.79177046
0.0057605077 -0.092204548 0.79002529
0.033915497 -0.092312247 0.79032016
0.037730888 -0.092420094 0.79332119
0.040619455 -0.093847185 0.79460013
0.0035615433 -0.089175157 0.79250014
0.007246701 -0.087602213 0.79161674
0.011762976 -0.086721666 0.79028594
0.017547227 -0.085221291 0.79000026
0.024177352 -0.085221291 0.79000026
0.027635066 -0.086261123 0.79055572
0.032218676 -0.087798245 0.79205781
0.036127102 -0.088558145 0.79357785
0.00875118 -0.084179357 0.79403353
0.012429233 -0.083645679 0.79248333
0.017597875 -0.082524918 0.79233885
0.02274067 -0.082413286 0.79126686
0.027055105 -0.082815789 0.79335839
0.030233206 -0.084204085 0.79426676
0.017633328 -0.078996912 0.79390842
0.022595912 -0.078648269 0.79359055
0.026525691 -0.079758212 0.79413348
-0.0064616753 -0.12658872 0.79833341
-0.0023668592 -0.12616397 0.79800016
0.0021003943 -0.1262518 0.79855567
0.012544084 -0.12644327 0.79976654
0.022991378 -0.12648016 0.79999983
0.025975404 -0.12648016 0.79999983
0.043769818 -0.126164 0.79800004
0.045258101 -0.126164 0.79800004
-0.011321076 -0.12197457 0.79973322
-0.0084998608 -0.12326705 0.79726672
-0.0023614885 -0.1243879 0.79613334
0.0020927221 -0.12436707 0.79600006
0.0077456669 -0.12426259 0.79722679
0.012870891 -0.12414566 0.79695016
0.017213382 -0.12406645 0.79723352
0.022912627 -0.12382641 0.79727787
0.027398745 -0.12467957 0.79800016
0.03225917 -0.12371874 0.79726666
0.037753303 -0.12298933 0.7966668
0.042220954 -0.12344401 0.79685968
0.045193285 -0.12450101 0.79685736
-0.0094346274 -0.11685246 0.7977668
-0.0098243738 -0.11299024 0.7993111
-0.0093100527 -0.10756707 0.79770011
0.052535277 -0.10505325 0.79551119
0.055531859 -0.105109 0.79593337
-0.0079438593 -0.10198011 0.79752505
0.048103303 -0.1013932 0.79582232
0.052570447 -0.10216202 0.79604453
0.055586129 -0.10224667 0.79671127
-0.0059361653 -0.097320259 0.79763347
-0.0038416116 -0.096136831 0.79519999
0.042914316 -0.096225485 0.79593337
0.047617115 -0.097315624 0.79760456
0.052548278 -0.098209843 0.79853344
0.055757456 -0.098845512 0.79916662
-0.0025308141 -0.09261287 0.79742229
0.00060817244 -0.090310663 0.79600006
0.042410713 -0.092600271 0.79730386
0.045823496 -0.094141871 0.79919988
-0.0014764143 -0.087978542 0.79902667
0.0019070405 -0.087212332 0.79644167
0.034749921 -0.085861377 0.79593337
0.038210489 -0.087282173 0.79733342
0.040805601 -0.088337436 0.79824156
-0.0012535086 -0.083669402 0.79974985
0.0020969315 -0.082354702 0.7978335
0.0068962174 -0.082089409 0.79692328
0.012481533 -0.082000628 0.79582673
0.028804963 -0.081399113 0.79573345
0.032896571 -0.082292758 0.79723823
0.037122678 -0.084712952 0.79906678
0.0024746228 -0.078442894 0.79954982
0.0074793617 -0.077425003 0.79821038
0.012495268 -0.077792138 0.79670572
0.017675241 -0.076222301 0.795775
0.023171058 -0.076088086 0.79592001
0.027505761 -0.077353515 0.79676676
0.031318031 -0.077762194 0.79830009
0.0080681881 -0.074366905 0.79969978
0.012823599 -0.073672332 0.79862678
0.01771697 -0.072693087 0.79767233
0.022747546 -0.072907463 0.79799175
0.026438743 -0.073802248 0.7989555
0.017767921 -0.069924496 0.7999332
-0.011394217 -0.13773575 0.80490017
-0.012136687 -0.13240428 0.80434459
-0.0079271561 -0.13268776 0.80334008
-0.0038824347 -0.13229024 0.80365008
-0.012004758 -0.12733273 0.80269051
-0.0081709027 -0.12877268 0.80152917
-0.0023777701 -0.12900016 0.80178326
0.0017358302 -0.12868975 0.80217493
0.0073422221 -0.12754092 0.8019833
0.01259305 -0.12805447 0.8028667
0.01677211 -0.12743914 0.80228007
0.022559986 -0.12760115 0.80236667
0.027546557 -0.12759191 0.80230832
0.032782234 -0.12647134 0.80229998
0.037595749 -0.12621814 0.80238098
0.041739412 -0.12752512 0.80188555
-0.013457598 -0.1227057 0.80256671
-0.01209903 -0.11781522 0.80179995
-0.012098801 -0.11259788 0.8018083
-0.012097036 -0.1081012 0.80165827
-0.0093616443 -0.10246167 0.80226666
-0.0073825829 -0.097190261 0.80391121
0.053274661 -0.095724732 0.80103326
0.056013286 -0.096312776 0.80283344
-0.0053803958 -0.092657067 0.80352235
-0.0038699554 -0.090885542 0.80106664
0.043883167 -0.090772077 0.80006653
0.047767852 -0.092231177 0.80125552
0.052048851 -0.092878498 0.80327064
-0.005389845 -0.089826867 0.80493355
-0.0035731383 -0.087046787 0.80140001
0.042801667 -0.086979255 0.80215997
0.047035545 -0.087810382 0.80293339
0.050087452 -0.088958055 0.80385005
-0.0028070025 -0.081820026 0.80192858
0.038152009 -0.082327627 0.80190659
0.041698508 -0.082540378 0.80397332
0.04714473 -0.083823681 0.80480021
-0.0019546924 -0.07788033 0.80306667
0.0018063936 -0.076585747 0.80112666
0.033971459 -0.077459186 0.80092216
0.037326403 -0.077703215 0.80343997
0.0027511171 -0.073138885 0.80255711
0.0072361515 -0.072018608 0.80196905
0.012352219 -0.071100824 0.80121905
0.022730615 -0.070343494 0.80131996
0.027891235 -0.07181906 0.80264819
0.031727627 -0.073005602 0.80292594
0.03511811 -0.074052528 0.80436683
0.0081060855 -0.067992873 0.80348897
0.012596429 -0.067217484 0.8031556
0.016921612 -0.067439362 0.80225003
0.022328058 -0.06720002 0.80294728
0.026083626 -0.068727374 0.80333334
0.01261974 -0.064349145 0.80464458
0.017289698 -0.062965065 0.80370843
0.021902628 -0.063982703 0.80380011
-0.020505026 -0.13693249 0.80900002
-0.01686573 -0.13678834 0.8081454
-0.013350547 -0.13800021 0.80644804
-0.0079060113 -0.13749035 0.80638409
-0.0028936539 -0.13605969 0.80680007
-0.025031412 -0.1309129 0.80900002
-0.021979084 -0.1314445 0.80764502
-0.017559761 -0.13247894 0.80604613
-0.014111315 -0.13308458 0.80574667
-0.0061420379 -0.13478032 0.80513358
-0.0023886547 -0.13298471 0.80560011
0.0021229582 -0.13149594 0.80795002
0.007392772 -0.13065128 0.80738324
0.012684378 -0.13124603 0.80873328
0.017509285 -0.13145885 0.80865335
0.022435483 -0.13132061 0.80687499
0.027711516 -0.13059646 0.80704445
0.030824469 -0.13104232 0.80980009
0.03909523 -0.13092366 0.80906671
0.041807275 -0.13125688 0.8080222
-0.025031412 -0.12790312 0.80900002
-0.021220798 -0.12766656 0.80750388
-0.017424457 -0.12744026 0.80607486
-0.014398304 -0.1272707 0.80500025
0.018631073 -0.12876819 0.80500025
0.020132404 -0.12876819 0.80500025
0.029140415 -0.12876819 0.80500025
0.032209139 -0.12902768 0.80662227
0.037473351 -0.1290348 0.80666661
0.044153769 -0.12876816 0.80500007
-0.025031412 -0.12489333 0.80900002
-0.021251697 -0.12258706 0.80868465
-0.017442092 -0.12230957 0.8068518
-0.014398305 -0.1212809 0.80500025
-0.025031412 -0.11812128 0.80900002
-0.020523613 -0.1189815 0.80973333
-0.017279293 -0.1174165 0.8080374
-0.014401285 -0.11756112 0.8051669
-0.015977319 -0.11434965 0.80893338
-0.014447187 -0.11267626 0.80773324
-0.012579116 -0.10715976 0.80860835
-0.011464525 -0.103936 0.80986679
-0.0099231796 -0.10135932 0.80735004
-0.0089209815 -0.097615659 0.80742222
0.057665784 -0.097321607 0.80500007
-0.0075531006 -0.092612021 0.80683804
0.05397534 -0.091436543 0.80593395
0.056339659 -0.092364028 0.80751145
-0.0060072052 -0.087358139 0.80702668
0.047160476 -0.085349023 0.80506694
0.052466728 -0.087314025 0.80687982
0.056413621 -0.088728786 0.80857146
-0.0054062135 -0.082590163 0.80737758
0.043798365 -0.082009532 0.80536687
0.047233637 -0.082291976 0.80630833
0.051663611 -0.083122902 0.80839044
-0.0054166303 -0.078986883 0.80893326
-0.0035258639 -0.076239914 0.80773318
0.039659616 -0.0763762 0.80520028
0.042761851 -0.077300079 0.80703896
0.046807624 -0.078877263 0.8093468
-0.0011905249 -0.072970934 0.80732
0.0012159901 -0.071612246 0.80553353
0.033177126 -0.070936523 0.80580002
0.037825342 -0.07259959 0.80725718
0.042826217 -0.073660038 0.80826658
-0.00089069031 -0.069212191 0.80900002
0.0021178331 -0.067468628 0.80615556
0.0066203903 -0.066623792 0.80500025
0.027827958 -0.067188054 0.80503362
0.032228027 -0.067547053 0.80709624
0.03623553 -0.068327129 0.80921334
0.0026264756 -0.063625254 0.8081333
0.0073814583 -0.062227789 0.80627501
0.012625731 -0.062131405 0.80500025
0.015628399 -0.061382659 0.80500025
0.022964865 -0.061800458 0.80557513
0.027580323 -0.062507495 0.80724233
0.031908471 -0.064285278 0.80854994
0.035361148 -0.064772144 0.80993342
0.0085353963 -0.058281131 0.8087166
0.012791177 -0.057972599 0.80683637
0.017152401 -0.057713199 0.80606675
0.021930058 -0.057862818 0.80734867
0.026267629 -0.058677908 0.80900002
0.014213641 -0.054225698 0.80993336
0.017216016 -0.053414404 0.80905557
0.020239944 -0.053430289 0.80929995
-0.0024155534 -0.13772421 0.81366432
0.001632552 -0.13666837 0.81339997
0.0077769421 -0.13687418 0.81376189
0.012450899 -0.13673821 0.81321317
0.016935213 -0.13659328 0.81369996
0.021104045 -0.13618088 0.81349993
0.038533855 -0.13611951 0.81313318
0.04004379 -0.13609719 0.81299996
-0.00089215825 -0.1341434 0.81033337
0.0025143859 -0.13415806 0.81269997
0.0074334019 -0.13363618 0.81182504
0.01273215 -0.13378058 0.81178677
0.016875073 -0.13384117 0.81078351
0.021825472 -0.13443033 0.81206685
0.027860126 -0.13281427 0.81142235
0.032739531 -0.13236204 0.81234676
0.037142035 -0.13310944 0.81219262
0.04075307 -0.13442484 0.81203341
-0.025124237 -0.12686694 0.81200004
-0.023559667 -0.12735105 0.8102743
-0.025126299 -0.12234629 0.81206673
-0.0235615 -0.12208509 0.81033725
-0.022086103 -0.11737726 0.81167811
-0.019041635 -0.11614083 0.81093353
-0.02062922 -0.11429383 0.81390011
-0.017338244 -0.11307006 0.81210476
-0.016090566 -0.10909835 0.81466687
-0.01414294 -0.10683313 0.81185007
-0.013017299 -0.10275009 0.81240016
-0.011809802 -0.097964406 0.81282663
-0.0099620335 -0.096479475 0.81051129
-0.010774208 -0.092440069 0.814767
-0.0094730658 -0.092094302 0.81171107
-0.0080871619 -0.087207846 0.81191671
0.056082785 -0.086486392 0.81105304
-0.007716151 -0.082374521 0.81266677
0.052749846 -0.081371866 0.8102001
0.056485433 -0.082894087 0.81199169
-0.0062003499 -0.077087671 0.81270003
0.047938045 -0.076707304 0.81096214
0.052088808 -0.077743568 0.81167239
0.055833705 -0.077514961 0.81266671
-0.0054429648 -0.07407926 0.81286657
-0.0033173703 -0.072183445 0.81196004
0.042954233 -0.071618535 0.81068915
0.047590878 -0.07252375 0.81239259
0.052590832 -0.073766023 0.81358325
0.057085924 -0.073563777 0.8138569
-0.0012738279 -0.067260884 0.81269979
0.038421914 -0.067603603 0.81076688
0.04249021 -0.067220435 0.81293339
0.046673294 -0.06913688 0.81402224
-0.00089619495 -0.062825799 0.81400007
0.0016281985 -0.06137063 0.81144458
0.029355198 -0.060326621 0.81093353
0.032563731 -0.061636075 0.81080025
0.037101004 -0.062459167 0.81192738
0.040562849 -0.063021749 0.81326658
0.0025692664 -0.05765162 0.81272376
0.0068588401 -0.056750569 0.81103355
0.011199943 -0.05576903 0.81046671
0.024816971 -0.056552973 0.81090021
0.027864408 -0.057352394 0.81155246
0.032442886 -0.058175582 0.8125
0.035499401 -0.058218736 0.81309998
0.0030490197 -0.053255778 0.81353331
0.007265436 -0.052666344 0.81271273
0.012529764 -0.052595891 0.81094193
0.017256547 -0.051277082 0.81095582
0.02320217 -0.052444469 0.81206071
0.026938757 -0.053997528 0.81406683
0.0082093291 -0.04994173 0.81377774
0.012759641 -0.049172044 0.81357783
0.017281806 -0.049085338 0.81214446
0.021559188 -0.049319874 0.81352007
0.00062650943 -0.14031969 0.81999981
0.0082667358 -0.14022087 0.8194223
0.012849865 -0.14019424 0.81926686
0.038058016 -0.1409459 0.81920445
0.040359024 -0.14174128 0.81940001
-0.00089865091 -0.13815638 0.81623077
0.0026545657 -0.13766454 0.81631136
0.0051996028 -0.13839942 0.81766671
0.013578896 -0.13908696 0.81723332
0.018123351 -0.13810039 0.81590009
0.02236891 -0.13811032 0.81820011
0.02763762 -0.13665728 0.81763804
0.032865956 -0.13644363 0.81765717
0.03716388 -0.13792609 0.81635851
0.024950618 -0.13496004 0.81526691
0.026462438 -0.13491589 0.81500036
-0.025278941 -0.11548991 0.81700003
-0.023720335 -0.11532029 0.81580001
-0.025340825 -0.11424913 0.81900007
-0.022435701 -0.11231882 0.81742406
-0.018383387 -0.11145338 0.81526697
-0.021255339 -0.10783514 0.81850791
-0.017838623 -0.10762158 0.81640005
-0.017546298 -0.1029175 0.81810927
-0.014586701 -0.10087045 0.81553346
-0.013863162 -0.097328089 0.81764454
-0.012495962 -0.092500702 0.81798667
-0.011438704 -0.087658793 0.81772727
-0.01081878 -0.082162865 0.81807786
-0.010062685 -0.078417867 0.81870019
-0.0081267506 -0.077012733 0.81591684
-0.0070001711 -0.072607294 0.81759173
0.05203215 -0.071894631 0.81553352
0.056480158 -0.071144462 0.81680506
-0.0057887025 -0.067920849 0.81884015
-0.0032926861 -0.067256942 0.81660014
0.044724215 -0.065209314 0.81540018
0.04822766 -0.067065328 0.81748897
0.052524757 -0.067737609 0.81847221
0.056274325 -0.066900209 0.81751513
-0.0028624176 -0.062130217 0.81764764
0.043121092 -0.06196155 0.81702965
0.047739744 -0.062860049 0.81867635
0.052592155 -0.064013623 0.81951118
-0.0024279214 -0.057815142 0.81808895
0.00062281679 -0.056850467 0.81516695
0.029502403 -0.056080963 0.81500036
0.032553066 -0.056099314 0.81526691
0.037656385 -0.057561245 0.81758106
0.042059183 -0.058452416 0.81902516
-0.0015555664 -0.052833032 0.81838101
0.001492354 -0.051595677 0.81600016
0.028378014 -0.051803872 0.81662977
0.032513872 -0.052944757 0.81810009
0.036127426 -0.053671986 0.81873333
0.0023694583 -0.047629628 0.81864774
0.0074825571 -0.047114257 0.81727791
0.012809056 -0.046322878 0.81671119
0.017359314 -0.046270654 0.81578898
0.022160668 -0.046636768 0.81650478
0.026890662 -0.047353774 0.81876689
0.0090277055 -0.044173628 0.8191002
0.012844678 -0.042642891 0.81897044
0.017417137 -0.04261804 0.8185038
0.021817619 -0.04283198 0.81894189
0.026603756 -0.044186212 0.81933343
0.012853177 -0.039623529 0.81953347
0.017430479 -0.039604191 0.81913352
0.013685877 -0.14552601 0.82356668
0.038094006 -0.14670357 0.82329619
0.040546194 -0.14622708 0.82319999
-0.00090353499 -0.14043377 0.82066643
0.0024661787 -0.14147523 0.82139415
0.0070572831 -0.14169426 0.82089311
0.013193123 -0.14272903 0.82157314
0.01728891 -0.14188924 0.82277143
0.022112571 -0.14080267 0.82282227
0.027839052 -0.14159314 0.82359999
0.032870091 -0.14240305 0.82321477
0.036890205 -0.14262444 0.82155269
0.040494122 -0.14374508 0.82214296
0.027673787 -0.13894106 0.82086641
0.032013707 -0.13895236 0.8209331
-0.023379738 -0.10722806 0.8216328
-0.025477482 -0.10184561 0.82341665
-0.022381686 -0.10249154 0.82245606
-0.019254522 -0.10066037 0.81999999
-0.022241453 -0.097945444 0.82443202
-0.0177706 -0.097851843 0.82203686
-0.017277459 -0.092855096 0.82293326
-0.01469014 -0.092418566 0.82131642
-0.016261308 -0.08728268 0.82331115
-0.01430559 -0.086679205 0.82121634
-0.013949666 -0.082633086 0.82276654
-0.011642728 -0.077493548 0.82235551
-0.01077181 -0.072359718 0.8228094
-0.0085594309 -0.070999503 0.82096642
-0.010126461 -0.067419663 0.82388896
-0.0079562059 -0.066948041 0.82185316
-0.0066028968 -0.062915556 0.82223809
0.048841663 -0.061053157 0.82069975
0.05271918 -0.061874431 0.82147765
0.055760488 -0.063377716 0.82116067
-0.0061692954 -0.057718188 0.82290471
0.042705446 -0.056454852 0.8204332
0.047376513 -0.05731342 0.82182848
0.052869745 -0.058220472 0.82382971
-0.0055132764 -0.052827358 0.82336676
-0.0036605175 -0.052222602 0.8210932
0.033542037 -0.050376788 0.82086647
0.037978381 -0.052140102 0.82160819
0.042244688 -0.053735122 0.82263327
0.045217857 -0.053660691 0.82440001
-0.0022498239 -0.047615819 0.82264167
0.001391722 -0.045779139 0.82056642
0.029700298 -0.046536479 0.82046652
0.032784235 -0.047333293 0.82105154
0.037278544 -0.047639407 0.82304162
-0.00090676459 -0.043649845 0.82360017
0.0023542473 -0.043029089 0.82273334
0.0072088935 -0.042430799 0.82075977
0.023581494 -0.041198228 0.82053322
0.027572667 -0.042437695 0.82089311
0.032649424 -0.043298252 0.82317144
0.035943273 -0.044398341 0.82326669
0.0031921919 -0.039347436 0.82440019
0.0079410784 -0.037867744 0.82218963
0.012884809 -0.036967441 0.82151973
0.01747792 -0.036654606 0.8213554
0.022091201 -0.037447639 0.8220222
0.027319971 -0.037622552 0.82248431
0.012919399 -0.033698294 0.82375574
0.017536202 -0.032945111 0.82408905
0.017616695 -0.14705664 0.82786679
0.02188099 -0.14679509 0.82856679
0.02757987 -0.14738959 0.82829463
0.032770015 -0.14709635 0.82623523
0.036041718 -0.14740734 0.82552147
0.018350955 -0.14444864 0.82616663
0.022192022 -0.14361325 0.82577783
0.027126353 -0.14410543 0.82596004
-0.025578042 -0.1076292 0.82666665
-0.026316416 -0.10289317 0.82566667
-0.025526471 -0.098204874 0.82500005
-0.022852203 -0.09636569 0.82567412
-0.022077 -0.092567123 0.82753283
-0.019403238 -0.092213772 0.82633322
-0.018670499 -0.089313351 0.82793331
-0.016306512 -0.084454328 0.82560003
-0.014146199 -0.077422753 0.82783812
-0.013248716 -0.072286703 0.8269555
-0.012330392 -0.068012871 0.82737339
-0.010571487 -0.063568994 0.82863343
-0.0086211758 -0.061512422 0.82688886
0.056792866 -0.061375637 0.82503462
-0.0082461629 -0.056580164 0.82785004
0.049870703 -0.055238891 0.8250668
0.053004164 -0.055296909 0.8259334
0.057214677 -0.057445984 0.82740951
-0.0066967933 -0.051920012 0.82721668
0.041788835 -0.051014114 0.82500017
0.047647286 -0.052261103 0.82652652
0.052790634 -0.0521635 0.82741326
0.05710962 -0.054001339 0.82963353
-0.0059350412 -0.048152704 0.82858348
-0.003993629 -0.046119452 0.82666653
0.039115179 -0.046048783 0.82540017
0.042267773 -0.047666125 0.82682949
0.046497226 -0.048301786 0.82893366
-0.0055527817 -0.042407803 0.82926691
-0.003030475 -0.042454794 0.82644171
0.0006303296 -0.04142249 0.82500017
0.033717841 -0.041430857 0.82516682
0.037656501 -0.042298488 0.82716
0.041848931 -0.043664236 0.82872242
-0.0019408675 -0.037781663 0.82746673
0.0018299797 -0.03705401 0.82648879
0.0057639019 -0.035826772 0.82573336
0.029864414 -0.03528386 0.82500017
0.032875635 -0.037877716 0.82681847
0.036202326 -0.038548421 0.82920033
0.0026923406 -0.032861978 0.82843357
0.0075714267 -0.032292102 0.82701659
0.012958239 -0.031493608 0.82623321
0.017565891 -0.030698067 0.82548887
0.022211067 -0.032271776 0.82648122
0.027392263 -0.032406859 0.82636964
0.031543624 -0.032357667 0.82869351
0.0037261746 -0.029291231 0.82913369
0.0078982841 -0.028048035 0.82887363
0.012988757 -0.027715214 0.82816315
0.017615207 -0.027702792 0.8278001
0.022038719 -0.028160041 0.82829535
0.026512012 -0.02888036 0.82841682
0.013012565 -0.024680061 0.82966679
0.017645841 -0.024667501 0.82924467
0.020755973 -0.024687992 0.82993335
0.023090759 -0.14827819 0.83040005
-0.024210751 -0.09059687 0.83266675
-0.021734163 -0.088615291 0.83296812
-0.018773068 -0.086709671 0.83252233
-0.017383646 -0.082717627 0.83285332
-0.016470224 -0.07754568 0.83388883
-0.014927733 -0.074507341 0.83459979
-0.013310308 -0.066440888 0.8308
-0.012032579 -0.062387537 0.83171111
-0.010849553 -0.057569891 0.83214676
-0.01024855 -0.052722026 0.83382219
-0.0086670518 -0.05256163 0.83128881
0.058001179 -0.052306268 0.8313148
-0.0079066511 -0.048006576 0.83271658
0.048164558 -0.046877384 0.83102226
0.051681343 -0.04780107 0.83219248
0.055019695 -0.049579803 0.8331334
-0.0071270568 -0.042571813 0.83249998
0.039355278 -0.04015214 0.83046669
0.043026429 -0.04123554 0.83156663
0.047091063 -0.042797681 0.83279395
0.050422743 -0.044211343 0.83419991
-0.0055788951 -0.037956763 0.8331666
-0.0040174597 -0.036338851 0.83160001
0.03468927 -0.035497699 0.8300001
0.037916772 -0.037168812 0.83287621
0.042343091 -0.03816887 0.83439988
-0.0020267416 -0.032726076 0.83246654
0.0011514777 -0.031428028 0.83126664
0.034145072 -0.032170452 0.83182669
0.036410894 -0.032564148 0.8339777
-0.00091931585 -0.029498501 0.83499974
0.0019936201 -0.027676145 0.83276659
0.0060557388 -0.026251849 0.83056664
0.023086742 -0.026242368 0.83026659
0.027324116 -0.026913891 0.83194667
0.032033749 -0.028044384 0.83335322
0.0029721006 -0.02405018 0.83459979
0.0078113875 -0.023005873 0.83360505
0.013059262 -0.021670412 0.83270377
0.017691126 -0.021636626 0.83139265
0.022507139 -0.022221826 0.83223039
0.026789313 -0.022809168 0.83463973
0.030745493 -0.024320954 0.83499974
0.014134442 -0.018107915 0.83499974
0.017762458 -0.017066624 0.8347404
0.021983754 -0.017284743 0.83457124
-0.022766946 -0.085969493 0.83661419
-0.022614826 -0.082821727 0.83823347
-0.018865623 -0.081690133 0.83661658
-0.021278931 -0.079632849 0.83953339
-0.018503988 -0.078311503 0.83793336
-0.01687187 -0.072972104 0.83837348
-0.014963903 -0.071573764 0.83662224
-0.016569415 -0.067089699 0.83891129
-0.014981389 -0.066984691 0.83759999
-0.015536085 -0.062447309 0.83944446
-0.013932324 -0.062275875 0.83713341
-0.015017162 -0.059335552 0.83959997
-0.012899852 -0.05763841 0.83762223
-0.01187175 -0.053025849 0.83863342
-0.010288431 -0.048254501 0.83706671
-0.0087224245 -0.045894582 0.83660007
0.053671241 -0.045880511 0.83633327
0.055829961 -0.048281983 0.83751106
-0.008732155 -0.042829648 0.8375333
0.048960689 -0.040409993 0.83579987
0.052356526 -0.041836169 0.8371166
-0.0063860547 -0.037354052 0.8369332
0.039573256 -0.035714384 0.83506638
0.043132588 -0.036148634 0.83613318
0.047481596 -0.037361011 0.83718514
0.052070059 -0.037628796 0.83880007
-0.0056097726 -0.032712329 0.83777779
-0.0040409723 -0.031883486 0.83646655
0.038847458 -0.032651197 0.83619982
0.042623941 -0.032901518 0.83762509
0.0465432 -0.03380337 0.83904451
-0.0056242067 -0.029672774 0.8399334
-0.0026801403 -0.027823711 0.83719164
0.034906626 -0.027175047 0.83519971
0.038125347 -0.028026335 0.83743703
0.041324414 -0.029639797 0.83900017
-0.0017056523 -0.022603137 0.83855844
0.0018095829 -0.021775259 0.83668327
0.0068696463 -0.020186976 0.83533311
0.02869086 -0.020970987 0.83563316
0.032698303 -0.022340449 0.8366363
0.03694303 -0.023708666 0.83898675
-0.0009244532 -0.018729767 0.83966655
0.0025151672 -0.018069198 0.83802682
0.0071964851 -0.017270993 0.83714664
0.011947378 -0.016518015 0.83642489
0.024010658 -0.01630451 0.8354665
0.027182342 -0.017115077 0.83714068
0.03098001 -0.017455576 0.83851993
0.0084741693 -0.014048396 0.83993345
0.012572049 -0.012597729 0.83792728
0.017804215 -0.012437152 0.83668876
0.022497829 -0.012442823 0.83712584
0.026190752 -0.013507765 0.83873338
0.014330076 -0.0081777424 0.83885008
0.017850416 -0.0085683111 0.83884454
0.021775782 -0.0093551436 0.83940011
-0.027419943 -0.082782611 0.84178877
-0.024453053 -0.081336379 0.84099996
-0.027647708 -0.078372039 0.84277511
-0.023047756 -0.077277236 0.84171903
-0.019734057 -0.076590009 0.84042209
-0.026052471 -0.073601693 0.84200001
-0.022935906 -0.072107926 0.84285313
-0.018965881 -0.071958385 0.84109992
-0.027590005 -0.067256592 0.84100002
-0.022750828 -0.067634083 0.84326893
-0.018968029 -0.067271642 0.84118867
-0.021390455 -0.062780716 0.8439334
-0.018393213 -0.062424585 0.84176654
-0.017172894 -0.057998344 0.84287405
-0.01348013 -0.056332417 0.84139991
-0.015630461 -0.05313848 0.84453315
-0.012963136 -0.052180585 0.84174448
-0.012389066 -0.046825211 0.84333336
0.056817632 -0.046610098 0.84250009
-0.010364088 -0.042334974 0.84322232
-0.0087717762 -0.040677533 0.84133315
0.05555683 -0.042238403 0.84126663
-0.01038594 -0.039282929 0.84499991
-0.0081556905 -0.037281077 0.8423866
0.05396216 -0.03596244 0.84086645
0.055678636 -0.037626665 0.84311134
-0.0080022654 -0.032906283 0.84272212
0.044538677 -0.031259995 0.84059983
0.048237119 -0.032328919 0.84129995
0.052509099 -0.032904532 0.84269631
-0.0068203211 -0.027408605 0.8423667
0.039832328 -0.025003318 0.84053326
0.04318836 -0.027182994 0.84204859
0.047847208 -0.027448555 0.84364444
0.051815365 -0.028252989 0.84421092
-0.0062819384 -0.022280976 0.84402668
-0.0040619071 -0.022663837 0.84079987
0.037873954 -0.021460904 0.84178102
0.042275853 -0.022206116 0.84460956
0.047135711 -0.023564322 0.84499991
-0.0056581334 -0.0180628 0.84499991
-0.0026973854 -0.01703562 0.8428334
0.0018185591 -0.01601743 0.84078312
0.033226948 -0.016822252 0.84198338
0.036841936 -0.017252184 0.8438223
0.040043999 -0.016490944 0.84499991
-0.0013232828 -0.012943375 0.84434998
0.0022165908 -0.012534521 0.84325206
0.0067232498 -0.01231238 0.8414582
0.010048625 -0.010932192 0.84059989
0.027898729 -0.01200964 0.84307796
0.031932484 -0.012742912 0.84405845
0.035316184 -0.013347214 0.84499991
-0.00093032554 -0.0094175525 0.84499991
0.002417732 -0.0080399439 0.84479988
0.0069329832 -0.007827092 0.84310389
0.011430172 -0.0076155504 0.84138328
0.017892582 -0.0062428084 0.84082216
0.022856759 -0.0073708561 0.84212393
0.026365494 -0.0088862116 0.84433335
0.0030095135 -0.0039160331 0.84499991
0.0069492399 -0.0039159716 0.84498876
0.012756476 -0.0034378518 0.84351349
0.017947031 -0.003122757 0.84336305
0.022170773 -0.0036514599 0.84450001
0.017980905 1.3623327e-05 0.84499991
-0.026145294 -0.075435787 0.84500003
-0.026253588 -0.071013123 0.84850001
-0.026641779 -0.067443982 0.84827501
-0.024572996 -0.066014387 0.84512514
-0.026822869 -0.062659435 0.84650862
-0.023801386 -0.062913246 0.8457129
-0.026269058 -0.05999985 0.84900004
-0.022683648 -0.058359448 0.8481316
-0.01947589 -0.05626104 0.84621674
-0.021542529 -0.053741645 0.84993345
-0.018322986 -0.052017059 0.84760964
-0.015962062 -0.048106536 0.84815013
0.059255954 -0.047382411 0.84931046
-0.015200789 -0.044251923 0.84986657
-0.012781352 -0.042526752 0.84702229
0.05788026 -0.042898484 0.84655005
-0.011997971 -0.037818585 0.84739053
0.057551313 -0.03782402 0.8475334
-0.011200696 -0.033070557 0.84693336
0.056764435 -0.033095162 0.84755546
-0.01041735 -0.02836366 0.84755564
-0.0088292332 -0.026763817 0.84684449
0.053483818 -0.026729321 0.84570003
0.055935416 -0.02834647 0.84700018
-0.007242057 -0.020443149 0.84593332
0.044323165 -0.020980364 0.84646672
0.04829479 -0.021607088 0.84756213
0.052496951 -0.023004979 0.84758681
-0.0067358022 -0.017344818 0.84822243
0.042990807 -0.017477622 0.84712678
0.046600055 -0.018951336 0.84960014
-0.005680304 -0.012608889 0.84831136
-0.0034577404 -0.012266206 0.84640008
0.033742927 -0.010990283 0.84506649
0.037416399 -0.012360192 0.84665722
0.041961692 -0.012960931 0.84834838
-0.005690719 -0.0078908782 0.84986693
-0.002711223 -0.0076680863 0.84710008
0.0006456612 -0.0062743207 0.84506649
0.028004194 -0.0073320088 0.84626669
0.032225862 -0.0078591136 0.84658515
0.0365205 -0.008404498 0.8485558
0.040271476 -0.0094710523 0.84980029
-0.0020644341 -0.0033665081 0.84818113
0.0015948055 -0.0025059911 0.84682673
0.0069618463 -0.0015609855 0.84648889
0.010899276 -0.0015597765 0.8458333
0.023803167 -0.0020855588 0.84655571
0.027324777 -0.0035937652 0.84849554
0.031257927 -0.004197293 0.84891135
-0.0017278113 1.3695339e-05 0.84946692
0.0026259918 0.00040890701 0.84840024
0.0069773979 0.00080370094 0.84834462
0.012849666 0.00069101469 0.848162
0.018222474 0.0021193833 0.84809643
0.022107128 0.0015922101 0.84780014
0.026005439 1.3699639e-05 0.84973335
-0.027918069 -0.060141191 0.85100001
-0.023962568 -0.056210957 0.85142398
-0.02240707 -0.052722301 0.85261244
0.060960978 -0.050643049 0.85100001
-0.02005758 -0.049244501 0.85420012
-0.017207325 -0.047085322 0.85106659
0.0618947 -0.047583353 0.85291117
-0.016203549 -0.042489432 0.85254657
0.05935641 -0.041923709 0.85074997
0.061772563 -0.043167002 0.85343331
-0.015890162 -0.038376089 0.85282671
-0.013633937 -0.03639584 0.85099989
0.059402537 -0.03799725 0.85141104
0.061242711 -0.039744735 0.8549335
-0.013254999 -0.032480482 0.85210001
0.059072554 -0.032491188 0.85236669
-0.01127016 -0.026938224 0.85229999
0.057937376 -0.027363228 0.85321677
-0.010497651 -0.022228966 0.85408896
-0.0088723265 -0.022148037 0.85097766
0.053461902 -0.020976048 0.85160834
0.056408703 -0.023819944 0.85416681
-0.010505572 -0.019065848 0.85473353
-0.0084926188 -0.017035926 0.85259163
0.048467588 -0.017202888 0.85107911
0.051982682 -0.01784502 0.85341668
-0.010504752 -0.014294827 0.85466683
-0.0079432521 -0.013002905 0.8533867
0.04350258 -0.011067449 0.85099989
0.04678889 -0.012944487 0.85302776
0.050849363 -0.014290925 0.85443342
-0.0065058987 -0.0083129425 0.85265845
0.038219925 -0.0068470817 0.85116667
0.041991722 -0.0079144677 0.85253328
0.045276921 -0.0095238034 0.85453337
-0.0057183956 -0.0039577438 0.85400003
-0.0041108616 -0.0023605691 0.85093319
0.028400399 -0.0015679521 0.85026658
0.03293566 -0.0026250612 0.8513388
0.037038796 -0.0033566318 0.85288751
0.040509984 -0.0047566826 0.85483342
-0.0019979998 0.0023953209 0.85266662
0.0020416048 0.0033838635 0.85207081
0.0069999793 0.0039721914 0.85114437
0.012286113 0.0037071158 0.85082591
0.017304748 0.0047599943 0.85049993
0.023818601 0.0034966059 0.85087329
0.027841048 0.0026122557 0.85299391
0.032096006 0.00041128593 0.85365009
0.035692338 1.3768419e-05 0.85400003
0.003042656 0.006370923 0.85436678
0.00755001 0.0074239629 0.85355562
0.012573888 0.0079437131 0.85249996
0.018129967 0.0079393396 0.85197026
0.022937147 0.0079526547 0.8534556
0.026681924 0.006901823 0.85447794
0.013715973 0.011772225 0.85418671
0.017777007 0.011533045 0.85413343
0.022425564 0.011666641 0.85422236
-0.02500044 -0.051168282 0.85982603
-0.02332351 -0.051802274 0.85708827
0.063680686 -0.051709712 0.85555202
0.067425035 -0.051427372 0.85748821
-0.021749018 -0.047868699 0.85801935
-0.018483939 -0.046115093 0.8551001
0.064518727 -0.047760915 0.85608912
0.067059718 -0.04786383 0.85794455
-0.020969428 -0.043123901 0.85888892
-0.018512523 -0.043000299 0.85642242
0.064156823 -0.042609252 0.85658348
0.066716544 -0.04351256 0.85868335
-0.020164024 -0.039122254 0.85873336
-0.017474277 -0.036947463 0.8576889
0.063038923 -0.037477963 0.85765332
0.066412278 -0.039977189 0.8599335
-0.015761303 -0.032335617 0.85879999
-0.013704432 -0.030219175 0.85540026
0.059659891 -0.030208578 0.85510033
0.062160186 -0.032255292 0.85878676
-0.013102775 -0.02679022 0.8577134
-0.01214276 -0.022325059 0.8577776
0.056730099 -0.021558125 0.85903347
-0.011499318 -0.017212082 0.85741347
0.05335141 -0.016710315 0.8562336
0.055083085 -0.017549193 0.85833335
-0.011497913 -0.012426203 0.85733348
-0.0089246919 -0.011132476 0.8560003
0.047721811 -0.011125972 0.85550016
0.051828217 -0.012479704 0.85744447
0.055138715 -0.014370648 0.85920018
-0.011083513 -0.0090333549 0.85826665
-0.00853799 -0.007559862 0.85716677
0.043707062 -0.0063480749 0.85500014
0.047230367 -0.0077612707 0.85742509
0.050318431 -0.0079745622 0.85897779
-0.0073456629 -0.0031781606 0.85786688
0.038926337 -0.0015768035 0.85506672
0.042423718 -0.0029756485 0.8572458
0.045914277 -0.0035810976 0.85900003
-0.0057418342 0.00081209536 0.85749996
-0.0037450036 0.0036063306 0.85801667
0.032789029 0.0033983313 0.85615855
0.037444912 0.0024084416 0.85765344
0.041680045 0.00097338995 0.85922682
-0.0020894364 0.0077700806 0.85837138
0.0020233437 0.0084357886 0.85646683
0.0059718098 0.0090317586 0.85548925
0.028337628 0.0085104853 0.85635567
0.032648176 0.0079919314 0.8576889
0.036320783 0.0076084025 0.8594501
0.0025780597 0.011838102 0.85896003
0.0070511848 0.012776401 0.85753334
0.011298199 0.013285658 0.85613352
0.017945712 0.013811632 0.85584474
0.023281099 0.013289011 0.85635573
0.027874777 0.012790277 0.85848153
0.032174196 0.01226868 0.8592779
0.0086698961 0.015999114 0.8593334
0.012067946 0.017388277 0.85881662
0.017688533 0.017438523 0.85860598
0.022862818 0.017375275 0.85817492
0.027119501 0.016010286 0.8599335
0.072984621 -0.051285028 0.8617878
-0.025461245 -0.048482276 0.86183226
-0.02341369 -0.046403307 0.86044455
0.069756567 -0.048068255 0.86162239
0.072659239 -0.049332634 0.86268336
0.076339677 -0.049773682 0.86337936
-0.027221272 -0.043305475 0.86248493
-0.023115572 -0.04196202 0.86128569
0.069133081 -0.042155493 0.86242378
-0.02186784 -0.036896627 0.86271518
-0.018599944 -0.035200078 0.86046666
0.064813502 -0.035180982 0.86000019
0.067385875 -0.036870878 0.86212224
-0.02028887 -0.032935105 0.86405015
-0.017989226 -0.031731613 0.86192006
0.064391539 -0.032036986 0.86151105
0.066666454 -0.032502241 0.8632251
-0.016843621 -0.027474007 0.86290425
0.058560837 -0.025653776 0.86240005
0.061777364 -0.028326936 0.86237788
-0.016249122 -0.022471508 0.86342233
-0.01377919 -0.022384467 0.86006683
0.058612883 -0.024070926 0.86316663
-0.01544583 -0.018459305 0.86356682
-0.013790227 -0.01759888 0.8607555
0.056937758 -0.01762866 0.86217785
-0.015458945 -0.014455947 0.86430019
-0.013793788 -0.012798589 0.86097771
0.053586129 -0.011184494 0.86000019
0.056295909 -0.012495201 0.86218673
-0.012526164 -0.0076837153 0.86202681
0.052864391 -0.0079963515 0.86130005
0.056058519 -0.0083383797 0.86348677
-0.011248467 -0.0035160542 0.86276007
-0.0089750802 -0.0023878783 0.86083353
0.048132829 -0.0028657136 0.86000025
0.051904701 -0.0033936193 0.86201262
-0.0077029308 0.0027402826 0.86199009
0.039150942 0.0048131631 0.86000019
0.042845525 0.0034447077 0.86056197
0.047263686 0.0024202687 0.86168891
0.051193409 0.0012989582 0.86292011
-0.0064155483 0.0077109514 0.86196005
-0.0041548214 0.00881295 0.86003351
0.038509365 0.0083326474 0.86000025
0.042477697 0.0080356812 0.86237782
0.046847198 0.0075136055 0.86388904
-0.0057849106 0.011263506 0.8639335
-0.0023576641 0.012650431 0.86251676
0.001860386 0.014020193 0.86050016
0.033808108 0.013879989 0.860089
0.037577383 0.012622878 0.86069709
0.041444141 0.011788947 0.86320478
-0.0014883674 0.016621726 0.86400014
0.0022649935 0.01765037 0.86185193
0.0068772947 0.01782617 0.8606751
0.010280537 0.019211052 0.86000019
0.015092262 0.019211052 0.86000019
0.024715727 0.019211052 0.86000019
0.028192613 0.018094553 0.86120951
0.032825898 0.017660791 0.86235422
0.036469787 0.017272655 0.86298549
0.0030767655 0.02170877 0.86390018
0.0072969557 0.022284836 0.86283338
0.011901273 0.022444682 0.86126679
0.017512256 0.022430075 0.86070579
0.023139279 0.022437705 0.86100012
0.027565032 0.022262918 0.86310488
0.03127617 0.020907618 0.8640002
0.0087189991 0.025735194 0.86420017
0.012394908 0.027097093 0.86366206
0.017341478 0.02716291 0.86309087
0.022280185 0.027086979 0.8633191
0.026442055 0.025729237 0.8640002
0.013555794 0.030561451 0.86430013
0.015162467 0.030550841 0.8640002
-0.026785778 -0.045880906 0.86570007
0.072788909 -0.046438422 0.8671068
0.07634376 -0.048021425 0.86800838
-0.026011242 -0.041906949 0.86677599
0.071888976 -0.041963968 0.86796665
-0.025291419 -0.038819361 0.86983341
-0.023645483 -0.035547644 0.868963
0.0707234 -0.037550155 0.86855829
-0.022454446 -0.032033503 0.86762077
0.068087496 -0.031189233 0.86765552
-0.021042123 -0.027773609 0.86850673
-0.01874117 -0.025790615 0.86700016
0.062495034 -0.026462603 0.86787337
0.066266157 -0.028258974 0.86852503
-0.020418152 -0.022631263 0.86955547
-0.018743573 -0.022567725 0.86711127
0.058825649 -0.021741077 0.86630017
0.060978841 -0.022999546 0.86819172
-0.017594736 -0.017503008 0.86731911
0.058800746 -0.017704993 0.86593342
0.060606454 -0.017760305 0.86866665
-0.016476806 -0.012564572 0.86692011
0.058943346 -0.012902543 0.86803335
-0.016079027 -0.0091432696 0.86876673
-0.013887067 -0.0064356844 0.86680019
0.058552023 -0.0076582436 0.86821669
-0.013368937 -0.0032152161 0.86814445
0.053966228 -0.0015971493 0.86610019
0.056471076 -0.0032123656 0.86734456
-0.011480346 0.0024370432 0.86806667
0.053119455 0.0032409562 0.86732394
0.056261539 0.00055283459 0.86827779
-0.010685019 0.0072913985 0.86933327
-0.0085044801 0.0080810599 0.86736673
0.048604738 0.0091478899 0.86650008
0.052000787 0.0078566447 0.86794287
-0.0066242935 0.012936447 0.86832505
-0.0041873516 0.014525148 0.86676675
0.04329497 0.0134716 0.86806124
0.047428444 0.012736106 0.86838341
0.050901599 0.011328693 0.86893332
-0.0058213663 0.017803701 0.86937779
-0.0031125329 0.018299149 0.8673113
0.037901148 0.019392245 0.86811113
-0.0025755628 0.022618216 0.86795557
0.0016299967 0.023207661 0.86584008
0.0055005979 0.024149938 0.86500007
0.029738626 0.023377243 0.86615014
0.033231139 0.02281376 0.86768758
0.036313809 0.021834141 0.86886978
-0.0025782154 0.025878793 0.86902219
0.0028224185 0.026929641 0.86811668
0.0069377143 0.027672583 0.86821258
0.010364215 0.028237756 0.86700016
0.024401134 0.02853393 0.86782211
0.02818208 0.027194323 0.86796665
0.031457182 0.02587813 0.8689999
0.003907437 0.030744143 0.8694666
0.0081195878 0.032022886 0.86905324
0.011784023 0.032487713 0.86741257
0.017035497 0.032474879 0.86706269
0.021895869 0.031959135 0.86828148
0.0087734796 0.035601739 0.8696
0.012335896 0.036232311 0.86919993
0.016876718 0.036398742 0.86931109
0.020933483 0.035594918 0.86943328
0.077052675 -0.046185464 0.87144405
0.073736422 -0.042095106 0.8706668
0.076335661 -0.04218477 0.87252784
-0.025340207 -0.036461771 0.87151146
0.073186144 -0.036962278 0.87184012
0.075619914 -0.038990442 0.87366647
-0.025366593 -0.032443278 0.872419
0.071347646 -0.0323986 0.87123352
-0.025920415 -0.028668201 0.87276369
-0.023319768 -0.027152369 0.8719511
0.067934535 -0.026887789 0.87122667
0.070612043 -0.027565198 0.87218904
-0.022164913 -0.022759786 0.87448865
0.063381121 -0.02234894 0.8711735
0.066951379 -0.022950623 0.87292373
-0.020487286 -0.017838659 0.87250018
0.063297205 -0.017833432 0.87224454
0.066260226 -0.01827167 0.87378317
-0.018854057 -0.012964831 0.87222213
0.062053289 -0.013205007 0.87271434
-0.017213695 -0.0076879542 0.87143338
0.061547756 -0.0084289089 0.87280673
-0.016428001 -0.003232603 0.87293321
-0.013949023 -0.0016055704 0.87066686
0.059200656 -0.0032290453 0.8718223
0.0610204 -0.0048666736 0.87459987
-0.016432995 1.4078512e-05 0.8732332
-0.013982398 0.0024511092 0.87274992
0.057249375 0.0026075854 0.87180012
-0.012626611 0.0081305243 0.87268901
-0.0090706544 0.0097242305 0.87000006
0.054244541 0.0089213196 0.87056684
0.055936601 0.0081228809 0.87163347
-0.011291832 0.011943351 0.87446672
-0.008685586 0.013396844 0.87199998
0.049394485 0.014594979 0.87093353
0.05270179 0.012989894 0.87189525
0.056141976 0.011405617 0.87483341
-0.0081246467 0.017873805 0.87280005
0.043939494 0.017539594 0.87226993
0.047636509 0.017409367 0.87272686
0.052055299 0.016285205 0.87470001
-0.0070049288 0.022731338 0.8723048
0.038592305 0.023250893 0.87150699
-0.0062538446 0.027219826 0.87311661
-0.0025866742 0.028392926 0.87175566
0.0012064643 0.028627971 0.87068909
0.029077776 0.029162511 0.87053347
0.033409391 0.027804814 0.87234163
0.03779887 0.02665404 0.87321329
-0.0019402553 0.031861428 0.87349319
0.0020885263 0.032659933 0.87201667
0.0059425663 0.032811902 0.87068349
0.023380568 0.033999745 0.87000006
0.027482172 0.032433826 0.87140018
0.031108849 0.032545891 0.87439996
0.0027048653 0.036190744 0.87404996
0.0071675009 0.037303198 0.87154293
0.01162946 0.038491584 0.87093353
0.016905004 0.038889602 0.87077802
0.02202606 0.037760288 0.87140971
0.026180523 0.036829792 0.87314439
0.079107389 -0.045623086 0.87620002
0.080723099 -0.045612678 0.87600011
0.079155542 -0.042388227 0.87673348
0.080866441 -0.042428836 0.87755561
-0.027095189 -0.035823237 0.8757
0.077622108 -0.037544072 0.87787151
0.08090739 -0.039183825 0.87800002
-0.027096184 -0.032566059 0.87573218
0.0742568 -0.032604612 0.87681121
0.076104008 -0.03351536 0.87925988
-0.026281908 -0.0268673 0.87583339
0.073547788 -0.027753638 0.87809443
0.07616806 -0.026995808 0.87999976
-0.025505932 -0.022831008 0.87721127
-0.023823658 -0.022786332 0.87551111
0.069264442 -0.021976773 0.87571669
0.07229159 -0.023095828 0.87846184
-0.025961606 -0.017966919 0.87878346
-0.023044692 -0.017928692 0.87690568
0.0687261 -0.017608045 0.87717342
0.071193159 -0.018797453 0.87936664
-0.021045523 -0.013471797 0.87883329
0.064440727 -0.012217376 0.87675011
0.067240633 -0.01359127 0.87770563
-0.020660255 -0.0098061422 0.87986642
-0.018941121 -0.0073202113 0.87625003
0.064078495 -0.0077391388 0.87737519
0.066304035 -0.0081684329 0.87977761
-0.019010169 -0.0032569908 0.8794443
0.062630489 -0.0032533442 0.87808877
-0.016840022 0.0028079234 0.87621909
0.05913429 0.0036841927 0.87685633
0.061330497 0.0021967569 0.87904429
-0.016512781 0.0081765475 0.87749463
-0.014018445 0.0097801192 0.87500006
0.058541697 0.0070933406 0.87818497
-0.016278781 0.012013123 0.87957764
-0.012966338 0.013615161 0.87735009
0.054545682 0.014669832 0.87540001
0.056362301 0.013902048 0.87826669
-0.012229057 0.01778096 0.87824595
-0.0091227861 0.017918466 0.87500006
0.04889331 0.01957964 0.87650013
0.053097915 0.018261032 0.87843895
-0.010801648 0.022902144 0.87882227
-0.0091321692 0.02282585 0.87590003
0.042985991 0.023053925 0.87686259
0.048149131 0.022876022 0.87782609
0.051928952 0.022509553 0.87946653
-0.008505201 0.02812482 0.87856662
0.038645931 0.02893202 0.87580007
0.043267302 0.027793096 0.87841856
0.047795523 0.027607113 0.87994254
-0.0065370775 0.032362625 0.87826002
-0.0034167483 0.033427417 0.87620008
0.032928169 0.033005659 0.87580001
0.037036039 0.032527763 0.87830007
0.042157229 0.032274939 0.87969506
0.046626251 0.031116607 0.87999976
0.0055648247 0.03908262 0.87510008
0.027887197 0.038563881 0.87563342
0.031803206 0.037602678 0.87853336
0.035528116 0.037234776 0.87949979
0.079510674 -0.036026411 0.88066673
0.081091695 -0.037636112 0.88000005
0.078271709 -0.03179701 0.88149512
0.081275992 -0.032799579 0.88200003
0.078457668 -0.028112153 0.88200396
0.081483327 -0.029593501 0.88425004
0.074614339 -0.022110242 0.88103324
0.0771925 -0.022962719 0.88232452
-0.02726537 -0.016377812 0.88120008
0.07302852 -0.018027421 0.88171321
-0.02610182 -0.013543569 0.88353336
-0.023322621 -0.01277143 0.88123989
0.069128044 -0.012002314 0.88091087
0.071413107 -0.013931517 0.88208324
-0.022555193 -0.0079814438 0.88172501
0.069021769 -0.0081987111 0.88304448
-0.021842301 -0.0038203178 0.88337231
0.064776368 -0.0024440042 0.88131654
0.066971183 -0.0036810185 0.88315839
-0.021298125 0.00056291994 0.88362235
-0.019081267 0.0033004482 0.8827334
0.062821403 0.0026397756 0.88155335
0.065039709 1.4266599e-05 0.88490015
0.059011623 0.0090287616 0.8811332
0.061587863 0.007405025 0.88273335
-0.015769569 0.014774845 0.8816666
0.058293801 0.013151904 0.88271111
-0.015775232 0.017241681 0.88198328
-0.01410496 0.019666757 0.88039982
0.054869708 0.019671228 0.88059986
0.056703847 0.018094739 0.88358897
-0.013142103 0.02265214 0.88183326
0.053815927 0.022964647 0.88126659
0.055931553 0.022223465 0.88440013
-0.011263707 0.027523661 0.8828584
0.049961619 0.027872194 0.88093317
0.051701225 0.02792426 0.88257343
-0.0086461538 0.032819878 0.8818
0.04261912 0.034468062 0.88198334
0.04675049 0.033116281 0.88235563
0.05093804 0.031243902 0.88360012
0.076811574 -0.018418187 0.88743377
0.080202855 -0.018162861 0.88833332
-0.027391201 -0.012336571 0.88526666
0.072711565 -0.01320065 0.88788319
-0.026427772 -0.0078976331 0.88615334
0.072378471 -0.0082527073 0.88888323
-0.026181959 -0.0036949359 0.88623321
-0.023550065 -0.0021821118 0.88568896
0.068440847 -0.0024577223 0.88619989
0.071674757 -0.0037621276 0.88821423
-0.022470823 0.0028424016 0.88656414
0.06670393 0.002399103 0.88750368
0.070304543 1.4330554e-05 0.88886666
-0.021690682 0.0066252286 0.88847029
-0.019155931 0.0074335495 0.88618761
0.062503517 0.0089186383 0.88637316
0.065969251 0.00794842 0.88851994
-0.018069781 0.013762196 0.88688892
0.061722044 0.013016994 0.88759989
0.065385193 0.011598132 0.88960004
-0.016966494 0.018163083 0.88693309
0.058527131 0.018148726 0.88624436
0.060994983 0.01786414 0.88847989
-0.015895167 0.023158267 0.88868886
