# .PCD v0.7 - Point Cloud Data file format
VERSION 0.7
FIELDS x y z
SIZE 4 4 4
TYPE F F F
COUNT 1 1 1
WIDTH 1416
HEIGHT 1
VIEWPOINT 0 0 0 1 0 0 0
POINTS 1416
DATA ascii
0.071722955 0.033751074 0.90680009
0.073381759 0.033736188 0.90640002
0.075370371 0.033870183 0.90999997
0.076898158 0.03379574 0.90800011
0.078591585 0.03379574 0.90800011
0.080373436 0.03383296 0.90900004
0.082086794 0.033840407 0.90920001
0.083671875 0.03379574 0.90800011
0.085365303 0.03379574 0.90800011
0.087058738 0.03379574 0.90800011
0.088752165 0.03379574 0.90800011
0.090485454 0.03381063 0.90840006
0.092139028 0.03379574 0.90800011
0.093832478 0.03379574 0.90800011
0.095525905 0.03379574 0.90800011
0.097219341 0.03379574 0.90800011
0.098912768 0.03379574 0.90800011
0.10060619 0.03379574 0.90800011
0.10225455 0.03378085 0.90760005
0.10378691 0.033728741 0.90620005
0.10545371 0.033721298 0.90600002
0.1071434 0.033721298 0.90600002
0.1090253 0.03378085 0.90760005
0.11071799 0.03378085 0.90760005
0.11243544 0.033788297 0.90780002
0.11410335 0.03378085 0.90760005
0.1155919 0.033721298 0.90600002
0.11746285 0.033773407 0.90740001
0.11923395 0.03379574 0.90800011
0.12092737 0.03379574 0.90800011
0.12262081 0.03379574 0.90800011
0.12431423 0.03379574 0.90800011
0.12600766 0.03379574 0.90800011
0.12770109 0.03379574 0.90800011
0.12925202 0.033758517 0.90700006
0.1307992 0.033721298 0.90600002
0.13248894 0.033721298 0.90600002
0.13417862 0.033721298 0.90600002
0.13586833 0.033721298 0.90600002
0.13755801 0.033721298 0.90600002
0.13927847 0.033728741 0.90620005
0.14115523 0.033773407 0.90740001
0.14265861 0.033728741 0.90620005
0.14431681 0.033721298 0.90600002
0.14600654 0.033721298 0.90600002
0.14769624 0.033721298 0.90600002
0.14938593 0.033721298 0.90600002
0.15107562 0.033721298 0.90600002
0.15276532 0.033721298 0.90600002
0.15445505 0.033721298 0.90600002
0.1561792 0.033728741 0.90620005
0.15818286 0.03379574 0.90800011
0.15984109 0.033788297 0.90780002
0.16156973 0.03379574 0.90800011
0.16326317 0.03379574 0.90800011
0.16488391 0.03378085 0.90760005
0.16698039 0.033862736 0.90979993
0.16856594 0.033840403 0.90920001
0.17037395 0.033862736 0.90979993
0.17203291 0.033855293 0.90959996
0.17369112 0.033847846 0.90939999
0.17511716 0.03379574 0.90800011
0.17681061 0.03379574 0.90800011
0.17873995 0.033840403 0.90920001
0.18039593 0.03383296 0.90900004
0.18197103 0.03381063 0.90840006
0.18358433 0.03379574 0.90800011
0.18548182 0.03383296 0.90900004
0.18713593 0.033825517 0.90880001
0.18908021 0.033870183 0.90999997
0.19035806 0.03379574 0.90800011
0.1920515 0.03379574 0.90800011
0.19374491 0.03379574 0.90800011
0.19543837 0.03379574 0.90800011
0.19708835 0.033788297 0.90780008
0.19869384 0.033773407 0.90740001
0.20051864 0.03379574 0.90800011
0.2017667 0.033721298 0.90600002
0.20390549 0.03379574 0.90800011
0.20559892 0.03379574 0.90800011
0.20729235 0.03379574 0.90800011
0.20903185 0.033803187 0.90820009
0.21105047 0.033855293 0.90959996
0.21237266 0.03379574 0.90800011
0.21420756 0.03381807 0.90860003
0.21585457 0.033810623 0.90840006
0.21778826 0.033847846 0.90939999
0.21962908 0.033870183 0.90999997
0.22132626 0.033870183 0.90999997
0.22253326 0.03379574 0.90800011
0.22422668 0.03379574 0.90800011
0.22592011 0.03379574 0.90800011
0.22761354 0.03379574 0.90800011
0.22930697 0.03379574 0.90800011
0.23100039 0.03379574 0.90800011
0.23269388 0.03379574 0.90800011
0.23438731 0.03379574 0.90800011
0.23618469 0.033810627 0.90840006
0.23777413 0.03379574 0.90800011
0.23946759 0.03379574 0.90800011
0.24116102 0.03379574 0.90800011
0.24338934 0.033870183 0.90999997
0.24454787 0.03379574 0.90800011
0.2462413 0.03379574 0.90800011
0.24788013 0.033788297 0.90780008
0.2490783 0.033721298 0.90600002
0.25098941 0.033751078 0.90679997
0.25245768 0.033721298 0.90600002
0.25414744 0.033721298 0.90600002
0.25507468 0.033620805 0.90329999
0.25752684 0.033721298 0.90600002
0.25921652 0.033721298 0.90600002
0.26090622 0.033721298 0.90600002
0.26282781 0.033751078 0.90680009
0.26428559 0.033721298 0.90600002
0.2659753 0.033721298 0.90600002
0.267665 0.033721298 0.90600002
0.26994938 0.03379574 0.90800011
0.27164274 0.03379574 0.90800011
0.27273414 0.033721298 0.90600002
0.27442384 0.033721298 0.90600002
0.27678406 0.033803187 0.90820009
0.27841654 0.03379574 0.90800011
0.28010991 0.03379574 0.90800011
0.28186545 0.033803187 0.90820009
0.28380904 0.03383296 0.90900004
0.28581837 0.033870183 0.90999997
0.2879895 0.03392601 0.91149998
0.29016617 0.033981834 0.91299999
0.29090986 0.033870183 0.90999997
0.29260704 0.033870183 0.90999997
0.29430416 0.033870183 0.90999997
0.2960014 0.033870183 0.90999997
0.29769853 0.033870183 0.90999997
0.29939565 0.033870183 0.90999997
0.30109283 0.033870183 0.90999997
0.30278999 0.033870183 0.90999997
0.3044872 0.033870183 0.90999997
0.30719373 0.033981834 0.91299999
0.30788153 0.033870183 0.90999997
0.30957866 0.033870183 0.90999997
0.31107056 0.033847846 0.90939999
0.31297299 0.033870183 0.90999997
0.31467012 0.033870183 0.90999997
0.31567198 0.03379574 0.90800011
0.31736544 0.03379574 0.90800011
0.31905887 0.03379574 0.90800011
0.32075232 0.03379574 0.90800011
0.32244569 0.03379574 0.90800011
0.32413915 0.03379574 0.90800011
0.32511491 0.033721298 0.90600002
0.32723746 0.033765964 0.90720004
0.32907438 0.03378085 0.90760005
0.33025688 0.033728741 0.90620005
0.33260632 0.03379574 0.90800011
0.33429977 0.03379574 0.90800011
0.3359932 0.03379574 0.90800011
0.33761221 0.033788297 0.90780008
0.33938003 0.03379574 0.90800011
0.34107348 0.03379574 0.90800011
0.34276694 0.03379574 0.90800011
0.34446031 0.03379574 0.90800011
0.34615377 0.03379574 0.90800011
0.34861332 0.033870183 0.90999997
0.35111898 0.033948336 0.91210002
0.35301346 0.033966947 0.91260004
0.35483202 0.033978112 0.91290009
0.35650858 0.033975631 0.91283339
0.3596499 0.034112107 0.91650003
-0.29946706 0.036149155 0.92500007
-0.29774192 0.036149155 0.92500007
-0.29544073 0.036078818 0.92320001
-0.29365534 0.036070999 0.92300004
-0.29193395 0.036070999 0.92300004
-0.28974086 0.036012378 0.92150003
-0.2875534 0.035953756 0.91999996
-0.28540269 0.035899039 0.91860008
-0.28350419 0.035875592 0.9180001
-0.2817921 0.035875592 0.9180001
-0.28038508 0.035914674 0.91900003
-0.27897435 0.035953756 0.91999996
-0.27677637 0.035891227 0.91840011
-0.27506357 0.035891227 0.91840011
-0.27370793 0.035938121 0.91960001
-0.27205199 0.035945941 0.91979998
-0.27039531 0.035953756 0.91999996
-0.26867953 0.035953756 0.91999996
-0.26638335 0.035875592 0.9180001
-0.26467127 0.035875592 0.9180001
-0.26295918 0.035875592 0.9180001
-0.26124713 0.035875592 0.9180001
-0.25953504 0.035875592 0.9180001
-0.25698039 0.03575835 0.91500008
-0.25527385 0.03575835 0.91500008
-0.25356743 0.03575835 0.91500008
-0.25175077 0.035742719 0.91460001
-0.25015447 0.03575835 0.91500008
-0.24844792 0.03575835 0.91500008
-0.24674146 0.03575835 0.91500008
-0.24503496 0.03575835 0.91500008
-0.24332848 0.03575835 0.91500008
-0.241622 0.03575835 0.91500008
-0.23991552 0.03575835 0.91500008
-0.23820904 0.03575835 0.91500008
-0.23629574 0.035727087 0.91420001
-0.23474474 0.035750534 0.91480005
-0.2325801 0.035680197 0.91299999
-0.23118076 0.035727091 0.91420001
-0.22932518 0.03570364 0.91360009
-0.2274718 0.035680197 0.91299999
-0.22621414 0.035750534 0.91480005
-0.22450805 0.035750534 0.91480005
-0.22285064 0.03575835 0.91500008
-0.2218692 0.035875592 0.9180001
-0.22015712 0.035875592 0.9180001
-0.21815951 0.035828695 0.91680002
-0.21623716 0.035793521 0.91590005
-0.21438852 0.035770074 0.91530001
-0.21330878 0.035875592 0.9180001
-0.2115967 0.035875592 0.9180001
-0.20919874 0.03575835 0.91500008
-0.20749226 0.03575835 0.91500008
-0.20578578 0.03575835 0.91500008
-0.2040793 0.03575835 0.91500008
-0.20237282 0.03575835 0.91500008
-0.20057862 0.035742722 0.91460007
-0.19895983 0.03575835 0.91500008
-0.19725335 0.03575835 0.91500008
-0.19554687 0.03575835 0.91500008
-0.19384037 0.03575835 0.91500008
-0.19213389 0.03575835 0.91500008
-0.19042741 0.03575835 0.91500008
-0.18872093 0.03575835 0.91500008
-0.18750493 0.035852142 0.91740006
-0.18591549 0.035875592 0.9180001
-0.18360147 0.03575835 0.91500008
-0.18189499 0.03575835 0.91500008
-0.18018846 0.03575835 0.91500008
-0.17848201 0.03575835 0.91500008
-0.17646638 0.035695828 0.91340005
-0.17468634 0.035680197 0.91299999
-0.17298362 0.035680197 0.91299999
-0.17128085 0.035680197 0.91299999
-0.16961524 0.035688009 0.91320002
-0.16787532 0.035680197 0.91299999
-0.16617259 0.035680197 0.91299999
-0.16446982 0.035680197 0.91299999
-0.16276707 0.035680197 0.91299999
-0.16101137 0.03566847 0.9127
-0.15936157 0.035680197 0.91299999
-0.15714075 0.035562959 0.90999997
-0.15595603 0.035680197 0.91299999
-0.15425326 0.035680197 0.91299999
-0.1525505 0.035680197 0.91299999
-0.15084778 0.035680197 0.91299999
-0.14914501 0.035680197 0.91299999
-0.14729689 0.035645023 0.91210002
-0.14559583 0.035645023 0.91210002
-0.14403675 0.035680197 0.91299999
-0.14219369 0.035645027 0.91210002
-0.1405388 0.035656746 0.91240007
-0.13879152 0.035645023 0.91210002
-0.13700026 0.03562158 0.91149998
-0.13534483 0.035633303 0.91180003
-0.1338495 0.035688009 0.91320008
-0.13211747 0.035680197 0.91299999
-0.13041471 0.035680197 0.91299999
-0.12866965 0.03566847 0.91270006
-0.12700917 0.035680197 0.91299999
-0.12530641 0.035680197 0.91299999
-0.12327874 0.035586406 0.91060001
-0.12150036 0.035562959 0.90999997
-0.11980319 0.035562959 0.90999997
-0.11810602 0.035562959 0.90999997
-0.11640887 0.035562959 0.90999997
-0.11471172 0.035562959 0.90999997
-0.11301454 0.035562959 0.90999997
-0.11131738 0.035562959 0.90999997
-0.10972863 0.035598133 0.9109
-0.10792305 0.035562959 0.90999997
-0.1065761 0.035680197 0.91299999
-0.10487334 0.035680197 0.91299999
-0.10317059 0.035680197 0.91299999
-0.10123444 0.035598133 0.9109
-0.099666722 0.035645023 0.91210002
-0.098062299 0.035680197 0.91299999
-0.096359551 0.035680197 0.91299999
-0.094594598 0.035656746 0.91240007
-0.0929235 0.03566847 0.9127
-0.091371216 0.035727091 0.91420001
-0.089744687 0.03575835 0.91500008
-0.088038199 0.03575835 0.91500008
-0.086331718 0.03575835 0.91500008
-0.084569737 0.035734907 0.91439998
-0.082737498 0.035680197 0.91299999
-0.081034735 0.035680197 0.91299999
-0.079149507 0.035598129 0.9109
-0.077374153 0.035562959 0.90999997
-0.075676985 0.035562959 0.90999997
-0.07397984 0.035562959 0.90999997
-0.072282672 0.035562959 0.90999997
-0.070632048 0.035586409 0.91060001
-0.068888359 0.035562959 0.90999997
-0.067235485 0.035586409 0.91059989
-0.065601982 0.035621576 0.91149998
-0.063944086 0.035645023 0.91209996
-0.062099703 0.035562959 0.90999997
-0.060402535 0.035562959 0.90999997
-0.058705382 0.035562959 0.90999997
-0.056995682 0.035555143 0.90979993
-0.055286743 0.035547324 0.90959996
-0.053602111 0.035555143 0.90979993
-0.051825453 0.035500426 0.90840006
-0.0501092 0.035484791 0.90800011
-0.048426438 0.035492606 0.90820009
-0.04672233 0.035484791 0.90800011
-0.045038819 0.035492606 0.90820009
-0.043335471 0.035484791 0.90800011
-0.04164204 0.035484791 0.90800011
-0.039948609 0.035484791 0.90800011
-0.038255181 0.035484791 0.90800011
-0.036585905 0.035508242 0.90860003
-0.034868311 0.035484791 0.90800011
-0.03317488 0.035484791 0.90800011
-0.031481449 0.035484791 0.90800011
-0.029781457 0.035476975 0.90780002
-0.028063649 0.035445709 0.90700006
-0.026389528 0.035469156 0.90760005
-0.024653303 0.035406627 0.90600002
-0.022968668 0.035414446 0.90620011
-0.021280946 0.035418354 0.90630007
-0.019603655 0.035441801 0.90690005
-0.017894501 0.035406627 0.90600002
-0.01626561 0.035539508 0.90939999
-0.014547138 0.035484791 0.90800011
-0.012853706 0.035484791 0.90800011
-0.011160276 0.035484791 0.90800011
-0.0094668427 0.035484791 0.90800011
-0.0077734133 0.035484791 0.90800011
-0.0060799806 0.035484791 0.90800011
-0.0043865503 0.035484791 0.90800011
-0.0026931183 0.035484791 0.90800011
-0.0010003473 0.035508242 0.90860003
0.00069374457 0.035484791 0.90800011
0.0023871758 0.035484791 0.90800011
0.0040815072 0.035492606 0.90820009
0.005775311 0.035492606 0.90820009
0.0074674701 0.035484791 0.90800011
0.0091609005 0.035484791 0.90800011
0.010854333 0.035484791 0.90800011
0.012547763 0.035484791 0.90800011
0.014241194 0.035484791 0.90800011
0.015899528 0.035406627 0.90600002
0.017589228 0.035406627 0.90600002
0.019278931 0.035406627 0.90600002
0.020968633 0.035406627 0.90600002
0.022650832 0.035394903 0.90570003
0.024348035 0.035406627 0.90600002
0.026037738 0.035406627 0.90600002
0.027727436 0.035406627 0.90600002
0.029417139 0.035406627 0.90600002
0.031106841 0.035406627 0.90600002
0.032811023 0.035422262 0.90640008
0.034486242 0.035406627 0.90600002
0.036175944 0.035406627 0.90600002
0.037865646 0.035406627 0.90600002
0.039555345 0.035406627 0.90600002
0.041245047 0.035406627 0.90600002
0.042934749 0.035406627 0.90600002
0.044624452 0.035406627 0.90600002
0.046314154 0.035406627 0.90600002
0.047876693 0.035312839 0.90360004
0.049578376 0.035324562 0.90389997
0.05129819 0.035348009 0.90450001
0.052985091 0.035348009 0.90450001
0.054762661 0.035406627 0.90600002
0.056489747 0.035430081 0.90660012
0.058180571 0.035430077 0.90660012
0.059937429 0.035469159 0.90760005
0.061575789 0.035437893 0.90680009
0.063266978 0.035437893 0.90680009
0.06494385 0.035430077 0.9066
0.066708162 0.035469159 0.90760005
0.068280272 0.035406627 0.90600002
0.069969967 0.035406627 0.90600002
0.071659677 0.035406627 0.90600002
0.073349372 0.035406627 0.90600002
0.075204723 0.035484791 0.90800011
0.076728776 0.035406627 0.90600002
0.078418486 0.035406627 0.90600002
0.080178909 0.035437897 0.90680009
0.081870109 0.035437897 0.90680009
0.083598152 0.035453528 0.90720004
0.085346505 0.035476975 0.90780002
0.087058738 0.035484791 0.90800011
0.088752165 0.035484791 0.90800011
0.090445615 0.035484791 0.90800011
0.092139028 0.035484791 0.90800011
0.093832478 0.035484791 0.90800011
0.095525905 0.035484791 0.90800011
0.097005196 0.035406627 0.90600002
0.098694906 0.035406627 0.90600002
0.10005219 0.035289396 0.903
0.1017701 0.035301115 0.90329999
0.10342042 0.035289396 0.903
0.10510452 0.035289396 0.903
0.10678862 0.035289396 0.903
0.10868894 0.035359737 0.90480006
0.11044961 0.035383184 0.9054001
0.11210106 0.03537146 0.90510005
0.11375135 0.035359733 0.90480006
0.11520915 0.035289396 0.903
0.11708744 0.035348009 0.90450001
0.11897133 0.035406627 0.90600002
0.12071428 0.035422262 0.90640008
0.12235071 0.035406627 0.90600002
0.12404041 0.035406627 0.90600002
0.12573013 0.035406627 0.90600002
0.12741981 0.035406627 0.90600002
0.12910952 0.035406627 0.90600002
0.13062596 0.035359733 0.90480006
0.13205023 0.035289396 0.903
0.13373433 0.035289396 0.903
0.13541843 0.035289396 0.903
0.13710256 0.035289396 0.903
0.13883278 0.035301115 0.90329999
0.14056408 0.035312843 0.90360004
0.14220208 0.035301119 0.90329999
0.14383897 0.035289396 0.903
0.1457648 0.035348013 0.90450013
0.14720716 0.035289396 0.903
0.1488913 0.035289396 0.903
0.15050869 0.035273761 0.90259993
0.15225948 0.035289396 0.903
0.15367083 0.035226867 0.90139997
0.15536919 0.035230774 0.90150005
0.15729438 0.035285484 0.90289992
0.15911917 0.035316747 0.90369999
0.16048428 0.035246406 0.90189999
0.16250798 0.035320651 0.90380001
0.16390289 0.035258126 0.90219992
0.16624625 0.035398815 0.90580004
0.16812097 0.035437893 0.90680009
0.16986836 0.035449617 0.90710008
0.17173029 0.035484791 0.90800011
0.17334735 0.035469159 0.90760005
0.17473146 0.035406627 0.90600002
0.17642115 0.035406627 0.90600002
0.17838606 0.035461344 0.90740001
0.18019748 0.035484791 0.90800011
0.18189092 0.035484791 0.90800011
0.18358433 0.035484791 0.90800011
0.18527775 0.035484791 0.90800011
0.1869712 0.035484791 0.90800011
0.18866464 0.035484791 0.90800011
0.19010648 0.035437893 0.90680009
0.19162847 0.035406627 0.90600002
0.19331816 0.035406627 0.90600002
0.19500789 0.035406627 0.90600002
0.19669758 0.035406627 0.90600002
0.19838728 0.035406627 0.90600002
0.20007697 0.035406627 0.90600002
0.20123219 0.035312839 0.90359992
0.20345637 0.035406627 0.90600002
0.20514607 0.035406627 0.90600002
0.20676728 0.035394907 0.90570003
0.20852545 0.035406627 0.90600002
0.21021518 0.035406627 0.90600002
0.21190488 0.035406627 0.90600002
0.21359459 0.035406627 0.90600002
0.21528432 0.035406627 0.90600002
0.21697399 0.035406627 0.90600002
0.21876022 0.035422258 0.90640002
0.22035339 0.035406627 0.90600002
0.22204307 0.035406627 0.90600002
0.2237328 0.035406627 0.90600002
0.22542247 0.035406627 0.90600002
0.2271122 0.035406627 0.90600002
0.22880189 0.035406627 0.90600002
0.23049161 0.035406627 0.90600002
0.23218128 0.035406627 0.90600002
0.23423238 0.035461344 0.90740013
0.23566468 0.035422262 0.90640008
0.2372504 0.035406627 0.90600002
0.23894009 0.035406627 0.90600002
0.24062982 0.035406627 0.90600002
0.24253348 0.035437893 0.90680009
0.24400923 0.035406627 0.90600002
0.2456989 0.035406627 0.90600002
0.24738863 0.035406627 0.90600002
0.24825355 0.035289396 0.903
0.25026983 0.035336293 0.90420008
0.25162175 0.035289396 0.903
0.25330588 0.035289396 0.903
0.25499001 0.035289396 0.903
0.25701517 0.03533629 0.90419996
0.25835821 0.035289396 0.903
0.26004228 0.035289396 0.903
0.26172641 0.035289396 0.903
0.26341054 0.035289396 0.903
0.26509467 0.035289396 0.903
0.26677874 0.035289396 0.903
0.26935476 0.035406627 0.90600002
0.27104446 0.035406627 0.90600002
0.27273414 0.035406627 0.90600002
0.2737878 0.035324566 0.90390003
0.2753821 0.035312839 0.90360004
0.27780321 0.035406627 0.90600002
0.27949291 0.035406627 0.90600002
0.28118268 0.035406627 0.90600002
0.28324705 0.035453524 0.90720004
0.2851274 0.035476975 0.90780008
0.28694683 0.035492606 0.90820009
0.28895846 0.035531692 0.90920001
0.29027054 0.035484791 0.90800011
0.29196399 0.035484791 0.90800011
0.29365736 0.035484791 0.90800011
0.29535082 0.035484791 0.90800011
0.29704425 0.035484791 0.90800011
0.2987377 0.035484791 0.90800011
0.30043107 0.035484791 0.90800011
0.30212453 0.035484791 0.90800011
0.30381799 0.035484791 0.90800011
0.30578056 0.035516057 0.90880001
0.30720481 0.035484791 0.90800011
0.30821782 0.035406627 0.90600002
0.30990753 0.035406627 0.90600002
0.31159729 0.035406627 0.90600002
0.31328699 0.035406627 0.90600002
0.31497666 0.035406627 0.90600002
0.31666636 0.035406627 0.90600002
0.31751278 0.035312843 0.90360004
0.31909198 0.035301119 0.90329999
0.32098973 0.035324566 0.90390003
0.32235429 0.035289396 0.903
0.32403833 0.035289396 0.903
0.32615533 0.035336293 0.90420008
0.32740659 0.035289396 0.903
0.32909065 0.035289396 0.903
0.33187369 0.035406627 0.90600002
0.33356336 0.035406627 0.90600002
0.33525306 0.035406627 0.90600002
0.33694276 0.035406627 0.90600002
0.33863252 0.035406627 0.90600002
0.34032223 0.035406627 0.90600002
0.3420119 0.035406627 0.90600002
0.3437016 0.035406627 0.90600002
0.3453913 0.035406627 0.90600002
0.34784719 0.035484791 0.90800011
0.34982935 0.035514105 0.90875
0.35200769 0.035562955 0.91000003
0.35331616 0.035523873 0.90900004
0.35462093 0.035484791 0.90800005
-0.29946706 0.037869837 0.92500007
-0.29767755 0.037861653 0.9248001
-0.29537675 0.037787952 0.92300004
-0.29365534 0.037787952 0.92300004
-0.29193395 0.037787952 0.92300004
-0.28926924 0.037665132 0.91999996
-0.2875534 0.037665132 0.91999996
-0.28534049 0.037599631 0.91840011
-0.28350419 0.037583258 0.9180001
-0.28228325 0.037648756 0.91960001
-0.28056815 0.037648756 0.91960001
-0.27897435 0.037665132 0.91999996
-0.27677637 0.037599631 0.91840011
-0.27500364 0.037591446 0.91820014
-0.27341023 0.037607819 0.91860008
-0.27175623 0.037616007 0.91880006
-0.2701014 0.037624195 0.91900003
-0.26821223 0.037599631 0.91840011
-0.26629627 0.037570976 0.91770011
-0.26458475 0.037570976 0.91770011
-0.26295918 0.037583258 0.9180001
-0.26039335 0.037460435 0.91500008
-0.25868684 0.037460435 0.91500008
-0.25669953 0.037419491 0.91400003
-0.25471589 0.03737855 0.91299999
-0.25301313 0.03737855 0.91299999
-0.25131038 0.03737855 0.91299999
-0.24960759 0.03737855 0.91299999
-0.24790487 0.03737855 0.91299999
-0.24620208 0.03737855 0.91299999
-0.24482071 0.037427682 0.91420001
-0.24279663 0.03737855 0.91299999
-0.24109384 0.03737855 0.91299999
-0.2396533 0.037419491 0.91400003
-0.23768833 0.03737855 0.91299999
-0.23598559 0.03737855 0.91299999
-0.23428282 0.03737855 0.91299999
-0.2325801 0.03737855 0.91299999
-0.23087732 0.03737855 0.91299999
-0.22917458 0.03737855 0.91299999
-0.2274718 0.03737855 0.91299999
-0.22576907 0.03737855 0.91299999
-0.22406629 0.03737855 0.91299999
-0.22236355 0.03737855 0.91299999
-0.22104749 0.037444063 0.91460001
-0.21943769 0.037460435 0.91500008
-0.21725526 0.03737855 0.91299999
-0.21559975 0.037386738 0.91320008
-0.21384975 0.03737855 0.91299999
-0.21233289 0.037411302 0.91380006
-0.21030596 0.037353985 0.91240007
-0.20805559 0.03725573 0.90999997
-0.2063584 0.03725573 0.90999997
-0.20533597 0.03737855 0.91299999
-0.20372243 0.037394926 0.91340005
-0.20193049 0.03737855 0.91299999
-0.20009613 0.037353985 0.91239995
-0.19852495 0.03737855 0.91299999
-0.19682218 0.03737855 0.91299999
-0.19516215 0.037386738 0.91320008
-0.1934167 0.03737855 0.91299999
-0.19171393 0.03737855 0.91299999
-0.19001116 0.03737855 0.91299999
-0.18830839 0.03737855 0.91299999
-0.18701445 0.037460435 0.91500008
-0.18542947 0.037484996 0.9156
-0.18324026 0.037386738 0.91320008
-0.18149737 0.03737855 0.91299999
-0.17979464 0.03737855 0.91299999
-0.17809187 0.03737855 0.91299999
-0.17638911 0.03737855 0.91299999
-0.17468634 0.03737855 0.91299999
-0.17298362 0.03737855 0.91299999
-0.17083061 0.037280295 0.91060001
-0.16957809 0.03737855 0.91299999
-0.16732371 0.03725573 0.90999997
-0.16562654 0.03725573 0.90999997
-0.16392937 0.03725573 0.90999997
-0.16223221 0.03725573 0.90999997
-0.16053508 0.03725573 0.90999997
-0.1588379 0.03725573 0.90999997
-0.15710621 0.037247542 0.90979993
-0.15544356 0.03725573 0.90999997
-0.15374641 0.03725573 0.90999997
-0.15204927 0.03725573 0.90999997
-0.15035211 0.03725573 0.90999997
-0.14865494 0.03725573 0.90999997
-0.14695777 0.03725573 0.90999997
-0.14527658 0.037259825 0.91009998
-0.14356346 0.03725573 0.90999997
-0.14186631 0.03725573 0.90999997
-0.14016913 0.03725573 0.90999997
-0.13847196 0.03725573 0.90999997
-0.13671468 0.03723935 0.90959996
-0.13507764 0.03725573 0.90999997
-0.13342446 0.037268013 0.91029996
-0.13168333 0.03725573 0.90999997
-0.12998615 0.03725573 0.90999997
-0.128289 0.03725573 0.90999997
-0.12659182 0.03725573 0.90999997
-0.12489466 0.03725573 0.90999997
-0.12319751 0.03725573 0.90999997
-0.12142025 0.037231166 0.90939999
-0.11975052 0.03723935 0.90959996
-0.11787243 0.037182033 0.90820009
-0.11630653 0.037222974 0.90920001
-0.1144596 0.037173845 0.90800011
-0.11279099 0.037182033 0.90820009
-0.11121953 0.037222974 0.90920001
-0.10959613 0.037247542 0.90979993
-0.10792305 0.03725573 0.90999997
-0.106401 0.037317138 0.91149998
-0.10452874 0.03725573 0.90999997
-0.10283159 0.03725573 0.90999997
-0.1011344 0.03725573 0.90999997
-0.099437244 0.03725573 0.90999997
-0.097740099 0.03725573 0.90999997
-0.096042931 0.03725573 0.90999997
-0.094325028 0.037247542 0.90979993
-0.092607893 0.03723935 0.90959996
-0.091071382 0.037304856 0.91120005
-0.089548528 0.03737855 0.91299999
-0.08784578 0.03737855 0.91299999
-0.086086407 0.037353985 0.91240007
-0.084246054 0.037292577 0.9109
-0.082465641 0.03725573 0.90999997
-0.080732971 0.037239354 0.90959996
-0.078984424 0.037214786 0.90900004
-0.077187099 0.037165657 0.90780002
-0.07552731 0.037182033 0.90820009
-0.073947318 0.03723935 0.90959996
-0.072155587 0.037190221 0.90840006
-0.070538975 0.037231166 0.90939999
-0.068767235 0.037190221 0.90840006
-0.067117348 0.037214786 0.90900004
-0.065494016 0.03725573 0.90999997
-0.06379687 0.03725573 0.90999997
-0.062058758 0.037231162 0.90939999
-0.06026978 0.037173845 0.90800011
-0.058576353 0.037173845 0.90800011
-0.056870393 0.03716566 0.90780002
-0.05518949 0.037173845 0.90800011
-0.053413577 0.037116531 0.90660012
-0.05168853 0.037091967 0.90600002
-0.049998824 0.037091967 0.90600002
-0.048351776 0.037124716 0.90679997
-0.046619419 0.037091967 0.90600002
-0.044929717 0.037091967 0.90600002
-0.043240014 0.037091967 0.90600002
-0.041550312 0.037091967 0.90600002
-0.03986061 0.037091967 0.90600002
-0.038170911 0.037091967 0.90600002
-0.036537588 0.037149284 0.90740013
-0.034791507 0.037091967 0.90600002
-0.033101805 0.037091967 0.90600002
-0.031412113 0.037091967 0.90600002
-0.029722404 0.037091967 0.90600002
-0.028004861 0.037055124 0.90510005
-0.026351729 0.037104249 0.90630007
-0.024571672 0.036969151 0.903
-0.022895167 0.036981434 0.90329999
-0.021245722 0.037042841 0.90480006
-0.019564744 0.037055124 0.90510005
-0.017894501 0.037091967 0.90600002
-0.016240569 0.037173845 0.90800011
-0.014547138 0.037173845 0.90800011
-0.012850875 0.03716566 0.90780008
-0.011160276 0.037173845 0.90800011
-0.0094647575 0.037165657 0.90780002
-0.0077562905 0.037091967 0.90600002
-0.0060665896 0.037091967 0.90600002
-0.0043768878 0.037091967 0.90600002
-0.0026889658 0.037116531 0.9066
-0.00099924649 0.037157468 0.90760005
0.00069221656 0.037091967 0.90600002
0.0023819178 0.037091967 0.90600002
0.004080608 0.037173845 0.90800011
0.0057740393 0.037173845 0.90800011
0.0074674701 0.037173845 0.90800011
0.0091407234 0.037091967 0.90600002
0.010830425 0.037091967 0.90600002
0.012520125 0.037091967 0.90600002
0.014209827 0.037091967 0.90600002
0.015894264 0.037079684 0.90570009
0.017530989 0.036969151 0.903
0.019215094 0.036969151 0.903
0.020889943 0.036952775 0.90259999
0.022578305 0.036960963 0.90279996
0.024256662 0.036952771 0.90259999
0.02595152 0.036969151 0.903
0.027635623 0.036969151 0.903
0.02931973 0.036969151 0.903
0.031003837 0.036969151 0.903
0.032796539 0.037091967 0.90600002
0.034440566 0.037042841 0.90480006
0.036092095 0.037005998 0.90390003
0.037790414 0.037018277 0.90420008
0.039424367 0.036969151 0.903
0.041108478 0.036969151 0.903
0.0428068 0.036981434 0.90329999
0.044407733 0.03691183 0.9016
0.046058562 0.036887262 0.90100002
0.047738936 0.036887262 0.90100002
0.049386404 0.036862697 0.90040004
0.051122375 0.036903642 0.90139997
0.052774202 0.036883168 0.90090001
0.054532968 0.036936395 0.90220004
0.056358896 0.037030559 0.90450001
0.058065057 0.037042841 0.90480006
0.059792139 0.037067406 0.9054001
0.061480723 0.037067406 0.9054001
0.063190244 0.037079684 0.90570003
0.064836398 0.037055124 0.90510005
0.066590562 0.037091967 0.90600002
0.068122014 0.037005998 0.90389997
0.06980779 0.037005998 0.90389997
0.071588494 0.037055124 0.90510005
0.073106505 0.036969151 0.903
0.075039081 0.037091967 0.90600002
0.076550931 0.037005998 0.90390003
0.078158811 0.036969151 0.903
0.079842925 0.036969151 0.903
0.081527017 0.036969151 0.903
0.083211131 0.036969151 0.903
0.08500807 0.037018277 0.90419996
0.086723164 0.037030559 0.90450001
0.088556699 0.037091967 0.90600002
0.090246387 0.037091967 0.90600002
0.091936104 0.037091967 0.90600002
0.093625791 0.037091967 0.90600002
0.095315501 0.037091967 0.90600002
0.096683986 0.036969151 0.903
0.098346315 0.036960963 0.90279996
0.099830605 0.036887262 0.90100002
0.10151099 0.036887262 0.90100002
0.10319136 0.036887262 0.90100002
0.10487173 0.036887262 0.90100002
0.10655211 0.036887262 0.90100002
0.1082565 0.03689545 0.9012
0.10993727 0.03689545 0.9012
0.11159323 0.036887262 0.90100002
0.11352505 0.036969151 0.903
0.11497951 0.03689545 0.9012
0.11666025 0.03689545 0.9012
0.11849858 0.036944587 0.90240002
0.1204346 0.037022371 0.90430003
0.12205361 0.0370019 0.90380001
0.12349278 0.036928207 0.90200007
0.12503624 0.036887262 0.90100002
0.12694165 0.036952775 0.90259999
0.128682 0.036969151 0.903
0.13010624 0.03689545 0.9012
0.13175775 0.036887262 0.90100002
0.13343813 0.036887262 0.90100002
0.1351185 0.036887262 0.90100002
0.13679887 0.036887262 0.90100002
0.13847925 0.036887262 0.90100002
0.14015962 0.036887262 0.90100002
0.14184 0.036887262 0.90100002
0.14352037 0.036887262 0.90100002
0.14520074 0.036887262 0.90100002
0.14688112 0.036887262 0.90100002
0.14856149 0.036887262 0.90100002
0.15024187 0.036887262 0.90100002
0.15192224 0.036887262 0.90100002
0.15360263 0.036887262 0.90100002
0.15517959 0.036862697 0.90040004
0.15696338 0.036887262 0.90100002
0.15864375 0.036887262 0.90100002
0.16032413 0.036887262 0.90100002
0.16195056 0.03687498 0.90069997
0.16368487 0.036887262 0.90100002
0.16573235 0.036969151 0.903
0.16741645 0.036969151 0.903
0.16910054 0.036969151 0.903
0.17078468 0.036969151 0.903
0.17252606 0.036981434 0.90329999
0.17421073 0.036981434 0.90329999
0.175837 0.036969151 0.903
0.17811085 0.037091967 0.90600002
0.17964178 0.037059214 0.9052
0.18102954 0.036997803 0.90369999
0.18269473 0.036993716 0.90360004
0.18431874 0.036981434 0.90329999
0.18594161 0.036969151 0.903
0.18824908 0.037091967 0.90600002
0.18930984 0.036969151 0.903
0.19099392 0.036969151 0.903
0.19267806 0.036969151 0.903
0.19436215 0.036969151 0.903
0.19604625 0.036969151 0.903
0.19773035 0.036969151 0.903
0.19941448 0.036969151 0.903
0.20109859 0.036969151 0.903
0.20278266 0.036969151 0.903
0.20446679 0.036969151 0.903
0.20610526 0.036960963 0.90279996
0.20778897 0.036960963 0.90279996
0.20951912 0.036969151 0.903
0.21120322 0.036969151 0.903
0.21288732 0.036969151 0.903
0.21457145 0.036969151 0.903
0.21625552 0.036969151 0.903
0.21793965 0.036969151 0.903
0.21962377 0.036969151 0.903
0.22130784 0.036969151 0.903
0.22299197 0.036969151 0.903
0.2246761 0.036969151 0.903
0.22636017 0.036969151 0.903
0.2280443 0.036969151 0.903
0.22972839 0.036969151 0.903
0.2314125 0.036969151 0.903
0.2330966 0.036969151 0.903
0.23493668 0.036993716 0.90359992
0.23646481 0.036969151 0.903
0.2381489 0.036969151 0.903
0.23983303 0.036969151 0.903
0.2419183 0.037030559 0.90450001
0.24320123 0.036969151 0.903
0.24488536 0.036969151 0.903
0.24656947 0.036969151 0.903
0.24825355 0.036969151 0.903
0.24993768 0.036969151 0.903
0.25156602 0.036960963 0.90279996
0.25274488 0.036887262 0.90100002
0.25442526 0.036887262 0.90100002
0.25667408 0.036969151 0.903
0.25835821 0.036969151 0.903
0.26004228 0.036969151 0.903
0.26242203 0.037067406 0.90539998
0.26428559 0.037091967 0.90600002
0.2659753 0.037091967 0.90600002
0.267665 0.037091967 0.90600002
0.26935476 0.037091967 0.90600002
0.27014694 0.036969151 0.903
0.27183107 0.036969151 0.903
0.27351519 0.036969151 0.903
0.27458975 0.036887262 0.90100002
0.27688339 0.036969151 0.903
0.27856752 0.036969151 0.903
0.28025156 0.036969151 0.903
0.28287238 0.037091967 0.90600002
0.28456208 0.037091967 0.90600002
0.28631496 0.037100159 0.90620011
0.28794146 0.037091967 0.90600002
0.28963116 0.037091967 0.90600002
0.29132083 0.037091967 0.90600002
0.29301053 0.037091967 0.90600002
0.29470024 0.037091967 0.90600002
0.29639 0.037091967 0.90600002
0.29807967 0.037091967 0.90600002
0.29976937 0.037091967 0.90600002
0.30145904 0.037091967 0.90600002
0.30314875 0.037091967 0.90600002
0.30483848 0.037091963 0.90600002
0.30666345 0.037108343 0.90640008
0.30821782 0.037091967 0.90600002
0.30888137 0.036969151 0.903
0.31159729 0.037091967 0.90600002
0.31235337 0.036981434 0.90329999
0.31393376 0.036969151 0.903
0.31561783 0.036969151 0.903
0.31730196 0.036969151 0.903
0.318986 0.036969151 0.903
0.32067016 0.036969151 0.903
0.32199728 0.036928207 0.90199995
0.32382303 0.036944587 0.90240002
0.32572246 0.036969151 0.903
0.32733405 0.036960963 0.90279996
0.3287991 0.036936395 0.90219992
0.33077478 0.036969151 0.903
0.33245891 0.036969151 0.903
0.33436498 0.036993716 0.90360004
0.33582711 0.036969151 0.903
0.33784765 0.037005998 0.90390003
0.33919528 0.036969151 0.903
0.34087941 0.036969151 0.903
0.34256357 0.036969151 0.903
0.34424761 0.036969151 0.903
0.34723419 0.037108343 0.90640008
0.34877071 0.037091967 0.90600002
0.35046041 0.037091967 0.90600002
-0.29956418 0.039603353 0.92530012
-0.29774192 0.039590511 0.92500007
-0.29582474 0.039564833 0.92440003
-0.29390985 0.039539151 0.92379999
-0.29193395 0.039504912 0.92300004
-0.28926924 0.039376505 0.91999996
-0.2875534 0.039376505 0.91999996
-0.28577548 0.039367944 0.91979998
-0.28350419 0.039290909 0.9180001
-0.28209907 0.039333709 0.91900003
-0.28044611 0.039342266 0.91920006
-0.27891374 0.039367948 0.91979998
-0.27677637 0.039308026 0.91840011
-0.27500364 0.039299466 0.91820014
-0.27323169 0.039290909 0.9180001
-0.2715196 0.039290909 0.9180001
-0.26980752 0.039290909 0.9180001
-0.26756975 0.03921387 0.91620004
-0.26551276 0.039162509 0.91500008
-0.26380631 0.039162509 0.91500008
-0.2620998 0.039162509 0.91500008
-0.26027954 0.039145388 0.91460001
-0.25812143 0.039076902 0.91299999
-0.25591314 0.038999863 0.91120005
-0.25387898 0.038948502 0.90999997
-0.25226492 0.038961343 0.91029996
-0.25048465 0.038948502 0.90999997
-0.24878743 0.038948502 0.90999997
-0.24709031 0.038948502 0.90999997
-0.24539313 0.038948502 0.90999997
-0.24369597 0.038948502 0.90999997
-0.24199882 0.038948502 0.90999997
-0.24030164 0.038948502 0.90999997
-0.23860452 0.038948502 0.90999997
-0.23690733 0.038948502 0.90999997
-0.23521015 0.038948502 0.90999997
-0.23351303 0.038948502 0.90999997
-0.23181584 0.038948502 0.90999997
-0.23011868 0.038948502 0.90999997
-0.22842152 0.038948502 0.90999997
-0.22672436 0.038948502 0.90999997
-0.22502717 0.038948502 0.90999997
-0.22333005 0.038948502 0.90999997
-0.22170594 0.038961343 0.91029996
-0.22015324 0.038987022 0.91089994
-0.21895802 0.039076902 0.91299999
-0.21668418 0.038974185 0.91059989
-0.21484423 0.038948502 0.90999997
-0.21314707 0.038948502 0.90999997
-0.21144989 0.038948502 0.90999997
-0.20975277 0.038948502 0.90999997
-0.20791841 0.038922824 0.90939999
-0.20590487 0.038862906 0.90800011
-0.20457132 0.038931385 0.90959996
-0.2029641 0.038948502 0.90999997
-0.20117848 0.038931385 0.90959996
-0.199175 0.038871463 0.90820009
-0.19787262 0.038948502 0.90999997
-0.19617546 0.038948502 0.90999997
-0.19454239 0.038961343 0.91029996
-0.19284467 0.038961343 0.91029996
-0.19108395 0.038948502 0.90999997
-0.18938683 0.038948502 0.90999997
-0.18830839 0.039076902 0.91299999
-0.18668742 0.039094023 0.91340005
-0.18522695 0.039145388 0.91460007
-0.18320014 0.039076902 0.91299999
-0.18149737 0.039076902 0.91299999
-0.17979464 0.039076902 0.91299999
-0.17791632 0.039038382 0.91210002
-0.17580952 0.038948502 0.90999997
-0.17411233 0.038948502 0.90999997
-0.17241521 0.038948502 0.90999997
-0.17071804 0.038948502 0.90999997
-0.16902088 0.038948502 0.90999997
-0.1671766 0.038914263 0.90920001
-0.16526255 0.038862906 0.90800011
-0.16356911 0.038862906 0.90800011
-0.16187569 0.038862906 0.90800011
-0.16018224 0.038862906 0.90800011
-0.1584888 0.038862906 0.90800011
-0.15676084 0.038854346 0.90780008
-0.15510197 0.038862906 0.90800011
-0.15340851 0.038862906 0.90800011
-0.15198244 0.038931385 0.90959996
-0.15012079 0.038888585 0.90860003
-0.14832821 0.038862906 0.90800011
-0.1466994 0.038880024 0.90840006
-0.14494134 0.038862906 0.90800011
-0.14340571 0.038905703 0.90900004
-0.14155449 0.038862906 0.90800011
-0.13986108 0.038862906 0.90800011
-0.13819806 0.038871463 0.90820009
-0.13647422 0.038862906 0.90800011
-0.13501826 0.038931385 0.90959996
-0.13320461 0.038897146 0.90880001
-0.13159651 0.038922824 0.90939999
-0.12975761 0.038880024 0.90840006
-0.12806343 0.038880024 0.90840006
-0.12653616 0.038931385 0.90959996
-0.12483978 0.038931385 0.90959996
-0.12284552 0.038837221 0.90740001
-0.12117992 0.038845785 0.9076001
-0.11930291 0.038785856 0.90620011
-0.11761282 0.038785856 0.90620011
-0.11612743 0.038854342 0.90780008
-0.1142327 0.038785856 0.90620011
-0.11261714 0.038811538 0.90680009
-0.11104826 0.038854342 0.90780008
-0.10933111 0.038845785 0.90760005
-0.10787562 0.038931385 0.90959996
-0.10613252 0.038914267 0.90920001
-0.10429901 0.038862906 0.90800011
-0.10260557 0.038862906 0.90800011
-0.10091214 0.038862906 0.90800011
-0.099218719 0.038862906 0.90800011
-0.097525291 0.038862906 0.90800011
-0.095831856 0.038862906 0.90800011
-0.094055489 0.038828664 0.90720004
-0.092302434 0.038802981 0.90660012
-0.090611629 0.038802978 0.90660012
-0.089116961 0.038888581 0.90860003
-0.08751864 0.038931385 0.90959996
-0.085633509 0.038845785 0.90760005
-0.083885334 0.038820103 0.90700006
-0.082248144 0.038845785 0.90760005
-0.080271445 0.038708821 0.90439999
-0.078741118 0.038785856 0.90620005
-0.077008545 0.038764454 0.90570009
-0.075269498 0.03873878 0.90510005
-0.073670909 0.038785856 0.90620005
-0.071980819 0.038785856 0.90620005
-0.070352808 0.038820099 0.90700006
-0.06860067 0.038785856 0.90620005
-0.067028746 0.038854342 0.90780008
-0.065350078 0.038862906 0.90800011
-0.063656643 0.038862906 0.90800011
-0.061894976 0.038820099 0.90700006
-0.060137026 0.038777296 0.90600002
-0.058447339 0.038777296 0.90600002
-0.056757629 0.038777296 0.90600002
-0.055067927 0.038777296 0.90600002
-0.053378224 0.038777296 0.90600002
-0.051654298 0.038751617 0.90539998
-0.049849823 0.038661741 0.90329999
-0.048245139 0.038725935 0.90480006
-0.04651136 0.038687419 0.90390003
-0.044795819 0.038661741 0.90329999
-0.043111157 0.038661741 0.90329999
-0.041426495 0.038661741 0.90329999
-0.039741833 0.038661741 0.90329999
-0.03804452 0.0386489 0.903
-0.036457051 0.038751617 0.90539998
-0.034791507 0.038777296 0.90600002
-0.033090845 0.038764454 0.90570003
-0.031308092 0.0386489 0.903
-0.029623989 0.0386489 0.903
-0.027939882 0.0386489 0.903
-0.026334282 0.038764454 0.90570003
-0.024541739 0.038601823 0.90189999
-0.022872355 0.038623221 0.90240002
-0.021196414 0.038636062 0.90270007
-0.019547453 0.038704541 0.90430003
-0.017849071 0.038678858 0.90370005
-0.016233414 0.038845781 0.9076001
-0.014515096 0.038777296 0.90600002
-0.012825394 0.038777296 0.90600002
-0.011135692 0.038777296 0.90600002
-0.009442864 0.038764454 0.90570009
-0.0077485852 0.038738776 0.90510005
-0.0060465005 0.0386489 0.903
-0.0043638437 0.038661741 0.90329999
-0.0026871862 0.038777296 0.90600002
-0.00099748478 0.038777296 0.90600002
0.00069221656 0.038777296 0.90600002
0.0023763969 0.038687419 0.90389997
0.0040716194 0.038777296 0.90600002
0.0057613212 0.038777296 0.90600002
0.0074510211 0.038777296 0.90600002
0.0091165099 0.038674582 0.90360004
0.010794563 0.0386489 0.903
0.01247867 0.0386489 0.903
0.014162777 0.0386489 0.903
0.015843369 0.038640343 0.90279996
0.017496044 0.038571861 0.9012
0.019166151 0.038550463 0.90069997
0.02085291 0.038563304 0.90100002
0.022533292 0.038563304 0.90100002
0.024213668 0.038563304 0.90100002
0.025894042 0.038563304 0.90100002
0.027574416 0.038563304 0.90100002
0.029254794 0.038563304 0.90100002
0.030935172 0.038563304 0.90100002
0.03268794 0.0386489 0.903
0.034372054 0.0386489 0.903
0.036040187 0.038631782 0.90259999
0.037723545 0.038631782 0.90259999
0.039354514 0.038580421 0.90139997
0.041017424 0.038563304 0.90100002
0.042707287 0.038571861 0.9012
0.044245202 0.038447738 0.89830005
0.045905199 0.038434897 0.89800006
0.047611769 0.038460575 0.8986001
0.049271222 0.038447738 0.89830005
0.050997604 0.038486261 0.89920014
0.052727342 0.038524784 0.90010005
0.054460444 0.038563304 0.90100002
0.056153279 0.038571864 0.9012
0.057821192 0.038563304 0.90100002
0.05950157 0.038563304 0.90100002
0.06118194 0.038563304 0.90100002
0.062904179 0.038588982 0.90160006
0.064542703 0.038563304 0.90100002
0.06635537 0.038640343 0.90279996
0.067978814 0.038606104 0.90200007
0.069707386 0.038631782 0.90259999
0.071343295 0.0386061 0.90199995
0.073106498 0.0386489 0.903
0.074790604 0.0386489 0.903
0.076474719 0.0386489 0.903
0.077985704 0.038563304 0.90100002
0.079666078 0.038563304 0.90100002
0.08134646 0.038563304 0.90100002
0.083082125 0.038588982 0.9016
0.084876448 0.038640343 0.90279996
0.086579338 0.0386489 0.903
0.088263452 0.0386489 0.903
0.089947566 0.0386489 0.903
0.091875218 0.038751617 0.9054001
0.093377784 0.038674582 0.90360004
0.094999887 0.0386489 0.903
0.096662566 0.038640343 0.90279996
0.098150231 0.038563304 0.90100002
0.099830605 0.038563304 0.90100002
0.10151099 0.038563304 0.90100002
0.10319136 0.038563304 0.90100002
0.10455747 0.038447738 0.89830005
0.10619734 0.038434897 0.89800006
0.10787211 0.038434897 0.89800006
0.10991286 0.038563304 0.90100002
0.11159323 0.038563304 0.90100002
0.11327361 0.038563304 0.90100002
0.11491571 0.038550459 0.90069997
0.11663435 0.038563304 0.90100002
0.11831473 0.038563304 0.90100002
0.12004838 0.038580421 0.90139997
0.12167549 0.038563304 0.90100002
0.12335587 0.038563304 0.90100002
0.12474482 0.03847342 0.89890003
0.12671661 0.038563304 0.90100002
0.12839699 0.038563304 0.90100002
0.13007738 0.038563304 0.90100002
0.13131905 0.038434897 0.89800006
0.13299383 0.038434897 0.89800006
0.1346686 0.038434897 0.89800006
0.13634337 0.038434897 0.89800006
0.13801816 0.038434897 0.89800006
0.14011295 0.038550463 0.90069997
0.14146218 0.038460575 0.89859998
0.14304253 0.038434897 0.89800006
0.14476565 0.038447734 0.89830005
0.1464899 0.038460575 0.8986001
0.14826472 0.038486257 0.89920008
0.14974163 0.038434897 0.89800006
0.15141642 0.038434897 0.89800006
0.15309121 0.038434897 0.89800006
0.15476598 0.038434897 0.89800006
0.15659754 0.03847342 0.89890003
0.15864375 0.038563304 0.90100002
0.15979031 0.038434897 0.89800006
0.16157301 0.038460575 0.89859998
0.16313991 0.038434897 0.89800006
0.16543868 0.038580421 0.90139997
0.16704564 0.038563304 0.90100002
0.16872601 0.038563304 0.90100002
0.17040639 0.038563304 0.90100002
0.17208676 0.038563304 0.90100002
0.17403714 0.038623221 0.9023999
0.1755254 0.038580425 0.90139997
0.1773245 0.0386061 0.90200007
0.1788083 0.038563304 0.90100002
0.18036848 0.038537618 0.90040004
0.18218926 0.03856758 0.90110004
0.183727 0.038537621 0.90040004
0.18532388 0.0385205 0.89999998
0.18721019 0.038563304 0.90100002
0.18889056 0.038563304 0.90100002
0.19057094 0.038563304 0.90100002
0.19225131 0.038563304 0.90100002
0.19393168 0.038563304 0.90100002
0.19561206 0.038563304 0.90100002
0.19729243 0.038563304 0.90100002
0.19890656 0.038550459 0.90070009
0.20065317 0.038563304 0.90100002
0.20233354 0.038563304 0.90100002
0.20401391 0.038563304 0.90100002
0.20562582 0.038550459 0.90070009
0.20696039 0.038486257 0.89920008
0.20905504 0.038563304 0.90100002
0.21073544 0.038563304 0.90100002
0.21241581 0.038563304 0.90100002
0.21423876 0.038588982 0.9016
0.21625552 0.0386489 0.903
0.2178431 0.038631782 0.90259999
0.21962377 0.0386489 0.903
0.22130784 0.0386489 0.903
0.22299197 0.0386489 0.903
0.2246761 0.0386489 0.903
0.22636017 0.0386489 0.903
0.22753921 0.038563304 0.90100002
0.22921959 0.038563304 0.90100002
0.23089996 0.038563304 0.90100002
0.23196077 0.038460575 0.89859998
0.23348072 0.038434897 0.89800006
0.23515549 0.038434897 0.89800006
0.23683026 0.038434897 0.89800006
0.23930183 0.038563304 0.90100002
0.2409822 0.038563304 0.90100002
0.24266258 0.038563304 0.90100002
0.24434295 0.038563304 0.90100002
0.24602334 0.038563304 0.90100002
0.24770372 0.038563304 0.90100002
0.24938409 0.038563304 0.90100002
0.25106451 0.038563304 0.90100002
0.25274488 0.038563304 0.90100002
0.25442526 0.038563304 0.90100002
0.25650355 0.038623221 0.90240002
0.25835821 0.0386489 0.903
0.25998467 0.038640343 0.90279996
0.26172641 0.0386489 0.903
0.26341054 0.0386489 0.903
0.26509467 0.0386489 0.903
0.26677874 0.0386489 0.903
0.26846287 0.0386489 0.903
0.27014694 0.0386489 0.903
0.271229 0.038563304 0.90100002
0.27290937 0.038563304 0.90100002
0.27458975 0.038563304 0.90100002
0.27627012 0.038563304 0.90100002
0.2779505 0.038563304 0.90100002
0.27963087 0.038563304 0.90100002
0.28193569 0.0386489 0.903
0.28361982 0.0386489 0.903
0.28577781 0.038713101 0.90450001
0.28784612 0.038764454 0.90570003
0.28867215 0.0386489 0.903
0.29035619 0.0386489 0.903
0.29204035 0.0386489 0.903
0.29372448 0.0386489 0.903
0.29540852 0.0386489 0.903
0.29709265 0.0386489 0.903
0.29877681 0.0386489 0.903
0.30046085 0.0386489 0.903
0.30214497 0.0386489 0.903
0.30426645 0.038704537 0.90430003
0.30622363 0.03873878 0.90510005
0.3071973 0.0386489 0.903
0.30809468 0.038550463 0.90070009
0.3105655 0.0386489 0.903
0.31224963 0.0386489 0.903
0.31393376 0.0386489 0.903
0.31561783 0.0386489 0.903
0.31659913 0.038563304 0.90100002
0.3182795 0.038563304 0.90100002
0.32024401 0.038597543 0.90179998
0.32164028 0.038563304 0.90100002
0.32332066 0.038563304 0.90100002
0.32500103 0.038563304 0.90100002
0.32668141 0.038563304 0.90100002
0.32836178 0.038563304 0.90100002
0.33077478 0.0386489 0.903
0.33245891 0.0386489 0.903
0.33414295 0.0386489 0.903
0.33545518 0.038606104 0.90200007
0.33676365 0.038563304 0.90100002
0.33844402 0.038563304 0.90100002
0.3401244 0.038563304 0.90100002
0.34180477 0.038563304 0.90100002
0.34321827 0.038533341 0.90030003
0.34585515 0.038640343 0.90279996
0.34748754 0.038634632 0.90266663
0.34929994 0.0386489 0.90300006
-0.29956418 0.041324593 0.92530012
-0.29774192 0.041311197 0.92500007
-0.29595274 0.041302264 0.9248001
-0.29429168 0.041311197 0.92500007
-0.29256651 0.041311197 0.92500007
-0.29021254 0.041221868 0.92300004
-0.2875534 0.041087888 0.91999996
-0.28583762 0.041087888 0.91999996
-0.28412178 0.041087888 0.91999996
-0.28240603 0.041087888 0.91999996
-0.28069019 0.041087888 0.91999996
-0.27897435 0.041087888 0.91999996
-0.27713805 0.041070022 0.91960001
-0.27500364 0.0410075 0.91820014
-0.27323169 0.040998571 0.9180001
-0.2715196 0.040998571 0.9180001
-0.26980752 0.040998571 0.9180001
-0.26721931 0.040864583 0.91500008
-0.26551276 0.040864583 0.91500008
-0.26322964 0.040775266 0.91299999
-0.26152688 0.040775266 0.91299999
-0.25982419 0.040775266 0.91299999
-0.25803658 0.040761866 0.9127
-0.2555761 0.040641278 0.90999997
-0.25387898 0.040641278 0.90999997
-0.25218177 0.040641278 0.90999997
-0.25042957 0.040632345 0.90979993
-0.24829535 0.040560894 0.90820009
-0.24660154 0.04056089 0.90820009
-0.24485376 0.040551957 0.90800011
-0.2431604 0.040551957 0.90800011
-0.24146697 0.040551957 0.90800011
-0.23977351 0.040551957 0.90800011
-0.23808005 0.040551957 0.90800011
-0.23638669 0.040551957 0.90800011
-0.23469326 0.040551957 0.90800011
-0.23299977 0.040551957 0.90800011
-0.23130634 0.040551957 0.90800011
-0.22961292 0.040551957 0.90800011
-0.22801988 0.04056982 0.90840006
-0.22622606 0.040551957 0.90800011
-0.22502717 0.040641278 0.90999997
-0.22333005 0.040641278 0.90999997
-0.22163287 0.040641278 0.90999997
-0.21988735 0.040632345 0.90979993
-0.21823856 0.040641278 0.90999997
-0.2160655 0.040551957 0.90800011
-0.21484423 0.040641278 0.90999997
-0.21267864 0.040551957 0.90800011
-0.21098518 0.040551957 0.90800011
-0.20929173 0.040551957 0.90800011
-0.2075526 0.040543027 0.90780002
-0.20545134 0.040462639 0.90600002
-0.20380664 0.040471572 0.90620005
-0.20251802 0.040551957 0.90800011
-0.20051494 0.040489435 0.9066
-0.19878027 0.040480502 0.90640002
-0.19743775 0.040551957 0.90800011
-0.1957874 0.04056089 0.90820009
-0.19422184 0.040587686 0.90880001
-0.19248453 0.040578753 0.90860003
-0.19079001 0.040578753 0.90860003
-0.18913707 0.040587686 0.90880001
-0.18768965 0.040641278 0.90999997
-0.18599249 0.040641278 0.90999997
-0.18441682 0.040668074 0.91060001
-0.18259814 0.040641278 0.90999997
-0.18090102 0.040641278 0.90999997
-0.17926294 0.040654678 0.91029996
-0.17746767 0.040632345 0.90979993
-0.17546178 0.040560894 0.90820009
-0.17380621 0.040569823 0.90840006
-0.17207417 0.040560894 0.90820009
-0.17034282 0.040551957 0.90800011
-0.16864942 0.040551957 0.90800011
-0.16695596 0.040551957 0.90800011
-0.16518974 0.040534094 0.90760005
-0.16320883 0.040462639 0.90600002
-0.16151914 0.040462639 0.90600002
-0.15982941 0.040462639 0.90600002
-0.15813972 0.040462639 0.90600002
-0.15619099 0.040395647 0.90450001
-0.15476033 0.040462639 0.90600002
-0.1530706 0.040462639 0.90600002
-0.15171507 0.040551957 0.90800011
-0.14988948 0.040516231 0.90720004
-0.14803419 0.040471572 0.90620005
-0.1465379 0.040525161 0.90740001
-0.1446221 0.040462639 0.90600002
-0.14324795 0.040551957 0.90800011
-0.14127389 0.040471572 0.90620005
-0.13918333 0.040355451 0.90360004
-0.13777199 0.040435843 0.90539998
-0.13617361 0.040462639 0.90600002
-0.13448392 0.040462639 0.90600002
-0.13308735 0.040551957 0.90800011
-0.13139391 0.040551957 0.90800011
-0.12950051 0.040489435 0.90660012
-0.1277533 0.040471572 0.90620011
