# .PCD v0.7 - Point Cloud Data file format
VERSION 0.7
FIELDS x y z
SIZE 4 4 4
TYPE F F F
COUNT 1 1 1
WIDTH 1478
HEIGHT 1
VIEWPOINT 0 0 0 1 0 0 0
POINTS 1478
DATA ascii
0.16779643 -0.31136543 0.97889996
0.18707992 -0.31155628 0.9795
0.20906529 -0.31165171 0.97980005
0.21151489 -0.31122226 0.97845006
0.21637464 -0.31165168 0.97980005
0.22881517 -0.31117454 0.97829998
0.23216215 -0.31167907 0.97702503
0.23844606 -0.31155938 0.97665
0.24246332 -0.31112683 0.97815001
0.13814005 -0.30854839 0.97575003
0.14285757 -0.30891207 0.97690004
0.14762306 -0.30935475 0.97830009
0.15206017 -0.30910179 0.97750014
0.15540345 -0.30850095 0.97559994
0.16439977 -0.30831122 0.97500002
0.1671876 -0.30842191 0.97535002
0.17225453 -0.30799001 0.97830009
0.17727736 -0.30708846 0.97832501
0.18297707 -0.30761251 0.97710001
0.18728168 -0.30765736 0.97579998
0.19203046 -0.30797216 0.97680008
0.19950011 -0.30734628 0.97770005
0.20180027 -0.30668616 0.9756
0.20752764 -0.30890414 0.97687507
0.21268532 -0.3084535 0.97545004
0.21762465 -0.30900693 0.97720003
0.22299856 -0.30888042 0.97679996
0.22671223 -0.30897531 0.97710001
0.24400286 -0.30795965 0.97580004
0.24749184 -0.30792186 0.9776001
0.25065842 -0.30747372 0.97810012
0.17181417 -0.30493385 0.97580016
0.24895479 -0.30377701 0.97500002
0.12803204 -0.28110591 0.97500002
0.12889157 -0.26712158 0.97692966
0.13188559 -0.26612976 0.97661668
0.12439527 -0.26296902 0.97500002
0.13334452 -0.26327887 0.97839999
0.13668773 -0.2620796 0.97676253
0.13883907 -0.25818032 0.97747505
0.14254452 -0.25741491 0.97654289
0.14772484 -0.25653416 0.97536004
0.15167107 -0.25571424 0.97500002
0.14399564 -0.25479901 0.97845006
0.14812367 -0.25395319 0.97800004
0.15194345 -0.25202078 0.97675723
0.15530787 -0.2502732 0.97500002
0.15347914 -0.24882054 0.9788
0.15684651 -0.24702372 0.97650003
0.16167223 -0.24664584 0.97500002
0.15921362 -0.24433684 0.97665
0.16320577 -0.24285984 0.97656
0.16680062 -0.24138892 0.97575009
0.1683194 -0.23888642 0.97665
0.17213805 -0.23676428 0.97763997
0.17835529 -0.23597832 0.97840005
0.18181354 -0.23594506 0.97575009
0.17405224 -0.23379594 0.97815001
0.17699285 -0.23396747 0.9776001
0.18336275 -0.23375523 0.97722006
0.18717259 -0.23309675 0.97522497
0.14371976 -0.3162623 0.98280001
0.14660385 -0.31655192 0.98370016
0.16773541 -0.3166163 0.98390007
0.1714751 -0.31674498 0.98430014
0.17703626 -0.31684154 0.98460007
0.18811131 -0.31510597 0.98490012
0.20733504 -0.31500998 0.98460013
0.21654934 -0.31505799 0.98475009
0.23381869 -0.31664848 0.98400009
0.23617405 -0.31611753 0.98235011
0.14346144 -0.31295705 0.98103338
0.14729623 -0.31332982 0.98220009
0.15294667 -0.31273314 0.98320007
0.15742038 -0.31342599 0.98250008
0.16135386 -0.31486601 0.98415011
0.16737799 -0.31411418 0.98180008
0.17300242 -0.31283239 0.98255008
0.17722057 -0.31284171 0.98271435
0.18176648 -0.31174248 0.98238003
0.18739423 -0.3120811 0.98115003
0.19305174 -0.31174317 0.98200005
0.19803283 -0.3111572 0.98400009
0.20227437 -0.31135854 0.98232001
0.20778935 -0.3130888 0.9824
0.21330409 -0.31373039 0.98250008
0.21853605 -0.31212881 0.98130006
0.22233133 -0.3127774 0.98190004
0.22715226 -0.3126536 0.98295003
0.23060621 -0.31419414 0.98205006
0.23654778 -0.31357029 0.98010004
0.2402771 -0.31366625 0.98040009
0.24791904 -0.31164813 0.98170012
0.25041157 -0.31308299 0.98430014
0.17455937 -0.30838367 0.98100007
0.19736898 -0.30828935 0.98070008
0.1273787 -0.2708877 0.98400003
0.12647758 -0.26722503 0.98175001
0.1233312 -0.26276246 0.98100007
0.1272333 -0.26256299 0.9811095
0.13184907 -0.26211357 0.98085004
0.12719956 -0.25770921 0.98261112
0.13265796 -0.25763643 0.98233342
0.13735795 -0.25667965 0.98100001
0.14162697 -0.25546309 0.98100007
0.12740782 -0.25401402 0.98422503
0.13349594 -0.25319356 0.98400015
0.13770838 -0.25255689 0.98288584
0.14207159 -0.2519682 0.98250008
0.1466583 -0.2522696 0.98100007
0.14255095 -0.24852189 0.98422503
0.14714044 -0.2478212 0.98228192
0.15199457 -0.24755539 0.98100001
0.14863026 -0.24300539 0.98376018
0.15279067 -0.24298429 0.98220009
0.15789419 -0.24250676 0.98118752
0.16170286 -0.24170247 0.98070002
0.14949186 -0.23991661 0.98460007
0.1533353 -0.23822299 0.98422515
0.15791337 -0.23799261 0.98314291
0.16215274 -0.23723915 0.98205
0.16697969 -0.23669317 0.98100001
0.17090021 -0.23630214 0.98100007
0.15490629 -0.2333639 0.98400009
0.15857662 -0.2324487 0.98400003
0.16218585 -0.23236158 0.98363346
0.16746229 -0.23204525 0.9823001
0.17238711 -0.2319814 0.9820286
0.17694485 -0.23227687 0.98070002
0.18193971 -0.23188242 0.98257506
0.18653266 -0.23092663 0.98142505
0.16347043 -0.22817768 0.98400003
0.16800106 -0.22721192 0.98411262
0.17285095 -0.22781324 0.98318577
0.1771761 -0.22735195 0.98334008
0.18438141 -0.2289273 0.98460019
0.17514655 -0.22336464 0.98430002
0.18880877 -0.22140983 0.98375005
0.14462644 -0.32193691 0.98900002
0.1474039 -0.32196015 0.98907143
0.15110524 -0.3210656 0.98914999
0.23314653 -0.32068875 0.98893338
0.14411461 -0.31896436 0.98550004
0.14838542 -0.31879753 0.98640007
0.15272996 -0.3169291 0.98772502
0.15697187 -0.31712443 0.98776007
0.16328399 -0.31731653 0.98750007
0.16825682 -0.31943908 0.98696679
0.17320788 -0.31890297 0.98720008
0.1770885 -0.31867769 0.98745012
0.18291517 -0.31564987 0.9866001
0.18696935 -0.31766164 0.98857504
0.19232498 -0.31599113 0.98766679
0.19811688 -0.31641769 0.98900002
0.20217025 -0.31751591 0.98897994
0.20662692 -0.31741226 0.9878
0.21275903 -0.31808576 0.98846674
0.21823485 -0.31739926 0.98823339
0.22251132 -0.31706709 0.98758012
0.2276876 -0.31709236 0.98766011
0.232747 -0.31830195 0.9872334
0.24341437 -0.31536192 0.98570001
0.24710676 -0.31643015 0.98760003
0.25217241 -0.31596979 0.98760009
0.25729734 -0.31660968 0.98959994
0.19767652 -0.31387827 0.98680013
0.20323852 -0.31394187 0.98700011
0.25370643 -0.31283242 0.98640007
0.25706285 -0.31325647 0.98870009
0.26065391 -0.31436595 0.98833328
0.12439981 -0.25583589 0.98950005
0.12439981 -0.25307488 0.98950005
0.1278322 -0.25164756 0.98751509
0.13195527 -0.25192472 0.98620009
0.12784795 -0.24983957 0.98762506
0.13297884 -0.24905705 0.98743999
0.13727164 -0.24774234 0.98751253
0.14212389 -0.24674375 0.98699999
0.14331391 -0.24330199 0.98843336
0.14669044 -0.24196953 0.98737502
0.14471416 -0.23929413 0.9896
0.14823735 -0.23771104 0.98848575
0.15119492 -0.23578 0.98773336
0.1484054 -0.23377159 0.98959988
0.15309149 -0.23249318 0.98808336
0.15661606 -0.23248535 0.98610008
0.15801843 -0.22853124 0.98816675
0.16214414 -0.22706012 0.98710012
0.16637261 -0.22574472 0.98670006
0.17362778 -0.22560744 0.98610008
0.18276022 -0.22741909 0.98700011
0.18749166 -0.22752662 0.98647231
0.1594066 -0.22354507 0.98914999
0.16294932 -0.22242586 0.98826671
0.16740818 -0.22222711 0.98738337
0.1719321 -0.22212356 0.98692226
0.17777476 -0.22200666 0.98742503
0.18248035 -0.22356194 0.98922503
0.18661773 -0.22235234 0.98793763
0.19035316 -0.22030531 0.98700005
0.17967188 -0.21799213 0.98900002
0.18761073 -0.21723497 0.98807001
0.18716335 -0.21352227 0.9896
0.14795205 -0.32592696 0.99275005
0.15138036 -0.32692087 0.99296671
0.17143175 -0.32564268 0.99470007
0.23222995 -0.32505342 0.99290001
0.2364969 -0.32547495 0.99137503
0.15295136 -0.32296228 0.99214995
0.1576241 -0.32167602 0.99245
0.16281331 -0.32140803 0.99304998
0.16812198 -0.32278323 0.99160004
0.17176166 -0.32266927 0.99124998
0.17839015 -0.3220413 0.99215001
0.20889248 -0.32106817 0.99199998
0.21288407 -0.32150513 0.99334997
0.21569431 -0.32155365 0.99349993
0.22324061 -0.32174784 0.99409997
0.227883 -0.32132709 0.9928
0.23311178 -0.32333323 0.99140006
0.23536325 -0.32426769 0.99049997
0.18277067 -0.31883669 0.9907999
0.19209731 -0.31898147 0.99125004
0.19684768 -0.31919068 0.99189997
0.24088775 -0.31871715 0.99042863
0.24730512 -0.31985039 0.99395001
0.25259927 -0.31951246 0.99289995
0.25753075 -0.31689763 0.99049997
0.26234818 -0.31713757 0.99125004
0.26532114 -0.31737754 0.99200004
0.25890672 -0.3119157 0.99223572
0.26162094 -0.31368691 0.99200004
0.23947875 -0.2676194 0.99224406
0.24162261 -0.26794419 0.99344999
0.23969136 -0.26416275 0.99312502
0.24189533 -0.25899717 0.99457151
0.1245884 -0.25069335 0.99100006
0.12463031 -0.2489336 0.99133343
0.12799628 -0.24779822 0.99233747
0.1319368 -0.24689071 0.99265718
0.13760869 -0.24531145 0.99159998
0.1340456 -0.2437124 0.99259996
0.13776524 -0.2424238 0.99272865
0.14192465 -0.24223666 0.99160004
0.13955705 -0.23902407 0.99230003
0.14268613 -0.23802891 0.99199998
0.14599016 -0.23618385 0.99199998
0.14694446 -0.23284763 0.99220008
0.15100962 -0.23192558 0.99154997
0.14912523 -0.22935614 0.99440002
0.15330596 -0.22784765 0.99266005
0.15684906 -0.22650521 0.99163997
0.1544556 -0.22162223 0.99290001
0.15720895 -0.22251165 0.99274993
0.1601076 -0.22175615 0.99349993
0.18290918 -0.2213209 0.99154997
0.16386285 -0.21997447 0.99379998
0.16809745 -0.21858795 0.99254
0.17275302 -0.21764964 0.99163342
0.17772222 -0.21732602 0.99135715
0.18304755 -0.2177961 0.99230003
0.18559863 -0.21753208 0.99110001
0.1735013 -0.21385303 0.99327499
0.1777681 -0.21344638 0.99209994
0.18177077 -0.21377295 0.99290001
0.18633343 -0.21275286 0.99173331
0.15623102 -0.33054239 0.99832153
0.14550383 -0.3257409 0.99500006
0.15395284 -0.32780203 0.99563748
0.15741488 -0.32668617 0.99599999
0.1619096 -0.32701772 0.99890006
0.16858146 -0.32731232 0.99980003
0.17197102 -0.32667392 0.99785006
0.17604001 -0.32731229 0.99980003
0.19841568 -0.32545251 0.99980003
0.20301607 -0.32628477 0.99950004
0.21302576 -0.326841 0.99836004
0.2167847 -0.32782426 0.99852508
0.22252293 -0.32711589 0.99920005
0.23301101 -0.32738292 0.99624294
0.24495813 -0.32721412 0.99950004
0.24761021 -0.32702315 0.99891675
0.25274706 -0.32657743 0.9989751
0.25568134 -0.32662487 0.9977001
0.15849365 -0.32389 0.995
0.16235231 -0.32418296 0.99589998
0.16621655 -0.32355022 0.99680007
0.17737082 -0.32447594 0.99680007
0.18379545 -0.32247603 0.99635005
0.18751016 -0.32247603 0.99635005
0.19218476 -0.32252458 0.99650002
0.19824015 -0.32301313 0.99657506
0.20273304 -0.32277042 0.99582505
0.20674154 -0.32203913 0.995
0.21160397 -0.3242318 0.99605006
0.21813828 -0.32335463 0.99620008
0.22200474 -0.32403761 0.99687505
0.22758102 -0.32403678 0.99687505
0.23114391 -0.32428062 0.99620008
0.23900668 -0.32393831 0.99800003
0.24444346 -0.32096055 0.99739999
0.24741809 -0.32305866 0.99815005
0.25193316 -0.3228806 0.99760008
0.25741279 -0.32151499 0.99720001
0.26285863 -0.32073531 0.99670011
0.26426786 -0.31648645 0.99500006
0.26334 -0.31371009 0.99500006
0.24459051 -0.27102885 0.99800003
0.24410035 -0.26677904 0.99600005
0.24334067 -0.26418209 0.99668753
0.12323558 -0.25540701 0.99500006
0.2436433 -0.25830606 0.99666673
0.12323558 -0.25263068 0.99500006
0.12640974 -0.24691901 0.99660718
0.12323558 -0.24152532 0.99500006
0.12717879 -0.24266121 0.99682176
0.13235614 -0.2423559 0.99556249
0.13622542 -0.2405999 0.995
0.12323558 -0.23689809 0.99500006
0.12867321 -0.23904122 0.99880004
0.13306014 -0.2376916 0.99736255
0.13785426 -0.23667559 0.99503744
0.1427203 -0.23504719 0.995
0.13481537 -0.23396973 0.99830008
0.13808914 -0.23249751 0.99729997
0.1419331 -0.23188548 0.99599999
0.14643168 -0.23134542 0.995
0.13862231 -0.22853592 0.99890012
0.1423502 -0.2279339 0.99728757
0.14719352 -0.22751439 0.99544996
0.15199873 -0.22671819 0.995
0.14322543 -0.22380626 0.99852514
0.14797974 -0.22315618 0.9974001
0.15251409 -0.22252619 0.99577141
0.15682556 -0.22050571 0.99620008
0.16127717 -0.22024009 0.995
0.14975509 -0.21917935 0.99860013
0.15285911 -0.21855979 0.99860001
0.15706185 -0.21712501 0.99770004
0.16203669 -0.21719706 0.99559993
0.16684425 -0.21746373 0.995
0.15916269 -0.21373491 0.99920005
0.16302882 -0.21321987 0.99680001
0.16787301 -0.21296373 0.99559999
0.17259352 -0.21213371 0.99605
0.17719705 -0.21162328 0.99582505
0.18287787 -0.21221323 0.99642497
0.18593204 -0.21158996 0.99785006
0.16467902 -0.20899358 0.99875009
0.16773836 -0.20816438 0.99795723
0.17218785 -0.2076215 0.99773753
0.17723799 -0.20800582 0.99736255
0.18221059 -0.20973375 0.99785006
0.18593204 -0.20973377 0.99785006
0.16837913 -0.20431864 0.99860013
0.15805478 -0.33615783 1.0040001
0.15773056 -0.33298028 1.0019335
0.16308029 -0.33186659 1.0042001
0.16554466 -0.33055493 1.0039999
0.19380537 -0.33085126 1.0049
0.19661658 -0.33085126 1.0049
0.20293292 -0.3304562 1.0037
0.20761409 -0.3304562 1.0037001
0.21276933 -0.33233547 1.0037355
0.21811226 -0.33280978 1.0029134
0.22263825 -0.3333317 1.0039251
0.22733153 -0.3326827 1.0039786
0.2318413 -0.33030409 1.0032382
0.15930602 -0.3292709 1.0001001
0.16318148 -0.32863703 1.0009999
0.16701694 -0.3279016 1.0016
0.17854524 -0.32849088 1.0034001
0.18284127 -0.32594076 1.0013001
0.18784469 -0.32652667 1.0031
0.19325499 -0.32665193 1.00205
0.1971558 -0.32785347 1.0028751
0.20246904 -0.32845625 1.0014001
0.20772615 -0.32676527 1.0015401
0.21178317 -0.32873356 1.0013001
0.21918948 -0.32956722 1.0010002
0.22212286 -0.32976478 1.0016001
0.22672437 -0.32842481 1.0013001
0.23039076 -0.32770517 1.0010002
0.24325231 -0.32868731 1.0040001
0.24715304 -0.32594281 1.0027418
0.25193536 -0.32594076 1.0013001
0.25784904 -0.32656124 1.0013
0.26231924 -0.32729271 1.0031601
0.24418852 -0.32495204 1.0039999
0.25823906 -0.32378688 1.0004001
0.2626203 -0.32458887 1.0028778
0.24819951 -0.26690745 1.00205
0.25245613 -0.26875561 1.0033751
0.24508069 -0.26227105 1
0.24325229 -0.25771722 1.0040002
0.24685799 -0.25850525 1.0034375
0.12575132 -0.24000873 1.0002501
0.1273655 -0.23725903 1.00121
0.13132805 -0.23625199 1.0001
0.12788849 -0.23305839 1.0023704
0.13240594 -0.23278652 1.0012001
0.13578878 -0.23147584 1.0009001
0.12836738 -0.22877035 1.0031902
0.13220425 -0.22727557 1.0027143
0.13681856 -0.22692996 1.0010377
0.14065404 -0.22508967 1.0001
0.12809522 -0.22409983 1.0040001
0.13178903 -0.22401552 1.0036223
0.13754268 -0.22222289 1.0029125
0.14201054 -0.22173958 1.00178
0.14720447 -0.22140214 1.0002501
0.13933004 -0.21849695 1.0039999
0.14344351 -0.21824358 1.0028429
0.14742512 -0.21800494 1.0017501
0.15167138 -0.2168173 1.0014203
0.14499082 -0.21482582 1.0043
0.14782254 -0.21485791 1.00445
0.15265217 -0.21335427 1.0036571
0.1576196 -0.21238936 1.002725
0.16190596 -0.2109745 1.0008001
0.1585898 -0.20755792 1.0039998
0.16260883 -0.20704345 1.0013002
0.1799311 -0.2066098 1.0007001
0.18304147 -0.20695873 1.0024
0.1872784 -0.20733432 1.0029286
0.15906188 -0.20364709 1.00445
0.16284475 -0.20308368 1.00352
0.16688327 -0.20295602 1.0022001
0.17266123 -0.20311442 1.0018334
0.17774405 -0.20339468 1.0019001
0.18243383 -0.20266233 1.0042
0.16367221 -0.19982061 1.0039999
0.16779163 -0.19907355 1.0039999
0.17303459 -0.1988868 1.0039998
0.17771575 -0.1988868 1.0039999
0.18123889 -0.19929703 1.0045
0.1621059 -0.33744445 1.0078417
0.16648452 -0.33618808 1.0097001
0.20413984 -0.33617696 1.0096667
0.20821851 -0.3363921 1.008904
0.21246006 -0.33593416 1.0089374
0.21757764 -0.33699489 1.0065
0.1601662 -0.33478963 1.0055001
0.16786683 -0.3323805 1.0067
0.17101441 -0.33302391 1.0086501
0.19210474 -0.33292508 1.0077798
0.19790621 -0.33269307 1.0067002
0.20182164 -0.33358145 1.0075001
0.20733476 -0.33338282 1.0069002
0.2107356 -0.33281988 1.0052001
0.21650502 -0.33491451 1.0058751
0.2295512 -0.33291921 1.0055001
0.23249498 -0.33310544 1.0060625
0.18288819 -0.32957122 1.0067
0.18777673 -0.32991499 1.00775
0.19116463 -0.32927659 1.0058
0.24347462 -0.32691553 1.0062112
0.2529358 -0.26686472 1.0075142
0.24899182 -0.26350754 1.0082858
0.25209332 -0.26473922 1.0094107
0.24360326 -0.25720868 1.0093335
0.24709897 -0.25755459 1.0082397
0.25295162 -0.25808406 1.0090835
0.12835039 -0.22641759 1.006
0.13212122 -0.22176926 1.0061393
0.13574716 -0.22062795 1.0052
0.13368446 -0.21885054 1.0085001
0.13786815 -0.2175886 1.007
0.14220829 -0.21596305 1.0067
0.14358802 -0.21365741 1.0076001
0.14795132 -0.2123751 1.0074501
0.15193106 -0.21162543 1.00685
0.15309881 -0.20810562 1.0068126
0.156509 -0.20678809 1.0061001
0.15715507 -0.20283449 1.00784
0.16099894 -0.20100224 1.0068001
0.18448967 -0.20005941 1.0052
0.18764621 -0.20230037 1.00705
0.16264904 -0.19778335 1.00694
0.16738605 -0.19706562 1.0066252
0.17253502 -0.19658336 1.0065501
0.17727236 -0.19663219 1.0068001
0.18331757 -0.19742054 1.0070001
0.16355157 -0.19419277 1.0071001
0.16791742 -0.19386142 1.0070001
0.17260396 -0.19291514 1.00695
0.17729022 -0.19290547 1.0069001
0.18283644 -0.19363172 1.0079
0.18520544 -0.19145003 1.0091001
0.17391355 -0.1895729 1.0091002
0.17749333 -0.18890679 1.0080502
0.1852605 -0.18962926 1.0094001
0.20384341 -0.34101349 1.0128751
0.20703274 -0.34004551 1.01
0.21016991 -0.34055054 1.0115
0.1647726 -0.33841786 1.0107501
0.16820459 -0.33837715 1.0125002
0.17266381 -0.33596364 1.0128001
0.18794966 -0.33612257 1.0137502
0.19253279 -0.33728683 1.013
0.19729628 -0.33829674 1.0132
0.20252195 -0.33837804 1.01288
0.20732228 -0.33864108 1.0114167
0.21310581 -0.33883637 1.0120001
0.17406864 -0.33253041 1.01
0.17715684 -0.3330242 1.0115
0.18194418 -0.33315596 1.0119001
0.18736553 -0.33272797 1.0106001
0.2566548 -0.26586473 1.0113095
0.25249809 -0.26234341 1.0110313
0.25608373 -0.26215369 1.0103
0.24216217 -0.25626779 1.0111792
0.24792416 -0.25653175 1.0116
0.25291532 -0.25806636 1.0127041
0.25632459 -0.25957823 1.01125
0.23895061 -0.25133586 1.0108891
0.2429945 -0.2526094 1.0124
0.24725083 -0.25298667 1.0134799
0.23237981 -0.24701957 1.0137501
0.23773491 -0.24857388 1.0123999
0.24216956 -0.24921891 1.0112001
0.24641398 -0.24781585 1.0131501
0.1310218 -0.22026904 1.0121429
0.13293196 -0.21748435 1.0123252
0.13721235 -0.21571572 1.0114001
0.12558883 -0.21312825 1.0140001
0.13812166 -0.21283026 1.0143801
0.14205164 -0.21241431 1.0117252
0.14644159 -0.21103497 1.0100001
0.14298224 -0.20874017 1.0133001
0.14781658 -0.20738323 1.0124376
0.15111987 -0.2057838 1.0119001
0.15312654 -0.20322359 1.0116501
0.15599823 -0.20182009 1.0109001
0.15380384 -0.19972743 1.0130001
0.15748803 -0.19772452 1.0124002
0.16090688 -0.19634677 1.0101502
0.18776721 -0.19683099 1.0102251
0.15852699 -0.1940743 1.0130001
0.16276465 -0.19230388 1.0119501
0.16720751 -0.19083166 1.0118001
0.17055424 -0.19096318 1.0115001
0.18348695 -0.1916208 1.0100001
0.18878311 -0.19221719 1.01315
0.16707756 -0.18847699 1.0133001
0.17251256 -0.1876823 1.0119287
0.17737812 -0.1869376 1.0100751
0.18241897 -0.18787937 1.011543
0.18721455 -0.1878247 1.012325
0.1900368 -0.18686827 1.0148001
0.17376891 -0.18478915 1.0137501
0.17775203 -0.18404235 1.0131001
0.18241298 -0.18492585 1.0144999
0.18597627 -0.18470712 1.0133001
0.16801795 -0.34686673 1.0190001
0.17006133 -0.34526137 1.0198573
0.17957911 -0.34527588 1.0199001
0.18235198 -0.34512353 1.0194502
0.2035255 -0.34584552 1.016
0.16765873 -0.34281445 1.0168166
0.1722161 -0.34134284 1.0175999
0.17808706 -0.34183007 1.0195251
0.18274347 -0.34175763 1.01846
0.18694171 -0.34273255 1.017275
0.19121727 -0.3420417 1.0170517
0.1979928 -0.34232748 1.0167779
0.20246072 -0.34366414 1.017
0.17310557 -0.33808592 1.0153999
0.17759591 -0.33794904 1.01726
0.18282495 -0.33760679 1.0167999
0.18647182 -0.33828568 1.0159999
0.19203654 -0.33901918 1.0153666
0.25240302 -0.25615895 1.0163438
0.25711173 -0.2566011 1.0181
0.24892846 -0.25127354 1.0157
0.25213054 -0.25321248 1.0184306
0.21933004 -0.24829885 1.0190001
0.22247557 -0.24764264 1.0189
0.22693186 -0.24640329 1.0190001
0.2319479 -0.24567787 1.0159999
0.23580763 -0.2457504 1.0163
0.24875632 -0.24732149 1.0169293
0.25134134 -0.24989974 1.0178001
0.22319663 -0.24363171 1.0193001
0.22757636 -0.24294005 1.01905
0.23252583 -0.24250051 1.0185333
0.23689181 -0.24212036 1.0189251
0.24943087 -0.24326098 1.01775
0.25258788 -0.24261223 1.0190001
0.23310828 -0.23834729 1.0190001
0.23738432 -0.23787341 1.0190001
0.24023494 -0.23597786 1.0190001
0.12962624 -0.22110845 1.016
0.1289565 -0.21709935 1.0167
0.13231151 -0.21632814 1.0172222
0.13527083 -0.21537498 1.0156999
0.1281253 -0.21168129 1.0172499
0.13268964 -0.21201152 1.0177001
0.1352908 -0.2125724 1.0158499
0.12872447 -0.20783226 1.0188636
0.13237076 -0.20748267 1.0196269
0.13728593 -0.2080006 1.0165999
0.14251125 -0.20674476 1.0159999
0.12818399 -0.20482202 1.0196002
0.13012384 -0.20488231 1.0199001
0.13854048 -0.20372361 1.0188501
0.14287318 -0.20275748 1.017575
0.14727017 -0.20200649 1.0163428
0.1512008 -0.20179483 1.0158198
0.14331213 -0.1990149 1.0190001
0.14733423 -0.19733432 1.0188875
0.15213807 -0.19713633 1.0163
0.14806329 -0.1923805 1.0190001
0.15283613 -0.19282041 1.017575
0.15775849 -0.19219457 1.0158713
0.16183876 -0.19086914 1.0159999
0.15282179 -0.18859863 1.01905
0.15776564 -0.18766573 1.0176713
0.16227855 -0.18708569 1.0172749
0.16751494 -0.18613504 1.0159498
0.17131302 -0.18519928 1.0159999
0.18257424 -0.18508992 1.0153999
0.1884501 -0.18622601 1.0164499
0.16421708 -0.18385062 1.0190001
0.16796806 -0.18190095 1.0187001
0.1722126 -0.18194625 1.0168399
0.17661858 -0.18217535 1.0159999
0.18268214 -0.18236434 1.0159999
0.18638922 -0.18228316 1.0155499
0.16901794 -0.17821644 1.0193001
0.1729589 -0.17778443 1.0190001
0.17724013 -0.17788307 1.0174
0.1829094 -0.1778595 1.0172668
0.18705559 -0.17774349 1.0165979
0.1737193 -0.17437293 1.0190001
0.17815369 -0.17310923 1.0190001
0.18292622 -0.17299673 1.0188714
0.18627846 -0.17237453 1.0184001
0.17248745 -0.34668717 1.0207037
0.17707983 -0.34691852 1.0219439
0.18149905 -0.34720716 1.0200001
0.20052217 -0.34530973 1.0200001
0.17397501 -0.34358066 1.0205002
0.17685629 -0.34363121 1.0206501
0.25572056 -0.25616345 1.0201252
0.25397798 -0.25157738 1.0207679
0.25697035 -0.25456184 1.0213125
0.20806684 -0.24668753 1.0228001
0.21235158 -0.24617817 1.0220002
0.21779945 -0.24685454 1.0218502
0.22175157 -0.24603307 1.0214002
0.25333154 -0.24617817 1.0220001
0.2561906 -0.24522761 1.0220001
0.20909043 -0.24396932 1.0246999
0.21247531 -0.24251784 1.0226002
0.21796685 -0.24181239 1.0226377
0.22249527 -0.24203543 1.0219002
0.22619677 -0.24254882 1.0214001
0.2521933 -0.24314652 1.02125
0.22204417 -0.23874819 1.0227503
0.22787225 -0.23816633 1.0220002
0.23229656 -0.23660284 1.0217003
0.23706 -0.23565285 1.0217003
0.24856642 -0.23762314 1.0220002
0.25110781 -0.23889054 1.0220001
0.22970811 -0.23402682 1.0229002
0.23250119 -0.23205489 1.0226002
0.23714548 -0.23193479 1.0220668
0.24257623 -0.23191954 1.0220002
0.24621248 -0.2323969 1.0241001
0.2383616 -0.22838539 1.0232002
0.24094224 -0.22811756 1.0220002
0.13309464 -0.20506309 1.0208001
0.12780996 -0.20270489 1.0216787
0.13236848 -0.20274837 1.0225401
0.13746922 -0.20282257 1.0214752
0.13907051 -0.19974728 1.0227503
0.14190969 -0.19727154 1.0226002
0.14542636 -0.19551119 1.0205001
0.14349903 -0.19279554 1.023725
0.14676653 -0.19121334 1.0218801
0.14411378 -0.1886913 1.0246999
0.14796214 -0.1874775 1.0222402
0.15231125 -0.18629299 1.0220002
0.15512475 -0.18623832 1.0217001
0.15240039 -0.18450011 1.0226002
0.15716042 -0.18353951 1.0225501
0.16249058 -0.18217862 1.0215877
0.18936783 -0.18238361 1.0213999
0.16403507 -0.17900324 1.0238
0.16743731 -0.17760682 1.0212501
0.17041864 -0.17678739 1.0220002
0.16863626 -0.17406267 1.0227501
0.17228799 -0.17294848 1.021786
0.17659885 -0.17154942 1.021
0.18359914 -0.17093338 1.0211002
0.17252705 -0.16938156 1.0232
0.17811139 -0.16924913 1.0224001
0.18265097 -0.16774504 1.0229001
0.1856852 -0.16729707 1.0221001
0.25731862 -0.25298917 1.0265
0.20296447 -0.24655934 1.02755
0.20602567 -0.24665499 1.0252999
0.25311932 -0.24976087 1.025
0.20312792 -0.24388777 1.028375
0.20738585 -0.24234624 1.0269125
0.21297495 -0.24022739 1.025
0.20886585 -0.23908794 1.0283
0.21303916 -0.23805785 1.0271599
0.21776202 -0.23686709 1.0269715
0.22253315 -0.236414 1.025
0.22731224 -0.23641399 1.025
0.249369 -0.23648317 1.0253
0.25239328 -0.2366288 1.0259376
0.2224972 -0.23340745 1.027357
0.22694193 -0.23271769 1.026575
0.2301797 -0.23164722 1.025
0.2485296 -0.23307657 1.0271
0.23326424 -0.22804157 1.0267999
0.23742013 -0.22678219 1.026
0.24249937 -0.22644253 1.0259
0.2455446 -0.22885415 1.0253
0.2384513 -0.22317663 1.0276999
0.24217969 -0.22260046 1.0272501
0.12911431 -0.20057732 1.0270001
0.13294871 -0.2010593 1.027025
0.1367092 -0.201433 1.0265
0.12884018 -0.19659129 1.0286375
0.1330445 -0.19690306 1.0277667
0.1375138 -0.19709951 1.0267999
0.12837502 -0.19230801 1.0287499
0.13224155 -0.19234928 1.028975
0.13719879 -0.19260035 1.0281285
0.14117129 -0.19227915 1.0255401
0.12946634 -0.18963042 1.0298001
0.1378676 -0.18929897 1.028
0.14253505 -0.18722184 1.0271
0.14615311 -0.18599474 1.0256
0.14457789 -0.18356214 1.028
0.1482126 -0.18331532 1.0266286
0.15240645 -0.18214746 1.0265
0.15753745 -0.18111973 1.025
0.15281555 -0.17936358 1.0286
0.15797199 -0.17779529 1.0278333
0.16223896 -0.17704841 1.02572
0.16632126 -0.17654619 1.026125
0.15904936 -0.17410229 1.0286
0.16235301 -0.17205945 1.0278285
0.16725874 -0.17176139 1.027475
0.17091891 -0.17158626 1.025
0.18828095 -0.17172971 1.0258572
0.16333322 -0.1678545 1.0294
0.16886283 -0.1676265 1.028
0.1727154 -0.167926 1.0259428
0.17715912 -0.16674538 1.0257199
0.18143293 -0.16586615 1.025
0.18839896 -0.16992785 1.0265001
0.17237778 -0.1634832 1.028
0.17746897 -0.16281889 1.0283375
0.18252666 -0.16296375 1.0273143
0.20076181 -0.2454693 1.031
0.19912827 -0.24102339 1.0325
0.20202067 -0.2417589 1.0315402
0.19941758 -0.23752809 1.034
0.20279132 -0.23829941 1.0331836
0.20680353 -0.23756453 1.0323716
0.21180278 -0.23634215 1.030925
0.21608157 -0.23581135 1.0307
0.20231023 -0.23464295 1.0340002
0.20740676 -0.23326905 1.0340003
0.21289583 -0.23269704 1.0339003
0.21812993 -0.23211114 1.0313001
0.22377062 -0.23005943 1.0307001
0.22765915 -0.23010409 1.0309
0.24929109 -0.2305505 1.0329001
0.20905969 -0.22887257 1.0340002
0.2132183 -0.22752675 1.0341288
0.21745311 -0.22665139 1.0326501
0.22217104 -0.22693582 1.0322001
0.22782055 -0.22690822 1.0327251
0.23200449 -0.22676501 1.0314201
0.2485489 -0.22711527 1.0330111
0.21878643 -0.22318861 1.0344001
0.22312686 -0.22270739 1.0344001
0.22773056 -0.22248967 1.0341336
0.2323198 -0.22274494 1.0334626
0.23683791 -0.22198683 1.0318
0.24343854 -0.22091994 1.03055
0.24792328 -0.22228985 1.0320145
0.2513634 -0.2210719 1.0335001
0.23798604 -0.2192554 1.0340002
0.24177988 -0.21855748 1.0337334
0.24767135 -0.21929379 1.034181
0.12577154 -0.19560497 1.031
0.12906845 -0.18806638 1.0317334
0.13263875 -0.18812625 1.0320668
0.13710134 -0.18747838 1.0315143
0.14115416 -0.18601565 1.031
0.12998039 -0.18461365 1.0338891
0.13199931 -0.18474063 1.0346
0.13900286 -0.18400376 1.0340668
0.1429342 -0.1820654 1.0317125
0.14788404 -0.18026209 1.031
0.14349331 -0.17886318 1.0340002
0.14746343 -0.1772944 1.0328715
0.15230656 -0.17719352 1.031
0.15359612 -0.17352909 1.0327834
0.15734214 -0.17224649 1.0312401
0.16038242 -0.17067279 1.031
0.15825202 -0.16857755 1.0338335
0.16102633 -0.16700572 1.03205
0.1666785 -0.16736253 1.0303
0.16339684 -0.16409072 1.0318251
0.16800345 -0.16340563 1.0320501
0.17196888 -0.16113035 1.0313001
0.17576505 -0.16108349 1.031
0.18345639 -0.16108349 1.031
0.18634063 -0.16300136 1.0310001
0.17251307 -0.15859178 1.0322602
0.17777158 -0.15786891 1.0314858
0.18248177 -0.15819514 1.030925
0.18537922 -0.1582067 1.031
0.19954616 -0.14240959 1.0346667
0.20268357 -0.14235502 1.0342668
0.20713127 -0.1413561 1.0340003
0.21284398 -0.14251104 1.0336502
0.21751122 -0.14191172 1.0338402
0.22249444 -0.14131539 1.0337001
0.20246676 -0.13857809 1.0348001
0.20702024 -0.13743663 1.0334501
0.21236889 -0.13756715 1.0313429
0.218099 -0.13713033 1.0311501
0.22329688 -0.13737002 1.0329502
0.22659068 -0.13665317 1.0348001
0.20761338 -0.13414323 1.0340002
0.2127333 -0.13258475 1.0331113
0.21808729 -0.13271278 1.0322376
0.22294113 -0.13232441 1.0332143
0.22711718 -0.13337602 1.0342668
0.21484497 -0.12885377 1.0340002
0.21775857 -0.12790433 1.0341002
0.22252738 -0.1278732 1.0338501
0.22773743 -0.12630965 1.0341667
0.23220077 -0.12693033 1.034
0.20305353 -0.23357472 1.0378001
0.2065651 -0.23124248 1.036
0.20876725 -0.22750621 1.0383002
0.21273106 -0.2258527 1.0378001
0.21392553 -0.22415955 1.0389001
0.21756984 -0.22231267 1.0378001
0.22243017 -0.22104764 1.0379001
0.22716001 -0.22045797 1.0374001
0.23116311 -0.22010359 1.0380001
0.22354877 -0.21829882 1.0386001
0.22729139 -0.21817271 1.0380001
0.23301241 -0.21847697 1.0376201
0.2369781 -0.21721406 1.0380334
0.24308097 -0.21693739 1.0376401
0.24784127 -0.21836975 1.0389376
0.25189933 -0.2188912 1.0383612
0.12843749 -0.18806177 1.0370001
0.13374442 -0.18408869 1.0381666
0.13776512 -0.18291406 1.0373399
0.14252195 -0.17803729 1.0381601
0.14692372 -0.17565946 1.0378001
0.14929183 -0.17321312 1.0385668
0.15225397 -0.17180565 1.0378501
0.15388332 -0.16910544 1.0390501
0.15707836 -0.16744168 1.0371201
0.15910117 -0.16270989 1.0383251
0.16263007 -0.16172385 1.0371667
0.16534314 -0.16024628 1.0380001
0.16760056 -0.15902534 1.0376002
0.17201978 -0.15725848 1.0374001
0.1759223 -0.1563243 1.0376002
0.18256271 -0.15620877 1.0368334
0.17323673 -0.15458758 1.0389
0.17758881 -0.15315364 1.0379168
0.18283126 -0.15257691 1.0383668
0.18690756 -0.15080953 1.0395
0.19072983 -0.15076599 1.0392001
0.17917006 -0.14695595 1.0396
0.18277478 -0.14770265 1.0380501
0.1877145 -0.14778095 1.0386001
0.19207288 -0.14681441 1.0386001
0.19742773 -0.14780299 1.0387501
0.20220681 -0.14756308 1.0384202
0.20696461 -0.14673015 1.0380001
0.21174066 -0.14668773 1.0377001
0.21754976 -0.14668775 1.0377002
0.22254854 -0.14679375 1.0384501
0.22535554 -0.14673015 1.0380001
0.18332672 -0.14315002 1.0380429
0.18763304 -0.1438546 1.0381501
0.19243954 -0.14286335 1.0379667
0.19705687 -0.14270246 1.0368
0.20222324 -0.14248301 1.0352001
0.20761378 -0.14457606 1.0364001
0.21920943 -0.14457604 1.0364001
0.22202307 -0.14452025 1.036
0.22765897 -0.14289588 1.0382
0.19825314 -0.13900661 1.0380001
0.20244679 -0.13696693 1.0371751
0.22856064 -0.13834961 1.0379001
0.23101467 -0.1369877 1.0373334
0.20429668 -0.13336799 1.0392001
0.20790178 -0.13222919 1.0378501
0.22845684 -0.13249619 1.0374335
0.23094043 -0.13308379 1.0370001
0.20986843 -0.12935223 1.0380001
0.21300566 -0.12865441 1.0375668
0.21761197 -0.1264559 1.0380001
0.22210953 -0.12529702 1.0364001
0.22725806 -0.12740283 1.0378501
0.23116314 -0.12935223 1.0380001
0.22180378 -0.12373815 1.0395
0.22864759 -0.12324712 1.035375
0.20392148 -0.23166451 1.0422375
0.20645313 -0.23026708 1.0403001
0.20333223 -0.22724515 1.0441999
0.2060452 -0.22701609 1.0431499
0.19946277 -0.22338921 1.0443333
0.20240706 -0.22341415 1.04445
0.20736255 -0.2226523 1.0434856
0.21238725 -0.2226571 1.04205
0.21717581 -0.2206443 1.0405501
0.2135154 -0.2189483 1.0439999
0.21770829 -0.21730269 1.0431
0.22178744 -0.21707949 1.0420285
0.22794826 -0.21686681 1.0410001
0.23183128 -0.21686682 1.0410001
0.24797796 -0.21619318 1.0408667
0.25286037 -0.21644913 1.0436562
0.25586423 -0.21749179 1.044
0.21822083 -0.21296036 1.0439999
0.22277567 -0.21279779 1.0427572
0.22783668 -0.21335764 1.0416001
0.2326339 -0.21294332 1.0421144
0.23761739 -0.21295875 1.0408334
0.24266149 -0.21312566 1.0416502
0.24738757 -0.21325321 1.0422761
0.25096032 -0.21260598 1.0438499
0.21886984 -0.20972362 1.0439999
0.22325075 -0.20923811 1.0439999
0.22763169 -0.2087526 1.0439999
0.23254105 -0.20806129 1.0441873
0.2376273 -0.20792136 1.0433142
0.24185218 -0.20773137 1.0437499
0.24710238 -0.20972362 1.0439999
0.25002298 -0.20972362 1.0439999
0.23746894 -0.20398539 1.0444499
0.24126118 -0.20389751 1.0439999
0.12893291 -0.18588343 1.041
0.12930448 -0.18350606 1.044
0.1322736 -0.18183164 1.041832
0.13676679 -0.18064885 1.0415251
0.13261303 -0.17808883 1.0445
0.13705283 -0.17762871 1.0437
0.14122893 -0.17684661 1.0410001
0.1385531 -0.17331035 1.0439999
0.14263155 -0.17245978 1.0418
0.14718279 -0.17194095 1.0410001
0.15028916 -0.17039177 1.0410001
0.13915971 -0.1690864 1.0449001
0.1431943 -0.16753279 1.0438713
0.14736846 -0.16711637 1.04232
0.15182458 -0.16727419 1.0408802
0.15602364 -0.16642284 1.0404001
0.1473626 -0.16266514 1.0432
0.15227884 -0.16269737 1.0413336
0.15687209 -0.16223976 1.0408802
0.14877522 -0.15923056 1.0439999
0.15286262 -0.15747944 1.0436625
0.15777192 -0.15738294 1.0427999
0.16241878 -0.1568245 1.0425376
0.16776247 -0.15683652 1.0410001
0.17149703 -0.15670094 1.0401
0.18895116 -0.15709996 1.04275
0.19166587 -0.15539113 1.0443
0.15461645 -0.15340444 1.0439999
0.15789191 -0.15278611 1.0441998
0.16237324 -0.15240403 1.0437999
0.167676 -0.15334754 1.0419751
0.17202605 -0.1523689 1.0413502
0.1761248 -0.15162873 1.0407001
0.18809378 -0.15291995 1.0407001
0.19236438 -0.15225679 1.0427999
0.19845396 -0.15148412 1.0441499
0.20140402 -0.15150587 1.0443
0.20529933 -0.1515059 1.0443
0.16438329 -0.14760619 1.0441999
0.16730435 -0.14760619 1.0441999
0.17188001 -0.14735739 1.0424334
0.17649913 -0.14715423 1.0410002
0.19364886 -0.14844535 1.041
0.20265067 -0.1490477 1.0407001
0.20762317 -0.14913362 1.0413001
0.21276392 -0.14933415 1.0426999
0.21773991 -0.14941293 1.0432501
0.22276397 -0.14952035 1.0439999
0.2276936 -0.14870319 1.0427999
0.23148192 -0.14755096 1.0438
0.17338812 -0.14300556 1.0437
0.17763941 -0.14244904 1.0420002
0.18132669 -0.14229243 1.0408502
0.18806708 -0.14128374 1.0405501
0.19294609 -0.14227177 1.0407001
0.23186466 -0.14233455 1.04115
0.17836466 -0.13924426 1.0433999
0.18258609 -0.13766813 1.0425
0.18729097 -0.13755436 1.0416335
0.19289131 -0.13780728 1.0417126
0.19736804 -0.13693635 1.04185
0.20133741 -0.13612831 1.0406001
0.231757 -0.13936371 1.0406667
0.18197998 -0.13406101 1.0446
0.18772855 -0.13205032 1.0440665
0.19222479 -0.13231567 1.0431
0.19744568 -0.13203767 1.0439665
0.20254478 -0.13191609 1.0430143
0.20632029 -0.1306085 1.0429
0.23227665 -0.13385567 1.043
0.18966375 -0.12815787 1.0439999
0.19161083 -0.12718685 1.0439999
0.19752713 -0.12820697 1.0444
0.20233421 -0.12719592 1.0440749
0.20737971 -0.12754966 1.0435714
0.2122108 -0.12673643 1.0419
0.21717581 -0.12579876 1.04055
0.20720708 -0.1242857 1.0440999
0.21306933 -0.1233262 1.0441999
0.2174339 -0.12202848 1.0437855
0.22247566 -0.12192962 1.04265
0.22732604 -0.12216604 1.0426
0.23019344 -0.12117243 1.0423751
0.2179898 -0.11849873 1.04445
0.22277457 -0.11748224 1.0440499
0.22834089 -0.11685725 1.0427999
0.2301106 -0.11822077 1.0419999
0.22863805 -0.11360848 1.04415
0.23055229 -0.1145636 1.044
0.20182835 -0.2277468 1.0465001
0.19968562 -0.22169392 1.0455
0.20233801 -0.22086854 1.0471201
0.20387742 -0.21811673 1.0470001
0.20778213 -0.21811576 1.0469999
0.21252696 -0.21700247 1.046325
0.21528456 -0.21585944 1.0455
0.21305108 -0.21363312 1.0473
0.21631229 -0.21182342 1.0467
0.25377363 -0.21180716 1.04662
0.25708765 -0.21178629 1.0470001
0.21768004 -0.20753326 1.04765
0.22225246 -0.20724064 1.046175
0.22715767 -0.206293 1.0462999
0.23290022 -0.20619443 1.0458
0.24470805 -0.20725554 1.0462501
0.2481219 -0.20691407 1.04748
0.25180832 -0.20747876 1.0473751
0.25566316 -0.20802675 1.0485001
0.21965602 -0.20365466 1.04775
0.22223605 -0.20246281 1.0480715
0.22730944 -0.20253575 1.0470001
0.23259982 -0.20280547 1.0469571
0.23706137 -0.20155227 1.04695
0.24318001 -0.20195441 1.0468714
0.24683614 -0.20253576 1.0470001
0.2288727 -0.19821806 1.0482
0.23217653 -0.19825602 1.0484
0.23747678 -0.19787288 1.04706
0.24260977 -0.19791785 1.0473
0.24644421 -0.19754899 1.0481
0.13217829 -0.17578362 1.0462
0.13306135 -0.17284276 1.0480334
0.13622124 -0.17281207 1.04628
0.13795581 -0.16796429 1.0476
0.14234784 -0.16550723 1.04685
0.14244956 -0.16270229 1.0476
0.14529739 -0.16163573 1.0470001
0.14775106 -0.1582464 1.04778
0.15115538 -0.15579285 1.0470001
0.19210638 -0.15769528 1.0467
0.22972198 -0.15610534 1.0491002
0.23242384 -0.15594909 1.0480499
0.23738904 -0.15600117 1.0484
0.15310808 -0.15384522 1.0470001
0.15646748 -0.15134867 1.0477
0.19416972 -0.15388931 1.0473
0.19673693 -0.15321164 1.0470999
0.2026448 -0.15353493 1.0482
0.20783295 -0.15258731 1.0472667
0.21215086 -0.15311988 1.0473601
0.21753591 -0.15286444 1.0469502
0.22252353 -0.15293755 1.0474501
0.22723329 -0.15282065 1.0466499
0.23219112 -0.15287142 1.0470001
0.23723052 -0.15297391 1.0476999
0.24115074 -0.15298162 1.04775
0.15846552 -0.14879294 1.0480001
0.16188692 -0.14799447 1.04695
0.23683712 -0.14825106 1.0470375
0.24097812 -0.14897618 1.0470001
0.16349845 -0.14374395 1.0479001
0.16777754 -0.14315283 1.04715
0.1721554 -0.14169632 1.0464599
0.23634112 -0.1423066 1.0480833
0.17398375 -0.1385614 1.0492501
0.17757951 -0.137339 1.0473751
0.18029031 -0.13619947 1.0460999
0.17794862 -0.13469629 1.0495501
0.18274374 -0.13246867 1.0473858
0.19400284 -0.13039899 1.0464001
0.18773103 -0.1279612 1.0476999
0.19281232 -0.12722775 1.0470001
0.19801943 -0.12657854 1.0470001
0.19238083 -0.12428573 1.0482001
0.19808497 -0.12369812 1.04735
0.20250644 -0.12241877 1.0471286
0.20774288 -0.12168603 1.0468
0.21242124 -0.12059727 1.0458
0.20319065 -0.11895823 1.0485001
0.20825265 -0.11720989 1.0481375
0.21280663 -0.11691751 1.0477
0.21704221 -0.11731896 1.0469251
0.22711405 -0.11868594 1.0460999
0.21782115 -0.11320419 1.0471499
0.22241731 -0.11293914 1.04695
0.22622451 -0.11337689 1.0474001
0.21871769 -0.10749184 1.0470001
0.2224241 -0.10758424 1.0479
0.20285249 -0.21814254 1.0518196
0.20618406 -0.21561283 1.0538
0.20819879 -0.21310858 1.0530601
0.21186982 -0.21245897 1.0511334
0.20917198 -0.20977184 1.054
0.21248938 -0.20803978 1.0537428
0.2161915 -0.20600867 1.0523
0.25268376 -0.20526788 1.0510168
0.25745636 -0.20663187 1.0505
0.21216069 -0.20196736 1.0541999
0.21637248 -0.20213471 1.0521572
0.24950168 -0.20213953 1.0500001
0.25286305 -0.20247832 1.051762
0.21770127 -0.19828983 1.0534201
0.22246695 -0.19759205 1.0518
0.22748047 -0.19675423 1.0508002
0.23347974 -0.19620238 1.0513334
0.23728497 -0.19581021 1.0501001
0.24264774 -0.19530331 1.0500001
0.24671754 -0.1954242 1.0506501
0.25049967 -0.19804554 1.0541999
0.22299528 -0.19414192 1.0543
0.22758579 -0.19386572 1.0527999
0.23229176 -0.19369383 1.0518668
0.23820308 -0.19322821 1.052
0.24240755 -0.19230799 1.0532166
0.24744232 -0.19231494 1.0529001
0.25122315 -0.19172099 1.0539348
0.13015598 -0.17591777 1.0508751
0.12861796 -0.17061287 1.0543333
0.1311084 -0.17184047 1.0522377
0.12843497 -0.16743076 1.0528333
0.132589 -0.1677835 1.052416
0.13671324 -0.16682498 1.0510668
0.1286505 -0.16084725 1.0546
0.13320161 -0.16308928 1.0543
0.13821083 -0.16248971 1.0525334
0.14277631 -0.16014566 1.0500001
0.1930057 -0.16038969 1.0516001
0.23390968 -0.16087012 1.05475
0.1286871 -0.15893069 1.0548999
0.13776381 -0.15815644 1.0541
0.14233737 -0.15781479 1.054
0.1465885 -0.15712892 1.0516001
0.19474447 -0.15629879 1.0504001
0.19715202 -0.1576366 1.0528001
0.20213875 -0.15671542 1.0532
0.20630211 -0.15689398 1.0544
0.21277905 -0.15659638 1.0524
0.21725219 -0.1562839 1.0503001
0.22236949 -0.15643767 1.0513333
0.22698529 -0.15712135 1.0515333
0.23234642 -0.15851386 1.0521334
0.23753947 -0.15870471 1.0534
0.24302109 -0.15777647 1.0537417
0.14774309 -0.15340334 1.054
0.15168047 -0.15242845 1.05235
0.15550505 -0.15037964 1.0500001
0.20863612 -0.15447707 1.0513
0.24362686 -0.15428606 1.0500001
0.15270425 -0.14757194 1.0532001
0.15697373 -0.14696155 1.0500001
0.15417556 -0.14315069 1.0543001
0.15778857 -0.14286055 1.0521779
0.16260616 -0.1418045 1.0516
0.16729756 -0.14064935 1.0502667
0.17117114 -0.14061365 1.0500001
0.2367954 -0.14453381 1.0501001
0.15810814 -0.13922827 1.0543
0.16228051 -0.13750701 1.0542625
0.16790074 -0.13723499 1.0540557
0.17250414 -0.13675287 1.05336
0.17508768 -0.13670722 1.0500001
0.17318261 -0.13269114 1.0543
0.1771791 -0.1325511 1.0524571
0.18096244 -0.13084765 1.0500001
0.17393732 -0.12949595 1.0548999
0.17772038 -0.12938546 1.054
0.18299896 -0.12787378 1.0523334
0.18610498 -0.12613165 1.0514001
0.18849829 -0.12295993 1.05272
0.19255096 -0.12226579 1.0518
0.19695067 -0.1212815 1.0517334
0.18891306 -0.11896255 1.0543
0.19265988 -0.11801372 1.054
0.19822337 -0.11851951 1.0532751
0.2022268 -0.11746833 1.05264
0.20596838 -0.1155183 1.0527
0.20917198 -0.11370029 1.054
0.21282174 -0.11257127 1.0526167
0.21621117 -0.11131559 1.0500001
0.22943942 -0.11155944 1.0523
0.23276064 -0.11173966 1.054
0.21322469 -0.1098415 1.0546
0.21660952 -0.10760732 1.0519402
0.22472706 -0.10577738 1.0532
0.22654061 -0.10864227 1.0525
0.23161916 -0.10872452 1.0532811
0.22071473 -0.1037788 1.0527999
0.20280637 -0.21721055 1.0584002
0.20350435 -0.21297759 1.05775
0.20620027 -0.21172276 1.0564001
0.2043452 -0.20792009 1.0595502
0.2077464 -0.20737024 1.0567501
0.20264292 -0.20365953 1.0589201
0.20777616 -0.20248471 1.0569
0.2522471 -0.20061366 1.0574
0.20019443 -0.19688433 1.0585001
0.20829645 -0.19788551 1.0575401
0.21221578 -0.19707546 1.05742
0.21689236 -0.19716735 1.0565001
0.25240755 -0.19720455 1.0567
0.21275434 -0.19466671 1.0571501
0.21815793 -0.19395116 1.0575401
0.22210184 -0.19159055 1.0575402
0.22754119 -0.19171681 1.0571501
0.23238793 -0.19164872 1.0567751
0.23687741 -0.19141659 1.0565799
0.2439878 -0.19049013 1.0558
0.24715224 -0.19065252 1.0567001
0.25279421 -0.19437604 1.0555714
0.22343676 -0.18852973 1.0595001
0.22706988 -0.18919575 1.05955
0.23105487 -0.18922254 1.0597001
0.23862118 -0.18895471 1.0582001
0.24244887 -0.1878766 1.0576751
0.24714029 -0.18748674 1.0578573
0.2521348 -0.18774529 1.0569335
0.2492644 -0.18486045 1.0573001
0.25217062 -0.18383944 1.0570834
0.12871285 -0.17270146 1.0551112
0.12887006 -0.16308689 1.0564001
0.13145947 -0.16238572 1.0561001
0.19799542 -0.16125906 1.0573001
0.20295393 -0.16128191 1.0574501
0.20623362 -0.16153359 1.0591002
0.21808445 -0.16153361 1.0591
0.22270724 -0.1613048 1.0576001
0.22759473 -0.1612743 1.0574001
0.23125474 -0.16107602 1.0561001
0.23824981 -0.16114466 1.05655
0.24257025 -0.16139632 1.0582001
0.24552949 -0.16139631 1.0582001
0.12892497 -0.15627429 1.0568501
0.13284793 -0.1572354 1.0567001
0.13748565 -0.15597004 1.057
0.14266185 -0.15522647 1.0563999
0.1995703 -0.15897588 1.0552
0.20283905 -0.15922445 1.05685
0.20775576 -0.15856245 1.0568001
0.2119779 -0.15942787 1.0582
0.21744592 -0.1590964 1.0560001
0.22236049 -0.15908888 1.05595
0.22728178 -0.15908888 1.0559502
0.24321067 -0.15920186 1.0567
0.12912627 -0.15356603 1.0585001
0.13300778 -0.1529972 1.0579751
0.13789189 -0.15245123 1.0576
0.1427425 -0.15236531 1.057
0.14666432 -0.15234354 1.0568501
0.13314995 -0.14971279 1.0591002
0.13715836 -0.1497764 1.05955
0.14288421 -0.14857942 1.05805
0.1477055 -0.14748414 1.0572501
0.15128486 -0.14613892 1.057
0.1490362 -0.14388387 1.0597001
0.15221336 -0.14234558 1.05706
0.15360418 -0.13860151 1.0585001
0.15728548 -0.13718589 1.0567
0.16043881 -0.1356139 1.0567
0.15869302 -0.13285315 1.0582001
0.16245568 -0.13270307 1.057
0.16738397 -0.13270307 1.057
0.17078745 -0.1322128 1.0557002
0.1635105 -0.12980895 1.0574501
0.16769536 -0.12826689 1.0577201
0.17205365 -0.1275325 1.0569251
0.17776045 -0.12695022 1.0565801
0.18102807 -0.12571412 1.0561
0.17453092 -0.12403081 1.0585001
0.17744151 -0.12301059 1.0582001
0.18251751 -0.12249444 1.0573858
0.18611148 -0.12287194 1.057
0.18761349 -0.1175165 1.0565802
0.19180742 -0.11585847 1.0558001
0.19708303 -0.11713016 1.05664
0.20379551 -0.11595724 1.0567001
0.18813619 -0.11307262 1.0573001
0.19201896 -0.1120538 1.0569668
0.19802885 -0.11289509 1.0574801
0.20231488 -0.11191396 1.0579751
0.20755675 -0.11181555 1.0570376
0.21161842 -0.110029 1.0564001
0.22932854 -0.11001859 1.0563
0.19343089 -0.10752062 1.0575002
0.19833268 -0.10834008 1.0591
0.2042584 -0.10834008 1.0591
0.2079529 -0.10820711 1.0578002
0.21219234 -0.10697521 1.0573
0.21552825 -0.10706542 1.0562501
0.22849886 -0.10666323 1.0555001
0.23210764 -0.10600839 1.0555001
0.21240626 -0.10297608 1.0589287
0.21774751 -0.10227117 1.0574669
0.22270212 -0.10179808 1.05664
0.22721842 -0.10278399 1.0569572
0.2317633 -0.10285554 1.0584251
0.21901029 -0.097476467 1.0588001
0.22299224 -0.098475486 1.0589502
0.20078388 -0.21622542 1.0616168
0.20159425 -0.21208706 1.0606751
0.2014164 -0.20756951 1.0607802
0.20245504 -0.20110695 1.0600002
0.2031634 -0.19818918 1.0619835
0.20655352 -0.19582258 1.0607501
0.20826228 -0.1930586 1.0627334
0.21247907 -0.1923601 1.0607001
0.2169524 -0.19190519 1.0600002
0.21299505 -0.1893658 1.0632751
0.21738012 -0.18775447 1.0625572
0.22161716 -0.18669075 1.0602503
0.22724691 -0.18638398 1.0603751
0.23241009 -0.18675593 1.060086
0.23685332 -0.18690996 1.0600002
0.24149907 -0.18582547 1.0600002
0.24792406 -0.18533252 1.0600002
0.22272956 -0.18279012 1.0624167
0.22769678 -0.18280029 1.0624751
0.23260181 -0.18276124 1.06225
0.23751995 -0.18273556 1.0621001
0.24200462 -0.18238334 1.0600501
0.24816462 -0.18212715 1.0610287
0.25187784 -0.18138888 1.0600002
0.2248356 -0.17992488 1.063
0.22687453 -0.1793104 1.0632666
0.23316213 -0.17913392 1.063
0.23796041 -0.17837207 1.0631802
0.24260701 -0.17789505 1.0626891
0.24650401 -0.1778478 1.0624001
0.25247192 -0.17984025 1.0625
0.19539165 -0.17227423 1.0646001
0.23907247 -0.1702939 1.0646001
0.24498291 -0.17422189 1.0644001
0.24667799 -0.17302738 1.06315
0.19467585 -0.16572383 1.0607002
0.19796053 -0.16598946 1.0624
0.20207496 -0.16611445 1.0632
0.20531909 -0.16633317 1.0646001
0.23468189 -0.16603634 1.0627
0.23782796 -0.16658609 1.062
0.24173869 -0.16627216 1.0610502
0.24707165 -0.16729338 1.06314
0.25068679 -0.16613527 1.0633334
0.19476762 -0.16382791 1.0612
0.19776446 -0.16385107 1.0613501
0.2028567 -0.16396685 1.0621001
0.208079 -0.16326328 1.0618001
0.21200925 -0.16229105 1.0608251
0.21524656 -0.16435279 1.0646001
0.22492023 -0.16416754 1.0634
0.22681811 -0.16410579 1.063
0.2327563 -0.16410066 1.0629667
0.23715124 -0.16371213 1.0604501
0.24222964 -0.16380219 1.0610335
0.24623716 -0.16383563 1.0612501
0.12954101 -0.15109602 1.0619
0.13128616 -0.15181184 1.0600001
0.13523997 -0.15181184 1.0600002
0.129602 -0.14820302 1.0624001
0.13233852 -0.1477638 1.0621001
0.13737825 -0.14747854 1.0612574
0.14215919 -0.14589642 1.0600002
0.14512455 -0.14589642 1.0600002
0.13862859 -0.14436588 1.0632501
0.14242403 -0.14320391 1.061975
0.14727387 -0.14211789 1.0612429
0.1496128 -0.13751414 1.0638001
0.15224765 -0.13720745 1.061425
0.15256013 -0.1335313 1.0636001
0.15672004 -0.13206264 1.0620286
0.16093984 -0.13012198 1.0600002
0.16357847 -0.12757072 1.0617402
0.16687059 -0.12617838 1.0600002
0.16790016 -0.12316397 1.0623499
0.17266378 -0.12206488 1.0606753
0.17774361 -0.12026297 1.0600002
0.18169744 -0.12026297 1.0600002
0.17242882 -0.11772561 1.0638001
0.17710423 -0.11753719 1.0621001
0.18287539 -0.11742625 1.0611001
0.18669257 -0.11635228 1.0603001
0.17831337 -0.11471434 1.0634
0.18224616 -0.11469276 1.0632
0.18697312 -0.11257719 1.0619001
0.19652429 -0.11138985 1.0600002
0.18943517 -0.10890271 1.0646001
0.19145031 -0.10722828 1.0611001
0.19725744 -0.10715779 1.0604001
0.202071 -0.1072551 1.0600601
0.20739734 -0.10646035 1.0600002
0.23639661 -0.10661099 1.0615001
0.19357498 -0.1040167 1.0619
0.19779484 -0.10316096 1.0625799
0.20289078 -0.1033017 1.0622857
0.20720746 -0.10234918 1.0612001
0.21138121 -0.10055916 1.0601501
0.22815493 -0.10054493 1.0600002
0.23385362 -0.1013867 1.0619334
0.23617393 -0.10355192 1.0605
0.20753738 -0.098131001 1.06376
0.21259218 -0.097703129 1.0612668
0.21702743 -0.097199172 1.0611751
0.22222419 -0.096601315 1.0600002
0.22716647 -0.097587228 1.0600002
0.23136663 -0.097690582 1.0611252
0.21845564 -0.094709858 1.0609
0.22212136 -0.093131416 1.0622143
0.22730637 -0.094687551 1.0606501
0.23089167 -0.094941966 1.0635002
0.2030337 -0.19273548 1.0682501
0.20706646 -0.19180919 1.0667835
0.20436499 -0.18907133 1.0699999
0.20769091 -0.18840785 1.0699999
0.21152981 -0.18686268 1.0687571
0.21573183 -0.18655638 1.0670002
0.2130373 -0.18300672 1.0694599
0.21786568 -0.18270673 1.0677112
0.22248706 -0.18043268 1.0660001
0.1980693 -0.176853 1.0683333
0.2143428 -0.17911932 1.0699999
0.21700354 -0.17845583 1.0699999
0.22247265 -0.1772961 1.0695125
0.22751702 -0.17676842 1.0678334
0.23137335 -0.17672312 1.0675602
0.23635998 -0.17643362 1.0658001
0.24942094 -0.17752472 1.0664001
0.25242531 -0.17753971 1.066489
0.19724287 -0.17103772 1.0692501
0.20037386 -0.1711577 1.0699999
0.22232504 -0.17314808 1.0699999
0.22728209 -0.17212875 1.06985
0.23239665 -0.17278327 1.0692874
0.23732457 -0.1728759 1.0667876
0.24248312 -0.1725816 1.0665001
0.2477677 -0.17190677 1.0664169
0.25283799 -0.17286156 1.0682305
0.19757514 -0.16848217 1.0656667
0.202721 -0.16862972 1.0666001
