# .PCD v0.7 - Point Cloud Data file format
VERSION 0.7
FIELDS x y z
SIZE 4 4 4
TYPE F F F
COUNT 1 1 1
WIDTH 1421
HEIGHT 1
VIEWPOINT 0 0 0 1 0 0 0
POINTS 1421
DATA ascii
-0.24543542 0.14971977 0.63119996
-0.24242598 0.14734815 0.63240612
-0.23936397 0.14562084 0.63368332
-0.26648909 0.15203185 0.63353336
-0.26420432 0.15392804 0.63170004
-0.24755377 0.15295978 0.63186973
-0.24427867 0.15074863 0.63388896
-0.26355574 0.15798134 0.63214588
-0.25077936 0.15780582 0.6308583
-0.24855965 0.15762483 0.63377786
-0.26268202 0.16208401 0.63298339
-0.25877029 0.16417558 0.63067502
-0.25162664 0.16287938 0.63173854
-0.24944794 0.16222644 0.63445562
-0.26135001 0.16705488 0.63407338
-0.25765318 0.16776121 0.63193816
-0.25288808 0.16738898 0.6326251
-0.25722355 0.17221101 0.63399494
-0.25335944 0.17168032 0.63415843
-0.26745135 0.1292852 0.63984168
-0.26186219 0.12914684 0.63832855
-0.25753519 0.12874475 0.63717777
-0.25242639 0.12852654 0.63735002
-0.24746481 0.12810996 0.63732088
-0.24253234 0.12791447 0.63773668
-0.23738959 0.12778272 0.63735378
-0.23278239 0.12833786 0.63771874
-0.22812167 0.12892459 0.63879168
-0.27636689 0.13315587 0.63854998
-0.27273345 0.13174166 0.63742381
-0.26759806 0.13082185 0.63685459
-0.26296222 0.13050225 0.63654673
-0.23152123 0.1317149 0.63557994
-0.22751975 0.1323465 0.63749278
-0.22423153 0.13160522 0.63961679
-0.27752125 0.13700806 0.63773328
-0.23082922 0.13843828 0.63568336
-0.22787872 0.13705748 0.63746667
-0.27628708 0.14202455 0.63707626
-0.27431375 0.14371021 0.63560009
-0.2367366 0.14436576 0.63590002
-0.23282759 0.14211972 0.63709086
-0.27563524 0.14632794 0.63933331
-0.27289081 0.1475012 0.63674736
-0.24086396 0.14908853 0.635975
-0.23758292 0.14715341 0.63778335
-0.27115875 0.15223201 0.63880002
-0.26863477 0.15278313 0.6366666
-0.2455747 0.15439124 0.63601673
-0.24265814 0.15269877 0.63754445
-0.23948175 0.15031752 0.63870007
-0.27038315 0.1576516 0.63970006
-0.26756951 0.15729219 0.63677442
-0.24623607 0.15778981 0.6372152
-0.24381721 0.15683559 0.63926667
-0.26702747 0.16242304 0.63752669
-0.26248747 0.16476624 0.63520008
-0.2470336 0.16268566 0.63740623
-0.2443568 0.16061369 0.63971674
-0.26541159 0.16677155 0.63837785
-0.26340577 0.16764948 0.63658571
-0.25077647 0.1689398 0.63543332
-0.24844062 0.16735661 0.63771665
-0.26565063 0.17066601 0.6397
-0.26225445 0.17269756 0.63745648
-0.25906026 0.17432009 0.63576657
-0.25143093 0.17301954 0.63627046
-0.24878304 0.17220807 0.6385926
-0.26111221 0.17708227 0.63809335
-0.25743821 0.17749393 0.63660002
-0.25233114 0.17738171 0.63742638
-0.24905074 0.17651726 0.6394667
-0.26090944 0.18070839 0.63965011
-0.25715554 0.1823497 0.63842732
-0.2533147 0.18245831 0.63867378
-0.25561613 0.1860854 0.63983333
-0.24745108 0.12427159 0.64452678
-0.24207506 0.1242568 0.64445007
-0.23722866 0.12414433 0.64386678
-0.23250569 0.12420539 0.64418346
-0.22897831 0.12427931 0.64456666
-0.27684563 0.12892576 0.64322084
-0.27238768 0.12802902 0.64246047
-0.26742545 0.12753254 0.64294624
-0.26249781 0.12713622 0.64258486
-0.25739434 0.12625417 0.64203084
-0.2526052 0.12608832 0.64220005
-0.24767503 0.12558092 0.64208335
-0.24246013 0.12587936 0.64223331
-0.23727742 0.12559013 0.64179265
-0.23197341 0.12589586 0.6418767
-0.22748552 0.12676418 0.64206946
-0.22249009 0.12803946 0.64283901
-0.21883722 0.12784111 0.6444934
-0.28124341 0.13237539 0.64284253
-0.27808124 0.13157171 0.64138156
-0.22225448 0.13266551 0.64169115
-0.21908662 0.13162315 0.64404166
-0.28151259 0.13725549 0.64268517
-0.27874547 0.13880831 0.64010006
-0.22677939 0.13903508 0.64114672
-0.22354299 0.13660669 0.64247137
-0.28051573 0.14181501 0.64298892
-0.27884629 0.1433927 0.64207506
-0.23121381 0.14341319 0.64057332
-0.22799081 0.14193115 0.64275235
-0.27694309 0.14804997 0.64296019
-0.27407461 0.14954096 0.64043325
-0.23597676 0.14853367 0.64119995
-0.2330204 0.14673387 0.6425482
-0.2761066 0.15055278 0.64476675
-0.27340573 0.15309255 0.64208335
-0.24091381 0.15428694 0.64046675
-0.23813778 0.15221441 0.64255279
-0.27205712 0.15722929 0.64227039
-0.24161209 0.15771469 0.64217955
-0.23846941 0.15519428 0.64423335
-0.27133036 0.16215156 0.64346671
-0.26944846 0.16331527 0.64103341
-0.24285527 0.16284257 0.64244449
-0.27012548 0.16841416 0.64466679
-0.26775402 0.1675816 0.64148331
-0.24624363 0.1682342 0.64125341
-0.24366815 0.16721733 0.64312226
-0.26743323 0.17233147 0.64297414
-0.26452714 0.17312242 0.64003336
-0.24654007 0.17282441 0.64244664
-0.2446892 0.17181093 0.64399177
-0.26681361 0.17730603 0.64448339
-0.26387075 0.1776261 0.6413334
-0.24715188 0.17746462 0.64257181
-0.24499843 0.17540459 0.64406681
-0.26532441 0.18148029 0.64448899
-0.26234397 0.1829242 0.64258528
-0.25903919 0.18383639 0.64024442
-0.25083634 0.18261278 0.64079446
-0.24848488 0.1823009 0.64280009
-0.26115543 0.18750627 0.64335185
-0.25725815 0.1878937 0.64115679
-0.25215921 0.18741478 0.64148813
-0.24892329 0.18762904 0.64377415
-0.26058125 0.19105819 0.64463347
-0.25724649 0.19230576 0.64322001
-0.2527324 0.19232062 0.64327115
-0.2498579 0.19226395 0.64467788
-0.2566725 0.19606192 0.64442503
-0.25357684 0.19613571 0.64408004
-0.27614963 0.12495092 0.64805007
-0.27220273 0.12472018 0.64810002
-0.26752284 0.12438674 0.6485852
-0.26239729 0.1243858 0.64823341
-0.25744087 0.1242001 0.64726669
-0.25253618 0.12405952 0.64653343
-0.24695119 0.12331045 0.64783335
-0.24263713 0.12261442 0.64838058
-0.23773688 0.12247056 0.64761949
-0.23255187 0.12243562 0.6478858
-0.22718577 0.1229176 0.64787567
-0.22263214 0.12395397 0.64740604
-0.2174015 0.12431975 0.64788747
-0.21461037 0.12411202 0.6499334
-0.28576156 0.12892139 0.64873332
-0.28221661 0.12783676 0.64773589
-0.27811566 0.12671724 0.64688343
-0.2727426 0.12596828 0.64589345
-0.26741111 0.1257764 0.6461333
-0.26314765 0.12568556 0.64566678
-0.22669104 0.12563039 0.64538336
-0.22258845 0.12576082 0.64605337
-0.21676382 0.12744932 0.64654171
-0.21348247 0.12740359 0.64880764
-0.28662467 0.13242692 0.64827335
-0.2840966 0.13196413 0.64550483
-0.21660618 0.13269928 0.64703941
-0.21331485 0.13113268 0.6489867
-0.28610507 0.13790363 0.64884448
-0.28422657 0.1369745 0.64596677
-0.22180131 0.13786252 0.6461482
-0.2188884 0.13657998 0.64777505
-0.28543419 0.14083953 0.64946669
-0.28275698 0.14252903 0.64714444
-0.22701791 0.14357716 0.64647228
-0.22369429 0.14110509 0.64737999
-0.28166392 0.14695925 0.64864314
-0.27927238 0.14718679 0.64569056
-0.23159131 0.14874005 0.64638895
-0.22810891 0.14633523 0.64796668
-0.2777006 0.15226068 0.64780557
-0.2749787 0.15421 0.64510018
-0.23629349 0.15363164 0.64668006
-0.23332912 0.15198037 0.64802599
-0.27595356 0.15711688 0.6480667
-0.23729272 0.15785867 0.64701557
-0.23493475 0.15676464 0.6490888
-0.27361578 0.16252749 0.64733332
-0.24045075 0.16209617 0.64561677
-0.23819536 0.16231067 0.6480667
-0.27158409 0.16786037 0.64713329
-0.24159627 0.1678896 0.6462186
-0.23921438 0.16766965 0.64903337
-0.27104223 0.17227376 0.64797503
-0.26857626 0.17472732 0.64596671
-0.24232164 0.17254646 0.64739054
-0.2711069 0.17700234 0.6499334
-0.26888692 0.17818135 0.64766109
-0.24521229 0.17878403 0.64551675
-0.24326013 0.17729181 0.64779705
-0.2675302 0.18223239 0.64787787
-0.26434693 0.184209 0.64569992
-0.24611193 0.18276356 0.6462186
-0.24367173 0.18207167 0.6490286
-0.26635301 0.18682326 0.64855838
-0.26415437 0.18793048 0.64686114
-0.24653563 0.18766183 0.64712125
-0.24459374 0.18648492 0.64946657
-0.26625091 0.19014682 0.64966667
-0.26265281 0.19257709 0.64693338
-0.25958133 0.1949771 0.64576679
-0.25116342 0.19486639 0.64540011
-0.24745563 0.19249663 0.6476205
-0.26171932 0.19727615 0.64827144
-0.25806737 0.19817153 0.64622968
-0.25202698 0.19803905 0.64601433
-0.24835631 0.19748195 0.64876294
-0.26054764 0.20118578 0.64910007
-0.25727111 0.20253658 0.64790255
-0.25217152 0.2023696 0.64776218
-0.24931177 0.20132394 0.64890003
-0.25657895 0.20565099 0.64930004
-0.25274026 0.20614238 0.64933336
-0.23746681 0.11894215 0.65455836
-0.23256397 0.11885584 0.65408337
-0.22773969 0.11887854 0.65420836
-0.22292948 0.118927 0.65447509
-0.21995619 0.11901633 0.65496671
-0.28641748 0.12431813 0.65418339
-0.28227124 0.12381109 0.65342677
-0.27738816 0.12336495 0.65235007
-0.27257651 0.12317829 0.65194237
-0.26730341 0.12273074 0.65217918
-0.26260614 0.12250724 0.65292007
-0.25775784 0.12284968 0.65280837
-0.25236428 0.12227107 0.65236372
-0.24763381 0.12172578 0.65132344
-0.24163629 0.12071367 0.65236008
-0.23722598 0.12042458 0.65275836
-0.23235431 0.12036239 0.65242088
-0.22755831 0.12041096 0.65268338
-0.22247565 0.12121981 0.65194303
-0.21793935 0.12185274 0.65170777
-0.21243525 0.12255886 0.65233904
-0.20819867 0.12346909 0.65353668
-0.29072416 0.12801351 0.6545167
-0.28788453 0.12740928 0.65227276
-0.28305379 0.12571149 0.65074664
-0.21128857 0.12708789 0.65039998
-0.2081628 0.12742083 0.6526438
-0.29132938 0.13164482 0.65451682
-0.28896725 0.1323396 0.65154773
-0.21206763 0.13264297 0.65228003
-0.2089878 0.13158807 0.65423334
-0.29012954 0.13710299 0.65456671
-0.28846222 0.13705468 0.65241116
-0.22063875 0.13977452 0.65009987
-0.21734309 0.13813907 0.65183711
-0.21402229 0.13589877 0.65314174
-0.28656054 0.14198649 0.6519751
-0.28454301 0.14357276 0.6509667
-0.22544044 0.14456914 0.6500333
-0.22215754 0.14263979 0.6514191
-0.21938857 0.14169766 0.65342218
-0.28582042 0.14549953 0.65421677
-0.28278381 0.14907706 0.65266681
-0.22730879 0.14844248 0.6518625
-0.2241053 0.14621851 0.65310007
-0.28152514 0.15268876 0.65391672
-0.27980024 0.15268895 0.65133339
-0.23131436 0.15329486 0.65134585
-0.22840449 0.1521273 0.65345001
-0.28041136 0.15643312 0.65440005
-0.27829701 0.15803699 0.65185565
-0.23246026 0.15762572 0.65232223
-0.22931182 0.15620227 0.6547001
-0.27734625 0.16237622 0.65315562
-0.23578215 0.16283645 0.6509667
-0.23282458 0.16237479 0.65358216
-0.27579677 0.16829829 0.65347785
-0.27431396 0.16705719 0.65099168
-0.23682624 0.16732506 0.65203613
-0.23382986 0.16675253 0.65452498
-0.27537179 0.17068695 0.65336674
-0.27362919 0.17271745 0.65266675
-0.24003318 0.17314069 0.65123349
-0.23792601 0.17204334 0.65267885
-0.27232039 0.17699173 0.65255338
-0.24085996 0.17767212 0.65141124
-0.23875183 0.17720263 0.65362781
-0.27102864 0.18199399 0.65275002
-0.26891589 0.18394309 0.6511001
-0.24161629 0.1825722 0.65223008
-0.23926069 0.18124437 0.65439999
-0.27046442 0.18507437 0.65296662
-0.26860577 0.18801625 0.65270007
-0.24264568 0.18740752 0.65268463
-0.26664346 0.19285253 0.65185249
-0.24546945 0.19425358 0.65135002
-0.24388406 0.19189696 0.6528964
-0.26611754 0.19749141 0.65342218
-0.26370928 0.19823903 0.65059167
-0.24605034 0.19771251 0.65203011
-0.24411392 0.19579327 0.65448338
-0.26266518 0.20296165 0.65185004
-0.24718848 0.2026774 0.6522938
-0.26192746 0.20744279 0.65325928
-0.25738925 0.20812868 0.65090305
-0.25261891 0.20842919 0.65085006
-0.24825108 0.20734994 0.6529026
-0.26103219 0.21208164 0.65431666
-0.25788134 0.21235564 0.65250486
-0.25220531 0.21256086 0.65253967
-0.24888951 0.21138991 0.65404999
-0.25697047 0.21686445 0.65414453
-0.25270793 0.21670644 0.65397221
-0.25508037 0.22075953 0.65493327
-0.25263843 0.22071831 0.65481114
-0.28203326 0.11983558 0.65947497
-0.2770862 0.11977199 0.65912509
-0.27222246 0.11978411 0.65919173
-0.26725596 0.11969174 0.65868342
-0.26228663 0.11959027 0.65812504
-0.2576012 0.1197947 0.65925002
-0.25271082 0.11977804 0.65915841
-0.24725637 0.11927386 0.65772676
-0.2426786 0.11880845 0.65717494
-0.23713699 0.11797574 0.65817779
-0.23214662 0.11746611 0.65851003
-0.22727847 0.11733389 0.65861034
-0.22235611 0.11737966 0.65876973
-0.2170905 0.11869806 0.65656251
-0.21231598 0.11885625 0.65743756
-0.20778698 0.11909597 0.65828097
-0.20333989 0.11978763 0.65921116
-0.29163677 0.1239693 0.65875834
-0.28792655 0.12284921 0.65733331
-0.28262669 0.12168004 0.65759003
-0.27740848 0.12132708 0.65765011
-0.27251095 0.12129471 0.65747505
-0.26756379 0.12120877 0.65700835
-0.2621398 0.12107573 0.65675718
-0.25733411 0.12132007 0.65761244
-0.2528916 0.12102344 0.65798008
-0.2474515 0.12052293 0.65657502
-0.24304029 0.1203154 0.65544456
-0.21695313 0.12027358 0.65521669
-0.21218346 0.12042502 0.65604162
-0.20676839 0.12185373 0.65655673
-0.20276256 0.12274923 0.65810007
-0.19972855 0.12294836 0.65981674
-0.29312879 0.12711085 0.65767783
-0.28907457 0.12513684 0.65530002
-0.2054847 0.12724197 0.65573335
-0.2029919 0.12696309 0.65743339
-0.29351306 0.13246898 0.65818107
-0.21092685 0.13428138 0.65556669
-0.20708907 0.1322386 0.65746337
-0.20449814 0.13061289 0.65846664
-0.29166126 0.13710031 0.65745836
-0.2152234 0.13924441 0.65610003
-0.21233048 0.13743301 0.6575917
-0.20942509 0.13622054 0.65908349
-0.29092646 0.14153711 0.65828896
-0.28914839 0.14279383 0.65707505
-0.22065115 0.14463876 0.65579998
-0.21736479 0.14253405 0.65727782
-0.21365081 0.1403982 0.65866673
-0.28721836 0.14735921 0.65801704
-0.22238114 0.14774367 0.65720338
-0.21912967 0.14526364 0.65863341
-0.28573462 0.15220548 0.65968341
-0.28354707 0.15309981 0.65672004
-0.22607359 0.15279105 0.656663
-0.22357489 0.15196627 0.65917337
-0.28230032 0.15758477 0.6577667
-0.22749922 0.15763609 0.65731663
-0.22412208 0.15525985 0.6597001
-0.28116864 0.16160271 0.65820014
-0.27927047 0.1638905 0.65680003
-0.23050205 0.1637399 0.65700835
-0.22878881 0.16214412 0.65792507
-0.28006321 0.1660057 0.65876675
-0.27817777 0.16769396 0.65742224
-0.23574314 0.16997145 0.6552667
-0.2315751 0.16771437 0.65727627
-0.22898258 0.16741943 0.65953338
-0.27680409 0.17237177 0.65702671
-0.23626456 0.17392388 0.65554667
-0.23338366 0.17217739 0.65799493
-0.27583009 0.17781991 0.65829337
-0.2741363 0.17816007 0.65641665
-0.23673415 0.17789108 0.6566667
-0.23414689 0.17672049 0.65858889
-0.27345803 0.18305686 0.65765011
-0.24061388 0.18456134 0.65543342
-0.23734437 0.1824677 0.65756428
-0.27179533 0.18739875 0.65688336
-0.24072137 0.18842126 0.65621114
-0.23877391 0.18734646 0.65798008
-0.2707296 0.19249779 0.6577
-0.26941895 0.19242372 0.65606672
-0.24170452 0.19282471 0.65674174
-0.23939124 0.19212791 0.6589334
-0.2704013 0.19538538 0.65923333
-0.26843017 0.19768561 0.65675002
-0.24236739 0.19763783 0.65745962
-0.26725182 0.20224729 0.65719521
-0.24357647 0.20253921 0.65752006
-0.2664049 0.20740707 0.65869337
-0.26453573 0.20693298 0.6559
-0.24592912 0.20793127 0.65586108
-0.24415219 0.20765756 0.65838104
-0.26550382 0.21180838 0.65911674
-0.26291701 0.21284415 0.65667039
-0.24707022 0.21294039 0.65663034
-0.24441421 0.21169569 0.65940005
-0.26196212 0.21753079 0.65799171
-0.25762433 0.21906896 0.65567333
-0.25152695 0.21891536 0.65545553
-0.24774021 0.21744695 0.65759492
-0.26086009 0.22202404 0.65868342
-0.25731683 0.22292013 0.6569643
-0.25229719 0.22341566 0.65650827
-0.24872604 0.22244866 0.65833706
-0.26072001 0.22601517 0.65966672
-0.25713116 0.22760043 0.65860349
-0.25241759 0.22775441 0.65818214
-0.24903154 0.22640249 0.65901673
-0.25341699 0.23093426 0.65977788
-0.28774846 0.11933982 0.66350007
-0.28213847 0.11834088 0.66307086
-0.27783668 0.11802492 0.66301674
-0.27258578 0.11802685 0.66351902
-0.2672196 0.1180362 0.66308057
-0.26228741 0.11800871 0.66292787
-0.2576884 0.11891612 0.66228336
-0.25205249 0.11921392 0.66280001
-0.24740992 0.1177605 0.66290671
-0.24200895 0.11678398 0.66230005
-0.23746829 0.11635734 0.66190338
-0.23274888 0.11580775 0.66202217
-0.227539 0.1155422 0.66283333
-0.22219658 0.11567129 0.66217333
-0.21755743 0.11646652 0.66113061
-0.21273929 0.11660255 0.66190273
-0.20756572 0.11683773 0.6627453
-0.20245673 0.11800355 0.66243774
-0.19757479 0.11839431 0.66383338
-0.19396299 0.11959164 0.66490006
-0.29604986 0.12376861 0.66312224
-0.2927438 0.12211621 0.66248614
-0.28724366 0.12073689 0.66107088
-0.20098364 0.12120061 0.66026664
-0.19730777 0.12214977 0.66192818
-0.19392608 0.12256344 0.66434169
-0.29639739 0.12668154 0.66210663
-0.20182113 0.12899344 0.66056663
-0.19846562 0.1267744 0.66259003
-0.29653805 0.13268642 0.66274107
-0.29497671 0.1321577 0.66009998
-0.20657396 0.13486111 0.66138339
-0.2028096 0.13201064 0.6627667
-0.29610908 0.1372079 0.66385782
-0.29370272 0.13789275 0.66125929
-0.21142106 0.13903743 0.66088331
-0.20832057 0.13758206 0.66270554
-0.20496164 0.13540825 0.66406667
-0.29268181 0.1429888 0.6621967
-0.21575692 0.1440535 0.66146666
-0.21283253 0.14221805 0.66288751
-0.20991047 0.14102004 0.66446674
-0.29111275 0.14724968 0.66345835
-0.28930369 0.14910167 0.66215003
-0.22116125 0.14934766 0.66053331
-0.21804793 0.14755276 0.66234672
-0.2142081 0.14531401 0.66443336
-0.28781492 0.15260641 0.66255718
-0.22170059 0.15301678 0.6621334
-0.21889155 0.15180819 0.66417223
-0.28638959 0.15702575 0.66286117
-0.28410405 0.15915304 0.66066676
-0.22544628 0.15791839 0.66061109
-0.22302961 0.15768185 0.66288793
-0.28352794 0.16262183 0.66235
-0.22638939 0.16267449 0.66173339
-0.22384022 0.1624193 0.66402924
-0.28183508 0.16762421 0.66241425
-0.22732079 0.16736989 0.66241217
-0.2246539 0.16681933 0.66443336
-0.28118044 0.1722701 0.66318005
-0.27940765 0.17285042 0.66164446
-0.23111191 0.17341068 0.66098666
-0.22810066 0.17225534 0.66328341
-0.28002483 0.17674759 0.66480017
-0.27794921 0.17751394 0.66169333
-0.23196174 0.17792851 0.66163343
-0.22926372 0.177623 0.6639334
-0.27674741 0.18248437 0.66235238
-0.23521066 0.18355457 0.66053337
-0.23252022 0.18240601 0.66265005
-0.22956142 0.18093313 0.66436672
-0.27621585 0.18579215 0.66416663
-0.27420697 0.18814473 0.66164166
-0.23637071 0.1878773 0.66123748
-0.2336344 0.18706629 0.66378337
-0.27507213 0.19144967 0.6646167
-0.27279037 0.19314876 0.66159338
-0.23692596 0.19248487 0.66216159
-0.2345103 0.19145399 0.66463339
-0.27198976 0.19710287 0.66255337
-0.24037182 0.19784164 0.66030836
-0.23770741 0.19719182 0.66325831
-0.27118054 0.20155954 0.66350001
-0.26952955 0.20329307 0.66115564
-0.24100482 0.20290352 0.66121483
-0.23878378 0.20199049 0.66376674
-0.27012515 0.20860624 0.66445005
-0.26834303 0.20799975 0.66135335
-0.24170238 0.20760529 0.66243333
-0.23940261 0.20614842 0.66445011
-0.26777562 0.21281722 0.66307622
-0.24501267 0.21416037 0.66073334
-0.24209663 0.21227086 0.66301191
-0.26617846 0.21733861 0.66296673
-0.26416588 0.21824868 0.66077775
-0.24539825 0.21801083 0.66129172
-0.24367225 0.21714278 0.66278893
-0.26558742 0.22226702 0.66426665
-0.26298112 0.22250488 0.66167146
-0.24627028 0.22243513 0.66192222
-0.24398018 0.22205165 0.66423345
-0.26228899 0.22733414 0.66292226
-0.25928479 0.22844827 0.66082221
-0.24745458 0.22756951 0.66212511
-0.26103902 0.23261946 0.66400558
-0.25757366 0.23245303 0.66131997
-0.25206092 0.2328489 0.66088343
-0.24804351 0.23220484 0.66305673
-0.25682449 0.23746578 0.66325003
-0.2523315 0.23722005 0.66263336
-0.24918321 0.23736461 0.66411114
-0.2561956 0.24116547 0.6644333
-0.25303191 0.24214906 0.66417921
-0.24621099 0.11415387 0.66906667
-0.24294449 0.11394059 0.6678167
-0.23803991 0.11398894 0.6681
-0.23246183 0.11404051 0.66696674
-0.22760269 0.11378213 0.66689998
-0.22262302 0.11371113 0.66648334
-0.21768098 0.11369171 0.66636962
-0.21241465 0.1138625 0.66685241
-0.20760587 0.11366659 0.66802919
-0.20223646 0.11405577 0.66849166
-0.19727913 0.11402591 0.66831672
-0.19232048 0.11398609 0.66808331
-0.18926133 0.11407424 0.66860002
-0.29179406 0.11893245 0.66811424
-0.28698266 0.11773799 0.66694665
-0.28290302 0.11686719 0.66690558
-0.27733275 0.11623362 0.66680002
-0.27242023 0.11612294 0.66758668
-0.26754022 0.11630626 0.66721672
-0.26263773 0.11634113 0.66741669
-0.25762904 0.117558 0.66654825
-0.25256136 0.11764772 0.66719699
-0.24742591 0.1159431 0.66750008
-0.24319875 0.11527982 0.66699338
-0.23794918 0.1151053 0.66740841
-0.20644814 0.11505596 0.66712219
-0.20213494 0.11568455 0.66719592
-0.19684198 0.11620641 0.66736341
-0.19216308 0.1173961 0.66714561
-0.18924862 0.11712775 0.66838336
-0.30077845 0.12415227 0.66959995
-0.29717761 0.12229831 0.66700006
-0.29411131 0.1200413 0.66739994
-0.19177121 0.12272795 0.66723669
-0.18930832 0.12040105 0.66940004
-0.30035812 0.12689331 0.66773337
-0.29873976 0.12779962 0.6660167
-0.1967136 0.12802809 0.66613901
-0.19376127 0.12675552 0.66808885
-0.30070996 0.13152294 0.66929597
-0.29881832 0.13156402 0.66636842
-0.20152958 0.13381505 0.66735005
-0.19819266 0.13129617 0.66814172
-0.20618881 0.13836823 0.66648889
-0.20380034 0.13728549 0.66871673
-0.21133856 0.14374034 0.66663337
-0.20853131 0.14222045 0.66837341
-0.29304296 0.14776736 0.66625738
-0.2155254 0.14849713 0.6665867
-0.21234457 0.14691572 0.6686185
-0.29159179 0.15271135 0.66812587
-0.21672957 0.15279393 0.66713619
-0.21377575 0.15200916 0.66956669
-0.29077286 0.1562424 0.66913331
-0.28846854 0.15831192 0.66638005
-0.22072217 0.1587933 0.66598892
-0.21824391 0.1575359 0.66786665
-0.28757986 0.16227385 0.6676445
-0.22111455 0.1626669 0.6668728
-0.21870112 0.16215989 0.66929168
-0.28577656 0.16726711 0.66768664
-0.28411573 0.16864754 0.66680002
-0.22595133 0.16881487 0.66503346
-0.22237752 0.16758361 0.6676423
-0.21906292 0.16506965 0.66979998
-0.2858226 0.1710932 0.66913331
-0.28360313 0.17247912 0.66731668
-0.22605792 0.17274745 0.66596675
-0.22359291 0.17220251 0.66783613
-0.28173292 0.17776066 0.66722
-0.22667101 0.17762391 0.66720009
-0.22393954 0.17634442 0.66910005
-0.28134829 0.18195689 0.66903335
-0.27916661 0.18342355 0.66671669
-0.23090367 0.18426326 0.66530013
-0.22838172 0.18279256 0.66741943
-0.2779941 0.18747149 0.66702384
-0.23181444 0.18816446 0.66604453
-0.22910266 0.18756197 0.66828334
-0.27698857 0.19211709 0.66822666
-0.23216763 0.19257963 0.66747093
-0.27579036 0.1968772 0.66843343
-0.27357891 0.19844364 0.66540009
-0.23592445 0.19864292 0.66606671
-0.23371059 0.1973871 0.66807002
-0.27350459 0.20260569 0.66752857
-0.23632741 0.20295835 0.66729671
-0.23422199 0.20112427 0.66885549
-0.27188876 0.20767517 0.66737777
-0.23770592 0.20739293 0.66713899
-0.27097678 0.21201646 0.66745001
-0.23860094 0.21250165 0.66768056
-0.27094173 0.21559173 0.66896671
-0.26864851 0.21726489 0.66650558
-0.24155316 0.21746735 0.66604763
-0.23914909 0.21715452 0.66869998
-0.26768404 0.22270136 0.66802782
-0.24180561 0.22241683 0.66779166
-0.26622206 0.2274425 0.66743338
-0.26422366 0.22814049 0.66586667
-0.24570769 0.22803721 0.6655668
-0.243433 0.22731456 0.66772121
-0.26600811 0.23170741 0.66905546
-0.26362965 0.23270555 0.66718894
-0.24621466 0.23299091 0.6662389
-0.24424034 0.23204885 0.66826111
-0.26198423 0.23723155 0.66719258
-0.25918815 0.23898362 0.66520011
-0.24695587 0.23767455 0.66739666
-0.24487655 0.23580071 0.66838336
-0.26164973 0.24154769 0.66889167
-0.25788686 0.24281967 0.66627336
-0.25089991 0.24261642 0.66571343
-0.24829927 0.24220179 0.66785556
-0.25765792 0.24731714 0.66802567
-0.25276977 0.24740241 0.66666442
-0.24921003 0.24694462 0.66843337
-0.25738907 0.25078049 0.66932225
-0.25317714 0.25238869 0.66900909
-0.2499308 0.2509101 0.66911674
-0.25500369 0.25553992 0.66990012
-0.25310144 0.25543183 0.6696167
-0.28617713 0.11498706 0.67395008
-0.28199834 0.11460459 0.67170841
-0.27752477 0.11409982 0.67292851
-0.27244586 0.11409096 0.67194444
-0.26725096 0.11413948 0.67263746
-0.26257771 0.11444118 0.67221338
-0.25746465 0.11494013 0.673675
-0.25205916 0.11423189 0.67265713
-0.24767828 0.11383604 0.67206669
-0.23734909 0.11346069 0.6722917
-0.23202193 0.11249445 0.67247337
-0.22738414 0.11156774 0.6721251
-0.22242986 0.11097395 0.67230552
-0.21760023 0.11104406 0.67204547
-0.21240975 0.11146881 0.67152917
-0.20729026 0.11178236 0.67217422
-0.20252237 0.11219072 0.67214173
-0.19754097 0.11217093 0.67202502
-0.19307777 0.11250928 0.6724
-0.18824521 0.11411626 0.67249161
-0.29748818 0.1191729 0.67295009
-0.29331473 0.11784454 0.6717695
-0.28799382 0.11621632 0.67282861
-0.28250116 0.11574391 0.67111111
-0.27799177 0.11559539 0.67024994
-0.27320403 0.11556187 0.67005557
-0.26749605 0.11563619 0.67048669
-0.26202857 0.11575349 0.67116666
-0.2569657 0.11646564 0.67221433
-0.25207743 0.11572761 0.67101669
-0.24885798 0.11559252 0.67023343
-0.18714912 0.11742622 0.67293334
-0.30111957 0.12269948 0.67295569
-0.29841584 0.12109083 0.671525
-0.18821332 0.12194586 0.67195523
-0.19554844 0.12920882 0.67013341
-0.19228192 0.12778156 0.67240196
-0.18918096 0.12627383 0.67431718
-0.19729641 0.13301015 0.67234284
-0.1945757 0.13123335 0.67416662
-0.20189853 0.1379386 0.67211431
-0.19891256 0.13614675 0.67380005
-0.20648605 0.14283654 0.67176664
-0.2039023 0.1411455 0.67386663
-0.21150024 0.14875665 0.67109334
-0.20792744 0.14744581 0.67330515
-0.29379037 0.15372854 0.67166662
-0.21170317 0.1526932 0.67183036
-0.20858164 0.15206482 0.67392921
-0.29254663 0.15773775 0.67249197
-0.21541725 0.15718813 0.67052501
-0.21269092 0.15742169 0.6726619
-0.29159355 0.16275421 0.67303336
-0.28922838 0.16341409 0.67063338
-0.21651213 0.16265067 0.67157328
-0.21351156 0.16229476 0.67370743
-0.2905432 0.16609649 0.67396665
-0.28848335 0.16770844 0.67243338
-0.22032622 0.16884485 0.67003328
-0.21732827 0.16767401 0.67229342
-0.21455121 0.16745955 0.67443341
-0.28722596 0.17269617 0.67297506
-0.28491354 0.17399201 0.67076665
-0.22105926 0.17284007 0.67111117
-0.21829124 0.17261267 0.67330307
-0.21459906 0.17007963 0.67493331
-0.28636178 0.17686455 0.67383331
-0.28408861 0.17730337 0.6707778
-0.22187728 0.17762619 0.67199725
-0.21887246 0.17670089 0.67399997
-0.28383249 0.18269539 0.67312503
-0.2258382 0.18262003 0.67056
-0.22294061 0.18253565 0.67306161
-0.28176939 0.18712981 0.67265558
-0.22648008 0.18756844 0.67184669
-0.22415739 0.1872642 0.67388332
-0.2808122 0.1918581 0.67360008
-0.27873302 0.1932549 0.67088336
-0.22742131 0.19255975 0.67247868
-0.22455589 0.19122499 0.67466664
-0.27810687 0.19759978 0.67247498
-0.23114102 0.19765671 0.67108327
-0.22864816 0.19732347 0.6736542
-0.27719289 0.20252225 0.67323333
-0.27491438 0.20488438 0.67036664
-0.23202172 0.20284823 0.67215383
-0.22952156 0.20176657 0.67445004
-0.27577287 0.20764832 0.67330003
-0.27373603 0.2074679 0.67070007
-0.23556928 0.20803294 0.67052495
-0.23286697 0.2074123 0.67308491
-0.2757715 0.21128364 0.67496675
-0.27358514 0.21252409 0.67257339
-0.23596904 0.21246217 0.67192382
-0.23404223 0.21244453 0.67402774
-0.2721532 0.21726212 0.67222506
-0.23718908 0.21757321 0.67203337
-0.23452158 0.21613814 0.67453325
-0.27142063 0.2226021 0.67333335
-0.26994902 0.22161123 0.67033327
-0.24018975 0.22345975 0.67030007
-0.23818487 0.22252165 0.67287791
-0.27055144 0.22708593 0.67370003
-0.26874822 0.22749145 0.67195338
-0.24110055 0.22783078 0.6713084
-0.23892544 0.22689441 0.67387336
-0.26783478 0.23286852 0.67241341
-0.24178913 0.23276879 0.67212433
-0.23948967 0.23105173 0.67436659
-0.26621276 0.23744008 0.6722762
-0.26374441 0.23957615 0.67029995
-0.24519122 0.23968339 0.67060006
-0.24289201 0.23750873 0.67274249
-0.26603296 0.24131007 0.67398882
-0.2630913 0.24345899 0.67132229
-0.24588728 0.24297719 0.67113334
-0.24393064 0.24214526 0.67342228
-0.26222301 0.24775647 0.67231679
-0.24678391 0.24770845 0.67162228
-0.24448916 0.2479181 0.6744417
-0.26166594 0.25229666 0.67364579
-0.2576457 0.25344726 0.67091906
-0.25073469 0.25385183 0.67035002
-0.24733168 0.25246528 0.67288202
-0.2607311 0.25670934 0.67460001
-0.25757378 0.25763386 0.67239994
-0.25207263 0.25779414 0.67136979
-0.24840705 0.25691989 0.67351669
-0.2568306 0.2622748 0.67359996
-0.25229779 0.26256463 0.67329776
-0.24949957 0.26231751 0.67458332
-0.25569338 0.26657158 0.67430001
-0.25273389 0.26705205 0.6742242
-0.23076922 0.10968255 0.67969996
-0.22755811 0.10958572 0.6791001
-0.22307637 0.10945798 0.67830843
-0.21750663 0.10958143 0.67907345
-0.21254803 0.10969511 0.6797778
-0.28768185 0.11447284 0.67828894
-0.28233105 0.11393651 0.67659998
-0.26216626 0.11404157 0.67573339
-0.25716776 0.11343776 0.67811
-0.25277218 0.11270459 0.67736197
-0.2418517 0.11066084 0.67799175
-0.23799777 0.11212758 0.67675936
-0.23315954 0.11166809 0.67650479
-0.22781964 0.11032079 0.67590839
-0.21588311 0.11022151 0.6753
-0.2128081 0.11030584 0.67581666
-0.2079054 0.1104908 0.67694998
-0.20291351 0.11052345 0.67715007
-0.19248721 0.11144055 0.67663997
-0.188265 0.11291651 0.67648536
-0.29777864 0.11903477 0.67570007
-0.29184261 0.1161656 0.67719173
-0.28973073 0.11534818 0.67606652
-0.18592204 0.11651235 0.67556673
-0.19099459 0.12924246 0.67680007
-0.1888923 0.12793896 0.67652225
-0.19594267 0.1340775 0.6759333
-0.19355404 0.13254426 0.67767781
-0.20090555 0.1389752 0.67543334
-0.19808976 0.13769315 0.67757088
-0.20250174 0.14305447 0.67700005
-0.19948931 0.1413538 0.6788556
-0.20592724 0.14778522 0.67573333
-0.20326197 0.1476066 0.67819297
-0.20667848 0.15288612 0.67618096
-0.20393547 0.15232615 0.67864084
-0.2950891 0.15950395 0.67773348
-0.29479653 0.15793139 0.67636687
-0.20777962 0.1575705 0.6769622
-0.20431329 0.15603465 0.67900002
-0.29525322 0.16093929 0.67850006
-0.29313505 0.1629414 0.6763956
-0.2113398 0.16235892 0.67570001
-0.20874585 0.16255969 0.67811817
-0.29186195 0.16753918 0.67728341
-0.21209507 0.16751121 0.67696673
-0.20954202 0.16648863 0.67895573
-0.29072341 0.17232068 0.67884451
-0.28909236 0.17222212 0.676
-0.21590587 0.17272975 0.67553329
-0.21283811 0.17239746 0.67809051
-0.28736666 0.17804126 0.67673343
-0.21725248 0.17757 0.6765185
-0.21407092 0.17697108 0.67879528
-0.28684196 0.18242191 0.67827225
-0.22090873 0.1833629 0.67558324
-0.21809715 0.18209168 0.67782867
-0.28514433 0.18782252 0.67815018
-0.28403458 0.18714836 0.67571664
-0.22177371 0.18766756 0.67668664
-0.21875691 0.18689699 0.67901915
-0.28318363 0.1925173 0.67774445
-0.22585614 0.19385456 0.67513317
-0.2231876 0.19231866 0.67741948
-0.28154576 0.19735019 0.67770004
-0.22645225 0.19810219 0.67599332
-0.22401246 0.19695076 0.67827094
-0.28020096 0.20487043 0.67853349
-0.27951553 0.20240782 0.67659169
-0.22711071 0.20252508 0.67740446
-0.22386588 0.20022368 0.67980009
-0.28042483 0.2064798 0.67970014
-0.27811754 0.20767984 0.67746675
-0.23090865 0.20836325 0.67561662
-0.22869225 0.20711195 0.67806667
-0.27684796 0.21266192 0.67737508
-0.23150826 0.21266598 0.67683643
-0.22921097 0.21084726 0.67892224
-0.27616143 0.21780072 0.67874175
-0.27433217 0.21708463 0.67618895
-0.23591323 0.21900059 0.67566669
-0.23271482 0.21748504 0.677836
-0.27541178 0.22096357 0.67978334
-0.27372992 0.222716 0.67745841
-0.23621817 0.22239313 0.67610002
-0.23396125 0.22266741 0.6780802
-0.27241012 0.22697604 0.67708892
-0.23658921 0.22759131 0.67706013
-0.23383242 0.22596313 0.67906672
-0.27144849 0.23131233 0.67695832
-0.2697511 0.23356211 0.67621666
-0.2376494 0.23204884 0.67752451
-0.2708405 0.23697418 0.67882514
-0.26887551 0.23743777 0.67597771
-0.2409178 0.23776121 0.6757111
-0.23894665 0.23738174 0.67784011
-0.26783955 0.24308483 0.67720002
-0.24133132 0.24280585 0.67710912
-0.23862049 0.24229226 0.67965841
-0.2667737 0.24702343 0.67780674
-0.26462966 0.24831249 0.67551661
-0.24197128 0.24727829 0.67757618
-0.26605463 0.25188574 0.67897791
-0.26440051 0.2522637 0.67662221
-0.24329221 0.25251004 0.67784452
-0.26523775 0.25528139 0.67910016
-0.26275954 0.25740838 0.67714292
-0.24657044 0.25783542 0.67591667
-0.24370502 0.25739428 0.6787101
-0.262099 0.26213577 0.67815006
-0.25925276 0.26318499 0.67574447
-0.24704438 0.26233917 0.67705637
-0.24400559 0.26189515 0.67996675
-0.26076868 0.2670359 0.67865008
-0.25815785 0.26767084 0.67644674
-0.25082934 0.26877418 0.67513335
-0.2479919 0.26734006 0.67740661
-0.26018673 0.27028707 0.6789335
-0.25734833 0.27220643 0.67785007
-0.25260365 0.27238789 0.67654592
-0.24869004 0.27206725 0.67867512
-0.25606662 0.27657953 0.6789667
-0.25197917 0.27738541 0.67863345
-0.2552827 0.28064913 0.67970008
-0.25219217 0.28180426 0.67945248
-0.24212351 0.10902097 0.68186343
-0.23773456 0.10858857 0.68337417
-0.23239139 0.10839253 0.68214077
-0.22741473 0.10837923 0.68337923
-0.22260891 0.10843796 0.68318099
-0.21723205 0.10889734 0.68265826
-0.21177365 0.10909496 0.68231994
-0.20708641 0.1094411 0.6821208
-0.20351905 0.10966405 0.68219995
-0.28713456 0.11373404 0.68390483
-0.28291476 0.1130185 0.68140954
-0.23675475 0.11073042 0.68228889
-0.23413205 0.11059966 0.68148339
-0.20080021 0.11012097 0.68241662
-0.19841164 0.11043024 0.68433332
-0.18490864 0.11793441 0.68016624
-0.19133039 0.13308048 0.68235338
-0.18943635 0.1309319 0.68234998
-0.19555324 0.1379215 0.68133336
-0.1935766 0.13641578 0.68294173
-0.20004106 0.14382869 0.68066669
-0.19710469 0.14258426 0.68246192
-0.20038812 0.14770134 0.68110836
-0.19758686 0.1472939 0.68311113
-0.20097712 0.1525148 0.68197769
-0.19860011 0.15254919 0.6840167
-0.20505777 0.15825209 0.68043339
-0.2022101 0.1573163 0.6824615
-0.19906406 0.15732154 0.68460006
-0.2056305 0.16239588 0.68084764
-0.20317687 0.16248128 0.68322217
-0.2932834 0.1691059 0.68106663
-0.20678599 0.16757272 0.68178093
-0.20413226 0.16746199 0.68464452
-0.29299852 0.17266831 0.68270832
-0.21013579 0.17285168 0.6809333
-0.20778608 0.1723292 0.68294841
-0.29138303 0.17672972 0.68253332
-0.28941232 0.17843473 0.68061668
-0.21134976 0.17763408 0.68171215
-0.20831476 0.177055 0.68420011
-0.29022485 0.18327385 0.68458337
-0.28910953 0.18263888 0.68221664
-0.2156809 0.18293799 0.68097335
-0.21253045 0.18233316 0.68303609
-0.20922512 0.18020903 0.68496668
-0.28781927 0.18769358 0.68269998
-0.21627492 0.18785523 0.68190998
-0.21378586 0.18671994 0.68406671
-0.28576326 0.19183366 0.68125552
-0.22042602 0.1926498 0.68058002
-0.21738262 0.19244228 0.68273073
-0.2142362 0.19017711 0.68436658
-0.28633672 0.19517349 0.68413335
-0.28413403 0.1978278 0.68194002
-0.22161894 0.19772661 0.68116003
-0.21855421 0.19681828 0.68325561
-0.28509116 0.20026401 0.68423331
-0.28269541 0.20273218 0.68231994
-0.22216403 0.20252521 0.68241197
-0.21926877 0.20084777 0.68406671
-0.28168261 0.20809987 0.68295836
-0.27933878 0.20927075 0.68060011
-0.22605996 0.20802575 0.6811583
-0.22265247 0.2071597 0.68345147
-0.28089419 0.21295367 0.68434447
-0.27909476 0.21249354 0.68152219
-0.22715041 0.21274775 0.68199444
-0.22385632 0.21144366 0.68437338
-0.28009254 0.2155548 0.68456668
-0.27836853 0.21731289 0.68213338
-0.23028073 0.21817522 0.68088883
-0.22769591 0.21723749 0.6833424
-0.27713156 0.22214596 0.68225998
-0.23144075 0.22248584 0.68123698
-0.22896641 0.22214021 0.68405008
-0.27662593 0.22638336 0.68361998
-0.27443561 0.22839518 0.68132216
-0.23200214 0.22782379 0.68213052
-0.22946762 0.22700499 0.68473339
-0.27504641 0.2345807 0.68466675
-0.27351314 0.23284431 0.68144166
-0.23572078 0.23366058 0.68075556
-0.23254713 0.23227356 0.68315834
-0.27290741 0.23842604 0.68262661
-0.23648071 0.2378853 0.68123698
-0.23343343 0.23709413 0.68380004
-0.27132446 0.24233279 0.68224669
-0.23660946 0.24267356 0.68214333
-0.23448661 0.24206871 0.68435556
-0.27117372 0.24646105 0.68425006
-0.26907384 0.24791171 0.68128335
-0.24038321 0.2497348 0.68110001
-0.23727593 0.24749252 0.68285716
-0.26828042 0.25264257 0.68215239
-0.2408946 0.25303182 0.68115997
-0.23841403 0.25248069 0.68341666
-0.26713502 0.25758436 0.68282855
-0.2411187 0.25759351 0.68189573
-0.23921663 0.25728139 0.6837467
-0.26593065 0.26250416 0.68318331
-0.2638081 0.26296625 0.68056661
-0.24529122 0.2644881 0.68016666
-0.24210364 0.2625452 0.68219995
-0.2395553 0.26233736 0.68440008
-0.26335219 0.26769039 0.68191659
-0.24539864 0.26856503 0.6809333
-0.24326375 0.26727995 0.68291521
-0.26201031 0.27255949 0.68238097
-0.25924653 0.27484789 0.68089986
-0.24637723 0.27292898 0.68150002
-0.24412462 0.27246687 0.68387777
-0.26120108 0.27673751 0.68323332
-0.25807953 0.27831906 0.68147141
-0.250328 0.27959746 0.68020004
-0.24739984 0.27735943 0.68207425
-0.24401769 0.27572185 0.68463326
-0.26112258 0.28144768 0.68470001
-0.25763503 0.28251904 0.68228489
-0.25219527 0.28337222 0.68053716
-0.24791822 0.28219742 0.68297946
-0.25676262 0.28732887 0.68272656
-0.2524043 0.28767809 0.6814611
-0.24859047 0.28720412 0.68366677
-0.25661626 0.29264024 0.68422222
-0.25263134 0.29246661 0.68297142
-0.24915585 0.29240605 0.68426669
-0.25607783 0.29796779 0.68483335
-0.25279316 0.29726359 0.68404526
-0.24907029 0.29742238 0.68454999
-0.23744187 0.10651973 0.68769169
-0.23274592 0.1066476 0.68793339
-0.22797626 0.10725778 0.68834162
-0.22247481 0.1074684 0.6880666
-0.21768983 0.10773015 0.6873042
-0.21244009 0.10722394 0.6874001
-0.20750073 0.10769502 0.68707919
-0.20213382 0.10884944 0.68691623
-0.1966107 0.11066075 0.68576199
-0.18791065 0.12902358 0.68900001
-0.18901813 0.13291633 0.68606675
-0.19175839 0.13756579 0.68711853
-0.18915652 0.13529687 0.68850005
-0.19530082 0.14477254 0.68513334
-0.19308895 0.14227982 0.68805933
-0.19576539 0.14828894 0.68576688
-0.19379432 0.14686736 0.68802232
-0.19619139 0.15238649 0.68660837
-0.19428217 0.15238746 0.68900007
-0.20039394 0.15878847 0.68546677
-0.19721264 0.15729359 0.68745649
-0.2008536 0.1625006 0.68597239
-0.19846289 0.16250223 0.68806672
-0.20166349 0.16758782 0.68704557
-0.1990677 0.166959 0.68910003
-0.20590356 0.17362995 0.68566674
-0.20324761 0.17234425 0.68795669
-0.29400244 0.17769422 0.68750006
-0.20635886 0.17781244 0.68671668
-0.2037257 0.17647393 0.68918008
-0.29242587 0.18184769 0.6875667
-0.2105273 0.18411702 0.68536663
-0.20792542 0.18256345 0.68732733
-0.20451748 0.18076888 0.68951672
-0.29104757 0.18753381 0.6886
-0.28919214 0.1892886 0.68573344
-0.21209532 0.18755855 0.68615156
-0.20866081 0.18727 0.6889714
-0.28878659 0.19277616 0.68686122
-0.21266118 0.19248852 0.68740773
-0.28724653 0.19792503 0.68710005
-0.21661538 0.19762726 0.68606257
-0.21337153 0.19747691 0.68873334
-0.28613025 0.20244433 0.68734455
-0.28415167 0.20455746 0.68589997
-0.2174367 0.20270738 0.68723857
-0.21472323 0.20182209 0.68955564
-0.28596652 0.20602016 0.6886667
-0.28423041 0.20834182 0.68792498
-0.22075278 0.2084512 0.686189
-0.2180171 0.20698531 0.68807006
-0.2829935 0.21348795 0.68810833
-0.22221899 0.21313293 0.68673712
-0.21948232 0.21201482 0.68869334
-0.28134751 0.21789519 0.68715334
-0.22580585 0.21853717 0.68597788
-0.22296649 0.21742038 0.6881333
-0.28121445 0.22095238 0.68823332
-0.27908677 0.22296813 0.68595022
-0.22696765 0.22281292 0.68645006
-0.22405747 0.2223336 0.68889582
-0.27858829 0.22786956 0.68734664
-0.22750878 0.22744934 0.68725389
-0.22494343 0.22738183 0.6897167
-0.27724594 0.23272893 0.68774766
-0.23081262 0.23419796 0.68540013
-0.22815424 0.23238131 0.6875239
-0.27592045 0.23752999 0.68770838
-0.23165567 0.23811674 0.68610013
-0.22904179 0.2375522 0.68838143
-0.27595955 0.24139601 0.68966669
-0.2738671 0.24360307 0.68690014
-0.23202243 0.24262466 0.68721431
-0.22935797 0.24381149 0.68928337
-0.27299607 0.2479578 0.68735331
-0.23312429 0.2476179 0.68760002
-0.27172101 0.25227332 0.68733335
-0.23622189 0.25232682 0.68557501
-0.23358414 0.25249386 0.68830913
-0.27086958 0.25668654 0.68791664
-0.26889986 0.25904316 0.6857335
-0.23693503 0.25763446 0.68671
-0.23409817 0.25611949 0.68895829
-0.27088082 0.26057941 0.68980008
-0.26845482 0.2626335 0.68682784
-0.23706678 0.26208729 0.68783593
-0.26753712 0.26760653 0.68764448
-0.24101278 0.26796457 0.68584448
-0.23841971 0.26717424 0.68789452
-0.26601881 0.27208453 0.68744171
-0.26446036 0.27299529 0.68573344
-0.24163204 0.27261412 0.68669349
-0.2386975 0.27228445 0.68898094
-0.2655445 0.2766073 0.68841106
-0.26354274 0.27810511 0.68708009
-0.24210446 0.27774239 0.68733341
-0.23898613 0.27716464 0.68980014
-0.26260722 0.28251877 0.68731117
-0.25992039 0.28414583 0.68510002
-0.24602206 0.28299594 0.68538344
-0.24250153 0.28252465 0.68809587
-0.26174778 0.28723308 0.68756253
-0.25930011 0.2879822 0.68518341
-0.24602613 0.28744641 0.68655419
-0.24309972 0.28740683 0.68849695
-0.26109233 0.29253232 0.68843329
-0.25880796 0.29279917 0.68607509
-0.24653837 0.29249868 0.68666446
-0.24354219 0.29230711 0.68890554
-0.25755689 0.29742646 0.68618149
-0.23698908 0.1043222 0.69422227
-0.23252612 0.1043627 0.69449168
-0.2152155 0.10440901 0.69479996
-0.21328801 0.10440902 0.69479996
-0.23719996 0.10508682 0.69080842
-0.23179775 0.10546067 0.69158679
-0.22711305 0.10591032 0.69202089
-0.22230658 0.10587548 0.6923905
-0.21785173 0.10595773 0.69173348
-0.21338189 0.10546662 0.69162673
-0.19060801 0.13972993 0.69153339
-0.18934135 0.13785547 0.69174999
-0.19116667 0.1429662 0.69234675
-0.18946868 0.14151074 0.69398898
-0.19176339 0.14753744 0.69217092
-0.19284743 0.15232489 0.69230956
-0.19564465 0.15991583 0.69033343
-0.19362605 0.15725128 0.69306189
-0.19621161 0.16266945 0.69118011
-0.19458282 0.161974 0.69367784
-0.19692707 0.16753989 0.69252586
-0.20080809 0.172876 0.69110012
-0.19878422 0.17240494 0.69262969
-0.20215937 0.1778165 0.69209272
-0.19974491 0.17747752 0.69410008
-0.29594761 0.18315703 0.69373024
-0.29411954 0.18374446 0.69111669
-0.20587637 0.18359351 0.69055009
-0.20319307 0.18264073 0.69258893
-0.29343745 0.1869811 0.69245011
-0.20650497 0.18797173 0.69155246
-0.20398998 0.18720479 0.69367784
-0.29219502 0.1918326 0.69263339
-0.21098357 0.19444504 0.69053346
-0.2080662 0.1925208 0.69208974
-0.204879 0.19159548 0.69408894
-0.29087496 0.19690214 0.6924417
-0.28885913 0.19887212 0.69038332
-0.21125062 0.19780424 0.69066668
-0.20879689 0.19704889 0.69320375
-0.29098174 0.2013568 0.69455004
-0.28855047 0.20318285 0.69202507
-0.21216556 0.20281999 0.6918723
-0.20922701 0.20181096 0.69389999
-0.28758281 0.20781195 0.69252229
-0.216475 0.20901674 0.69120842
-0.2129976 0.2072446 0.69325393
-0.28611404 0.2123379 0.69265556
-0.21654865 0.21255337 0.69223595
-0.21326488 0.21163309 0.69455004
-0.28575546 0.21598914 0.6941002
-0.28397447 0.21774937 0.69153333
-0.22117324 0.21862626 0.69026673
-0.21772465 0.21750061 0.69266081
-0.28311235 0.22287211 0.69236004
-0.22132942 0.22271603 0.69179392
-0.21757194 0.22181879 0.69426674
-0.28206256 0.22729327 0.6926834
-0.22505751 0.22772764 0.69076669
-0.2220147 0.22757299 0.69223821
-0.21904629 0.22640741 0.69455552
-0.28028804 0.23272571 0.69233346
-0.27991796 0.23014945 0.69036669
-0.22535768 0.23221099 0.69118011
-0.22264451 0.23217246 0.69335997
-0.21909049 0.2304087 0.69499993
-0.28075218 0.23548251 0.69480002
-0.2784459 0.23788503 0.69206673
-0.22628227 0.23766173 0.69158524
-0.22359374 0.2372077 0.69383329
-0.27786309 0.24236828 0.69306111
-0.22687605 0.24261822 0.69237626
-0.22415555 0.24108545 0.69428337
-0.27635667 0.24854106 0.69359171
-0.27481663 0.24803711 0.6904
-0.23040608 0.24786124 0.69062012
-0.22756514 0.24730551 0.69264352
-0.27533287 0.25291076 0.6932556
-0.2735576 0.25382018 0.69050002
-0.23088148 0.25266349 0.6914112
-0.22854343 0.2523036 0.69334996
-0.27335635 0.25791451 0.69223344
-0.23208025 0.25796372 0.69200003
-0.22928329 0.25775203 0.69420838
-0.27251166 0.2622135 0.69300008
-0.23524724 0.26404345 0.69051671
-0.23259419 0.26246083 0.69262433
-0.2710894 0.26748532 0.69281673
-0.26901883 0.26771262 0.69009995
-0.23617059 0.26831329 0.69110006
-0.23319948 0.26743522 0.69368333
-0.27022728 0.27347776 0.69338894
-0.26859728 0.27267632 0.69136012
-0.2363371 0.27265131 0.69129634
-0.23348784 0.27254018 0.69394338
-0.2704488 0.27655056 0.69466668
-0.2682128 0.27774885 0.69285005
-0.23713052 0.2775006 0.69196397
-0.23403704 0.27737626 0.6945889
-0.26676145 0.28241155 0.69238573
-0.26468721 0.28336394 0.69091666
-0.24033606 0.28377643 0.69036669
-0.23745704 0.28227311 0.69252676
-0.26656938 0.28767294 0.69298679
-0.26477435 0.28741604 0.69144171
-0.24067703 0.28767633 0.6905334
-0.23775175 0.28722695 0.69324362
-0.26589602 0.29252928 0.69356012
-0.26370549 0.29254043 0.69116008
-0.24126709 0.2925458 0.69097412
-0.23797056 0.292622 0.69340771
-0.23696378 0.10308901 0.69747216
-0.2326349 0.10300524 0.6977334
-0.22772032 0.10351763 0.69746941
-0.22258681 0.10355432 0.69771665
-0.21788403 0.10363223 0.69727409
-0.21181343 0.10395337 0.69749445
-0.2090103 0.10479973 0.69740015
-0.1896987 0.14491637 0.69803345
-0.19081551 0.14944254 0.69506663
-0.18964562 0.1479461 0.6971001
-0.19120982 0.15292884 0.69630837
-0.18973976 0.15282111 0.69875556
-0.19182944 0.15753692 0.69771117
-0.19305594 0.16287535 0.69754171
-0.19595319 0.16999473 0.69499999
-0.19421656 0.16751111 0.69804448
-0.19656865 0.17320117 0.69651997
-0.19489381 0.1715011 0.69851667
-0.19740921 0.17770991 0.69753325
-0.20148006 0.18307796 0.6958667
-0.1988717 0.18181373 0.69737148
-0.2950753 0.18882322 0.69569993
-0.20153858 0.18751842 0.69755012
-0.19886845 0.18673567 0.69993341
-0.29547846 0.19128324 0.6976335
-0.29399183 0.19295529 0.69668329
-0.20267497 0.19254164 0.69752502
-0.29324621 0.19718923 0.69723171
-0.20616186 0.19777575 0.69607496
-0.20320359 0.19763573 0.69858569
-0.29258925 0.20220333 0.69822222
-0.2898078 0.20473005 0.69509995
-0.20653267 0.20249255 0.69735557
-0.20398822 0.20205207 0.69917792
-0.29099649 0.20752314 0.69844002
-0.21013781 0.20742746 0.69552213
-0.2074302 0.20746553 0.69781393
-0.28891635 0.21176021 0.69707775
-0.21139476 0.21266401 0.69666338
-0.20846511 0.21222162 0.69860005
-0.28742713 0.21743985 0.69699049
-0.2152593 0.21763812 0.6952666
-0.2124823 0.21738376 0.69709998
-0.20919742 0.21641035 0.69961125
-0.28692466 0.22217956 0.69842505
-0.2846913 0.2240569 0.69523323
-0.21607941 0.22346273 0.6957866
-0.2130838 0.22270279 0.69824338
-0.28536075 0.2277561 0.69868892
-0.28351417 0.22938697 0.69579989
-0.21699798 0.22773266 0.69664454
-0.21337761 0.22731978 0.69933754
-0.2830781 0.23296732 0.69688326
-0.22107962 0.23382361 0.69560003
-0.21741773 0.23258089 0.6976611
-0.28232732 0.23748684 0.69767326
-0.22161126 0.23752642 0.69608337
-0.21792753 0.23738275 0.69867271
-0.28137118 0.2417621 0.69808888
-0.27905354 0.24426791 0.6960333
-0.22215155 0.2425348 0.69688714
-0.21925308 0.24293694 0.69924009
-0.28024361 0.24788368 0.69896674
-0.27903044 0.24741754 0.69764996
-0.22558028 0.24861097 0.69557768
-0.22259125 0.24746332 0.69778335
-0.27766469 0.25242561 0.69723338
-0.22622445 0.25247434 0.69558883
-0.22316033 0.2521202 0.69817275
-0.27659327 0.25750372 0.69736671
-0.22686651 0.25754359 0.6966455
-0.22374621 0.25725979 0.69910473
-0.27626294 0.26189113 0.69840002
-0.2746402 0.26377344 0.69654989
-0.23067845 0.26324946 0.69516671
-0.22773302 0.26256377 0.69715381
-0.22472343 0.26169381 0.69960004
-0.27399999 0.26756853 0.6970858
-0.23075873 0.26737285 0.6958583
-0.22773622 0.26738343 0.69801557
-0.27503088 0.27041566 0.69873339
-0.27273828 0.27278474 0.69723803
-0.23144627 0.27245465 0.69623882
-0.22878772 0.27220765 0.69835836
-0.27200514 0.27808037 0.69743341
-0.23216861 0.27770329 0.6969167
-0.22956568 0.27747917 0.69894671
-0.27166551 0.28259298 0.69795561
-0.26935849 0.28214964 0.69580001
-0.23281363 0.28260538 0.69692701
-0.22962801 0.28261209 0.69949341
-0.2710788 0.28768378 0.6983
-0.26891676 0.28755993 0.69643801
-0.23587069 0.28913027 0.69556653
-0.23283705 0.2875177 0.69753844
-0.22990415 0.28758988 0.69964439
-0.26888019 0.29284814 0.69676244
-0.23586109 0.29231396 0.69548887
-0.21638532 0.10265487 0.70036674
-0.21255964 0.10275382 0.70104164
-0.18797106 0.14312483 0.70190001
-0.18817326 0.14703563 0.70322669
-0.18810749 0.15080142 0.70441663
-0.19119719 0.15992297 0.70156658
-0.18988889 0.15728606 0.70137787
-0.19076666 0.16261488 0.70310676
-0.18997547 0.1602269 0.70289993
-0.19203347 0.16716312 0.70255333
-0.19351421 0.17243758 0.70233327
-0.1950818 0.17740932 0.70144165
-0.19353175 0.17619061 0.70435554
-0.19638401 0.18283932 0.70154071
-0.20019165 0.18943296 0.70033342
-0.19748087 0.1873972 0.70241666
-0.29597893 0.19388336 0.70003343
-0.20052731 0.19336489 0.70050007
-0.19780533 0.19220211 0.70335668
-0.29669023 0.19808251 0.70344448
-0.29493222 0.19810659 0.70123333
-0.20091791 0.19751139 0.70142221
-0.19887559 0.19713096 0.70376664
-0.29612005 0.20079154 0.70382613
-0.293542 0.20381016 0.70077783
-0.20152542 0.20253539 0.70248485
-0.29345828 0.20733391 0.70247775
-0.20536217 0.20817488 0.70020008
-0.20319343 0.20725945 0.70236337
-0.29197454 0.21279915 0.70263886
-0.20599417 0.21263097 0.70116663
-0.20397273 0.21199076 0.7031917
-0.29147723 0.21628129 0.70339996
-0.2896781 0.21810515 0.70090008
-0.2105509 0.21921371 0.70030004
-0.2071591 0.21763434 0.7020424
-0.20439662 0.21726163 0.70446676
-0.28842783 0.22401306 0.70113337
-0.21058406 0.22257443 0.70068341
-0.20767257 0.22222503 0.70289481
-0.28766447 0.22727737 0.70220006
