# .PCD v0.7 - Point Cloud Data file format
VERSION 0.7
FIELDS x y z
SIZE 4 4 4
TYPE F F F
COUNT 1 1 1
WIDTH 999
HEIGHT 1
VIEWPOINT 0 0 0 1 0 0 0
POINTS 999
DATA ascii
0.028911576 0.059487678 0.81980014
0.032703783 0.059432864 0.81904459
0.037290189 0.058677021 0.81913352
0.041573629 0.058837105 0.81924009
0.028891558 0.062494323 0.81923348
0.032660078 0.062398698 0.81797791
0.037175793 0.06229439 0.81661487
0.042362347 0.062524229 0.81781214
0.03268959 0.067023769 0.81871116
0.037351679 0.067198619 0.81713331
0.041646473 0.067241177 0.81765336
0.033723086 0.070607685 0.81906682
0.037270516 0.071337163 0.81868905
0.041561868 0.071314536 0.81901348
0.039036203 0.053643879 0.82373339
0.041385926 0.053702477 0.82463348
0.022583423 0.058479141 0.82401907
0.027474424 0.057390299 0.82254988
0.032816414 0.056577906 0.82186657
0.037416261 0.055817727 0.82191092
0.042224057 0.056131117 0.82170469
0.046111755 0.058009397 0.82318336
0.022577258 0.062624522 0.82380962
0.025903918 0.062659614 0.82139969
0.044991124 0.061047383 0.8202666
0.04729208 0.062476911 0.82302666
0.023676643 0.067444436 0.82384449
0.027432347 0.067238964 0.82133871
0.044980157 0.065608948 0.82006657
0.045855917 0.067677349 0.82203329
0.027483687 0.071958803 0.82289433
0.032443538 0.073155537 0.82105166
0.037062574 0.074223116 0.82085311
0.04247551 0.07382226 0.82092196
0.045099612 0.071902357 0.82224435
0.02829116 0.075122446 0.82402223
0.033286605 0.077038363 0.82401669
0.037481319 0.077357426 0.82333332
0.041880079 0.077705808 0.82354289
0.045159344 0.07505966 0.82333332
0.0099155363 0.054017261 0.82946694
0.013393503 0.053620536 0.82930034
0.017633274 0.053195421 0.8286891
0.022257565 0.05316424 0.82821113
0.027326485 0.053262942 0.8280381
0.033065524 0.052827366 0.82811439
0.037468933 0.05214259 0.82729173
0.042517453 0.05190406 0.82742864
0.046781994 0.05258929 0.82825845
0.0089805294 0.057680339 0.82889348
0.013132187 0.057274438 0.82749999
0.017582798 0.057653442 0.82631665
0.021589464 0.056266971 0.82626665
0.026047247 0.055323545 0.8259334
0.048008479 0.05648753 0.82611662
0.0089787515 0.061062086 0.8287468
0.01284438 0.062598728 0.82792127
0.017585017 0.063043647 0.82642221
0.020643424 0.063735381 0.82543349
0.048355367 0.06450545 0.82546669
0.014035095 0.066848464 0.82913369
0.017619621 0.067789897 0.82806665
0.021426605 0.067618661 0.82597786
0.046823423 0.06758742 0.82560003
0.018674394 0.071477331 0.82915586
0.022227628 0.072331026 0.82714808
0.047274798 0.072680295 0.8267386
0.023023285 0.075485095 0.82800007
0.027637884 0.077360727 0.82745838
0.032985736 0.078896947 0.82608891
0.037586138 0.079877943 0.82564455
0.042990189 0.079902656 0.82590008
0.046919752 0.076956354 0.82726252
0.028476844 0.08024127 0.82940024
0.032796487 0.082247429 0.82840627
0.037671752 0.083138146 0.82751107
0.042322244 0.083177052 0.82789636
0.045842022 0.081334144 0.82873344
0.034655835 0.086391784 0.82920033
0.037748177 0.087162018 0.82918924
0.040838443 0.087156199 0.82913363
0.02711034 0.04971515 0.83495528
0.032542408 0.049689017 0.83451647
0.038221426 0.048963726 0.83275998
0.042764358 0.048444055 0.83220953
0.047259744 0.04884002 0.83328885
-0.0014383378 0.053855538 0.8349331
0.0021909238 0.053510081 0.8335889
0.0074719051 0.05269891 0.83303994
0.012736048 0.051694386 0.83182669
0.017691048 0.051050037 0.83139992
0.022352537 0.05106914 0.83171105
0.027017303 0.051092342 0.83208889
0.031664126 0.051465023 0.83186668
0.048648242 0.050992716 0.83046663
0.051947437 0.052740727 0.8336888
-0.00169791 0.057481032 0.83495539
0.0021882148 0.057323575 0.83267415
0.0066109435 0.056753762 0.83080947
0.051696371 0.057135969 0.83275843
-0.00091931585 0.061367273 0.83499974
0.002190416 0.062036727 0.83354807
0.0070294235 0.062645458 0.83135003
0.050394535 0.061274853 0.83373332
0.0032332467 0.065764695 0.83495528
0.0076326863 0.067090079 0.83372211
0.012520857 0.068570927 0.83131117
0.048784941 0.068178035 0.83279997
0.013843128 0.072853431 0.83312225
0.017166751 0.073186554 0.83104444
0.048756458 0.072007231 0.8323139
0.013868462 0.076089814 0.83463323
0.018042851 0.076591186 0.83331996
0.022146864 0.077876553 0.83238095
0.025419874 0.078812286 0.83060008
0.048683394 0.078856573 0.83106679
0.050464004 0.076112524 0.83488238
0.02336074 0.081978932 0.83451986
0.026825299 0.082252793 0.83218342
0.030583471 0.083447792 0.83060002
0.047992583 0.082088783 0.83249998
0.027264975 0.086673692 0.83375835
0.032245222 0.087985598 0.83233339
0.0378142 0.089632608 0.83064443
0.042905245 0.088308737 0.83064759
0.04598365 0.087066367 0.8326934
0.028148493 0.090615571 0.83495528
0.032814898 0.092327528 0.83482939
0.037886236 0.09290164 0.83223701
0.042520117 0.092849351 0.83177036
0.045744415 0.093098439 0.83399993
0.037983604 0.097796448 0.83437765
0.042198338 0.097550772 0.8341713
0.038789876 0.10097141 0.83496642
0.041127395 0.10097544 0.83499974
-0.010287611 0.049836896 0.83700001
-0.0071804351 0.049942404 0.83877206
-0.0032691061 0.049926199 0.83850014
0.0072916308 0.049570449 0.83908343
0.012614148 0.048826769 0.83750373
0.017807661 0.049048826 0.83685559
0.022721078 0.0487318 0.83715236
0.02720616 0.047552288 0.83791119
0.032328673 0.047646433 0.83760959
0.037613463 0.046758931 0.83766657
0.04247009 0.045782473 0.83690673
0.047451872 0.045925777 0.83667779
0.051957387 0.048748683 0.83742851
0.056995865 0.049195994 0.83935553
0.060101356 0.049955979 0.83900005
-0.011239968 0.052405737 0.83823395
-0.0071701608 0.052979726 0.83745933
-0.0029988482 0.052357107 0.83581108
0.0021961567 0.051290181 0.83531094
0.0068676597 0.051275171 0.83506638
0.057165492 0.052810371 0.83723956
0.06005872 0.053819768 0.83840477
-0.01031001 0.057747513 0.83882231
-0.0071687656 0.057642382 0.83729625
-0.0040356037 0.057508718 0.83535528
0.05359422 0.059046783 0.83513314
0.056721739 0.057509333 0.83818334
0.060096055 0.056193832 0.83892596
-0.010314654 0.060895406 0.83920014
-0.0071769846 0.062385336 0.83823717
-0.0029270926 0.062469173 0.8363809
0.05261768 0.06253694 0.8372761
0.055446755 0.060924433 0.83960015
-0.0071850433 0.065582089 0.8392446
-0.0022904552 0.066826396 0.83770835
0.0016779058 0.067399092 0.83595538
0.0076480731 0.06993252 0.83526647
0.051458478 0.06707532 0.83838892
-0.0009245266 0.07030651 0.83973342
0.0023989163 0.071556963 0.8383584
0.0072731706 0.072809339 0.83706659
0.011159636 0.07347472 0.83578312
0.051472306 0.072551496 0.83861291
0.0037747116 0.075010553 0.83993334
0.0076800529 0.076469682 0.83880007
0.012042562 0.078234375 0.83763999
0.01739246 0.078906156 0.83568311
0.051368132 0.07707309 0.83690006
0.013778055 0.082069442 0.83861339
0.017817065 0.082568169 0.83734077
0.021297351 0.08282432 0.83599985
0.048988033 0.084016815 0.8362667
0.050757192 0.082803048 0.83973348
0.019028205 0.087030284 0.83906674
0.022487992 0.087188311 0.83683699
0.025556577 0.088556424 0.83506638
0.048384484 0.087473601 0.83659995
0.02346316 0.091694571 0.83818674
0.026937002 0.092707925 0.83647603
0.031444088 0.094524741 0.83633322
0.048257094 0.091886558 0.83710003
0.02723117 0.095960893 0.83868331
0.032866303 0.098004885 0.8373636
0.044257846 0.098681152 0.83529985
0.046560571 0.097224757 0.83747995
0.034238599 0.10133013 0.83793342
0.037527867 0.10319433 0.83724159
0.04280743 0.10282288 0.83739042
0.046567619 0.10151818 0.83948898
0.0392441 0.10667845 0.8391335
0.04186384 0.10670682 0.83935565
0.023492912 0.044018835 0.84486663
0.027784701 0.043559942 0.84360015
0.032494299 0.043545119 0.84331679
0.037279941 0.043279313 0.84360015
0.042916052 0.042763405 0.84338325
0.047598559 0.042534098 0.84274077
0.052302103 0.043368012 0.8444401
0.057357654 0.043616317 0.84468329
-0.0056298599 0.048497822 0.84077781
-0.0021041452 0.048198335 0.84239602
0.0022171831 0.047082361 0.84346676
0.0067300024 0.046818148 0.84224164
0.012088413 0.046119321 0.84224761
0.017920023 0.046226114 0.84215552
0.022306679 0.046045072 0.84170675
0.027300328 0.045372199 0.84082204
0.032000471 0.045365006 0.84068871
0.036717493 0.045381796 0.84099978
0.052766837 0.046050586 0.84180003
0.057232957 0.04626463 0.84284431
0.060426101 0.047086641 0.84353334
-0.012707623 0.054055743 0.84208339
-0.000924967 0.050023451 0.84013343
0.0022093621 0.050041977 0.84044433
-0.012703806 0.057959512 0.84190154
0.058694743 0.059480447 0.84126651
0.060924154 0.058569331 0.84316152
-0.012119953 0.062875114 0.84219724
0.05734726 0.062834069 0.84163332
0.060499527 0.062069722 0.84455854
-0.010991653 0.067139216 0.84309912
-0.0072049643 0.068108939 0.84152466
-0.0040593306 0.068788104 0.84026653
0.053949337 0.067257494 0.84066677
0.057074755 0.067280978 0.84340841
-0.0070278374 0.072020277 0.84379661
-0.0026950447 0.072273903 0.84217501
0.00064224855 0.073506422 0.84059989
0.054027479 0.072053522 0.84188437
0.056557871 0.070705593 0.84450001
-0.0064452076 0.075451143 0.84486657
-0.0022798181 0.076522522 0.84429532
0.0020181078 0.076998837 0.8424418
0.0066956771 0.078730501 0.84151429
0.052884482 0.077579319 0.84240258
0.0026132318 0.080517836 0.84443337
0.007132221 0.082969241 0.84340018
0.01140143 0.083406873 0.84131426
0.050859824 0.082969502 0.84143102
0.0085229315 0.087228149 0.84476662
0.012436792 0.087848417 0.84317237
0.016957138 0.087948814 0.84113324
0.051515304 0.088025071 0.84186667
0.014034105 0.091138512 0.84459996
0.018136984 0.092352644 0.8431251
0.021440113 0.092772722 0.84159994
0.051315121 0.092081368 0.84245008
0.019556841 0.09589722 0.84499991
0.023192557 0.096774943 0.84351104
0.026934106 0.098257065 0.84165001
0.048785415 0.097091116 0.84172636
0.027915321 0.10149454 0.84361118
0.031510722 0.10229511 0.84158891
0.035146236 0.10482151 0.84093314
0.044531606 0.10476335 0.84046656
0.04720908 0.10334174 0.84162211
0.032583531 0.10657682 0.84420955
0.037162941 0.10831305 0.84223342
0.043527316 0.10851205 0.84124428
0.04714879 0.1077944 0.84320962
0.037650362 0.11113927 0.84436667
0.04262802 0.11290203 0.84416318
0.047113709 0.11156306 0.84460008
0.053697288 0.034761995 0.84908867
0.056732595 0.034681037 0.84711123
0.03707597 0.039506625 0.84922242
0.042573042 0.039464496 0.84831697
0.048494156 0.039057728 0.84806681
0.05304262 0.038073286 0.84810841
0.057300583 0.03801325 0.84675646
-0.00093463354 0.044229653 0.84891319
0.0024545623 0.043042373 0.84778023
0.0071922033 0.043003198 0.8470096
0.012500913 0.042572502 0.84741116
0.01803514 0.04277721 0.84755838
0.022553561 0.042132694 0.84760964
0.027189726 0.041614678 0.84713346
0.031912219 0.041590888 0.84665334
0.036977384 0.040976655 0.8469556
0.041666087 0.040928282 0.84595555
0.049534775 0.04091109 0.84559989
0.053121626 0.04133404 0.84621656
0.057417668 0.041538619 0.84557331
-0.005671524 0.047281154 0.84700006
-0.0028260264 0.046300732 0.8463732
-0.015113746 0.057386618 0.84500003
0.062180597 0.059815116 0.84600008
0.061606284 0.062912323 0.8453334
0.059089396 0.069333024 0.84692323
0.060631454 0.066929057 0.84640002
-0.010800634 0.072845809 0.84653342
-0.0088109504 0.07389912 0.84509093
0.057479113 0.072704189 0.84644169
-0.0072466843 0.077425577 0.84639782
-0.0032970142 0.078668788 0.84566653
0.054441333 0.078916855 0.84833336
0.055974655 0.076483458 0.84759414
-0.0060779164 0.081702128 0.84856939
-0.0025152627 0.082006603 0.84762973
0.001907368 0.08277218 0.84579992
0.0053738421 0.084900901 0.84506649
0.053420745 0.081645608 0.8471781
-0.00093516969 0.085336275 0.84940034
0.0024264117 0.08658956 0.84812516
0.0066999197 0.08821708 0.8467111
0.052711949 0.085777938 0.84597027
0.0038196519 0.090132982 0.84993356
0.0073743514 0.091575503 0.84865022
0.012168927 0.093226612 0.84643328
0.016411435 0.094362594 0.84533316
0.05270341 0.09363237 0.84583342
0.013833568 0.097334892 0.84838915
0.01782901 0.097919978 0.84719181
0.021677351 0.098605335 0.84575558
0.049507435 0.099056609 0.84513336
0.052105498 0.097924709 0.848939
0.01911553 0.10158388 0.8487336
0.022778112 0.10250495 0.84763718
0.026406338 0.10331428 0.84566659
0.049558386 0.10230726 0.84600306
0.023603464 0.10659816 0.84885037
0.027523845 0.10724648 0.84772611
0.030623384 0.10781012 0.84596658
0.049700741 0.10733577 0.84843349
0.027890796 0.11122987 0.84925354
0.032276675 0.11200882 0.84796315
0.036946345 0.11335725 0.84626663
0.04241775 0.11478679 0.84519982
0.046926245 0.11384049 0.84595555
0.036822312 0.11693645 0.84795845
0.042261526 0.11795224 0.84636956
0.047325686 0.11680152 0.84840846
0.038650155 0.12083048 0.84900022
0.042592138 0.12275734 0.84866762
0.047909558 0.033643492 0.85413343
0.051558502 0.033334874 0.85300606
0.0030393209 0.039705623 0.85350001
0.007017382 0.039694179 0.85325408
0.012579 0.039669573 0.85272509
0.017902503 0.038926363 0.8538335
0.022939133 0.038914245 0.85357231
0.027678067 0.03886288 0.85245007
0.032413874 0.038823098 0.85157222
0.037532326 0.037431743 0.85236675
0.042000294 0.037288602 0.85272223
0.047179941 0.037140373 0.85190952
0.051401954 0.036397584 0.85040009
-0.0018907664 0.042474769 0.85174417
0.0014435929 0.041169316 0.85093749
0.0062032635 0.041156217 0.85066676
0.018092971 0.041136865 0.85026658
-0.012046811 0.069666773 0.85100001
-0.012046811 0.071249798 0.85100001
0.059350591 0.074386694 0.8506667
-0.010496559 0.079443999 0.85400003
-0.0088725602 0.079164915 0.85100001
0.056166563 0.079118393 0.85050005
-0.010491438 0.08258044 0.85358334
-0.0082499981 0.082764633 0.85219783
0.054612476 0.083914012 0.85099995
0.056209967 0.082347564 0.85115719
-0.0071020429 0.087051973 0.85265678
-0.0027231644 0.087286785 0.85107911
0.00065019465 0.088663079 0.85099989
0.054603923 0.0870656 0.85086662
0.056398436 0.087388225 0.85401124
-0.0063536675 0.091812328 0.85378444
-0.0023341847 0.091965377 0.85410005
0.0020410395 0.092157528 0.8521958
0.0066000293 0.093386747 0.85076672
0.054720145 0.092011847 0.85267788
-0.005718396 0.096124351 0.85400003
-0.0041283113 0.096980549 0.85454553
0.0024444966 0.096742995 0.85420012
0.0068111168 0.096947044 0.85249579
0.011228043 0.098666079 0.85079998
0.054842427 0.097779661 0.85458344
-0.0025329548 0.10327306 0.85400003
0.0038412234 0.10018183 0.85473359
0.0075546876 0.10116433 0.85407788
0.012797101 0.10299616 0.85289091
0.017584486 0.10347122 0.85126662
0.052276563 0.10299919 0.85172147
0.01499282 0.10649183 0.85433346
0.018355841 0.10775433 0.85331255
0.022224117 0.10824015 0.85058671
0.052218936 0.10764214 0.85337341
0.019239472 0.11177748 0.85424453
0.022891106 0.11251739 0.85181475
0.027229071 0.11357351 0.85083324
0.049823739 0.1115559 0.85053349
0.051637676 0.11204965 0.85430002
0.023909941 0.11727127 0.85413343
0.027695324 0.11743471 0.85300368
0.032387275 0.11713963 0.85086662
0.048250724 0.11870797 0.85076672
0.050069772 0.11608149 0.85473353
0.028804116 0.12133432 0.8544001
0.032483146 0.12225176 0.85340369
0.036691148 0.12210289 0.8507905
0.047164042 0.12244469 0.85159349
0.033572096 0.12605613 0.85408896
0.037443593 0.12677059 0.85309589
0.041966379 0.12760366 0.85203886
0.04617567 0.12733829 0.85345334
0.038914196 0.13040136 0.85480016
0.042070929 0.13030304 0.8541556
0.046070557 0.13035052 0.8544668
0.041506726 0.028775351 0.85897619
0.038026776 0.032495596 0.85877794
0.042213753 0.031898994 0.85706681
0.046319012 0.03186303 0.85612011
0.050104935 0.031835485 0.85533339
0.0070589106 0.038337674 0.8584199
0.012165382 0.037644926 0.85722005
0.01779235 0.036475748 0.85759056
0.023059396 0.035925325 0.85804456
0.027865218 0.035931982 0.85820013
0.032622412 0.035883676 0.85704452
0.036985986 0.035454907 0.85630006
0.04214336 0.035029486 0.85562247
0.045305181 0.035006743 0.85506696
0.058157925 0.084453039 0.85646689
-0.010527287 0.086847603 0.85650003
-0.0089177387 0.089114547 0.85533339
0.058275651 0.086220369 0.85820001
-0.004131359 0.09387058 0.85517645
0.056680933 0.092616759 0.858289
-0.0020808498 0.096835479 0.85526896
0.00065345451 0.098653354 0.85526687
0.054873444 0.09544912 0.85506684
0.056774121 0.09756548 0.85970002
-0.0015811758 0.10165536 0.85642731
0.0020508915 0.10215116 0.85624182
0.0059724995 0.10293367 0.85557801
0.054956563 0.1019666 0.85636204
0.055009391 0.1020637 0.85718536
-0.00094353699 0.10523003 0.85700005
0.0024583542 0.10688014 0.85904604
0.0070553059 0.10694434 0.85795563
0.011607888 0.10722201 0.85653347
0.015550602 0.10933089 0.85582238
0.055175569 0.10637028 0.85977471
0.0070699058 0.11035778 0.859689
0.012097962 0.11139921 0.85890478
0.017034756 0.11339025 0.85692513
0.052472461 0.11294768 0.85750592
0.018272439 0.11731212 0.85875243
0.021818215 0.11830674 0.8564502
0.051176824 0.1183361 0.85724008
0.02359092 0.12237998 0.85801125
0.027281472 0.12324572 0.85663348
0.050904244 0.12291382 0.85802984
0.024713811 0.12638561 0.8599335
0.028076317 0.12758178 0.8585583
0.032057468 0.12795953 0.85618907
0.035750844 0.12890169 0.85540015
0.04850721 0.12729438 0.85528916
0.050240308 0.12764414 0.85764456
0.029520605 0.1311641 0.85980016
0.033051029 0.1312584 0.85780001
0.037452187 0.13245922 0.85781914
0.042194951 0.13308035 0.85668904
0.047212817 0.13272543 0.85660017
0.050678771 0.13213201 0.85829204
0.039108448 0.13584641 0.85906667
0.042483825 0.13715224 0.85848325
0.04687538 0.13711655 0.85825837
0.050360739 0.13674617 0.85970008
0.042352188 0.14077143 0.85986686
0.045559503 0.14077143 0.8598668
0.006299925 0.028943647 0.86400002
0.032843161 0.028102724 0.86285704
0.037593018 0.028205086 0.86108094
0.0038746297 0.031288698 0.8621667
0.0071085775 0.032170292 0.86430752
0.010337518 0.033795226 0.8647669
0.018359663 0.03372011 0.86284447
0.023176957 0.033061273 0.86243343
0.028229643 0.032553378 0.86234295
0.03279157 0.032063175 0.86148894
0.036504079 0.030964756 0.86062223
0.0033357535 0.03740593 0.86150002
0.0070958231 0.036130007 0.86292362
0.011507208 0.03568086 0.86175835
0.01591344 0.035252377 0.86106676
0.060936332 0.084183261 0.86186659
0.058427304 0.088845968 0.8604334
0.061789446 0.087461345 0.86256009
0.065084457 0.086762287 0.86359531
0.058572143 0.093077458 0.86256671
0.063510969 0.090027906 0.86410022
0.065152653 0.090069585 0.86450005
0.058688708 0.097282261 0.86428344
0.056888908 0.10257143 0.86143816
0.00065758027 0.10888228 0.86066675
0.056598336 0.10798866 0.86312068
0.0024646139 0.11193959 0.86108351
0.007080873 0.11293215 0.86102229
0.01108415 0.11361482 0.86013353
0.055483103 0.1109839 0.8645668
0.0033422585 0.11615491 0.86315507
0.0070947376 0.11716986 0.86274076
0.011907 0.11702475 0.86167401
0.016298709 0.11842406 0.86020011
0.05375874 0.11637132 0.86277032
0.012344386 0.12097973 0.86416686
0.017216666 0.12220822 0.86205673
0.022317931 0.12403928 0.86030018
0.051986232 0.12320538 0.86006665
0.019018885 0.12627515 0.86355352
0.02295357 0.12783486 0.86161673
0.02631964 0.12959486 0.86000019
0.05201745 0.12808166 0.86058331
0.023217773 0.13179916 0.86396015
0.027984517 0.13308647 0.86188573
0.032419436 0.13377509 0.86013353
0.035943106 0.13439418 0.86000019
0.052133705 0.13398381 0.86250669
0.028450523 0.13660368 0.86385846
0.032815937 0.1379372 0.86214072
0.037373871 0.13789725 0.86064178
0.04075484 0.13919352 0.86000019
0.048778173 0.13920429 0.86006677
0.051707871 0.13833007 0.86209929
0.033932719 0.14186354 0.86326677
0.037646841 0.1427761 0.86230737
0.042382918 0.14267635 0.86050016
0.047422577 0.14274696 0.86092496
0.051193882 0.14287582 0.86291331
0.039305709 0.14616819 0.8634001
0.042705424 0.14714393 0.86239052
0.047313657 0.14718099 0.86260492
0.051130611 0.14674909 0.86366677
0.0087386016 0.029015433 0.86614287
0.010361825 0.02903745 0.86680001
0.016860677 0.02909328 0.86846668
0.022533003 0.028289754 0.86860836
0.028144138 0.028232269 0.86684459
0.0038900592 0.033827797 0.86559999
0.0071196696 0.032224517 0.86577094
0.012177696 0.032050204 0.86652935
0.016599534 0.031803977 0.86690491
0.022207053 0.031173291 0.8664279
0.027310535 0.03062157 0.86600018
0.0038882617 0.035421602 0.86520004
0.062054548 0.092669524 0.86625004
0.065416418 0.092048891 0.86800003
0.058800753 0.09988375 0.86593348
0.061708324 0.096648552 0.8678689
0.058341384 0.10271034 0.86712617
0.060621493 0.10103178 0.86888248
0.05904974 0.10677718 0.86960012
0.05625369 0.11306262 0.86816996
0.003896351 0.11936022 0.86700004
0.053900518 0.11909115 0.86504555
0.055804633 0.11647981 0.86957705
0.0039053389 0.12286858 0.86900002
0.0071352464 0.12268558 0.86769378
0.011657793 0.12355947 0.86704004
0.053940896 0.12240148 0.86569363
0.055825189 0.1221863 0.86989743
0.0079618385 0.12617898 0.86953336
0.012238604 0.12724249 0.86890465
0.016597101 0.12786761 0.86688101
0.053984907 0.12733673 0.86640006
0.017100465 0.13209608 0.86893326
0.02105034 0.13299887 0.86758673
0.054096967 0.13244623 0.86819845
0.023804234 0.13711926 0.8685714
0.027095184 0.13829158 0.86772221
0.054075699 0.13562204 0.86785716
0.024989715 0.14073651 0.86953336
0.028434996 0.14174922 0.86865711
0.032557338 0.14337817 0.86595011
0.052306611 0.14328155 0.86536682
0.029863942 0.14563362 0.86980003
0.033061333 0.14677592 0.86857772
0.037538879 0.14778501 0.86722678
0.042672332 0.1498936 0.8663668
0.047469631 0.14973503 0.86545014
0.052300557 0.14809373 0.86526668
0.03876771 0.15041837 0.86940002
0.042560913 0.15239514 0.86881435
0.047583323 0.15251559 0.8675279
0.051503994 0.15149525 0.86815339
0.043272249 0.15661182 0.86915237
0.047454126 0.15658879 0.86886245
0.050907455 0.1552047 0.86903328
0.04446023 0.16018334 0.86973339
0.017712388 0.027543144 0.87053353
0.065642513 0.093987264 0.87100005
0.064026803 0.098051205 0.87111866
0.062741488 0.10180511 0.87133658
0.059159372 0.10859603 0.87121433
0.057652462 0.11369046 0.87299997
0.056971103 0.11784401 0.87251413
0.057053607 0.12222587 0.87212437
0.0069273338 0.12840167 0.87050027
0.011216972 0.12954792 0.87043345
0.055926174 0.12808205 0.87147075
0.0079906713 0.132319 0.87268585
0.012047024 0.13300061 0.87182975
0.016098041 0.13449807 0.87103355
0.056015749 0.13153379 0.87286657
0.013166803 0.13715197 0.87417769
0.016937479 0.13796999 0.87248886
0.020806046 0.13804317 0.87090695
0.054267377 0.13853304 0.87093341
0.018045291 0.14193095 0.87356645
0.021816116 0.1428179 0.87235922
0.026241012 0.14376247 0.87071687
0.054382306 0.14288634 0.87277776
0.023490297 0.14716446 0.87408322
0.027289711 0.14784428 0.87242419
0.032329276 0.14901796 0.87066686
0.029195219 0.15122867 0.87408316
0.033189509 0.15248342 0.87195563
0.037789159 0.15275528 0.87086678
0.033797111 0.15711352 0.87365538
0.038041893 0.15723914 0.87134832
0.041276108 0.15798627 0.87100029
0.049356665 0.15866265 0.87026685
0.051003139 0.15792607 0.87066686
0.038430948 0.1613979 0.87279987
0.0427306 0.16236924 0.8716917
0.047825295 0.16220924 0.8719185
0.051156431 0.16164969 0.87328333
0.04467833 0.16584654 0.87399989
0.047145292 0.16592243 0.87440002
0.059476174 0.10591898 0.87588012
0.061077688 0.10912039 0.87542111
0.059619892 0.11270978 0.87799644
0.062180862 0.11126187 0.87947619
0.059637487 0.11764102 0.87825561
0.06139252 0.11950393 0.87993312
0.059156496 0.12280184 0.87718338
0.061390191 0.12195449 0.87989974
0.058404341 0.12702437 0.87817508
0.05713027 0.13222487 0.87746674
0.0081926351 0.13670921 0.876894
0.011024796 0.13808827 0.87667793
0.056388687 0.13731259 0.87867779
0.0088730277 0.14152622 0.87946665
0.012132858 0.142121 0.87808156
0.016595904 0.14339513 0.87589175
0.056369789 0.14135225 0.8783834
0.012564859 0.1460475 0.87959981
0.016846005 0.14726312 0.87830842
0.021585472 0.14800631 0.87618005
0.05467087 0.14772582 0.87740892
0.017399175 0.15115808 0.87934655
0.021970198 0.15171674 0.87847227
0.026515838 0.15273464 0.87712681
0.030072227 0.15398158 0.87586665
0.052957382 0.15484291 0.87613326
0.027129082 0.15648642 0.87882382
0.031421874 0.1586014 0.87709343
0.032779176 0.16178346 0.87842
0.037302367 0.16411205 0.8768934
0.051329244 0.16464038 0.87623334
0.037732348 0.166851 0.87929326
0.042389587 0.1675541 0.87726122
0.048506878 0.16762228 0.87690842
0.051504984 0.16765803 0.87923324
0.042918697 0.17122409 0.87969971
0.047391366 0.17005911 0.87896663
0.043343827 0.17516993 0.87999976
0.063188635 0.11405196 0.8820774
0.063386336 0.11793496 0.8819679
0.066551611 0.11746448 0.88306254
0.063668005 0.12332885 0.88220656
0.066632211 0.12171862 0.88413215
0.059776306 0.12856027 0.88029981
0.062341686 0.12795183 0.88174438
0.06500297 0.12669115 0.88440019
0.058818907 0.13296467 0.88235551
0.060045667 0.13325168 0.88426673
0.0069756084 0.14323674 0.88160211
0.05745481 0.14446589 0.8824333
0.0074626743 0.14796498 0.88249254
0.011839645 0.14841591 0.88054645
0.056544118 0.14670709 0.88109994
0.0072716982 0.15173554 0.8841427
0.012433717 0.15226029 0.88274765
0.016712775 0.15384138 0.88206655
0.021191474 0.15391847 0.88016641
0.054954853 0.15095197 0.88196659
0.055113748 0.1538569 0.8845166
0.017569557 0.15661071 0.88380837
0.022056222 0.15751526 0.8819592
0.026124593 0.15888439 0.88046646
0.05320219 0.15801463 0.88018334
0.023778306 0.16131234 0.88480014
0.027549906 0.16195013 0.88228887
0.030792579 0.16333471 0.88091093
0.053293865 0.16238926 0.88169998
0.032417614 0.16723749 0.88255709
0.035703529 0.1681655 0.88046646
0.053420797 0.1660621 0.88379991
0.033675469 0.1711684 0.88470012
0.03733667 0.17207655 0.882119
0.041718721 0.17319266 0.88034981
0.048527949 0.17245424 0.88046169
0.051669013 0.17229332 0.88203335
0.038590472 0.1767693 0.88390011
0.041785691 0.17716214 0.88176662
0.047020394 0.17689207 0.88123667
0.051072456 0.17775583 0.8830868
0.042966116 0.18134482 0.8835001
0.047000393 0.18216947 0.88317508
0.050782871 0.18217173 0.8837868
0.066732787 0.12190256 0.88546669
0.066327617 0.12727046 0.88556677
0.062689982 0.13279049 0.88667488
0.066129036 0.13223015 0.88844329
0.0072793029 0.13996625 0.88512003
0.058595739 0.13783309 0.88728321
0.061424971 0.13661376 0.88829988
0.067071833 0.13576598 0.88996559
0.058519796 0.14177394 0.88613319
0.061541133 0.142444 0.88883811
0.065341078 0.14388721 0.88900006
0.0056431289 0.14693199 0.88741374
0.057927642 0.14826238 0.88549995
0.061960358 0.14703977 0.88806629
0.0068773343 0.1542156 0.88658553
0.01141174 0.15486281 0.88556671
0.05792271 0.15216225 0.8871066
0.062005837 0.1512823 0.88872594
0.065341078 0.15215577 0.88900006
0.00829391 0.15721449 0.88767976
0.012251876 0.15752366 0.88663322
0.017197445 0.15903202 0.88585013
0.056986604 0.15693553 0.88797611
0.0081387376 0.16039337 0.88882869
0.01251123 0.16147633 0.88828558
0.016998516 0.16232347 0.88775212
0.021837931 0.16259645 0.88641322
0.02599729 0.16417509 0.88544458
0.056158505 0.16024083 0.88798326
0.017817667 0.16654243 0.8892889
0.022204001 0.16682823 0.88787389
0.027359316 0.16770563 0.88627613
0.030415591 0.16892269 0.88586664
0.053714965 0.16862963 0.88866687
0.02306474 0.17119282 0.88909996
0.026981268 0.17209102 0.88839573
0.032103039 0.17296045 0.88685536
0.035374708 0.17387962 0.88593328
0.053649988 0.17255303 0.8875916
0.027636318 0.17581663 0.88948333
0.031949397 0.17703725 0.88834155
0.036781609 0.17814665 0.88666648
0.040289041 0.17945771 0.88500017
0.053636387 0.17746191 0.88736653
0.033290509 0.18084271 0.88911104
0.037117101 0.182016 0.88811094
0.041448034 0.18356179 0.88626653
0.045247458 0.18442437 0.8851335
0.05320359 0.18234541 0.88704157
0.037993886 0.18527856 0.88923329
0.042079676 0.18749644 0.88798326
0.046976823 0.18803412 0.88662207
0.052016187 0.18748511 0.88793314
0.042965971 0.19022679 0.88916671
0.047441088 0.19253244 0.88911998
0.05176596 0.19158883 0.8893466
0.063259929 0.13865867 0.89082241
0.066190735 0.13799304 0.89151251
0.063785747 0.14163475 0.89043355
0.066056006 0.14147948 0.89119393
0.062234666 0.15432404 0.89197415
0.005671381 0.15845135 0.89185631
0.058887403 0.15925281 0.89170009
0.061030515 0.15734512 0.89263356
0.0077464189 0.1629203 0.89134097
0.011503628 0.16441935 0.89273357
0.057321336 0.16312084 0.89320022
0.013442914 0.16659506 0.89252251
0.016186021 0.16847594 0.89076686
0.056148753 0.16764393 0.8944335
0.018336618 0.17245352 0.89305365
0.021624671 0.17310674 0.89128685
0.05564094 0.17276944 0.89297801
0.022545617 0.17759116 0.89320034
0.026938792 0.1783758 0.8911069
0.055589706 0.17759013 0.89215583
0.027580505 0.18235786 0.89344311
0.031704668 0.18291724 0.89115572
0.035537075 0.18378274 0.89000016
0.055650637 0.181107 0.89313346
0.032663111 0.18675749 0.89314032
0.037052393 0.18804203 0.8922478
0.039045986 0.19133213 0.89433378
0.04260717 0.19284204 0.89208019
0.045540549 0.19390489 0.89086688
0.053294297 0.19335258 0.89086676
0.044037506 0.19709992 0.89408362
0.047289062 0.19758835 0.89252621
0.05205052 0.19712977 0.89260012
0.062725112 0.15889016 0.89903337
0.0062527992 0.16386496 0.89575893
0.061478082 0.16188759 0.8971222
0.0073754075 0.16770066 0.89695573
0.011959536 0.16829193 0.89566672
0.058859978 0.1674048 0.89760852
0.061050653 0.16558579 0.89906698
0.008397093 0.17188305 0.8987602
0.012192676 0.17218398 0.89749604
0.015717307 0.17244786 0.89561665
0.058011044 0.1715433 0.89742512
0.013262216 0.17561716 0.89905024
0.017204702 0.17710331 0.89704597
0.057691414 0.17727602 0.89897794
0.018686928 0.18165132 0.89787519
0.022173559 0.18220364 0.89619052
0.027413243 0.18496676 0.8957333
0.056468826 0.18305826 0.89728904
0.022705307 0.18669589 0.89832401
0.027189013 0.18721294 0.89622861
0.032415647 0.18908265 0.89550006
0.056031767 0.18820211 0.89925015
0.027491344 0.1913477 0.89831138
0.032263067 0.19212249 0.89704591
0.037124116 0.19274686 0.89626676
0.040765528 0.19324037 0.89546663
0.056014109 0.1906511 0.89896685
0.032572106 0.19584922 0.89980024
0.038088366 0.1965664 0.89797801
0.041917648 0.19759096 0.8963111
0.042540889 0.20207378 0.89770979
0.047477543 0.20253764 0.89606667
0.052350398 0.20223503 0.89842242
0.04424274 0.20637304 0.89825028
0.047353443 0.20673108 0.8982479
0.051014606 0.20582344 0.89950031
0.064662084 0.1586946 0.90266669
0.064036109 0.163344 0.90332013
0.061875325 0.16797669 0.90293342
0.0040600859 0.17311341 0.90343338
0.0061545135 0.17321715 0.90179181
0.059583008 0.17372251 0.90223348
0.061299648 0.17129889 0.90273339
0.0077624521 0.17706494 0.90302008
0.012221775 0.17831945 0.9018383
0.059695277 0.17657106 0.90393335
0.0091276076 0.18008663 0.90470004
0.013609502 0.18210016 0.90355557
0.016507709 0.183304 0.90230674
0.05797521 0.18318889 0.90340012
0.018651925 0.18701576 0.90294451
0.021698153 0.18945192 0.90121698
0.058030825 0.18504669 0.90426677
0.022808164 0.1925797 0.90240479
0.027583458 0.19450641 0.90133357
0.056148089 0.19362219 0.90111673
0.027970633 0.19720921 0.90296
0.03288668 0.19797602 0.90185732
0.036527615 0.1988575 0.90078908
0.031069068 0.20032597 0.90490001
0.0382559 0.20246851 0.90194458
0.041012865 0.20446795 0.90090024
0.054486625 0.20374992 0.90143335
0.038603496 0.20589823 0.90349996
0.042461757 0.20806329 0.90195566
0.04854165 0.20935598 0.90030026
0.052822206 0.20800565 0.90170491
0.044491466 0.21173391 0.90329999
0.047822434 0.21240604 0.90258342
0.052081298 0.2126098 0.90345001
0.067140952 0.16168991 0.90771681
0.064335011 0.16798066 0.90596676
0.066801243 0.16570009 0.90886688
0.063524291 0.17200214 0.90643907
0.065077581 0.17407677 0.90846705
0.0040739421 0.17791943 0.90651691
0.0057606855 0.17864032 0.90590006
0.059796531 0.17855488 0.90546674
0.062471163 0.17727143 0.90751702
0.065120563 0.17757364 0.90906686
0.0072462647 0.18241763 0.90687108
0.01139281 0.18314318 0.90594453
0.059916135 0.18228848 0.90727806
0.062144633 0.18219781 0.90893352
0.0078118532 0.18662763 0.90868694
0.012540244 0.18740648 0.90754104
0.016463935 0.18822436 0.90606672
0.058095001 0.18777752 0.9052667
0.060741108 0.18747027 0.90949333
0.014253742 0.19273739 0.90880018
0.017603522 0.19231531 0.90681142
0.058209091 0.19236438 0.90704459
0.01848115 0.19770853 0.9083392
0.022461344 0.19754082 0.90660018
0.026029121 0.19881819 0.90570003
0.057572007 0.19789462 0.90764683
0.023995623 0.2024262 0.90865862
0.027761415 0.2025065 0.90712249
0.032806043 0.20315999 0.90627789
0.036136024 0.20371494 0.90499997
0.057465732 0.20284645 0.90865022
0.028959302 0.20694117 0.90931112
0.033122379 0.20736034 0.90832412
0.037318479 0.20796596 0.90640569
0.057011392 0.20738457 0.90816689
0.03816935 0.21267724 0.90822107
0.042381819 0.21298499 0.90623903
0.054768037 0.21238838 0.90608907
0.043514032 0.21766853 0.9080289
0.048035529 0.21756965 0.90660763
0.052958909 0.21760769 0.90764606
0.068593018 0.16339454 0.91014999
0.070531167 0.16480337 0.91326672
0.067674689 0.16815554 0.91302234
0.067038663 0.17307489 0.9120968
0.067385986 0.1783821 0.91103816
0.0040961374 0.18312478 0.91145581
0.063529797 0.18379554 0.91056663
0.067022316 0.18236113 0.91186112
0.070604712 0.18113114 0.91421902
0.0035337352 0.18792379 0.91278905
0.007493949 0.18900138 0.91116667
0.063058533 0.18831207 0.91193336
0.066908836 0.18647815 0.91363347
0.0075158463 0.19211817 0.91389543
0.011754541 0.19261181 0.91220832
0.061357241 0.19254352 0.9119001
0.0083769998 0.19572505 0.91486704
0.013049851 0.19671616 0.91354179
0.015989032 0.19746196 0.91109991
0.061238963 0.19711605 0.91185343
0.014348892 0.20083041 0.9148671
0.017720172 0.20236421 0.91282797
0.021649694 0.20279916 0.91096658
0.060852613 0.20095806 0.91286677
0.019453425 0.20578593 0.91420019
0.023193279 0.2070529 0.91378689
0.026756262 0.20795663 0.91128892
0.032952201 0.20998806 0.91029996
0.058504976 0.20860484 0.91165519
0.028534358 0.21193284 0.91381687
0.032772802 0.21258093 0.91208094
0.057380021 0.21202041 0.91176671
0.069152355 0.17240761 0.91757149
0.070685625 0.18389258 0.91526693
0.0024065434 0.18731819 0.91536659
0.068157785 0.1890898 0.9157002
0.070817791 0.18764834 0.9169777
0.0026239445 0.19295974 0.91688585
0.00582173 0.19415745 0.9155004
0.063912347 0.19342193 0.91605008
0.067193195 0.19238988 0.91750944
0.0027562953 0.19713153 0.91824657
0.0072986963 0.19842292 0.91721904
0.011796635 0.19840422 0.91545033
0.063964672 0.19784482 0.91680002
0.066710234 0.1958143 0.91928327
0.004131915 0.2009744 0.91941655
0.0078968992 0.20232669 0.91856652
0.012338916 0.20247567 0.91769326
0.016082039 0.20457642 0.91640002
0.061697822 0.20413978 0.91698903
0.013844348 0.20576163 0.91915542
0.017803842 0.20786428 0.9171167
0.021755913 0.20890184 0.91543359
0.060624242 0.20749532 0.91799998
0.018179184 0.21159644 0.91875327
0.023170961 0.21269865 0.9167667
0.026867127 0.21392469 0.91506702
0.06692709 0.198165 0.92226672
0.0029950647 0.20222886 0.92123336
0.0058554341 0.20384578 0.92080009
0.06427981 0.20310435 0.92131668
0.066140145 0.2009643 0.92329997
0.0041549099 0.20639209 0.92453325
0.0078400923 0.20738132 0.92346185
0.012164076 0.20806043 0.92176121
0.062693939 0.20868663 0.92326653
0.013330718 0.21239524 0.92321676
0.067330196 0.20195079 0.92783332
0.0028720172 0.2076332 0.92815834
0.068458691 0.20359837 0.93141687
