# .PCD v0.7 - Point Cloud Data file format
VERSION 0.7
FIELDS x y z
SIZE 4 4 4
TYPE F F F
COUNT 1 1 1
WIDTH 984
HEIGHT 1
VIEWPOINT 0 0 0 1 0 0 0
POINTS 984
DATA ascii
0.033726804 0.058932882 0.81915569
0.037280824 0.057900622 0.8189261
0.040727764 0.058295939 0.81913352
0.033472467 0.062489655 0.81916684
0.037266638 0.06244792 0.81862235
0.04094569 0.062164854 0.8189069
0.034229532 0.065523617 0.81900018
0.03779779 0.066546805 0.819089
0.040342622 0.065528952 0.81906682
0.029837867 0.053678598 0.82426679
0.03283615 0.054317769 0.82235545
0.037418146 0.054290902 0.8219443
0.040501855 0.054314192 0.82229996
0.022908777 0.058250148 0.82386684
0.027463147 0.057370942 0.82226247
0.032259841 0.057518277 0.8207109
0.042919219 0.057054188 0.82242852
0.027472675 0.062748685 0.82256103
0.03124232 0.062612399 0.8207776
0.043086886 0.062966056 0.82041645
0.045222729 0.062895201 0.82448894
0.029403169 0.066981658 0.82286662
0.032600615 0.067424014 0.82126641
0.036341123 0.068203516 0.82068866
0.042181335 0.067435265 0.82139981
0.045232482 0.06597697 0.8246668
0.033029664 0.071726836 0.82242489
0.037414826 0.071869187 0.82185912
0.041775681 0.071066409 0.82319993
0.042394992 0.049380399 0.8293336
0.0099139418 0.054008581 0.8293336
0.013219849 0.052873816 0.82882881
0.017616879 0.052374553 0.82791114
0.02204957 0.05255051 0.82765007
0.02684346 0.053071391 0.82676679
0.032819714 0.051893309 0.82841128
0.037630435 0.051524315 0.82661098
0.042466462 0.052121755 0.82694995
0.045477465 0.053995553 0.82913363
0.0099104894 0.057074208 0.82904482
0.012983244 0.056993503 0.82787406
0.017736468 0.057192706 0.82630664
0.021408657 0.056813974 0.82526684
0.046050578 0.057406493 0.82750493
0.0099163335 0.060193967 0.82953358
0.013511007 0.061155912 0.82862252
0.017480019 0.062610559 0.82807881
0.022207588 0.063041531 0.82639998
0.019186532 0.067094691 0.82900035
0.022255601 0.067799449 0.82818538
0.026624428 0.067808069 0.82594174
0.023439728 0.072110981 0.8290503
0.027626378 0.072330408 0.82714438
0.03140305 0.073676929 0.82500017
0.042638611 0.07342951 0.82653338
0.028004885 0.07619556 0.82854301
0.032721125 0.077110365 0.82724011
0.037640445 0.076915823 0.82680732
0.042341311 0.077050239 0.82825935
0.03373171 0.08115685 0.82929355
0.037742089 0.082521439 0.82905596
0.042211298 0.082673483 0.82848322
0.045914967 0.083669372 0.82771665
0.039312631 0.087201908 0.82956684
0.041911442 0.087642185 0.82851809
0.040831868 0.090997264 0.82900012
0.013073447 0.049635757 0.83362228
0.017723314 0.049592089 0.83288902
0.022787154 0.049236201 0.83343339
0.027075006 0.048873737 0.8338666
0.03240164 0.048977274 0.8337428
0.03789166 0.048785046 0.8323555
0.042747509 0.047982763 0.8318857
0.045704193 0.049614586 0.83326668
0.0037525424 0.053600959 0.83499974
0.0076296427 0.052727569 0.83347332
0.012255993 0.051015235 0.83083326
0.023880372 0.051021382 0.83093321
0.026976092 0.051014557 0.83082217
0.030874077 0.051054128 0.83146656
0.047223687 0.052230477 0.83261901
0.006852298 0.057375584 0.83342206
0.048853938 0.057413157 0.83397776
0.0080202967 0.061850015 0.83365828
0.012723306 0.063701339 0.83099997
0.047072962 0.060227819 0.83000004
0.0094620558 0.065764695 0.83495528
0.013266014 0.06765005 0.83345002
0.017246956 0.068280064 0.83135235
0.014653536 0.071463473 0.83499974
0.017938597 0.07273031 0.83393323
0.021415096 0.073021151 0.83150661
0.045718808 0.072888844 0.83353335
0.019325396 0.076123245 0.83499974
0.022843743 0.07731916 0.83352369
0.026610948 0.078515843 0.83155
0.045726124 0.077552937 0.83366662
0.02753826 0.082060918 0.83444744
0.031442974 0.082472779 0.83189529
0.043991171 0.080325097 0.83026671
0.046412423 0.081269331 0.83203763
0.028669115 0.085442789 0.83499974
0.032981854 0.086720571 0.83383322
0.037405636 0.088389672 0.83140475
0.034119621 0.090102598 0.83499974
0.037934855 0.091472499 0.83332944
0.042480201 0.091216788 0.83100003
0.0037705158 0.049955968 0.83900017
0.0071170768 0.048801158 0.83832395
0.012086427 0.047762554 0.83704436
0.017810093 0.047498688 0.83697772
0.022187652 0.04735744 0.83722669
0.027584121 0.046360668 0.83749998
0.032322742 0.046524949 0.83746672
0.038536727 0.046384797 0.83793336
0.042319495 0.045739163 0.83802223
0.047494926 0.048303485 0.83743811
-0.0020407687 0.053041939 0.83844769
0.0017547028 0.052745003 0.83727616
0.0053183055 0.051352937 0.83633322
0.048937257 0.05440364 0.83539987
0.051264185 0.052587822 0.83948898
-0.0013149382 0.057363957 0.83891684
0.0021984798 0.057597969 0.83665174
0.0023968713 0.062162071 0.83785832
0.0058359117 0.063260227 0.83606654
0.0037705158 0.065562986 0.83900017
0.0066915704 0.067201257 0.83752501
0.010771211 0.068430632 0.83589989
0.0084647536 0.070245117 0.83900017
0.012095547 0.072733253 0.83769447
0.016226357 0.074641414 0.83579999
0.047458626 0.074730732 0.83679998
0.013539985 0.076826468 0.83843333
0.017624117 0.078099638 0.83744162
0.020911019 0.078560427 0.83613324
0.048219994 0.07781247 0.83646512
0.018480714 0.082115769 0.83909339
0.022495069 0.082543097 0.83708888
0.025572902 0.083173007 0.83559978
0.023056656 0.086848296 0.83856684
0.026974548 0.087377965 0.83679163
0.030257769 0.087864548 0.83586645
0.027747937 0.091525756 0.83854455
0.032571744 0.092451483 0.83708477
0.038061649 0.094107576 0.83607674
0.041127391 0.093209118 0.83500004
0.032265097 0.095889613 0.8394267
0.037393849 0.097511157 0.83859515
0.0037974806 0.044025782 0.84499991
0.0072565847 0.043349802 0.84409332
0.012443779 0.043164726 0.8435418
0.017965695 0.043986421 0.84424448
0.024284655 0.044025782 0.84499991
0.027769977 0.043537308 0.84316671
0.032119241 0.043177914 0.84381109
0.0372824 0.043282237 0.84365731
0.042878117 0.043183845 0.84392232
0.047124617 0.044015359 0.84479988
-0.0014540387 0.048159853 0.8440001
0.0024099364 0.047217194 0.8423667
0.0066052452 0.046028025 0.84138662
0.012405137 0.045378193 0.84093308
0.017910777 0.045418963 0.84168881
0.022635743 0.045452539 0.84231114
0.026503485 0.045349419 0.84039998
0.033561904 0.045356616 0.8405332
0.036710992 0.045373399 0.84084421
0.042964138 0.04535301 0.8404665
0.048172202 0.045851391 0.84245002
0.051438257 0.0475327 0.84448332
-0.0064254045 0.052497957 0.84224874
-0.0031239006 0.051358648 0.84155071
0.0014268716 0.050090939 0.84126651
0.052185412 0.052465711 0.8416999
-0.0056458558 0.058047753 0.84316677
-0.0034394986 0.05826335 0.84176457
0.051705286 0.057995696 0.84242231
-0.0015564173 0.062369615 0.84223998
0.00064245233 0.064144693 0.84086645
0.049460568 0.062838517 0.84433335
0.051019147 0.061248548 0.84406674
-0.00092856359 0.067475833 0.84340018
0.0020156305 0.067539185 0.84174162
-0.00092871039 0.070624657 0.84353346
0.0026683225 0.072001778 0.84389526
0.006723755 0.07222037 0.84154999
0.047889646 0.070697218 0.84440005
0.0037974806 0.075463049 0.84499991
0.007129746 0.076671056 0.84315008
0.01163194 0.078482144 0.8417778
0.0079986295 0.080689937 0.84486657
0.012651706 0.083002813 0.84320015
0.017111622 0.083712071 0.84101653
0.013560844 0.087051168 0.84457332
0.017931528 0.087802202 0.84272605
0.021568306 0.088718303 0.84151101
0.018759614 0.091924421 0.84459996
0.022644989 0.092500314 0.84268165
0.026256787 0.093343027 0.84086657
0.02375423 0.096401006 0.84482211
0.027571278 0.097058028 0.84312505
0.031638045 0.098239668 0.84149992
0.029012445 0.10061287 0.84499991
0.032349203 0.10161139 0.84396201
0.037348241 0.10172562 0.84237176
0.038446829 0.10527024 0.84453326
0.0085737174 0.039533503 0.84980011
0.011735755 0.039506625 0.84922242
0.037094738 0.039526269 0.84964472
0.042599496 0.039489307 0.84885025
0.047384873 0.039517999 0.84946692
-0.0062123016 0.043706149 0.84897548
-0.0022014065 0.043601237 0.84898692
0.0022284535 0.042585198 0.84764773
0.0065670144 0.041345198 0.84644997
0.01248175 0.040932853 0.84604996
0.018040055 0.041801628 0.84773421
0.02255434 0.042583674 0.84762871
0.02719928 0.041629665 0.84744012
0.032282699 0.041032571 0.84811139
0.036984384 0.040984184 0.84711123
0.04232087 0.041265599 0.84642661
0.048256237 0.042097531 0.84688574
0.052855745 0.042616684 0.84825951
0.056111526 0.04426891 0.84966689
-0.0068027605 0.047070913 0.84730279
-0.0030377104 0.046738882 0.84671235
0.0006456612 0.045601256 0.84506649
0.053764265 0.047000319 0.84762686
0.056102719 0.049002863 0.84953368
-0.0088308556 0.050432321 0.84700006
0.054300159 0.051167339 0.84613323
0.056091711 0.052942805 0.84936684
0.054285895 0.056662459 0.84591103
0.056040347 0.056841273 0.848589
-0.0056768418 0.063098215 0.84779423
-0.0036925683 0.063349806 0.84590805
0.049597248 0.064587139 0.84666687
0.0525189 0.062779911 0.84707785
0.05608841 0.060839579 0.84931695
-0.0056833709 0.06632641 0.84876925
-0.0033008875 0.067716293 0.84640831
0.049697474 0.067873873 0.84837794
0.051297177 0.067897901 0.84866685
-0.0022486327 0.07245744 0.84660786
0.00064571219 0.073116764 0.84513319
0.049684454 0.072587848 0.84815556
0.051336806 0.072689794 0.84932226
-0.00093399541 0.075760707 0.84833342
0.0025415681 0.076876096 0.84670669
0.0053776568 0.078668766 0.84566665
0.052274812 0.077253975 0.84739566
0.0038166558 0.080583461 0.84926695
0.0066467403 0.082240224 0.84681338
0.010102023 0.084900893 0.84506649
0.0081644598 0.086428627 0.8484835
0.011961181 0.088729285 0.84660006
0.013307871 0.092239857 0.84853363
0.017386008 0.093580082 0.8467868
0.019006049 0.0975651 0.84856021
0.022248968 0.098285019 0.84751129
0.025876908 0.099103488 0.84553325
0.023601193 0.1010613 0.84876704
0.027533164 0.10254727 0.84799069
0.031421192 0.10390803 0.84623337
0.029154362 0.10584368 0.84913361
0.032291319 0.10653624 0.84835583
0.036677808 0.10656448 0.8473202
0.048434108 0.031785861 0.85400003
0.053523224 0.034323018 0.85388994
0.057859715 0.034090895 0.85206103
0.06277442 0.034966141 0.85407507
-0.0025280761 0.03888135 0.85283571
0.0018430135 0.039274514 0.85277498
0.0062006358 0.039561417 0.85039997
0.013784532 0.038517475 0.8535834
0.018160949 0.038911324 0.85350561
0.022921737 0.038543802 0.85292381
0.027648365 0.038481526 0.85153806
0.03223322 0.038248837 0.85204154
0.037607446 0.037664603 0.85224998
0.041984603 0.038068827 0.8524
0.047841698 0.03809024 0.85290557
0.052775096 0.037895024 0.85210001
0.057927683 0.038098712 0.85305923
0.062780194 0.037948556 0.8541584
0.065982029 0.038951326 0.85436261
-0.0064896392 0.04194773 0.8506667
-0.0029198572 0.041558083 0.85079992
0.00065014377 0.041169122 0.85093325
0.022844864 0.04112719 0.85006678
0.058099817 0.042640291 0.85265833
0.062552251 0.042459898 0.8541525
0.065915421 0.041293301 0.85350007
0.05809354 0.047393497 0.85256255
0.062323999 0.047906779 0.85414076
0.058368262 0.052141357 0.85284764
0.062171124 0.051834811 0.8545391
0.058762819 0.057179686 0.85364443
0.061838407 0.057545044 0.85435134
0.054599646 0.062528968 0.85080004
0.057949014 0.061921924 0.85336673
0.062015947 0.060423162 0.85460007
-0.0064975563 0.06893006 0.85167503
0.054029729 0.067751311 0.85251439
0.056646597 0.067922607 0.85294664
-0.0057234177 0.071563765 0.85475004
-0.0041190805 0.073765703 0.85263491
0.053911928 0.072958179 0.85245556
0.056821283 0.07189548 0.85238886
-0.0025255396 0.076043524 0.85150003
0.0014456831 0.078492843 0.85229993
0.054245111 0.077227056 0.85145259
0.056335967 0.077768661 0.85306519
0.0038332837 0.083315663 0.85296667
0.0054117828 0.083917305 0.85103321
0.0062187267 0.087286457 0.85302508
0.0079721296 0.091766387 0.85335338
0.011441685 0.09372206 0.85093993
0.0086160908 0.096124336 0.85400003
0.01257247 0.097531281 0.85240996
0.016914321 0.098534167 0.85079992
0.013713943 0.10137485 0.85406673
0.018342871 0.10292028 0.85271245
0.02264099 0.1033541 0.85092849
0.026042156 0.10448513 0.85093319
0.01923904 0.1070076 0.8542223
0.022888312 0.10775259 0.85173327
0.027427355 0.10783628 0.85083324
0.032368604 0.10916251 0.8503778
0.036324885 0.1091354 0.85016668
0.023380157 0.11246115 0.85310948
0.02766422 0.11254379 0.85201102
0.032245468 0.11239023 0.85234994
0.036383316 0.11089483 0.85153323
0.023760436 0.11604979 0.85450017
0.027743032 0.11603922 0.85442233
0.038140289 0.032607544 0.85891998
0.042284574 0.032750767 0.85848886
0.046586938 0.033079561 0.85665852
0.050903272 0.033427197 0.85534942
0.0030480521 0.038220927 0.85580611
0.0070505417 0.03827624 0.85704452
0.011863797 0.03727458 0.85846663
0.017921025 0.036370862 0.85724008
0.023042358 0.035739485 0.85741347
0.02783983 0.03573988 0.85742676
0.033036418 0.035501547 0.85743332
0.037073996 0.035700954 0.85648
0.042187881 0.035862401 0.85652238
0.046943031 0.035675723 0.85585356
0.050140064 0.035042226 0.85593373
0.062869027 0.037406579 0.85536695
0.063646913 0.044552013 0.85510021
0.066031262 0.042956334 0.85500002
0.064470753 0.046957433 0.85545266
0.063706078 0.053350035 0.85589182
0.063708156 0.057332486 0.85592324
0.059769209 0.062162861 0.8566668
0.062290516 0.062287197 0.85838044
0.05809303 0.066852592 0.85551137
-0.0057384847 0.073346332 0.85699999
0.058522601 0.073031999 0.85709351
-0.0057507604 0.075900406 0.85883343
-0.0021428606 0.078172199 0.85745978
0.00065477885 0.079723075 0.85700011
0.058194719 0.077333078 0.8570084
0.0014546305 0.082990088 0.85779995
0.0030531993 0.087754674 0.85758901
0.0054387026 0.089107618 0.85526693
0.0038581018 0.092637658 0.85848886
0.0058468245 0.09284097 0.85668349
0.0038611474 0.096706107 0.85916662
0.0065886336 0.0974641 0.85680014
0.0075940662 0.10169939 0.85858887
0.011306821 0.10254837 0.85678905
0.012670259 0.10547155 0.85896671
0.016858617 0.10723682 0.85665733
0.018455602 0.11212979 0.85795003
0.021409545 0.11387408 0.856067
0.034147535 0.11455404 0.85520017
0.019097602 0.11596987 0.85980016
0.023031598 0.11825675 0.8570556
0.027814602 0.11873046 0.85663348
0.031657092 0.11764562 0.85685349
0.024146715 0.12195633 0.85877776
0.027490312 0.12185216 0.8589834
0.031276174 0.028943647 0.86400002
0.01836212 0.033724885 0.86296678
0.023166617 0.033688411 0.86203331
0.02799399 0.033693802 0.86217123
0.032817297 0.032088537 0.86217564
0.036745057 0.031209294 0.86000013
0.0033377998 0.0358258 0.86204767
0.0070915348 0.036902376 0.862194
0.011521545 0.035724685 0.86282516
0.016708948 0.035237823 0.8607111
0.061683085 0.064083897 0.86106682
0.060955893 0.067371972 0.86214972
0.061154757 0.072102502 0.86118037
-0.0065681166 0.076905936 0.8611334
-0.0041576335 0.078458481 0.86061543
0.060076185 0.075296126 0.86106682
-0.0057847481 0.083579876 0.86390918
-0.0025553731 0.082264595 0.86135286
-0.0057914434 0.085285522 0.86490911
-0.0025594737 0.087220967 0.86282659
0.0006571046 0.088005625 0.86004466
-0.001488757 0.09164837 0.86422235
0.0014598627 0.092918552 0.86109447
0.0022632063 0.0977626 0.86144674
0.0032309841 0.1023402 0.86219329
0.0060078218 0.10354865 0.86068898
0.0075576985 0.10735959 0.86312866
0.011665718 0.10775958 0.86082858
0.015092262 0.10879795 0.86000019
0.0087210173 0.11176684 0.86440015
0.011917351 0.11231538 0.86243701
0.015500555 0.11245243 0.86041677
0.013007696 0.11621491 0.86360008
0.016901655 0.11735352 0.8614741
0.021507917 0.1199963 0.86000019
0.034341857 0.11680582 0.86006677
0.018554982 0.12176003 0.86257505
0.022729639 0.12329893 0.86071676
0.027936794 0.12378665 0.86040014
0.032179609 0.12223996 0.86228007
0.022862133 0.12711918 0.86274338
0.027984241 0.12747043 0.86185998
0.032069877 0.12693439 0.86366683
0.024027791 0.1310164 0.86410016
0.028452596 0.13138556 0.86388338
0.031300299 0.13029808 0.86466682
0.0087653389 0.029104214 0.86879295
0.015261907 0.029133478 0.8696667
0.029026834 0.029112263 0.86903334
0.0038972907 0.033083849 0.86720896
0.0071338881 0.032285888 0.86742663
0.011992855 0.032299366 0.86781478
0.016610887 0.031824522 0.86747617
0.022783445 0.031761069 0.86781114
0.028187392 0.03150538 0.86816669
0.0071231127 0.035457939 0.86608773
-0.0063339774 0.082130961 0.86557776
-0.00678958 0.087603845 0.8687501
-0.0066320542 0.090583086 0.86942863
-0.0035417441 0.09224312 0.86678779
-0.0021105525 0.096589811 0.86733973
0.00066118088 0.098210052 0.86537927
-0.0020372125 0.10077631 0.86900002
0.0010673278 0.10254349 0.86799532
0.0039006446 0.10819117 0.86795563
0.0055069569 0.10875218 0.86600012
0.0068648756 0.11299022 0.86761683
0.0083607398 0.11759526 0.86884999
0.011435705 0.11822801 0.86657786
0.012648324 0.12214532 0.86845332
0.015619276 0.12299332 0.86702508
0.034630675 0.12262901 0.86730009
0.013638929 0.12618862 0.8696
0.017051699 0.12736604 0.86797506
0.020048657 0.12812002 0.86625016
0.034606721 0.12738009 0.86670017
0.018492309 0.13176447 0.86903322
0.022108795 0.13259801 0.86787087
0.028158093 0.13390966 0.86722231
0.032724757 0.13212609 0.86822003
0.024431603 0.13632554 0.86891103
0.028406579 0.1371581 0.86863333
0.031483717 0.13591522 0.86973339
0.017707611 0.029154696 0.87030005
0.022137886 0.028568765 0.87220001
0.026342839 0.028218215 0.87138683
0.021763254 0.03077008 0.87020004
-0.0058361348 0.093239471 0.87158334
-0.0058322283 0.095607489 0.87100005
-0.0042078025 0.098037824 0.87100005
-0.0015000589 0.10312948 0.87066674
-0.00096243713 0.1057118 0.87416673
0.001317753 0.10750659 0.87288696
0.0033783328 0.11202991 0.87272215
0.0039264602 0.1162196 0.8736999
0.006190734 0.11769506 0.87138683
0.0079860762 0.12251721 0.87224996
0.011222414 0.12394521 0.87088352
0.036483645 0.12342334 0.87293321
0.0088121537 0.12593277 0.87343311
0.012049244 0.12815909 0.87200004
0.01527946 0.12958264 0.8706668
0.03711855 0.12791027 0.87252009
0.013155815 0.13216554 0.87346649
0.016454482 0.13318098 0.87149537
0.020157045 0.13448264 0.87093359
0.034260947 0.13404571 0.87160009
0.037319161 0.1316178 0.87342489
0.013717343 0.13504885 0.87459999
0.018041864 0.13703318 0.87342215
0.021602832 0.1380903 0.87196672
0.025829853 0.13927898 0.87053347
0.033202391 0.13792758 0.87222862
0.023486264 0.14226228 0.87393326
0.027703369 0.14252062 0.87144858
0.032399472 0.14284404 0.87252218
0.02835956 0.14665408 0.87346655
0.031086868 0.14738363 0.87377769
-0.00096431794 0.1083629 0.875875
-0.00096800347 0.11286619 0.87922263
0.0013229509 0.11284401 0.87651223
0.0020346576 0.11762147 0.87809771
0.038332887 0.1192413 0.8780002
0.040055357 0.11785817 0.87986642
0.0055834791 0.12087921 0.87803352
0.037875563 0.1219447 0.87689173
0.040053334 0.12276179 0.87982208
0.0080172122 0.12706083 0.87561661
0.039377455 0.12725365 0.8769334
0.040018938 0.12592718 0.87906665
0.0088651236 0.13159403 0.87868345
0.010887323 0.13250624 0.87660843
0.03934148 0.13202792 0.87614441
0.040776849 0.13227233 0.87775552
0.01214162 0.13731804 0.8787095
0.016597088 0.13852015 0.87597507
0.037363954 0.13692644 0.87829334
0.013802042 0.14161205 0.87999976
0.016853958 0.14242849 0.87872082
0.02108502 0.14255792 0.87575006
0.025146823 0.14487666 0.87500006
0.034970082 0.14012164 0.87580007
0.035615113 0.14214662 0.87825555
0.018311821 0.14690462 0.8798331
0.021961775 0.14703606 0.87817049
0.026437685 0.14851235 0.87725019
0.032103617 0.14863674 0.87557507
0.03505969 0.14701407 0.87804461
0.018725671 0.15061539 0.87999976
0.022005713 0.15060018 0.87991089
0.026887815 0.15200795 0.87858582
0.032001998 0.15230036 0.87758112
0.035087202 0.15203409 0.87873334
0.027909091 0.15679576 0.87977302
0.031799912 0.15688719 0.878452
0.035128016 0.15711977 0.87975532
0.028572934 0.16043715 0.87999976
0.031843372 0.16037638 0.87966639
0.035135113 0.16042499 0.87993306
-0.0026100704 0.10969114 0.88000005
-0.0026155245 0.11320231 0.88183898
-0.0015215873 0.11713483 0.88263798
0.00067331374 0.119684 0.8812592
0.041397497 0.11817195 0.88221657
0.045213386 0.11847429 0.88446677
-0.00097347307 0.12008208 0.8841905
0.0027329768 0.12203239 0.8834219
0.0056100804 0.12391787 0.88221663
0.042315405 0.1213203 0.88422507
0.0064425264 0.12741405 0.88371676
0.041859012 0.12707804 0.88330007
0.0080867894 0.13228282 0.88331676
0.041754764 0.13277449 0.8811
0.0089187631 0.13650027 0.88400012
0.010530775 0.13930422 0.88093323
0.038487155 0.1393991 0.88153332
0.040150449 0.13782649 0.88195556
0.012178582 0.14264621 0.88133323
0.037392855 0.14268395 0.88156658
0.013190219 0.14752172 0.88303339
0.016111558 0.14778121 0.88066655
0.036859602 0.14766428 0.88192844
0.017134622 0.15270564 0.88261431
0.022028787 0.15321748 0.88083869
0.025294341 0.15391265 0.88013303
0.036862593 0.15259837 0.88200003
0.018795894 0.15610956 0.88330007
0.022309275 0.15716639 0.88263816
0.025728039 0.1577417 0.88094157
0.036861524 0.1575159 0.8819744
0.027352095 0.16229317 0.88296682
0.031894591 0.16309576 0.8810944
0.036586948 0.16297448 0.88191658
0.028728787 0.16625002 0.88480014
0.032516617 0.16702777 0.88310558
0.036052849 0.16742314 0.88230556
0.036146991 0.17115229 0.88461685
0.043211121 0.11350635 0.888511
-0.0026251122 0.11855531 0.88507158
0.042364426 0.1161715 0.88698643
0.045404226 0.11649562 0.88819987
-0.0026332231 0.1221856 0.88751823
0.0015024112 0.12359386 0.88578331
0.043659061 0.1228559 0.88639992
0.045436036 0.12236603 0.88882208
-0.0015322749 0.12629347 0.88932067
0.0025398314 0.12694195 0.8875823
0.0056366827 0.12862656 0.88639998
0.0034436453 0.13125159 0.8892889
0.0063006817 0.13233304 0.88692653
0.0039965678 0.137318 0.88929993
0.0068230708 0.13725136 0.88734275
0.042015396 0.138551 0.88659972
0.0039957189 0.14225166 0.88911104
0.0073001403 0.1420421 0.88779986
0.010579786 0.14324519 0.88503325
0.03863994 0.14406838 0.88503349
0.041351527 0.14216879 0.88653326
0.007782633 0.14692442 0.88879049
0.011008473 0.14758013 0.88634974
0.03866129 0.14826603 0.88552231
0.041247368 0.14700352 0.88784432
0.0089759361 0.15061493 0.8896668
0.012021319 0.15231416 0.88717133
0.01553217 0.15477537 0.88506681
0.038677249 0.15327115 0.88588768
0.040863149 0.1516574 0.88849992
0.012273772 0.15698752 0.8882665
0.016865777 0.15753806 0.88578665
0.021309476 0.15971452 0.88506681
0.038693771 0.15828224 0.88626599
0.040471137 0.15711689 0.889
0.013529526 0.16167706 0.8890667
0.017240712 0.1619105 0.88807392
0.022173462 0.16247375 0.8866443
0.02599431 0.16415642 0.88534451
0.038676329 0.16233081 0.8858667
0.040471129 0.16207804 0.889
0.01836581 0.16594911 0.8890667
0.02220745 0.16685472 0.88801461
0.027134165 0.16796516 0.88661093
0.0309636 0.1691844 0.88580006
0.038642365 0.16795079 0.88508898
0.041109797 0.16721489 0.88743466
0.023340771 0.17091496 0.88908893
0.027197609 0.17194046 0.88868564
0.032345783 0.17280169 0.88704747
0.037263148 0.17352869 0.88594288
0.041209657 0.17244451 0.88703322
0.028875982 0.17537348 0.88933331
0.031962637 0.17711003 0.88870829
0.037282504 0.17802726 0.88709968
0.041888945 0.1776429 0.88827485
0.033295341 0.18086962 0.88924438
0.036903474 0.18232504 0.88865709
0.042123135 0.18189527 0.8888666
0.037985593 0.18523689 0.88903332
0.04180276 0.18591373 0.88910663
0.044058852 0.10900477 0.89451683
0.043892197 0.1110789 0.89113355
0.045592796 0.11283014 0.8918891
0.04740043 0.11816911 0.89461136
-0.0043007992 0.12421709 0.89025003
0.04738218 0.12145057 0.8942669
-0.0026474039 0.12782821 0.89234257
0.00067999185 0.12914893 0.8900001
-0.0015407285 0.1319655 0.89412504
0.0017889212 0.13326238 0.89167261
0.0015132129 0.13781931 0.89254409
0.043974292 0.13951993 0.89280021
0.001929233 0.14235806 0.89237404
0.043871403 0.1425076 0.89071131
0.0033445612 0.14746252 0.89261782
0.0056669945 0.14838296 0.89116681
0.043944195 0.1477243 0.8921892
0.0040197875 0.15142757 0.89446694
0.0071268226 0.15289515 0.89210862
0.042883933 0.15287177 0.89318901
0.0078127114 0.15747638 0.89237642
0.042271305 0.15764628 0.8920002
0.0081862947 0.16133863 0.89406693
0.01149581 0.16263406 0.89204186
0.04218917 0.16230889 0.89026672
0.014012204 0.16620399 0.89340037
0.016745854 0.16798992 0.89111686
0.0440646 0.16892993 0.89463365
0.018336538 0.17245431 0.89306033
0.021741033 0.17303877 0.89150578
0.025583653 0.17388842 0.89020002
0.043982506 0.17276639 0.89296687
0.022670913 0.17680383 0.89321363
0.027072173 0.17764837 0.89140439
0.043874141 0.1756561 0.89076686
0.045650449 0.17859066 0.89301693
0.02790744 0.18233897 0.89373922
0.031721357 0.18301301 0.89162236
0.043849513 0.1838378 0.89026678
0.046464816 0.18266726 0.89263916
0.029049158 0.18641064 0.89466691
0.032887515 0.18721236 0.89319468
0.037031423 0.1879345 0.89173841
0.042627864 0.18849422 0.89075023
0.046854813 0.18754683 0.89328128
0.037371326 0.19130123 0.89418918
0.042515021 0.19244808 0.89275026
0.046888676 0.19315015 0.8939479
0.043229841 0.19721939 0.89462519
0.04756169 0.19764797 0.89374179
0.049055472 0.20132144 0.89436686
0.044234529 0.10359218 0.89808339
0.047493782 0.10256127 0.89637071
0.050816115 0.10168514 0.89600003
0.044117138 0.10664964 0.89570016
0.047541108 0.10683417 0.89725029
0.048008259 0.11157648 0.89703816
0.048821069 0.11649169 0.89770842
-0.003491299 0.12911791 0.89552677
0.047484621 0.12838154 0.8962
-0.0030795392 0.1334728 0.89681071
0.044181172 0.1335019 0.89700019
0.046503592 0.1309803 0.89877564
-0.0019902147 0.1370655 0.89629734
0.044143643 0.13672219 0.89623815
0.045955747 0.13714178 0.89898902
-0.00140681 0.14150491 0.89748937
0.00068457617 0.14335345 0.89599997
0.045854643 0.1418453 0.89701122
0.00068495818 0.14593542 0.89650005
0.045810904 0.14671274 0.89615554
0.0026344892 0.15258731 0.89639449
0.044138476 0.15337667 0.8961333
0.045838173 0.15180425 0.89668894
0.0031950281 0.15691563 0.89730847
0.0056952909 0.15911919 0.89561671
0.04415052 0.15675332 0.8963778
0.046311766 0.15741128 0.8977502
0.0040337946 0.16113906 0.89758348
0.0073722876 0.16288356 0.89646673
0.044116315 0.16246282 0.89568335
0.046572067 0.16236849 0.89792025
0.0090732928 0.16646877 0.89931691
0.011827999 0.16730274 0.89631677
0.044085938 0.16651402 0.89506686
0.046746563 0.16707325 0.89807248
0.01288961 0.17186949 0.89819062
0.015724618 0.1725278 0.89603329
0.044125345 0.17332886 0.89586675
0.046792109 0.17225103 0.89893907
0.017408701 0.17684014 0.89677149
0.022393242 0.17906821 0.89540011
0.046951756 0.1770945 0.89666122
0.019097829 0.18199116 0.89748907
0.022209335 0.18198186 0.89641666
0.025736932 0.18325953 0.8955335
0.049158785 0.18257076 0.89625001
0.050984364 0.18396211 0.89896685
0.022699296 0.18664289 0.89807171
0.026949629 0.18696867 0.89620006
0.031587452 0.18911843 0.8956666
0.049090225 0.18897749 0.8950001
0.050942779 0.18715383 0.89823359
0.027478307 0.19125919 0.89789462
0.032230929 0.19237657 0.89698106
0.037468996 0.1934706 0.89653331
0.049093869 0.19232154 0.89506668
0.05094656 0.19218101 0.89830023
0.033644971 0.19613855 0.8985669
0.037724152 0.19683722 0.89762527
0.041785795 0.19799249 0.89586657
0.045755241 0.19981401 0.89506686
0.05131451 0.19741221 0.8973918
0.039214805 0.20051353 0.89820021
0.042291265 0.20250396 0.89750016
0.047127642 0.20263807 0.89577341
0.050922923 0.2012789 0.89788342
0.04358257 0.20692341 0.89846021
0.04735554 0.20673902 0.89828116
0.051955566 0.10395879 0.90126157
0.052812696 0.10734741 0.90156013
0.052352589 0.11203412 0.90328807
0.051271725 0.11773198 0.90403336
0.049437582 0.12241071 0.90133339
0.049486339 0.12756541 0.90222234
0.048133977 0.13324979 0.90207243
0.048494585 0.13734667 0.90253335
0.047797795 0.14265269 0.90211123
0.047757175 0.1475623 0.9013446
0.047768947 0.15262978 0.90156692
0.048334897 0.15767616 0.90164465
0.049080577 0.16243695 0.90247506
0.0090966653 0.1694129 0.90163344
0.049483899 0.16783728 0.90217799
0.0091146594 0.17226976 0.90341663
0.010775035 0.17355475 0.90136695
0.049532652 0.17304194 0.90306664
0.0091265989 0.17501856 0.90460002
0.012945938 0.1776478 0.90207624
0.0158071 0.17929699 0.90073359
0.049465615 0.17783874 0.9018445
0.014169051 0.18150833 0.9034
0.01683766 0.18256477 0.90197343
0.051735241 0.18296765 0.90231127
0.018197833 0.18708482 0.90274
0.021689449 0.18937485 0.90085042
0.053723395 0.18808652 0.90271121
0.019253403 0.19188827 0.90480006
0.022798212 0.1924936 0.90200007
0.027578533 0.19447283 0.90117812
0.053688716 0.19300103 0.90213346
0.022620823 0.19518971 0.90450001
0.027959779 0.19713351 0.90261334
0.032284819 0.19815442 0.90114701
0.03594435 0.19928537 0.90020031
0.052764427 0.19689009 0.90073359
0.033136901 0.2017547 0.90375829
0.037689455 0.20299609 0.90180492
0.051927298 0.20276597 0.90078354
0.038586807 0.20749152 0.9031167
0.041606918 0.20798941 0.90163356
0.048610255 0.20965053 0.90156686
0.051209342 0.20660906 0.90293336
0.043234468 0.21176894 0.90345001
0.047515355 0.21236388 0.90312004
0.053029023 0.11452246 0.90525001
0.053737719 0.1182992 0.90580004
0.056558292 0.11989792 0.90770006
0.05291282 0.12294863 0.90685022
0.056672506 0.12267807 0.90953344
0.052610826 0.12749828 0.90772247
0.05556947 0.12697132 0.90998882
0.049644206 0.13302378 0.90510005
0.052950319 0.131864 0.90871125
0.049644206 0.13975839 0.90510005
0.052211814 0.13658603 0.90864021
0.049685042 0.1432438 0.90584451
0.051559705 0.14206986 0.90911108
0.049718253 0.14755493 0.90645015
0.051593103 0.14554539 0.90969992
0.049711853 0.15175067 0.90633351
0.049682599 0.15671541 0.9058001
0.051608011 0.16251457 0.90996289
0.051545367 0.16738756 0.9088583
0.0074650017 0.17224161 0.90770024
0.052212596 0.1727608 0.90865356
0.0072507318 0.17749625 0.90759182
0.01081847 0.17846285 0.90499997
0.052333537 0.17732768 0.9078114
0.055004451 0.17775613 0.90999991
0.007467981 0.18245813 0.90812618
0.011957761 0.18261617 0.90611672
0.053660478 0.18213943 0.90774304
0.0074770055 0.18774582 0.90918911
0.012537529 0.18736665 0.90735215
0.016457127 0.18814802 0.90570003
0.054806989 0.18555146 0.90673351
0.056680802 0.18784344 0.9096666
0.013229351 0.19196418 0.90834701
0.017115107 0.19249378 0.90651923
0.056608118 0.19182776 0.90850025
0.018103886 0.19731639 0.90764779
0.022418963 0.19770268 0.90610015
0.026014749 0.19870844 0.9052
0.019342065 0.20207232 0.9089669
0.022949198 0.20221697 0.90799075
0.027732259 0.20229337 0.90617043
0.031659275 0.20331083 0.90570003
0.024450164 0.20648791 0.90979993
0.028050762 0.20743673 0.90865743
0.032845348 0.20762724 0.90737808
0.036163528 0.20724039 0.905689
0.053093322 0.20772128 0.9063201
0.034044947 0.21200508 0.90926677
0.037936069 0.21276924 0.90771127
0.04183099 0.21360846 0.90650016
0.049693573 0.21405217 0.90600008
0.0521756 0.21250355 0.9080202
0.03971833 0.21662645 0.90973336
0.043023556 0.21787974 0.90790027
0.048061583 0.21768442 0.90708542
0.056798175 0.12803736 0.91154999
0.056152403 0.1326953 0.91209662
0.053348288 0.13892905 0.91069996
0.055188809 0.13673998 0.91305006
0.053514913 0.14276294 0.91354465
0.052765995 0.14800468 0.91234875
0.052770175 0.15243128 0.91242009
0.052563369 0.15775192 0.91178703
0.053538997 0.16322726 0.91395575
0.053553224 0.16837187 0.91419864
0.0058006416 0.17393979 0.9121834
0.053436156 0.17139836 0.91219997
0.055813331 0.17258038 0.91397238
0.0041066729 0.17849836 0.91380012
0.056942541 0.1768107 0.91386682
0.057230223 0.18241808 0.91300678
0.058688257 0.18714255 0.91451144
0.008355625 0.19268282 0.91254175
0.012018416 0.19370861 0.9107222
0.058666859 0.19217676 0.91417807
0.0083706342 0.19557884 0.91418356
0.013033459 0.19689663 0.91240835
0.015972065 0.19809844 0.91013324
0.058676843 0.19561096 0.91433346
0.014339482 0.20069875 0.91426688
0.016857112 0.20192759 0.9121334
0.02276337 0.20488554 0.91019994
0.018875901 0.20625789 0.91377801
0.022260318 0.20774144 0.91282791
0.057000689 0.20932439 0.91480029
0.024000809 0.21146522 0.91424471
0.027716542 0.21243167 0.91260844
0.031829011 0.21287028 0.91055554
0.055128694 0.21209161 0.91205567
0.029683383 0.21598941 0.91420025
0.056540787 0.13811746 0.91655564
0.055391956 0.14321028 0.91641116
0.056572564 0.14736208 0.91891992
0.056382108 0.15209757 0.91861099
0.055497393 0.15714605 0.91815537
0.056203436 0.16267113 0.91849327
0.056312803 0.16727073 0.91748333
0.058349341 0.17250992 0.91811103
0.058888625 0.17753963 0.91763324
0.06069028 0.17951412 0.91899997
0.058719631 0.18213692 0.91500038
0.061502542 0.18279882 0.91832757
0.061469276 0.18782288 0.91783315
0.061314464 0.19265415 0.91807318
0.0092708711 0.1982972 0.91889983
0.011523834 0.19889684 0.91641122
0.058880068 0.19884951 0.91750002
0.060672667 0.19655223 0.91873324
0.013022293 0.20280898 0.91765994
0.016057467 0.20426384 0.91500038
0.013555016 0.20685066 0.91893327
0.017436724 0.20818587 0.91578019
0.014408492 0.21106371 0.9186666
0.017565204 0.21211489 0.91740465
0.022549937 0.21318951 0.91532028
0.058077537 0.14256327 0.92104673
0.05904052 0.14719325 0.92000002
0.060917754 0.14758392 0.92244458
0.05911753 0.15252765 0.9212001
0.061588813 0.15303199 0.92218179
0.058287423 0.15774119 0.92163342
0.061433051 0.15766776 0.92371672
0.058765575 0.16259176 0.92240012
0.060989663 0.16322006 0.92353344
0.059042659 0.16773586 0.9200334
0.061677705 0.16802494 0.92350674
0.05904052 0.17115258 0.92000002
0.061653513 0.17276512 0.92314005
0.062017132 0.17747198 0.92172235
0.064296678 0.18258262 0.92155838
0.066890344 0.18258074 0.92413998
0.064187974 0.18826629 0.92000002
0.066812463 0.18752483 0.92237622
0.064261213 0.19276541 0.92105007
0.066662557 0.1922292 0.922589
0.062928461 0.19735213 0.92247224
0.0093085384 0.20253813 0.92263335
0.011019302 0.2040672 0.9218002
0.059101485 0.20302297 0.92095006
0.060978658 0.20183834 0.92336667
0.011455259 0.20805319 0.92236674
0.059116811 0.20735772 0.92118889
0.012455229 0.21273209 0.92220002
0.063813508 0.15865961 0.92699987
0.06656149 0.15903305 0.92918187
0.063830234 0.16215192 0.92724985
0.067816064 0.16367874 0.92857504
0.064274192 0.16692744 0.92742491
0.06821613 0.16748327 0.92811733
0.071553171 0.16805452 0.92649996
0.06423977 0.17244086 0.92692482
0.068237066 0.17271549 0.92840004
0.07236965 0.17300591 0.92810661
0.064615875 0.17746048 0.92613316
0.067735985 0.17812507 0.9283095
0.07175035 0.17752846 0.92905456
0.069432206 0.18237379 0.92702484
0.072449267 0.18278253 0.92691106
0.069836967 0.18790336 0.92665547
0.072555237 0.18650453 0.92826664
0.068678595 0.19305694 0.9265666
0.067003287 0.19723292 0.92728877
0.0076100221 0.2031281 0.9253332
0.063303575 0.20248549 0.92712659
0.0083176596 0.20738153 0.92741996
0.067487329 0.16176803 0.93000019
0.073557943 0.17128293 0.93000007
0.073557943 0.17993283 0.93000007
0.071838938 0.18862332 0.93020022
0.068413369 0.19913381 0.9308002
0.064929813 0.20429158 0.93063354
0.067519754 0.20269115 0.93282682
