# .PCD v0.7 - Point Cloud Data file format
VERSION 0.7
FIELDS x y z
SIZE 4 4 4
TYPE F F F
COUNT 1 1 1
WIDTH 1204
HEIGHT 1
VIEWPOINT 0 0 0 1 0 0 0
POINTS 1204
DATA ascii
0.023564249 0.059497345 0.8199333
0.02735706 0.058670249 0.8190335
0.032708511 0.058678884 0.81915569
0.035771545 0.059453823 0.81933349
0.023559459 0.061772864 0.81976664
0.027351031 0.062465001 0.8188501
0.032701474 0.062475502 0.8189854
0.036679748 0.062486805 0.81913358
0.027564324 0.066908613 0.81900018
0.032703333 0.067049593 0.81902981
0.035780281 0.066328838 0.81953335
0.028320884 0.071453631 0.81930017
0.031955909 0.070894957 0.81945008
0.022938684 0.053722009 0.82493347
0.026769824 0.053691618 0.82446682
0.032930911 0.053708989 0.82473344
0.039010931 0.053609151 0.82320005
0.040628292 0.053717673 0.82486683
0.019068753 0.05825232 0.82391119
0.022092735 0.057360239 0.82210654
0.027452014 0.055815294 0.8218748
0.032813538 0.055809543 0.82178879
0.037545931 0.05712159 0.82168478
0.041323133 0.057448193 0.82337505
0.019060783 0.062059205 0.82356679
0.021644024 0.062902048 0.8217141
0.038113981 0.062584713 0.82041663
0.040919833 0.062397745 0.82298326
0.022109423 0.067356654 0.82277775
0.025124043 0.068732493 0.8209331
0.037828743 0.067456849 0.82133311
0.023048533 0.071694911 0.82338679
0.026656622 0.073318042 0.82098067
0.033014473 0.073132813 0.82134265
0.036930531 0.071408086 0.82243323
0.023704106 0.075193316 0.82480019
0.0279864 0.07677722 0.82258886
0.032379169 0.076628596 0.82373333
0.014039259 0.053496975 0.82937795
0.017839979 0.052822445 0.82802862
0.021932751 0.05235504 0.82759982
0.027355252 0.053066716 0.82670015
0.032824028 0.051900443 0.82852244
0.037467293 0.05213888 0.82724184
0.04233136 0.052385699 0.82809532
0.046632297 0.053603411 0.82903355
0.013765425 0.057032466 0.82844472
0.017188417 0.0570492 0.82590002
0.020632589 0.05526102 0.82500017
0.043761585 0.057627391 0.8259334
0.046968888 0.057011981 0.8281408
0.013924767 0.061368722 0.82872027
0.017012354 0.062872797 0.82670832
0.043158598 0.063331269 0.82617331
0.04611421 0.06211311 0.82865733
0.018061746 0.067574665 0.8281334
0.042288434 0.067720413 0.8272149
0.045506719 0.066376977 0.82966679
0.019176502 0.071683899 0.82856691
0.021061588 0.072682098 0.82676673
0.038681548 0.073351301 0.82708901
0.041593421 0.070929974 0.82876694
0.022523353 0.077076606 0.82854456
0.027112696 0.078641243 0.82556009
0.03328684 0.078061327 0.82591999
0.036534313 0.076639339 0.82796681
0.023834391 0.080234811 0.8293336
0.027407102 0.08244282 0.82825559
0.032954529 0.08285632 0.82853907
0.0284654 0.086377889 0.82906699
0.019325396 0.049717795 0.83499974
0.022439962 0.049717795 0.83499974
0.027103433 0.04970324 0.83475536
0.032526668 0.048888586 0.83411646
0.037936825 0.048841592 0.83332211
0.042635974 0.048884284 0.83404428
0.047352713 0.049713831 0.8349331
0.0099816816 0.053600959 0.83499974
0.012535625 0.052135136 0.83227777
0.01690666 0.051021382 0.83093321
0.022333005 0.051023424 0.83096671
0.026991716 0.05104458 0.83131105
0.030861516 0.051033661 0.83113325
0.043991171 0.05098043 0.83026677
0.047477674 0.051684566 0.83166665
0.051956993 0.05275061 0.83385181
0.055136368 0.053594515 0.83489978
0.0099699935 0.057416718 0.83402205
0.011478167 0.057181079 0.83059996
0.051721558 0.057165366 0.833175
0.055116553 0.055904053 0.83459991
0.0099784937 0.060571279 0.83473313
0.012523983 0.063174143 0.83152223
0.048300818 0.062630594 0.83114994
0.050827187 0.061714895 0.83444977
0.014008169 0.067940667 0.83369333
0.016142223 0.068841659 0.83146667
0.047428135 0.067790747 0.83281672
0.014652367 0.071457766 0.8349331
0.017271096 0.073025383 0.83256185
0.04271714 0.073134311 0.83128577
0.046545569 0.072965868 0.83441097
0.018894173 0.077119857 0.8331666
0.020811822 0.078187719 0.83216673
0.03880154 0.077695496 0.83186662
0.042170465 0.077329203 0.83362848
0.045799252 0.076123245 0.83499974
0.019325396 0.080783039 0.83499974
0.022382164 0.082130007 0.8329047
0.037928417 0.082149573 0.8331036
0.041127395 0.080783039 0.83499974
0.023454612 0.085876234 0.83417767
0.026814958 0.087827101 0.83182496
0.032428909 0.088187195 0.83157212
0.036779627 0.08645393 0.83351672
0.027483149 0.091597408 0.83446658
0.032699831 0.092847206 0.83453321
0.03643515 0.090828881 0.83453321
0.0076848483 0.049973831 0.83930016
0.012356325 0.049102433 0.83776665
0.01749414 0.048888262 0.83677322
0.022513606 0.048323497 0.8377555
0.027420474 0.047202718 0.83764756
0.032340974 0.046105526 0.83792388
0.037707955 0.045893881 0.83812386
0.042836901 0.045997206 0.83797789
0.047492534 0.04674292 0.83740002
0.051988598 0.048778351 0.8379429
0.056649994 0.0493237 0.83886683
0.060134795 0.049983755 0.83946687
0.069550559 0.048437584 0.83973336
0.071105987 0.047649153 0.83960724
0.0037733624 0.052336283 0.83963346
0.0071980478 0.052824628 0.83746672
0.057292771 0.052737731 0.83714288
0.061232485 0.052865911 0.83918107
0.0076727998 0.057695415 0.83806676
0.053602774 0.059056211 0.83526635
0.056853019 0.057637461 0.83722848
0.060120471 0.056997444 0.83926678
0.0084573552 0.062388483 0.83826667
0.010009576 0.063096836 0.83733332
0.053055335 0.062563695 0.83645326
0.05600835 0.062102478 0.83862674
0.011063551 0.066032611 0.8383556
0.048921641 0.069921359 0.83513314
0.05200424 0.066827215 0.83772516
0.013755356 0.072590783 0.83725321
0.048973709 0.073106945 0.8360222
0.050994445 0.072073594 0.83848011
0.0147097 0.077195711 0.83820009
0.016869532 0.078156561 0.83679998
0.044286106 0.078532092 0.83583319
0.047680642 0.078082278 0.83725834
0.050745133 0.076536529 0.83953315
0.018223187 0.082248665 0.83806676
0.020902686 0.083969928 0.83579987
0.042984344 0.082730033 0.83701664
0.046536773 0.081683844 0.83893347
0.0194334 0.085920334 0.83966666
0.022179354 0.087512426 0.83697331
0.038990587 0.087403491 0.83591974
0.041913465 0.087024003 0.83825338
0.023694616 0.091605 0.83808339
0.026847254 0.093683243 0.83645326
0.031795874 0.094800174 0.83533323
0.038295038 0.092778027 0.83734816
0.027614161 0.09671355 0.83845007
0.03285522 0.097969405 0.83706057
0.037971951 0.098070078 0.83837509
0.031941071 0.10095716 0.83915567
0.036233753 0.10183349 0.83886671
0.0030095135 0.044025782 0.84499991
0.0069482722 0.043234065 0.84488887
0.012460269 0.043221179 0.84464163
0.017980903 0.044025782 0.84499997
0.021132769 0.044025782 0.84499991
0.027784744 0.043560781 0.84361678
0.032030761 0.043842863 0.84148884
0.037049439 0.043377992 0.8426221
0.043424666 0.043308817 0.84330666
0.047534458 0.043328963 0.84369344
0.051039301 0.043994524 0.84439981
0.06249357 0.043627609 0.84489989
0.066505574 0.042835169 0.84368563
-0.0013236669 0.047529131 0.84441668
0.0022161836 0.04706876 0.8432076
0.0069226124 0.046988022 0.84177035
0.012417519 0.046206798 0.84180009
0.017912816 0.046207417 0.84181124
0.022622051 0.046205554 0.84177786
0.026520239 0.045378193 0.84093308
0.052848779 0.046121862 0.84310663
0.05749134 0.046627302 0.8433525
0.062460367 0.047145762 0.84204847
0.06755688 0.04659383 0.84091663
-0.0015593815 0.051502973 0.84389353
0.0018982179 0.052474506 0.84184664
0.0053462856 0.050059181 0.84073317
0.063636988 0.051635619 0.84092218
0.067777425 0.052357722 0.84203333
0.071220182 0.051636938 0.84095532
-0.00093017868 0.055806067 0.84486663
0.0022164625 0.05807095 0.84351867
0.0053462852 0.05787928 0.84073323
0.058624975 0.059409749 0.84026653
0.062370602 0.058222018 0.84245718
0.06761761 0.055024467 0.84493327
0.003164104 0.062517434 0.84422672
0.0061370656 0.062647812 0.84175557
0.058306374 0.063005768 0.84131658
0.061202031 0.062768869 0.84337783
0.007130112 0.067270763 0.84328341
0.010570382 0.068290569 0.84055537
0.053915091 0.068777189 0.84013313
0.057216279 0.067411102 0.84257776
0.060528759 0.066815175 0.84496653
0.0079957144 0.071236052 0.84457779
0.01085838 0.072118655 0.84264451
0.053380381 0.072339691 0.84157336
0.056404639 0.071967997 0.84455997
0.012240673 0.076871768 0.84320843
0.05281033 0.076882221 0.84332228
0.05580334 0.075463049 0.84499991
0.014031995 0.081700481 0.84448326
0.017124146 0.083777249 0.84166658
0.048229426 0.083465159 0.84115547
0.051012438 0.081650227 0.84395534
0.018728174 0.087850474 0.84320009
0.021029411 0.089171492 0.84086639
0.044168726 0.088014692 0.84101653
0.047796533 0.087803826 0.84274834
0.022126464 0.092517622 0.84284443
0.043051746 0.092441767 0.84215569
0.04742578 0.092435919 0.84414285
0.024213756 0.095617287 0.84253329
0.026571754 0.097976297 0.84261668
0.03982285 0.095367618 0.84033322
0.042941939 0.097141653 0.84385836
0.046347741 0.09589722 0.84499991
0.02894149 0.10036678 0.84293342
0.032457799 0.10343914 0.8424167
0.038299989 0.10278287 0.84131116
0.042207617 0.10176615 0.84413338
0.036837008 0.10569698 0.84375572
0.040031359 0.10529517 0.8447333
0.057202049 0.034332216 0.84821993
-0.0056849164 0.03633767 0.84900004
0.0038193516 0.039536603 0.84986681
0.0069841444 0.039505593 0.84920025
0.012529846 0.039514899 0.84940028
0.044980213 0.039493188 0.84893364
0.048161883 0.039505076 0.8491891
0.053322446 0.039120656 0.84941691
0.057639226 0.037909258 0.84882998
0.062020566 0.038272951 0.84689528
0.065279573 0.039322611 0.84526652
-0.015149518 0.044129986 0.84700006
-0.012516848 0.042033989 0.84709525
-0.0072720158 0.042937893 0.84939337
-0.0023187075 0.042811044 0.84820855
0.0020009752 0.042106036 0.84706682
0.0069640079 0.040970203 0.84682226
0.012488026 0.040956233 0.8465333
0.018027613 0.041772932 0.8471446
0.022971358 0.04237688 0.84743351
0.027204875 0.041637436 0.84760028
0.032240555 0.041764814 0.84700012
0.037394118 0.04139445 0.84746677
0.042004753 0.04152675 0.84747791
0.048422784 0.041363962 0.84683335
0.052981634 0.042362731 0.84713352
0.057494931 0.04253827 0.84670377
0.061869483 0.041562852 0.84606659
0.066834919 0.040882058 0.84499997
-0.0067384779 0.047633126 0.84860015
-0.0034577609 0.046930831 0.84637338
-0.0056733107 0.051236488 0.84726673
-0.0036953897 0.052375317 0.84655005
-0.0026924713 0.057664819 0.84782237
0.067145795 0.057682294 0.84644169
0.071170241 0.057233643 0.84658337
-0.0015669428 0.062793076 0.84796011
0.0010401715 0.063329145 0.84563321
0.06379021 0.062994905 0.8464222
0.066625528 0.061871503 0.84902245
0.071926326 0.060048439 0.84930015
-0.00093509624 0.06637051 0.8493337
0.0024256068 0.067630209 0.84778351
0.0053742658 0.069186516 0.84513319
0.062737353 0.068023168 0.84741914
0.003815158 0.071076773 0.84893364
0.0064403252 0.073046282 0.84735566
0.058690578 0.072874196 0.84686685
0.061163407 0.072207965 0.84830022
0.0079187397 0.076955155 0.84757346
0.010902401 0.078709096 0.84609997
0.054338641 0.078768007 0.84673339
0.057578914 0.077301808 0.84792393
0.060865477 0.075879782 0.84966671
0.0085750632 0.080646724 0.84993351
0.011451161 0.08201886 0.84776682
0.053232819 0.082400747 0.84706682
0.056459352 0.081736363 0.84893364
0.014252394 0.086481474 0.8482269
0.016978646 0.088292338 0.84744459
0.052821934 0.087530747 0.84770679
0.056093916 0.085336275 0.84940028
0.019624729 0.092288531 0.84793341
0.021202795 0.093850829 0.84780014
0.049517203 0.093572818 0.84529996
0.051642686 0.092670605 0.84783357
0.023611132 0.09715417 0.84911686
0.044778869 0.099056609 0.84513319
0.048070196 0.097766511 0.84757155
0.051361654 0.096434392 0.84973341
0.028282534 0.10160406 0.84670013
0.030742835 0.10428049 0.84926683
0.044496413 0.10285192 0.8472501
0.046534233 0.10180753 0.84840024
0.03307952 0.10652444 0.84826678
0.037238266 0.10793388 0.84570664
0.042292453 0.10727008 0.84791869
0.045001406 0.10744853 0.84933364
0.038625881 0.11049549 0.84846687
0.040255677 0.11062571 0.84946686
-0.0025265773 0.034905065 0.85258341
0.048445467 0.03497126 0.85420012
0.052351963 0.034128621 0.85300595
-0.010459686 0.039589319 0.85100001
-0.0069662095 0.038948946 0.85085237
-0.0025254865 0.038028002 0.85150445
0.0017118631 0.038339555 0.85257679
0.0054286048 0.038125928 0.85367864
0.013054172 0.038707994 0.85254669
0.018136257 0.038856968 0.85232216
0.022930166 0.038897678 0.85320002
0.027710637 0.038908534 0.85344452
0.032482214 0.038904715 0.85336113
0.037219577 0.03886481 0.85249996
0.041987073 0.038862739 0.85245556
0.04753368 0.037527379 0.85213327
0.052278344 0.036984369 0.85178328
-0.011408084 0.043374132 0.85070497
-0.0072774016 0.042181376 0.85006684
-0.0041066748 0.041127186 0.85006684
-0.015235968 0.047551271 0.85183334
-0.012060006 0.047553811 0.85188299
-0.0083367238 0.046937566 0.85028905
-0.016048601 0.05077894 0.85282147
-0.011765419 0.051461268 0.8536092
-0.0075599696 0.052331835 0.85223889
-0.0057183956 0.057203531 0.85400003
-0.0037132232 0.062520683 0.85069174
0.068254776 0.063645266 0.85091323
0.071989708 0.062644564 0.85237217
-0.0022643351 0.067931063 0.8523944
0.00064958329 0.069601282 0.85020024
0.067413129 0.068188578 0.8522926
0.072060086 0.066735759 0.85400558
-0.00094012375 0.07149262 0.85390002
0.0020412062 0.073158555 0.85247493
0.063536271 0.073191479 0.85147321
0.066364057 0.072705247 0.85415006
0.0033053327 0.076768525 0.8536889
0.0058144815 0.078065619 0.85194165
0.059380829 0.079174206 0.85109991
0.062723972 0.077534392 0.85337782
0.0080734743 0.08250796 0.85283333
0.010172951 0.083914019 0.85099989
0.058820378 0.082761407 0.85216665
0.061180633 0.08103893 0.85406673
0.0086167632 0.085805111 0.85406673
0.011509429 0.087194078 0.8521111
0.057603639 0.087200262 0.85217786
0.013695714 0.09109436 0.85300666
0.017178139 0.092264727 0.85208005
0.054016076 0.092843637 0.85159332
0.056342669 0.091270298 0.8531667
0.018969748 0.095335603 0.85405004
0.022900837 0.09829136 0.85212213
0.049862787 0.099767677 0.85119992
0.052788287 0.097662143 0.85356671
0.024557669 0.101744 0.85450017
0.027644679 0.10295803 0.85138887
0.04829504 0.10297785 0.85154665
0.050034624 0.1032892 0.85413343
0.029338621 0.10651261 0.85450011
0.031666227 0.10709412 0.85280001
0.046791635 0.10792011 0.85306674
0.037191764 0.11146422 0.85184449
0.0422213 0.11289585 0.85317498
0.046044279 0.11280268 0.85397786
0.0038622972 0.032787163 0.85942262
0.0061077913 0.031674508 0.85960293
0.039147906 0.033606328 0.8599335
0.042345416 0.033598509 0.8597334
0.047287859 0.032151114 0.85849166
0.050235108 0.031918194 0.85755551
0.0025750096 0.03575962 0.85790509
0.0067333514 0.037027601 0.85769904
0.011857625 0.036726225 0.85809338
0.017445315 0.035901248 0.85746676
0.023034131 0.035885494 0.85708904
0.027457505 0.036322251 0.85798347
0.032976717 0.036079738 0.85792017
0.037418317 0.03588444 0.85705566
0.042187307 0.035862029 0.85651129
0.045874789 0.035566419 0.85577804
-0.015319436 0.053389248 0.85650003
-0.012536918 0.053842243 0.85738003
-0.0089226058 0.054140195 0.85580033
-0.015352227 0.056695148 0.85833335
-0.012160596 0.057536382 0.85896021
-0.0081295399 0.057357211 0.85628921
-0.010566209 0.060781401 0.85966676
-0.007143389 0.062030766 0.8575834
-0.0063908966 0.066779852 0.85865343
-0.0041359821 0.067698963 0.85613346
0.073000662 0.068458311 0.85568911
-0.002143353 0.072527505 0.85676676
0.068667091 0.073583975 0.85605365
0.07230141 0.071741886 0.85686666
-0.00094551902 0.07669545 0.85879993
0.0018541069 0.078195743 0.85773355
0.063749164 0.079673462 0.85646689
0.067618683 0.077745132 0.85778105
0.071157359 0.075127058 0.85913348
0.0038633943 0.081570268 0.85966682
0.0062523619 0.0829667 0.85756683
0.062993355 0.082915172 0.8570382
0.0078528831 0.086973295 0.85776675
0.010228734 0.089149289 0.855667
0.059729658 0.088398576 0.85610032
0.061908621 0.087462679 0.8586334
0.015030261 0.094012223 0.85646695
0.058500011 0.0925363 0.85755569
0.018220523 0.096645057 0.85626698
0.02140788 0.098737948 0.8560003
0.054135226 0.097941644 0.8560003
0.056678053 0.096999981 0.85823333
0.02356503 0.10204602 0.85702235
0.026176833 0.10343429 0.85533363
0.052717049 0.10227652 0.8562935
0.055106618 0.10144588 0.85870004
0.024707114 0.10716076 0.85969996
0.027396059 0.10716067 0.85785812
0.032591224 0.10911745 0.85623324
0.048546102 0.10908498 0.85597527
0.051044744 0.1069141 0.85771126
0.029520605 0.11037207 0.85980016
0.032699123 0.11080825 0.85904455
0.037402608 0.11396036 0.85671675
0.048626944 0.11325485 0.85739994
0.050278068 0.11177512 0.85828876
0.037904423 0.11666519 0.85903347
0.042202011 0.11795953 0.85681492
0.046815772 0.11780702 0.85715836
0.050372455 0.1159834 0.85990018
0.043155726 0.12158194 0.85990012
0.045520645 0.12147355 0.85913336
0.011092082 0.028833311 0.86070639
0.020018956 0.028976034 0.86496681
0.032843783 0.028103186 0.8628636
0.038038988 0.028296178 0.86388004
0.042485684 0.028896756 0.86260003
0.0022622959 0.033628482 0.86049992
0.0082833944 0.032438643 0.86078352
0.011905498 0.032064997 0.86149639
0.017537482 0.032080445 0.86194998
0.022612423 0.032592513 0.86136675
0.028228234 0.032551885 0.86229044
0.032814573 0.032085855 0.86208892
0.037394904 0.031849019 0.86110842
0.042416245 0.031251278 0.86117786
0.045566563 0.030409407 0.86000019
0.0081441933 0.035751093 0.86022311
0.011082493 0.035208706 0.86000019
0.028725518 0.035208706 0.86000019
0.031131383 0.035208706 0.86000019
-0.015399924 0.05927404 0.86100006
-0.015435696 0.061820675 0.86300004
-0.012195138 0.0625109 0.86145359
-0.0089712562 0.064039245 0.8604669
-0.015453582 0.065909393 0.86400002
-0.011013621 0.067060493 0.86328757
-0.0085794367 0.067716472 0.86141956
-0.010623351 0.07075686 0.86431593
-0.0069272569 0.072004378 0.86273718
-0.0036226008 0.073115475 0.86053348
0.074494667 0.072059132 0.86066675
-0.010594887 0.075377747 0.86200005
-0.0070712552 0.076158464 0.86358243
-0.0028788918 0.076686576 0.86228007
0.073196843 0.077174366 0.86191005
0.07634151 0.078712352 0.86340022
0.0028011671 0.081751786 0.86156672
0.0054717693 0.08484745 0.86046684
0.064813502 0.084801443 0.86000019
0.068152644 0.082293592 0.8616519
0.073149346 0.081956193 0.86372614
0.076408774 0.081193097 0.8641609
0.0054916958 0.086762898 0.86360008
0.064252108 0.08843074 0.8610667
0.068494201 0.086946309 0.86342514
0.07263609 0.086269014 0.86401695
0.062185802 0.093210652 0.86167628
0.066259213 0.092073694 0.86390495
0.018361965 0.099010885 0.86301118
0.057934105 0.0987859 0.86104459
0.0612984 0.097427465 0.86319453
0.022090713 0.10262311 0.86187774
0.057367511 0.10283243 0.86171436
0.060297888 0.10290477 0.86424464
0.024731655 0.10726817 0.86055428
0.053644281 0.10731577 0.86093336
0.056545042 0.10736661 0.86318582
0.024715733 0.1103977 0.86000001
0.028002104 0.11231171 0.86240321
0.032471236 0.11315737 0.86151999
0.052937377 0.11232054 0.86247784
0.055453159 0.11092399 0.86410022
0.033694446 0.11573953 0.86405015
0.036535408 0.11805188 0.86137778
0.051718503 0.11750723 0.86228335
0.038118117 0.12173302 0.86258584
0.042373385 0.12350579 0.86030006
0.047415067 0.12254979 0.86027634
0.051379699 0.12206867 0.86333901
0.039328475 0.1253615 0.86390018
0.04251492 0.12713026 0.86317235
0.04753809 0.12704232 0.86302924
0.050636046 0.12543406 0.86440015
0.023319386 0.029065365 0.86763334
0.028123224 0.029017352 0.86620015
0.036156263 0.027371246 0.86509997
0.041008707 0.027379379 0.86535722
0.024372518 0.03118737 0.8668223
0.027303342 0.03061391 0.86578351
-0.015498296 0.064488247 0.86650002
-0.013863039 0.064398929 0.86530006
-0.013083942 0.067764923 0.86716843
-0.01119835 0.072605498 0.86720234
-0.0090328753 0.073342837 0.86637664
-0.012252074 0.075683802 0.86550003
-0.0058171623 0.079200074 0.86874998
-0.0033749822 0.078912497 0.86559564
-0.0021718892 0.081211679 0.86865723
0.0010662874 0.082701683 0.86732507
0.076640867 0.08385817 0.86678559
0.0033608514 0.08614134 0.86812228
0.0055173435 0.088782057 0.8676334
0.074081272 0.087730005 0.86521435
0.0071400199 0.090998091 0.86824447
0.010376966 0.093670741 0.86806679
0.06854336 0.092706829 0.86660016
0.0712891 0.091430627 0.86723346
0.013088119 0.097537629 0.86894447
0.015232657 0.098507471 0.86800009
0.062864795 0.099120289 0.86630017
0.066991299 0.096828647 0.86741912
0.070364662 0.095402576 0.86913329
0.017129531 0.10178939 0.86844444
0.020586707 0.10314244 0.86624455
0.063132964 0.1020306 0.86775333
0.065493464 0.10185697 0.86902219
0.0184916 0.10508703 0.8689999
0.021695362 0.10599154 0.86758894
0.058842622 0.1088212 0.86655021
0.061232775 0.10727055 0.86835325
0.026477374 0.11427801 0.86515391
0.057017397 0.1129688 0.86745566
0.029825604 0.11716907 0.8686834
0.032792397 0.11829201 0.86760956
0.054005686 0.11771173 0.86673337
0.055751935 0.11798633 0.86875552
0.034678593 0.12199062 0.86849999
0.036270507 0.12351149 0.86783338
0.054102272 0.12276769 0.86828369
0.055806126 0.12133579 0.86959994
0.037887752 0.12754704 0.86783344
0.041086558 0.12903692 0.86700016
0.052177694 0.12752467 0.86768335
0.039578874 0.13101143 0.86940002
0.042989973 0.13197531 0.86813802
0.047565583 0.13229489 0.86720008
0.051711109 0.13174683 0.86891663
0.044432964 0.1374491 0.86919993
0.047466051 0.13722834 0.86908329
-0.0058350186 0.082686901 0.87141675
-0.0029097639 0.083647057 0.87130082
-0.0058322283 0.087506346 0.87100005
-0.0021251156 0.087522469 0.87345725
0.0017502997 0.088160686 0.87212372
0.0027037542 0.091430068 0.87365353
0.00716967 0.09327437 0.87190837
0.072156787 0.094008826 0.8712002
0.0088044172 0.095790438 0.87266654
0.01082948 0.097738504 0.87193334
0.068886109 0.098840363 0.87093353
0.071478128 0.097433269 0.87283325
0.012604456 0.10177062 0.87290007
0.015286481 0.10290661 0.87106693
0.068126857 0.10215927 0.87159997
0.070782974 0.10166232 0.87429994
0.016928999 0.1059932 0.87202221
0.063635394 0.10739417 0.87131673
0.066764966 0.10653597 0.87291992
0.059135769 0.11341265 0.87086689
0.06218813 0.11192527 0.87190008
0.065938935 0.11068716 0.87493336
0.029912008 0.11993846 0.87119997
0.058530707 0.11706486 0.87152004
0.061367452 0.11663108 0.87373316
0.032472733 0.12298256 0.87144768
0.057629637 0.12222072 0.87262857
0.033657983 0.12770371 0.87205714
0.036402833 0.12963225 0.87100023
0.054242469 0.12875316 0.87053347
0.056825638 0.12746511 0.87279987
0.034076139 0.1324925 0.87383318
0.038060009 0.13298948 0.87176192
0.042063706 0.13441572 0.87050015
0.053062327 0.13329767 0.87113333
0.056643128 0.13172929 0.87416655
0.038669262 0.13728267 0.87328881
0.042091876 0.13774616 0.87107801
0.049364232 0.13925765 0.87040019
0.052523226 0.13732694 0.87228334
0.039817095 0.14237541 0.87463331
0.042949334 0.14276072 0.87201488
0.047782823 0.1426201 0.87115574
0.05158167 0.14261137 0.87358326
0.043037668 0.14711662 0.8737998
0.047552709 0.1468015 0.87289321
-0.0042295419 0.087958448 0.87550002
-0.0016216815 0.092786059 0.87802869
0.0019774798 0.093977749 0.87695539
0.0055658841 0.094447687 0.87526673
0.0019809208 0.097039476 0.87809485
0.0072163036 0.097970463 0.87764758
0.073998705 0.098483592 0.87859166
0.0088531859 0.10121795 0.87750018
0.011308243 0.10366488 0.87748349
0.073199503 0.10315616 0.87811905
0.07616806 0.10232477 0.87999976
0.0685215 0.1084573 0.87664175
0.072282888 0.10742561 0.87931657
0.0643562 0.11321513 0.8756001
0.067570396 0.11276538 0.87844443
0.071244448 0.11132812 0.87999976
0.063837379 0.11786029 0.87744015
0.066668302 0.11735609 0.8791666
0.02810421 0.12212732 0.87820005
0.030072229 0.12383942 0.87586665
0.059416417 0.1237169 0.87500006
0.062714025 0.12234688 0.87830412
0.066320784 0.12114996 0.87999976
0.028562112 0.12601313 0.87966651
0.030785823 0.1276798 0.8776266
0.059468478 0.12708472 0.87576675
0.061784204 0.12724076 0.87966645
0.031396225 0.13199671 0.87865007
0.058793344 0.13228725 0.87786669
0.061397173 0.13097171 0.87999976
0.033979516 0.13617952 0.8783887
0.03628996 0.13822281 0.87616014
0.054612141 0.13859789 0.87646675
0.056400806 0.13734379 0.87886667
0.036864031 0.14261119 0.87776297
0.054158252 0.14209278 0.87792224
0.037922293 0.1468055 0.87802088
0.048001669 0.14897119 0.87515008
0.052252088 0.14700696 0.87800002
0.042682406 0.15187921 0.87869704
0.048379265 0.15216236 0.8782959
0.051545996 0.15060398 0.87993306
0.044328563 0.15683584 0.87999976
0.04701801 0.15669213 0.87964988
0.0039605522 0.098375902 0.88128573
0.0055966205 0.099880666 0.88009989
0.076668732 0.098347582 0.88103318
0.0064268466 0.10167317 0.88144654
0.077571332 0.10293441 0.88102198
0.074083112 0.10929698 0.88122207
0.077501841 0.10851423 0.88183457
0.022107262 0.11265592 0.884
0.06971395 0.11396503 0.88139987
0.073067017 0.11324578 0.88218582
0.076937236 0.11219847 0.88255006
0.023781888 0.11524451 0.88493323
0.027005076 0.11901772 0.88239646
0.06910219 0.11846968 0.88198006
0.073174909 0.11669838 0.88348007
0.076579183 0.11604342 0.88475013
0.025919184 0.12290578 0.88282222
0.064689405 0.12444277 0.88013303
0.067849316 0.12284658 0.88278675
0.027293185 0.12811817 0.88290006
0.064168006 0.12831476 0.88198662
0.066603415 0.12742108 0.88375008
0.028265795 0.13268726 0.88324171
0.030247333 0.13357398 0.88096654
0.059796683 0.1343372 0.88059986
0.062537439 0.13326712 0.88218671
0.031920675 0.13780673 0.88183993
0.058655404 0.13741574 0.88195837
0.060054716 0.13820718 0.88440013
0.033634864 0.14302014 0.88363338
0.054898772 0.14424211 0.88106668
0.057076365 0.14250019 0.88296676
0.036011085 0.14838049 0.88131648
0.054104958 0.14759508 0.8815167
0.055661459 0.14809112 0.88447785
0.037870146 0.15235695 0.88249332
0.040137295 0.15418082 0.8816666
0.052487798 0.15258889 0.88194996
0.038631938 0.15720652 0.88485014
0.04128493 0.15759623 0.88111413
0.048848119 0.15727013 0.88059992
0.05088985 0.1576584 0.88277507
0.042301264 0.1623394 0.88270962
0.046203252 0.1619644 0.88236666
0.041920621 0.16621242 0.8846001
0.017024919 0.11250382 0.88765001
0.022163294 0.11294061 0.88622689
0.078251369 0.11360694 0.88500005
0.018254487 0.11710254 0.88903999
0.021969436 0.11733755 0.88675153
0.025470782 0.11789188 0.88627249
0.074125022 0.11854576 0.88500017
0.076600827 0.11854575 0.88500005
0.018504979 0.12199146 0.88911664
0.022178393 0.12209312 0.88685167
0.072210975 0.12222492 0.88609511
0.07596387 0.12214189 0.88719481
0.022204686 0.12719589 0.88791841
0.025459122 0.12854914 0.88586658
0.068382487 0.12684159 0.88544446
0.071868226 0.12716262 0.8876887
0.075945117 0.12700757 0.88891667
0.023049727 0.13224423 0.88854432
0.025873797 0.13226715 0.88593334
0.06704919 0.13220572 0.88689995
0.071425594 0.13176857 0.88905549
0.023903709 0.13568987 0.88946664
0.026964139 0.13730197 0.88784987
0.030385835 0.13830096 0.88500017
0.062160552 0.13815641 0.8861866
0.065948427 0.13682525 0.88823998
0.028439272 0.14176475 0.88864994
0.031092728 0.14213957 0.88634664
0.058455955 0.14326677 0.88516676
0.06215851 0.14226846 0.88792485
0.065341093 0.14057976 0.889
0.028882477 0.14562823 0.88953328
0.031924453 0.14718205 0.88767487
0.03534276 0.14984746 0.8851335
0.058122039 0.14717114 0.88636649
0.060987763 0.14676085 0.88837326
0.033162992 0.15176865 0.88866651
0.035411976 0.15261562 0.88686639
0.05349737 0.15477535 0.88506681
0.056955151 0.15189685 0.8874855
0.060376156 0.15052462 0.88913333
0.033852693 0.15718026 0.8893556
0.036609631 0.15728629 0.88729513
0.053022239 0.15828954 0.88631105
0.05580879 0.15670705 0.88901675
0.033872146 0.16058068 0.88986671
0.037083622 0.162324 0.88733321
0.040289041 0.16381821 0.88500017
0.048021894 0.16419588 0.88555557
0.051980406 0.16204716 0.88732219
0.037141237 0.16698293 0.88870472
0.041991808 0.16835116 0.88610822
0.046745595 0.16778462 0.88669503
0.051072717 0.16667645 0.88882667
0.038380381 0.17150655 0.8885833
0.041838069 0.17309934 0.88721633
0.047105879 0.17200971 0.88904756
0.038399048 0.17737861 0.88901663
0.042333994 0.17729732 0.88831419
0.04544853 0.17532088 0.8890667
0.038833506 0.18119109 0.88946676
0.041028857 0.18084282 0.8891111
0.0040182299 0.1064615 0.89412028
0.0076748738 0.10697073 0.89280927
0.01122975 0.10909009 0.89293361
0.014022138 0.11144035 0.89403367
0.016042138 0.1180371 0.89047527
0.016480235 0.12276972 0.89176679
0.018313672 0.12744036 0.89194024
0.019012947 0.13215014 0.89350021
0.020619417 0.13259687 0.89091128
0.073315136 0.13384601 0.89187807
0.075513482 0.13187709 0.89165008
0.022602001 0.13784318 0.89269465
0.068427846 0.13806 0.8914085
0.071660861 0.13728146 0.89336032
0.024038093 0.14227664 0.894467
0.026287857 0.14297885 0.89158022
0.067241289 0.14274397 0.89219081
0.027311374 0.14776862 0.89246696
0.063402295 0.14791946 0.89087516
0.065695532 0.14799416 0.89382243
0.029026978 0.15217748 0.89398366
0.031041734 0.15308701 0.89201695
0.05878396 0.1540056 0.8901335
0.061987761 0.15274167 0.8924225
0.031473611 0.15773195 0.89247805
0.058248259 0.15799509 0.89208686
0.060712647 0.1580172 0.89408916
0.032094497 0.16290742 0.89241272
0.05381773 0.16398349 0.89036679
0.056303233 0.16245905 0.89290696
0.03279721 0.16777574 0.89291942
0.035562359 0.16900282 0.8906334
0.053541478 0.16814606 0.89267522
0.033345982 0.1725533 0.89357364
0.036240477 0.17271364 0.89097357
0.048859838 0.17400558 0.89080024
0.051301949 0.17240497 0.89280689
0.034023136 0.17792344 0.8938337
0.036246907 0.17705573 0.89114028
0.047456883 0.17771199 0.89172518
0.050706469 0.17630687 0.89406711
0.034024402 0.18291855 0.89386708
0.036777884 0.18264307 0.89136213
0.042793784 0.18294995 0.89131689
0.046239261 0.18176953 0.89366704
0.034034554 0.18713118 0.89413363
0.037314203 0.18769151 0.89283741
0.042111758 0.18751994 0.89300865
0.037374169 0.1913131 0.89424473
0.041577306 0.19146758 0.8949666
0.0029117493 0.10776361 0.89572698
0.005692028 0.10824364 0.89510357
0.003366753 0.11164119 0.89831913
0.0073806709 0.11186863 0.89746147
0.01237845 0.1130463 0.8957777
0.0076252907 0.11648376 0.89811456
0.012179161 0.11696269 0.89652503
0.012878344 0.12163537 0.89738119
0.01571526 0.1249496 0.89549994
0.014090624 0.1253543 0.89840025
0.016298272 0.12849481 0.89700025
0.017943719 0.133293 0.89560014
0.075797193 0.1348691 0.89500004
0.018545019 0.13695845 0.897789
0.020737192 0.13835329 0.89599997
0.073411644 0.13842019 0.89643335
0.075966761 0.13767454 0.8970024
0.019112252 0.14035855 0.89816689
0.021425208 0.14215469 0.89684677
0.072679684 0.14195736 0.89770973
0.076712258 0.14163595 0.8992002
0.022914082 0.14663877 0.89716196
0.068586908 0.14714333 0.89674681
0.071069099 0.14626673 0.89853352
0.024139604 0.15206788 0.89824468
0.026866868 0.15253936 0.89611119
0.064170212 0.15331963 0.89579999
0.067326784 0.15165272 0.89777344
0.027253093 0.15713811 0.89738339
0.063548826 0.15710048 0.89645338
0.066014029 0.15706474 0.89815587
0.027676446 0.16196866 0.89755845
0.058602974 0.16332151 0.89582223
0.062274802 0.16160032 0.89736682
0.027463725 0.16695364 0.89742976
0.030731462 0.16651405 0.89506686
0.057800349 0.16733612 0.89692396
0.061032541 0.16553669 0.89880025
0.024167975 0.17399319 0.89930034
0.027467368 0.17198181 0.89753354
0.031176466 0.17249531 0.89586663
0.053597372 0.1733415 0.89593333
0.056607734 0.17168745 0.89774024
0.027483802 0.1770913 0.89804471
0.031597413 0.17751254 0.8959555
0.052763019 0.17776108 0.8966096
0.056043189 0.17569204 0.89943367
0.027483398 0.18210067 0.89803368
0.031430472 0.18201348 0.89595997
0.047784332 0.1835953 0.89554662
0.052327592 0.18209976 0.89802796
0.027478186 0.18707879 0.8978743
0.031954568 0.1871506 0.89593333
0.047739748 0.18726628 0.89648575
0.050956957 0.18637082 0.89848363
0.027697431 0.19236745 0.89819604
0.032235857 0.19196178 0.89630002
0.037446734 0.19335072 0.89597774
0.043136403 0.19238713 0.89614666
0.0473703 0.19190298 0.89797521
0.028496662 0.19685957 0.89830029
0.032481607 0.19697982 0.89732617
0.037449554 0.1966987 0.89604443
0.042509504 0.19691139 0.89701134
0.046541248 0.19634187 0.89950019
0.02918986 0.20152825 0.89900005
0.032498308 0.20208965 0.89777797
0.037474882 0.20183638 0.89665198
0.042092603 0.20197184 0.89831454
0.033346146 0.20549157 0.89805031
0.037746195 0.20697315 0.89813364
0.040919546 0.2065112 0.89885032
0.0023674583 0.11392156 0.90050006
0.003382846 0.11723304 0.90277147
0.0065694209 0.11901069 0.90098369
0.0076328511 0.12238163 0.90266258
0.010768261 0.12317587 0.90080035
0.0091255922 0.12620543 0.90450001
0.012747135 0.12756072 0.90218347
0.014162778 0.13103534 0.90299994
0.015823089 0.13251658 0.90164471
0.016676316 0.13765495 0.90235007
0.018370552 0.14277652 0.90289164
0.074616656 0.14413741 0.90090042
0.077120841 0.14410743 0.90071267
0.019223612 0.14621791 0.9034
0.020858318 0.14838234 0.90123367
0.07347165 0.14783923 0.90157169
0.077049285 0.14730856 0.90184104
0.021712177 0.15267447 0.90182799
0.069007635 0.15361498 0.90078926
0.072848625 0.15235408 0.90277153
0.076536335 0.15215532 0.90372783
0.023050051 0.15758252 0.90249056
0.068782769 0.15765083 0.90150577
0.071488284 0.15805817 0.90383333
0.023844756 0.16252312 0.90295833
0.02588542 0.16253567 0.90070027
0.063965417 0.16366272 0.90075588
0.067458861 0.16230603 0.90252787
0.023416257 0.16793202 0.90268904
0.062942661 0.16782863 0.90213346
0.022845514 0.17289867 0.90231681
0.059087612 0.17308286 0.90109199
0.062462803 0.17224754 0.90330559
0.022762183 0.17762445 0.90181267
0.057886537 0.17787054 0.9019953
0.061338138 0.17644733 0.90329999
0.022407889 0.18272997 0.90279675
0.054510802 0.18371043 0.90183353
0.056238446 0.1813409 0.90256661
0.022573505 0.18807694 0.90266299
0.053134561 0.18798833 0.90223902
0.022798004 0.19302349 0.90322506
0.025873922 0.19093393 0.9003002
0.049496081 0.19473659 0.90240008
0.052039597 0.19228476 0.90270841
0.024266073 0.19737503 0.90294999
0.026323192 0.1982756 0.901317
0.048127327 0.19833055 0.90195352
0.051315203 0.19525446 0.90480006
0.024307722 0.20023742 0.90450001
0.027320854 0.20301819 0.90190572
0.044417582 0.20383438 0.90180004
0.046987943 0.20235902 0.90270406
0.028770177 0.2072736 0.90338892
0.032392751 0.20844004 0.9015097
0.035960324 0.20942575 0.90060043
0.043042719 0.20815165 0.90233898
0.046242587 0.20530775 0.90460002
0.033020247 0.21231048 0.90289325
0.037694816 0.21224816 0.90191126
0.041106965 0.2116558 0.90296662
0.0023838298 0.11976943 0.90672737
0.0034004096 0.1229025 0.90744388
0.0057549607 0.12459173 0.90500003
0.0028109807 0.12710625 0.90793347
0.0074537038 0.1278739 0.906389
0.010830429 0.12894267 0.90600008
0.0040851701 0.13190861 0.90901536
0.0072544012 0.13195056 0.90785038
0.01252221 0.13318734 0.90621442
0.0081528379 0.13628335 0.90886641
0.012535693 0.13755597 0.9072336
0.015897777 0.13988191 0.90590006
0.01283644 0.14197481 0.9085114
0.016458884 0.14323609 0.9058001
0.013407988 0.14712073 0.90897793
0.017033955 0.14727978 0.90648907
0.014263156 0.15226495 0.90940005
0.017610738 0.15189093 0.90717059
0.073276512 0.15491135 0.90510005
0.014272569 0.15574999 0.90999991
0.017621076 0.1570448 0.9076966
0.020964004 0.15840104 0.90580004
0.073346674 0.15758774 0.90596676
0.076023243 0.15703802 0.90765411
0.017636038 0.162246 0.90845954
0.021390583 0.16222502 0.90598345
0.069962256 0.16347402 0.90590006
0.072761931 0.16233937 0.90709364
0.075247042 0.16225593 0.90851134
0.017641386 0.16736899 0.90874839
0.0213996 0.16651067 0.90637505
0.067624077 0.16724813 0.90626013
0.071667664 0.16716135 0.90876687
0.01812673 0.17220686 0.90879071
0.020989722 0.17209136 0.90691137
0.064936697 0.17285714 0.90650022
0.067584909 0.17229937 0.90800029
0.071124896 0.17097877 0.90996659
0.018493757 0.17755644 0.90897793
0.062825352 0.17749931 0.90652519
0.066298462 0.17724133 0.90860021
0.018659651 0.18293189 0.90880024
0.058759879 0.18275976 0.90682811
0.062574826 0.18263911 0.90902233
0.065187424 0.18114167 0.90999991
0.018907841 0.18760298 0.90850031
0.05743517 0.18753646 0.90817237
0.060661633 0.18678427 0.90999991
0.018485455 0.19268329 0.90855026
0.054821763 0.19235136 0.90697795
0.056664187 0.1911722 0.90939993
0.018908191 0.19732183 0.90850866
0.021650875 0.19759777 0.90628016
0.052476071 0.19783115 0.90735358
0.055002436 0.19636942 0.90996665
0.023029167 0.20221999 0.90736008
0.049702708 0.2022927 0.90616679
0.051535875 0.20201099 0.90869099
0.024398798 0.20774351 0.90788931
0.026469026 0.20780361 0.90630853
0.048068922 0.20758441 0.90719545
0.024444791 0.2115186 0.90960002
0.027757624 0.2126105 0.9070372
0.031106833 0.21405217 0.90600008
0.043507028 0.21297081 0.90617794
0.046412993 0.21282117 0.90793353
0.028801596 0.21754281 0.90790701
0.032812729 0.21753636 0.90647054
0.037866775 0.21742778 0.90601867
0.042836353 0.21799308 0.90837526
0.0023947959 0.12794563 0.91089833
0.0023942743 0.13215142 0.91070002
0.0032492508 0.13659665 0.91209203
0.0066446154 0.13818678 0.91138589
0.0087948125 0.14240465 0.91397524
0.01089139 0.14322788 0.91109991
0.010914106 0.14777167 0.91300005
0.011928805 0.15245105 0.91254008
0.013281949 0.15812527 0.91198665
0.013447854 0.16282474 0.91170001
0.077148385 0.16269229 0.91095465
0.013454416 0.16799144 0.91212779
0.073689416 0.16932945 0.91019994
0.076184981 0.16755944 0.91162091
0.013634374 0.1728671 0.91278678
0.015977036 0.17360391 0.9104166
0.07217057 0.17314062 0.91244012
0.075676814 0.17253059 0.91370022
0.013766208 0.17683227 0.91397792
0.01601097 0.17736679 0.91235006
0.068596788 0.17779519 0.91019994
0.071422532 0.17594159 0.91376686
0.014346453 0.18207957 0.91471148
0.016433112 0.1815846 0.91222501
0.067061931 0.18204325 0.91240007
0.014349414 0.18637177 0.91490042
0.01668267 0.18729283 0.9119333
0.063019834 0.18763006 0.9113667
0.06590046 0.18661396 0.91400027
0.01434715 0.19229777 0.91475588
0.016020624 0.19190764 0.91290003
0.057644133 0.19330388 0.91147506
0.061484884 0.19153456 0.91381693
0.014348892 0.19572504 0.91486704
0.016690003 0.1978986 0.91234004
0.056890294 0.19702226 0.91300017
0.01884005 0.20247829 0.91206676
0.021095924 0.20348258 0.91149998
0.052798122 0.20336463 0.91097027
0.05519082 0.20128873 0.91308343
0.019464772 0.20590596 0.91473353
0.021988153 0.2072819 0.91329455
0.052817304 0.20761366 0.91326016
0.023659775 0.21209362 0.91208339
0.048859447 0.21195096 0.91145563
0.051418468 0.212143 0.91411686
0.026154606 0.2175523 0.9100666
0.0041188071 0.13981387 0.91650003
0.0032702887 0.14265087 0.91829908
0.0066788741 0.14314961 0.91602522
0.0032736822 0.14536065 0.9192332
0.0075400039 0.14758661 0.91713339
0.007329734 0.15212864 0.91751248
0.010938016 0.15490369 0.91500038
0.0075532477 0.15722007 0.91858876
0.010938016 0.15745679 0.91500038
0.0041333376 0.16169301 0.91973329
0.0075456947 0.16219491 0.91773331
0.010938016 0.16171198 0.91500038
0.008403914 0.16733702 0.91784436
0.010938016 0.16681822 0.91500038
0.008577643 0.17217444 0.91814661
0.010938812 0.17193706 0.91506702
0.0092617897 0.17761111 0.9179998
0.011627579 0.17748386 0.91558039
0.073096789 0.17797758 0.91695005
0.076007932 0.17755544 0.91769773
0.0092729991 0.18295626 0.91911107
0.011817477 0.18255521 0.91709995
0.069007531 0.18311846 0.91565013
0.070929348 0.18281929 0.91842216
0.0092779314 0.1873292 0.91960001
0.01218731 0.18797407 0.91738087
0.068463974 0.18809776 0.91750658
0.0092816316 0.1916821 0.9199667
0.012004175 0.19269164 0.91825312
0.063409179 0.19390701 0.917
0.066446744 0.19264169 0.91801322
0.01268955 0.1964723 0.91836661
0.058219254 0.19882204 0.91606671
0.061745156 0.19746768 0.91768879
0.06674967 0.19593188 0.91983336
0.014413198 0.20002103 0.91896653
0.016652288 0.20288639 0.91646689
0.057430808 0.2030278 0.9171055
0.061596356 0.20104334 0.91973335
0.018165827 0.20769739 0.91814661
0.056370512 0.20758949 0.91841662
0.018693451 0.21194443 0.91878331
0.022044919 0.21291994 0.91562527
0.055498734 0.21180515 0.9181776
0.0032814264 0.14830008 0.92155844
0.0029117737 0.15280245 0.92138582
0.0024251489 0.15802926 0.92331856
0.002079169 0.16272557 0.9226867
0.0024282534 0.16724789 0.92409039
0.005853314 0.16781579 0.92046672
0.0041555087 0.17202128 0.92466646
0.0064340034 0.1732071 0.92183352
0.0067207203 0.17751019 0.92191678
0.0065608667 0.18246418 0.92354661
0.073666766 0.182381 0.92052507
0.076656558 0.18320209 0.92035007
0.0067339321 0.18729813 0.92366666
0.073156908 0.18721551 0.92219591
0.076478846 0.18810052 0.92338336
0.0075866133 0.19201824 0.92275715
0.069335371 0.19254473 0.92000002
0.072821029 0.19201285 0.92430538
0.076585121 0.19266145 0.9246664
0.0087425793 0.196429 0.92351109
0.011599361 0.19847004 0.92234451
0.064187974 0.19853453 0.92000002
0.068091691 0.19753906 0.92174006
0.071421899 0.19612981 0.9247998
0.013444245 0.2029877 0.9231267
0.063135602 0.20281972 0.92132229
0.066765897 0.2016923 0.92401105
0.014494584 0.20802772 0.92415541
0.01618587 0.2084713 0.92231679
0.059116814 0.20736063 0.92118901
0.06168694 0.20757103 0.9236533
-0.0010199446 0.16717409 0.92639977
0.0007068094 0.16521791 0.92509973
-0.0010226726 0.17280526 0.92887783
0.0015728744 0.17253776 0.92743874
0.0029306929 0.17750427 0.92764282
0.004167418 0.1820028 0.92731667
0.0041777794 0.18677674 0.92962241
0.078383066 0.18939869 0.92553318
0.0041761813 0.19102716 0.92926687
0.0058872304 0.19461969 0.92579979
0.073742829 0.19389193 0.92506647
0.077619091 0.19265604 0.92670822
0.0064675785 0.1976629 0.92661095
0.072789766 0.19786958 0.92757773
0.075744033 0.1974792 0.92844456
0.0086724041 0.20169918 0.92825997
0.011067117 0.20237005 0.92579979
0.068827413 0.20280495 0.92700654
0.071797743 0.2006207 0.92966682
0.0093805082 0.20669582 0.92976689
0.011779699 0.2074234 0.9276067
-0.0016076121 0.17815131 0.9327445
0.00071093527 0.17829862 0.93050021
-0.0019009029 0.18256833 0.93463326
0.001405876 0.1823453 0.93172014
-0.0010294132 0.1869877 0.93499988
0.0015831776 0.18756281 0.93353337
0.0021614805 0.19267191 0.93304998
0.003757973 0.19747698 0.93320006
0.077330537 0.19974707 0.93366677
0.004200899 0.20259085 0.93476653
0.006502178 0.20276298 0.93156677
0.072768211 0.20263679 0.93098354
0.07558386 0.20146953 0.93360025
-0.0045198863 0.18449709 0.93559992
-0.0021964204 0.18819825 0.93669993
-0.0024906031 0.19185035 0.93751663
0.00071485742 0.19494642 0.93563324
-0.0016171811 0.19612582 0.93850011
0.0012979185 0.19819027 0.93725544
0.0015906334 0.20247047 0.93823338
-0.0019137233 0.19870782 0.94108367
-0.0014778866 0.202456 0.94224185
