# .PCD v0.7 - Point Cloud Data file format
VERSION 0.7
FIELDS x y z
SIZE 4 4 4
TYPE F F F
COUNT 1 1 1
WIDTH 795
HEIGHT 1
VIEWPOINT 0 0 0 1 0 0 0
POINTS 795
DATA ascii
-0.036239848 0.025982145 0.18781245
-0.034438111 0.0051048482 0.19269186
-0.028306769 0.030654574 0.18982625
-0.032635082 0.022709481 0.1911515
-0.034718569 0.012783665 0.18984213
-0.037566472 0.0032309666 0.18941694
-0.03839092 -0.00096179079 0.18962109
-0.031192806 0.032242812 0.18757862
-0.035516281 0.023568163 0.18787664
-0.037124746 0.014030638 0.18585551
-0.032790579 0.032900617 0.18347481
-0.036906272 0.024647383 0.18306738
-0.037709717 0.015848424 0.18186489
-0.035519127 0.029513601 0.17841434
-0.037259169 0.021378564 0.17832094
-0.035700932 0.030594232 0.17517924
-0.029849192 -0.00025157817 0.19408628
-0.031545874 -0.0045606438 0.1938459
-0.02149128 0.026572552 0.19137004
-0.023096463 0.023431525 0.19185558
-0.027095282 0.015426807 0.1923371
-0.030925866 0.0057154396 0.19270495
-0.035333574 -0.0028837603 0.19279554
-0.035465911 -0.0078212172 0.19150931
-0.036051925 -0.010884952 0.1900855
-0.023409726 0.02956083 0.18964538
-0.02831012 0.020938314 0.19182658
-0.031782996 0.011844427 0.19125959
-0.039021075 -0.0017594881 0.18758366
-0.038632464 -0.0061392169 0.18795517
-0.037600368 -0.011112672 0.18707913
-0.024000851 0.032938909 0.18455473
-0.037902046 0.0036232425 0.18336821
-0.0387851 -0.00099883229 0.18257335
-0.038889758 -0.0057942355 0.18265113
-0.02564325 0.035574522 0.17893258
-0.027520537 0.034155421 0.18008193
-0.037615299 0.0087040421 0.17916998
-0.038744096 -0.00085935276 0.17848021
-0.030834626 0.033747528 0.17650455
-0.037470438 0.019910159 0.17619544
-0.038151503 0.0093489904 0.17440152
-0.032639619 0.033424087 0.17234075
-0.03668179 0.025343213 0.17217714
-0.038281236 0.01627478 0.17125645
-0.033859003 0.033188339 0.16793337
-0.036910556 0.025896933 0.16740969
-0.018715223 0.015387549 0.1922071
-0.021775153 0.0082363598 0.19194305
-0.026569046 -0.0016341014 0.19371077
-0.027584262 -0.0062749563 0.19391379
-0.029652998 -0.010420149 0.1930159
-0.030945603 -0.014890695 0.19159865
-0.017141948 0.027077224 0.19037709
-0.019787636 0.02284795 0.19230056
-0.023297841 0.013871106 0.19251239
-0.026717091 0.0060669086 0.1922695
-0.034983873 -0.013526708 0.18992803
-0.033610713 -0.017672086 0.18812621
-0.017672408 0.032632485 0.18603864
-0.019236337 0.030292884 0.18870756
-0.037302192 -0.013215238 0.18523443
-0.035490904 -0.016577318 0.18363902
-0.019591026 0.034501262 0.18301612
-0.038741887 -0.0068187816 0.17999482
-0.037621234 -0.01157252 0.18075764
-0.022038389 0.036406845 0.17901105
-0.03840391 -0.00090344064 0.17579386
-0.038201749 -0.0062257946 0.17562959
-0.037672028 -0.010123122 0.17614824
-0.024069361 0.036370039 0.17425334
-0.027151614 0.034734562 0.17498401
-0.037359938 0.0036565308 0.17183748
-0.038170785 -0.0008292282 0.1712572
-0.038673542 -0.0054526133 0.17045721
-0.028182777 0.034600906 0.17002231
-0.037268691 0.0095623285 0.16780716
-0.038284797 -0.00064204074 0.16767994
-0.039284457 -0.0035905987 0.16742119
-0.030479515 0.033809714 0.1656132
-0.036655594 0.025773728 0.16390318
-0.03690001 0.015801787 0.1642139
-0.032224614 0.033185877 0.16128039
-0.036300719 0.025566503 0.16061527
-0.036767278 0.016294805 0.15981105
-0.035551347 0.025746927 0.15607363
-0.022478048 -0.013586383 0.1936886
-0.025073487 -0.019270893 0.19356474
-0.025117097 -0.020977493 0.19403964
-0.011360358 0.024332264 0.19058651
-0.014237722 0.02081681 0.192
-0.017076083 0.011560336 0.19231194
-0.020961076 0.0023250524 0.19248521
-0.021832546 -0.0032767905 0.19284576
-0.023402866 -0.0080791889 0.19385904
-0.025590498 -0.012232002 0.19392845
-0.026567401 -0.016856685 0.19229907
-0.029297899 -0.020975307 0.1907849
-0.0097205751 0.034013003 0.18683156
-0.012170034 0.031233417 0.18874606
-0.013840281 0.027399361 0.1905165
-0.033310745 -0.020759368 0.18613389
-0.011835513 0.035396907 0.18426967
-0.014194829 0.032975134 0.18600017
-0.03496173 -0.019623064 0.18249309
-0.03387399 -0.021738809 0.17945042
-0.014519622 0.036090329 0.18276641
-0.034621302 -0.017708112 0.17754787
-0.018505458 0.038312484 0.17684516
-0.037328791 -0.012047748 0.17402095
-0.035051487 -0.015920196 0.1743767
-0.018603999 0.038391385 0.17099458
-0.021049287 0.037099671 0.17083007
-0.039577574 -0.0068971654 0.16849357
-0.037929434 -0.011198894 0.1688109
-0.023020118 0.035178732 0.16896832
-0.023503363 0.033920027 0.16516793
-0.03765323 -0.00079182256 0.16447347
-0.039214954 -0.0054368638 0.16475433
-0.039053686 -0.0092803147 0.16501719
-0.025977882 0.033894893 0.16291794
-0.037282288 0.0042780908 0.1610688
-0.037435789 -0.00016438682 0.1604827
-0.038603395 -0.0053553749 0.16091621
-0.028210498 0.034467008 0.15845743
-0.037064418 0.010784728 0.15742809
-0.030018387 0.033669148 0.15548581
-0.035828076 0.026365219 0.15286544
-0.037187915 0.016651338 0.15396926
-0.029803548 0.035544917 0.15073636
-0.035435908 0.026319068 0.14841419
-0.035311416 0.02962506 0.14484566
-0.017136578 -0.022137385 0.19947672
-0.016722931 -0.017869316 0.19491252
-0.018261623 -0.020690173 0.19681197
-0.019825086 -0.023436256 0.19691503
-0.0041416357 0.021366876 0.19315797
-0.0052583534 0.018425411 0.19297087
-0.012055332 0.0038111308 0.19345418
-0.013108997 -0.00050450349 0.19304579
-0.015365217 -0.0051551252 0.19288516
-0.017794516 -0.0099866949 0.19316247
-0.018657928 -0.015267704 0.19390732
-0.021299928 -0.019023774 0.19364038
-0.021938801 -0.022420244 0.19467014
-0.004316709 0.027526235 0.19032905
-0.0066144574 0.024114376 0.19158158
-0.009182361 0.019443329 0.19233173
-0.010366447 0.014065521 0.19200915
-0.014508676 0.006042602 0.19282863
-0.018058501 -0.0034952885 0.19218311
-0.0058579119 0.033956893 0.18680525
-0.0067285271 0.029727437 0.18876687
-0.0089417752 0.02597148 0.18969733
-0.0071821958 0.034988523 0.18290934
-0.033987962 -0.019830285 0.17451069
-0.032345105 -0.022740483 0.17506611
-0.033431876 -0.018267069 0.17122999
-0.032367125 -0.022186354 0.17105579
-0.032779347 -0.016688613 0.16633102
-0.037203901 -0.011473824 0.16166171
-0.021866858 0.033580333 0.16034025
-0.037065778 -0.0019299844 0.15786943
-0.037780285 -0.0055956589 0.15753832
-0.03769413 -0.0097484691 0.15758333
-0.024871971 0.034835145 0.15877759
-0.036695696 -0.0007880982 0.15359119
-0.037664104 -0.0054771509 0.15279618
-0.038209334 -0.0086517641 0.15219077
-0.028037764 0.034237638 0.15176201
-0.036573764 0.010902978 0.15020248
-0.037179664 -0.00017404743 0.14863819
-0.038144473 -0.0047791796 0.14876133
-0.028466579 0.03348197 0.14833212
-0.030838199 0.031982776 0.14652616
-0.034651466 0.02024354 0.14663824
-0.036575656 0.011440901 0.14582151
-0.037982617 0.002509621 0.14477095
-0.028809492 0.033929579 0.1429843
-0.035050452 0.025685245 0.14284581
-0.036141139 0.016776593 0.14169648
-0.038511664 0.0073409234 0.1410442
-0.033078078 0.030807385 0.13806915
-0.035811566 0.021962807 0.13734508
-0.034007132 0.030954817 0.13440481
-0.036786377 0.024039999 0.13358513
-0.013087779 -0.019576179 0.19801098
-0.015239346 -0.020381361 0.198937
-0.007335267 -0.0038065682 0.19363505
-0.0094489967 -0.0072196266 0.19385675
-0.011539266 -0.012334825 0.19361097
-0.013565162 -0.017530579 0.19484022
0.0011760378 0.025748027 0.19191185
-0.001221349 0.021902485 0.19355816
-0.0030932399 0.01639835 0.19370261
-0.0047429726 0.011704372 0.19219404
-0.0061256872 0.0070983637 0.19245958
-0.009803107 -0.0019144386 0.19363022
-0.012120727 -0.0060818628 0.19376141
-0.014076559 -0.011233698 0.1934337
0.0011875741 0.03044555 0.18865445
-0.0013938565 0.027921008 0.19049078
-0.0011453833 0.03288449 0.18681511
-0.030686514 -0.02023714 0.16690183
-0.030660275 -0.022875041 0.16800782
-0.031464886 -0.019220976 0.16390026
-0.011528453 0.036260951 0.16245121
-0.015025081 0.034168988 0.16298378
-0.033093616 -0.017050769 0.16022405
-0.016188782 0.033603363 0.15880528
-0.019683644 0.03294269 0.15694821
-0.035819992 -0.012854317 0.15610853
-0.033111833 -0.016201029 0.15538979
-0.01757759 0.03394451 0.15501899
-0.036868647 -0.011805035 0.15138704
-0.019133184 0.033091776 0.15097257
-0.03809784 -0.0016298601 0.14663893
-0.038868926 -0.0051566036 0.14653617
-0.037797406 -0.0098738167 0.14643002
-0.024649432 0.033400245 0.14369658
-0.037790317 -0.0001368504 0.14254636
-0.037843496 -0.0044547161 0.14245713
-0.037729274 -0.0085343253 0.14243242
-0.026315093 0.034790508 0.14070997
-0.029531 0.032679573 0.14019811
-0.037283964 0.012051791 0.13883623
-0.038457509 0.0014229389 0.13825291
-0.030052658 0.034745693 0.13733816
-0.030736782 0.033317275 0.1373378
-0.035719875 0.016488861 0.1351234
-0.037853088 0.0070521501 0.13447294
-0.028782282 0.034528106 0.1326071
-0.036225766 0.027381483 0.13041437
-0.035413079 0.018488646 0.13097367
-0.036202386 0.027315816 0.12693077
-0.036552787 0.02676877 0.12302363
-0.0066010412 -0.019702302 0.19454363
0.0088621257 0.026578873 0.19306695
0.007936487 0.023534887 0.19274992
0.0052906312 0.019406598 0.19306597
0.0026904312 0.013833797 0.19358847
0.0017258025 0.0084894169 0.19280076
-0.00058719516 0.0045938827 0.19318509
-0.0047766082 -0.0035912329 0.19370383
-0.005542737 -0.0092219245 0.19381297
-0.0066352477 -0.01357776 0.19342124
-0.0082617486 -0.017645281 0.19366658
0.0086533539 0.032034796 0.1890834
0.0063851881 0.02913031 0.19115448
0.0045985407 0.025174107 0.19239673
0.0024690595 0.022179073 0.19347882
-0.0019832277 0.0094833747 0.19247329
0.0072422009 0.033581741 0.18655634
0.003854814 0.031749927 0.18837887
0.0044670887 0.034672085 0.18317303
-0.00010972191 0.0341154 0.18147564
-0.028328389 -0.025003502 0.16479975
-0.030634647 -0.020953305 0.16103372
-0.029463354 -0.023682874 0.16191819
-0.0078462949 0.035149787 0.15804383
-0.0093763797 0.03398747 0.15861973
-0.031232841 -0.020142464 0.15737468
-0.030766927 -0.022540182 0.15782297
-0.0090629738 0.035795439 0.15515777
-0.011330404 0.034212124 0.15605867
-0.032203548 -0.017706472 0.15345848
-0.014171952 0.032956846 0.14979643
-0.032471959 -0.016269241 0.14833719
-0.015916497 0.032102898 0.1467908
-0.03567943 -0.012980666 0.14460155
-0.037003934 -0.0064431857 0.13941923
-0.037049577 -0.010702205 0.13991994
-0.021300916 0.033903856 0.13725621
-0.037937328 -0.004189847 0.13621426
-0.037603006 -0.0097200517 0.13470313
-0.025108885 0.034768611 0.13320255
-0.036766879 0.0075559239 0.13200581
-0.037884422 -0.0028624982 0.13080367
-0.038201809 -0.0075817825 0.13071901
-0.028119929 0.032844022 0.12778634
-0.03529549 0.011915282 0.1281324
-0.037198044 0.0025912374 0.12768936
-0.037782472 -0.0019042529 0.12716186
-0.028000442 0.034704827 0.12440354
-0.030721869 0.033006877 0.12488389
-0.035229597 0.017048072 0.12362528
-0.031947255 0.031365275 0.1201154
-0.036666598 0.022744369 0.12028652
-0.032968335 0.030850381 0.11607277
-0.036676031 0.023438215 0.1151408
0.0083758961 0.0051804604 0.1950542
0.0072939666 0.0021687858 0.19483024
0.0020975876 -0.012979034 0.19357461
0.00033917883 -0.016582966 0.19355103
-0.0031537977 -0.020332841 0.19440323
0.014173474 0.030881362 0.19260719
0.012527505 0.026846277 0.19395909
0.011186838 0.022285709 0.19284213
0.009852442 0.017698074 0.19202152
0.0085323974 0.012692927 0.19325235
0.00631712 0.0078980178 0.19377443
0.0039716903 0.0026993323 0.19394952
0.0012984329 -0.0065292441 0.19292244
-0.00041762856 -0.010592123 0.19321859
-0.0026812791 -0.015287007 0.19363678
-0.0048071924 -0.017861303 0.19408107
0.015034834 0.034789585 0.18916035
0.011465615 0.032855213 0.18987009
0.0098649254 0.029715225 0.19151488
0.011276091 0.036450703 0.18512404
0.0090599433 0.035495371 0.1860798
0.010762094 0.036999736 0.17994273
0.0084395017 0.036011558 0.18189594
0.0070355772 0.033673838 0.17358622
-0.026012748 -0.027638908 0.15860569
-0.0036224835 0.035241153 0.15840882
-0.028283965 -0.025344197 0.15522569
-0.0081016626 0.035474654 0.15448561
-0.027937336 -0.020972205 0.14993352
-0.026364198 -0.024315655 0.1499283
-0.0099442573 0.033571266 0.15058655
-0.028303768 -0.019778151 0.14476219
-0.011174496 0.032590814 0.14401129
-0.013408596 0.031358048 0.14309886
-0.031294368 -0.01746219 0.14151657
-0.013056516 0.033156902 0.13956213
-0.014777645 0.032055758 0.14030379
-0.033429004 -0.016378153 0.13738903
-0.015553481 0.034295887 0.13663715
-0.017618123 0.033256195 0.13858938
-0.034747355 -0.015479238 0.13307792
-0.018881099 0.033548497 0.13238597
-0.037859488 -0.0094674984 0.12875801
-0.037246678 -0.011741729 0.12766558
-0.022297353 0.032455515 0.12484294
-0.03514491 0.0066221328 0.1242063
-0.037421077 -0.0030657686 0.12406671
-0.037323315 -0.0075034769 0.12383294
-0.036353771 -0.012056325 0.12504745
-0.035231195 0.0068183085 0.12042093
-0.036995213 -0.002837291 0.11953539
-0.037243851 -0.007126444 0.12031692
-0.027713921 0.034943618 0.11843252
-0.029316556 0.033812523 0.11913979
-0.035189249 0.012191091 0.11620855
-0.028824378 0.035608813 0.11447591
-0.030393258 0.032831732 0.11366189
-0.036697902 0.021647513 0.1123752
-0.035895418 0.01353545 0.11219329
-0.03045447 0.031378891 0.10929549
-0.035972565 0.023474168 0.10877359
0.011971146 -0.00017970009 0.19794843
0.0095742596 -0.010171506 0.19689685
0.0069128964 -0.0143053 0.19720063
0.005966573 -0.019118287 0.19643775
0.0031218892 -0.022257198 0.19616863
0.016652148 0.020085681 0.19462261
0.015204187 0.015137585 0.19532049
0.013206882 0.010989614 0.19589815
0.011812342 0.0058469842 0.19565001
0.0095693665 9.5691998e-05 0.19547528
0.0065366491 -0.0087795816 0.19420442
0.0046163821 -0.012973173 0.19463927
0.0033462136 -0.017910862 0.19440567
0.00051603653 -0.021948654 0.1948283
0.019007165 0.031498902 0.19080824
0.014819723 0.020858403 0.19347095
0.013069876 0.016406033 0.19275466
0.011245599 0.01365315 0.19299236
0.012064399 0.03670815 0.17725751
0.01019633 0.034789365 0.17777115
0.0092899045 0.034690037 0.17471862
0.007142134 0.031831209 0.17489967
-0.024470713 -0.026988825 0.15184864
-0.0014358489 0.034820791 0.15220863
-0.025367446 -0.024130499 0.14810747
-0.0037654517 0.034834784 0.14784649
-0.0073684985 0.033422146 0.14641353
-0.02741163 -0.022589481 0.14300421
-0.0044311993 0.03473445 0.14436302
-0.008085412 0.033829093 0.142474
-0.029653009 -0.022516221 0.1390003
-0.0096296286 0.034343462 0.13816562
-0.031513043 -0.021325443 0.13446173
-0.01272685 0.035113774 0.13374197
-0.03352572 -0.016972063 0.1295222
-0.032055076 -0.019854899 0.13014641
-0.013526172 0.03450717 0.12990886
-0.015328712 0.033051871 0.12735933
-0.034059376 -0.015758229 0.12633544
-0.019625207 0.033114292 0.12526298
-0.036932826 -0.0099530835 0.12216872
-0.035148274 -0.013535622 0.12146461
-0.037902161 -0.021745846 0.11913836
-0.019276137 0.033281516 0.12018555
-0.036790609 -0.0010857666 0.11701
-0.0369456 -0.008641473 0.11801445
-0.036008928 -0.011953975 0.11701906
-0.024245366 0.035557605 0.11434561
-0.036358435 0.002315863 0.11451972
-0.037176102 -0.0027938038 0.11451507
-0.037414409 -0.0076934891 0.11337399
-0.02576708 0.034728095 0.1091733
-0.027544094 0.03364468 0.11002803
-0.036494661 0.0078030149 0.1097796
-0.037489623 -0.0022445479 0.10922217
-0.037882492 -0.0064957924 0.11011487
-0.028349379 0.032167189 0.10613549
-0.035476029 0.021485096 0.10556948
-0.03534922 0.013068836 0.10593998
-0.036508754 0.0038894583 0.10589647
-0.029634913 0.032380737 0.10111308
-0.035326574 0.023332115 0.10209286
-0.034196563 0.014149037 0.1023218
-0.031357124 0.032887641 0.09647584
-0.035457842 0.024214514 0.097154617
-0.03482816 0.028785152 0.093545258
0.013531109 -0.0030730516 0.19669354
0.021454738 0.017144373 0.19381052
0.020734431 0.013939284 0.1939697
0.021219846 0.0289579 0.19082177
0.017105754 0.034824871 0.17771411
0.0092790388 0.035764832 0.15573424
0.0071407808 0.03586603 0.15317065
0.0047261566 0.033542648 0.15392992
0.0055246036 0.035860278 0.1493032
0.0023095394 0.034854431 0.14996928
0.0013858583 0.035107505 0.14480028
-0.0024842368 0.034775753 0.14124623
-0.0046688477 0.035301931 0.13691726
-0.0052225236 0.035915907 0.1306119
-0.0082874037 0.0352147 0.13265926
-0.030612316 -0.021748878 0.12719578
-0.010437136 0.035043351 0.12640256
-0.030897617 -0.020610809 0.12282622
-0.01126528 0.034007221 0.12159634
-0.014027926 0.032841809 0.12253135
-0.032424346 -0.017150797 0.11897302
-0.032356266 -0.020693555 0.11783445
-0.012394975 0.034229882 0.11795491
-0.015702037 0.033645514 0.11993128
-0.033200286 -0.015603103 0.11443454
-0.032528795 -0.018747751 0.11459911
-0.016035616 0.032403134 0.11382908
-0.035668407 -0.011910191 0.1108861
-0.036616795 -0.0080560679 0.10621977
-0.03601744 -0.011575327 0.10526568
-0.022502009 0.033720676 0.10464901
-0.025707636 0.033234313 0.10467911
-0.03406956 0.0071042003 0.10195512
-0.036196105 -0.0025550192 0.10228723
-0.036573939 -0.007676295 0.10189897
-0.024283323 0.032911755 0.10060465
-0.033406693 0.012006811 0.098837614
-0.035603493 0.0026592594 0.09756583
-0.036366798 -0.0011522546 0.098190665
-0.028127575 0.034211613 0.096667826
-0.034398716 0.01755875 0.095284462
-0.034899879 0.0089472383 0.09444207
-0.029690009 0.03295454 0.091309071
-0.034644049 0.023621541 0.090845942
-0.035692804 0.014640609 0.089881659
-0.034512267 0.024918769 0.086174071
-0.035383131 0.026074227 0.082943618
0.010576067 0.036130872 0.15604079
0.0092305485 0.037673976 0.15341991
0.0062794723 0.036898311 0.1468932
0.0062640123 0.036722366 0.14270303
0.0034161974 0.035415821 0.14171302
0.0023908783 0.034866698 0.13827735
-0.00013198331 0.035963107 0.13380489
-0.0032821232 0.035087209 0.13208058
-0.0052319132 0.036228269 0.12579691
-0.0041601798 0.036978539 0.12139291
-0.0074234912 0.035220265 0.12047523
-0.007755355 0.0342599 0.116925
-0.011023655 0.032172002 0.11443239
-0.032013059 -0.021052763 0.11235332
-0.033620868 -0.02356543 0.11381167
-0.016063323 0.032587007 0.11092472
-0.032106794 -0.016080908 0.10820615
-0.0313613 -0.019105313 0.10875624
-0.015139739 0.032563441 0.10530847
-0.033794664 -0.014270922 0.10291618
-0.020033523 0.033846341 0.10100919
-0.036233641 -0.0077174744 0.098652244
-0.035598718 -0.012279454 0.099158525
-0.020315569 0.033316664 0.09700948
-0.023446679 0.032793388 0.096981049
-0.036426257 -0.0028027324 0.095689058
-0.036758974 -0.0071546901 0.095427036
-0.035432361 -0.011504653 0.094871759
-0.020737682 0.033693932 0.093385994
-0.036208294 0.0031343838 0.092106283
-0.037410334 -0.0016266741 0.091381788
-0.03744106 -0.005838627 0.090429187
-0.026294317 0.033489656 0.089099824
-0.035984274 0.0085190302 0.087658465
-0.03729533 -0.0010696128 0.08693409
-0.028746918 0.032103181 0.084285319
-0.035489243 0.019054102 0.083858907
-0.035410579 0.0093374178 0.083467782
-0.028691856 0.032307763 0.080240846
-0.034920204 0.026022116 0.080305219
-0.035244167 0.016143788 0.077978909
-0.034458835 0.02615222 0.074139595
0.011397895 0.035591561 0.14668646
0.0083963722 0.037211724 0.1392082
0.0078147724 0.035944682 0.13526323
0.0052335775 0.035135873 0.135629
0.0034856154 0.035422049 0.12793845
-0.0014235796 0.036808863 0.12156874
-0.00095294695 0.040212393 0.12032712
-0.0019875104 0.037268341 0.11776483
-0.0039255852 0.038259812 0.11368668
-0.0067288829 0.034468364 0.1143316
-0.029875334 -0.025150189 0.10887939
-0.029351097 -0.022011621 0.10551792
-0.029176515 -0.025377315 0.10534674
-0.031438835 -0.017097924 0.1024428
-0.030025639 -0.019504679 0.10173965
-0.014447104 0.032679934 0.098845959
-0.03138946 -0.016999431 0.098421633
-0.035854358 -0.0094345147 0.09179616
-0.033248935 -0.013735149 0.092150807
-0.019608272 0.033423699 0.090488195
-0.03618335 -0.0085777808 0.088255107
-0.034642547 -0.01207219 0.087563634
-0.036842059 -0.0025164504 0.084615886
-0.03619168 -0.0074963933 0.083968401
-0.035177007 -0.011259645 0.083620965
-0.024013393 0.032123785 0.081949234
-0.035014823 0.0028250562 0.080437183
-0.03604703 -0.0018125894 0.080209613
-0.036475882 -0.0063726511 0.079679787
-0.026324075 0.032588571 0.077410042
-0.034887176 0.0085160965 0.076694608
-0.03634128 -0.0010848856 0.076054096
-0.037353188 -0.0046684397 0.076090515
-0.026849836 0.032581508 0.072851896
-0.034665305 0.02081711 0.072219908
-0.035469711 0.011242511 0.072163999
-0.028223731 0.032708682 0.069768786
-0.033934955 0.026245076 0.068203449
-0.035012823 0.016047038 0.068358898
-0.031889174 0.029123552 0.065025568
-0.034115728 0.022961617 0.0645504
-0.037051857 0.037084274 0.053986073
0.0040489351 0.038464323 0.1185751
0.0030284738 0.037007358 0.11977947
0.0017249724 0.037884027 0.11389273
0.0025714831 0.039400458 0.1128118
-0.00042746123 0.036851693 0.1106258
-0.0035555148 0.033961166 0.11009765
-0.00018353388 0.037294801 0.10691535
-0.0028878981 0.032699268 0.10644746
-0.0057825334 0.030628635 0.10649741
-0.027272873 -0.024340667 0.10140038
-0.027473267 -0.027288495 0.10261798
-0.0030958997 0.032444291 0.1032756
-0.0049569514 0.030587927 0.1019029
-0.028135041 -0.022071745 0.098658204
-0.0090761604 0.030670434 0.097598612
-0.02945016 -0.017764436 0.094848454
-0.027762709 -0.019375455 0.093190491
-0.011193742 0.031867906 0.091292799
-0.029538747 -0.017545622 0.088886023
-0.033154409 -0.014640993 0.086202085
-0.031111784 -0.016725458 0.085132599
-0.018504959 0.031664066 0.083021104
-0.035686783 -0.012330228 0.082093477
-0.032735325 -0.015883777 0.081418514
-0.018418672 0.031867079 0.078923225
-0.03663804 -0.008009701 0.077201247
-0.035304874 -0.011705563 0.076803565
-0.021925569 0.033423483 0.075765669
-0.036351025 -0.0014300477 0.073376358
-0.036934137 -0.0053378195 0.072823703
-0.036080457 -0.0087438365 0.073818088
-0.022370175 0.035724681 0.069633365
-0.024321338 0.033927388 0.071061432
-0.035230335 0.0051558474 0.069042385
-0.035815496 -0.0041979998 0.068961859
-0.026615068 0.034001041 0.066962421
-0.029288385 0.031570688 0.066021621
-0.03461362 0.01156937 0.065155327
-0.027506957 0.033419088 0.0625723
-0.033960097 0.026135471 0.061897457
-0.033726115 0.017014766 0.06152159
-0.028923368 0.033636436 0.058137417
-0.03399995 0.026822072 0.05747664
-0.033253774 0.02764054 0.053016245
-0.035012845 0.036551431 0.049094677
0.0036469288 0.037388504 0.11048388
0.0006957408 0.037084352 0.10505801
-0.0012898855 0.034321044 0.1046927
0.0011397498 0.037172541 0.10114539
-0.0019418634 0.033334691 0.10018355
-0.0036590183 0.030268025 0.098908246
-0.026317224 -0.024646305 0.096625388
-0.0020880671 0.032849334 0.095282435
-0.0043245107 0.030735256 0.095433235
-0.025778914 -0.022335708 0.091579854
-0.025782276 -0.025682887 0.092378259
-0.0047677141 0.03299623 0.090330482
-0.005959834 0.031652536 0.090708852
-0.026024437 -0.021796271 0.087155402
-0.0061025498 0.033691034 0.087367892
-0.0074700098 0.031593677 0.086600661
-0.029195827 -0.020116763 0.083144724
-0.029334184 -0.022843644 0.080882311
-0.010386385 0.031258773 0.081311285
-0.032477979 -0.018006099 0.079369187
-0.013559104 0.032818884 0.075796008
-0.03325808 -0.017281633 0.075498402
-0.016391207 0.033932533 0.073452771
-0.034501098 -0.011154872 0.070850372
-0.018645793 0.035089735 0.070871711
-0.034215927 -0.0007160278 0.06535244
-0.035069052 -0.0057856068 0.066329539
-0.034750368 -0.0099899368 0.066235304
-0.033877224 0.0053107203 0.062736511
-0.03531957 -0.0050770901 0.062069416
-0.035073802 -0.0087917643 0.061669052
-0.027439607 0.033006635 0.058902979
-0.033196837 0.015150211 0.058400273
-0.034086064 0.0051172739 0.05779016
-0.035544582 -0.0039465772 0.058443427
-0.029085461 0.033807535 0.056226015
-0.033768896 0.016430357 0.054285288
-0.034871235 0.0064708903 0.053848803
-0.030919716 0.031063434 0.050611377
-0.033874247 0.022048583 0.050021768
-0.035191469 0.011922355 0.05023706
-0.032616585 0.035838753 0.044891596
-0.031376109 0.03196273 0.046189666
-0.034414668 0.022226984 0.04567194
-0.032974578 0.036698215 0.042650223
-0.032413997 0.032764185 0.042580485
-0.035478838 0.022820126 0.042462409
-0.032873157 0.036276594 0.038882136
0.0027408721 0.03685879 0.096722484
0.0026843874 0.036384746 0.093335211
-0.00031189807 0.034129299 0.092449665
-0.023841118 -0.027367499 0.087979019
-0.0017011994 0.034125041 0.089117527
-0.025434699 -0.025657579 0.085508585
-0.0044715516 0.033852812 0.084242404
-0.0075239893 0.032044791 0.084386766
-0.027783236 -0.024500886 0.082356632
-0.0065603983 0.034340732 0.079654098
-0.0089249881 0.032979213 0.080340624
-0.0073995078 0.035058398 0.073218584
-0.010403879 0.032717548 0.076195657
-0.030090233 -0.019469667 0.070118368
-0.0091546327 0.035957776 0.069554389
-0.012609814 0.035362989 0.07182169
-0.032862857 -0.013601783 0.067819476
-0.031362727 -0.016098022 0.067987859
-0.032928936 -0.012981139 0.063388646
-0.030672817 -0.016266597 0.063266098
-0.035171267 -0.010046941 0.059745014
-0.034489974 -0.00022084452 0.055276752
-0.034959126 -0.0052451622 0.05486697
-0.034763675 -0.0096171061 0.0548715
-0.034417074 0.00037132576 0.050688982
-0.034802094 -0.0037922766 0.049954772
-0.034682684 0.0065811058 0.047016442
-0.034334842 0.016684048 0.043384075
-0.034449417 0.0079496587 0.042777419
-0.034450941 0.022594064 0.038398683
-0.031714875 0.031950124 0.035891652
-0.034542389 0.023719009 0.034602106
0.005891162 0.039594911 0.09138155
0.0053496761 0.037143942 0.090963662
-0.019990282 -0.029096924 0.08687973
0.0041342061 0.036925428 0.087594569
0.00045737345 0.034817703 0.086325765
-0.022860684 -0.029501822 0.08251524
0.0031248173 0.037582614 0.083328068
-0.00018819142 0.034723572 0.082261026
-0.023563713 -0.029141571 0.081047654
2.271682e-05 0.037297279 0.078114212
-0.001453138 0.035297245 0.078900874
-0.0045795972 0.034872733 0.073247731
-0.028036475 -0.019967696 0.065714598
-0.028238688 -0.022982832 0.067638218
-0.029313195 -0.0180529 0.061688662
-0.032564342 -0.013407242 0.057218611
-0.030135922 -0.016306948 0.05656445
-0.033774592 -0.011500183 0.052442253
-0.031885795 -0.01537776 0.051828086
-0.034547761 -0.006160493 0.048519969
-0.034325857 -0.010752824 0.048614979
-0.032526996 -0.014980536 0.048202574
-0.033923924 0.00037006289 0.045028031
-0.035150927 -0.0048054568 0.044597387
-0.034982651 -0.0089858593 0.04404223
-0.034296397 0.0055324831 0.041098475
-0.035738226 -0.0038933875 0.039848685
-0.033322893 0.011354646 0.03672111
-0.035772286 0.0015045935 0.036174715
-0.036618937 -0.0017972654 0.0367226
-0.029299084 0.032514744 0.032604575
-0.033906199 0.02205991 0.032437623
-0.032851305 0.012252523 0.032390356
-0.029522646 0.031184258 0.028855979
-0.033729728 0.022792168 0.028262973
-0.030394834 0.030697832 0.024182796
-0.033764735 0.024234045 0.023776293
0.004599425 0.036491331 0.080508947
0.0033250768 0.036967546 0.077796996
-0.025920581 -0.022046918 0.062113464
-0.025280101 -0.025092771 0.061689079
-0.02678854 -0.021086143 0.058320999
-0.025939452 -0.024694975 0.058079123
-0.02735878 -0.020221828 0.053213954
-0.029348982 -0.018748607 0.049337626
-0.031561583 -0.016238255 0.04492414
-0.033630125 -0.01196913 0.041022062
-0.031891566 -0.015027693 0.040250301
-0.03495172 -0.0061685005 0.036039889
-0.03421735 -0.0095929476 0.037129641
-0.034562528 0.0011397349 0.031893134
-0.035246994 -0.0041023828 0.03306216
-0.034258243 -0.0091462135 0.033382237
-0.033192787 0.006413911 0.029023349
-0.034304842 -0.0034545334 0.028975427
-0.027068861 0.031710859 0.02553302
-0.032924768 0.016927231 0.025233686
-0.032910202 0.0052521513 0.025606036
-0.028977543 0.031460743 0.021889329
-0.033148728 0.022328109 0.020420909
-0.032757491 0.012680239 0.021663129
-0.034007419 0.023810286 0.01715368
-0.032655314 0.027658954 0.012898743
-0.023625525 -0.02845829 0.055152714
-0.024784042 -0.024609933 0.052509665
-0.027982287 -0.020690249 0.047135115
-0.027506996 -0.022787783 0.048197865
-0.02908876 -0.020096898 0.043887615
-0.029087974 -0.022378515 0.042564631
-0.03027723 -0.017573584 0.039222121
-0.029926011 -0.021176198 0.037973762
-0.032607567 -0.012672392 0.034104049
-0.031433411 -0.015979432 0.034200788
-0.031273264 -0.01972248 0.032764077
-0.033666439 -0.010855929 0.030525208
-0.032195624 -0.01502301 0.029180348
-0.033810757 -0.0051104492 0.026195765
-0.033734776 -0.0091213286 0.025422394
-0.033433676 -0.012061174 0.026309669
-0.034039326 0.0012610182 0.022607923
-0.033909313 -0.0040458124 0.02113229
-0.033556908 -0.00813914 0.021288037
-0.024250338 0.031993784 0.021963656
-0.032836672 0.011670748 0.018558443
-0.034075748 0.001724924 0.016810417
-0.033823017 -0.0023207366 0.017052352
-0.027642872 0.030070256 0.015225172
-0.03290287 0.017120896 0.014365613
-0.033963401 0.0074843136 0.01330018
-0.033268601 0.02277839 0.0096096992
-0.022823971 -0.026799632 0.048747897
-0.022816233 -0.028732555 0.051288188
-0.024617981 -0.025936501 0.0471434
-0.030217584 -0.023058243 0.035114288
-0.029521113 -0.025290608 0.037045479
-0.030928543 -0.022665579 0.032549381
-0.029623784 -0.02511047 0.031787992
-0.031912141 -0.016505789 0.027895093
-0.031341676 -0.020746002 0.027504802
-0.030365452 -0.024677927 0.028164506
-0.031828217 -0.015168042 0.02323401
-0.031360969 -0.019447479 0.024252832
-0.03300529 -0.0095434031 0.018894076
-0.032302272 -0.013086053 0.018962264
-0.03288928 -0.0038683116 0.014289856
-0.032619014 -0.0080717811 0.014637291
-0.032461807 -0.012134212 0.014609933
-0.023653295 0.030406209 0.013252258
-0.033335365 0.0017565442 0.011133492
-0.033120502 -0.0026355069 0.009791553
-0.02618126 0.029843193 0.0084711313
-0.030298639 -0.0246526 0.02594769
-0.02921433 -0.020774174 0.019940495
-0.030600559 -0.016131556 0.016100049
-0.028539158 -0.019546792 0.015463352
-0.032799989 -0.009089035 0.011584401
-0.031323969 -0.014430401 0.011781454
-0.033481836 -0.0077437442 0.0082067847
-0.02599337 -0.024493234 0.016124129
-0.027223859 -0.021977136 0.013567388
-0.027615584 -0.020421585 0.0092715025
-0.024199426 -0.025155444 0.010071695
