# .PCD v0.7 - Point Cloud Data file format
VERSION 0.7
FIELDS x y z
SIZE 4 4 4
TYPE F F F
COUNT 1 1 1
WIDTH 684
HEIGHT 1
VIEWPOINT 0 0 0 1 0 0 0
POINTS 684
DATA ascii
0.033505797 0.022670319 0.19239777
0.03311348 0.026903747 0.19243142
0.035148621 0.016352797 0.18941906
0.035964429 0.021415131 0.18920335
0.03552258 0.026419176 0.188541
0.030471267 -0.025580017 0.19202688
0.030671 -0.018126881 0.19220969
0.030278146 -0.013152889 0.19269526
0.030435085 -0.0039010295 0.19202554
0.029807687 0.0064431089 0.19175625
0.030895889 0.016180994 0.1923967
0.030360758 0.021011448 0.19254428
0.030587731 0.026959257 0.19202214
0.029722212 0.030809583 0.19106835
0.032930315 -0.027285663 0.18818355
0.032492518 -0.024115404 0.18959868
0.033400118 -0.018657347 0.1899471
0.033648551 -0.0086215008 0.18969411
0.033184469 0.0013776119 0.18899533
0.034608841 0.010928305 0.18846682
0.035870314 0.014893772 0.18711719
0.035962701 0.020503582 0.18634379
0.034476161 0.028269632 0.18780658
0.034187496 0.030576224 0.18753183
0.03571099 -0.033575386 0.18518975
0.034329832 -0.02746241 0.18451893
0.034829736 -0.02445863 0.18526301
0.035609841 -0.018717801 0.18516216
0.034939528 -0.0090082865 0.18470624
0.034147799 0.00050635601 0.18351957
0.035505414 0.01100328 0.18316531
0.036328495 0.015771197 0.18313378
0.036162913 0.02115426 0.1828106
0.035285413 0.026543235 0.18203211
0.034543753 0.030399783 0.18140224
0.039251149 -0.033122722 0.18212101
0.035802245 -0.016801117 0.18045959
0.036389589 0.011486309 0.17847961
0.037063241 0.015583644 0.17813927
0.036760688 0.020521028 0.17792818
0.036146164 0.0253483 0.17715463
0.035081267 0.030535204 0.17747942
0.037648022 0.020372992 0.17392904
0.037823081 0.024660157 0.17276958
0.02362597 -0.012479066 0.19270509
0.02340883 -0.0039351853 0.19222027
0.023766577 0.0061717527 0.19202513
0.024255574 0.01195138 0.19281662
0.024916947 0.016301138 0.19322556
0.023524642 0.020944355 0.19217902
0.023575602 0.025594601 0.19201925
0.023445068 0.030548913 0.19155282
0.029522421 -0.031840317 0.19169134
0.027738692 -0.028565137 0.19174853
0.027548613 -0.02389252 0.19196007
0.027058959 -0.018987572 0.19249347
0.027820289 -0.013150926 0.19350246
0.026769876 0.00074344617 0.19228312
0.030040743 -0.032029316 0.18837926
0.031151177 -0.029026972 0.18918356
0.032814622 -0.032201119 0.1840533
0.033391178 -0.029402854 0.18430394
0.03513968 -0.023700913 0.18214244
0.034592271 -0.021412639 0.18169904
0.034366131 -0.0043994044 0.18086782
0.035364449 -0.0323136 0.18080196
0.033846259 -0.029004356 0.17854023
0.034678996 -0.024717992 0.1782161
0.035157681 -0.019480253 0.17814827
0.03454715 -0.0092134457 0.17750823
0.034213305 7.4958065e-05 0.17691946
0.035600126 0.009860253 0.17620099
0.034771144 0.027906282 0.17524543
0.034684241 0.030993702 0.1748817
0.034134269 -0.024605183 0.17371061
0.034455717 -0.019311158 0.17293817
0.034412742 -0.0094920509 0.17190111
0.034557819 -0.00015810912 0.17162308
0.035498261 0.010726215 0.17180216
0.036920369 0.015355827 0.17162856
0.037288487 0.019596452 0.17124075
0.036316037 0.027761156 0.17165914
0.036391854 0.030852219 0.17158556
0.035699606 -0.0096186493 0.16904816
0.035579264 -0.0018457867 0.16865963
0.036467671 0.015253784 0.16856551
0.03671819 0.020085247 0.16721466
0.037127793 0.024291823 0.16731867
0.035878539 0.030131875 0.16721416
0.020305814 -0.027489334 0.19127804
0.021027388 -0.02275243 0.19152761
0.020051539 -0.01938764 0.19209668
0.019884109 -0.014371886 0.19251305
0.019575894 -0.008255397 0.19232523
0.019474387 0.00097723387 0.19273087
0.01889658 0.011162137 0.1924789
0.019001365 0.016391441 0.1932385
0.018909514 0.021063954 0.19298923
0.018643377 0.025709908 0.19172263
0.018874643 0.029325195 0.19110861
0.022920134 -0.02946434 0.19175389
0.021867396 -0.024314733 0.19119784
0.032626569 -0.031136172 0.17622504
0.032778442 -0.033030279 0.17084235
0.033486366 -0.029797686 0.17210484
0.034295559 -0.025440777 0.1713495
0.034805775 -0.020465238 0.1707454
0.034804881 -0.033165045 0.16753435
0.033837974 -0.030110827 0.16677129
0.034281313 -0.025389252 0.16687715
0.034348547 -0.020376658 0.16690832
0.035068631 -0.01521509 0.16662249
0.035114765 -0.0053073899 0.16610122
0.034367919 0.0048408764 0.16590318
0.034977674 0.015144354 0.16480064
0.035806 0.019007085 0.16426846
0.035619915 0.02522712 0.16389832
0.03475672 0.02940754 0.16408777
0.036460459 -0.03332857 0.16397914
0.034664869 -0.015412254 0.16300616
0.034565985 -0.005254433 0.1625385
0.033792853 0.011912612 0.1613434
0.034517884 0.015041748 0.16170377
0.035370588 0.019902097 0.16074717
0.035055995 0.024341149 0.15982684
0.033871651 0.02905686 0.1597836
0.034035623 0.032151099 0.15883619
0.012278617 -0.019715361 0.19338933
0.012309075 -0.014990616 0.19321212
0.0123564 0.0011527395 0.19303146
0.012956023 0.0054668435 0.19275686
0.012749254 0.010957492 0.19240433
0.01210463 0.016785339 0.19250691
0.012486338 0.020865511 0.19256851
0.011488914 0.025868155 0.19102392
0.010799586 0.02980148 0.19044366
0.015179993 -0.028683454 0.19154707
0.015663089 -0.024441388 0.19197378
0.015767038 -0.019975044 0.19295204
0.015142621 -0.014337464 0.19270539
0.015051663 -0.0090243844 0.19206429
0.015573978 -3.4583052e-05 0.19274202
0.015136778 0.010137123 0.19205588
0.014707266 0.025791489 0.19114774
0.0139997 0.029711261 0.19055557
0.017906846 -0.030791618 0.18993691
0.018789949 -0.026024036 0.19028461
0.033434093 -0.030480681 0.16090211
0.033344328 -0.025777088 0.16065669
0.033285022 -0.021072583 0.1604315
0.033775985 -0.015605485 0.15960771
0.033752501 -0.0054154866 0.15919057
0.032338321 0.003986984 0.15880805
0.033005595 0.014930366 0.15788627
0.033721805 0.018816067 0.15727729
0.033325493 0.028986325 0.15660995
0.033770204 0.03210739 0.15678638
0.032239914 -0.026069546 0.15616125
0.032413661 -0.021333707 0.15609252
0.032979369 -0.015724206 0.15544501
0.03300035 -0.0056199753 0.15492773
0.032311559 0.0037914268 0.15409189
0.032226861 0.014337188 0.15348554
0.033064246 0.019677637 0.15326992
0.033227563 0.024180746 0.15296811
0.032780468 0.029128661 0.1530095
0.033840835 0.032058202 0.15495855
0.034256577 0.033428285 0.14764148
0.0054250946 0.018179309 0.19320419
0.0054691425 0.020549409 0.19313186
0.0095545668 -0.032970011 0.1935181
0.0090635428 -0.029343836 0.19257978
0.010181666 -0.024518348 0.19323999
0.0086479792 -0.019765887 0.19395787
0.0090821395 -0.013968494 0.19367218
0.0092979074 -0.0087402705 0.19274327
0.0084758401 -0.004210006 0.19251996
0.0080085397 0.005475611 0.19252518
0.0084875822 0.010216057 0.1926164
0.0080143204 0.015213963 0.19242981
0.0082854619 0.021656554 0.19247806
0.0077209463 0.025977027 0.19150069
0.0069929347 0.029899705 0.18997824
0.01161504 -0.033046573 0.19108465
0.012802423 -0.030367512 0.19108519
0.031156959 -0.030509258 0.15512916
0.031065347 -0.026214367 0.15423614
0.031490803 -0.021125792 0.15309471
0.031691015 -0.016197151 0.15199494
0.032763422 -0.0057614916 0.15193841
0.031982303 0.0036659925 0.15103734
0.032166779 0.013904305 0.15076223
0.032354593 0.017838662 0.15073612
0.031910479 0.028061735 0.15003347
0.030204298 -0.021676397 0.15081826
0.030192018 -0.018613962 0.1487869
0.032014549 -0.0059230593 0.14858639
0.031473279 0.0035356279 0.1478464
0.031051576 0.013791592 0.14715725
0.031855166 0.019286102 0.14654189
0.032452345 0.024013521 0.14676794
0.031824648 0.02874448 0.14615297
0.033398151 0.032363959 0.14582798
0.031215906 0.019160597 0.14229539
0.03131485 0.022323618 0.14224109
0.031521082 0.030224083 0.14207709
0.032556355 0.032575306 0.1427021
0.0037815585 -0.033392295 0.19436848
0.0021268141 -0.029166006 0.19394353
0.0021370659 -0.023955673 0.19299245
0.0025004754 -0.019955259 0.19304314
0.0025743253 -0.013821475 0.19344917
0.0017022494 -0.0088111069 0.19302753
0.0020855668 -0.0040266979 0.19305697
0.0017150638 0.0054952949 0.19243917
0.0021607275 0.010266561 0.19250688
0.0021476143 0.015026271 0.19230089
0.0010466566 0.020622645 0.19279575
0.0013032544 0.025806945 0.19227171
0.00035011634 0.030904938 0.19056544
0.0047451868 -0.033437286 0.19310018
0.0055554523 -0.029433906 0.19295898
0.0059863338 -0.024619855 0.193479
0.0058856015 -0.0087772682 0.1927602
0.0045701847 0.029980984 0.19035986
0.027302327 -0.031275678 0.15112522
0.02744657 -0.030837027 0.14776874
0.028182091 -0.026460106 0.14795548
0.028677823 -0.022131929 0.14734089
0.029119611 -0.016011579 0.14685985
0.030387998 -0.0077035935 0.14467919
0.029942811 0.0081337551 0.14375618
0.029929996 0.012886112 0.14356247
0.030038118 0.016054129 0.1435138
0.028640987 -0.031641331 0.14440623
0.028024316 -0.016553095 0.14339429
0.029073834 -0.005904349 0.14255255
0.02945894 0.0032482981 0.14073688
0.029556513 0.012778279 0.1404345
0.029185593 0.017800873 0.1399824
0.029320834 0.023608329 0.13953149
0.029258011 0.02832018 0.13943338
0.029541252 0.031785198 0.13872957
0.029492795 0.0094928974 0.13763648
-0.0068417201 0.016789991 0.19337684
-0.006553174 0.01999037 0.19341221
-0.0069990167 0.023987994 0.19298252
-0.00092345366 -0.025260296 0.19261032
-0.0020623794 -0.020105451 0.19218001
-0.0021763437 -0.015266184 0.19283921
-0.0030685063 -0.0091020707 0.19359779
-0.003000438 -0.0040264968 0.193735
-0.0043975716 0.0055211522 0.19250926
-0.0037164693 0.010324821 0.19271094
-0.0034664876 0.015115619 0.19265851
-0.0030758986 0.01993208 0.19361192
-0.0032105458 0.025655363 0.19292352
-0.0045186295 0.030274957 0.19140279
0.026185097 -0.030110488 0.14457694
0.026800634 -0.028471394 0.14493567
0.026305618 -0.030332332 0.14081806
0.026072742 -0.027335504 0.14078075
0.026251199 -0.02234135 0.14046839
0.026600897 -0.017578704 0.1395629
0.026327372 -0.012547347 0.13885653
0.027581513 -0.0024183549 0.13869315
0.0275898 -0.030528469 0.13688964
0.025493741 -0.012182436 0.1356855
0.026855826 -0.0014434799 0.13544568
0.028182209 0.0075944453 0.13462192
0.027493954 0.01278804 0.13362843
0.026922226 0.017364739 0.13360369
0.02706909 0.022738403 0.1336751
0.027016399 0.028093642 0.13380927
0.027157305 0.031747881 0.1341812
-0.011744975 -0.018412091 0.19756192
-0.011662066 0.005755167 0.19751889
-0.010980607 0.010965797 0.19723073
-0.010792912 0.015361282 0.19669086
-0.011902393 0.020170026 0.19584423
-0.011379183 0.023379005 0.19601265
-0.0088133207 -0.02444597 0.19554168
-0.0094063869 -0.020100053 0.19527754
-0.0099676242 -0.015560366 0.19422731
-0.0094426274 -0.010049196 0.19377244
-0.009183526 -0.0045978953 0.19382927
-0.0090942979 0.0056158896 0.19438142
-0.0081874728 0.010441575 0.19470918
-0.0084666023 0.015052922 0.19458377
-0.0094356546 0.020079695 0.19450149
-0.0099133858 0.024870742 0.19340181
-0.0099706659 0.028014068 0.19106683
-0.0056702485 -0.024966449 0.19303051
-0.0065336218 -0.020199448 0.19232044
-0.0060356851 -0.015733603 0.19289279
-0.0058247442 -0.011289828 0.1932959
0.024882736 -0.025738606 0.13772178
0.024357976 -0.027790638 0.13379389
0.02442676 -0.022775041 0.13340527
0.024933875 -0.017924832 0.13357311
0.02501905 -0.012349448 0.13244724
0.025582671 -0.0023202326 0.13197041
0.024943111 0.027704483 0.12987947
0.025311885 0.030101443 0.13004637
0.025190949 0.0031617966 0.12856227
0.024450421 0.012368512 0.12719721
0.024590254 0.017189575 0.12711143
0.025059639 0.022007091 0.1272589
0.023416458 0.026446598 0.12641591
-0.016456485 -0.0097516878 0.19446239
-0.015957534 0.0008209825 0.19524014
-0.012795865 -0.014534191 0.19492617
-0.01370877 -0.010539015 0.19422597
-0.013632655 -4.5821667e-05 0.19382876
0.021637501 -0.031136224 0.12982115
0.023058178 -0.026192637 0.13062939
0.020753684 -0.031318106 0.12724447
0.020542862 -0.028092109 0.12697172
0.020567181 -0.02322913 0.12680215
0.020930409 -0.017970916 0.12636477
0.021349907 -0.013525019 0.12599927
0.021680951 -0.0025271391 0.12561494
0.022382677 0.0073922398 0.12298465
0.02232945 0.012236767 0.12276149
0.022733331 0.017081236 0.12286341
0.023062764 0.021919182 0.12291259
0.020737765 0.026810091 0.12238348
0.020826159 0.030081734 0.12395489
0.020837605 -0.0088340929 0.12250662
0.020499289 0.0024978938 0.12183261
0.022050738 0.012162582 0.12059826
0.021796525 0.017010784 0.12023169
0.021596787 0.021860844 0.11990404
0.020696281 0.025099263 0.11913764
0.01866466 -0.032400921 0.12383956
0.019007267 -0.028311361 0.12392551
0.019667806 -0.023393869 0.12420487
0.019811869 -0.019327197 0.12415105
0.019284787 -0.032786481 0.12165922
0.017804684 -0.02850832 0.12110239
0.018398823 -0.023609802 0.12084198
0.019025087 -0.018505692 0.12017304
0.019370854 -0.013867958 0.11967617
0.020006776 -0.0092219925 0.11938906
0.020159662 0.0023667263 0.11863232
0.021391511 0.012082973 0.11815667
0.021264613 0.016941864 0.1178807
0.020790933 0.02180111 0.11735624
0.018551765 0.027191408 0.11724281
0.017238377 0.030861482 0.11842895
0.019981802 -0.0091525922 0.11597133
0.019286573 -0.00022135218 0.1151318
0.019098401 0.0079139294 0.11468726
0.019860566 0.012381089 0.11456895
0.02042681 0.016837083 0.11431116
0.020465432 0.021890007 0.11340147
0.019425271 0.026269533 0.11343032
0.018314002 0.032292791 0.11220276
0.016107084 -0.032073285 0.1170482
0.016392233 -0.028754234 0.11755031
0.016778709 -0.023859303 0.117015
0.018281639 -0.019729838 0.11713964
0.016145764 0.030799158 0.11467862
0.015732648 -0.032280143 0.11379349
0.015532018 -0.029012702 0.11352497
0.016071739 -0.023774564 0.11291409
0.017202973 -0.019185189 0.11235547
0.018153489 -0.014226477 0.11285317
0.018416286 -0.0093604578 0.111862
0.017683804 0.0010641561 0.11168522
0.01815331 0.011529521 0.11068058
0.018521607 0.016726248 0.10995322
0.019151688 0.019989796 0.11028653
0.018336294 0.026934106 0.10993111
0.018346427 0.030893363 0.11061913
0.0174734 -0.018560663 0.10852408
0.017819464 -0.014494105 0.10761905
0.018827021 -0.0093642278 0.10740751
0.017595708 0.00067997427 0.10738504
0.018043816 0.011078604 0.10563177
0.018145144 0.016590089 0.1056807
0.018908797 0.021495771 0.10605431
0.018314717 0.026399471 0.10543561
0.018215058 0.031301692 0.10517818
0.019412635 0.034497954 0.10393023
0.018912971 0.010727958 0.10244626
0.018741727 0.016459506 0.10210526
0.019492624 0.021875646 0.10111296
0.019209085 0.02628018 0.102081
0.018862961 0.031585936 0.10112405
0.01963043 0.03444596 0.10208499
0.014483692 -0.034137983 0.11096025
0.015298725 -0.02920403 0.11035788
0.016227188 -0.02465323 0.11035675
0.013767185 -0.032665897 0.10837543
0.014312685 -0.029448204 0.10663503
0.015828671 -0.024122212 0.10673165
0.01711005 -0.019773055 0.10571879
0.018300176 -0.014621831 0.10496056
0.018637002 -0.011324144 0.10508353
0.017799377 -0.00016674322 0.1048544
0.015200675 -0.024669826 0.10306537
0.016147137 -0.019775227 0.10155433
0.01745069 -0.014816097 0.10131651
0.018382072 -0.0098754866 0.10106027
0.018654704 -1.9363244e-05 0.10064173
0.019320428 0.0098033668 0.099757373
0.019044816 0.015192908 0.099496126
0.019224584 0.019622985 0.098815084
0.018929897 0.026196517 0.098856151
0.018658875 0.030782044 0.09828186
0.017971754 -0.010073238 0.096969247
0.018986523 0.0002101072 0.096326709
0.018862426 0.0096460553 0.095375359
0.018897772 0.01454473 0.094204128
0.018936098 0.020412106 0.094691575
0.018579481 0.025252424 0.094245732
0.01914501 0.030978076 0.09378016
0.016685126 0.032711305 0.093910158
0.013340177 -0.03336858 0.10607433
0.014284254 -0.029566947 0.10460031
0.014227749 -0.026269514 0.10443479
0.014045479 -0.033129521 0.10050642
0.014629425 -0.029778395 0.10081065
0.014910401 -0.024814904 0.10057843
0.015750825 -0.019904703 0.09924072
0.015131355 -0.029607076 0.095365167
0.015798451 -0.025082778 0.095401287
0.016238987 -0.02009175 0.095543802
0.017007291 -0.015092379 0.095929503
0.017790973 -0.010201947 0.094298661
0.017862141 -0.0011234462 0.094014525
0.017271278 0.027712055 0.092501342
0.015893163 -0.028621253 0.091520369
0.01641679 -0.024440285 0.091758192
0.016932487 -0.019786946 0.090609193
0.017423928 -0.015378608 0.090132952
0.017916918 -0.010390448 0.090319753
0.018226087 -0.0004607692 0.090185046
0.018397927 0.0094505185 0.08994782
0.018153787 0.014363204 0.088562369
0.018124878 0.019133687 0.089128852
0.017603634 0.024496559 0.088537872
0.016607581 0.029045127 0.087618887
0.017233847 0.03252605 0.08719641
0.018060744 -0.014722674 0.086493015
0.018568158 -0.010263865 0.085892797
0.018539727 -0.00012967095 0.084951043
0.019396126 0.0092393318 0.084573388
0.019403279 0.014198483 0.084396958
0.018956363 0.01915507 0.083874345
0.018521128 0.024114754 0.083360553
0.018054424 0.029292043 0.083072364
0.018535433 0.032403819 0.084093273
0.019935727 0.0041278349 0.081064224
0.02054143 0.0092466222 0.079539657
0.020766675 0.013999336 0.079281807
0.020391822 0.018970869 0.079069495
0.019958971 0.023709744 0.078895211
0.019483028 0.030581631 0.078719437
0.021595776 0.015522481 0.075740993
0.014373959 -0.031810634 0.09459275
0.014114142 -0.030289643 0.087505877
0.015499056 -0.02571227 0.088479519
0.01623744 -0.021594647 0.088102996
0.01431495 -0.029083136 0.084179759
0.014982463 -0.025415521 0.083725274
0.016279697 -0.020740118 0.083301008
0.017969966 -0.015926339 0.083824515
0.018149793 -0.01116092 0.082831144
0.018278062 -0.0018823455 0.082760334
0.017852603 0.02737084 0.080676734
0.017024696 -0.02062441 0.078907132
0.01787132 -0.016170807 0.078410566
0.017736673 -0.010764814 0.078109741
0.018909752 -0.0011800743 0.07814616
0.020900369 0.0073024118 0.07756722
0.020393431 0.018897071 0.076753259
0.020246921 0.024695981 0.076429009
0.018693326 0.028426398 0.076863468
0.019304574 0.0038344162 0.073556304
0.019795358 0.0088094072 0.073103845
0.020521641 0.013567247 0.072644532
0.020373106 0.018765554 0.072600245
0.020209668 0.023747735 0.072292089
0.018398045 0.02877333 0.071739614
0.02031213 0.013638848 0.068580747
0.020234048 0.018633202 0.068339348
0.019985316 0.022794735 0.067994237
0.012052001 -0.032344084 0.086716592
0.013703764 -0.031202286 0.082553029
0.015081049 -0.026315268 0.081043422
0.014924229 -0.030574188 0.078783631
0.016387763 -0.026014004 0.078407228
0.017272472 -0.021081507 0.07648772
0.017585218 -0.014425996 0.075794995
0.017107546 -0.012780423 0.075365782
0.016436936 -0.030485362 0.073407829
0.017266216 -0.026244931 0.073897123
0.017849149 -0.021464817 0.073581517
0.018120587 -0.016223092 0.073156416
0.017926693 -0.011223405 0.072824359
0.01843822 -0.0020724137 0.071849406
0.019198656 0.010367204 0.069910407
0.018383386 -0.030707423 0.068664789
0.018893959 -0.026484884 0.068913996
0.019060912 -0.021454126 0.068863392
0.019515097 -0.016412664 0.069037676
0.019738376 -0.011390134 0.069032311
0.019685805 -0.001387057 0.068369865
0.019528329 0.0083688209 0.067559004
0.019962013 0.013563749 0.066220939
0.019936979 0.01856602 0.066021323
0.019258438 0.02400139 0.065814018
0.017645 0.028645199 0.065945148
0.016921697 0.031993851 0.065255463
0.01940638 -0.030036807 0.065253496
0.020664753 -0.02649273 0.064285278
0.02095473 -0.021673605 0.064080536
0.020899475 -0.016655602 0.063856959
0.021068573 -0.011628433 0.063810587
0.021182358 -0.0015941625 0.063542008
0.021178484 0.0084248791 0.063180327
0.021353781 0.013434243 0.063140273
0.021340013 0.018437831 0.06295073
0.020466922 0.023443174 0.062078416
0.019073067 0.027985603 0.060809612
0.018081127 0.031820506 0.059886038
0.022315146 -0.021330414 0.059543192
0.022908032 -0.016866187 0.059157491
0.023028612 -0.011838629 0.059076071
0.022752643 -0.0018115257 0.058498502
0.022447228 0.0082144784 0.05789727
0.022368252 0.013228361 0.057655632
0.022348106 0.018241545 0.057461381
0.022139369 0.023253294 0.05711627
0.021682499 0.029259836 0.056114614
0.022290109 0.03160084 0.05694145
0.024338603 -0.017093183 0.054286003
0.024915636 -0.012052554 0.054273903
0.024553359 -0.0022200334 0.053897202
0.024492264 0.0080167847 0.053222835
0.024272144 0.013031405 0.052867234
0.024491608 0.01804881 0.05286926
0.024060247 0.023063222 0.052342176
0.022518693 0.029793682 0.051912963
0.023618517 0.031450655 0.052745283
0.025805414 -0.01556554 0.050886035
0.026125073 -0.013035304 0.051058471
0.025232971 -0.0030166905 0.049978077
0.026807725 0.0078241946 0.048765659
0.026039004 0.01283249 0.047960162
0.026841402 0.017856924 0.048442125
0.026258824 0.022872066 0.047788858
0.028608084 0.0083221393 0.04470706
0.028756976 0.012635735 0.043563485
0.02874577 0.01766325 0.043644845
0.028211175 0.022680989 0.043027222
0.029836416 0.017533073 0.040293396
0.029616712 0.022553099 0.039936483
0.033891261 0.030619284 0.033632338
0.034790397 0.030527281 0.031182528
0.012278738 -0.033062004 0.074462056
0.013143422 -0.033244267 0.070952415
0.018390896 -0.031263091 0.061966181
0.019691112 -0.028577458 0.061219037
0.017452953 0.030155163 0.05944711
0.017080424 0.032394361 0.059071422
0.018363358 -0.030533943 0.057056665
0.020352663 -0.026863988 0.057726562
0.021661701 -0.023159245 0.05697298
0.019776104 0.027045965 0.055613399
0.021900954 -0.026495075 0.052338064
0.022740664 -0.022236312 0.052868426
0.023721218 -0.017194292 0.052426398
0.024169505 -0.00044682517 0.051141798
0.022093235 0.027609678 0.050283432
0.023139713 0.031379163 0.049184084
0.023379209 -0.026893048 0.047594547
0.024163248 -0.022486405 0.047657013
0.025201023 -0.017605526 0.048071265
0.025859058 -0.012100204 0.048076451
0.025656223 -0.0020407501 0.047558367
0.025430083 0.012825844 0.047460735
0.024084864 0.027908141 0.045829535
0.024209617 0.031918332 0.045365572
0.023750843 -0.025997153 0.045306087
0.024695398 -0.021836737 0.043800831
0.026673377 -0.017400255 0.043411314
0.027697384 -0.012528698 0.043824434
0.027163982 -0.0024752642 0.043033004
0.027764082 0.0067274137 0.04214406
0.027011812 0.012697701 0.044512272
0.025778471 0.027722562 0.040835679
0.025564669 0.031080751 0.040543079
0.02781707 -0.017269151 0.038736939
0.029841006 -0.012732304 0.039202094
0.028681755 -0.0026962634 0.037884474
0.029440165 0.0073996014 0.038172543
0.029576182 0.017429849 0.036870062
0.029587267 0.022459259 0.036706209
0.028203068 0.027528448 0.036442101
0.028815864 0.030875714 0.036840796
0.029655397 -0.016875742 0.034893513
0.030833423 -0.012940037 0.034677684
0.02985543 -0.0028836899 0.033506155
0.030493557 0.0071912608 0.032893419
0.030606627 0.017264878 0.032375574
0.030604003 0.022301024 0.032200992
0.030600725 0.027335005 0.032027483
0.030658899 0.030743754 0.034108162
0.030399084 -0.01311491 0.03108114
0.030903578 0.0078720869 0.028634965
0.031725705 0.017099431 0.02794373
0.031263292 0.02214334 0.02737689
0.031848013 0.028310994 0.028026938
0.033331394 0.030494036 0.02778405
0.032722056 0.01700191 0.025556862
0.031870902 0.022047291 0.024654686
0.032097936 0.028775858 0.024622381
0.016535582 -0.032355353 0.055657506
0.017931702 -0.031546585 0.051431835
0.019015135 -0.029102001 0.052220464
0.020374121 -0.031712025 0.047442436
0.021394076 -0.02929605 0.047762752
0.022275211 -0.031165915 0.044271827
0.023756327 -0.028078133 0.04262954
0.024602296 -0.023192035 0.042164445
0.024920525 -0.02808038 0.037762642
0.025750341 -0.022955043 0.038278937
0.026343644 -0.019598218 0.03758353
0.026629152 -0.028322009 0.032730341
0.027635219 -0.023180278 0.033403456
0.028440833 -0.019100273 0.033512354
0.029886486 -0.028228594 0.029266357
0.029465916 -0.02340859 0.028471708
0.030154109 -0.018296404 0.028884947
0.03056246 -0.013261403 0.027979851
0.029793143 -0.0031149839 0.028060913
0.030479252 0.0058442927 0.02689904
0.029676018 0.026068361 0.025525808
0.03102869 -0.028035009 0.023882329
0.030586781 -0.023407189 0.023532033
0.030864775 -0.01858406 0.02298671
0.031124532 -0.01349268 0.023038626
0.03068912 -0.0033600298 0.022322178
0.031945884 0.0068099513 0.023063421
0.032194793 0.016910048 0.022316694
0.031566262 0.021967115 0.021603703
0.030617295 0.026566958 0.021250188
0.030171631 0.029585639 0.020764709
0.031555593 -0.013148508 0.018308699
0.031666458 -0.0018176273 0.018754184
0.033009708 0.0065893992 0.017456472
0.032730281 0.016725494 0.016873002
0.0323686 0.021589806 0.016667962
0.031412065 0.025193239 0.015988529
0.033228993 0.011512237 0.013106823
0.033016801 0.015742155 0.012779713
0.032568932 0.02081904 0.012217581
0.032634676 0.023358321 0.012190878
0.030618312 -0.02718932 0.02088213
0.030374588 -0.024659591 0.020586014
0.028813185 -0.028040407 0.016421795
0.0298602 -0.024018189 0.016831994
0.030860364 -0.018858796 0.017529547
0.030841291 -0.014349035 0.016997099
0.030307233 -0.0039529228 0.016329646
0.030573426 0.026876537 0.014654279
0.027266799 0.028633798 0.012812257
0.029892923 -0.023792876 0.013004959
0.030741572 -0.018914206 0.012208045
0.030900717 -0.014023847 0.011909664
0.029994547 -0.0033478369 0.011074543
0.032845855 0.0059386804 0.011307657
0.032851219 0.015670536 0.010440052
0.032061279 0.019499002 0.010166466
0.030132232 0.025349719 0.0099263191
0.026401939 -0.030223561 0.014031768
0.027507128 -0.028679123 0.01052475
0.029981555 -0.024712635 0.010134518
0.030638158 -0.020963045 0.0097047091
0.029778421 -0.0056060129 0.0095424652
0.023837151 -0.031453393 0.0085105896
