# .PCD v0.7 - Point Cloud Data file format
VERSION 0.7
FIELDS x y z
SIZE 4 4 4
TYPE F F F
COUNT 1 1 1
WIDTH 779
HEIGHT 1
VIEWPOINT 0 0 0 1 0 0 0
POINTS 779
DATA ascii
-0.022124555 0.035673212 0.19036081
-0.030037627 0.031618357 0.190267
-0.022929134 0.037874892 0.1882534
-0.031844873 0.034091167 0.18764493
-0.028225604 0.038789257 0.18414551
-0.024669027 0.040279146 0.18044984
-0.031929173 0.037431315 0.17938724
-0.027031476 0.025101801 0.19226336
-0.015709128 0.034112733 0.19082153
-0.024779283 0.029840209 0.19191658
-0.029281866 0.028176855 0.19145226
-0.032521918 0.026260009 0.18887228
-0.015490971 0.038044743 0.18681568
-0.03307293 0.030402252 0.18763521
-0.034306876 0.027916316 0.18494201
-0.017572055 0.039533097 0.18272126
-0.033803791 0.032623116 0.1837132
-0.034140274 0.031637874 0.18091512
-0.02310596 0.040378142 0.17734897
-0.03238662 0.036675002 0.17622742
-0.033984393 0.033685975 0.17714041
-0.02328999 0.039433151 0.17248571
-0.031394321 0.036592025 0.17161068
0.0034462446 0.034293663 0.19158134
0.00027295947 0.032823052 0.19180256
-0.0081526367 0.029852344 0.19219041
-0.017981034 0.025352582 0.19189101
-0.026717711 0.021610636 0.19246548
-0.03037858 0.019515809 0.19121876
0.0035427334 0.03678361 0.18868095
-0.0052830316 0.035293519 0.18940574
-0.012798958 0.031081362 0.19113514
-0.032891549 0.022470806 0.18872052
0.0029957676 0.038426135 0.18577224
-0.0060280226 0.037640329 0.18460959
-0.034625046 0.02646105 0.18194532
-0.0061129369 0.038463023 0.17965499
-0.033626847 0.028372636 0.17925972
-0.011324334 0.03935359 0.17581472
-0.034337506 0.02958226 0.17421299
-0.01686128 0.039161514 0.17091876
-0.026986968 0.037662912 0.16896462
-0.034433208 0.03124099 0.17022243
-0.021901436 0.03850238 0.16586384
-0.030906672 0.035426542 0.16471964
-0.033519045 0.032490481 0.16573989
-0.026821095 0.038071223 0.16087422
-0.0094575481 0.020961449 0.19176823
-0.020314325 0.017814929 0.1928027
-0.024587959 0.01615731 0.19324946
-0.02832032 0.013639648 0.19212645
0.015923467 0.034533747 0.18982735
0.012148986 0.033958167 0.19054821
0.007246362 0.031865757 0.19120717
0.002129972 0.030219765 0.19234973
-0.0065790871 0.026092745 0.19238389
-0.015053988 0.022336006 0.19140941
-0.030990385 0.016280413 0.19147557
-0.033000536 0.013163026 0.18822539
0.015641209 0.036257718 0.18663985
0.011242635 0.036404978 0.18762052
0.0065767765 0.035816241 0.18873656
-0.033771403 0.015986279 0.18480754
0.014384355 0.037656903 0.18315077
0.010893633 0.037837114 0.18305928
0.0055483291 0.037873901 0.18326962
-0.032810543 0.017613109 0.18078187
0.0099470159 0.037975848 0.17905301
0.0052713649 0.037750598 0.17820469
-0.032710426 0.022126155 0.17523772
-0.0053322967 0.038721278 0.17352962
-0.033429563 0.024250582 0.17209613
-0.0057438388 0.038093783 0.16940966
-0.013836395 0.03823274 0.16829494
-0.034842044 0.028359216 0.16665569
-0.034586526 0.023366451 0.16717207
-0.015003134 0.037953719 0.16443744
-0.034128122 0.02896338 0.16317666
-0.020713232 0.038202044 0.15899721
-0.031118302 0.035320818 0.15887266
-0.032948084 0.03187776 0.15882191
-0.020896729 0.037947975 0.15396643
-0.030993192 0.036636312 0.15436932
-0.026572756 0.038657311 0.1490564
-0.027540501 0.039292455 0.14593595
0.025364991 0.034704391 0.19291934
0.023206968 0.032074716 0.19180873
0.019543026 0.030681834 0.19171873
0.010205768 0.025735516 0.19113085
0.0048563695 0.024473971 0.19221261
-0.0044675963 0.020572308 0.19186157
-0.012879792 0.015787035 0.19203204
-0.017540105 0.013178031 0.19247305
-0.022113997 0.011351978 0.19340187
-0.026759071 0.0095587634 0.19308767
-0.030980878 0.0083924169 0.18998152
-0.034886893 0.0050033452 0.18838245
-0.037962418 0.0043567708 0.18769607
0.026336316 0.035274468 0.19013366
0.022247564 0.034481682 0.18975091
0.017902132 0.033800319 0.19082657
0.013133875 0.031589046 0.19169292
0.0087882625 0.029863808 0.19154382
-0.03638633 0.0082423547 0.1861847
-0.038715985 0.0065891929 0.18457624
0.024940664 0.036836803 0.18509808
0.021505101 0.036713671 0.18572178
0.017920367 0.036910038 0.18656617
-0.034857538 0.014188011 0.18189567
-0.036300179 0.0097951908 0.18162957
-0.038893398 0.0072315075 0.18223846
0.024633449 0.037959024 0.18214881
0.021187205 0.038110368 0.18110341
0.016586922 0.037880532 0.18165019
-0.033646163 0.014462683 0.17787269
-0.035087373 0.010734063 0.17803189
0.021119805 0.038756702 0.17781529
0.015887726 0.038532652 0.17715144
0.011512662 0.03855668 0.1772359
0.0054420205 0.037801802 0.17497465
-0.03281983 0.016101919 0.17342195
0.014922257 0.037937321 0.17305374
0.011182161 0.038231336 0.17240193
0.0060620932 0.037825357 0.17161727
0.0019299444 0.037552334 0.17140421
-0.033542044 0.018388877 0.16849375
0.010037231 0.037977025 0.16853866
0.0058306279 0.037935223 0.16755489
0.0011529978 0.037865344 0.16628754
-0.034768037 0.021829536 0.16532388
-0.0048503969 0.037693609 0.16226935
-0.033856168 0.026438437 0.15964866
-0.033947833 0.022417273 0.15898228
-0.0099699534 0.038265124 0.15816075
-0.033680297 0.027980499 0.15648389
-0.01496294 0.039219905 0.15320608
-0.034012418 0.02962672 0.15237048
-0.020787772 0.038478136 0.14777255
-0.033097014 0.032427937 0.14759195
-0.025833732 0.039007492 0.14298365
-0.032949813 0.032768521 0.14286625
-0.029473495 0.037140373 0.1386393
-0.0058286949 0.011052985 0.19308323
-0.010224062 0.0093430728 0.19294998
-0.014432674 0.0070392969 0.19276673
-0.019572942 0.0046712914 0.19298846
-0.024051525 0.0031605214 0.19321457
-0.027797014 0.00026355218 0.19140202
-0.032341693 -0.0018869136 0.19076896
0.022782065 0.029197641 0.19204563
0.020242348 0.026335863 0.19133914
0.016884973 0.023214305 0.19156185
0.012340352 0.022219272 0.1921027
0.007565781 0.019705778 0.19239718
0.0022053029 0.017439654 0.19200033
-0.0067270575 0.014271938 0.19282252
-0.015233343 0.0102802 0.19217151
-0.029632581 0.0033770734 0.1902537
-0.033325415 0.00081713777 0.18930912
-0.036085296 -0.00066565163 0.18807176
0.028923243 0.033566803 0.18695775
0.018027157 0.028470855 0.19072595
0.015291276 0.026949491 0.19037738
0.028281659 0.035470389 0.18360558
-0.037189171 0.0074315527 0.17832702
-0.03835256 0.0046050353 0.17810595
0.02714977 0.037214234 0.17910343
-0.03630802 0.0092050442 0.17528152
-0.037934016 0.0052499482 0.17439196
0.025851656 0.037960656 0.17485762
0.021653417 0.038096514 0.1745193
0.018203534 0.038112931 0.17432615
-0.034232005 0.013357962 0.17204264
-0.036019225 0.0099148564 0.17054725
0.021803156 0.037986603 0.16999632
0.017193582 0.03761331 0.17027834
0.013365998 0.038052242 0.16973561
-0.034529068 0.014523745 0.16724229
-0.035623904 0.0108055 0.16704911
0.021188118 0.038447194 0.16643757
0.017018802 0.037678264 0.16551557
0.012318778 0.037603632 0.16571259
0.0074491622 0.037205458 0.16434628
-0.034091357 0.017073352 0.16220069
0.012036444 0.037367973 0.16164213
0.0071655978 0.037443224 0.15970114
0.0024073338 0.037547238 0.16004324
-0.03340812 0.021104135 0.15803137
0.0058092549 0.037711404 0.1552259
0.0015383698 0.037653297 0.15519705
-0.034571398 0.022770852 0.15333593
0.00015850179 0.037351348 0.15153384
-0.0079835709 0.037435859 0.15106592
-0.034753084 0.024219841 0.14950171
-0.0094210189 0.037008256 0.14653912
-0.033458747 0.028089233 0.14558083
-0.018541258 0.03761746 0.14208841
-0.031189499 0.034290567 0.1396699
-0.032972954 0.031636819 0.14021939
-0.024312783 0.037507057 0.13615075
-0.032950804 0.032411017 0.13555571
-0.029208435 0.035809465 0.13087815
-0.026015587 -0.0078762267 0.19671142
-0.029533008 -0.0075871395 0.19753239
-0.011521122 0.00096219964 0.19345719
-0.016870378 -0.00058902428 0.19359377
-0.022298872 -0.0029980941 0.19371814
-0.02628069 -0.005337154 0.19429544
-0.030672092 -0.0060351738 0.1947313
0.022278473 0.018898418 0.19169986
0.018926732 0.01787395 0.19307688
0.014320707 0.016527938 0.19319254
0.0097055994 0.013841981 0.19306788
0.0046942802 0.011552034 0.19248989
0.00069413078 0.0093709277 0.19276515
-0.0081178434 0.0060537243 0.19313642
-0.012522966 0.0034633921 0.1932345
-0.017171958 0.0023152581 0.19346905
-0.024471108 -0.00063169748 0.19318438
-0.027559424 -0.0023982706 0.19230908
-0.031749517 -0.0035545779 0.19217643
0.025406469 0.023731338 0.19019359
0.022715671 0.022621289 0.19118276
0.031758923 0.033741325 0.18279612
-0.038578406 0.0024015047 0.17559963
-0.038764134 0.0045624916 0.17321995
-0.036790706 0.0072282841 0.16696802
-0.038047686 0.0059275683 0.16923934
0.026177829 0.037732992 0.16820645
0.02365456 0.03853761 0.16783917
-0.036001392 0.0097901132 0.16432151
0.022223663 0.038451556 0.16402656
0.018163761 0.037975427 0.16304126
-0.033406593 0.012335935 0.15814176
-0.034734976 0.011196802 0.16054109
0.021378605 0.038180035 0.15917033
0.017726872 0.037604138 0.15913263
0.012880449 0.03759009 0.15905637
0.0091308737 0.037712887 0.15732104
-0.033321615 0.014900855 0.15634274
0.016489765 0.037055068 0.1552743
0.012753195 0.037255574 0.15457082
0.0080781784 0.037361685 0.15354896
-0.033744972 0.01801295 0.15331402
0.011669753 0.036849443 0.15051761
0.007726674 0.037062734 0.14963984
0.0022629192 0.037602901 0.14894381
-0.03493239 0.021667976 0.14646268
0.00090734195 0.037223533 0.14430779
-0.0074385297 0.036674213 0.14396188
-0.033082556 0.025978301 0.14220521
-0.033809606 0.021386087 0.14125824
-0.0082791317 0.036490411 0.13957796
-0.033264879 0.026734065 0.13893086
-0.013254913 0.036615998 0.13507929
-0.033184558 0.027016623 0.13335174
-0.018182792 0.03663053 0.13049224
-0.028889652 0.035923637 0.12874353
-0.023039706 0.036996197 0.12588561
-0.032408446 0.032278642 0.1251694
-0.02886463 0.036697544 0.12008411
-0.018630009 -0.010012203 0.19566771
-0.022343811 -0.010751162 0.19625297
0.021094559 0.011593306 0.19329083
0.017379239 0.010154628 0.19318041
0.012114479 0.0082862778 0.19312069
0.0078050816 0.004892699 0.19293797
0.0031201709 0.0030325321 0.19277251
-0.0062672393 0.00069890055 0.19323087
-0.010417234 -0.002654199 0.1937786
-0.014326573 -0.0048296894 0.19347233
-0.019335443 -0.0063724997 0.19367754
-0.02365583 -0.0072388444 0.19479078
0.024500445 0.01625314 0.19197068
0.021342184 0.014939012 0.19330162
0.016905893 0.013199309 0.19315794
0.0059289304 0.008640632 0.19265744
0.029504348 0.033266928 0.16897947
0.029274151 0.033980992 0.16758552
-0.036313798 0.0064322855 0.16074222
0.027832884 0.034663472 0.15886739
0.025233164 0.036251962 0.16042745
-0.034167569 0.010002292 0.15684307
0.027210724 0.036406718 0.15630126
0.02460672 0.036670998 0.15665752
-0.033256497 0.012405331 0.15247744
-0.034422208 0.010920036 0.15368807
0.023115832 0.03777105 0.15259832
0.018484071 0.03733553 0.15287352
0.015182025 0.036638223 0.15149862
-0.033758629 0.013936166 0.14976552
-0.034221604 0.010853259 0.14789629
0.022178937 0.038717672 0.14783192
0.018619418 0.03689095 0.14731017
0.013870695 0.036696725 0.14777669
0.0089878635 0.036518238 0.14709568
-0.033882335 0.01468337 0.14455152
0.021056972 0.040231761 0.14389586
0.019696042 0.039534435 0.14279109
0.013612704 0.037010506 0.14277253
0.0089475038 0.036666617 0.14313507
0.0040194923 0.036978766 0.14215666
-0.034094501 0.015723865 0.13856936
0.017117254 0.042152427 0.13741201
0.012047588 0.037566848 0.1394107
0.0082699126 0.03700988 0.13863349
0.0027709734 0.036631484 0.13726744
-0.033625796 0.021398481 0.13547134
0.00082219765 0.036165435 0.13338068
-0.00746659 0.036965169 0.13317376
-0.033608805 0.022206351 0.13060963
-0.0082202852 0.037647612 0.12879044
-0.033097036 0.027204553 0.12864089
-0.033361733 0.02369765 0.1263274
-0.012848895 0.036956176 0.12361622
-0.032614663 0.03088975 0.12232685
-0.032352701 0.025814429 0.12266636
-0.017753487 0.036851842 0.11890233
-0.031848561 0.032364555 0.11871225
-0.023045981 0.03710366 0.11477351
-0.030940132 0.03350167 0.11358726
-0.027362198 0.035962403 0.11089009
-0.010217348 -0.013427638 0.19805723
-0.007666857 -0.010167658 0.19508114
-0.012054694 -0.010793816 0.19616258
-0.016153654 -0.011739796 0.19639573
-0.019901128 -0.012678185 0.19656521
0.019539146 0.0054289494 0.19194335
0.01452613 0.0039775819 0.19281444
0.009716657 0.00085279718 0.19333574
0.0051772217 -0.0019117494 0.19329432
-0.0039105159 -0.0050522122 0.19323364
-0.008109198 -0.0064415596 0.19370225
-0.013005191 -0.0082073547 0.19408935
-0.016095627 -0.0090714591 0.19418293
-0.034445696 0.0068614362 0.14922175
0.027752299 0.03603318 0.15117443
0.025505479 0.037322044 0.14963132
-0.034138739 0.0062360065 0.14684355
0.020395396 0.037632454 0.14523309
-0.033582583 0.009703638 0.14126402
0.018133208 0.038057093 0.1424571
0.01537862 0.037759453 0.14069507
-0.033596642 0.014276552 0.14039236
-0.033840671 0.010778789 0.13623738
0.017425925 0.039108116 0.13763863
0.013975208 0.037992071 0.1370737
0.010033993 0.037266076 0.136464
-0.034118541 0.016155325 0.13403946
-0.033861917 0.015524531 0.13356364
0.016547337 0.040005408 0.13418376
0.014002478 0.037734531 0.13156679
0.0093856677 0.036746372 0.13175014
0.0046497285 0.036135767 0.13190416
0.00047811773 0.036036912 0.13014749
-0.033636786 0.01534572 0.12854409
0.0095472336 0.036905486 0.1279285
0.004514372 0.035938859 0.12708181
-0.033010866 0.021218553 0.12397963
-0.0062903306 0.037022199 0.12157661
-0.032717817 0.024390427 0.11943674
-0.011911533 0.036868256 0.11681712
-0.032829527 0.025940659 0.11505061
-0.012520364 0.036972325 0.11204672
-0.020922445 0.036930557 0.11191398
-0.032345545 0.031071479 0.11262435
-0.033062138 0.02865177 0.11110592
-0.017877834 0.037195683 0.10887057
-0.026897933 0.035155296 0.10724592
-0.033863232 0.029983222 0.10682362
-0.027058281 0.035450939 0.10279953
-0.033699431 0.03107816 0.10211742
-0.029849038 0.034727219 0.098779559
0.023757154 -0.0029232316 0.19763646
-0.00072907284 -0.013262143 0.19733891
-0.0057561882 -0.013751876 0.19780198
0.024914226 0.00058143772 0.19657752
0.022670763 -0.0020425948 0.19460264
0.019672617 -0.0029957606 0.19276416
0.011635436 -0.0047890758 0.19325811
0.007186247 -0.0067323763 0.19374558
-0.001787846 -0.010369504 0.19449788
-0.0053437399 -0.011697437 0.19565231
0.024257099 0.0040901206 0.19153646
0.021570649 0.00084627653 0.19176739
0.017168432 -0.00023809075 0.19244897
0.012951331 -0.0016866801 0.19288996
-0.034845021 0.0013201376 0.14675531
-0.033793755 0.0055871056 0.1434724
-0.035829872 0.0018996112 0.14349204
-0.038327225 -0.00058558863 0.14342529
-0.033714876 0.0057448084 0.13873464
-0.037174039 0.0011312282 0.14040568
-0.038519908 0.00016085245 0.14008355
-0.03376767 0.0062323548 0.13421792
-0.034000076 0.011611527 0.13100529
0.015978441 0.038089518 0.1291486
-0.033871755 0.01283977 0.12546122
0.014050024 0.038398411 0.12615329
0.0096791796 0.037004914 0.12503403
0.0055910246 0.036378827 0.12461323
-0.032731976 0.013500588 0.12220997
0.013440194 0.038297746 0.12141526
0.0097157657 0.037547998 0.12049365
0.0049425205 0.036358528 0.12083739
0.0001699198 0.036360733 0.12003762
-0.032641184 0.018061385 0.11841315
0.0049345111 0.035986569 0.1161567
-0.0060880296 0.036350261 0.11468881
-0.033068269 0.024013979 0.11377192
-0.0067088571 0.036758069 0.11068982
-0.033605732 0.025791083 0.10923332
-0.011948755 0.036854189 0.10564035
-0.020114873 0.035681397 0.1049031
-0.033825058 0.026880547 0.10312486
-0.016954115 0.036862243 0.1009624
-0.025193583 0.03587655 0.10039139
-0.034227163 0.029338479 0.099514604
-0.021991495 0.036935221 0.096336365
-0.031422745 0.034016468 0.096431851
-0.03410504 0.030953893 0.095159531
-0.027199991 0.036768746 0.092150927
-0.034318916 0.032129418 0.091398358
0.022356249 -0.0055885203 0.19642091
0.021129688 -0.0067642494 0.19599614
0.015850199 -0.010721264 0.19477755
0.00507442 -0.014442422 0.19562873
0.025860481 -0.001002335 0.1927264
0.023219479 -0.0031832331 0.1938661
0.01893352 -0.0059339465 0.19336277
0.015088975 -0.0081530493 0.19314051
0.0051589021 -0.012353703 0.19397137
0.025475452 3.4558587e-05 0.19151112
-0.035399675 0.0012140693 0.13715518
-0.037692539 -0.0018299064 0.13667923
-0.033609025 0.0060514258 0.13114464
-0.03503621 0.0018668761 0.13291076
-0.033139966 0.0065686172 0.12812215
-0.034291644 0.0034852112 0.12863898
-0.033418275 0.0061512096 0.12333572
-0.032340504 0.011265278 0.11863953
0.013958569 0.036467515 0.11675197
-0.032284722 0.017425882 0.11493993
-0.031883713 0.011874677 0.11499554
0.014214661 0.036460366 0.11272168
0.010794817 0.036091488 0.11330533
0.0062970985 0.035152722 0.11257482
-0.032551907 0.018388622 0.11171788
-0.032608233 0.014186355 0.10981882
0.010246623 0.035870031 0.10931516
0.0059547834 0.035097577 0.10842049
0.0011121007 0.035200171 0.10856289
-0.033036113 0.020036619 0.10703737
0.00083363242 0.035273984 0.10384458
-0.033184756 0.020869367 0.10168588
-0.0096358377 0.034937549 0.098365366
-0.033759397 0.022581328 0.099051178
-0.010996448 0.03520738 0.094801605
-0.034226988 0.028735593 0.093582571
-0.015970169 0.03564395 0.090138078
-0.026029922 0.034869228 0.087861896
-0.034960069 0.030988242 0.089392602
-0.02534445 0.034102198 0.084514916
-0.033611618 0.030559378 0.085087299
-0.030390633 0.033952631 0.080509126
-0.03326723 0.031779114 0.081442595
0.016100582 -0.013408305 0.1951201
-0.037018485 -0.0034273351 0.13354832
-0.036092542 -0.0010267803 0.13000995
-0.03538388 0.0010199687 0.12667829
-0.033157472 0.0056465985 0.12096858
-0.0318349 0.0071454495 0.11573249
-0.032006726 0.0096832877 0.11234397
-0.032870002 0.011935235 0.10866392
0.01123967 0.036529362 0.10696471
0.0071416581 0.03534339 0.1057322
-0.032948278 0.015556782 0.10388148
0.010548276 0.036127817 0.1024245
0.0064245863 0.035453659 0.10198605
0.0022103023 0.035102226 0.10080147
-0.032991264 0.0159702 0.10018039
0.005710626 0.03500586 0.097160101
0.001504709 0.0351706 0.097010076
-0.033165947 0.021376314 0.09502995
0.00033741537 0.035649214 0.092949808
-0.0084941117 0.035380207 0.092190504
-0.033189431 0.021830324 0.090322614
-0.0093813036 0.035438139 0.087731183
-0.010965899 0.034869131 0.083857894
-0.02025765 0.034590397 0.083515942
-0.020953318 0.036127646 0.079326212
-0.031880498 0.032995515 0.077909708
-0.033117481 0.031671982 0.078272462
-0.025835138 0.036250029 0.074369133
-0.032785315 0.031213898 0.073754251
-0.029322367 0.033897772 0.06970489
-0.031249803 0.00060915109 0.12111312
-0.033351187 0.0017616805 0.11841488
-0.031548649 0.001935225 0.11412984
-0.033096649 -0.00093983114 0.11455697
-0.032181419 0.0039469106 0.10966468
-0.033400536 0.0027383929 0.10713136
-0.032909218 0.0073221242 0.10565305
-0.033767723 0.0038712565 0.10498935
-0.032454446 0.0087482948 0.10151321
-0.03232507 0.012177534 0.09734261
0.011355563 0.034688219 0.096567929
0.0084928256 0.034322303 0.095287085
-0.031920794 0.013815688 0.092337191
0.011031842 0.034542389 0.091076195
0.0074411053 0.034574658 0.091010332
0.0023445357 0.035058923 0.090653121
-0.032605052 0.015879143 0.08891958
0.0070647383 0.034964953 0.086813271
0.0024901694 0.034784861 0.086095929
-0.032362513 0.020222474 0.083866417
0.0018221419 0.035492085 0.082145274
-0.0075668483 0.034231532 0.081259668
-0.032331489 0.025146058 0.078300953
-0.012899559 0.03489605 0.075818181
-0.019132199 0.035133153 0.070710778
-0.032235198 0.030152744 0.069723368
-0.024121875 0.034311514 0.067204952
-0.031672321 0.029062936 0.065645099
-0.028379556 0.032041479 0.063900352
-0.033412579 -0.0021567484 0.11081719
-0.034199659 -0.00039923564 0.10743773
-0.036589112 -0.0027753571 0.10714942
-0.03514808 0.0017293133 0.10255921
-0.036866941 -0.0017376086 0.10289574
-0.033104081 0.0071944445 0.099080265
-0.034791827 0.0047242092 0.098784506
-0.036002953 0.00095986202 0.098487854
-0.032076873 0.0079428917 0.094292164
-0.032495387 0.0060544563 0.093067884
0.013337525 0.034397185 0.088678479
-0.032477379 0.013627723 0.084209085
0.012551311 0.035624482 0.084067464
0.0077471733 0.035579428 0.084325671
-0.032490503 0.016068911 0.082916677
0.01281586 0.036094896 0.079982638
0.0074996613 0.035324715 0.079870164
0.0031101629 0.034826383 0.078544259
-0.031325281 0.017947037 0.078865647
-0.030904897 0.017170075 0.07509923
0.0026019206 0.034343477 0.075235784
-0.0068116751 0.03451724 0.074297309
-0.031447221 0.023264613 0.073589146
-0.0078494232 0.03387139 0.0706563
-0.031579539 0.023997668 0.069018483
-0.016882354 0.034782499 0.065556288
-0.031416029 0.02393714 0.064789355
-0.018298049 0.034567643 0.061238408
-0.029183678 0.031470917 0.061020851
-0.031411391 0.028866053 0.06023711
-0.023224596 0.03531982 0.056661904
-0.031254705 0.03073894 0.054967105
-0.028155014 0.034326851 0.051280916
-0.036468472 -0.0027541593 0.10210025
-0.036841441 -0.0002462836 0.097350538
-0.03390326 0.0028541554 0.092184722
-0.036267985 -0.00020894036 0.091642439
0.014898947 0.030007668 0.089886129
-0.030673416 0.0063223699 0.08770144
-0.032678239 0.003807894 0.088129103
-0.037051 -0.00020721648 0.08775717
-0.031622719 0.0090431944 0.08477658
-0.033423427 0.0059634643 0.0827353
-0.03703019 0.004930459 0.08116281
0.016263828 0.03200062 0.082771003
-0.032272384 0.012714645 0.079396069
-0.034772314 0.008477035 0.07902652
0.013760235 0.035437755 0.076673567
0.0091433022 0.034681417 0.076313615
-0.032212846 0.013201687 0.075206816
-0.035175227 0.0098490333 0.074977875
-0.038232639 0.0086603528 0.073881865
0.012458178 0.035342809 0.073434293
0.0084044738 0.03469196 0.073419213
0.0033792527 0.033968821 0.072165728
-0.031718016 0.015048511 0.070650399
0.012582076 0.035929158 0.070104063
0.0082334112 0.03505839 0.069146335
0.0038182596 0.0340266 0.068384886
-0.0055374084 0.033008043 0.067305326
-0.031441987 0.016872831 0.06778574
0.0030540498 0.03437566 0.063898623
-0.0069688414 0.033383567 0.063724697
-0.030172516 0.02111515 0.060222507
-0.0064415773 0.033835575 0.058888912
-0.015296916 0.033159163 0.057973623
-0.031100303 0.023764305 0.057277262
-0.011704996 0.034075893 0.054264069
-0.020943655 0.034403663 0.053208888
-0.031888917 0.026162663 0.053061366
-0.017223207 0.034389187 0.049681723
-0.026128601 0.034508485 0.048478484
-0.032330912 0.028800461 0.048939645
-0.022587722 0.034931045 0.044621348
-0.031652033 0.030897971 0.044065118
-0.027761079 0.034106418 0.039334178
-0.033669408 0.0019787047 0.085033417
-0.035973672 -6.8645924e-05 0.085121036
-0.034731477 0.0034142509 0.082564473
-0.036481369 0.0018118164 0.082208872
-0.034568042 0.0085514542 0.070758522
0.016283292 0.033662152 0.070536971
-0.032343473 0.012362425 0.066746056
-0.033655725 0.009884242 0.067859709
0.013544668 0.035237238 0.066720963
0.010445271 0.033270918 0.064523101
-0.030899242 0.013558641 0.062727571
0.0082815299 0.033625882 0.062591434
0.0048307348 0.034743655 0.061597943
-0.030011848 0.015100911 0.058234453
0.003179851 0.033844031 0.056892514
-0.030858543 0.018775199 0.05443573
-0.0062669544 0.034537841 0.052082479
-0.031831294 0.021622697 0.050580502
-0.011247514 0.034596741 0.047777653
-0.032019623 0.022408873 0.047020376
-0.016438609 0.033853155 0.042434096
-0.022258816 0.033877354 0.037956536
-0.032532897 0.030694976 0.037443221
-0.027038878 0.033748019 0.033289552
-0.03294491 0.0048120711 0.063389361
0.01647798 0.032771125 0.063900352
-0.032985575 0.0081903609 0.061722636
0.015361575 0.033092689 0.059893429
0.010602877 0.032505043 0.059706807
-0.031215958 0.01136521 0.056791127
-0.032381095 0.0084911948 0.057577014
0.014521968 0.033130005 0.055301547
0.010533033 0.032714501 0.055405617
0.0065579228 0.032881103 0.055847824
-0.031115917 0.013725018 0.053283572
0.0096618654 0.032592811 0.051588297
0.0050802408 0.033238694 0.050988078
-0.031057244 0.015210343 0.047524452
0.0033904761 0.034025922 0.046505451
-0.0058658249 0.033647742 0.044075251
-0.031439055 0.019658539 0.043299615
-0.0057965289 0.034359992 0.041877747
-0.031029761 0.020602584 0.037873983
-0.010813577 0.033849265 0.036869168
-0.019328661 0.032125346 0.036122739
-0.031479497 0.021939123 0.035851777
-0.016402427 0.032729954 0.032171965
-0.021360924 0.033604249 0.027184308
-0.030039337 0.029096123 0.026124954
-0.026211329 0.03330823 0.022544622
-0.03327297 0.0010495046 0.061738074
-0.033126138 0.0028848257 0.057373941
-0.031982351 0.0061658658 0.053604722
0.020101272 0.031754415 0.052278101
0.017543659 0.032245651 0.052834332
-0.031001963 0.010251216 0.049010396
-0.032018811 0.0080587501 0.050807595
0.015995823 0.032349024 0.04877317
0.01129583 0.032026596 0.047959507
-0.030860133 0.010142094 0.045696139
0.014964087 0.031820893 0.045241416
0.010147591 0.031802073 0.043740571
0.0068502901 0.03214905 0.043095708
-0.030463006 0.014254363 0.040221632
0.0046053333 0.032439794 0.03940016
0.0008086795 0.033661723 0.0378865
-0.030448191 0.014382306 0.038174927
-0.0052393917 0.033439998 0.033031583
-0.031201024 0.021519572 0.032216668
-0.010369372 0.032418761 0.029415369
-0.0078780279 0.031809881 0.026023269
-0.019082416 0.032779537 0.02366662
-0.031038564 0.026517147 0.023248434
-0.020515695 0.032971267 0.019918442
-0.030036911 0.028902804 0.019472122
-0.025784671 0.032237869 0.015481055
-0.034009762 -0.0026191408 0.056578755
-0.033047665 0.0027551381 0.052028894
-0.033838294 -0.0015831571 0.052526951
-0.032711472 0.0045265099 0.048313797
-0.033642005 0.0032181749 0.04544121
0.020583842 0.031471275 0.046595395
0.018704476 0.03159513 0.046150565
-0.030647015 0.00977947 0.043222249
-0.032101505 0.0064796684 0.04322958
-0.033957366 0.0043022474 0.042077422
0.017178677 0.031920794 0.042279661
0.012939212 0.031285383 0.041830361
-0.030597419 0.0099782068 0.039075792
-0.031972077 0.0077121733 0.038244963
0.016754702 0.032148272 0.037685156
0.011892796 0.031472713 0.037257493
0.0076306593 0.031404622 0.036997676
-0.030516546 0.014794956 0.035296261
-0.031244233 0.010221186 0.033422351
0.010045138 0.032177377 0.031869531
0.0062866015 0.032192916 0.032977581
-0.030598957 0.015407331 0.030414581
0.0052949153 0.033054844 0.027458072
0.0010221703 0.03272894 0.028187215
-0.030589923 0.017685119 0.025299549
-0.0043230625 0.032384984 0.023254514
-0.012945283 0.031185074 0.022691369
-0.030824747 0.019166678 0.020473659
-0.0094444072 0.031426933 0.018097222
-0.031258203 0.021783046 0.016731858
-0.019499922 0.031827185 0.013575256
-0.030748066 0.026606379 0.01343596
-0.025171235 0.031288486 0.0090293288
-0.02925705 0.028466616 0.0082153082
-0.034637418 -0.0043742722 0.053847432
-0.035399921 -0.0070038992 0.051026344
-0.033381373 -0.0041286461 0.048359036
-0.033876136 -0.00091515854 0.044500232
-0.035374083 0.0021762103 0.040304124
0.02171924 0.029893458 0.03968811
-0.032833125 0.0065707481 0.035987914
-0.035302944 0.0034673447 0.036435008
-0.037472505 -0.00042400137 0.036196709
0.022049693 0.031231102 0.034868836
0.017659187 0.031382672 0.034447789
-0.0325316 0.0077171195 0.031396151
-0.035111979 0.0039653443 0.031983078
0.018242728 0.030615551 0.030418873
0.013658544 0.030441027 0.030525923
-0.031610914 0.010348719 0.027786791
0.017310435 0.031119505 0.026734829
0.012398762 0.030704688 0.026207924
0.0086687626 0.031774424 0.026524961
-0.032186229 0.012496718 0.023789406
0.01113099 0.030977745 0.021884799
0.0070489701 0.031906638 0.021292925
0.0026873099 0.031970415 0.021551967
-0.032000821 0.013584414 0.019952774
0.0055047479 0.031652354 0.017531872
0.0017555701 0.03102061 0.016388535
-0.0089064613 0.03111499 0.014864385
-0.031444632 0.018955655 0.013928413
-0.008430507 0.030945623 0.011754394
-0.030873951 0.020868476 0.010935187
-0.033583403 -0.0064232135 0.042388022
-0.037541945 -4.251115e-05 0.033267617
0.024162123 0.029375281 0.034256995
-0.035828531 0.0029931255 0.028637409
-0.037545964 0.00024085399 0.029148102
0.023732122 0.030626254 0.028562009
0.020110056 0.03095619 0.027969062
-0.032457843 0.0064078104 0.024910212
-0.034729615 0.0034417966 0.024938047
0.023531888 0.031374793 0.024240851
0.018810611 0.030912712 0.023317218
0.014033325 0.030465625 0.023898423
-0.032858241 0.007786721 0.020659924
-0.034100998 0.003777531 0.02111727
0.022173721 0.031617247 0.020225227
0.018220114 0.031360112 0.019210696
0.013816122 0.0303014 0.019226432
0.0096019451 0.030742327 0.017762601
-0.03163667 0.01140443 0.015162587
0.012533859 0.030007878 0.015556097
0.0078337472 0.03095223 0.014428258
0.0034329928 0.031137168 0.014071465
-0.030755728 0.012555837 0.011796236
0.0075830333 0.03118425 0.010350049
0.0021087611 0.031213423 0.010017335
-0.033484954 0.0023831064 0.01763159
0.023729868 0.031207703 0.018333793
0.020722771 0.031109728 0.016943932
-0.032160968 0.0064483304 0.013886094
-0.032775436 0.0031485427 0.014727533
0.023346355 0.029993888 0.013047338
0.019432474 0.029781209 0.012461305
0.014738454 0.029666096 0.012406349
-0.030773859 0.0080693318 0.0081478953
0.013609571 0.029989585 0.0078356266
-0.032246843 -0.00048879907 0.011656582
0.025737667 0.028204037 0.010326028
-0.032126125 -0.0030495469 0.0084537864
