# .PCD v0.7 - Point Cloud Data file format
VERSION 0.7
FIELDS x y z
SIZE 4 4 4
TYPE F F F
COUNT 1 1 1
WIDTH 1218
HEIGHT 1
VIEWPOINT 0 0 0 1 0 0 0
POINTS 1218
DATA ascii
0.035692453 0.028938532 0.1771071
0.03322506 0.032776117 0.1774497
0.031235337 0.035943151 0.17667904
0.036390424 0.031280637 0.17429382
0.035104454 0.03368336 0.1740196
0.031918585 0.036430001 0.17468244
0.03245914 0.022853613 0.17862839
0.030412555 0.025286198 0.17955822
0.028359354 0.029469609 0.17998546
0.025327146 0.032919645 0.1796208
0.036099076 0.022509158 0.17597768
0.034855604 0.026751995 0.17764902
0.028967559 0.036329925 0.17748415
0.025976241 0.03831768 0.17563838
0.037774861 0.024971008 0.17209464
0.036823869 0.028953671 0.17229044
0.034674227 0.03432554 0.17115423
0.03077352 0.037017941 0.17194045
0.026187658 0.038267553 0.17189291
0.038819849 0.026590884 0.16810298
0.037375927 0.029674828 0.16746473
0.035219908 0.033806562 0.16756994
0.031812906 0.036058187 0.16623074
0.037577033 0.030888021 0.16315369
0.036176562 0.034139633 0.1631837
0.033798575 0.0073358417 0.17949855
0.030461848 0.011934638 0.17996454
0.025904775 0.022231281 0.18056813
0.024028957 0.026123345 0.18145674
0.035858154 0.0068662763 0.17692524
0.035057664 0.010097325 0.17690128
0.032934725 0.014590144 0.17754334
0.031517148 0.019477546 0.17816132
0.027446687 0.023702264 0.18045622
0.023650169 0.033286273 0.17948401
0.01985234 0.035489142 0.1773105
0.038040757 0.0082343221 0.17239821
0.036495805 0.011018515 0.17292577
0.035189211 0.015705287 0.17304057
0.035642326 0.019982874 0.17294556
0.022275865 0.03818959 0.17232317
0.034917474 0.017721653 0.16961318
0.035363793 0.020999253 0.16922265
0.026934326 0.037309408 0.16888896
0.02351433 0.03797096 0.16848004
0.035128355 0.023158193 0.16492961
0.035687327 0.026404977 0.16412155
0.027718246 0.036142468 0.16492616
0.024408996 0.036662281 0.16500013
0.036391556 0.028233826 0.16061439
0.035930336 0.03404367 0.16016923
0.030984104 0.036193371 0.16013487
0.036029994 0.03028357 0.15674771
0.034963369 0.033444524 0.15586247
0.030805171 0.036270082 0.15597992
0.034604192 -0.0014850497 0.177522
0.032836378 0.0030937791 0.1797469
0.03107518 0.0080244541 0.17980206
0.025078297 0.016134799 0.17911446
0.021249056 0.018627346 0.18053871
0.019057095 0.022451043 0.18108141
0.016078949 0.0275172 0.179075
0.013305008 0.032276154 0.17846978
0.01107949 0.035547197 0.17649388
0.036090255 0.0002387166 0.17475379
0.036100864 0.0036672354 0.17591053
0.033487797 0.0089268088 0.17815074
0.015410662 0.034048557 0.17740712
0.014061153 0.037101984 0.17479232
0.037365675 0.0051211119 0.17143494
0.035613179 0.010529041 0.17058253
0.016299725 0.038132846 0.17110565
0.037262142 0.0066663027 0.1674639
0.036657751 0.010890067 0.16667032
0.035255253 0.015302956 0.167261
0.033334076 0.01800704 0.16583979
0.020674109 0.038217604 0.16575152
0.017534256 0.039227009 0.1665822
0.035835862 0.012870908 0.16334395
0.035147667 0.016200721 0.16249071
0.034486473 0.020115316 0.16236852
0.022115588 0.037905455 0.16224919
0.018661082 0.0392645 0.16304745
0.034913719 0.01774472 0.15851294
0.034933448 0.022472918 0.15823101
0.034499407 0.026264429 0.15732892
0.027090609 0.036891639 0.15809666
0.024410963 0.037884891 0.15826659
0.035277545 0.02369678 0.15398876
0.035254061 0.027413011 0.1535555
0.032233715 0.034775615 0.15303035
0.029265821 0.036886036 0.15364079
0.025757134 0.038339734 0.15408556
0.035381913 0.028834105 0.14924549
0.034263849 0.032797694 0.14938261
0.031258047 0.035802662 0.1500348
0.033588886 0.032908797 0.14528944
0.031807601 -0.014448404 0.18468928
0.030328929 -0.010913134 0.18332869
0.024087191 -0.0022619963 0.18307427
0.037914395 -0.016726553 0.18148327
0.035892963 -0.013143957 0.18211997
0.033364356 -0.0096450448 0.1823442
0.029519439 -0.0051076412 0.18147832
0.026780903 -0.00091665983 0.18168342
0.025227368 0.0025807023 0.18029958
0.021485448 0.0075131655 0.17933655
0.018825769 0.011960804 0.1801163
0.016225696 0.015991926 0.18122751
0.014123201 0.019187093 0.18141598
0.012174845 0.023651898 0.17998025
0.038754821 -0.015412748 0.17744601
0.038332701 -0.011656702 0.17763355
0.036516786 -0.0068305731 0.17869779
0.033575892 -0.0029613376 0.17908973
0.031433403 -0.00027865171 0.17993844
0.028209567 0.0031080246 0.18039745
0.023130953 0.010733604 0.17874998
0.021950006 0.013396442 0.17937607
0.015460253 0.023404002 0.18029022
0.011581063 0.026785672 0.17827874
0.010154843 0.030139208 0.17882353
0.0079855323 0.035195827 0.17758524
0.0045596957 0.037983119 0.17617404
0.038546622 -0.0109694 0.17411217
0.037544906 -0.0063706636 0.17354423
0.036603153 -0.0020251274 0.17362279
0.0099417567 0.03779012 0.17348486
0.0066270828 0.038916588 0.17277494
0.037453711 -0.0055260062 0.16946819
0.037135541 -0.00072646141 0.16925961
0.03688854 0.0031170845 0.16891572
0.011184394 0.038815618 0.16860265
0.0086497068 0.03944844 0.16800857
0.036914349 0.0010709763 0.16393138
0.037005007 0.0049562454 0.16479845
0.036128342 0.0097269416 0.16365521
0.014259756 0.039736331 0.16420607
0.01192987 0.039741039 0.16277151
0.036820292 0.0050516725 0.15980171
0.036326706 0.010664463 0.16063337
0.034579813 0.014212489 0.16012023
0.016322315 0.039607823 0.15980302
0.012099802 0.04004848 0.16053949
0.036163151 0.010172009 0.15616409
0.034608066 0.015277922 0.15549128
0.034644127 0.019432902 0.15640406
0.021625638 0.038196146 0.15439676
0.017951787 0.038859189 0.15656002
0.034984171 0.017038763 0.15079908
0.034884214 0.021238267 0.15151607
0.035045385 0.024992526 0.15051745
0.023200929 0.036195934 0.14902313
0.035333753 0.01887548 0.14790671
0.035139918 0.021937966 0.14701955
0.03478092 0.02618283 0.14689977
0.027130365 0.035740018 0.14593653
0.035144567 0.023527145 0.14347179
0.033905208 0.027342379 0.14310981
0.032561958 0.032089114 0.14211948
0.029383183 0.035459697 0.14211555
0.032827795 0.032969475 0.13718112
0.031327069 0.03479588 0.13811849
0.02099663 -0.01049006 0.18562189
0.01883322 -0.0062512755 0.18634027
0.02855134 -0.016030312 0.18514761
0.026582479 -0.012497663 0.18409634
0.024563313 -0.0086842179 0.18373257
0.022410989 -0.004553318 0.18382338
0.019725323 -0.0017620325 0.18279979
0.009598434 0.014281571 0.18193096
0.0084831119 0.016239583 0.18194985
0.037300646 -0.020548046 0.17900968
0.020664155 0.0018874407 0.18028057
0.017041445 0.0047241449 0.17927152
0.01624018 0.0091825724 0.180282
0.013501167 0.012788415 0.18116558
0.0085003972 0.018787861 0.18081439
0.0067141056 0.021653891 0.18018818
0.0046700239 0.025926709 0.17874569
0.0012156367 0.030593097 0.17770115
0.0011277795 0.034506142 0.17830202
0.036475837 -0.022431433 0.17617375
0.036178172 -0.01937592 0.17523417
0.0011213422 0.037024617 0.1771622
-0.0012890697 0.039185464 0.17416978
0.036718011 -0.013106704 0.1709466
0.0036868453 0.039723396 0.17159718
0.001737833 0.040985227 0.16998529
0.036727071 -0.01141566 0.16660866
0.035987139 -0.0076524615 0.16595483
0.035385787 -0.0039001703 0.16576022
0.0048715472 0.039801002 0.16546732
0.001372993 0.040721834 0.16621399
0.035385787 -0.0059665442 0.16184114
0.035739005 -0.002632916 0.1621819
0.0073835254 0.039560497 0.16223262
0.0364483 -0.00076580048 0.15775932
0.036429644 0.0034731627 0.15680872
0.011971951 0.038919508 0.15561484
0.011095345 0.039925277 0.15788727
0.036761284 0.00060790777 0.15325473
0.036328018 0.0045318604 0.15330766
0.035181701 0.0098865628 0.15281193
0.014455438 0.037590742 0.15243821
0.036154449 0.0051063895 0.15034567
0.034927905 0.010290265 0.14895545
0.034146369 0.013697982 0.14879535
0.018456101 0.035273433 0.14663838
0.015446305 0.036119461 0.14984013
0.034463763 0.012212873 0.14482678
0.034403622 0.016014814 0.14481266
0.034232736 0.019573331 0.14376141
0.020517766 0.03565371 0.14337687
0.033251643 0.020816684 0.14026169
0.032898247 0.025357246 0.13943373
0.026489019 0.036802769 0.14068453
0.021860361 0.036556005 0.13999416
0.031857371 0.026810825 0.13550095
0.032484293 0.030370116 0.1360365
0.028990388 0.035638452 0.135958
0.025426924 0.036713779 0.13716315
0.032147884 0.031647563 0.13193206
0.0303123 0.035156429 0.13283513
0.017778099 -0.011208832 0.18983185
0.013555884 -0.0095943213 0.1885159
0.021648645 -0.016040683 0.18609574
0.018365741 -0.012648463 0.18694204
0.015690506 -0.0091888309 0.18705356
0.015736818 -0.0045993328 0.18519586
-0.010751724 0.029567242 0.18335199
0.015568197 -0.0024853349 0.18270245
0.012990952 0.00084173679 0.18039405
0.010435283 0.0058953166 0.17928708
0.0073292851 0.011763573 0.18095344
0.0029013157 0.013907313 0.1813128
0.0016070008 0.019133806 0.18063259
-0.00060683489 0.023152649 0.17991793
-0.0038089156 0.027052939 0.17954788
-0.0065631866 0.030596554 0.18012854
-0.010596573 0.034487367 0.17950359
-0.011776507 0.036561906 0.17835951
-0.00072842836 0.028912306 0.17847165
-0.003367126 0.032720327 0.17800057
-0.0069320798 0.035919189 0.17663771
-0.0099938512 0.037544847 0.17587021
0.036854088 -0.023713112 0.17296499
0.035777211 -0.020010352 0.17250431
-0.0072556734 0.039126754 0.17139906
-0.0085277557 0.038413405 0.17328233
0.037465811 -0.023299515 0.16867936
0.035642028 -0.019224584 0.16852254
0.03567338 -0.015601158 0.16853741
-0.0031422973 0.041144729 0.16790214
-0.0062822104 0.041826963 0.16507123
0.037626028 -0.022690296 0.163188
0.036662877 -0.018971264 0.16355188
0.03635776 -0.014018774 0.16431038
0.035731435 -0.010183871 0.16322528
-0.00026422739 0.041200399 0.1632372
-0.0046191216 0.041975796 0.16241674
0.037348986 -0.017922282 0.16046841
0.036669731 -0.012645364 0.16012631
0.036152899 -0.0085761547 0.16026534
0.0045711398 0.038862944 0.15818493
-0.00022375584 0.040031135 0.15938453
0.035884917 -0.011256516 0.15601279
0.035626352 -0.0073524714 0.15547274
0.036050498 -0.0035952926 0.15505134
0.0051702261 0.038887799 0.15521343
0.035906494 -0.0063989758 0.15082251
0.036830544 -0.001968205 0.15123414
0.011990249 0.037417412 0.14957662
0.0086647868 0.038737237 0.15225731
0.034955502 -0.000187397 0.14743994
0.034976006 0.0037112236 0.14657401
0.034835875 0.0076786876 0.14686851
0.016777039 0.035353661 0.14693813
0.013131142 0.036732972 0.14587055
0.010015547 0.039349914 0.14405213
0.034430206 0.0051919818 0.14297669
0.034233332 0.0091906786 0.1422842
0.034165561 0.013098598 0.14252283
0.017940581 0.036269546 0.14270459
0.014443457 0.038343668 0.14144598
0.032731295 0.0145064 0.138898
0.031797469 0.018997014 0.13688345
0.019853354 0.037072003 0.13734438
0.016967297 0.037976563 0.13794877
0.03157264 0.020403266 0.13319884
0.031804085 0.024044573 0.13379119
0.026339948 0.035944045 0.13251872
0.02258724 0.036313355 0.13339625
0.031440675 0.025614381 0.12910877
0.031468391 0.030695617 0.12864457
0.027812839 0.035499215 0.12924294
0.023930132 0.037017465 0.12794368
0.031803846 0.026674986 0.12601809
0.03026098 0.03052485 0.12588529
0.028556585 0.03438282 0.12489583
0.025274277 0.036806405 0.12484847
-0.013148487 0.021508455 0.18501449
-0.01239723 0.024998665 0.18572891
0.0083431005 -0.0052405596 0.182455
0.0067270994 -0.0017541647 0.18180263
0.0034670234 0.00097763538 0.18139535
0.00063335896 0.0038960576 0.18112516
-0.0020027161 0.01015538 0.18142036
-0.0048216581 0.014707863 0.1814059
-0.0074335933 0.018456101 0.18209922
-0.0095226765 0.022996008 0.18290317
-0.01064527 0.026988506 0.1838882
-0.014204323 0.031654835 0.18274349
-0.017370164 0.035535216 0.18220574
-0.019946575 0.038458347 0.18070498
0.0083360672 0.00018787384 0.18044108
0.0065118074 0.0030555129 0.17982829
0.0034626126 0.0073450208 0.18015793
-0.0018600821 0.016020775 0.18080881
-0.0038115978 0.020086467 0.18094087
-0.0066324472 0.024485946 0.18059206
-0.0084368587 0.027926683 0.18097502
-0.011277378 0.032736182 0.17975357
-0.01539582 0.037045121 0.17888236
-0.018951654 0.040414035 0.17767465
-0.020045877 0.044081151 0.17584017
-0.013748467 0.038581908 0.17393443
-0.016939163 0.041571736 0.17312676
-0.01867044 0.045255899 0.17326137
0.034024656 -0.026556849 0.16939688
-0.011837363 0.039945304 0.16952187
-0.015181661 0.043018103 0.16928184
-0.016320646 0.045573056 0.16845161
0.035802245 -0.026358783 0.16677764
-0.0099371076 0.041266203 0.16585988
-0.013041735 0.044210851 0.16461436
0.037503302 -0.024839699 0.16278861
-0.0074701309 0.042135894 0.16101788
-0.010754287 0.044223547 0.16161554
0.038131952 -0.023357391 0.1587124
0.036225915 -0.019581854 0.15702079
0.035036445 -0.01539278 0.15646489
-0.0020412207 0.039379001 0.15575443
-0.005740881 0.041387439 0.15647523
0.040334105 -0.022381365 0.15295856
0.036883771 -0.01895982 0.15256242
0.035591185 -0.013928354 0.15293716
0.034840226 -0.0097842813 0.15201597
0.0021553636 0.038565397 0.15190999
-0.0019756556 0.038570166 0.15150361
0.034723759 -0.013047755 0.14980732
0.035106778 -0.0088197589 0.14820664
0.0044388771 0.037725806 0.14718024
0.00020986795 0.038108349 0.1488723
0.034661651 -0.0065585971 0.14512084
0.033999741 -0.0028899312 0.14426599
0.033944726 0.0010743737 0.14312439
0.0087835789 0.037058115 0.14564703
0.006413877 0.038768589 0.14338873
0.032887995 -0.001416266 0.1402037
0.033569932 0.0029097199 0.13947727
0.032782376 0.0078368187 0.13871203
0.0092972517 0.039584637 0.13908385
0.033048987 0.003154099 0.1362987
0.031913936 0.0079618096 0.13579236
0.030658841 0.012685537 0.13480814
0.030655086 0.016319513 0.13486643
0.013503909 0.038086891 0.13488679
0.010794222 0.038956046 0.13541432
0.030414045 0.013169289 0.13176589
0.030219853 0.017780304 0.13018666
0.019102752 0.036314666 0.1310855
0.015796006 0.037153482 0.13073401
0.030084193 0.018514872 0.12590183
0.029779434 0.022199512 0.1263452
0.020288527 0.037242413 0.12681098
0.018019199 0.038073063 0.12543379
0.027608216 0.024353266 0.1225584
0.027725697 0.02889514 0.12235682
0.026406884 0.033870637 0.12084891
0.022532761 0.037324846 0.12143041
0.018638849 0.038630188 0.12250246
0.025570035 0.03370595 0.11891155
0.022148371 0.036422431 0.11832954
0.0044800639 -0.0095561743 0.18315706
0.00025355816 -0.0063936114 0.18257755
-0.0029920936 -0.0011532307 0.18256015
-0.0046019554 0.0022922754 0.18268031
-0.0076099634 0.0068046451 0.18261182
-0.0098856688 0.010792315 0.18264738
-0.012560546 0.015308797 0.18465033
-0.014081001 0.018334985 0.18560004
0.0032966733 -0.0049757957 0.18199688
0.00056809187 0.00015681982 0.18178228
-0.0020827651 0.0046628118 0.18149135
-0.0058594942 0.0068352222 0.18149346
-0.0090216994 0.011283457 0.1813761
-0.0086737275 0.014667034 0.18198216
-0.020822465 0.034035206 0.18343836
-0.021855056 0.037019134 0.18207657
-0.021796286 0.04250282 0.17669934
-0.010191023 0.042131782 0.15825154
-0.013881505 0.04452306 0.15777378
-0.016370535 0.045140922 0.15809141
0.035206199 -0.024992108 0.15419628
-0.0088404417 0.040748596 0.15362386
-0.011950135 0.042863846 0.15523146
0.037276685 -0.023168802 0.15059976
0.035636485 -0.01932162 0.14894702
0.034744203 -0.016377449 0.14921443
-0.0043606162 0.038561463 0.15027504
0.036450386 -0.02305007 0.14691298
0.035307109 -0.019496799 0.14601506
0.033648431 -0.014980912 0.1459422
0.033120751 -0.010926068 0.14492498
-0.001539588 0.038703918 0.14590691
0.032636404 -0.013536811 0.14269452
0.031734169 -0.010199249 0.14142923
0.032588482 -0.0061302185 0.14137213
0.00020837784 0.038869977 0.14180325
0.03199023 -0.0084577203 0.13860856
0.031772316 -0.0041714311 0.13744102
0.030738354 -0.0019782186 0.13460095
0.0037834644 0.039079607 0.13810019
0.0311625 0.0013916492 0.13278924
0.029983699 0.0062929392 0.1319093
0.030229628 0.0097519755 0.13185056
0.011371076 0.037983954 0.13137828
0.0066674948 0.038319886 0.13319667
0.030864179 0.0027310252 0.12906338
0.029302239 0.0066488981 0.12892665
0.029525816 0.011960506 0.12828232
0.012126803 0.037987113 0.12805639
0.029257536 0.011914492 0.12482898
0.029185951 0.016592979 0.12435706
0.014058053 0.03820163 0.12417354
0.026042759 0.022178352 0.12078886
0.025188565 0.026967764 0.11876006
0.018818438 0.038942218 0.12018453
0.023853362 0.027536631 0.11543144
0.02406019 0.032086551 0.1154568
0.020336628 0.035952508 0.11544548
0.017717421 0.037332714 0.11540066
-0.0055054426 -0.010057509 0.18529579
-0.0084301233 -0.0036814213 0.18395722
-0.010681629 -0.0013017058 0.18375656
-0.013378143 0.0025026202 0.18418336
-0.01534915 0.0066933632 0.18379968
-0.017750859 0.0096899271 0.18522397
-2.5629997e-06 -0.010636568 0.18375069
-0.0023652315 -0.0078687668 0.18326566
-0.0048624277 -0.0039924383 0.18260154
-0.0080563426 -0.0001193881 0.18340957
-0.010507226 0.0042293668 0.18345553
-0.013278246 0.0090287924 0.18309784
-0.015738845 0.012261987 0.18453854
-0.0089870691 0.0080341697 0.18088728
-0.010922194 0.010532379 0.18078119
-0.017229795 0.045203805 0.154671
-0.011188805 0.04067719 0.15080701
-0.014390171 0.043586969 0.15179883
-0.016953111 0.045662642 0.15162785
-0.0064232945 0.038902462 0.14706708
-0.010110736 0.040612638 0.14789931
-0.013818204 0.044138551 0.14712535
0.034309983 -0.024792373 0.14435463
0.032569766 -0.020358205 0.14222406
-0.0048096776 0.03900516 0.14306001
-0.0083880424 0.041248798 0.14295886
-0.011333883 0.044648111 0.14297603
0.031576037 -0.016108334 0.13974588
0.031036317 -0.011901081 0.13888387
-0.0044954419 0.038138092 0.13863508
0.030089736 -0.010223567 0.13499354
0.031000376 -0.0063486695 0.13438861
0.030469 -0.0049920082 0.13089417
0.03082478 -0.0010534525 0.13048117
0.0040508509 0.036890268 0.1288536
0.030283272 -0.0033462048 0.12769149
0.029854774 0.00034821033 0.12664424
0.02789104 0.0047802925 0.12507372
0.0053053498 0.03785646 0.12454252
0.027648091 0.0067982674 0.1231242
0.026772559 0.009925127 0.12128134
0.025459707 0.014304101 0.12014918
0.024651468 0.018278718 0.12036045
0.012541711 0.037969947 0.12036891
0.0089894533 0.038339496 0.12255634
0.024285436 0.015432656 0.11761062
0.023983359 0.019753933 0.11695243
0.023467004 0.023652613 0.11669122
0.015024424 0.037776113 0.11623333
0.023690283 0.021012425 0.11320259
0.023131609 0.025479615 0.11278744
0.022392809 0.02971679 0.11210401
0.018856943 0.034856319 0.11198102
0.01495868 0.03700453 0.11276038
0.021519661 0.026269376 0.10943286
0.021118701 0.030388236 0.10905872
0.019138038 0.034667552 0.10840191
0.016331851 0.03693074 0.10825197
-0.0099650621 -0.0077089667 0.18376198
-0.013539135 -0.0029748678 0.18468887
-0.016012549 0.00092345476 0.18529004
-0.017552972 0.0052193403 0.18499994
0.029406548 -0.026928544 0.14007066
0.029439449 -0.024352729 0.14055382
-0.011694491 0.044143677 0.14000343
0.030901849 -0.025968969 0.13662551
0.029636323 -0.023155272 0.13696818
0.029135823 -0.019006014 0.13575684
-0.0071683526 0.037342072 0.13604994
-0.010622621 0.039924502 0.13596623
-0.01216054 0.04264158 0.13714693
0.034340501 -0.023840487 0.12990852
0.028497636 -0.017181516 0.13231148
0.028324842 -0.013341367 0.13208963
0.028053045 -0.0097275376 0.13065432
-0.0062842965 0.035662591 0.13192244
0.035321414 -0.023225605 0.12787382
0.02744782 -0.011505902 0.12766348
0.027598858 -0.0083152652 0.12718113
-0.00031703711 0.036989272 0.12667383
-0.003677845 0.036701739 0.12692265
0.027686477 -0.0051950812 0.12486427
0.02743578 -0.0022971034 0.12261648
0.00099009275 0.037722647 0.12477328
-0.0010371804 0.038008094 0.1221246
0.026621521 -0.0010136366 0.11958589
0.025590241 0.0036350489 0.11935727
0.024866819 0.007309556 0.11876266
0.004357636 0.037589073 0.11815606
0.0011155605 0.038366854 0.11918075
0.023985028 0.0048959851 0.11578067
0.02443403 0.00893116 0.11459796
0.022940874 0.013190925 0.11411633
0.008476913 0.036630154 0.11711808
0.0075587034 0.0364573 0.1151285
0.025147617 0.010101497 0.1106001
0.022820354 0.013753057 0.1101595
0.022140622 0.018243372 0.11054115
0.020765066 0.021866143 0.10825045
0.011268079 0.036710262 0.11145647
0.020433962 0.024640858 0.10594754
0.02021265 0.029109418 0.10526933
0.017683148 0.033432603 0.10465311
0.013561428 0.035870671 0.10458194
0.020373225 0.025615633 0.10224223
0.019908726 0.029696345 0.10128719
0.017242432 0.033588409 0.10119531
0.013890564 0.035509825 0.10127807
0.020799518 0.030747235 0.097810626
0.018709064 0.032913208 0.097377092
0.028929114 -0.023957491 0.13345574
0.027332067 -0.020570219 0.13327651
-0.00908041 0.036097288 0.13278039
-0.01133734 0.037930787 0.13297926
0.029729962 -0.023542523 0.13049839
0.028073549 -0.019384801 0.12962748
0.027263582 -0.015154719 0.12936555
-0.0081416368 0.036169112 0.12947468
-0.011190891 0.038934469 0.12938331
-0.01253885 0.041698575 0.12949131
0.030818582 -0.023149788 0.126058
0.027858138 -0.018974423 0.12634574
0.026127338 -0.014513314 0.12484773
0.026199698 -0.010187626 0.12505789
-0.0071364641 0.037263274 0.12539236
-0.010311365 0.039780259 0.12487803
-0.013245344 0.041897595 0.12518944
0.02534765 -0.012082219 0.12193523
0.025135458 -0.0086596012 0.12088652
0.024852812 -0.0052110553 0.11899857
-0.0054343343 0.038207948 0.12171604
-0.0085945725 0.039209306 0.12117611
0.022902668 -0.004175663 0.11607973
0.024190903 0.0012406111 0.11576934
0.0015161633 0.036501944 0.11479633
-0.0026257634 0.037902534 0.1170371
0.023301423 0.0024178028 0.1130551
0.023242295 0.0057586432 0.11155663
0.0031406879 0.035807312 0.11186601
-0.0010105371 0.036648095 0.11149193
0.0225932 0.0076454878 0.10789223
0.022052586 0.012391627 0.1072536
0.020955503 0.016983509 0.10728903
0.0073211789 0.035494387 0.10737322
0.0030143857 0.035281658 0.10837926
0.020835042 0.012083232 0.10454236
0.020021141 0.017731547 0.10378249
0.019875407 0.021440685 0.10410385
0.0094169378 0.03587538 0.10399358
0.0068627 0.035828352 0.10226411
0.019718111 0.018738627 0.1005373
0.020072579 0.023042798 0.099346757
0.019716263 0.02641499 0.099672794
0.011369944 0.03591913 0.099227905
0.019996047 0.024657369 0.095743984
0.020382881 0.028851449 0.094724566
0.017356813 0.033626318 0.094951928
0.013342977 0.035262465 0.094811499
0.02040118 0.029347718 0.089604288
0.018332958 0.033273757 0.089947075
0.020895004 0.0307616 0.085859418
0.018761694 0.033163965 0.086473942
0.028145134 -0.022961795 0.1231796
0.026639521 -0.020160496 0.12241913
0.025432885 -0.017222464 0.12178116
-0.011220813 0.040624976 0.12144439
-0.013769805 0.042886615 0.12190388
0.024911463 -0.019919217 0.11941881
0.024343073 -0.015156686 0.11892866
0.02399534 -0.011529863 0.1174572
-0.0081214309 0.038012564 0.11860178
-0.010240793 0.039842725 0.11804323
-0.013757467 0.04216665 0.11794041
0.022795558 -0.0096243024 0.11522399
0.022494018 -0.0045513511 0.11403571
-0.0069531798 0.036959648 0.11335044
-0.0096680522 0.038626194 0.11488853
0.021086693 -0.0034644604 0.11089267
0.021238983 0.00038015842 0.10961123
0.0002925992 0.035746098 0.1092339
-0.0041544437 0.036859453 0.10923328
-0.007142961 0.041326702 0.10705595
0.021079957 0.0022085309 0.10632806
0.020708323 0.0053174496 0.10508792
0.00086253881 0.03583765 0.10525142
-0.0021150708 0.03721559 0.10579176
-0.0061141253 0.041961193 0.10501049
0.020608842 0.0076580644 0.10116908
0.020651996 0.011458516 0.10098344
0.019242287 0.014686167 0.10076487
0.0035991073 0.035985351 0.10066557
0.021223664 0.0086855292 0.096361786
0.020355761 0.011766732 0.095877409
0.019297361 0.01695925 0.096786678
0.018834651 0.020501018 0.095550984
0.0091016889 0.035776794 0.095451087
0.0057423115 0.036005676 0.096009195
0.020290971 0.013710141 0.092884362
0.019233346 0.017092288 0.092826784
0.018617332 0.022081375 0.092093647
0.0096656084 0.034734845 0.091470182
0.019211769 0.023291826 0.087970972
0.0151034 0.034086525 0.087049097
0.011630535 0.034264386 0.087530941
0.02031672 0.024748981 0.08411026
0.020253003 0.028232992 0.082867652
0.017070889 0.033792615 0.083806187
0.020762742 0.030108571 0.079305351
0.018634558 0.032986939 0.079068631
0.021134734 0.031066895 0.074897945
0.023017108 -0.021745086 0.1162947
0.021728694 -0.01735878 0.11499642
-0.016682267 0.041046023 0.11308633
0.022103369 -0.014817894 0.11451124
0.019616127 -0.011957645 0.11091201
0.02021724 -0.0084903836 0.11097543
-0.0083911419 0.03715533 0.10998301
-0.012142122 0.039044678 0.11114387
-0.015456498 0.041021526 0.11011769
0.019468963 -0.0068157315 0.10719632
0.019991219 -0.0024968982 0.10680537
-0.0067118406 0.03811425 0.10737632
-0.0099996924 0.039946616 0.1066532
-0.013845325 0.040311694 0.10713176
0.01986587 -0.0052297115 0.10258815
0.019702733 -0.0011782646 0.1030433
0.019699633 0.003199935 0.10227638
-0.0057303905 0.037352502 0.10248506
-0.0082622766 0.040981531 0.10166183
0.019676507 -0.00059258938 0.098284662
0.018946648 0.0038100481 0.098547459
-0.0005851984 0.036368608 0.09981063
-0.0027809739 0.036751091 0.09828651
-0.0083762407 0.041695297 0.099108785
0.020025671 0.0014012456 0.094364315
0.020225585 0.005307436 0.094259262
0.0023596883 0.036404848 0.094909012
-0.0022524595 0.036191344 0.094948977
0.021015704 0.0068945885 0.090180844
0.019905567 0.010125041 0.089764178
0.017506957 0.015474737 0.089359909
0.0035631657 0.03534615 0.090333223
0.020829856 0.011137009 0.085676968
0.017863214 0.018087149 0.085474283
0.01962477 0.020892501 0.085720241
0.0066002011 0.03403759 0.085658848
0.019222915 0.022343457 0.081251234
0.011550248 0.03440547 0.081547111
0.018788815 0.02413553 0.076188266
0.020289719 0.027754903 0.076099783
0.016318679 0.033439875 0.07593286
0.01190269 0.033710718 0.077216357
0.019135475 0.028765261 0.072157949
0.01755482 0.032687426 0.072440982
0.020530462 -0.024695396 0.11327846
0.020230472 -0.019970894 0.11286403
0.01815474 -0.018861473 0.11038147
0.018114865 -0.015433788 0.10886528
-0.018467546 0.04151237 0.11006887
0.019336283 -0.012860835 0.10556535
-0.015596688 0.041428089 0.10593136
0.020235479 -0.011406243 0.10088572
0.019819379 -0.0079168081 0.10098824
-0.0089964867 0.037997901 0.099811792
0.020126522 -0.0062949657 0.096866906
0.020530283 -0.0019993186 0.096364617
-0.0068318844 0.036926031 0.095899463
-0.009600997 0.038874447 0.097234964
0.020374656 -0.0039454103 0.092471421
0.020586789 -0.00024819374 0.092151582
-0.0042771101 0.036630988 0.09091571
0.020798564 0.0010979772 0.087107867
0.021171331 0.0050557256 0.087873816
0.017775059 0.010477781 0.087430537
0.016576588 0.013153017 0.086880207
0.00048774481 0.035360336 0.086611897
-0.0042156577 0.036172628 0.087402523
0.020601511 0.002530694 0.083664775
0.020875454 0.0063962936 0.083122313
0.019430101 0.010725141 0.083142161
0.017090201 0.014640391 0.083173424
0.0058195591 0.034085035 0.081950903
0.0013083816 0.03473711 0.08217597
0.020802736 0.0081581473 0.079827458
0.019279957 0.011332631 0.079298615
0.017335355 0.01557225 0.078729421
0.017678499 0.019354999 0.079074502
0.0058099627 0.033866584 0.078446031
0.018259764 0.017048657 0.073997229
0.018353581 0.020847499 0.074668556
0.0075953007 0.03301096 0.074580848
0.01966095 0.018835545 0.070596248
0.018887103 0.022508264 0.070683926
0.018652558 0.026631773 0.069880724
0.013353705 0.033259749 0.070732772
0.012568057 0.033130288 0.068663001
0.01951617 0.024305046 0.066610277
0.018816233 0.028009355 0.06573081
0.016626596 0.032106936 0.065269887
0.014128864 0.034136415 0.065142125
0.020038307 0.029094517 0.060682833
0.017722428 0.032503843 0.06024009
0.018902004 0.031835198 0.05680871
0.017742515 -0.02884537 0.10856669
0.018045723 -0.027006388 0.10988607
0.01733011 -0.02438134 0.10714488
0.017029881 -0.02069366 0.1065831
0.01816231 -0.022881627 0.10224599
0.017961204 -0.019271493 0.1024133
0.017955005 -0.015822113 0.10108182
0.018899322 -0.018160284 0.0977332
0.019232631 -0.014545321 0.097938955
0.020426512 -0.017097354 0.09308511
0.020226538 -0.012464583 0.094010323
0.019980013 -0.0084502697 0.093644977
-0.01167345 0.038010657 0.092737466
0.021906257 -0.014826655 0.088922173
0.020528913 -0.011957765 0.089061856
0.019811928 -0.0072733164 0.089616358
0.019904673 -0.0034541488 0.088979959
-0.01081425 0.038418949 0.088998854
-0.013579667 0.040847659 0.087690324
0.020017445 -0.010192931 0.085810989
0.019835472 -0.0064752102 0.085053205
0.019853473 -0.0024961829 0.085380763
-0.0063328743 0.036411107 0.084974706
-0.010509908 0.03862685 0.08500737
-0.012721837 0.041426837 0.085529238
0.02036643 -0.0043212771 0.080306947
0.020118833 -0.00097537041 0.080970764
0.01986897 0.0030214787 0.080627501
-0.0037923455 0.035362422 0.080461204
0.021294236 0.00032937527 0.076291531
0.019766986 0.0047889352 0.076941669
0.018450677 0.0098313689 0.076221764
0.017204106 0.013779581 0.076320529
0.00087684393 0.03476274 0.076580107
-0.003713131 0.035742521 0.077101707
0.020256162 0.0054572821 0.07152617
0.019095838 0.010158539 0.072304964
0.01795584 0.013789356 0.072078258
0.0052521825 0.032806218 0.071042091
0.0023729801 0.034244895 0.071749687
0.021779358 0.007989943 0.066217303
0.021529436 0.012011111 0.067221791
0.019544661 0.016276002 0.068495035
0.018605947 0.020336211 0.067934185
0.0072160363 0.033464193 0.067196637
0.02341336 0.0089535713 0.063560724
0.023132563 0.012874365 0.062887251
0.020799398 0.017626882 0.063376784
0.019243896 0.02235949 0.063939214
0.0097864866 0.034641802 0.063144863
0.023656309 0.014771104 0.058017612
0.0213117 0.018144369 0.05867666
0.020097256 0.022946477 0.058456391
0.020163596 0.027621448 0.058616072
0.016195178 0.033995271 0.058028072
0.01281935 0.034232259 0.058512986
0.025466919 0.01595217 0.053723127
0.020806491 0.02341181 0.054157406
0.019664764 0.028326213 0.05431813
0.016929686 0.032929122 0.054530025
0.012565494 0.034474909 0.054944098
0.020646453 0.028946757 0.049717903
0.01780051 0.031991303 0.050220817
0.022941053 0.028968036 0.045579344
0.0244838 0.028702438 0.042326152
0.017378747 -0.030555069 0.1046835
0.016447484 -0.027949274 0.1046627
0.017470837 -0.025379241 0.10039127
0.017461419 -0.023790121 0.097529352
0.018791795 -0.021254539 0.09593752
0.021858871 -0.023078382 0.092298031
0.020014107 -0.020582139 0.092192858
0.021988094 -0.022263646 0.087760925
0.021073759 -0.01869756 0.087783098
0.019302249 -0.015744507 0.084330916
-0.016290009 0.039611101 0.089057207
0.019692183 -0.01188916 0.082714498
0.019539773 -0.0084088445 0.082566828
-0.0087602735 0.036541104 0.082399189
-0.011745334 0.038380742 0.081235796
-0.014585972 0.039648533 0.079249829
0.01926285 -0.0075578094 0.078065366
-0.0079570413 0.035604 0.078129113
-0.010403156 0.036663413 0.074853361
0.020123065 -0.0048331022 0.073996067
0.019847453 -0.0021812916 0.072314322
-0.0020255446 0.035212696 0.072369337
-0.0055978298 0.035783112 0.073360324
0.020003438 0.00012308359 0.069178969
0.020632744 0.0037176609 0.069159538
-0.00078177452 0.035181224 0.069324702
-0.0032986403 0.036217332 0.068619162
0.02034682 0.0022156239 0.064299345
0.02015388 0.0047279 0.064821362
0.0015905499 0.034435391 0.065216601
0.021796882 0.0031050444 0.061534822
0.021143317 0.0067169666 0.060380787
0.021486104 0.010088563 0.060443878
0.0032964349 0.034367919 0.060122848
0.021801889 0.0088580847 0.055841655
0.021925986 0.011491597 0.056533873
0.020433545 0.015842855 0.055831641
0.0076424479 0.03397429 0.056414008
0.0041787028 0.034198284 0.056883544
0.022928238 0.012342274 0.051813394
0.021614373 0.017811 0.052647144
0.021118164 0.021102548 0.052379966
0.013631701 0.03353101 0.051591307
0.0098406076 0.03418529 0.052013993
0.025018692 0.010910869 0.048729718
0.024143636 0.014345169 0.0479635
0.02281034 0.018748224 0.048022956
0.021048546 0.023166478 0.048423707
0.015642345 0.032560766 0.048157334
0.011094451 0.033364356 0.04815492
0.02300632 0.020141542 0.043095052
0.022788644 0.024324358 0.04407534
0.020513356 0.030309677 0.04377839
0.017406642 0.031111598 0.044047624
0.025719881 0.022231281 0.039015032
0.024692237 0.025546789 0.039806552
0.022423983 0.029643476 0.03912694
0.017635882 0.03114754 0.040120073
0.027854979 0.02401191 0.033539362
0.026629806 0.026861608 0.034673907
0.023595154 0.029547393 0.033648886
0.02917999 0.02492702 0.029833026
0.027669728 0.027745783 0.029939242
0.024999201 0.030030489 0.030310817
0.016084969 -0.02665323 0.094730198
0.018406689 -0.028861403 0.086370856
0.019547582 -0.026671648 0.08898592
0.020217001 -0.024631023 0.08479178
0.018953025 -0.019414544 0.083396554
0.018383503 -0.023087502 0.080631733
0.018354177 -0.0194453 0.079677999
0.018447876 -0.015410542 0.080174565
0.019573331 -0.017652273 0.075257629
0.01884526 -0.013575971 0.075914562
0.018889368 -0.0099232197 0.075006366
-0.013485491 0.037240446 0.07582584
-0.016297698 0.039782763 0.075593531
0.020420194 -0.016023874 0.070655137
0.019800127 -0.01277703 0.071171403
0.019402683 -0.0081738234 0.071832389
-0.0088911057 0.035978198 0.070865571
-0.013135254 0.037218213 0.070706844
0.020903528 -0.01062429 0.067229718
0.020127356 -0.0069877505 0.067344278
0.019493103 -0.0033000112 0.067526639
-0.0084509254 0.036210954 0.06623596
0.022729456 -0.0089674592 0.062554657
0.021699667 -0.0059113503 0.062887043
0.020459116 -0.0012100339 0.063528746
-0.0018111467 0.034573972 0.062625647
-0.0056234002 0.035416961 0.06260702
0.023025632 -0.0085811615 0.05920729
0.022595882 -0.0046466589 0.058460355
0.021403968 -0.00039935112 0.058767051
0.020718753 0.003726244 0.058609188
-0.00074923038 0.035026789 0.058269233
-0.0039676428 0.03573674 0.059415162
0.022717357 -0.0030590892 0.055073828
0.022543132 0.00049543381 0.054087847
0.021708846 0.0053596497 0.054949135
0.0018039346 0.034901738 0.054346025
-0.0017026663 0.035584092 0.053132713
0.023988783 0.0024399161 0.049180776
0.022947192 0.0069315434 0.050477773
0.02258271 0.0096141696 0.050998449
0.0064851642 0.034144044 0.049771398
0.0035278201 0.035245836 0.049458772
0.025020719 0.0040491223 0.046111941
0.024662852 0.007925868 0.045447767
0.024435937 0.012291074 0.044816136
0.0086339116 0.033447146 0.044913501
0.0054014921 0.034173071 0.044864237
0.026496232 0.008780241 0.039820917
0.025118828 0.014383674 0.04141137
0.023599029 0.01788336 0.04186365
0.013159692 0.031553626 0.041250139
0.0096612573 0.032118976 0.039777763
0.028619766 0.010611713 0.035502709
0.026862383 0.015426815 0.036281325
0.025163531 0.019904733 0.036737777
0.018955469 0.030366838 0.035968013
0.015508354 0.03105253 0.03605748
0.030363917 0.011727095 0.031613387
0.029073656 0.01652658 0.032241561
0.027405798 0.020917714 0.032272793
0.020451963 0.030706584 0.031809963
0.01628983 0.031299472 0.03237886
0.031979203 0.013222098 0.026991315
0.031179011 0.017218471 0.027719207
0.029490888 0.02205956 0.028111018
0.027064264 0.027747452 0.026961841
0.022830248 0.030775726 0.027767576
0.019931078 0.031651437 0.026756294
0.033776402 0.014063954 0.023133822
0.032677472 0.018277228 0.02319295
0.031048059 0.023644328 0.023943283
0.027867675 0.027526379 0.023613073
0.024714112 0.030060053 0.023189791
0.034631968 0.015987098 0.018852301
0.034610331 0.020343959 0.019493647
0.032777369 0.024798453 0.019547231
0.029252827 0.02792573 0.018625386
0.026258051 0.030600369 0.018635221
0.034701407 0.020712554 0.015606917
0.033396125 0.024312735 0.014804013
0.030600607 0.027448714 0.015043207
0.018278003 -0.028697252 0.082862318
0.017144024 -0.027827859 0.081772745
0.018196344 -0.030298054 0.078965068
0.017765999 -0.026153982 0.077810228
0.019327521 -0.02486068 0.073534459
0.019625902 -0.020279944 0.07468152
-0.019217491 0.040056169 0.074149966
0.021361291 -0.024269342 0.068752199
0.019810796 -0.019485116 0.069631577
-0.016756415 0.039165378 0.069205642
0.023219109 -0.02428031 0.06624651
0.020653486 -0.018153727 0.065524727
0.020268679 -0.013620019 0.065254867
-0.01324296 0.036987424 0.066236734
-0.01636821 0.038623869 0.066036195
0.021242917 -0.013086438 0.060117573
-0.0072731376 0.036043942 0.059994042
-0.012198746 0.036438704 0.061764896
0.021823049 -0.010618448 0.054678142
0.022862971 -0.0067009926 0.056924164
-0.0060392618 0.035671592 0.055925161
0.024075568 -0.0092432499 0.050513178
0.02306813 -0.0046046972 0.051906437
-0.0023120642 0.036591649 0.050992131
0.025683224 -0.0078139901 0.04550615
0.025091588 -0.0034875274 0.047131032
0.023933887 0.00015592575 0.048471719
0.00036478043 0.035443962 0.04584825
-0.0024166107 0.036482036 0.047092378
0.027137578 -0.0071256757 0.041446775
0.026003003 -0.0032101274 0.041975975
0.024884343 0.0022515655 0.042678326
0.02473557 0.0060213208 0.041998357
0.0063527822 0.03317374 0.041396797
0.003027916 0.034792662 0.042617351
0.027291417 -0.002025187 0.037537284
0.02620846 0.003429234 0.038327552
0.007194221 0.032172382 0.03741885
0.0028814673 0.033759177 0.038315661
0.028333127 -0.00153476 0.034295745
0.027796865 0.003641963 0.033599533
0.02797401 0.0080162287 0.035719521
0.011602342 0.030971944 0.033043332
0.008450985 0.03123492 0.034521617
0.030287027 0.00065839291 0.029308565
0.030056357 0.0050157905 0.029448129
0.030702174 0.0097263455 0.030060716
0.013913035 0.031417966 0.029588737
0.033030808 0.0023782849 0.023617454
0.031598628 0.0060865283 0.024913229
0.032407224 0.010795176 0.026523985
0.017071784 0.031699061 0.025540896
0.03365916 0.0078884959 0.020976909
0.034611821 0.012818873 0.021331854
0.022339642 0.031446993 0.021357723
0.018185616 0.031484723 0.020470627
0.034382761 0.0092260838 0.016573973
0.034366369 0.013378024 0.01663629
0.034515619 0.017893732 0.016576745
0.023484707 0.031915009 0.01694826
0.018583179 0.031972051 0.01710213
0.033917665 0.013881624 0.012563176
0.033323169 0.018843532 0.011935331
0.031703055 0.024652123 0.012301184
0.028820097 0.0286268 0.012736298
0.025659025 0.03085947 0.012928046
0.032530844 0.020440459 0.007171765
0.031544149 0.0243783 0.0078402311
0.02919966 0.028115571 0.0081021935
0.034039855 0.022377372 0.0028382987
0.032912374 0.024527013 0.0029378086
0.029653728 0.028608859 0.0038553029
0.034071207 0.025302112 -2.9578805e-05
0.018024623 -0.030791104 0.075850606
0.019930124 -0.028935909 0.07105872
0.021631956 -0.027978659 0.069242299
0.020262003 -0.023676157 0.062600136
0.020004928 -0.019554853 0.061506629
0.021785319 -0.021557212 0.055617571
0.021237612 -0.018353283 0.05796808
0.023157716 -0.020636737 0.051870137
0.022758842 -0.017303646 0.05342406
0.021907508 -0.014124393 0.053861976
0.024536252 -0.019772649 0.049010634
0.025054991 -0.01590538 0.049262643
0.024622381 -0.012541652 0.049918979
-0.008547008 0.036665678 0.048904002
0.025932729 -0.014653385 0.044759482
0.025835514 -0.010942578 0.045748383
-0.005769968 0.035751939 0.043461889
0.026614606 -0.012685061 0.039826185
0.026961684 -0.0098619461 0.040682137
-0.00015407801 0.034932673 0.040092595
-0.0044284463 0.035792768 0.039931543
0.02871716 -0.011788547 0.034995198
0.028826952 -0.0077695847 0.036529392
0.028708816 -0.0041509867 0.035593815
0.0037660599 0.032640696 0.035667904
0.0010187626 0.034099758 0.03581924
-0.0034521818 0.034842312 0.03599257
0.029558241 -0.010686517 0.031516194
0.030104697 -0.0068228841 0.031835586
0.028699338 -0.0023403764 0.031895883
0.0058274865 0.031481445 0.031303056
0.0025914311 0.033322096 0.032623924
0.031310797 -0.005417943 0.027483582
0.030638933 -0.0013723373 0.027745701
0.011597574 0.031564057 0.026816763
0.0072331429 0.031848609 0.027325965
0.031771183 -0.0040150881 0.022737414
0.032270551 -0.0003041625 0.02374927
0.012960374 0.031562865 0.023736633
0.010165274 0.031449139 0.021582611
0.033256233 0.0015324354 0.019151546
0.033197939 0.0046193004 0.018782414
0.013934553 0.031582952 0.018645175
0.034211278 0.0034957528 0.01615233
0.034191847 0.0061187148 0.014648147
0.016837239 0.031474233 0.014350034
0.034832597 0.008318603 0.010624684
0.033982754 0.012415946 0.0097357109
0.020208418 0.031377614 0.012118675
0.033995509 0.0095270872 0.0066051334
0.034223437 0.013480246 0.0061976165
0.033164203 0.017215431 0.0065434724
0.026724994 0.029468715 0.0061716884
0.023186088 0.029657245 0.0064763576
0.035899282 0.015288413 0.0016533583
0.034660995 0.019147992 0.0021948367
0.030617237 0.026054859 0.0041846782
0.02931416 0.028216898 0.0018124431
0.027626693 0.030391395 0.00032930076
0.019189239 -0.028604627 0.060142457
0.018014193 -0.026217937 0.059539855
0.01981914 -0.024609208 0.055673003
0.022728264 -0.027161241 0.050572067
0.022070825 -0.023916423 0.052006215
0.026058018 -0.02620846 0.047125459
0.024329066 -0.022099793 0.047193646
0.027806222 -0.025963187 0.042429656
0.024952948 -0.021866679 0.042307436
0.02560097 -0.017020166 0.042869061
-0.008397162 0.035739839 0.041493475
0.02828747 -0.025743067 0.037810236
0.026447117 -0.020830274 0.037695765
0.026162922 -0.015568376 0.038912594
-0.0083265901 0.035680115 0.036645927
-0.011319935 0.037434816 0.038917817
0.028175592 -0.019158363 0.033518076
0.028199494 -0.014488757 0.034909874
-0.0015493035 0.034184456 0.032954969
-0.005208075 0.035445809 0.033231236
0.0297122 -0.017469406 0.029509425
0.030132234 -0.013019502 0.02977252
-0.00073826313 0.033151329 0.029052742
-0.0048092604 0.035745621 0.030172057
0.030780792 -0.012157381 0.025381625
0.03060329 -0.007933557 0.025335908
0.0043998957 0.03220588 0.024841376
0.00087052584 0.032525182 0.02434919
0.031570256 -0.01055795 0.02066651
0.031528592 -0.0064668655 0.021145642
0.0050298572 0.031540692 0.020782508
0.031780958 -0.0051513314 0.016839057
0.031964481 -0.0012157559 0.016651876
0.0097232461 0.031711519 0.016844638
0.032184482 -0.003308475 0.011902899
0.032777011 0.001039803 0.012759097
0.012221932 0.030868471 0.012143679
0.0084000826 0.03155756 0.012510784
0.033259571 0.0014898777 0.0079318136
0.033271015 0.005480051 0.0079347342
0.018281937 0.029244661 0.0069438368
0.014168739 0.030015945 0.0081169158
0.03386277 0.0030760169 0.0034744889
0.034001827 0.0077026486 0.0039912313
0.0338974 0.011532784 0.0033981949
0.018870831 0.029414892 0.0030552298
0.034580946 0.012107253 0.0001321882
-0.015352488 0.034936726 0.038489945
0.028123736 -0.025905192 0.036635041
-0.013789177 0.035963178 0.034797736
0.032838821 -0.027425766 0.032214761
0.030194104 -0.025086939 0.032643795
0.029118598 -0.021904707 0.03209886
-0.0113585 0.036442101 0.03131444
0.032703102 -0.027699828 0.027939796
0.031138301 -0.024310648 0.027706951
0.030190468 -0.020375311 0.027969569
-0.0068315268 0.034416795 0.026217349
-0.010967791 0.036089778 0.02769769
0.030478001 -0.023908317 0.023371577
0.030732274 -0.018715024 0.023458838
0.030669093 -0.015011966 0.0225631
-0.0017549992 0.033277869 0.023435242
-0.0052559376 0.03371644 0.02206666
0.031446815 -0.017127812 0.018618792
0.031661749 -0.013839543 0.019130498
0.00015211105 0.032789767 0.018558003
-0.0044082403 0.034389317 0.018890835
0.031504393 -0.015955567 0.015234828
0.031766057 -0.012104392 0.014527619
0.031496584 -0.007943809 0.01430279
0.0040150285 0.031293631 0.014241971
-0.00011795759 0.032176852 0.014553048
0.031477451 -0.010535955 0.0096915066
0.031956494 -0.0067401528 0.010214984
0.0077528954 0.030706525 0.009192355
0.032325983 -0.0051394701 0.0060974136
0.033252835 -0.0016386509 0.0059305876
0.012088597 0.029390275 0.0051386803
0.0079596639 0.030259907 0.005409345
0.032437921 -0.0035863519 0.0021982864
0.033632576 9.5665455e-05 0.0012722164
0.013073385 0.029984951 0.0014301986
-0.014449835 0.036562145 0.026370801
-0.010106385 0.0351336 0.023175545
-0.013781428 0.035350263 0.023546405
0.031485021 -0.027405143 0.020546854
0.030063748 -0.024571121 0.019530326
-0.0082595944 0.035307288 0.02028311
-0.010824084 0.037162125 0.01782129
0.031280577 -0.028143167 0.015593141
0.030296504 -0.023621202 0.014822215
0.029556036 -0.020655036 0.015924543
-0.00370121 0.033366203 0.014255293
-0.006244123 0.034765244 0.016338833
-0.010542214 0.03667593 0.015004762
0.030975878 -0.017831743 0.011687636
-0.00089174509 0.03224498 0.010489948
-0.004737854 0.033254981 0.010964639
0.031739295 -0.015303791 0.0070815161
0.031544268 -0.012774467 0.0072922483
0.002972126 0.030645549 0.0070576519
0.032876194 -0.014484584 0.0031035021
0.032330394 -0.010821462 0.0023736432
0.031556129 -0.0072537661 0.0026511326
0.0088279843 0.029104114 0.0026535839
0.0054630637 0.030363321 0.0024395436
-0.014594018 0.03533566 0.020405985
-0.014959157 0.035390556 0.018395819
0.031191707 -0.028345048 0.012997508
0.029842675 -0.025436223 0.012886286
-0.0091987252 0.034281313 0.01181037
-0.011214614 0.036391497 0.012134798
0.030264616 -0.029212534 0.009219408
0.030381083 -0.024466753 0.0090534166
0.030207396 -0.020740271 0.0077349916
-0.0079519749 0.033616304 0.0081528872
-0.010621428 0.036336005 0.0092392042
0.031034052 -0.022933781 0.0046602562
0.030615151 -0.019403219 0.0045054033
-0.0028215051 0.031432986 0.003527686
0.029103518 -0.029594183 0.0057656839
0.029212356 -0.027637303 0.0054030791
-0.011668742 0.032826245 0.0040350407
0.02936095 -0.029939532 0.0010288432
0.029528499 -0.02592963 0.0019425824
-0.01002419 0.032434046 0.0013229698
0.026946843 -0.032469392 0.0040331557
-0.01667577 0.032761157 0.0018155724
