# .PCD v0.7 - Point Cloud Data file format
VERSION 0.7
FIELDS x y z
SIZE 4 4 4
TYPE F F F
COUNT 1 1 1
WIDTH 1218
HEIGHT 1
VIEWPOINT 0 0 0 1 0 0 0
POINTS 1218
DATA ascii
0.055764928 0.029897887 -2.9578805e-05
0.053639226 0.016865406 0.0001321882
0.050461821 0.036167622 0.00032930076
0.040157959 -0.02330219 0.0010288432
0.050319988 0.0052826484 0.0012722164
0.013970079 0.045660459 0.0013229698
0.036118604 0.038664833 0.0014301986
0.055564132 0.01972067 0.0016533583
0.051682912 0.033700861 0.0018124431
0.0075165611 0.047304429 0.0018155724
0.04111997 -0.01940579 0.0019425824
0.055118501 0.023749456 0.0021948367
0.048416644 0.0019119326 0.0021982864
0.04687177 -0.0051571364 0.0023736432
0.028735712 0.040549789 0.0024395436
0.046822816 -0.0015067197 0.0026511326
0.031782828 0.03864627 0.0026535839
0.055152297 0.027037855 0.0028382987
0.05447505 0.029368844 0.0029378086
0.041686725 0.036952708 0.0030552298
0.046677843 -0.0088556157 0.0031035021
0.052855048 0.016438421 0.0033981949
0.051138554 0.0081576165 0.0034744889
0.020829592 0.043246366 0.003527686
0.052093677 0.034017425 0.0038553029
0.052195348 0.012664083 0.0039912313
0.037288774 -0.025301158 0.0040331557
0.012436437 0.046372019 0.0040350407
0.052529782 0.031322785 0.0041846782
0.043483391 -0.013226057 0.0045054033
0.043191478 -0.016769379 0.0046602562
0.035035186 0.03827798 0.0051386803
0.040470388 -0.021016423 0.0054030791
0.031161824 0.039951716 0.005409345
0.039974384 -0.022912525 0.0057656839
0.04960278 0.0036585582 0.0059305876
0.047997937 0.00041213538 0.0060974136
0.049394574 0.035442792 0.0061716884
0.053562034 0.01828208 0.0061976165
0.045963928 0.036331654 0.0064763576
0.053267132 0.022153333 0.0065434724
0.052552145 0.014453303 0.0066051334
0.041075736 0.03690305 0.0069438368
0.026350725 0.041321971 0.0070576519
0.045400683 -0.0094322478 0.0070815161
0.053288087 0.025439899 0.007171765
0.045712791 -0.0069146892 0.0072922483
0.042817768 -0.014455252 0.0077349916
0.053104591 0.029495329 0.0078402311
0.050231833 0.0067232 0.0079318136
0.051036935 0.010631323 0.0079347342
0.051550541 0.03362434 0.0081021935
0.037198223 0.038477276 0.0081169158
0.016236087 0.046406794 0.0081528872
0.042246561 -0.018141791 0.0090534166
0.031048048 0.040430546 0.009192355
0.041188203 -0.022769518 0.009219408
0.014161115 0.049603235 0.0092392042
0.046092685 -0.0047076372 0.0096915066
0.05311441 0.017286945 0.0097357109
0.047317363 -0.0010830322 0.010214984
0.022882327 0.043658178 0.010489948
0.053132057 0.013102433 0.010624684
0.019314062 0.045413211 0.010964639
0.044149566 -0.01175777 0.011687636
0.015146573 0.04730656 0.01181037
0.048223559 0.0022346778 0.011902899
0.053746846 0.023717258 0.011935331
0.043388076 0.038610063 0.012118675
0.013590829 0.049775638 0.012134798
0.035459958 0.039700091 0.012143679
0.053314801 0.02973206 0.012301184
0.031851619 0.041135803 0.012510784
0.053342234 0.018736269 0.012563176
0.051280282 0.034200866 0.012736298
0.049669378 0.0063781338 0.012759097
0.041526031 -0.018984754 0.012886286
0.04862662 0.037017826 0.012928046
0.042269353 -0.022103831 0.012997508
0.027501721 0.0417496 0.014241971
0.020352108 0.045315959 0.014255293
0.046627168 -0.0021711206 0.01430279
0.040103517 0.03937548 0.014350034
0.046063464 -0.006302136 0.014527619
0.023627089 0.043437462 0.014553048
0.052066427 0.011074009 0.014648147
0.054906495 0.029062603 0.014804013
0.042331904 -0.017296314 0.014822215
0.014306377 0.049920604 0.015004762
0.052790802 0.032692082 0.015043207
0.045040801 -0.010024258 0.015234828
0.042396612 -0.021923669 0.015593141
0.05546939 0.0252747 0.015606917
0.042196389 -0.014242127 0.015924543
0.051563606 0.0084996205 0.01615233
0.018138388 0.047192968 0.016338833
0.052871764 0.01408127 0.016573973
0.054726481 0.022549197 0.016576745
0.053681772 0.018153464 0.01663629
0.048424326 0.0043293298 0.016651876
0.04746145 0.00050895009 0.016839057
0.033178959 0.041023426 0.016844638
0.046705782 0.038484864 0.01694826
0.041913599 0.039515976 0.01710213
0.014126875 0.050453156 0.01782129
0.0097220019 0.049539723 0.018395819
0.024013704 0.043984391 0.018558003
0.044751145 -0.01116161 0.018618792
0.051564876 0.033427715 0.018625386
0.04916212 0.036644723 0.018635221
0.037280492 0.040059544 0.018645175
0.050794065 0.0098023191 0.018782414
0.054461163 0.020657532 0.018852301
0.019862773 0.046459287 0.018890835
0.045616016 -0.0079818452 0.019130498
0.05023703 0.006765571 0.019151546
0.0553068 0.024931595 0.019493647
0.041914806 -0.018180933 0.019530326
0.054396749 0.029661719 0.019547231
0.016271057 0.048125174 0.02028311
0.010068918 0.049413279 0.020405985
0.041427024 0.039117489 0.020470627
0.042743806 -0.021241073 0.020546854
0.046179257 -0.0047476543 0.02066651
0.028545417 0.041789811 0.020782508
0.051896505 0.012914391 0.020976909
0.046952389 -0.00073007215 0.021145642
0.05381107 0.017556656 0.021331854
0.045490492 0.03825403 0.021357723
0.033559948 0.040678345 0.021582611
0.018898148 0.045968521 0.02206666
0.044409938 -0.0089333309 0.0225631
0.047677934 0.0016244212 0.022737414
0.053240076 0.01894306 0.023133822
0.01442663 0.048322394 0.023175545
0.047541544 0.03642239 0.023189791
0.053001385 0.023290746 0.02319295
0.042452648 -0.017613802 0.023371577
0.022241835 0.044842172 0.023435242
0.043735094 -0.012574925 0.023458838
0.010868168 0.049265914 0.023546405
0.050127961 0.033311937 0.023613073
0.050184403 0.0076393606 0.023617454
0.036321796 0.040233683 0.023736633
0.048905645 0.0051618028 0.02374927
0.05247239 0.028874733 0.023943283
0.024665114 0.043582156 0.02434919
0.028060395 0.042567037 0.024841376
0.049518649 0.011558414 0.024913229
0.04575377 -0.0019833436 0.025335908
0.045087352 -0.006158038 0.025381625
0.040378105 0.03954915 0.025540896
0.017493401 0.046968356 0.026217349
0.01045424 0.050586551 0.026370801
0.051247913 0.016012046 0.026523985
0.043170758 0.038933594 0.026756294
0.034986477 0.040505994 0.026816763
0.049384598 0.033688441 0.026961841
0.05131131 0.018475607 0.026991315
0.030765917 0.041653205 0.027325965
0.046947643 0.00034121145 0.027483582
0.013772687 0.04943084 0.02769769
0.043019701 -0.018139463 0.027706951
0.051322233 0.022551287 0.027719207
0.047094125 0.0044396101 0.027745701
0.045837734 0.037498571 0.027767576
0.043878905 -0.021772217 0.027939796
0.042873792 -0.014094221 0.027969569
0.050631043 0.027631458 0.028111018
0.023213066 0.044515871 0.029052742
0.047153287 0.0064997561 0.029308565
0.047794178 0.010815933 0.029448129
0.042983245 -0.011151255 0.029509425
0.03722658 0.039902139 0.029588737
0.044280231 -0.0068738861 0.02977252
0.050896872 0.030503448 0.029833026
0.049977623 0.033566341 0.029939242
0.049364295 0.01530382 0.030060716
0.01973962 0.047868263 0.030172057
0.047815055 0.036336698 0.030310817
0.029315311 0.041573051 0.031303056
0.013459888 0.049853858 0.03131444
0.044181887 -0.0044733407 0.031516194
0.04943087 0.017331868 0.031613387
0.043493241 0.037903994 0.031809963
0.04548613 -0.00079567544 0.031835586
0.045000706 0.0038768267 0.031895883
0.041519061 -0.015379782 0.03209886
0.044066437 -0.021530636 0.032214761
0.049121313 0.022292111 0.032241561
0.04836046 0.026927292 0.032272793
0.039532281 0.039313126 0.03237886
0.026510168 0.04402075 0.032623924
0.041939929 -0.018712375 0.032643795
0.022623792 0.045689709 0.032954969
0.034873344 0.039924771 0.033043332
0.019289128 0.047653794 0.033231236
0.041141324 -0.012500723 0.033518076
0.049416281 0.029870261 0.033539362
0.045306522 0.00991912 0.033599533
0.046342961 0.03614261 0.033648886
0.044802099 0.0047391979 0.034295745
0.031837311 0.040809486 0.034521617
0.048782576 0.032906745 0.034673907
0.010982519 0.049868118 0.034797736
0.042093813 -0.0079292273 0.034909874
0.043138362 -0.0053859977 0.034995198
0.047499672 0.016585803 0.035502709
0.044649754 0.0021005282 0.035593815
0.027525742 0.04311927 0.035667904
0.046350427 0.01417069 0.035719521
0.025123665 0.04509576 0.03581924
0.04195907 0.037868783 0.035968013
0.020889845 0.046713009 0.03599257
0.038717296 0.039226606 0.03605748
0.046735436 0.021654289 0.036281325
0.044045571 -0.0014692293 0.036529392
0.039748155 -0.01910235 0.036635041
0.016279578 0.048503876 0.036645927
0.045961477 0.026380684 0.036737777
0.03079219 0.041978251 0.03741885
0.043683641 0.0044658342 0.037537284
0.039114758 -0.01379531 0.037695765
0.039940871 -0.01897604 0.037810236
0.026881367 0.044391386 0.038315661
0.04370755 0.010026673 0.038327552
0.0092462404 0.049173221 0.038489945
0.039883155 -0.0085820677 0.038912594
0.013695192 0.050819054 0.038917817
0.046969593 0.028550029 0.039015032
0.045214318 0.036469787 0.03912694
0.033199281 0.041435067 0.039777763
0.04662215 0.032003712 0.039806552
0.045054205 0.015213446 0.039820917
0.04089947 -0.0058462629 0.039826185
0.0201222 0.047838699 0.039931543
0.024139989 0.046145372 0.040092595
0.040821195 0.038896423 0.040120073
0.0418013 -0.0031486442 0.040682137
0.036515288 0.040184975 0.041250139
0.030166805 0.043127 0.041396797
0.044819199 0.0209789 0.04141137
0.042518087 -0.00050207507 0.041446775
0.0162223 0.048576444 0.041493475
0.044026081 0.024710998 0.04186365
0.042185232 0.0035609277 0.041975975
0.042779826 0.012859985 0.041998357
0.03744426 -0.014513715 0.042307436
0.047045726 0.035137743 0.042326152
0.039425448 -0.019096009 0.042429656
0.02723051 0.045375071 0.042617351
0.042175595 0.009135996 0.042678326
0.03904359 -0.0098930253 0.042869061
0.043894511 0.027041959 0.043095052
0.018799376 0.048065595 0.043461889
0.043474436 0.03750281 0.04377839
0.040589385 0.038906809 0.044047624
0.044513397 0.031184461 0.04407534
0.03983961 -0.0076395692 0.044759482
0.043733615 0.019064005 0.044816136
0.02943336 0.04429562 0.044864237
0.032456726 0.04294109 0.044913501
0.04308749 0.014740923 0.045447767
0.04095586 -0.00088727009 0.04550615
0.045586668 0.035704974 0.045579344
0.04048264 -0.0039836084 0.045748383
0.024750201 0.046543207 0.04584825
0.042666886 0.010870482 0.046111941
0.022230953 0.048113912 0.047092378
0.037663393 -0.018988557 0.047125459
0.041236848 0.0034704087 0.047131032
0.036786471 -0.014618042 0.047193646
0.043855838 0.021135189 0.0479635
0.043425232 0.025715489 0.048022956
0.034851599 0.042370401 0.04815492
0.039148688 0.040678032 0.048157334
0.042577717 0.030395936 0.048423707
0.040827192 0.0072713559 0.048471719
0.044030115 0.017595448 0.048729718
0.016259655 0.04951359 0.048904002
0.037452523 -0.012378643 0.049010634
0.041335411 0.009498762 0.049180776
0.038730323 -0.0086919004 0.049262643
0.027810585 0.045719724 0.049458772
0.043333709 0.036140658 0.049717903
0.03048959 0.044051569 0.049771398
0.038975611 -0.005309348 0.049918979
0.041150406 0.039690565 0.050220817
0.041208301 0.014107825 0.050477773
0.039095979 -0.001968096 0.050513178
0.034210645 -0.019259803 0.050572067
0.022355217 0.048200537 0.050992131
0.041384839 0.016809337 0.050998449
0.037371282 0.042028915 0.051591307
0.042266246 0.019414153 0.051813394
0.035929628 -0.012951183 0.051870137
0.039031569 0.0027781604 0.051906437
0.034211941 -0.015949052 0.052006215
0.033786155 0.043424387 0.052013993
0.042235304 0.028359417 0.052379966
0.042066708 0.025034953 0.052647144
0.022751968 0.047091875 0.053132713
0.036201879 -0.0096053677 0.05342406
0.045472398 0.022446781 0.053723127
0.03600011 -0.0063202968 0.053861976
0.03953179 0.0078807808 0.054087847
0.042389311 0.030684523 0.054157406
0.042248182 0.035727836 0.05431813
0.026052702 0.045725491 0.054346025
0.040483579 0.040782891 0.054530025
0.036614884 -0.0028676381 0.054678142
0.036514189 0.043166075 0.054944098
0.039681971 0.012813739 0.054949135
0.038995326 0.0043626577 0.055073828
0.034401529 -0.013580202 0.055617571
0.031867437 -0.01617999 0.055673003
0.040517904 0.023341093 0.055831641
0.040469199 0.016223719 0.055841655
0.01851948 0.048040438 0.055925161
0.031589963 0.043654956 0.056414008
0.041114777 0.018779891 0.056533873
0.042198822 0.039318427 0.05680871
0.028240032 0.044563614 0.056883544
0.038413431 0.00076459441 0.056924164
0.034502231 -0.010331356 0.05796808
0.043462999 0.021649567 0.058017612
0.039975878 0.041973863 0.058028072
0.023575461 0.046356019 0.058269233
0.041601673 0.030369606 0.058456391
0.038560413 0.0028309962 0.058460355
0.036714692 0.042877767 0.058512986
0.038386688 0.011409978 0.058609188
0.042596821 0.034937911 0.058616072
0.041836411 0.025421876 0.05867666
0.038237374 0.0072305333 0.058767051
0.038198762 -0.0011103479 0.05920729
0.020562645 0.047692113 0.059415162
0.029778501 -0.017397445 0.059539855
0.017384356 0.048650831 0.059994042
0.035555318 -0.0051708659 0.060117573
0.027409155 0.044905394 0.060122848
0.030455198 -0.019970208 0.060142457
0.041175861 0.040208392 0.06024009
0.039397798 0.014256437 0.060380787
0.040404543 0.017492427 0.060443878
0.042767119 0.036406457 0.060682833
0.033055127 -0.011263649 0.061506629
0.039319668 0.010586693 0.061534822
0.012635764 0.050017703 0.061764896
0.037831649 -0.0014299965 0.062554657
0.032487083 -0.015353707 0.062600136
0.018876366 0.047708154 0.06260702
0.022444682 0.046123534 0.062625647
0.037430495 0.0017699003 0.062887043
0.042572349 0.019894954 0.062887251
0.033823945 0.043882541 0.063144863
0.041231394 0.025016662 0.063376784
0.037150118 0.0066240462 0.063528746
0.042067453 0.01599668 0.063560724
0.040648587 0.029964138 0.063939214
0.037721638 0.010003558 0.064299345
0.038032398 0.012503996 0.064821362
0.037978955 0.042523302 0.065142125
0.025750799 0.045310922 0.065216601
0.0344944 -0.0054999432 0.065254867
0.040022969 0.040037446 0.065269887
0.033969484 -0.010019573 0.065524727
0.041353572 0.035586134 0.06573081
0.0089844186 0.052988738 0.066036195
0.040274397 0.015377417 0.066217303
0.016263343 0.049048841 0.06623596
0.0117216 0.050763208 0.066236734
0.035264868 -0.016534127 0.06624651
0.04130251 0.031816624 0.066610277
0.031070588 0.043239892 0.067196637
0.040829521 0.019367917 0.067221791
0.035712585 -0.0026904158 0.067229718
0.035675459 0.0010278476 0.067344278
0.035787597 0.0047680503 0.067526639
0.039620843 0.028108235 0.067934185
0.03973297 0.023942433 0.068495035
0.021313891 0.048029993 0.068619162
0.036249176 0.041847825 0.068663001
0.033446375 -0.016153745 0.068752199
0.038300689 0.01141868 0.069159538
0.03696879 0.0080211731 0.069178969
0.0087117134 0.05359666 0.069205642
0.032973625 -0.019842759 0.069242299
0.023574295 0.046513841 0.069324702
0.032878749 -0.011156683 0.069631577
0.040919088 0.034268659 0.069880724
0.040356182 0.026427668 0.070596248
0.034164611 -0.0078858854 0.070655137
0.040328529 0.030180924 0.070683926
0.01187307 0.050967954 0.070706844
0.037044875 0.041818384 0.070732772
0.015785655 0.048908316 0.070865571
0.029015087 0.042985801 0.071042091
0.031115359 -0.020442273 0.07105872
0.034202933 -0.0045805862 0.071171403
0.038277753 0.013198446 0.07152617
0.026479684 0.04496856 0.071749687
0.034729291 9.6680596e-06 0.071832389
0.03768117 0.021821612 0.072078258
0.041816831 0.036263414 0.072157949
0.038075987 0.01803657 0.072304964
0.03635744 0.005793903 0.072314322
0.022361651 0.046792142 0.072369337
0.041048128 0.04042165 0.072440982
0.018974274 0.0480619 0.073360324
0.031335611 -0.016328622 0.073534459
0.036099941 0.0031402726 0.073996067
0.038627487 0.024955284 0.073997229
0.0064770738 0.054959297 0.074149966
0.031352095 0.042720262 0.074580848
0.039475247 0.028659511 0.074668556
0.032539412 -0.011898833 0.07468152
0.014440164 0.049880669 0.074853361
0.044234052 0.038121257 0.074897945
0.033878177 -0.0016026245 0.075006366
0.033010691 -0.0093132379 0.075257629
0.009284094 0.054110434 0.075593531
0.011534259 0.051059425 0.07582584
0.028878845 -0.02188126 0.075850606
0.033108201 -0.0051735723 0.075914562
0.039986409 0.041405 0.07593286
0.042746976 0.035043605 0.076099783
0.040555969 0.031795211 0.076188266
0.037378632 0.017844303 0.076221764
0.038274825 0.0079665231 0.076291531
0.036942519 0.021961598 0.076320529
0.025116492 0.045773726 0.076580107
0.037665382 0.012640787 0.076941669
0.020813219 0.047647141 0.077101707
0.035712592 0.042549033 0.077216357
0.029547993 -0.017285388 0.077810228
0.034714818 0.00064118672 0.078065366
0.016626595 0.048355754 0.078129113
0.029772686 0.043913994 0.078446031
0.037427813 0.023692314 0.078729421
0.02914523 -0.021432232 0.078965068
0.042165868 0.04050035 0.079068631
0.038516715 0.027331166 0.079074502
0.010934892 0.053638324 0.079249829
0.038490023 0.019150557 0.079298615
0.043678828 0.037256103 0.079305351
0.031459175 -0.010827853 0.079677999
0.039350763 0.015736567 0.079827458
0.032353751 -0.0068924027 0.080174565
0.036440272 0.0035934458 0.080306947
0.020659963 0.0472904 0.080461204
0.037413672 0.010888375 0.080627501
0.030763259 -0.014403072 0.080631733
0.036863327 0.0069217207 0.080970764
0.0134665 0.051830705 0.081235796
0.040624835 0.029952597 0.081251234
0.035505425 0.043300018 0.081547111
0.02860542 -0.018802051 0.081772745
0.029825553 0.044126164 0.081950903
0.025534302 0.04566275 0.08217597
0.016025867 0.049433935 0.082399189
0.03481688 -0.00024793018 0.082566828
0.034273796 -0.0036889883 0.082714498
0.02954375 -0.019879684 0.082862318
0.042806111 0.03551944 0.082867652
0.039071489 0.01399547 0.083122313
0.038516298 0.01852534 0.083142161
0.037002157 0.02282786 0.083173424
0.032052167 -0.010916858 0.083396554
0.038033921 0.010261657 0.083664775
0.040793762 0.041601028 0.083806187
0.042175379 0.032092407 0.08411026
0.0331246 -0.0073896768 0.084330916
0.032253001 -0.016280528 0.08479178
0.018378872 0.048823584 0.084974706
0.014726192 0.051826093 0.08500737
0.035491385 0.0015882133 0.085053205
0.036300689 0.0054841093 0.085380763
0.038445484 0.026051912 0.085474283
0.013115572 0.055010185 0.085529238
0.030581148 0.043924354 0.085658848
0.039970014 0.01865048 0.085676968
0.040729977 0.028450698 0.085720241
0.034930039 -0.0020913864 0.085810989
0.043938372 0.037869763 0.085859418
0.029637206 -0.020066153 0.086370856
0.042325687 0.040648542 0.086473942
0.024854068 0.04643679 0.086611897
0.036202885 0.021472411 0.086880207
0.038924083 0.042280514 0.087049097
0.037941981 0.0088183777 0.087107867
0.020406313 0.048168633 0.087402523
0.036845133 0.018612213 0.087430537
0.035556037 0.04314578 0.087530941
0.012159658 0.054613259 0.087690324
0.034459703 -0.014312859 0.087760925
0.034273151 -0.01063615 0.087783098
0.039094731 0.012622835 0.087873816
0.040802602 0.030884225 0.087970972
0.035859164 -0.0070082685 0.088922173
0.036160272 0.0045351088 0.088979959
0.031190962 -0.018147167 0.08898592
0.014386571 0.051682897 0.088998854
0.0092574768 0.053940676 0.089057207
0.03508015 -0.0039226981 0.089061856
0.037576586 0.02356261 0.089359909
0.043173112 0.036582399 0.089604288
0.035309516 0.00081074797 0.089616358
0.038862862 0.017842639 0.089764178
0.041927367 0.040841442 0.089947075
0.039308079 0.014455898 0.090180844
0.027865183 0.045811001 0.090333223
0.020437283 0.048630055 0.09091571
0.033723995 0.043997776 0.091470182
0.039979219 0.029816244 0.092093647
0.037466608 0.0075412551 0.092151582
0.032859731 -0.012272225 0.092192858
0.034170963 -0.015085596 0.092298031
0.036523115 0.0039601605 0.092471421
0.013463314 0.051453717 0.092737466
0.039590284 0.024804339 0.092826784
0.039953854 0.021279383 0.092884362
0.033957224 -0.008939161 0.09308511
0.035240076 -0.00037611742 0.093644977
0.034682985 -0.0043592239 0.094010323
0.038217973 0.013057679 0.094259262
0.037244879 0.0092693577 0.094364315
0.043056443 0.036099695 0.094724566
0.027801242 -0.017440196 0.094730198
0.03743282 0.043783195 0.094811499
0.026896404 0.047087979 0.094909012
0.022333985 0.047796372 0.094948977
0.041040882 0.041381169 0.094951928
0.033378657 0.045131087 0.095451087
0.039877765 0.028224245 0.095550984
0.041842889 0.032066427 0.095743984
0.039630689 0.019361937 0.095877409
0.017992288 0.049427498 0.095899463
0.031528074 -0.01268799 0.09593752
0.030131981 0.046023779 0.096009195
0.039868202 0.016169658 0.096361786
0.037062827 0.0058363816 0.096364617
0.039626554 0.024661224 0.096786678
0.035812475 0.0017069476 0.096866906
0.015666194 0.0518879 0.097234964
0.042224217 0.040413272 0.097377092
0.029719817 -0.014908188 0.097529352
0.032249086 -0.0096769901 0.0977332
0.043841936 0.037874684 0.097810626
0.033294965 -0.0062006144 0.097938955
0.036506005 0.0073848544 0.098284662
0.021927405 0.048450083 0.09828651
0.036666684 0.011844685 0.098547459
0.017427702 0.054408677 0.099108785
0.035629883 0.044819288 0.099227905
0.041596655 0.030468907 0.099346757
0.041918397 0.033844575 0.099672794
0.024003182 0.047638375 0.09981063
0.01608422 0.050908606 0.099811792
0.029412875 -0.016467411 0.10039127
0.040392913 0.026321314 0.1005373
0.028027579 0.046430271 0.10066557
0.039120324 0.022444542 0.10076487
0.034902312 -0.0033238204 0.10088572
0.039859679 0.019000946 0.10098344
0.03518879 0.00017863885 0.10098824
0.031788848 -0.0071976827 0.10108182
0.039061248 0.01528506 0.10116908
0.040921245 0.041366771 0.10119531
0.038018674 0.043916665 0.10127807
0.042759869 0.037022036 0.10128719
0.017397374 0.053686507 0.10166183
0.042403184 0.03293049 0.10224223
0.03058745 -0.014157305 0.10224599
0.031194689 0.045627084 0.10226411
0.037283227 0.011096955 0.10227638
0.031108636 -0.010579336 0.1024133
0.019156611 0.049626287 0.10248506
0.035768978 0.0028027641 0.10258815
0.036415178 0.0068056704 0.1030433
0.040489517 0.025274079 0.10378249
0.033707216 0.045164984 0.10399358
0.04108467 0.028938055 0.10410385
0.040163361 0.019576753 0.10454236
0.037767913 0.044335779 0.10458194
0.041322149 0.0411264 0.10465311
0.027898647 -0.018782455 0.1046627
0.028292842 -0.021521442 0.1046835
0.019697493 0.054219186 0.10501049
0.038693052 0.012971447 0.10508792
0.025316335 0.046829995 0.10525142
0.042940941 0.036386374 0.10526933
0.033731688 -0.0045704274 0.10556535
0.022672411 0.048772812 0.10579176
0.010298444 0.055583391 0.10593136
0.042268764 0.031963117 0.10594754
0.038438708 0.0098507423 0.10632806
0.029912978 -0.011787773 0.1065831
0.015488788 0.053017959 0.1066532
0.036435544 0.0054560024 0.10680537
0.018562987 0.053802077 0.10705595
0.011792676 0.054140866 0.10713176
0.029473502 -0.015461461 0.10714488
0.035064451 0.0013274206 0.10719632
0.041417919 0.019636739 0.1072536
0.041256372 0.024355095 0.10728903
0.031577557 0.045208581 0.10737322
0.018346339 0.050568078 0.10737632
0.041003436 0.014877927 0.10789223
0.04204119 0.029178001 0.10825045
0.040693861 0.044823449 0.10825197
0.027314542 0.045856982 0.10837926
0.042993657 0.042047191 0.10840191
0.028989499 -0.019918296 0.10856669
0.032022774 -0.0068489285 0.10886528
0.044083312 0.037459359 0.10905872
0.020602953 0.048829544 0.10923328
0.024739577 0.046853665 0.1092339
0.043656766 0.033343069 0.10943286
0.038230777 0.0080272844 0.10961123
0.02965253 -0.018176407 0.10988607
0.016509825 0.049962442 0.10998301
0.0075017503 0.056237176 0.11006887
0.010354942 0.055157065 0.11011769
0.042441208 0.020818196 0.1101595
0.031379879 -0.010216019 0.11038147
0.042668458 0.025353979 0.11054115
0.043995425 0.016776606 0.1106001
0.037316609 0.0042898282 0.11089267
0.034185637 -0.0037409728 0.11091201
0.035464577 -0.00046262797 0.11097543
0.013209742 0.052560311 0.11114387
0.035687461 0.045614868 0.11145647
0.023641953 0.047996901 0.11149193
0.041264147 0.012899661 0.11155663
0.027542904 0.046346996 0.11186601
0.042755742 0.042288113 0.11198102
0.045198359 0.03654784 0.11210401
0.039362825 0.045168974 0.11276038
0.045079358 0.032248385 0.11278744
0.033193383 -0.011716248 0.11286403
0.040657394 0.0096138474 0.1130551
0.0091585526 0.055424955 0.11308633
0.044738069 0.027759351 0.11320259
0.032547388 -0.016405981 0.11327846
0.017880106 0.049484573 0.11335044
0.038479548 0.002944666 0.11403571
0.042447478 0.020243324 0.11411633
0.036054078 -0.0070388997 0.11451124
0.043063257 0.015771642 0.11459796
0.026089061 0.047350958 0.11479633
0.015551087 0.051657952 0.11488853
0.035181358 -0.0094544431 0.11499642
0.032001913 0.046104982 0.1151285
0.037765749 -0.0020868583 0.11522399
0.042131707 0.044941716 0.11540066
0.046195947 0.034120675 0.11543144
0.044423942 0.043067988 0.11544548
0.047303889 0.038538478 0.1154568
0.04129488 0.0082832202 0.11576934
0.041820392 0.011906475 0.11578067
0.038954776 0.0032315375 0.11607973
0.039580766 0.045912046 0.11623333
0.035571314 -0.014009398 0.1162947
0.045044549 0.030391179 0.11669122
0.044774897 0.026467707 0.11695243
0.022308603 0.049547628 0.1170371
0.032936156 0.046091691 0.11711808
0.03856241 -0.0041930312 0.1174572
0.044211172 0.022172723 0.11761062
0.012247838 0.055941258 0.11794041
0.015231838 0.052964117 0.11804323
0.029090021 0.047851015 0.11815606
0.046292961 0.043168049 0.11832954
0.016944699 0.050748874 0.11860178
0.047391273 0.033297528 0.11876006
0.04316476 0.014096351 0.11876266
0.049105745 0.039825104 0.11891155
0.038181599 -0.0078165298 0.11892866
0.040659931 0.0018288447 0.11899857
0.02606751 0.049258288 0.11918075
0.043142639 0.010351375 0.11935727
0.037791073 -0.012596934 0.11941881
0.043228395 0.0055904444 0.11958589
0.045137428 0.020833097 0.12014918
0.043530937 0.046299983 0.12018453
0.045136139 0.024889059 0.12036045
0.037186254 0.046595968 0.12036891
0.047275484 0.028433915 0.12078886
0.049958631 0.039820001 0.12084891
0.040250801 -0.0016069906 0.12088652
0.016719121 0.052015826 0.12117611
0.04555279 0.016280465 0.12128134
0.04684921 0.043975942 0.12143041
0.014427047 0.053925712 0.12144439
0.019616948 0.05040573 0.12171604
0.038838614 -0.010057838 0.12178116
0.012378992 0.056649283 0.12190388
0.039777786 -0.0050034011 0.12193523
0.023886429 0.04933501 0.1221246
0.050261151 0.034681585 0.12235682
0.039436579 -0.013177204 0.12241913
0.043292858 0.046029922 0.12250246
0.033778541 0.047664888 0.12255634
0.049242366 0.030253887 0.1225584
0.043771017 0.004170632 0.12261648
0.045788702 0.013041923 0.1231242
0.040354744 -0.016222056 0.1231796
0.038718376 0.046521328 0.12417354
0.049244571 0.02233484 0.12435706
0.030071987 0.047924496 0.12454252
0.025816379 0.048651922 0.12477328
0.048383892 0.017735645 0.12482898
0.040058196 -0.0075410185 0.12484773
0.049432766 0.042922419 0.12484847
0.043440122 0.0012807129 0.12486427
0.015150248 0.05291694 0.12487803
0.052167255 0.039894238 0.12489583
0.040989749 -0.0033162087 0.12505789
0.045625295 0.011015954 0.12507372
0.012696193 0.055575691 0.12518944
0.017760895 0.049818598 0.12539236
0.042574748 0.045607224 0.12543379
0.053069994 0.035774291 0.12588529
0.050507236 0.024039596 0.12590183
0.053816047 0.031694427 0.12601809
0.042937338 -0.016938198 0.126058
0.050941665 0.027711205 0.1263452
0.040866811 -0.012257299 0.12634574
0.046667963 0.0062817759 0.12664424
0.02438947 0.048193276 0.12667383
0.044633441 0.044341676 0.12681098
0.021038644 0.048580159 0.12692265
0.042733461 -0.0017596576 0.12718113
0.041950636 -0.0048564551 0.12766348
0.046352852 0.0025759675 0.12769149
0.047335062 -0.017908383 0.12787382
0.048157487 0.043396689 0.12794368
0.036783058 0.04669534 0.12805639
0.048655964 0.017727364 0.12828232
0.054287244 0.035701416 0.12864457
0.028650336 0.047227215 0.1288536
0.04738006 0.01256643 0.12892665
0.048131272 0.0084161209 0.12906338
0.053249117 0.030727282 0.12910877
0.051660497 0.041136291 0.12924294
0.041044109 -0.0083956672 0.12936555
0.014120027 0.052263051 0.12938331
0.016558124 0.048946299 0.12947468
0.013348964 0.055240083 0.12949131
0.040996268 -0.012702332 0.12962748
0.046251424 -0.018315811 0.12990852
0.050494034 0.023292722 0.13018666
0.0473397 0.0047151437 0.13048117
0.041792344 -0.017106488 0.13049839
0.042897582 -0.0032340605 0.13065432
0.040213045 0.045148354 0.13073401
0.046207421 0.00092611555 0.13089417
0.043286789 0.043668397 0.1310855
0.036041811 0.046842605 0.13137828
0.049766935 0.018735256 0.13176589
0.048906296 0.015422956 0.13185056
0.047977075 0.012082004 0.1319093
0.018277554 0.048080366 0.13192244
0.055142548 0.036499139 0.13193206
0.042444937 -0.0068297172 0.13208963
0.041850239 -0.01062747 0.13231148
0.050305557 0.041865274 0.13251872
0.015623829 0.049062688 0.13278039
0.048157148 0.0070441682 0.13278924
0.054041788 0.040303063 0.13283513
0.013776815 0.051308569 0.13297926
0.031499103 0.048107646 0.13319667
0.05234164 0.025594095 0.13319884
0.040033758 -0.013716524 0.13327651
0.046701353 0.042973839 0.13339625
0.040924944 -0.017353825 0.13345574
0.053292934 0.029116556 0.13379119
0.046458248 -0.00050914567 0.13438861
0.04707101 0.0038260613 0.13460095
0.04991059 0.018212473 0.13480814
0.050629925 0.021774545 0.13486643
0.038152482 0.046519138 0.13488679
0.044794865 -0.004125393 0.13499354
0.035669897 0.047910035 0.13541432
0.053895526 0.0318169 0.13550095
0.042112667 -0.012542467 0.13575684
0.05020076 0.01333347 0.13579236
0.052842207 0.041038457 0.135958
0.014873913 0.053120226 0.13596623
0.055218071 0.0351803 0.1360365
0.017745322 0.049902163 0.13604994
0.050356574 0.0083960472 0.1362987
0.042458035 -0.019717585 0.13662551
0.052282184 0.024171226 0.13688345
0.041777626 -0.016708352 0.13696818
0.013907331 0.056088965 0.13714693
0.049563933 0.042801272 0.13716315
0.056071874 0.037659347 0.13718112
0.044173062 0.044261251 0.13734438
0.047647938 0.0014709793 0.13744102
0.041524678 0.045721941 0.13794877
0.028823886 0.049425986 0.13810019
0.054964535 0.039747823 0.13811849
0.047008693 -0.0027729729 0.13860856
0.02052317 0.050150465 0.13863508
0.051026966 0.013038193 0.13871203
0.045388766 -0.0059577012 0.13888387
0.052303888 0.019584596 0.138898
0.034327917 0.048823897 0.13908385
0.054626387 0.03018529 0.13943373
0.050818484 0.008052907 0.13947727
0.045080617 -0.010188225 0.13974588
0.046037287 0.043356255 0.13999416
0.01466292 0.05746831 0.14000343
0.040801711 -0.02036047 0.14007066
0.04928948 0.0039490862 0.1402037
0.054069329 0.025665194 0.14026169
0.041346438 -0.017842699 0.14055382
0.0506225 0.042677168 0.14068453
0.04805807 -0.00061103236 0.14137213
0.046411261 -0.0044287378 0.14142923
0.039124336 0.046583846 0.14144598
0.025278565 0.049931847 0.14180325
0.053191584 0.040785126 0.14211555
0.055636197 0.03684948 0.14211948
0.045208924 -0.014550841 0.14222406
0.052718278 0.014076304 0.1422842
0.053429384 0.017919578 0.14252283
0.046631418 -0.007879083 0.14269452
0.042138875 0.043855403 0.14270459
0.017327299 0.053973455 0.14295886
0.015116681 0.057890911 0.14297603
0.052115638 0.01011838 0.14297669
0.02038773 0.051062718 0.14306001
0.056008179 0.031930391 0.14310981
0.050820623 0.0061796843 0.14312439
0.044542011 0.042739123 0.14337687
0.031339832 0.048597839 0.14338873
0.056463681 0.027944848 0.14347179
0.05478343 0.024251498 0.14376141
0.034985155 0.048450951 0.14405213
0.050085802 0.0022836896 0.14426599
0.046032131 -0.019242592 0.14435463
0.054242894 0.020730127 0.14481266
0.053545401 0.01699223 0.14482678
0.047625512 -0.0054169009 0.14492498
0.050004561 -0.0014433237 0.14512084
0.056805678 0.037448458 0.14528944
0.033321839 0.046450086 0.14564703
0.037517793 0.045266453 0.14587055
0.023532506 0.050116882 0.14590691
0.05103958 0.04150806 0.14593653
0.047335889 -0.0094956653 0.1459422
0.048062928 -0.01425128 0.14601506
0.052355915 0.0085586337 0.14657401
0.042445906 0.042776637 0.14663838
0.053007953 0.012474658 0.14686851
0.056635682 0.030619793 0.14689977
0.048476387 -0.017960977 0.14691298
0.040816374 0.043189328 0.14693813
0.056142945 0.026388368 0.14701955
0.01878594 0.051283121 0.14706708
0.012580645 0.057885818 0.14712535
0.029196842 0.04796885 0.14718024
0.051560152 0.0047420356 0.14743994
0.015512477 0.053692762 0.14789931
0.055723593 0.02334854 0.14790671
0.049990907 -0.0037478423 0.14820664
0.053529829 0.018510796 0.14879535
0.025128491 0.049185146 0.1488723
0.048420571 -0.014145137 0.14894702
0.053617742 0.015015714 0.14895545
0.04727941 0.042736664 0.14902313
0.048131902 -0.011082298 0.14921443
0.057752155 0.033098485 0.14924549
0.057445042 0.037205283 0.14938261
0.036535885 0.046164196 0.14957662
0.048774339 -0.007815103 0.14980732
0.039664604 0.044204582 0.14984013
0.055097204 0.040748209 0.1500348
0.020739535 0.050538551 0.15027504
0.053788379 0.0096914433 0.15034567
0.056658033 0.029400665 0.15051745
0.049262546 -0.018241737 0.15059976
0.055015564 0.021618098 0.15079908
0.014468803 0.053970512 0.15080701
0.051256273 -0.0015345681 0.15082251
0.053043395 0.0026237713 0.15123414
0.023078546 0.050072566 0.15150361
0.055753138 0.025753532 0.15151607
0.0098116463 0.060003161 0.15162785
0.011910371 0.05745906 0.15179883
0.027126027 0.049245983 0.15190999
0.049537782 -0.0046400474 0.15201597
0.0335395 0.048119273 0.15225731
0.038986273 0.04584359 0.15243821
0.049714904 -0.014038729 0.15256242
0.053786144 0.014569588 0.15281193
0.04944922 -0.0088506816 0.15293716
0.052415505 -0.01807835 0.15295856
0.055849023 0.039547578 0.15303035
0.053488065 0.0051621613 0.15325473
0.053844169 0.0090938676 0.15330766
0.057344116 0.03173124 0.1535555
0.016784426 0.053573262 0.15362386
0.053360354 0.042206299 0.15364079
0.05662775 0.028084636 0.15398876
0.050211042 0.044329021 0.15408556
0.046870686 -0.019616649 0.15419628
0.046133578 0.045010306 0.15439676
0.0094492035 0.059608545 0.154671
0.051955219 0.0011844113 0.15505134
0.03014476 0.048962101 0.15521343
0.014157753 0.056264926 0.15523146
0.050792024 -0.0024132645 0.15547274
0.054296639 0.019967292 0.15549128
0.036816809 0.047639906 0.15561484
0.023175217 0.050878271 0.15575443
0.058259271 0.037700009 0.15586247
0.054746378 0.041296389 0.15597992
0.050268672 -0.0062907012 0.15601279
0.054804765 0.014654058 0.15616409
0.055158656 0.024032027 0.15640406
0.048614208 -0.010175458 0.15646489
0.019949121 0.053582646 0.15647523
0.042665094 0.046391044 0.15656002
0.058675665 0.034390032 0.15674771
0.053733122 0.0080361161 0.15680872
0.04894644 -0.01451744 0.15702079
0.056376029 0.030755769 0.15732892
0.052908022 0.0038781883 0.15775932
0.012595112 0.058275238 0.15777378
0.036157839 0.048799973 0.15788727
0.010278773 0.059375964 0.15809141
0.051229745 0.042644568 0.15809666
0.029552706 0.04905694 0.15818493
0.056047034 0.026953705 0.15823101
0.015736043 0.055197507 0.15825154
0.048801288 0.044151109 0.15826659
0.055086978 0.022323959 0.15851294
0.050063193 -0.01859672 0.1587124
0.025086096 0.051155765 0.15938453
0.054430023 0.0095053446 0.15980171
0.041217148 0.047448911 0.15980302
0.054056976 0.018928779 0.16012023
0.050761469 -0.0078079281 0.16012631
0.054906473 0.04118561 0.16013487
0.059326109 0.038094785 0.16016923
0.051064581 -0.0037172446 0.16026534
0.05037725 -0.013114492 0.16046841
0.037166726 0.048720866 0.16053949
0.058622185 0.032309331 0.16061439
0.055063028 0.015104125 0.16063337
0.018403357 0.054660186 0.16101788
0.015600218 0.057359517 0.16161554
0.050832015 -0.0010071816 0.16184114
0.051841427 0.0021895226 0.1621819
0.032447651 0.049180992 0.16223262
0.046555895 0.044627946 0.16224919
0.055139929 0.024732165 0.16236852
0.021165514 0.053936053 0.16241674
0.055009052 0.020764284 0.16249071
0.036939021 0.048453383 0.16277151
0.049152188 -0.019924317 0.16278861
0.043440849 0.046647131 0.16304745
0.06031204 0.0346746 0.16315369
0.05958651 0.038139839 0.1631837
0.049700107 -0.017842304 0.163188
0.050331671 -0.0052089645 0.16322528
0.025279069 0.052309707 0.1632372
0.055020992 0.017364115 0.16334395
0.049496152 -0.014005995 0.16355188
0.054682098 0.014224813 0.16365521
0.053730201 0.0055855182 0.16393138
0.057568163 0.030657157 0.16412155
0.039221391 0.047985218 0.16420607
0.05018248 -0.0090918122 0.16431038
0.013355977 0.057802185 0.16461436
0.054592062 0.0093750739 0.16479845
0.051695779 0.041785505 0.16492616
0.056374386 0.027586497 0.16492961
0.048556112 0.042953331 0.16500013
0.019506061 0.054121085 0.16507123
0.030033743 0.049916472 0.16546732
0.04520534 0.045220651 0.16575152
0.051243141 0.0010178806 0.16576022
0.053591106 0.022895321 0.16583979
0.015812665 0.054298714 0.16585988
0.051085912 -0.0027790386 0.16595483
0.026788343 0.051514968 0.16621399
0.055691808 0.040888231 0.16623074
0.042329092 0.046834581 0.1665822
0.051062323 -0.0066142185 0.16660866
0.055432338 0.015259353 0.16667032
0.047182903 -0.021074589 0.16677764
0.054935869 0.019863058 0.167261
0.05518429 0.010999784 0.1674639
0.059873573 0.033525672 0.16746473
0.058582712 0.038003765 0.16756994
0.022447463 0.052827772 0.16790214
0.033666223 0.048819259 0.16800857
0.060675047 0.030216102 0.16810298
0.010413644 0.059789531 0.16845161
0.047939707 0.04441385 0.16848004
0.048445307 -0.014051142 0.16852254
0.049196951 -0.010506396 0.16853741
0.036024328 0.047694787 0.16860265
0.049421884 -0.018407468 0.16867936
0.051159706 0.04308508 0.16888896
0.054112002 0.0075958548 0.16891572
0.056175578 0.025423877 0.16922265
0.053589351 0.0037800074 0.16925961
0.011021524 0.057059042 0.16928184
0.045401443 -0.020915024 0.16939688
0.052946243 -0.00098688621 0.16946819
0.013687596 0.053382296 0.16952187
0.055086069 0.022300605 0.16961318
0.027198292 0.051700506 0.16998529
0.05433682 0.015113374 0.17058253
0.050716996 -0.0082696518 0.1709466
0.040901549 0.046007916 0.17110565
0.058151193 0.038620938 0.17115423
0.018014828 0.05166854 0.17139906
0.054978319 0.009464886 0.17143494
0.028857287 0.050076127 0.17159718
0.050618596 0.044172626 0.17189291
0.054864153 0.042035595 0.17194045
0.05932866 0.028836522 0.17209464
0.059189074 0.032928772 0.17229044
0.0467695 0.044874512 0.17232317
0.056259308 0.012381541 0.17239821
0.048421454 -0.014848097 0.17250431
0.03157822 0.048700459 0.17277494
0.055299185 0.015417455 0.17292577
0.056246322 0.024372403 0.17294556
0.048740104 -0.018691085 0.17296499
0.054951195 0.020270485 0.17304057
0.0090113878 0.055991266 0.17312676
0.008047726 0.059946232 0.17326137
0.01662625 0.051222544 0.17328233
0.0346025 0.046937022 0.17348486
0.052867562 -0.0018328009 0.17354423
0.052809224 0.0026132287 0.17362279
0.011543438 0.05242639 0.17393443
0.058445051 0.037905995 0.1740196
0.052934285 -0.0065388987 0.17411217
0.023873825 0.050538961 0.17416978
0.059227265 0.035295453 0.17429382
0.055869348 0.041231588 0.17468244
0.052756995 0.0049338597 0.17475379
0.03850263 0.045443051 0.17479232
0.048940625 -0.014306123 0.17523417
0.05042138 0.044263814 0.17563838
0.0064660599 0.059068624 0.17584017
0.015016656 0.050663047 0.17587021
0.053449534 0.0082917223 0.17591053
0.057196572 0.026757304 0.17597768
0.048624415 -0.017359775 0.17617375
0.029366441 0.048196979 0.17617404
0.035271235 0.044512577 0.17649388
0.017693773 0.048460718 0.17663771
0.055102896 0.040890407 0.17667904
0.0044366205 0.057870112 0.17669934
0.053706516 0.014800814 0.17690128
0.053848155 0.011475097 0.17692524
0.058077268 0.033139043 0.1771071
0.025806125 0.047941733 0.1771622
0.043857142 0.042710241 0.1773105
0.039217647 0.04218217 0.17740712
0.052254274 -0.010934836 0.17744601
0.056422725 0.037390817 0.1774497
0.052957412 0.041720647 0.17748415
0.050957683 0.0035402225 0.177522
0.052519917 0.019626191 0.17754334
0.032169227 0.044783808 0.17758524
0.052587897 -0.0071698977 0.17763355
0.056822114 0.03116272 0.17764902
0.006808795 0.055257116 0.17767465
0.024618918 0.041620038 0.17770115
0.020551009 0.044616524 0.17800057
0.051935151 0.013966041 0.17815074
0.052103076 0.024697922 0.17816132
0.034019589 0.035826426 0.17827874
0.025311358 0.045472331 0.17830202
0.013074074 0.050054435 0.17835951
0.036801454 0.040864144 0.17846978
0.022379309 0.040359642 0.17847165
0.053697936 0.027819075 0.17862839
0.051768493 -0.0020789606 0.17869779
0.02707582 0.036359657 0.17874569
0.042144846 0.017797312 0.17874998
0.033289101 0.039396677 0.17882353
0.0096232602 0.051248085 0.17888236
0.049807452 -0.015678145 0.17900968
0.038573094 0.035648432 0.179075
0.04965622 0.0022980403 0.17908973
0.04512788 0.02270308 0.17911446
0.034981441 0.013119566 0.17927152
0.028740369 0.015581686 0.17928708
0.0398915 0.014968648 0.17933655
0.04151731 0.020641875 0.17937607
0.047140762 0.039795794 0.17948401
0.051923178 0.012345049 0.17949855
0.013817668 0.047786608 0.17950359
0.018990468 0.039150342 0.17954788
0.052176256 0.030610215 0.17955822
0.04871127 0.039102845 0.1796208
0.050136212 0.008379234 0.1797469
0.012802059 0.046205889 0.17975357
0.049391236 0.013561741 0.17980206
0.024330325 0.013579272 0.17982829
0.02135253 0.034690943 0.17991793
0.048090309 0.0053533623 0.17993844
0.049568139 0.017515779 0.17996454
0.033978004 0.032637164 0.17998025
0.050996434 0.035118494 0.17998546
0.038169898 0.019856539 0.1801163
0.0169963 0.0431711 0.18012854
0.022195533 0.018389691 0.18015793
0.028228913 0.031765573 0.18018818
0.037967332 0.0096188001 0.18028057
0.035083242 0.017648278 0.180282
0.037148409 0.031740561 0.18029022
0.042577244 0.0093903039 0.18029958
0.030239481 0.010120664 0.18039405
0.045604739 0.0093137454 0.18039745
0.025547568 0.010406009 0.18044108
0.048954543 0.029648039 0.18045622
0.041871112 0.025907662 0.18053871
0.047150791 0.028513242 0.18056813
0.015712656 0.037196439 0.18059206
0.022722516 0.030311983 0.18063259
0.0054446617 0.053538479 0.18070498
0.0087324707 0.024375327 0.18078119
0.018705379 0.027950998 0.18080881
0.029409267 0.028601442 0.18081439
0.010131863 0.02154205 0.18088728
0.01760179 0.032323681 0.18094087
0.026864015 0.021950591 0.18095344
0.01462889 0.040927395 0.18097502
0.040483736 0.030091025 0.18108141
0.018736636 0.015572589 0.18112516
0.033116408 0.021726985 0.18116558
0.03642384 0.02432438 0.18122751
0.022951091 0.024932463 0.1813128
0.010744404 0.024733268 0.1813761
0.020932999 0.012148727 0.18139535
0.015541796 0.02725357 0.1814059
0.034999087 0.027873978 0.18141598
0.017398618 0.022231245 0.18142036
0.04608684 0.032700706 0.18145674
0.045253836 0.0010017185 0.18147832
0.051169254 -0.012055165 0.18148327
0.016227368 0.016864413 0.18149135
0.012958367 0.01974481 0.18149346
0.043403886 0.0056537711 0.18168342
0.017928714 0.011921093 0.18178228
0.023584379 0.008822917 0.18180263
0.029588779 0.023966778 0.18193096
0.028885322 0.02610755 0.18194985
0.011758616 0.027979966 0.18198216
0.01958156 0.0063482122 0.18199688
0.0032879915 0.052507751 0.18207657
0.01372783 0.031446543 0.18209922
0.049901031 -0.0081420084 0.18211997
0.007387979 0.050161187 0.18220574
0.04811912 -0.0042099552 0.1823442
0.02447442 0.0050847041 0.182455
0.014179058 0.011345568 0.18256015
0.016317194 0.0055642007 0.18257755
0.011781228 0.0089352448 0.18260154
0.011236811 0.020063117 0.18261182
0.0097999889 0.02442384 0.18264738
0.0132869 0.015042488 0.18268031
0.032103248 0.0063473391 0.18270245
0.0097184852 0.045728505 0.18274349
0.036321171 0.0062290789 0.18279979
0.012583773 0.036311328 0.18290317
0.040496361 0.0048712725 0.18307427
0.0061243679 0.02337056 0.18309784
0.019829977 0.0016239593 0.18315706
0.013457264 0.004639572 0.18326566
0.04489208 -0.0048487624 0.18332869
0.012686711 0.042995721 0.18335199
0.00942175 0.013366326 0.18340957
0.0037062541 0.049378034 0.18343836
0.0078850938 0.018115766 0.18345553
0.039685197 -0.0015172819 0.18373257
0.015222015 0.00145703 0.18375069
0.0066137146 0.012729973 0.18375656
0.0060411673 0.0063082404 0.18376198
0.0036302088 0.02149385 0.18379968
0.038397789 0.0029592579 0.18382338
0.01227797 0.040447358 0.1838882
0.0083467383 0.0099498741 0.18395722
0.040905274 -0.005656221 0.18409634
0.0047280192 0.016994739 0.18418336
0.004356239 0.027028676 0.18453854
0.0080771893 0.029382221 0.18465033
0.0034804447 0.011658791 0.18468887
0.045637812 -0.0086075524 0.18468928
0.0011771768 0.02048777 0.18499994
0.008734487 0.035574909 0.18501449
0.042131916 -0.0095099686 0.18514761
0.031847894 0.004242056 0.18519586
0.0018727127 0.024908349 0.18522397
0.0018320912 0.015971286 0.18529004
0.0099443607 0.0031193653 0.18529579
0.0071892217 0.032650419 0.18560004
0.035830531 -0.0025773933 0.18562189
0.010165137 0.038845871 0.18572891
0.035365157 -0.0081467694 0.18609574
0.034553722 0.0020070793 0.18634027
0.032822803 -0.0041692024 0.18694204
0.030889383 -0.00024647173 0.18705356
0.028716762 -0.00021915138 0.1885159
0.03253334 -0.0026414366 0.18983185
