# .PCD v0.7 - Point Cloud Data file format
VERSION 0.7
FIELDS x y z
SIZE 4 4 4
TYPE F F F
COUNT 1 1 1
WIDTH 1061
HEIGHT 1
VIEWPOINT 0 0 0 1 0 0 0
POINTS 1061
DATA ascii
-0.028732359 0.037870228 0.17263836
-0.030017078 0.0371117 0.17262599
-0.019563556 0.034987807 0.17577207
-0.023509204 0.031985164 0.1775924
-0.027626336 0.030461788 0.17780203
-0.031108618 0.02811712 0.17641288
-0.020801127 0.037423253 0.17387861
-0.024828255 0.035895109 0.17466509
-0.029616833 0.033311188 0.17497113
-0.032365322 0.030804694 0.17351824
-0.022078931 0.038389564 0.17097199
-0.026629984 0.038160861 0.17021656
-0.031443298 0.035344422 0.16985816
-0.03262043 0.030547023 0.1704126
-0.027505934 0.038942933 0.16583544
-0.031240582 0.037280381 0.16581637
-0.033051729 0.034687102 0.16549832
-0.028926611 0.039972067 0.16327903
-0.031076133 0.038529515 0.1626913
-0.0079780817 0.034235656 0.17841274
-0.011011183 0.031906068 0.17900661
-0.015890718 0.030318022 0.17963934
-0.020333111 0.027225912 0.17914063
-0.024177492 0.025103152 0.17868209
-0.029027641 0.02279222 0.17847759
-0.0078750253 0.036109686 0.17583027
-0.012528181 0.03468585 0.17628908
-0.017891884 0.033773005 0.17702311
-0.021563292 0.030845821 0.17831385
-0.026091993 0.027588487 0.1778039
-0.030610025 0.025032043 0.17686963
-0.032184601 0.021699429 0.17481014
-0.010724306 0.037335217 0.1730094
-0.014035642 0.037221849 0.17204171
-0.017500281 0.037155688 0.17298308
-0.032770276 0.027184546 0.17256951
-0.033410013 0.024105191 0.1712926
-0.015726984 0.037069798 0.16835976
-0.019999862 0.037265837 0.16783133
-0.022720397 0.036546767 0.16591883
-0.033350825 0.029145479 0.16748261
-0.034480572 0.025822639 0.16704562
-0.021006584 0.037065744 0.16299921
-0.024472356 0.037456155 0.16355836
-0.03393048 0.03135705 0.16293103
-0.022618949 0.038549423 0.15871614
-0.026373327 0.038206458 0.15923572
-0.031140208 0.036176205 0.15922686
-0.033494651 0.032670379 0.1598106
-0.023402095 0.039974093 0.15614843
-0.027160645 0.03958106 0.15473723
-0.031098545 0.037304699 0.15460575
-0.028604031 0.039709568 0.1506846
0.0027197003 0.034759402 0.17539531
-0.0011238456 0.033509731 0.17718357
-0.0049909353 0.031207442 0.17868829
-0.0089437962 0.028789878 0.18016732
-0.011751056 0.02552557 0.17970988
-0.017374456 0.022986412 0.17924958
-0.021760106 0.021360934 0.17931181
-0.026468337 0.018911541 0.17924535
-0.030473292 0.015868723 0.17774454
-0.034351826 0.01453656 0.17549351
-0.0022599697 0.036102295 0.17419705
-0.0059468746 0.036152601 0.1740036
-0.033112168 0.018130302 0.17422596
-0.034688473 0.014778733 0.17328686
-0.0036513805 0.03551662 0.17037195
-0.0074098706 0.035743833 0.17039794
-0.011040807 0.035574019 0.16843665
-0.03378129 0.021181345 0.16949803
-0.034266055 0.01702565 0.16996163
-0.013156831 0.035542071 0.16565275
-0.01627779 0.035847247 0.16468319
-0.034724832 0.022426128 0.16494647
-0.014480114 0.035511613 0.16156468
-0.017820716 0.036172688 0.16104251
-0.035002649 0.025274813 0.16074219
-0.019590676 0.037434042 0.1568383
-0.033495605 0.029369295 0.15648669
-0.034000158 0.025629818 0.15676716
-0.02168417 0.037856758 0.15302652
-0.025267899 0.039471626 0.15161115
-0.031355977 0.034549832 0.15193284
-0.032684386 0.031655908 0.15206417
-0.026189983 0.039426684 0.15018326
-0.030019045 0.036868811 0.15005523
-0.029690266 0.0051959753 0.181593
-0.033541381 0.0025416613 0.18145597
0.0065683126 0.029649496 0.17809308
0.0020097494 0.02802223 0.17872304
-0.0015125871 0.025202096 0.18027508
-0.0055603981 0.022812903 0.18028086
-0.0095784664 0.019746363 0.18016833
-0.014665484 0.017203212 0.1798538
-0.018710852 0.015113354 0.18017182
-0.024002314 0.013586104 0.1806553
-0.02772671 0.010589182 0.18040729
-0.031796336 0.0078534484 0.17969918
-0.035411239 0.0050130486 0.1792829
-0.038447797 0.002879262 0.17947203
0.0086860061 0.034532547 0.17494893
0.00543648 0.033529937 0.17637554
0.0013293624 0.031572938 0.1774525
-0.0026804805 0.02886951 0.17925817
-0.015726805 0.021014571 0.17909205
-0.02231282 0.017277777 0.1790694
-0.029854059 0.013116837 0.1785596
-0.033202648 0.010918498 0.1767711
-0.036537886 0.0069844127 0.17532015
-0.038662374 0.0040311813 0.17561775
0.0084936619 0.036019206 0.17330864
0.0044159889 0.03550756 0.17210394
0.00031191111 0.035887837 0.17141604
-0.03552407 0.012809515 0.17115894
-0.037661254 0.008949101 0.17135584
-0.040360391 0.0073299408 0.1705429
0.0027699471 0.0350914 0.16847265
-0.00087863207 0.034834921 0.16714662
-0.0057108998 0.034540713 0.16667977
-0.034636915 0.01511991 0.16792685
-0.002980113 0.035036206 0.1627073
-0.0070713758 0.034733117 0.16353625
-0.010443091 0.03425926 0.16297567
-0.03462851 0.019845605 0.16145158
-0.0042078495 0.036476076 0.15978637
-0.0074797273 0.035837889 0.15875494
-0.012114525 0.035109401 0.15894604
-0.035685301 0.021882534 0.15829492
-0.0089988112 0.035312653 0.15550065
-0.013589323 0.035412967 0.15434903
-0.017635942 0.036668956 0.15419006
-0.034859896 0.023307085 0.15424979
-0.018699348 0.036933839 0.14984685
-0.022870719 0.036641598 0.14954835
-0.030890942 0.032269478 0.14879251
-0.033081293 0.028320134 0.14980245
-0.034389257 0.024354815 0.14934528
-0.020006239 0.037246406 0.14543808
-0.025452495 0.036144495 0.14588308
-0.029505134 0.03322053 0.14590582
-0.031392813 0.029705107 0.14459693
-0.021930814 0.038837552 0.14063114
-0.025642872 0.03763473 0.14161721
-0.02977699 0.035336614 0.14130354
-0.031718612 0.030914903 0.14163393
-0.023306847 0.038591981 0.13671401
-0.02649343 0.038207352 0.13762
-0.030025125 0.0365417 0.13726386
-0.030878127 -0.0028800368 0.18528831
0.023486912 0.0327878 0.18110365
0.019740045 0.030038536 0.18170491
0.015808225 0.027084053 0.17916214
-0.00018775463 0.018428743 0.180776
-0.0031647682 0.017838359 0.18105435
-0.0071842074 0.015667975 0.18106902
-0.010587096 0.011654079 0.18050927
-0.015368342 0.0093894005 0.18061006
-0.020429254 0.0080254078 0.18098843
-0.024496138 0.0048388243 0.18141097
-0.02898109 0.0017499924 0.18213999
-0.032927573 -0.00062948465 0.18267131
-0.036220968 -0.0023305416 0.1817323
0.02582413 0.034823298 0.17974141
0.02267307 0.034102619 0.17767477
0.018649578 0.031912923 0.17768541
0.013726592 0.028553724 0.17730421
0.0096104145 0.026793242 0.17888236
0.0054361224 0.024493814 0.17922014
0.0023180842 0.02223742 0.17985755
-0.011836171 0.01494509 0.18000317
-0.019971013 0.010978281 0.18014622
-0.039596498 0.0002412796 0.17707315
0.021450043 0.035344601 0.1738919
0.017403901 0.033510327 0.17327639
0.012859344 0.03120935 0.17347652
0.0093776584 0.030342937 0.17630443
-0.039109707 0.0022906065 0.17365462
0.015596688 0.033676624 0.16922629
0.010357797 0.033391118 0.16939375
0.0075109005 0.033409715 0.16883093
-0.037630796 0.0076243877 0.16785595
-0.039819658 0.0045332909 0.16733193
0.0091730952 0.032700181 0.16601655
0.0057605505 0.033730149 0.16474342
0.0021243691 0.033692241 0.16425982
-0.034906387 0.011146903 0.16528165
-0.035866022 0.0071477294 0.16469449
-0.038238466 0.0038024187 0.16530636
0.0045572519 0.033782959 0.16074353
0.00062960386 0.033311605 0.16044843
-0.034802794 0.012928963 0.16000047
-0.0019888878 0.03414619 0.15663627
-0.0050501823 0.034169197 0.15514177
-0.034967721 0.014091134 0.15509152
-0.0067997575 0.034394026 0.15183505
-0.011297047 0.034688056 0.15147626
-0.034429491 0.020255804 0.15049124
-0.035467803 0.019132972 0.15191555
-0.0089086294 0.035181105 0.14750904
-0.01254046 0.035139024 0.14731836
-0.033437371 0.022931576 0.14636251
-0.013659835 0.035868168 0.14278793
-0.016761959 0.035488665 0.14257103
-0.015870452 0.036386907 0.13869154
-0.018373549 0.036620021 0.13867369
-0.031300902 0.028665781 0.13818175
-0.020409286 0.037576079 0.13448742
-0.025207043 0.037445247 0.134166
-0.030319333 0.033895552 0.13365799
-0.025644422 0.037390351 0.12973785
-0.029728651 0.0349347 0.12937969
-0.031330645 0.032163858 0.12964857
-0.02724272 0.038968027 0.12574533
-0.02929616 0.037194431 0.12553829
-0.024965763 -0.0073897839 0.18543845
0.018460035 0.021029472 0.1818808
0.015245378 0.01875627 0.1817525
-0.0074517727 0.0055647492 0.18158871
-0.012075663 0.0027011037 0.18150961
-0.015508413 0.0010557175 0.18157563
-0.021087348 -0.0012658238 0.1817745
-0.025228679 -0.0035740733 0.18355584
-0.028062105 -0.0049438477 0.18649721
0.016470253 0.025206327 0.18052357
0.012017071 0.021680236 0.18074769
0.0080320239 0.018891335 0.18032765
0.0046705008 0.016088367 0.17984569
-0.0038428903 0.0086051822 0.18029407
-0.0082399845 0.0074567795 0.18063
-0.013010561 0.0050718188 0.1806969
-0.018399835 0.0046389699 0.18136334
-0.026539385 -0.0014151335 0.18251902
0.026168048 0.033630729 0.17781317
0.016704798 0.028486133 0.17705822
0.023248136 0.033953309 0.17031461
0.018314242 0.033423305 0.17109814
0.015191257 0.031136394 0.17173204
0.021841407 0.03352195 0.16683853
0.01745224 0.033504903 0.16699982
0.013698757 0.03263694 0.16765627
-0.040552199 0.0010802746 0.16490269
0.016350269 0.033252597 0.1621061
0.011284113 0.032917798 0.16303843
-0.036559641 0.0058220625 0.16222954
-0.039579034 0.0026066899 0.16254562
0.014680326 0.033862412 0.15914249
0.01009357 0.033028126 0.1592406
0.0066437721 0.033029914 0.15724409
-0.034774423 0.010051608 0.15863657
-0.036107481 0.0056355596 0.15779814
-0.039125443 0.0016433001 0.15849552
0.0048820376 0.032880247 0.15349567
0.00070035458 0.033428848 0.1546092
-0.035180986 0.011147201 0.15372527
-0.03581363 0.007094264 0.15476388
0.0024393201 0.034141183 0.15166473
-0.00046610832 0.033966422 0.14970058
-0.0044688582 0.034515679 0.14894608
-0.034038246 0.012095094 0.14796245
-0.0017433167 0.034330249 0.14462158
-0.0061437488 0.034879327 0.14554515
-0.030870974 0.021657109 0.14392978
-0.032919228 0.018696249 0.14497066
-0.03334105 0.01522845 0.14478379
-0.0037229061 0.034867227 0.1409058
-0.006955862 0.035611272 0.14073461
-0.011240244 0.036055684 0.14071494
-0.031730056 0.019731522 0.13972938
-0.0083670616 0.035406232 0.13705012
-0.012902617 0.036229312 0.13687077
-0.031288385 0.024713933 0.1353091
-0.032862604 0.020187974 0.13576719
-0.014491439 0.03694582 0.1336754
-0.018684864 0.037073553 0.13147587
-0.03167969 0.027348995 0.13183984
-0.019524693 0.036763132 0.12768418
-0.021874011 0.036075234 0.12594318
-0.032200277 0.029361367 0.12726623
-0.025164902 0.037895143 0.12391435
-0.030497193 0.035494208 0.12357014
-0.032123506 0.030599594 0.12310364
-0.026809394 0.0345999 0.11984997
-0.0044835806 -0.0019117594 0.18395081
-0.0090144873 -0.0032321811 0.18268102
-0.01083678 -0.0049956441 0.18248734
-0.016281843 -0.0079051852 0.18251315
-0.020620406 -0.0098280907 0.18459857
0.019651294 0.01718539 0.18267602
0.015608549 0.01472652 0.1818338
0.011952877 0.013266265 0.18143037
0.0076835752 0.010554612 0.18070978
0.0046290159 0.0077595711 0.18042305
-0.0011381507 0.0048690438 0.18072659
-0.0053287745 0.0023066998 0.18279493
-0.0094898939 0.00016123056 0.18205106
-0.014217913 -0.0025706887 0.18162793
-0.018430233 -0.0056492686 0.18235075
-0.02216357 -0.0068315268 0.18362194
0.0061887503 0.012090206 0.17975351
0.0025675297 0.0093931556 0.17957264
0.027053177 0.03369993 0.1682604
0.026807904 0.030740023 0.17064855
0.027087629 0.032837808 0.16404653
0.023812056 0.033634007 0.1646235
0.026699305 0.033055782 0.16018352
0.022897959 0.033881009 0.16044015
0.018977404 0.033116817 0.16003138
0.021498024 0.034592569 0.15505967
0.016823232 0.033974707 0.15563938
0.012245059 0.031967521 0.1559754
-0.036691904 0.0047793984 0.15422869
-0.038599312 0.0012409687 0.15510362
0.021896601 0.035042286 0.15191537
0.015733719 0.034566939 0.15134519
0.01112324 0.032894671 0.15145135
0.0081264973 0.032203913 0.15174317
-0.035637319 0.0045343637 0.15057766
-0.038624465 0.0016878843 0.15075013
0.021986127 0.041724563 0.14584839
0.015365064 0.033939004 0.14783996
0.01180768 0.033131242 0.14765602
0.0067381263 0.032187998 0.14674741
0.0025764108 0.032571018 0.14636213
-0.034663081 0.010397851 0.14675149
-0.036404133 0.0058662891 0.14612222
-0.039394081 0.0042223334 0.14325941
0.0044302344 0.032567859 0.14254904
0.0016689301 0.033168316 0.14250934
-0.034490287 0.012016654 0.14258534
-0.036879063 0.0076185465 0.14251989
0.0031518936 0.033304274 0.13759786
-0.00063234568 0.034361482 0.13836968
-0.0047509074 0.034454286 0.13691789
-0.033210874 0.01733762 0.13816324
-0.033926547 0.013824224 0.13815784
-0.0021045804 0.035269082 0.13345909
-0.0063692331 0.034466505 0.13364109
-0.032868147 0.019555867 0.13374287
-0.034590721 0.015222549 0.13368422
-0.0031688809 0.034952641 0.12947312
-0.0069006681 0.034485459 0.12863767
-0.011607111 0.03414011 0.12938523
-0.032986403 0.02085942 0.12950942
-0.03423357 0.017181754 0.12854213
-0.0086160898 0.035168171 0.12481349
-0.012936115 0.035395563 0.12503344
-0.016845345 0.035308242 0.12475186
-0.032782793 0.025604784 0.12450134
-0.033925056 0.022953391 0.12519625
-0.014143109 0.036054492 0.11978095
-0.018557608 0.03514266 0.12073421
-0.022859514 0.034184694 0.12005001
-0.02845645 0.032314062 0.11938899
-0.03216815 0.027879894 0.12023377
-0.033393264 0.025877237 0.11979192
-0.014852881 0.036572814 0.11659276
-0.01948148 0.035668671 0.11593594
-0.023941576 0.03453052 0.1159929
-0.028461218 0.033755958 0.11659782
-0.031548917 0.029156089 0.11582362
-0.024514437 0.035803497 0.11175781
-0.02924943 0.034636855 0.11211365
-0.031662583 0.031099916 0.11176958
-0.026022017 0.037209332 0.10840931
-0.029864728 0.035811484 0.1071875
-0.0010882616 -0.0069383383 0.18587953
-0.0029318929 -0.0077793002 0.18618655
0.021345913 0.014006078 0.18279654
0.019521654 0.0094298124 0.18282995
0.015599608 0.0066615939 0.18236101
0.012980938 0.0042327046 0.18200442
0.0022220016 -0.0018280745 0.18184388
-0.0013187528 -0.0030995011 0.18351912
-0.0053372383 -0.006352663 0.18372974
-0.010658264 -0.0093243718 0.18240637
-0.014386296 -0.011251509 0.18355823
-0.018327117 -0.012955546 0.18466192
0.011621416 0.009008646 0.18131977
0.0097367167 0.0051728487 0.18059921
0.0049422383 0.0023229718 0.17936331
0.0024787784 0.00040394068 0.18040466
0.028681099 0.032056749 0.15878391
0.02533716 0.031685114 0.15680474
0.024317384 0.033521056 0.15348417
0.021729946 0.034461558 0.14886838
0.018431962 0.033678889 0.14845848
-0.038914859 0.00062185526 0.14734089
0.022307634 0.040579021 0.14382985
0.021107376 0.035460174 0.14409518
0.016830862 0.033712506 0.14429003
0.012253642 0.032685101 0.14429203
0.0092338324 0.031744957 0.1433638
-0.037231266 0.0034826994 0.14590061
-0.039361596 0.0016471744 0.14441222
-0.041049004 -0.0025833249 0.1427643
0.021924675 0.041249633 0.14248219
0.02117306 0.037228167 0.14002013
0.016345501 0.034482121 0.13991547
0.012052894 0.032282352 0.14000016
0.0075431466 0.031662345 0.14018109
-0.036222756 0.006428957 0.13893315
-0.038803816 0.0024300814 0.13976792
-0.041197181 -0.0010697842 0.14032471
0.012562931 0.034382701 0.13628575
0.0065491199 0.032999158 0.13549769
0.00323385 0.032480359 0.13488233
-0.034616888 0.01127255 0.13569245
-0.035288095 0.0073600411 0.13506791
0.019288898 0.041544676 0.13163555
0.0052669644 0.033781052 0.13084543
0.0014131069 0.033467531 0.13116303
-0.034671187 0.011685014 0.1307739
-0.00061589479 0.033789754 0.12664026
-0.0042749047 0.033904612 0.12646642
-0.035159349 0.015576005 0.12614149
-0.0018618107 0.034389257 0.12330534
-0.0064971447 0.034840882 0.12266921
-0.010618269 0.035412908 0.12198504
-0.033998489 0.018963933 0.12169989
-0.034978032 0.015239537 0.12312006
-0.0078705549 0.035402298 0.11837318
-0.010733843 0.034849823 0.11852335
-0.032957375 0.021021247 0.11807271
-0.0095815063 0.035310626 0.11515271
-0.013122082 0.035525799 0.11341991
-0.016944647 0.035249472 0.11356654
-0.032548606 0.025712371 0.11214503
-0.033408761 0.024207056 0.11427998
-0.014787436 0.03594768 0.10918339
-0.018721044 0.035421431 0.10949328
-0.021700561 0.035441935 0.10925611
-0.032024205 0.029442847 0.10919117
-0.032564759 0.024908781 0.10937839
-0.019925594 0.035400748 0.10500457
-0.024078786 0.035707295 0.10464447
-0.029906392 0.034203649 0.10435276
-0.031878948 0.028706133 0.10557496
-0.024882376 0.035286665 0.10150119
-0.02831322 0.033359945 0.10108512
0.013695121 -0.0022314787 0.18369311
0.010691047 -0.0042573214 0.18320382
0.0058339834 -0.0068083405 0.18352091
0.0021474361 -0.0085282922 0.18503189
-0.0040518641 -0.010970056 0.18527812
-0.0070991516 -0.014967322 0.18416983
-0.010707557 -0.013767004 0.18497252
0.017156363 0.0037623048 0.18340522
0.012698889 0.0011013746 0.18229988
0.0087419152 -0.0013684034 0.18109646
0.0051633716 -0.0030838251 0.18189862
0.0012396574 -0.0064718723 0.1835674
-0.0057654381 -0.0096896291 0.18373233
-0.0082556009 -0.01192528 0.1835148
-0.041736484 -0.0046930909 0.1393047
0.020909786 0.035651088 0.13726461
0.017445505 0.034107924 0.13670737
0.011719227 0.031047702 0.13675284
-0.036531329 0.0026869178 0.13578391
-0.038794219 -0.00066971779 0.13676718
-0.040421188 -0.0032589436 0.13624594
0.020828128 0.037583351 0.13392943
0.017589927 0.033648968 0.13271129
0.012046337 0.032780886 0.13326925
-0.036329985 0.0040914416 0.13324168
-0.037688613 0.001753211 0.13241509
0.019734979 0.03605479 0.12980261
0.01679033 0.034195483 0.12855741
0.011491477 0.033414841 0.12878758
0.0063579082 0.033577144 0.1281212
-0.034906387 0.0095074177 0.12781954
-0.035466313 0.0066779852 0.12865335
0.012547851 0.034102321 0.12469058
0.0061048269 0.03362143 0.12463021
0.0014525652 0.033260405 0.12452068
-0.035646558 0.010753989 0.12506548
-0.0360533 0.0070968866 0.12477326
0.0035580397 0.034001827 0.12024107
0.00014793873 0.033625782 0.12019937
-0.0034037828 0.033512652 0.12082624
-0.034095347 0.012578368 0.11918112
-0.0017920136 0.034697056 0.1162236
-0.0051859617 0.034451485 0.11567923
-0.032659054 0.01744163 0.1143169
-0.033699632 0.014950037 0.11671834
-0.0028169751 0.034160972 0.11179661
-0.0068703294 0.034568012 0.11160614
-0.010163009 0.034812748 0.11135634
-0.032696486 0.020731568 0.10962107
-0.0085259676 0.035180926 0.10824471
-0.011629701 0.034830213 0.10684954
-0.016140282 0.035177708 0.10640102
-0.031739712 0.026257157 0.10635304
-0.032423317 0.02358979 0.10638567
-0.013341963 0.034466743 0.10266041
-0.017339587 0.035198092 0.10262888
-0.03150034 0.026643276 0.10225745
-0.032549322 0.023133695 0.10373857
-0.018589973 0.035601437 0.09787976
-0.023378551 0.035086393 0.098513059
-0.028450131 0.033065319 0.098742776
-0.031826377 0.028735161 0.098537646
-0.019636571 0.035963535 0.093378358
-0.02442646 0.036013722 0.094300292
-0.028687119 0.033509612 0.094067715
-0.03122586 0.030377328 0.094289266
-0.025212049 0.035162807 0.089725189
-0.028002203 0.033802092 0.089805
0.01142931 -0.007884562 0.18433309
-0.041830063 -0.0057182312 0.13572848
0.020398557 0.034653902 0.13088638
-0.037583947 -0.0010579228 0.12985998
0.019623399 0.036011159 0.12815875
0.016634762 0.034611464 0.12576658
0.011017859 0.031715453 0.12502155
-0.03589201 0.0024348497 0.12654111
-0.038200021 -0.00016981363 0.12589321
-0.040897131 -0.0019333363 0.12686703
0.015270054 0.035154402 0.12204754
0.011310339 0.033912778 0.1218945
0.0088263154 0.032046735 0.12055271
-0.036246419 0.0048031807 0.12102022
-0.038902998 0.00068259239 0.12126555
0.014424801 0.035895467 0.1174539
0.011222839 0.033784926 0.11734941
0.0068196058 0.032767773 0.11762684
-0.03477484 0.010405898 0.11733707
-0.036713302 0.0064973831 0.11722892
-0.039565563 0.0032846332 0.11702537
0.010856748 0.034034848 0.1141588
0.0058164597 0.032591879 0.1131921
0.0014019012 0.032898307 0.11342051
-0.03346324 0.010785818 0.11271032
-0.037452757 0.0074806809 0.113689
-0.040088177 0.0058284998 0.11430072
0.0048805475 0.033352554 0.1100366
0.00031942129 0.033111811 0.10865074
-0.0040071011 0.033135235 0.10899689
-0.032183111 0.015001237 0.11089041
-0.032210231 0.01274097 0.10844194
-0.0015055537 0.033412158 0.10456979
-0.0054485202 0.032641768 0.1047697
-0.0078849792 0.031976402 0.10195362
-0.03181839 0.016407013 0.10374763
-0.010627568 0.033470869 0.099808775
-0.032952726 0.020667613 0.099576108
-0.012317657 0.034868956 0.095579557
-0.033102393 0.026659071 0.095009618
-0.033341706 0.022801161 0.095347039
-0.014333367 0.036306441 0.091515504
-0.018185318 0.035992682 0.091392033
-0.02201277 0.035785794 0.090982936
-0.031294882 0.027750552 0.090967141
-0.032921851 0.024917722 0.090940855
-0.018629313 0.035961151 0.087275378
-0.02351433 0.034957528 0.087377124
-0.027769625 0.032463312 0.087342523
-0.031198084 0.028751791 0.087105326
-0.033456981 0.025491357 0.087859027
-0.020957589 0.035500407 0.0838378
-0.023945034 0.034430861 0.083215378
-0.028492689 0.032553017 0.082430981
-0.030804396 0.030535519 0.083208255
-0.037788272 0.00056380033 0.1187978
0.014822304 0.034954846 0.11203634
0.011651754 0.033709645 0.11118486
0.0081839561 0.032542467 0.11038443
-0.032944322 0.0069045424 0.1082634
-0.035310388 0.005430758 0.10989793
-0.037997127 0.002859056 0.10953843
0.010978818 0.035009921 0.10581499
0.0066221356 0.032341182 0.10598075
0.0022245049 0.032830238 0.10616424
-0.032224953 0.010421455 0.10596045
0.010141313 0.035424352 0.1021313
0.0064642429 0.03303355 0.10244375
0.0012849569 0.031905115 0.10198664
-0.0034170747 0.031884968 0.10159563
-0.032891512 0.01222235 0.10164543
-0.0010496974 0.030848324 0.098494403
-0.0048317909 0.031777203 0.097883873
-0.0339306 0.014785588 0.098098181
-0.0059882402 0.033244431 0.093754493
-0.0096465349 0.034390748 0.093004934
-0.033629 0.018476784 0.093838476
-0.0071866512 0.033970535 0.090638511
-0.01074332 0.033610642 0.088847719
-0.03370887 0.02023983 0.089725308
-0.034455836 0.018492758 0.086324088
-0.013318121 0.033432662 0.085724644
-0.016643882 0.034316599 0.083615296
-0.032076418 0.025090396 0.08399605
-0.033392072 0.023431301 0.084221654
-0.019030333 0.034601688 0.083087377
-0.02297014 0.0330351 0.079471849
-0.028027713 0.032511234 0.079647146
-0.031854212 0.028770626 0.080681019
-0.033110023 0.024942577 0.0790013
-0.024227262 0.033210516 0.07593026
-0.028119683 0.033132136 0.076043598
-0.031848967 0.030472755 0.075674199
-0.029021561 0.03308934 0.072035693
-0.031205535 0.030742943 0.072179221
0.015951574 0.032715678 0.10768559
-0.03628552 0.0018726587 0.10718324
-0.037680447 0.0011299253 0.10719758
0.014008641 0.03287977 0.10557591
-0.032114029 0.0076744556 0.10329216
-0.034063578 0.0040064454 0.10409563
-0.037319064 0.0013467669 0.10380971
0.012030721 0.03405422 0.09974473
0.0071591139 0.032657802 0.099879794
0.0032538772 0.030842423 0.099334948
-0.033028841 0.0094791651 0.100708
-0.033921778 0.0045179129 0.099566869
-0.038666606 0.0012223125 0.098920606
0.0094491839 0.033576906 0.095079891
0.0064359903 0.03224498 0.095440142
0.0020627975 0.03129828 0.095703326
-0.0011637211 0.030532002 0.095848404
-0.033580601 0.0091593266 0.094736479
-0.042237639 0.0056270957 0.095218174
0.0087687373 0.03440845 0.090945296
0.0046260953 0.031962156 0.090905301
0.00074493885 0.03267777 0.090585582
-0.0028713346 0.032383919 0.091165446
-0.034374177 0.012880623 0.090737574
-0.00095152855 0.032301247 0.087017111
-0.0048620701 0.032631636 0.086403124
-0.0087634921 0.032622635 0.086184911
-0.034921706 0.014984727 0.085980169
-0.0062099099 0.033698022 0.081739955
-0.010737062 0.033029139 0.082292639
-0.015037358 0.032456458 0.081425332
-0.033898652 0.020181358 0.081676386
-0.034521937 0.01749903 0.082524352
-0.0076985955 0.034252703 0.077073418
-0.010906756 0.033935606 0.077644221
-0.016196489 0.032492399 0.078233592
-0.020472825 0.032502115 0.0774334
-0.033609629 0.021283507 0.077713154
-0.011793673 0.034273446 0.074060552
-0.016734958 0.03335315 0.073637925
-0.021720171 0.032658637 0.073870026
-0.03258723 0.027926385 0.073119305
-0.032866895 0.024445832 0.074431352
-0.017879784 0.032596171 0.0699564
-0.02244103 0.033450305 0.069558062
-0.027408838 0.032595336 0.069747843
-0.031208634 0.028507411 0.069217123
-0.023686826 0.033448637 0.065473832
-0.02819699 0.032176554 0.065982856
-0.030221403 0.028504014 0.065854378
0.014065027 0.0307073 0.095418505
-0.034780383 0.002605319 0.097139172
-0.038467109 0.00065338612 0.097183876
0.011925101 0.031931996 0.092847638
0.0071350932 0.032376051 0.092261396
-0.033404171 0.0076467395 0.09158548
-0.035406709 0.0040886998 0.092430018
-0.03930223 0.0022487044 0.092311613
0.016656995 0.035526991 0.088010304
0.011156142 0.033427775 0.088375621
0.0063390732 0.032919347 0.088797711
-0.035940349 0.0056247711 0.0881707
-0.039058805 0.0026478767 0.088171951
0.015170634 0.036505163 0.085214667
0.010854542 0.034619093 0.084030829
0.0072043538 0.033151925 0.08411973
0.001899302 0.03152132 0.084250323
-0.034836709 0.0099235773 0.085818373
0.0091134906 0.035751998 0.080999248
0.0065441728 0.034315944 0.080309443
0.001110673 0.031716943 0.080186956
-0.0023522973 0.031630635 0.079795472
-0.034370184 0.014005303 0.080319785
-0.0051851273 0.032679379 0.075582109
-0.0074332356 0.032577395 0.07289248
-0.010515749 0.032447994 0.070520513
-0.032467723 0.019315362 0.071492188
-0.012934923 0.032185435 0.066949166
-0.016379118 0.032310605 0.066885807
-0.019840419 0.032015443 0.064915903
-0.030875862 0.02535814 0.064753659
-0.031658173 0.023472905 0.066812165
-0.018608212 0.032281756 0.061226763
-0.021884859 0.032762587 0.061660565
-0.026532888 0.031001508 0.061633445
-0.029706657 0.026881397 0.061934032
-0.023549914 0.032789469 0.057621069
-0.02701813 0.031154215 0.057401426
-0.029127836 0.027978897 0.058365859
-0.025096655 0.033825397 0.052740104
-0.026704848 0.032338619 0.053686209
0.016316533 0.033187032 0.08607199
0.014930546 0.031080127 0.08674591
-0.03800112 0.00085073709 0.084292911
0.012395203 0.034402966 0.082848273
0.0057115555 0.031593084 0.081902348
-0.034297824 0.0040634274 0.082388334
0.010503888 0.03475821 0.077280156
0.0062265396 0.032845974 0.076535963
0.0024796724 0.031406164 0.076709442
-0.033030748 0.0080507994 0.07604789
0.0058357716 0.031568527 0.073132358
0.0012658834 0.030821502 0.07232859
-0.0022838712 0.03072083 0.073308192
-0.032521665 0.011152208 0.072737835
-0.004062295 0.031070471 0.068284638
-0.008506 0.030792356 0.067617871
-0.031895697 0.016452789 0.067331798
-0.0059392452 0.031282246 0.065039285
-0.0093442798 0.030968904 0.063908555
-0.013326049 0.030893743 0.0635956
-0.031266987 0.017767906 0.06315697
-0.0322752 0.015094459 0.064535506
-0.010391116 0.030639172 0.060478665
-0.015137672 0.030849934 0.059866048
-0.029700041 0.0251261 0.059112437
-0.030246139 0.020403326 0.05910904
-0.016633511 0.031211436 0.055478342
-0.020070374 0.031516671 0.055696495
-0.029464424 0.025213242 0.055196293
-0.01758194 0.031678617 0.051884629
-0.021360457 0.032526255 0.051331766
-0.027452826 0.030727744 0.051570453
-0.028688312 0.027808547 0.051102079
-0.02222544 0.032724917 0.047604389
-0.026786089 0.0323084 0.047169663
-0.029163897 0.029369354 0.046504803
-0.027070045 0.03209877 0.043572046
-0.03519094 -0.0026396513 0.081265382
-0.033552289 0.001316011 0.07800927
-0.036640048 -0.0017427206 0.078614853
0.012997627 0.033292413 0.074004643
-0.03406918 0.0025366545 0.073935919
0.01141119 0.033458769 0.071330331
0.0082686543 0.032016516 0.070797943
0.004553616 0.02980864 0.070096813
-0.032316506 0.0095568299 0.069445379
-0.033300161 0.0052391887 0.069761939
0.010884941 0.032675385 0.066286273
0.0075911283 0.032151461 0.065920986
0.0022607446 0.03044039 0.06642846
-0.0021944046 0.030644417 0.065724261
-0.032838225 0.010036349 0.066215076
0.0055703521 0.032990694 0.061375894
0.0012441278 0.03106159 0.061834015
-0.0033155084 0.030467391 0.062009789
-0.033425808 0.012079239 0.061613388
0.0046592951 0.03351742 0.058229007
0.00022631884 0.031642318 0.058482207
-0.0033435822 0.030797005 0.057346858
-0.0085858107 0.029918671 0.057414331
-0.031143665 0.016407251 0.057357498
-0.033022881 0.01300025 0.058556952
-0.0092809796 0.030519485 0.053417064
-0.013656497 0.029942274 0.053237744
-0.030743241 0.018276036 0.053282626
-0.0098863244 0.031252086 0.049920119
-0.014632106 0.030582786 0.048510708
-0.029708028 0.024263978 0.049521305
-0.030860841 0.020228684 0.04728771
-0.017326176 0.032025516 0.044009365
-0.021491826 0.032292724 0.044113792
-0.030684173 0.026004434 0.044561423
-0.0192191 0.033064246 0.040297367
-0.022249579 0.032901824 0.039304711
-0.027262032 0.031795681 0.040550359
-0.030172527 0.028193474 0.039580651
-0.023691654 0.033524692 0.035706796
-0.027966917 0.032139122 0.03479708
-0.030812621 0.029230475 0.035448767
-0.028285861 0.032022595 0.031199373
-0.036483705 -0.0030263066 0.076128297
-0.036824346 -0.002411902 0.073125832
-0.039014399 -0.0048610568 0.070679776
-0.03375423 0.0012300611 0.068323649
-0.035061359 -0.0011795759 0.068128563
0.012581825 0.031372666 0.063450612
-0.033507824 0.0027980804 0.063992567
0.011329293 0.031281888 0.059414305
0.0084401965 0.032422125 0.059488215
0.0040672421 0.031253099 0.061025955
-0.0348562 0.0062907934 0.058976509
0.0058114529 0.032079637 0.054709233
0.0021091104 0.031453252 0.055299617
-0.033226609 0.011439085 0.054918624
-0.034441173 0.0082074404 0.053385057
0.0046328902 0.031945765 0.050436385
0.00025963783 0.031027734 0.051068194
-0.0037496686 0.03132242 0.051213719
-0.007173121 0.03119415 0.051059224
-0.031955481 0.015199602 0.05205778
-0.032651961 0.012323618 0.049252041
-0.0050773621 0.029117703 0.046122678
-0.0089674592 0.030680358 0.046234168
-0.012964487 0.031428337 0.04532633
-0.031715989 0.018853247 0.047399588
-0.032788634 0.015476704 0.045174815
-0.010064483 0.031320453 0.041209526
-0.01439786 0.032607734 0.042196013
-0.031991184 0.019197047 0.04111702
-0.033155084 0.015444398 0.041632988
-0.01150018 0.031659067 0.037238665
-0.016076267 0.033217967 0.037796713
-0.031434 0.024282455 0.039514609
-0.031575203 0.023848832 0.036649294
-0.016678393 0.032805443 0.033409335
-0.021337867 0.032912672 0.03298641
-0.02503705 0.032862425 0.032578535
-0.030638218 0.026113629 0.031639792
-0.031668127 0.023255467 0.033693112
-0.022613466 0.03156209 0.028984644
-0.026475906 0.03161341 0.028520145
-0.029564559 0.028832555 0.0295173
-0.0252437 0.0313164 0.024653442
-0.036399961 -0.0059940815 0.067911305
-0.037815332 -0.0068297982 0.067897685
-0.035540938 -0.0046043396 0.064692415
-0.037804961 -0.0075518489 0.065837361
0.015253067 0.029592156 0.061452068
-0.034369528 0.0007057786 0.061139025
-0.035713434 -0.0019433498 0.059953012
0.013657928 0.031847358 0.056728639
-0.035584569 0.0028378963 0.056878634
-0.036946356 -0.00043720007 0.055886157
0.013267577 0.031234384 0.052375413
0.0090757012 0.031277418 0.052490301
-0.035512388 0.0041238666 0.052347101
-0.037481368 0.0015102625 0.051022626
0.0078161359 0.031698346 0.048021711
0.0032864809 0.030382395 0.047790833
-0.00014698505 0.030100167 0.047182955
-0.033693194 0.0090298653 0.047245063
-0.034715056 0.0057672262 0.048259057
0.0060765743 0.031265557 0.043493159
0.0028574467 0.03148073 0.043791302
-0.0027078986 0.029836535 0.043891229
-0.03304702 0.010838568 0.043312885
-0.033470094 0.0073351264 0.043781735
-0.0034579635 0.029879987 0.040259369
-0.0070043206 0.030899465 0.038867272
-0.033067286 0.01422435 0.038376577
-0.0090708137 0.031219602 0.035024352
-0.031387985 0.016726792 0.035692222
-0.011404216 0.031595945 0.031719513
-0.014734864 0.03158623 0.030095585
-0.031557083 0.021998644 0.030387379
-0.01578021 0.0313344 0.027190782
-0.020033658 0.031224072 0.026568808
-0.030317068 0.025309384 0.026335396
-0.031955063 0.0217821 0.025809206
-0.022449613 0.031000376 0.022585928
-0.026939869 0.030079961 0.022466183
-0.029877722 0.026815653 0.021989316
-0.03160429 0.024271846 0.021295965
-0.024453282 0.032447815 0.019439787
-0.027038336 0.031259179 0.017925173
-0.030510604 0.028872252 0.017536044
-0.032677889 0.026240885 0.017831296
-0.027059913 0.031020701 0.013916105
-0.030079424 0.029907465 0.014191031
-0.036784053 -0.0081633925 0.062995888
-0.035759568 -0.005533874 0.059905268
-0.037200928 -0.0066475868 0.058891304
0.018100739 0.029755712 0.053696252
0.016758621 0.029073119 0.055530347
-0.037248254 -0.0028147101 0.055011101
-0.0382635 -0.0043646693 0.056425817
0.018240273 0.030426502 0.049953558
0.015119672 0.030533195 0.049864508
-0.038392067 -0.00093591213 0.050607122
0.017316997 0.03124547 0.045867659
0.013420165 0.031105757 0.046256937
0.0096535087 0.031530917 0.04549066
-0.035003781 0.004003346 0.045190789
-0.036777079 -0.0006519556 0.045515753
0.012965202 0.031275213 0.041427262
0.0080962777 0.031556785 0.041970707
0.0027154684 0.029520154 0.042197026
-0.034599662 0.0048697591 0.041208006
0.01154083 0.031899214 0.03791023
0.0070487857 0.03191936 0.03715501
0.0025000572 0.03015393 0.037497438
-0.0021783113 0.02950412 0.037246741
-0.032510638 0.0074865222 0.037238903
-0.033447623 0.0053361654 0.037477709
0.0060636401 0.031425714 0.033518828
0.0023418665 0.030260324 0.032696463
-0.0029767156 0.029726863 0.033141412
-0.0064919591 0.029507816 0.032068588
-0.030191064 0.013635397 0.031036653
-0.031853318 0.012350976 0.032726683
-0.0043618679 0.029346526 0.02903036
-0.0080330968 0.029426754 0.028473951
-0.031340897 0.016153276 0.028722681
-0.032165051 0.013657451 0.028768755
-0.010029316 0.029960871 0.023933865
-0.014141083 0.031011939 0.024803825
-0.032363832 0.017646611 0.024101891
-0.033810496 0.016250491 0.022002131
-0.011816382 0.031238258 0.019392431
-0.015224278 0.031213045 0.020241022
-0.019604146 0.030569136 0.020446688
-0.0322842 0.019610524 0.020633668
-0.033977866 0.016173005 0.020157784
-0.015956163 0.031307757 0.015137851
-0.020931482 0.031487048 0.01625964
-0.024453044 0.031351864 0.015248716
-0.031559229 0.027156115 0.015180409
-0.032747686 0.023437321 0.015667945
-0.018095553 0.031898141 0.011065155
-0.021764755 0.032439709 0.011330098
-0.026477754 0.031878471 0.011767119
-0.031001329 0.028639197 0.011464447
-0.033652246 0.027283967 0.012066036
-0.023200214 0.032104075 0.0071961284
-0.02689302 0.031178057 0.0074262917
-0.030370176 0.029787302 0.0080097914
-0.033489287 0.025539517 0.0074956119
0.019501865 0.030969799 0.043883272
-0.037146628 -0.002198875 0.04254017
-0.038112581 -0.0039517283 0.043872453
0.01970309 0.031220853 0.039134718
0.015583515 0.030979216 0.039317824
-0.035587072 0.0018922091 0.038378693
-0.037209988 -0.00047767162 0.039607622
-0.039338589 -0.0018050671 0.039558269
0.018244624 0.030329704 0.035664447
0.014105201 0.030868173 0.035032548
0.010578692 0.031558633 0.035246231
-0.033445954 0.0034298301 0.034475245
-0.037230432 0.00042319298 0.034482457
0.012608409 0.030198038 0.031423546
0.0086644292 0.031034827 0.030884542
0.0036714077 0.030218661 0.030824222
0.00056385994 0.029009819 0.030141152
-0.032069147 0.0090574622 0.030455746
-0.032421112 0.0049544573 0.029713906
-0.039128363 -0.00020980835 0.030985333
0.0072142482 0.030874789 0.026857533
0.0031132102 0.030710876 0.026556619
-0.0012907386 0.029040098 0.026684798
-0.0050910711 0.029025555 0.025997616
-0.03282696 0.011208177 0.026492544
-0.033357322 0.0064539909 0.025958456
0.0029633045 0.030277193 0.022699207
-0.0023399591 0.02862376 0.022053689
-0.0063146949 0.029141784 0.022650242
-0.033604026 0.012992203 0.022742629
-0.034347415 0.0081316233 0.022289991
-0.0039788485 0.028944135 0.018263191
-0.0079038143 0.029843092 0.017785698
-0.031030178 0.016341329 0.015769541
-0.03285265 0.014616966 0.017327309
-0.0096306205 0.029785872 0.013069063
-0.012620091 0.030745864 0.013331324
-0.014794171 0.031435132 0.0092974305
-0.018281102 0.031679094 0.0082096756
-0.017012954 0.031983197 0.0042614639
-0.020021498 0.031301081 0.0045036077
-0.025110245 0.030073404 0.0036355257
-0.029876471 0.026145816 0.0041989982
-0.031871915 0.023141205 0.003461659
-0.020858288 0.030761361 0.00047376752
-0.025358915 0.029728055 -0.0002271235
-0.028607249 0.027188182 -0.00017109513
0.023425519 0.030957401 0.036542453
0.023633301 0.03086859 0.03276179
0.019856334 0.030170083 0.032443531
0.016177535 0.029142618 0.031504758
-0.034101069 0.0005761385 0.031957366
0.017540395 0.030528665 0.027594991
0.014239192 0.029756367 0.027136959
0.010614395 0.030071497 0.028153278
-0.033996522 0.0019608736 0.028290011
-0.036503434 0.00054514408 0.028028019
0.011713564 0.030655205 0.022562027
0.0087202787 0.030365944 0.023380287
-0.03415978 0.0039129257 0.022270262
0.0072970986 0.030463398 0.018596858
0.0031065941 0.029012501 0.01838249
-0.00038963556 0.027820587 0.018732607
-0.033376217 0.0085955858 0.01665917
-0.034346282 0.0071517229 0.019066542
0.0057390928 0.03056848 0.014665246
0.0033892393 0.029802322 0.014918387
-0.0028603673 0.028721392 0.014845639
-0.033176541 0.0097819567 0.014327109
-0.0043417811 0.028132915 0.010504454
-0.007289052 0.02915144 0.010374635
-0.0093719363 0.029803157 0.0056548119
-0.012563169 0.029983938 0.0059420764
-0.031649232 0.014636636 0.0038909316
-0.011202693 0.030077994 0.0018540919
-0.013946772 0.030012012 0.0025429428
-0.032270491 0.020042419 -7.3164701e-05
0.026052415 0.030387044 0.029756017
0.022694647 0.029143155 0.028549232
0.025401294 0.030645251 0.024805106
0.021223068 0.029958367 0.02552674
0.017805398 0.029263496 0.024196453
0.020483375 0.028842747 0.021490008
0.015725136 0.029342175 0.021003217
-0.035374582 -0.0012959242 0.020682782
0.014323235 0.029174387 0.016025752
0.01045537 0.029559553 0.016160727
-0.033927381 0.0016310215 0.015601486
0.013246238 0.029305756 0.012209952
0.0090646744 0.030103147 0.012274146
0.0041642189 0.029438674 0.011742055
0.0008457303 0.027086973 0.012099415
-0.030964315 0.007143259 0.0097669065
-0.0332371 0.0043298006 0.011917084
0.0070801377 0.030252874 0.0075880587
0.0034054518 0.030483544 0.0076907277
-0.00096440315 0.027990997 0.0076887906
-0.0043523312 0.027461648 0.0073774159
-0.030726016 0.0082225204 0.0073565543
0.00148803 0.030970454 0.0032030046
-0.0020413995 0.029127598 0.0030423403
-0.0057222247 0.028867543 0.0031729937
-0.030911803 0.012227356 0.0025962889
0.028337777 0.02964133 0.021787405
0.026593864 0.028300703 0.018108308
0.021844089 0.027804375 0.018290609
0.024902821 0.027871668 0.014326543
0.0210706 0.027631879 0.01352039
0.017162383 0.027808428 0.013866484
-0.034985483 -0.0042280555 0.013020575
0.019201815 0.02854991 0.0089475811
0.015312791 0.028679907 0.0092797279
0.010465503 0.028849363 0.00893116
-0.032911479 0.0015239716 0.0083779097
-0.035416782 -0.0020343065 0.0092314184
0.018014312 0.029668093 0.0054720044
0.014263213 0.029113472 0.0049139559
0.010136664 0.028833449 0.004737854
-0.030337572 0.0059922338 0.0034024417
-0.032145083 0.0015725493 0.0047219992
-0.03459537 -0.0013948679 0.0049662292
0.013839424 0.030134916 0.0010377467
0.0054708719 0.028909624 0.00050872564
2.4795532e-05 0.028348446 6.8843365e-06
-0.030801594 0.0062384605 -0.00017568469
0.028407812 0.028443694 0.015598327
0.027560651 0.027227521 0.011862516
0.024509251 0.026744902 0.010767877
-0.037309885 -0.0069068074 0.010798931
0.026719868 0.026767254 0.0076825321
0.022543609 0.027914762 0.0073424876
-0.036189497 -0.0040367246 0.0060916543
0.020897686 0.027685225 0.0024061203
0.017133296 0.029067755 0.0025660694
-0.032120645 0.00049847364 0.0013695657
-0.034588873 -0.0046690106 0.0025364757
0.028696239 0.026675344 0.0090521276
0.028153121 0.025449276 0.0044364929
0.024508357 0.027116537 0.0045770705
0.023391962 0.027355671 0.00075316429
