# .PCD v0.7 - Point Cloud Data file format
VERSION 0.7
FIELDS x y z
SIZE 4 4 4
TYPE F F F
COUNT 1 1 1
WIDTH 1197
HEIGHT 1
VIEWPOINT 0 0 0 1 0 0 0
POINTS 1197
DATA ascii
-0.01237269 -0.048805788 0.0011224821
-0.032127678 -0.041905094 0.0012917966
-0.043298893 -0.031645209 0.0014265925
-0.0078660436 -0.048787702 0.001564391
-0.044438601 -0.0013851896 0.0019481331
-8.9839101e-05 -0.051728539 0.0025207475
-0.043872774 -0.018473526 0.0028465539
-0.026539199 -0.04480036 0.0030947179
-0.023083214 -0.046156168 0.0032503754
-0.041599222 0.0075751226 0.0033670813
-0.043356918 -0.014581076 0.0035060793
-0.04404236 -0.007770007 0.0042347163
-0.043398283 -0.011210022 0.0043395907
-0.01451543 -0.048314668 0.0043996349
-0.028271757 -0.044124492 0.0050309449
-0.0061952947 -0.048941109 0.0051701441
-0.045013003 -0.022433739 0.0053033978
-0.036334068 -0.038656376 0.005347237
-0.032091688 -0.042178258 0.0053486675
-0.043104135 -0.030234376 0.0055699199
-0.039738253 -0.034902886 0.0056131333
-0.0030711666 -0.050791454 0.0056164339
-0.03909656 0.015085217 0.0057150871
-0.044002853 0.0016918797 0.0058319122
-0.044803821 -0.026465803 0.0060308725
-0.020941263 -0.046463653 0.0065481514
-0.044355266 -0.016711794 0.0074250549
-0.041265633 0.0084550157 0.0075154752
-0.017268851 -0.047843847 0.0076153055
-0.043391608 -0.031851817 0.0078883916
-0.041274123 0.012474455 0.0078933984
-0.044554226 -0.0091991834 0.0079626292
-0.034238152 -0.040976785 0.0079882294
-0.039270278 -0.034422603 0.0080591589
-0.044596694 -0.013639661 0.0081209689
-0.03688027 -0.038655065 0.008381024
-0.044617616 -0.0022728117 0.0084117502
-0.0093727279 -0.049063276 0.0086165741
-0.026689213 -0.044880077 0.0091138631
-0.031654764 -0.042261027 0.0091565698
-0.04408117 -0.0050108712 0.0092735142
-0.043444179 0.0030463096 0.009335205
-0.045308486 -0.020568158 0.0094462782
-0.045425318 -0.024644289 0.0094510466
0.0023480467 -0.052307203 0.0096420422
-0.023110433 -0.046609432 0.010010019
-0.0016676206 -0.050929096 0.010128714
-0.044795208 -0.016710574 0.010417327
0.0072590988 -0.052665818 0.011128403
-0.01581675 -0.048255224 0.011191435
-0.042922318 0.0068751536 0.01124166
-0.0042249244 -0.05005046 0.011295028
-0.04453807 -0.0079724286 0.011323825
-0.039578982 -0.034234099 0.011849746
-0.040045433 0.014941975 0.01185225
-0.011040291 -0.048818912 0.011868931
-0.029697247 -0.044310808 0.01207228
-0.043692149 -0.030649442 0.012233928
-0.045687661 -0.026636831 0.012280568
-0.033987358 -0.042256273 0.01231344
-0.03709669 -0.038751204 0.012404755
-0.044554509 -0.011685174 0.01248388
-0.046053849 -0.02192191 0.012580976
-0.018753577 -0.047147062 0.012700357
-0.04478275 0.002525663 0.012873814
-0.0069767563 -0.049716432 0.0129577
-0.044252221 -0.00054854527 0.01328443
-0.044089362 -0.01512827 0.013357952
-0.026371786 -0.045487896 0.013516292
-0.021993808 -0.046550423 0.013870016
0.0039723869 -0.051203404 0.013917692
-0.044212051 -0.017941479 0.014282271
-0.017482549 -0.048157372 0.014346816
-0.043190327 -0.032240391 0.014604881
-0.043835178 0.010937752 0.014615521
-0.042658418 0.0080088377 0.014788195
0.00080997869 -0.049906999 0.014816292
-0.0097511588 -0.048524465 0.015360095
-0.039279357 -0.034647435 0.015558735
-0.033300672 -0.043383297 0.015771016
-0.043355666 -0.010411364 0.015943035
-0.028974947 -0.04512497 0.015977427
-0.043917865 -0.029740822 0.015977457
-0.044110324 -0.006389048 0.016262189
-0.046276107 -0.021726556 0.016320065
-0.045359045 -0.02524179 0.016412422
-0.0056648725 -0.048671369 0.016466565
-0.04426036 -0.0016748877 0.016751036
-0.01441858 -0.048166867 0.016801991
-0.0026768204 -0.049557146 0.01706887
-0.025474388 -0.046477992 0.017155394
-0.043787997 0.0039041582 0.01719819
-0.04350061 -0.017273828 0.017492846
-0.016709143 -0.047869191 0.017656364
-0.044221558 0.0012884643 0.017701045
-0.036780778 -0.039522789 0.01787208
-0.04290881 -0.013362987 0.018134519
-0.020019427 -0.046758175 0.018219158
-0.041797381 0.0085203052 0.018272087
0.0058510657 -0.050692044 0.018369295
-0.03400347 -0.043230541 0.018387839
-0.043023583 -0.031783834 0.018606916
-0.044856265 -0.027609255 0.018658444
-0.030569155 -0.045290664 0.018909767
-0.039976887 -0.035627045 0.018921122
-0.042559817 0.011517882 0.019088224
-0.043964352 -0.0098709352 0.019127086
-0.0085731111 -0.048484601 0.020393349
-0.044358097 -0.00073345564 0.020463988
-0.022393081 -0.046371024 0.0204667
-0.02634754 -0.046113666 0.020635828
-0.044277877 0.0034022555 0.02081506
-0.043950073 -0.0047955578 0.020921305
-0.045426615 -0.019925751 0.020951018
-0.043148719 0.0069697984 0.021152541
-0.043400168 0.0097294655 0.021361604
0.0001388425 -0.049938358 0.021646328
0.0022061914 -0.050265055 0.021847613
-0.019240404 -0.046421684 0.021958217
-0.043310791 -0.0079008192 0.022234067
-0.015117471 -0.047610514 0.022483267
-0.029581549 -0.045140572 0.022499546
-0.042659301 -0.012074555 0.022699907
-0.045199908 -0.026138082 0.022758231
-0.042914733 -0.03206696 0.022898421
-0.045232832 -0.021489285 0.023188487
-0.039686494 -0.035065979 0.023215666
-0.036927458 -0.039073598 0.023304507
-0.034371302 -0.043173417 0.023505762
0.0043713618 -0.050792299 0.023933209
-0.0026677847 -0.049247511 0.023965426
-0.042824913 0.0083500799 0.024337843
-0.044974856 -0.017499721 0.02462624
-0.0064593633 -0.048759364 0.024877377
-0.044471011 0.00040637236 0.024883464
-0.021886677 -0.046557091 0.024920389
-0.04500664 0.0040507764 0.025001749
-0.017409459 -0.046980869 0.025069453
-0.044844575 -0.031261332 0.025094166
-0.043662205 0.0098423921 0.025159433
-0.044496275 -0.015282705 0.025599256
-0.0099722464 -0.048554081 0.026226439
-0.042914871 -0.010582448 0.026308432
-0.04499273 -0.020681623 0.026695386
-0.034841999 -0.041275732 0.026776418
-0.035826556 -0.039974317 0.026784226
-0.043740124 -0.0066058813 0.026884243
-0.013266402 -0.047869772 0.026885547
-0.045599416 -0.025674766 0.027050927
-0.028634083 -0.045780573 0.027170405
-0.044218522 -0.0021817023 0.027277485
-0.041410618 -0.031925723 0.027538404
-0.024312722 -0.046598509 0.027751431
-0.039333936 -0.034448527 0.027758554
-0.0060126651 -0.048167501 0.028221406
-0.0017000977 -0.049659204 0.028265513
-0.017048409 -0.047614556 0.028787173
-0.037098527 -0.038396269 0.028875068
-0.033999674 -0.042665571 0.028902367
0.0017767409 -0.05272571 0.02893386
-0.045422561 -0.027222509 0.029268846
-0.043737326 -0.030671652 0.029277936
-0.044218849 -0.012638659 0.029283687
-0.045481369 0.0063804854 0.029310688
-0.031720497 -0.044832405 0.029312387
-0.039197844 -0.034216195 0.029454455
-0.045009449 0.0093572587 0.029543743
-0.044375494 -0.0092200693 0.030163512
-0.045148909 -0.00097738579 0.030920669
-0.045068614 -0.019340552 0.030935988
-0.044585913 -0.0055113584 0.030984566
-0.03782649 -0.033327915 0.031059429
-0.042226121 0.013032151 0.031078473
-0.023154519 -0.047457356 0.031191602
-0.045517065 0.0031298697 0.031261548
-0.0084014386 -0.048644092 0.031518109
-0.044677101 -0.015511381 0.031539693
-0.027491659 -0.046025183 0.031598613
-0.002235584 -0.05228306 0.031618871
-0.029262058 -0.04499767 0.03291221
-0.01351213 -0.048382849 0.033095278
-0.044352792 -0.011455957 0.033253208
-0.032665782 -0.04219171 0.03344287
-0.035880081 -0.03813111 0.033524022
-0.044797018 0.0078525674 0.033586636
-0.045032039 -0.026011573 0.033590063
-0.045297056 -0.0075843404 0.033706143
-0.038706966 -0.033944868 0.033814862
-0.025759988 -0.046708539 0.033832654
0.0021418203 -0.053199109 0.033845849
-0.042655222 -0.030186797 0.033879027
-0.045677014 -0.02204801 0.033879831
-0.044253681 0.010592852 0.03395997
-0.045950204 -0.0035462193 0.033998594
-0.0023092888 -0.051034901 0.034956194
-0.045490123 -0.018748637 0.035247967
-0.0051267752 -0.048754957 0.035396434
-0.022783194 -0.048021354 0.035453483
-0.045136638 -0.014278893 0.035607263
-0.018600846 -0.048726436 0.035666384
-0.044982344 0.0044695437 0.035740092
0.0010083858 -0.052901346 0.036037244
-0.045541443 -0.009402059 0.036158189
-0.040593497 -0.030627098 0.03680332
-0.01381256 -0.049304858 0.037131436
-0.03170649 -0.04266236 0.037268922
-0.009918727 -0.049126379 0.037375011
-0.03904786 -0.033380151 0.037451193
-0.03463218 -0.039486215 0.037645951
-0.045714155 -0.001870227 0.037677363
-0.024677217 -0.047547985 0.037723199
-0.04468441 0.012048068 0.037843958
-0.027807169 -0.045534067 0.037919298
-0.045901872 -0.0057192752 0.037955388
-0.045860462 -0.020792803 0.038031325
-0.04495912 -0.0249631 0.038072392
-0.046838753 -0.016433578 0.038723573
-0.0054169837 -0.048491415 0.039089717
-0.04516615 -0.0083105732 0.039326951
-0.015498669 -0.048995331 0.039516971
0.0011097752 -0.052452356 0.039528236
-0.044382848 0.010130834 0.039800778
-0.0022888752 -0.05073522 0.039825812
-0.044113569 0.0055402517 0.039990947
-0.036437526 -0.038514212 0.040873513
-0.039044011 -0.035267547 0.040952399
-0.042572241 -0.031130932 0.040974513
-0.044872783 -0.027501937 0.040981159
-0.019365337 -0.048988719 0.041024312
-0.033706315 -0.042611308 0.041417882
-0.0079215933 -0.048825096 0.041971788
-0.045364939 -0.02361582 0.042038962
-0.0032246625 -0.049763847 0.042251006
-0.046593644 -0.015261712 0.042254522
-0.045003466 -0.00087015703 0.042341009
-0.030921826 -0.046222318 0.042498097
-0.04679291 -0.011449527 0.04267548
-0.022121292 -0.048399981 0.042829111
-0.044388525 0.0030735377 0.043024644
-0.045279019 -0.019620903 0.043297157
0.0019919639 -0.051563706 0.043497279
-0.01468214 -0.049025141 0.043727562
-0.045395389 -0.0062900381 0.044006094
-0.00053810515 -0.050915748 0.044277266
-0.011692055 -0.049241651 0.044443861
-0.044889063 0.010861525 0.044467315
-0.044272568 0.0070447996 0.044581786
-0.04439811 -0.0024645627 0.044600353
-0.041622959 -0.031369418 0.044615999
-0.025896624 -0.047801785 0.044664249
-0.03260906 -0.043732852 0.044674203
-0.046471626 0.014032295 0.044965222
-0.0020774119 -0.049740136 0.045437917
-0.044957027 -0.022618437 0.045625493
-0.029299838 -0.046582267 0.045637116
-0.035873409 -0.037907094 0.045827523
-0.04556828 -0.025674602 0.045848832
-0.043869257 0.0017039441 0.04593344
-0.038646452 -0.034165785 0.046050802
-0.044285119 0.0047357045 0.046401963
0.0012016278 -0.051606331 0.046533599
-0.0057790512 -0.049040765 0.046647474
-0.03201469 -0.045889441 0.046850011
-0.017660085 -0.049110398 0.046879157
-0.046502665 -0.014111888 0.046921089
-0.048751734 0.01408712 0.047024265
-0.047076605 -0.010434031 0.047374889
-0.034628488 -0.043247774 0.047461256
-0.046001218 -0.028214581 0.047551557
-0.043868963 -0.031132519 0.047715917
-0.045465954 0.012297612 0.048097953
-0.044707589 -0.0017430317 0.048124954
0.001509862 -0.051271237 0.048135594
-0.03550373 -0.039509438 0.048152342
-0.010777536 -0.049516443 0.04867734
-0.045173645 -0.019812683 0.049423739
-0.023862952 -0.048198868 0.049458787
-0.019595247 -0.049024023 0.050101414
-0.0011116304 -0.050084684 0.050144061
-0.044927254 0.010636464 0.050392196
-0.046392977 -0.015388116 0.050461724
-0.047921605 0.012922298 0.050652787
-0.026993141 -0.047371589 0.050678775
-0.044148218 0.0062208511 0.05084081
-0.0069376756 -0.049746446 0.050886795
-0.01260489 -0.049848296 0.051255092
-0.042610511 0.016126473 0.051409975
-0.03939911 -0.034275711 0.051491871
-0.035819292 -0.038443036 0.051525369
-0.044763371 0.00098788831 0.051582083
-0.046071 -0.0080507509 0.051608428
-0.02994005 -0.046474453 0.051806137
-0.046008572 -0.027088054 0.052029356
-0.015020523 -0.049482141 0.052067354
-0.03366904 -0.043525573 0.052144513
-0.046379574 -0.023287106 0.052157745
-0.04633718 -0.0042158514 0.052426204
-0.043464936 -0.031983472 0.052873418
-0.044275343 0.0032669269 0.053162351
-0.045425408 -0.019014828 0.053253099
-0.022291467 -0.048232604 0.053575352
-0.046214379 -0.01482459 0.053798005
-0.0054132352 -0.050424132 0.054091081
-0.019663479 -0.049336888 0.05413492
-0.046593696 -0.030458346 0.054270372
-0.046654485 -0.011284176 0.055109844
-0.044673264 0.011367153 0.055279002
-0.042982485 0.0085833184 0.055415258
-0.034870643 -0.038439088 0.055591777
-0.03237018 -0.042479396 0.055778399
-0.038268268 -0.035195611 0.055792049
-0.024884211 -0.047977649 0.055814281
-0.010446506 -0.050049249 0.055864081
-0.0034696897 -0.050145153 0.055980131
-0.046108119 -0.0025610514 0.056050077
-0.046417326 0.014184641 0.056052521
-0.046067052 -0.021176796 0.056095883
-0.028834369 -0.046184443 0.056141004
-0.045488462 -0.0063586431 0.056421474
-0.045619301 -0.025033446 0.056431875
-0.013383992 -0.048757158 0.056601092
-0.046598069 -0.01753385 0.056828484
-0.043746464 0.0045128558 0.057343856
-0.043564267 -0.032074902 0.057978317
-0.018235132 -0.048820939 0.057982489
-0.045848757 -0.02841856 0.058070108
-0.046193123 -0.013527924 0.058220133
-0.046265274 -0.010103792 0.058409914
-0.042725876 0.0033152755 0.058548197
-0.045552842 0.012985803 0.058751985
-0.040303163 -0.035169408 0.058931902
-0.031612683 -0.045325287 0.058932081
-0.020238075 -0.048383065 0.059050456
-0.033901162 -0.04293615 0.059127256
-0.037339717 -0.039361507 0.059424803
-0.027295914 -0.046605185 0.059428677
-0.012531581 -0.047995735 0.059631631
-0.045620389 -0.023991019 0.060019568
-0.046296708 -0.015790118 0.060020044
-0.045906812 0.015392318 0.060023144
-0.0086332913 -0.049564242 0.060103491
-0.023678187 -0.047701672 0.060394749
-0.044249818 -0.0048710331 0.060444161
-0.044802517 -0.0014590267 0.060606346
-0.045676388 -0.020325575 0.060786501
-0.043870218 0.007228896 0.061179802
-0.0052178344 -0.051291257 0.061394438
-0.045776829 -0.0083882436 0.061963245
-0.014625494 -0.047882717 0.062142149
-0.045356326 0.010766633 0.062198743
-0.043500304 -0.031360574 0.062518314
-0.029953532 -0.046039425 0.06279926
-0.045744933 -0.027214628 0.063060984
-0.040146407 -0.035528623 0.063112095
-0.011445589 -0.049726684 0.063246027
-0.03674493 -0.038655996 0.06338875
-0.033365041 -0.042718947 0.063500628
-0.045858152 -0.023807049 0.063567564
-0.0078065535 -0.050510041 0.063899949
-0.047146663 0.013660636 0.063909546
-0.0051985662 -0.050990053 0.063966408
-0.044958383 -0.0030919518 0.064649418
-0.045322254 -0.018886723 0.064654961
-0.044473995 0.0043727476 0.064749047
-0.04750143 -0.010786608 0.064834133
-0.047786191 -0.0065384666 0.064844862
-0.045993112 -0.014680003 0.064984575
-0.021596164 -0.047654379 0.065138087
-0.044095702 0.00023100432 0.06521295
-0.017961545 -0.048336279 0.065249935
-0.046536565 0.014810504 0.066201761
-0.01285929 -0.049209997 0.06626682
-0.044339068 -0.03207054 0.066317186
-0.042115543 -0.034684382 0.066326782
-0.046170048 -0.028201398 0.06663318
-0.010077275 -0.050251205 0.06677179
-0.025701981 -0.047215138 0.066901013
-0.0063363286 -0.051199518 0.067086175
-0.032567009 -0.042306118 0.067212328
-0.045653217 -0.025159471 0.067357227
-0.036227666 -0.037988685 0.067382976
-0.046260521 -0.021169884 0.067804739
-0.028664604 -0.046384126 0.068196371
-0.043761946 0.0015860517 0.068267152
-0.047715105 -0.0054804543 0.068402216
-0.045700558 0.0098186731 0.068550274
-0.016755978 -0.049089141 0.069023773
-0.046519816 -0.017359052 0.069054142
-0.044160515 0.005154511 0.069230899
-0.044737458 -0.033434786 0.069269136
-0.047399901 0.01326092 0.069428369
-0.04698994 -0.0095496187 0.069513187
-0.046492815 -0.013201054 0.069674388
-0.047497988 -0.028315257 0.070046976
-0.029926918 -0.045659255 0.070055649
-0.032887787 -0.043057956 0.070143029
-0.04713472 -0.02392203 0.070174471
-0.036210567 -0.039457694 0.07038258
-0.040756263 -0.036534574 0.070383593
-0.045913786 0.015484432 0.070678487
-0.0079944097 -0.051162194 0.070748612
-0.044342667 0.00034149457 0.070916548
-0.0062875971 -0.052510466 0.070935383
-0.019130707 -0.049074017 0.071996406
-0.022541869 -0.047624905 0.072214738
-0.045570426 -0.033603758 0.072214797
-0.026447123 -0.046587039 0.072227791
-0.045973703 -0.020395819 0.072281465
-0.048472114 -0.029817 0.07242386
-0.046547614 -0.015967416 0.072563037
-0.043411307 -0.035928227 0.0729184
-0.046216577 0.01358543 0.073044792
-0.045905754 -0.0038925214 0.07311295
-0.03722702 -0.039687805 0.073412105
-0.045257293 0.010434374 0.073525712
-0.043863639 0.0062671304 0.073533073
-0.012059384 -0.050512288 0.073712364
-0.040481601 -0.036937475 0.07385315
-0.0063351966 -0.05042503 0.073911533
-0.034350973 -0.043869555 0.073922589
-0.045570776 -0.0075172661 0.074164674
-0.046679839 -0.022704627 0.074307993
-0.029983846 -0.045902044 0.074433103
-0.043905608 0.0012830487 0.0750774
-0.004945674 -0.051337469 0.075408444
-0.043908369 0.0045454428 0.075750157
-0.044323139 -0.032595515 0.075803623
-0.017428145 -0.049556274 0.075864181
-0.047268122 -0.02884897 0.075865969
-0.020904073 -0.047480427 0.075974748
-0.041239645 -0.035984211 0.076088682
-0.038013041 -0.039810233 0.076315269
-0.035126343 -0.043229662 0.076359317
-0.04875385 -0.026035227 0.076512381
-0.046184085 -0.014719265 0.076578543
-0.045821719 -0.010557864 0.076863095
-0.045450456 0.014312206 0.076987758
-0.044661604 0.011425678 0.077279314
-0.028444042 -0.046116494 0.078007266
-0.045136899 -0.0063942671 0.078432068
-0.046603717 -0.020874817 0.078473732
-0.024131943 -0.047059614 0.07873781
-0.045174323 -0.0023389813 0.078771695
-0.010111482 -0.050856255 0.078835532
-0.045669265 -0.016935278 0.079052344
-0.044279661 0.0053558424 0.0790952
-0.0065608975 -0.05166119 0.079544976
-0.019625913 -0.047613453 0.079597548
-0.045594878 -0.014101005 0.080015108
-0.016050743 -0.049044769 0.080227867
-0.047272339 0.013475716 0.080457941
-0.030412823 -0.045636628 0.080471501
-0.045582131 -0.0092836739 0.080875799
-0.045327701 0.010297053 0.080886528
-0.012357763 -0.049100425 0.080902085
-0.045705296 0.016310936 0.080948606
-0.045805894 -0.027583234 0.081021681
-0.033807077 -0.043534577 0.081027344
-0.040265676 -0.035237301 0.081063971
-0.043421149 -0.031599544 0.081229255
-0.037579302 -0.039713584 0.081284449
-0.047837153 -0.024491683 0.081504092
-0.045274384 -0.00067454018 0.0822144
-0.046713829 0.012071865 0.08236669
-0.045368582 -0.014937188 0.082369313
-0.022825345 -0.047465153 0.082403228
-0.046544239 0.0066289119 0.082817718
-0.045324065 0.0030404404 0.083020017
-0.045898415 -0.018844113 0.083414122
-0.010603295 -0.051167332 0.08406432
-0.048139304 0.014146337 0.084070459
-0.044513769 -0.012229404 0.084327891
-0.038497098 -0.040999178 0.084506497
-0.014061676 -0.048843715 0.084534511
-0.045313828 -0.0080946982 0.084925726
-0.046189778 -0.0032423874 0.085076585
-0.04563605 -0.027981739 0.085340306
-0.032950435 -0.043714721 0.085398123
-0.044629954 -0.030076593 0.085529849
-0.028724335 -0.046337422 0.085538372
-0.047019221 -0.022244971 0.085836574
-0.024607627 -0.047632445 0.086494073
-0.046920106 0.0089027993 0.086533085
-0.045027047 0.0043570325 0.086987779
-0.017997982 -0.048610479 0.087031797
-0.020849537 -0.048290398 0.087074205
-0.044601656 -0.010221734 0.087284967
-0.044422217 -0.014088523 0.087344036
-0.041201238 -0.036511309 0.087521806
-0.046382517 -0.027494095 0.087814495
-0.038664043 -0.04074531 0.08789821
-0.011643845 -0.050588544 0.087933168
-0.044429727 -0.032674849 0.088017091
-0.034366071 -0.043379195 0.088101938
-0.049558401 0.0114183 0.088123545
-0.044952065 -0.0067135096 0.088236019
-0.047241203 -0.024149438 0.088319078
-0.02779419 -0.046368685 0.088976726
-0.046318315 -0.020583559 0.089360252
-0.045140713 0.0024071559 0.089454845
-0.046460554 -0.0023368392 0.089521661
-0.045981698 -0.017984232 0.089720771
-0.023749266 -0.048069604 0.089964315
-0.047668219 0.013052884 0.091111436
-0.045996077 0.0094282608 0.091446355
-0.015593573 -0.049881931 0.091492042
-0.044419594 -0.012294233 0.091508612
-0.045106299 -0.0085087484 0.091539428
-0.038433179 -0.040219132 0.091919228
-0.012995578 -0.051095363 0.091941223
-0.047095239 -0.022969062 0.092090234
-0.045585684 0.0060290601 0.092147425
-0.046480134 -0.0049927235 0.092176571
-0.034902602 -0.043582615 0.092194036
-0.041264445 -0.036185175 0.09222959
-0.046498604 -0.028049249 0.09229134
-0.031107167 -0.046582762 0.092347994
-0.043862656 -0.032749139 0.092521206
-0.046426393 0.00011118501 0.09303169
-0.046663843 0.0027398784 0.093317971
-0.021647524 -0.04839683 0.09376429
-0.017901739 -0.049528964 0.094057545
-0.045466051 -0.01526399 0.094209835
-0.040927365 -0.036303122 0.095324531
-0.013001329 -0.051287919 0.095401093
-0.038357809 -0.040324822 0.095413014
-0.046501711 -0.026638523 0.095467016
-0.034939576 -0.044548839 0.095612511
-0.026246678 -0.048332959 0.095723614
-0.0444948 -0.032123122 0.095739797
-0.046673059 0.014661165 0.09576644
-0.045605987 0.010234417 0.095785335
-0.046393827 -0.0078161303 0.095830753
-0.046154208 -0.029045884 0.095952138
-0.0486276 -0.025981488 0.096023127
-0.046945602 -0.0030495785 0.096298888
-0.047614969 -0.021462895 0.096421674
-0.046350203 -0.017596303 0.096538648
-0.046854369 0.00075756665 0.096716031
-0.029343577 -0.046937816 0.097355708
-0.021667177 -0.048420906 0.097587213
-0.044773608 0.0060096718 0.097879514
-0.017167017 -0.049819153 0.097910747
-0.047665499 -0.0056319749 0.098263159
-0.045901433 -0.014056286 0.098472938
-0.047014281 -0.010094508 0.098631397
-0.04510434 0.0095635615 0.098840103
-0.014372023 -0.052147355 0.098893359
-0.041388012 -0.036572769 0.099096313
-0.046359621 -0.027984757 0.099115536
-0.04465279 -0.032528311 0.099250183
-0.037948713 -0.040615976 0.099255517
-0.034805506 -0.0445254 0.099337712
-0.045584604 0.015492113 0.099569663
-0.048646383 -0.024495553 0.09957765
-0.045746334 0.0019533373 0.10003252
-0.031060517 -0.045980245 0.10012124
-0.046645939 -0.0018875785 0.10012458
-0.04701449 -0.016707435 0.10075693
-0.023675574 -0.04875261 0.10114275
-0.041449256 -0.038213823 0.10167463
-0.044851206 -0.033922687 0.10175233
-0.047801279 -0.019718723 0.10175394
-0.019516937 -0.050334997 0.10183735
-0.014740349 -0.053555474 0.10203068
-0.046906367 -0.0036708675 0.1023329
-0.04579813 0.010546731 0.10275064
-0.044919401 0.0072043445 0.1027547
-0.046513319 -0.0078117568 0.10282777
-0.029379344 -0.046538588 0.10304724
-0.045904882 0.014637599 0.10329215
-0.047564097 -0.022981074 0.10330959
-0.026303867 -0.048400119 0.10332318
-0.037153065 -0.040805195 0.10355107
-0.045951597 -0.027131213 0.10358123
-0.033675168 -0.04399094 0.10360779
-0.043859929 0.018976159 0.10389005
-0.048327252 -0.018906254 0.10424154
-0.046343707 -0.013685265 0.1046726
-0.045912996 0.0044365916 0.10482357
-0.046435006 -0.010550832 0.10495691
-0.035852589 -0.042737998 0.1050926
-0.03838709 -0.039722987 0.10519408
-0.018359371 -0.051302418 0.1053987
-0.021924339 -0.049408965 0.10547753
-0.014557962 -0.053782746 0.10552613
-0.042027518 -0.037111342 0.10553105
-0.045081444 -0.033180483 0.10557033
-0.047064804 0.00073310267 0.10583158
-0.010606868 -0.055823881 0.10585283
-0.046315499 -0.029921295 0.10625346
-0.045385443 -0.0054564923 0.10676183
-0.04498329 0.0065824147 0.10716031
-0.029646577 -0.046226565 0.10722958
-0.032618247 -0.043715693 0.10731794
-0.047794513 -0.017680125 0.10731931
-0.046159275 0.015475579 0.10738413
-0.046697363 -0.0028200774 0.10746239
-0.025408013 -0.048720904 0.10751848
-0.045682564 0.011512836 0.10757963
-0.047055081 -0.021814138 0.10762571
-0.011514042 -0.052588694 0.10789223
-0.020980861 -0.050388034 0.10791178
-0.050112002 0.015572114 0.10837339
-0.04537297 -0.025187269 0.10845767
-0.0093003446 -0.054870609 0.10856025
-0.0093592871 -0.054896325 0.10858519
-0.045778811 0.0090051703 0.10909729
-0.011976711 -0.052674126 0.10913734
-0.045755707 -0.0090319877 0.10940389
-0.046380743 -0.012924263 0.10969071
-0.01651758 -0.050531399 0.1098458
-0.037463993 -0.039633803 0.1098486
-0.046059005 -0.028696053 0.11024414
-0.045815796 -0.0054175835 0.11024551
-0.04701145 -0.023369543 0.11029743
-0.034183115 -0.043045513 0.11042969
-0.030478472 -0.046616033 0.11074673
-0.041103378 -0.036438383 0.11076032
-0.027384903 -0.048099156 0.11109643
-0.023229213 -0.048739064 0.11123984
-0.044451281 -0.032790881 0.11130442
-0.0081114061 -0.05396872 0.11131753
-0.046771742 0.0029709768 0.11132668
-0.020235535 -0.049599249 0.1116467
-0.045596816 0.016037004 0.1119139
-0.046816833 -0.016209919 0.11233424
-0.045443863 -0.00054248795 0.11233597
-0.045392282 0.011546893 0.11267112
-0.046122447 -0.019581728 0.11284183
-0.047259748 0.0066013746 0.11292653
-0.045052722 -0.0038665785 0.11298572
-0.0069783079 -0.05318645 0.1132849
-0.046710499 0.01536341 0.11342506
-0.015214993 -0.050325811 0.1135491
-0.011979972 -0.052140545 0.11378212
-0.045551345 -0.0080370987 0.11387442
-0.037506804 -0.039804276 0.11403356
-0.043351024 -0.031940922 0.11404727
-0.033604614 -0.04437986 0.11452357
-0.029678069 -0.047363628 0.11475436
-0.047320716 -0.022694889 0.11478381
-0.025053091 -0.048790447 0.11492501
-0.045422152 -0.026864303 0.11515932
-0.006239404 -0.052577261 0.11541586
-0.017241031 -0.049658347 0.11569364
-0.044209599 0.018368967 0.11601038
-0.045188211 0.00080168899 0.11612348
-0.046242818 0.0040475447 0.11633293
-0.045985177 -0.014098884 0.11639284
-0.047321409 0.0080429036 0.11652018
-0.04589913 -0.01025532 0.11705907
-0.014932252 -0.048066862 0.11708973
-0.032010861 -0.046370145 0.11711477
-0.044365317 -0.033190414 0.11712871
-0.041755013 -0.037255723 0.11725138
-0.046198271 -0.0068414211 0.11736156
-0.044976003 0.015566448 0.11743812
-0.035097942 -0.043806307 0.11749305
-0.038269237 -0.04098963 0.1175112
-0.045522384 -0.0024015047 0.11779131
-0.010152224 -0.051606253 0.11807297
-0.024322633 -0.049156357 0.11862577
-0.046185553 0.0013410877 0.1188073
-0.046056651 -0.016655413 0.11902471
-0.046216547 -0.021698173 0.11914115
-0.044713393 -0.025675254 0.11917971
-0.041974921 0.018720943 0.1197352
-0.0069771344 -0.052427892 0.1197667
-0.04698541 0.0054612961 0.11978169
-0.015986454 -0.049970608 0.12005933
-0.047652587 0.012351586 0.12009709
-0.012318836 -0.050877996 0.1202334
-0.046723582 0.0092891343 0.1205018
-0.046398625 -0.0086469138 0.12077694
-0.031019565 -0.047757942 0.12114213
-0.035108313 -0.04465922 0.12132843
-0.04747396 -0.0045623844 0.1213726
-0.045204312 -0.027663667 0.12163396
-0.044428416 -0.031934895 0.12168835
-0.023483396 -0.050079949 0.12185954
-0.045314737 -0.020665763 0.12190546
-0.041839782 -0.037254758 0.12201799
-0.027304374 -0.049415387 0.12207477
-0.038922101 -0.040857211 0.12209906
-0.046570055 0.0028389338 0.12273259
-0.046818942 -0.022569824 0.1228074
-0.041569434 0.017953489 0.12285559
-0.047646679 -0.015569166 0.12310134
-0.0049775653 -0.0517071 0.12346609
-0.0077891671 -0.050647024 0.12375073
-0.019996114 -0.050508235 0.12382783
-0.044116069 -0.03368758 0.12396915
-0.047899194 -0.012111635 0.1240346
-0.010962666 -0.04975697 0.12418549
-0.042077772 -0.037154801 0.12426527
-0.035520397 -0.044830371 0.12439279
0.001222346 -0.051323716 0.1244906
-0.046228841 -0.0068619978 0.12453176
-0.039254934 -0.040771537 0.12462313
-0.046972267 0.013080822 0.12471755
-0.04698693 -0.003101605 0.12501599
-0.046138756 0.011024017 0.12539606
-0.048053056 -0.01798987 0.12587808
-0.025977898 -0.050029248 0.12588318
-0.046820529 -0.022281565 0.12600343
-0.014019039 -0.049161993 0.12613176
-0.030075559 -0.048374988 0.12622581
-0.045671776 -0.027015699 0.12636147
-0.045904286 0.0053318366 0.12681733
-0.045827188 0.0084833335 0.12704362
-0.047116734 -0.0065305466 0.12746231
-0.0028068786 -0.050993007 0.12748377
-0.021686826 -0.05021055 0.12787198
-0.047943763 -0.010285345 0.12800132
-0.017999958 -0.049364183 0.12819658
-0.038503267 -0.041692287 0.12842877
-0.035819054 -0.045402031 0.12844364
-0.046376348 0.013703823 0.12854461
-0.0082714204 -0.049469825 0.12857457
-0.041864425 -0.037450783 0.12872277
-0.045148008 -0.033196181 0.12876706
-0.045701884 -0.029615022 0.12893842
-0.032609515 -0.047522187 0.12897022
-0.046544924 0.001752764 0.12906827
-0.046073347 -0.0022254428 0.12947313
-0.011932314 -0.048603136 0.1294765
-0.053880326 0.015688049 0.12951247
-0.045540847 -0.025588211 0.12960632
-0.024939682 -0.049484886 0.12991516
-0.048619695 -0.016300717 0.12992589
-0.046712309 -0.022531219 0.13025032
-0.048003942 -0.012054945 0.13058682
-0.045216195 0.0055173021 0.13080855
-0.05325938 0.016149648 0.13087218
-0.0020532664 -0.05077368 0.13095717
-0.03652747 -0.045458712 0.1313142
-0.039411612 -0.041855395 0.13138382
-0.045964487 -0.0052035842 0.13140239
-0.046431281 0.0096296724 0.13176756
0.00043108407 -0.053679373 0.13184132
-0.015933808 -0.048602108 0.13189475
-0.050588205 0.013901088 0.1322156
-0.041047767 -0.036661528 0.13233106
-0.026949031 -0.048942335 0.13242145
-0.030660877 -0.047763966 0.13246961
-0.04514721 -0.031976111 0.13252665
-0.045764349 -0.026981872 0.13256995
-0.045534983 -0.00047340058 0.13274969
-0.047042333 -0.0086937994 0.13281293
-0.049237549 -0.019078488 0.1329134
-0.048163407 -0.022123925 0.13309126
-0.051473215 0.012868214 0.1335182
-0.045105837 -0.022389168 0.13361888
-0.046175107 0.0032049045 0.13377611
-0.0077068065 -0.049442843 0.1337804
-0.00025936496 -0.054339267 0.13382484
-0.046611495 0.006765388 0.13422816
-0.0029304838 -0.051324181 0.13422866
-0.036039185 -0.044896767 0.13425712
-0.049328528 -0.015968336 0.13427563
-0.047806039 -0.012623146 0.13436089
-0.039095879 -0.041380692 0.1343971
0.0026749801 -0.055364225 0.13482668
-0.045171641 -0.033810154 0.13486733
-0.041868709 -0.037924018 0.13492282
-0.045859642 0.0099515039 0.13496386
-0.054374807 0.015764674 0.13496839
-0.022410063 -0.049094852 0.13497709
-0.046835229 -0.030071564 0.13502263
-0.032983601 -0.046602096 0.13532354
-0.048501901 0.013554962 0.13550673
-0.046241894 -0.0080061965 0.13567512
-0.019464051 -0.049877048 0.1360548
-0.04671108 -0.0034430595 0.13645063
-0.025273135 -0.048278444 0.13693692
-0.011057219 -0.049573999 0.13703634
-0.046571217 -0.022239706 0.13709648
-0.046826623 0.00062777568 0.13723721
-0.04516916 -0.025968129 0.13723789
-0.04886274 -0.017761094 0.13730346
-0.0027381564 -0.052387886 0.13739191
-0.028766997 -0.047607362 0.13750063
-0.046031728 0.0055637192 0.13758026
-0.05648461 0.019206837 0.13770245
0.00036560651 -0.055241819 0.1379156
-0.048295468 0.012066826 0.13821374
-0.046325706 0.0088482909 0.13827358
-0.031905092 -0.047045682 0.13862438
-0.058053665 0.016529201 0.13872461
-0.046830744 -0.0094162803 0.13894461
-0.017368492 -0.05019597 0.13900532
-0.054924823 0.018421367 0.1390482
-0.044707499 -0.033338159 0.13971768
-0.035304863 -0.044613153 0.13973813
-0.038937308 -0.040738426 0.1398073
-0.041897636 -0.037193738 0.13991041
-0.046264768 -0.029294994 0.13996316
-0.056112394 0.013725469 0.13997291
-0.027712122 -0.046778534 0.14021753
-0.047313794 -0.0055865617 0.14032201
-0.0045129275 -0.051870879 0.14039372
-0.046632193 -0.0023488542 0.14073135
-0.0013105646 -0.054854363 0.14075436
-0.02388012 -0.048143055 0.14099468
-0.047149867 0.0017752796 0.14100538
-0.047382541 -0.01256625 0.14102207
-0.020370075 -0.049750946 0.14112209
-0.0087726656 -0.050381295 0.14113654
-0.044893518 -0.022263745 0.14124815
-0.047875747 -0.017126346 0.14160259
-0.048405655 -0.019965949 0.14209692
-0.055597328 0.011064792 0.14241154
-0.046232797 0.0093984138 0.14252518
-0.052452765 0.012940727 0.14273994
-0.047147155 -0.0084154494 0.14312653
-0.047672018 0.013471423 0.14312892
-0.014818871 -0.049440891 0.14347382
-0.047517501 -0.022209615 0.14364754
-0.046872646 -0.0042949067 0.14383481
-0.030050429 -0.046692859 0.14407001
-0.011024651 -0.049869001 0.14409171
-0.045569845 -0.027465526 0.14422135
-0.038034074 -0.04064928 0.14429893
-0.041243725 -0.036406703 0.14432444
-0.033466615 -0.044400848 0.14437054
-0.044599019 -0.021123948 0.14443697
-0.044190452 -0.0322868 0.14456443
-0.018974802 -0.049088586 0.14458738
-0.0074516525 -0.050572604 0.14483647
-0.047255427 0.0039028265 0.14499454
-0.0035028392 -0.052863408 0.14500205
-0.00052218884 -0.055342536 0.14521419
-0.022511557 -0.047589827 0.14548217
-0.047192223 -0.015142194 0.14569239
-0.04824359 -0.011510015 0.14624982
-0.034897961 -0.043036517 0.14628009
-0.047353446 0.0077567063 0.1463009
-0.0437904 -0.033599079 0.14631189
-0.036790553 -0.040640309 0.14631738
-0.014340297 -0.049522802 0.1465634
-0.041449625 -0.03709837 0.14690723
-0.047211319 0.0010208599 0.14728074
-0.0098467916 -0.050341263 0.14752834
-0.032403123 -0.044985838 0.14756037
-0.04813236 0.014929319 0.14758484
-0.043407433 -0.030439682 0.14764766
-0.047408931 -0.0028170273 0.14800642
-0.028501526 -0.046515144 0.14815487
-0.04635261 -0.021728111 0.14824577
-0.047610052 -0.017825227 0.14831828
-0.045199379 -0.026212998 0.14845954
-0.023777071 -0.047224686 0.14875065
-0.016985126 -0.049306951 0.14931436
-0.04817757 0.012699479 0.14934193
-0.037749387 -0.040772274 0.14977916
-0.040993094 -0.036564179 0.14982168
0.0010373667 -0.055157822 0.14984189
-0.046213828 0.017117016 0.1498441
-0.047772676 0.0088896323 0.14988621
-0.0023614243 -0.052202933 0.14995156
-0.048434161 -0.0064233742 0.14997821
-0.048190534 -0.0098198028 0.15046512
-0.034910373 -0.044269592 0.15049128
-0.043660935 -0.032128606 0.15065591
-0.012243781 -0.04968635 0.15080412
-0.044948019 -0.028028427 0.15096717
-0.0076406347 -0.049920894 0.15117405
-0.0043167975 -0.050826177 0.15124233
-0.045270376 -0.024249028 0.15162967
-0.047650754 0.0057102088 0.15173693
-0.032032393 -0.046546828 0.15199013
-0.046969116 0.0024288446 0.15199302
-0.046459839 -0.02177636 0.15208493
-0.046954602 -0.00091567263 0.15208612
-0.023242839 -0.048862677 0.15230446
-0.018657604 -0.049287729 0.15250267
-0.04879564 -0.016828785 0.15266733
-0.0011496358 -0.051622823 0.15293764
-0.048540592 -0.013205578 0.1531188
-0.043662138 -0.035075597 0.15341257
-0.037759535 -0.043726794 0.15354092
-0.039580129 -0.041320369 0.15355538
-0.04231105 -0.037710488 0.15357701
0.002109291 -0.054616775 0.15402089
-0.012731973 -0.049543612 0.15409307
-0.04718858 0.010006946 0.15421502
-0.033063412 -0.046257675 0.15431519
-0.025896098 -0.048490386 0.15434791
-0.048489466 0.013418013 0.15442167
-0.047528163 -0.008026476 0.15447934
-0.04527054 -0.030759148 0.15454282
-0.0061833523 -0.048816014 0.15454523
0.0027490985 -0.057118624 0.1545745
0.0045042802 -0.056848634 0.15457813
-0.046010472 -0.027417589 0.15469117
-0.047669075 -0.0042555239 0.15470888
-0.029351531 -0.047674693 0.15474738
-0.047178008 -0.022386253 0.15524442
-0.048489608 -0.018240169 0.15549843
-0.019034283 -0.050118931 0.15562086
-0.002906207 -0.051260713 0.15600334
-0.00020447094 -0.053295366 0.15620904
-0.04640606 0.008348858 0.15628551
-0.046155147 0.0038197022 0.15676029
-0.035230968 -0.044770077 0.15690051
0.0037164856 -0.054683525 0.15702574
-0.041800626 -0.037075285 0.15721373
-0.044567578 -0.03348897 0.15724985
-0.048225626 -0.010972917 0.15726869
-0.01131344 -0.048459411 0.1574554
-0.039104 -0.041137673 0.1575164
-0.048064515 -0.014962995 0.15760283
0.0066068061 -0.056163307 0.15774108
-0.047239035 -0.021326816 0.15787242
-0.02799353 -0.048292994 0.15802734
-0.046737351 -0.029009078 0.15803401
-0.031908486 -0.046930544 0.15804578
-0.025314791 -0.050231103 0.15846501
-0.0077435561 -0.049617797 0.15846567
-0.0482345 0.016538128 0.15853383
-0.048114151 -0.025105163 0.15887384
-0.046915688 -0.0034336541 0.15910749
-0.047146894 -9.8199584e-05 0.15928327
-0.048017666 -0.017843079 0.15957846
-0.020434327 -0.051009424 0.15964358
0.0019480456 -0.053675395 0.15995352
0.0048976 -0.055426862 0.16004319
-0.048468292 0.012950365 0.16009133
-0.04760354 0.009179648 0.16048317
-0.041188758 -0.037210543 0.1609699
-0.0016073268 -0.05143505 0.16098969
-0.015822783 -0.049668409 0.16127522
-0.045271911 -0.033456385 0.1613314
-0.030605515 -0.047565799 0.16140331
-0.0078299176 -0.049982455 0.16140808
-0.038291015 -0.041906349 0.16150825
-0.04752811 -0.029034395 0.16157834
-0.026715245 -0.050327677 0.16165592
-0.048364006 -0.0091121634 0.16179226
-0.048559874 -0.023714004 0.16183381
-0.034785803 -0.045201421 0.16186012
-0.047754802 -0.0052017439 0.16213273
0.0099717714 -0.055562336 0.16218291
-0.047184311 0.0074006822 0.16268106
-0.047270112 0.0030261353 0.16322576
-0.047653846 -0.015569599 0.16326882
-0.047543705 -0.011714263 0.16342534
-0.052907526 0.012382867 0.16375242
-0.048984103 -0.026769787 0.16410817
-0.0050593521 -0.051311154 0.1642466
-0.020604186 -0.050557718 0.16429047
-0.042320944 -0.037950084 0.16436855
-0.048561648 0.011434762 0.16437368
-0.047690272 0.010175809 0.16438727
-0.047381014 -0.007103276 0.16449617
-0.03649161 -0.044234835 0.16450636
-0.039310392 -0.041480884 0.16460477
0.00017799251 -0.052094135 0.16460486
-0.045743257 -0.033968467 0.16479866
0.007700054 -0.055184081 0.16482009
-0.048203059 -0.02963502 0.16490583
-0.010664117 -0.050593972 0.16505636
0.0035823174 -0.053586628 0.16510941
-0.033659317 -0.045371711 0.16520862
-0.02610106 -0.050035615 0.16545956
-0.029939543 -0.047756054 0.16561012
-0.047728866 -0.00027104281 0.16561811
-0.014994467 -0.050116796 0.16584282
-0.047108293 -0.0042903805 0.16604604
-0.048313588 -0.022419985 0.16617034
-0.048905261 -0.018779028 0.16650178
-0.0024387985 -0.051375736 0.16711847
-0.047309019 0.0086810142 0.16715352
-0.049951859 0.012398003 0.16717975
0.004514385 -0.053818792 0.16775663
-0.048178419 -0.010062829 0.16781466
-0.016722547 -0.049904719 0.16781695
-0.046460286 0.0046347231 0.16804977
0.0080350153 -0.05516677 0.16815953
-0.031624369 -0.047995728 0.16848879
-0.045082502 -0.033753231 0.16855244
-0.049402632 -0.025313519 0.16856931
-0.035398502 -0.044811085 0.16878991
-0.038892865 -0.04102736 0.16884033
-0.041715682 -0.03750395 0.16890334
-0.047593541 -0.029249784 0.1690089
-0.0098798443 -0.051327173 0.16968657
-0.021099422 -0.050167877 0.16978668
-0.047681816 -0.0024988018 0.16994111
-0.024345517 -0.049370565 0.17014869
-0.04791484 0.00075906701 0.17049854
-0.0484474 0.011954017 0.17054532
-0.049793802 -0.014038257 0.17068906
-0.046004541 -0.033733614 0.17084144
-0.049459018 -0.017782144 0.1709861
0.0033673923 -0.053121004 0.17106624
-0.046779208 0.0083922781 0.17109935
0.0056299418 -0.055300858 0.17168279
-0.001005657 -0.050958749 0.17177455
-0.038246065 -0.041212901 0.1717792
-0.016003516 -0.050308261 0.17197888
-0.034583978 -0.045507237 0.17202847
-0.042925816 -0.036154013 0.17203267
-0.048376381 -0.0087393671 0.17207973
-0.049831957 -0.019733617 0.17222963
-0.0477513 -0.0050910544 0.17269526
-0.048493706 -0.023404241 0.17271982
-0.030917674 -0.048272464 0.172922
-0.046703957 -0.027858773 0.17313378
-0.026167218 -0.048983887 0.17319225
-0.013856098 -0.05182606 0.17334037
-0.044196695 -0.033288866 0.17411284
-0.018588699 -0.050072856 0.17422189
-0.047700956 0.0029189568 0.17427061
-0.045981303 -0.030308155 0.17451923
-0.041566424 -0.037258729 0.17456691
-0.02199496 -0.049068168 0.17459752
-0.047128804 0.0067082793 0.17462628
-0.038553998 -0.041275539 0.17479308
-0.0070291311 -0.050989941 0.1748638
-0.048789591 -0.011433158 0.17488162
-0.035676293 -0.045106933 0.17510538
-0.032685257 -0.047070075 0.17527913
0.0061458144 -0.054601658 0.17534207
-0.049110316 -0.019023586 0.1757469
-0.048020117 -0.0167142 0.17602186
0.00010822713 -0.050186437 0.17604141
0.0034785997 -0.05241387 0.17638801
-0.011135157 -0.050371438 0.17689179
-0.048027851 -0.00017843489 0.17697646
-0.047069959 -0.0038152803 0.17701732
-0.04630062 -0.022585528 0.17702
-0.04569909 -0.018730031 0.17712305
-0.024559215 -0.048543364 0.17730288
-0.045301475 -0.028563436 0.17732637
-0.027799707 -0.047326345 0.17759316
-0.0012507206 -0.050202429 0.17762797
0.0040920135 -0.056906831 0.17783184
-0.042303745 -0.032253474 0.17786215
-0.04421569 -0.025826581 0.17806666
-0.031449541 -0.046759717 0.17841597
-0.016580628 -0.048877414 0.17842369
-0.047141254 0.0072032381 0.17889281
-0.047001362 -0.0099533396 0.17890127
-0.012873992 -0.04838093 0.17894621
-0.040284745 -0.036544353 0.17906265
-0.041236997 -0.029852537 0.17907803
-0.0077212225 -0.048326593 0.17920111
-0.034996483 -0.044522561 0.1792051
-0.020142451 -0.047283474 0.17933051
-0.045394488 -0.01497246 0.17942114
-0.0057966653 -0.048857443 0.17944066
-0.038397245 -0.041297469 0.17946814
-0.042566746 -0.01828975 0.17951314
-0.046842203 -0.0055344412 0.17959054
-0.023014685 -0.046692617 0.17963494
-0.046950765 0.0047729425 0.17980228
-0.042207174 -0.021647148 0.17984669
-0.0081889238 -0.045924321 0.180429
-0.046499513 0.0023288429 0.18069975
-0.015564177 -0.04618581 0.18075477
-0.015229832 -0.0035900045 0.18085115
-0.018175639 -0.043329056 0.18088345
-0.024724271 -0.017294105 0.1808929
-0.017408807 -0.019393673 0.18103863
-0.041736238 -0.024637567 0.18104176
-0.031642646 -0.017558597 0.18109004
-0.032277644 -0.042119522 0.18111725
-0.033976797 -0.014557511 0.18112378
-0.022917954 -0.021417176 0.18118922
-0.03820803 -0.021902082 0.18119268
-0.037888065 -0.035081252 0.18123119
-0.026383886 -0.044899173 0.18124144
0.0049579516 -0.051115151 0.18124424
-0.011824062 -0.045669377 0.18127815
-0.036871005 -0.020330586 0.18134256
-0.035609156 -0.038849771 0.18135194
-0.044482462 -0.0085140802 0.18139224
-0.038815238 -0.015873274 0.18140025
-0.030804314 -0.020472424 0.18140872
-0.038017854 -0.028703827 0.18148176
0.0028872732 -0.048083141 0.18151964
-0.045714498 0.0073612817 0.1816126
-0.046120621 -0.0049606711 0.1816148
-0.044141877 -0.0012725294 0.18161796
-0.020644598 -0.015053976 0.18167673
-0.014155205 -0.042310946 0.18168764
-0.012922374 -0.0204031 0.18168955
0.00017295592 -0.047256216 0.1817209
-0.016468555 -0.016258828 0.18181352
-0.025927912 -0.021233741 0.18189238
-0.0056630205 -0.022615716 0.18189488
-0.03131137 -0.01390025 0.18189614
-0.0089682098 -0.00010503363 0.18190433
-0.018562004 -0.013926207 0.18190698
-0.010532294 -0.0070609287 0.181908
-0.02822306 -0.013944016 0.18192343
-0.032775789 -0.012127057 0.18193685
-0.040596709 -0.0049412521 0.18194757
-0.024087574 -0.041196994 0.18196072
-0.029795563 -0.040652283 0.18197076
-0.012614283 -0.022766119 0.18203263
-0.0032992885 -0.045838416 0.18211941
-0.025930773 -0.039626524 0.18213235
-0.0116637 0.0019693766 0.18218397
-0.023047328 -0.011569872 0.18218563
-0.0093823252 -0.019367002 0.18221708
-0.0025111027 -0.02608788 0.18227084
-0.0034536412 -0.018867124 0.18227886
-0.042735636 -0.013261451 0.18227999
-0.012732119 -0.015465762 0.18233757
-0.037837118 -0.009209008 0.18234451
-0.036154367 -0.032999944 0.18237539
-0.020848909 -0.0047535123 0.18240337
-0.00030446146 -0.02409523 0.18243961
-0.033500686 -0.024745252 0.18245928
-0.0081444103 -0.013537575 0.18246792
-0.0063544442 -0.01604872 0.18247901
-0.02485792 -0.0086462563 0.18249445
-0.0074348152 -0.0050518587 0.18257444
-0.018811375 -0.0088242609 0.18262897
-0.0010487325 -0.042182826 0.18267016
-0.0064973221 -0.034815282 0.18268417
-0.03337976 -0.036740948 0.18269269
-0.016420813 -0.01270914 0.18273722
-0.0095356191 -0.038978368 0.18291764
-0.020495007 -0.039781891 0.18296464
-0.016796729 -0.039918337 0.18300374
-0.029830674 -0.0095677208 0.18308483
-0.0062990105 -0.041829038 0.18321328
-0.00092436839 -0.028568435 0.18336718
-0.033676438 -0.0064830594 0.18347032
-0.034229401 -0.010211377 0.18349288
-0.023647342 -0.03699407 0.18354402
-0.027751626 -0.037074998 0.18364839
-0.014387789 0.0014967173 0.18369849
-0.0049119592 -0.0073695714 0.18377922
-0.00041148253 -0.019292181 0.18379037
-0.011815445 -0.033995084 0.18382327
-0.0076778773 -0.031067032 0.18386133
-0.013736868 -0.031603586 0.18386476
-0.036557332 -0.0026585432 0.18387614
-0.015764013 -0.035555534 0.18389849
-0.0038225651 -0.015072262 0.18395244
-0.0068085291 -0.011305006 0.18396185
-0.042111903 0.00064040162 0.18399267
-0.04505451 0.0044616479 0.18413074
-0.029737215 -0.028886147 0.18419336
-0.034357365 -0.031282105 0.18423025
0.0064608734 -0.04836861 0.18428345
-0.0068172794 0.0012813872 0.18432058
-0.0044040671 -0.0026728353 0.18443207
-0.0033017546 -0.033655763 0.18443315
-0.0054192524 -0.037437387 0.18443738
0.004921142 -0.045747772 0.18452601
0.0014369981 -0.023647167 0.18456309
-0.00090242922 -0.044386774 0.18457328
-0.018786896 -0.033245463 0.18460734
-0.030853834 -0.034911066 0.18463175
-0.026644867 -0.0051101055 0.18463416
-0.022586085 -0.034307554 0.18494843
-0.025304493 -0.030692395 0.18496604
-0.0014124643 -0.0010154704 0.18503337
-0.0020498754 -0.0076464438 0.18504749
-0.010649519 0.0045419652 0.18505444
-0.027046718 -0.033243291 0.18507974
-0.0045294259 0.0025950894 0.18514459
-0.039748028 0.0023583211 0.18517487
-0.034221236 -0.00016768556 0.18519412
0.0021592788 -0.041992076 0.18523191
-0.043389846 0.0054985974 0.18524097
-0.0016403636 -0.038350739 0.18524404
-0.034802124 0.0068968236 0.18526001
-0.031740747 -0.0035330327 0.18531822
0.0083554536 -0.043994866 0.18540244
-0.028478585 -0.0025907401 0.1854075
-0.036603399 0.0076451078 0.1855589
0.00034254882 -0.0041096983 0.18567799
0.0038436204 -0.025915345 0.18569277
0.0020022774 -0.010997587 0.18593578
0.0016797585 -0.029789869 0.18608604
-0.031119598 0.0024179108 0.18609487
8.6779706e-05 -0.00011065323 0.18611561
0.0043444503 -0.015310799 0.18612401
-0.0025107795 0.0029035751 0.18620692
0.0057098176 -0.018470252 0.1863427
0.0040894728 -0.032466631 0.18676017
0.0038794 -0.022345606 0.18690144
-0.036763415 0.0032197367 0.18724947
-0.041149274 0.0057945456 0.18747638
0.0063867662 -0.026146755 0.18748702
-0.029720897 0.0021417718 0.18798105
-0.027515437 -4.8349611e-05 0.1886126
-0.030091191 -0.00048179273 0.19006328
-0.040126584 0.0017199125 0.1905023
-0.037305064 0.0025045834 0.19123958
