# .PCD v0.7 - Point Cloud Data file format
VERSION 0.7
FIELDS x y z
SIZE 4 4 4
TYPE F F F
COUNT 1 1 1
WIDTH 1130
HEIGHT 1
VIEWPOINT 0 0 0 1 0 0 0
POINTS 1130
DATA ascii
5.2392711e+28 -0.057145137 -4.9197764e+11
4.7117794e+28 -0.05705896 -4.912357e+11
1.884552e+28 -0.056814369 -4.8912997e+11
4.6836761e+28 -0.05669681 -4.8811786e+11
1.2557193e+28 -0.056695014 -4.881024e+11
5.0150026e+28 -0.056684256 -4.8800976e+11
4.6632585e+28 -0.056665424 -4.8784766e+11
5.0228015e+28 -0.056632251 -4.8756205e+11
4.9418182e+28 -0.056591302 -4.872095e+11
5.5950277e+28 -0.056430399 -4.8582427e+11
4.8753764e+28 -0.056370225 -4.853062e+11
6.4372679e+28 -0.05633954 -4.8504203e+11
5.6558131e+28 -0.056278367 -4.8451538e+11
4.5544132e+28 -0.056260135 -4.8435842e+11
4.7634005e+28 -0.056223072 -4.8403933e+11
5.1539809e+28 -0.056176547 -4.8363877e+11
5.0398101e+28 -0.056104116 -4.830152e+11
4.1345981e+28 -0.056092858 -4.829183e+11
4.9686842e+28 -0.056067057 -4.8269613e+11
3.1684423e+28 -0.056003291 -4.8214717e+11
4.7000736e+28 -0.055989344 -4.8202711e+11
4.1175518e+28 -0.055957962 -4.8175691e+11
3.9854828e+28 -0.055892106 -4.8118995e+11
5.0992373e+28 -0.055830937 -4.8066331e+11
5.403675e+28 -0.055757906 -4.8003459e+11
5.0249663e+28 -0.055648316 -4.790911e+11
5.3204131e+28 -0.055608064 -4.7874458e+11
4.5529875e+28 -0.055598304 -4.7866053e+11
3.8906888e+28 -0.05553484 -4.7811415e+11
3.7596077e+28 -0.055513419 -4.7792973e+11
3.7363921e+28 -0.055471774 -4.7757119e+11
2.2759469e+28 -0.055409905 -4.7703854e+11
3.5549573e+28 -0.055396553 -4.7692363e+11
4.7792771e+28 -0.055360489 -4.7661312e+11
1.6545361e+28 -0.055335481 -4.7639783e+11
2.7803133e+28 -0.055334385 -4.7638839e+11
3.6154934e+27 -0.055330999 -4.7635923e+11
3.7849656e+28 -0.055275504 -4.7588147e+11
5.7262372e+28 -0.055235952 -4.7554095e+11
4.7378313e+28 -0.055084914 -4.7424065e+11
3.8217354e+28 -0.054871611 -4.7240423e+11
3.5114976e+28 -0.054868024 -4.7237336e+11
2.7101831e+28 -0.054790013 -4.7170175e+11
1.5085587e+28 -0.054763913 -4.7147703e+11
3.627848e+28 -0.054738607 -4.7125915e+11
4.4298338e+28 -0.054735716 -4.7123428e+11
6.3549868e+28 -0.054718979 -4.710902e+11
5.3249914e+28 -0.054713797 -4.710456e+11
5.1980892e+28 -0.054690983 -4.7084916e+11
5.4164594e+28 -0.054684509 -4.7079342e+11
5.3808514e+28 -0.054615565 -4.7019986e+11
5.2006761e+28 -0.054521214 -4.6938761e+11
3.8644032e+28 -0.054519024 -4.6936873e+11
3.5880765e+28 -0.054508861 -4.6928124e+11
5.0714811e+28 -0.054449882 -4.6877347e+11
4.0024837e+28 -0.054363802 -4.6803239e+11
3.824345e+28 -0.054339591 -4.6782395e+11
5.2316836e+28 -0.054307811 -4.6755034e+11
1.5213432e+28 -0.054295458 -4.6744397e+11
3.6993057e+28 -0.054247435 -4.6703054e+11
3.9347218e+28 -0.054215554 -4.6675608e+11
3.3100828e+28 -0.054212168 -4.6672691e+11
4.1632218e+28 -0.054166637 -4.6633494e+11
2.1301807e+28 -0.054164845 -4.6631951e+11
2.463868e+28 -0.054158669 -4.6626632e+11
5.4820337e+28 -0.054117821 -4.6591466e+11
3.8193669e+28 -0.054056846 -4.6538972e+11
4.1480082e+28 -0.053991489 -4.6482706e+11
5.6615073e+28 -0.053979635 -4.6472498e+11
5.0685995e+28 -0.053910691 -4.6413142e+11
3.8304921e+28 -0.053906705 -4.6409712e+11
5.3286947e+27 -0.053897738 -4.6401991e+11
-6.4427211e+27 -0.053885784 -4.6391699e+11
3.9022515e+28 -0.05384424 -4.6355933e+11
4.4225326e+28 -0.053834774 -4.6347783e+11
5.392655e+27 -0.053808473 -4.6325141e+11
2.2105081e+28 -0.053776093 -4.6297265e+11
2.6390423e+28 -0.053771511 -4.6293316e+11
4.241588e+28 -0.053742915 -4.6268701e+11
-3.2086362e+28 -0.053728469 -4.6256262e+11
1.8173784e+28 -0.053713229 -4.6243142e+11
5.5822734e+27 -0.053679653 -4.6214234e+11
5.2469194e+28 -0.05366182 -4.6198882e+11
3.6116392e+28 -0.053588092 -4.6135411e+11
3.2756438e+28 -0.053554419 -4.6106418e+11
2.3435879e+28 -0.053544853 -4.6098183e+11
-1.9251305e+28 -0.053530209 -4.6085577e+11
3.3352145e+28 -0.053508192 -4.6066621e+11
3.6793784e+27 -0.053507991 -4.6066447e+11
1.0250624e+28 -0.053476211 -4.6039086e+11
1.6922787e+28 -0.053462762 -4.6027506e+11
6.2238382e+27 -0.053462561 -4.6027335e+11
8.1774186e+27 -0.053446122 -4.6013183e+11
2.7928337e+28 -0.053434368 -4.6003061e+11
5.9624906e+27 -0.053402785 -4.5975873e+11
6.5036644e+27 -0.05336871 -4.5946536e+11
3.7778757e+28 -0.053358547 -4.593779e+11
-1.5914657e+28 -0.05333982 -4.5921662e+11
2.0750074e+28 -0.053336632 -4.5918919e+11
3.7612974e+28 -0.053331748 -4.5914715e+11
1.2551083e+28 -0.05328054 -4.5870629e+11
1.3298922e+27 -0.053260114 -4.5853046e+11
1.7470673e+28 -0.053220365 -4.5818823e+11
2.3766391e+27 -0.053212292 -4.5811873e+11
-1.2509524e+28 -0.053195655 -4.579755e+11
2.4918582e+28 -0.053179715 -4.5783826e+11
-9.9875418e+27 -0.053176127 -4.578074e+11
1.6853622e+28 -0.053172641 -4.5777735e+11
4.365315e+28 -0.053163975 -4.5770274e+11
3.8396563e+28 -0.053144246 -4.575329e+11
1.0548325e+28 -0.053141259 -4.5750718e+11
3.8304996e+28 -0.053134881 -4.5745229e+11
-1.9888797e+27 -0.053128406 -4.5739652e+11
2.8927567e+28 -0.053092938 -4.5709119e+11
2.5391421e+28 -0.053080484 -4.5698397e+11
3.8824901e+28 -0.053077497 -4.5695825e+11
1.4506021e+28 -0.053052191 -4.5674037e+11
1.8862188e+28 -0.053040136 -4.566366e+11
3.6443359e+28 -0.053030573 -4.5655425e+11
1.3678007e+28 -0.053010646 -4.5638271e+11
5.2078942e+28 -0.053003471 -4.5632094e+11
3.0807308e+27 -0.052997693 -4.562712e+11
2.5608796e+28 -0.052971393 -4.5604474e+11
-1.5159579e+28 -0.052949276 -4.5585433e+11
2.1966678e+28 -0.052944094 -4.5580973e+11
-1.5321138e+28 -0.052942298 -4.5579429e+11
2.0914953e+28 -0.052929148 -4.5568108e+11
2.6661879e+28 -0.052918788 -4.5559185e+11
1.0170296e+27 -0.052907728 -4.5549666e+11
6.7172676e+27 -0.052890591 -4.5534914e+11
1.9444392e+28 -0.05287734 -4.5523504e+11
-1.3169417e+28 -0.052873157 -4.5519903e+11
2.4272493e+27 -0.052871067 -4.5518101e+11
3.3348901e+28 -0.052811887 -4.5467153e+11
1.11917e+28 -0.05280003 -4.5456946e+11
2.0694938e+28 -0.052756295 -4.5419292e+11
8.1114218e+27 -0.052752905 -4.5416376e+11
-2.0550122e+28 -0.052747626 -4.5411828e+11
1.9837507e+28 -0.052725706 -4.539296e+11
4.5305487e+28 -0.052704588 -4.5374774e+11
-1.7672209e+28 -0.052681074 -4.5354533e+11
2.528296e+28 -0.052655868 -4.5332831e+11
4.179717e+28 -0.052630663 -4.5311132e+11
2.258222e+28 -0.052583039 -4.5270132e+11
4.9640832e+28 -0.052577261 -4.5265158e+11
9.9592572e+27 -0.052569687 -4.5258637e+11
-3.2058455e+28 -0.052563112 -4.5252978e+11
4.2378696e+28 -0.052559726 -4.5250062e+11
2.5133771e+28 -0.052544381 -4.5236853e+11
-5.8860851e+27 -0.052536514 -4.5230077e+11
2.3332471e+28 -0.052535616 -4.5229303e+11
9.8207768e+27 -0.052517284 -4.5213522e+11
4.8759945e+27 -0.052489687 -4.5189762e+11
-2.0604278e+28 -0.052487496 -4.5187875e+11
3.117606e+28 -0.052483212 -4.5184188e+11
4.832467e+28 -0.05248291 -4.518393e+11
1.8799284e+28 -0.052475937 -4.5177926e+11
2.5620864e+28 -0.052471057 -4.5173722e+11
2.7296957e+28 -0.052386772 -4.5101158e+11
2.6046713e+28 -0.052266318 -4.499746e+11
5.4444796e+28 -0.052257951 -4.4990254e+11
1.4242714e+28 -0.052225072 -4.4961949e+11
-2.7898622e+28 -0.052197177 -4.4937934e+11
1.0913231e+27 -0.052192494 -4.49339e+11
4.7154378e+28 -0.052184924 -4.4927382e+11
8.7234198e+27 -0.052172169 -4.4916405e+11
1.2617759e+28 -0.052158322 -4.4904481e+11
3.2901178e+28 -0.052135605 -4.4884925e+11
-2.9597944e+28 -0.052134611 -4.4884066e+11
-9.0397517e+27 -0.052117374 -4.4869229e+11
-3.1778782e+27 -0.052112892 -4.4865369e+11
6.5049314e+28 -0.052108407 -4.4861509e+11
-2.7586662e+28 -0.05201954 -4.4784999e+11
2.8700463e+28 -0.052007884 -4.4774965e+11
-1.0033927e+28 -0.05200569 -4.4773078e+11
5.796405e+27 -0.05199533 -4.4764158e+11
-2.502101e+28 -0.05193625 -4.4713293e+11
2.5149081e+28 -0.051925987 -4.4704458e+11
2.1944955e+28 -0.051917817 -4.4697426e+11
1.223362e+28 -0.051871989 -4.465797e+11
-1.1113258e+28 -0.051869199 -4.4655568e+11
-1.2791916e+28 -0.051867805 -4.4654366e+11
5.890007e+27 -0.051866908 -4.4653596e+11
4.3705044e+28 -0.051862326 -4.4649651e+11
2.8829592e+28 -0.051827852 -4.4619973e+11
1.0133338e+28 -0.051824965 -4.4617486e+11
-7.7060131e+27 -0.051819783 -4.4613026e+11
-2.9620118e+28 -0.051814701 -4.4608651e+11
-2.6689257e+28 -0.051814605 -4.4608566e+11
2.5931086e+26 -0.051775649 -4.4575028e+11
5.2731597e+28 -0.051761203 -4.4562589e+11
2.9695846e+28 -0.051752634 -4.4555213e+11
2.8876128e+28 -0.051750343 -4.4553241e+11
3.3854324e+28 -0.051748648 -4.4551782e+11
-1.3550011e+28 -0.051741872 -4.454595e+11
4.1267009e+28 -0.05173241 -4.45378e+11
-2.0797817e+28 -0.05172364 -4.4530254e+11
-5.914143e+27 -0.051693454 -4.4504266e+11
-6.4593898e+28 -0.051686481 -4.4498259e+11
-2.5152098e+28 -0.051677115 -4.4490198e+11
-2.6397063e+28 -0.051661871 -4.4477075e+11
2.62487e+28 -0.051625807 -4.4446024e+11
2.5475972e+28 -0.051614549 -4.4436331e+11
1.8151006e+28 -0.051573601 -4.4401079e+11
-4.5882787e+28 -0.051542319 -4.4374147e+11
2.3489733e+28 -0.05153903 -4.4371316e+11
2.1950235e+28 -0.051538829 -4.4371146e+11
-2.7389804e+28 -0.051534746 -4.436763e+11
-2.4320764e+27 -0.051525582 -4.4359736e+11
9.773938e+27 -0.051515616 -4.435116e+11
6.3860013e+27 -0.051515318 -4.4350901e+11
-2.8223249e+28 -0.051510237 -4.4346527e+11
-5.4326305e+27 -0.051501472 -4.433898e+11
9.4552674e+27 -0.051494595 -4.4333063e+11
2.9919405e+28 -0.05149021 -4.4329288e+11
3.0263493e+28 -0.051476862 -4.4317793e+11
8.8118934e+27 -0.051475067 -4.4316249e+11
4.7818645e+27 -0.051466003 -4.4308444e+11
-1.2495571e+28 -0.051456537 -4.4300298e+11
3.7838795e+28 -0.051436611 -4.4283141e+11
2.187134e+28 -0.051422663 -4.4271134e+11
3.2341073e+28 -0.051412899 -4.4262729e+11
-1.860446e+28 -0.051388688 -4.4241886e+11
1.5996116e+27 -0.05136697 -4.4223185e+11
3.0822921e+28 -0.051358305 -4.4215724e+11
2.8027297e+28 -0.051342163 -4.420183e+11
-4.9486289e+27 -0.051321641 -4.4184158e+11
-4.5386945e+27 -0.051319845 -4.4182615e+11
1.1153007e+28 -0.051314466 -4.4177985e+11
4.5189482e+28 -0.051309086 -4.4173351e+11
-1.3006801e+28 -0.051308189 -4.4172581e+11
3.7525178e+28 -0.051301215 -4.4166575e+11
-2.0839e+28 -0.051278003 -4.414659e+11
2.6143786e+28 -0.051276211 -4.4145046e+11
4.8681804e+28 -0.051276211 -4.4145046e+11
-1.4680706e+28 -0.05127611 -4.4144961e+11
8.1722146e+27 -0.051275909 -4.4144791e+11
-2.2001298e+28 -0.051270429 -4.4140072e+11
-4.5234586e+27 -0.051266145 -4.4136386e+11
-6.3998795e+28 -0.05125957 -4.4130723e+11
4.4527779e+28 -0.051255587 -4.4127293e+11
-6.5758311e+28 -0.051240046 -4.411391e+11
4.074326e+28 -0.051234264 -4.4108936e+11
-5.122106e+27 -0.051208165 -4.4086464e+11
-2.6600105e+27 -0.051201489 -4.4080716e+11
-1.5226706e+28 -0.051195808 -4.4075827e+11
1.0086951e+28 -0.051195312 -4.4075398e+11
4.0399623e+28 -0.051193219 -4.4073599e+11
-1.5049383e+28 -0.051167116 -4.4051127e+11
5.6347466e+28 -0.051142607 -4.4030024e+11
-2.7251023e+26 -0.051139817 -4.4027625e+11
-7.5279344e+27 -0.051109929 -4.4001893e+11
3.9659553e+28 -0.05110953 -4.4001549e+11
-1.0443862e+28 -0.051097974 -4.39916e+11
6.4354049e+27 -0.051070277 -4.3967755e+11
-3.964379e+28 -0.051063702 -4.3962093e+11
-2.8564773e+28 -0.051049754 -4.3950087e+11
-8.8497567e+27 -0.051040787 -4.3942366e+11
-2.5142142e+27 -0.051009305 -4.3915261e+11
-2.4082121e+28 -0.051008705 -4.3914746e+11
4.7547265e+28 -0.051005218 -4.3911745e+11
-4.9150647e+27 -0.050981209 -4.3891075e+11
-4.1943195e+28 -0.050973937 -4.3884813e+11
-2.8607614e+28 -0.050955903 -4.3869287e+11
-4.084923e+28 -0.050952714 -4.3866541e+11
1.1598844e+28 -0.050912663 -4.3832063e+11
2.4681522e+28 -0.050856572 -4.3783773e+11
-1.2477845e+28 -0.050839338 -4.3768932e+11
-7.2060966e+26 -0.050818913 -4.3751349e+11
-9.7142768e+27 -0.050809946 -4.3743628e+11
-2.8459481e+28 -0.050804768 -4.3739169e+11
4.9681487e+28 -0.050753258 -4.3694824e+11
-3.1455508e+28 -0.050719384 -4.366566e+11
-5.6482703e+27 -0.050708424 -4.3656226e+11
1.9236144e+28 -0.050700553 -4.364945e+11
-3.6889724e+28 -0.050694376 -4.3644132e+11
-1.9682132e+28 -0.050689895 -4.3640272e+11
-1.9225963e+28 -0.050683718 -4.3634957e+11
-1.0414446e+28 -0.050659407 -4.3614028e+11
-9.9855797e+27 -0.050655723 -4.3610853e+11
-4.9562771e+28 -0.050621748 -4.3581604e+11
-2.5306869e+28 -0.050611883 -4.3573114e+11
-4.2246701e+28 -0.050607104 -4.3568995e+11
1.4871757e+28 -0.050589368 -4.3553728e+11
-2.1780454e+28 -0.050585184 -4.3550127e+11
-8.0527411e+27 -0.0505815 -4.3546952e+11
-2.7062612e+28 -0.050539654 -4.3510927e+11
-4.558652e+28 -0.05050309 -4.347945e+11
2.2747779e+28 -0.050492629 -4.3470442e+11
-1.8199278e+28 -0.050487448 -4.3465982e+11
-3.8705503e+28 -0.050478879 -4.3458606e+11
-2.5916756e+28 -0.050469317 -4.3450371e+11
-4.400727e+28 -0.050460849 -4.344308e+11
3.1454982e+28 -0.050454471 -4.3437592e+11
-6.2037445e+28 -0.050452281 -4.3435704e+11
-2.0399423e+27 -0.050433051 -4.341915e+11
1.1036928e+27 -0.050399475 -4.3390245e+11
3.5368252e+27 -0.050392102 -4.3383898e+11
-2.5547325e+28 -0.050387021 -4.3379524e+11
9.3996043e+27 -0.050380748 -4.337412e+11
-1.4218276e+28 -0.050374869 -4.3369057e+11
1.1501621e+28 -0.050361719 -4.3357736e+11
-2.3111401e+28 -0.050334021 -4.3333891e+11
-7.6348572e+28 -0.050318081 -4.3320168e+11
-6.9623988e+28 -0.05031519 -4.3317681e+11
-2.4980884e+28 -0.050301641 -4.3306015e+11
-7.2362663e+27 -0.050287794 -4.3294094e+11
-9.6184717e+28 -0.050283112 -4.329006e+11
8.7262857e+27 -0.050275039 -4.3283114e+11
3.5338158e+28 -0.050268862 -4.3277795e+11
-3.9344052e+28 -0.050255213 -4.3266045e+11
5.6812987e+28 -0.050241265 -4.3254039e+11
-2.4478705e+28 -0.050232299 -4.3246318e+11
-3.43651e+28 -0.050228912 -4.3243402e+11
-9.3618309e+28 -0.050190754 -4.3210549e+11
-4.0179306e+28 -0.050184179 -4.320489e+11
-7.3095948e+28 -0.05012241 -4.3151711e+11
1.8705378e+25 -0.050120417 -4.3149994e+11
-3.5700123e+28 -0.050112147 -4.3142876e+11
-2.3949673e+27 -0.050097302 -4.3130097e+11
-2.1754056e+28 -0.050096009 -4.3128979e+11
-1.9326579e+28 -0.050091024 -4.312469e+11
-2.6570388e+28 -0.050091024 -4.312469e+11
-4.0148681e+28 -0.050042108 -4.3082577e+11
-1.7438391e+28 -0.050035235 -4.3076659e+11
-2.3174759e+28 -0.050014909 -4.3059161e+11
-1.08455e+28 -0.050007436 -4.3052728e+11
-2.0700671e+28 -0.049991596 -4.303909e+11
-1.6337792e+28 -0.049985718 -4.3034031e+11
-1.8126342e+28 -0.04998273 -4.3031455e+11
2.7291149e+28 -0.04997994 -4.3029053e+11
-2.2164517e+28 -0.049967486 -4.3018332e+11
-1.1067626e+28 -0.049966391 -4.3017388e+11
-5.3452885e+27 -0.049951248 -4.3004353e+11
3.6018717e+28 -0.049949355 -4.3002721e+11
-3.6924269e+28 -0.04989107 -4.2952547e+11
5.3913582e+28 -0.049815055 -4.2887099e+11
-2.0998749e+28 -0.049814157 -4.2886329e+11
-3.9693568e+28 -0.04981067 -4.2883328e+11
-1.6775105e+28 -0.049792439 -4.2867628e+11
-6.3329626e+28 -0.049790446 -4.2865915e+11
-1.4282161e+28 -0.049783971 -4.2860341e+11
-2.3019988e+28 -0.049770519 -4.2848761e+11
-5.809001e+28 -0.049762949 -4.284224e+11
-6.7779545e+28 -0.049747307 -4.2828775e+11
8.510872e+27 -0.049734056 -4.2817366e+11
-2.8294149e+28 -0.049722698 -4.2807588e+11
1.2119049e+28 -0.049719907 -4.2805186e+11
2.1913956e+27 -0.049718812 -4.2804245e+11
-2.7230206e+28 -0.049715526 -4.2801414e+11
-3.5081488e+28 -0.049710046 -4.2796696e+11
-3.7763445e+28 -0.049693011 -4.2782029e+11
1.2888912e+28 -0.049677666 -4.276882e+11
-3.4814936e+28 -0.049665414 -4.2758269e+11
-7.8946355e+28 -0.049662124 -4.2755437e+11
-5.5461449e+27 -0.049653556 -4.2748061e+11
-3.8289158e+28 -0.049641002 -4.2737254e+11
-7.9938343e+27 -0.04961789 -4.2717354e+11
-6.2811606e+28 -0.049609918 -4.2710493e+11
-4.954361e+27 -0.049604539 -4.2705863e+11
-4.4431613e+28 -0.049593084 -4.2695999e+11
-7.5072079e+28 -0.049568273 -4.2674641e+11
3.1988763e+28 -0.049557913 -4.2665722e+11
-5.997141e+28 -0.049553528 -4.2661947e+11
-6.3043465e+28 -0.049520351 -4.2633383e+11
2.7281494e+28 -0.049514875 -4.2628668e+11
-5.5970418e+28 -0.049508099 -4.2622835e+11
-3.5263412e+28 -0.049505509 -4.2620604e+11
9.0328883e+27 -0.049505409 -4.2620518e+11
-6.2219072e+28 -0.049501821 -4.2617432e+11
-7.4529474e+28 -0.049496442 -4.2612798e+11
-5.3862443e+28 -0.049481001 -4.2599504e+11
-7.6350381e+28 -0.049476415 -4.2595559e+11
-3.7690284e+28 -0.04945131 -4.2573942e+11
-6.2067167e+27 -0.049451012 -4.2573686e+11
-7.8757796e+28 -0.049432281 -4.2557561e+11
-2.5560448e+28 -0.049419928 -4.2546925e+11
-7.6268018e+28 -0.049360249 -4.2495548e+11
-7.5330335e+28 -0.049344111 -4.2481651e+11
-4.6342577e+27 -0.049332056 -4.2471273e+11
-5.8086992e+28 -0.049314618 -4.2456262e+11
1.4842417e+28 -0.049304456 -4.2447513e+11
-7.1216658e+28 -0.049301468 -4.2444941e+11
-9.0340949e+27 -0.049286924 -4.2432417e+11
-3.977156e+26 -0.049255639 -4.2405485e+11
-8.9173221e+28 -0.04923382 -4.2386702e+11
-5.3326776e+28 -0.049230333 -4.2383698e+11
1.607652e+28 -0.04921848 -4.237349e+11
-4.9253225e+28 -0.049212698 -4.2368516e+11
-3.840516e+28 -0.049173646 -4.2334893e+11
-5.8996916e+28 -0.049148139 -4.2312935e+11
5.9798987e+28 -0.049146447 -4.2311477e+11
-8.4630078e+28 -0.049142659 -4.230822e+11
-1.2394577e+28 -0.049141765 -4.2307446e+11
-9.021982e+28 -0.049100619 -4.2272021e+11
-9.1876603e+27 -0.049093146 -4.2265589e+11
2.3716386e+28 -0.049082287 -4.225624e+11
-1.293922e+28 -0.04906784 -4.2243804e+11
-2.4960217e+28 -0.049067341 -4.2243375e+11
-9.262512e+28 -0.049064353 -4.22408e+11
-1.0936615e+25 -0.04905628 -4.2233853e+11
-2.5736189e+28 -0.049044225 -4.2223475e+11
-4.578594e+28 -0.049040642 -4.2220388e+11
-7.6933867e+28 -0.049032073 -4.2213009e+11
-4.5775986e+28 -0.048996903 -4.2182731e+11
-8.3141644e+28 -0.048991922 -4.2178445e+11
-2.0563849e+28 -0.048976082 -4.2164807e+11
-9.1882178e+28 -0.048962831 -4.2153397e+11
6.1406216e+28 -0.048955757 -4.2147309e+11
-4.0660515e+28 -0.048951373 -4.2143534e+11
-7.4686053e+28 -0.048950277 -4.2142591e+11
-8.9920979e+28 -0.048945397 -4.2138386e+11
-5.1711778e+28 -0.048920587 -4.2117032e+11
4.2728217e+27 -0.04891989 -4.2116429e+11
4.2074283e+28 -0.048887014 -4.2088124e+11
-7.3190981e+28 -0.048879042 -4.2081262e+11
-9.0492858e+28 -0.048868481 -4.2072172e+11
-4.6257195e+28 -0.048842378 -4.20497e+11
-3.806243e+28 -0.048825443 -4.2035118e+11
-7.5396859e+28 -0.048818767 -4.2029371e+11
-6.0318061e+27 -0.048803624 -4.2016332e+11
-5.3383345e+28 -0.048802428 -4.2015303e+11
-7.1387273e+28 -0.04876427 -4.1982453e+11
-2.9346781e+28 -0.048751418 -4.1971388e+11
-2.0866756e+28 -0.048734482 -4.1956806e+11
-5.2639955e+28 -0.048714854 -4.1939911e+11
1.874641e+28 -0.048714753 -4.1939822e+11
-2.1499721e+28 -0.048674606 -4.1905258e+11
-5.8219289e+28 -0.048673209 -4.1904056e+11
-3.885379e+28 -0.048655976 -4.1889219e+11
-5.5736902e+28 -0.04864651 -4.1881069e+11
-4.2961583e+28 -0.048641227 -4.1876524e+11
-2.8163665e+28 -0.048599683 -4.1840755e+11
-3.7667354e+28 -0.048585936 -4.1828919e+11
-1.6710993e+28 -0.0485681 -4.1813567e+11
1.393415e+28 -0.048555449 -4.1802672e+11
-4.4006368e+28 -0.048555151 -4.1802416e+11
-2.3704091e+28 -0.048527453 -4.1778571e+11
-4.1168429e+28 -0.048521277 -4.1773253e+11
-7.2268986e+28 -0.048516393 -4.1769048e+11
-3.6850201e+28 -0.048513606 -4.1766647e+11
-5.2757919e+28 -0.04849647 -4.1751894e+11
-3.6126876e+28 -0.048467178 -4.1726676e+11
-1.7449102e+28 -0.048458908 -4.1719559e+11
-4.252125e+28 -0.048450939 -4.1712697e+11
-5.924009e+28 -0.048447549 -4.1709781e+11
-3.1649954e+28 -0.048397038 -4.1666295e+11
-8.5048687e+28 -0.048392855 -4.166269e+11
-3.4673438e+28 -0.04837263 -4.164528e+11
-8.5896909e+28 -0.048353799 -4.1629067e+11
-3.8270906e+28 -0.048345331 -4.1621776e+11
-6.3083138e+28 -0.048323613 -4.1603079e+11
-8.2891529e+28 -0.048297808 -4.1580862e+11
1.9019374e+28 -0.048287746 -4.1572201e+11
-7.9302209e+28 -0.048280373 -4.1565854e+11
-3.651079e+28 -0.04825487 -4.1543896e+11
-7.8409333e+28 -0.048243809 -4.1534374e+11
-4.93733e+28 -0.048240822 -4.1531802e+11
-5.779012e+28 -0.048229463 -4.1522024e+11
-9.0578843e+28 -0.048213821 -4.1508556e+11
-3.7198815e+28 -0.048157133 -4.1459751e+11
-7.3049182e+28 -0.048150457 -4.1454004e+11
-3.5045433e+28 -0.048142288 -4.1446972e+11
-8.768509e+28 -0.048129138 -4.143565e+11
-2.7949609e+28 -0.048126448 -4.1433334e+11
-4.1625351e+28 -0.048093569 -4.1405029e+11
-7.3441847e+28 -0.048062984 -4.1378696e+11
-5.2282892e+28 -0.048050132 -4.1367631e+11
-5.6295199e+28 -0.048045348 -4.1363515e+11
-8.8757926e+28 -0.048018649 -4.1340528e+11
-6.0885254e+28 -0.04798637 -4.1312738e+11
-3.2981808e+28 -0.047964051 -4.1293523e+11
-7.6941711e+28 -0.047948711 -4.1280314e+11
-3.8194727e+28 -0.047931872 -4.126582e+11
-4.8652091e+28 -0.047930777 -4.1264877e+11
-5.7596579e+28 -0.047926992 -4.1261616e+11
-5.2029768e+28 -0.047908958 -4.1246091e+11
-8.6509211e+28 -0.047898695 -4.1237257e+11
-6.6339837e+28 -0.047861535 -4.1205262e+11
-7.6511791e+28 -0.047856454 -4.1200887e+11
-3.6168057e+28 -0.047850873 -4.1196087e+11
-6.0552029e+28 -0.047846988 -4.1192741e+11
-5.5646544e+28 -0.047822878 -4.1171983e+11
-3.5690619e+28 -0.047816403 -4.1166409e+11
-2.6226451e+28 -0.047783028 -4.1137675e+11
-4.9808655e+28 -0.047721654 -4.108484e+11
-5.1449597e+28 -0.047721159 -4.108441e+11
-6.3998346e+28 -0.047704719 -4.1070258e+11
-6.9486865e+28 -0.047689177 -4.1056875e+11
-5.1508882e+28 -0.047666859 -4.1037663e+11
-9.4549814e+28 -0.047650322 -4.1023426e+11
3.0136327e+28 -0.047649823 -4.1022996e+11
-4.2647512e+28 -0.047646936 -4.1020509e+11
-8.7785251e+28 -0.047642749 -4.1016905e+11
-6.7951062e+28 -0.047640059 -4.1014591e+11
-3.7274843e+28 -0.047632586 -4.1008156e+11
-3.9986218e+28 -0.047624417 -4.1001124e+11
-1.7688199e+28 -0.047621328 -4.0998466e+11
-6.8640447e+28 -0.047609974 -4.0988685e+11
-2.1478603e+28 -0.047577593 -4.0960809e+11
-3.4921888e+28 -0.047555875 -4.0942112e+11
-5.8402418e+28 -0.047533058 -4.0922471e+11
-5.0658544e+28 -0.047532361 -4.0921868e+11
-7.3761494e+28 -0.047510941 -4.0903429e+11
7.0584143e+27 -0.047426358 -4.0830606e+11
-5.633472e+28 -0.047387503 -4.0797156e+11
-8.9448979e+28 -0.047382422 -4.0792782e+11
-4.232394e+28 -0.047372956 -4.0784632e+11
6.5431115e+27 -0.047340777 -4.0756927e+11
-6.3264458e+28 -0.047340576 -4.0756756e+11
1.3605448e+28 -0.047303814 -4.0725106e+11
-6.7051092e+28 -0.047275219 -4.0700491e+11
-6.6240729e+28 -0.047271233 -4.069706e+11
-5.2886443e+28 -0.047244832 -4.0674329e+11
-7.8412648e+28 -0.047233574 -4.0664636e+11
-8.7168576e+28 -0.047232579 -4.0663777e+11
-3.6377588e+28 -0.047232181 -4.0663436e+11
-5.9048811e+28 -0.047213349 -4.0647223e+11
-4.6880056e+28 -0.047175989 -4.0615058e+11
-9.167054e+28 -0.047155965 -4.0597819e+11
-8.5611055e+28 -0.047151282 -4.0593788e+11
-5.5525713e+28 -0.047148492 -4.0591386e+11
-5.3883713e+28 -0.047141418 -4.0585295e+11
-3.5764384e+28 -0.047140919 -4.0584869e+11
-9.1281351e+28 -0.047136039 -4.0580665e+11
-5.2687018e+28 -0.047124881 -4.0571057e+11
-4.7445895e+28 -0.04711641 -4.0563766e+11
-9.0497835e+28 -0.047102064 -4.0551416e+11
9.2772646e+26 -0.0470923 -4.0543011e+11
-7.2324049e+28 -0.047091804 -4.0542582e+11
-5.8908216e+28 -0.047040794 -4.0498666e+11
-1.3394409e+28 -0.047037307 -4.0495664e+11
-3.2784045e+28 -0.047017578 -4.0478681e+11
-8.3453594e+28 -0.047017381 -4.047851e+11
-3.5777659e+28 -0.047012597 -4.0474391e+11
-7.2959731e+28 -0.046997055 -4.0461012e+11
-5.1279894e+28 -0.046992872 -4.0457408e+11
-4.5082983e+28 -0.046987493 -4.0452778e+11
-5.1285627e+28 -0.046983108 -4.0449003e+11
-8.1301725e+28 -0.046956807 -4.042636e+11
-4.6232157e+28 -0.046934988 -4.0407574e+11
-7.0084683e+28 -0.046922237 -4.0396597e+11
-6.8517656e+28 -0.046917453 -4.0392478e+11
-7.0231762e+28 -0.046916157 -4.0391364e+11
-4.2444469e+28 -0.046883579 -4.0363314e+11
-6.1874528e+28 -0.046841737 -4.0327293e+11
1.3576485e+26 -0.046838149 -4.0324202e+11
-9.603447e+28 -0.046801187 -4.0292381e+11
-8.409305e+28 -0.046796005 -4.0287922e+11
-6.7330165e+28 -0.046795409 -4.0287407e+11
1.3636146e+28 -0.046745792 -4.0244691e+11
-7.3593449e+28 -0.046741311 -4.0240831e+11
-5.1299955e+28 -0.046739317 -4.0239117e+11
-6.4984301e+28 -0.046735231 -4.0235601e+11
-7.8032809e+28 -0.046726964 -4.0228481e+11
-6.2803611e+28 -0.046715505 -4.0218617e+11
3.0459297e+28 -0.046708032 -4.0212185e+11
-8.4598551e+28 -0.046701357 -4.0206438e+11
-6.0774382e+28 -0.046687409 -4.0194428e+11
-6.758148e+28 -0.046684619 -4.0192026e+11
-5.321198e+28 -0.046650548 -4.0162692e+11
-6.7737308e+28 -0.046649452 -4.0161749e+11
-5.6454493e+28 -0.046622355 -4.0138418e+11
-3.6356319e+28 -0.046619263 -4.013576e+11
-7.0998683e+28 -0.046556 -4.0081293e+11
-6.4895903e+28 -0.046472609 -4.0009502e+11
-4.9428061e+28 -0.046463344 -4.0001526e+11
3.924283e+27 -0.046439931 -3.9981367e+11
-1.9205899e+28 -0.046404865 -3.9951175e+11
-5.7433964e+28 -0.046402473 -3.9949117e+11
-2.9389622e+28 -0.04639988 -3.9946889e+11
-4.8261537e+28 -0.046399582 -3.994663e+11
-7.1485172e+28 -0.046353158 -3.990666e+11
-4.8351748e+28 -0.046313602 -3.9872607e+11
-8.2229906e+28 -0.046302546 -3.9863088e+11
-7.1133993e+28 -0.046279632 -3.9843358e+11
-7.0702865e+28 -0.046276342 -3.984053e+11
-7.0037465e+28 -0.046251833 -3.9819428e+11
-5.3765899e+28 -0.046232805 -3.9803047e+11
-6.2775102e+28 -0.046225134 -3.9796441e+11
-8.8975306e+28 -0.046205804 -3.9779801e+11
-5.0861285e+28 -0.046189766 -3.9765993e+11
-8.411568e+28 -0.046154097 -3.9735286e+11
-7.3420577e+28 -0.046152104 -3.9733569e+11
-1.0317028e+29 -0.046147522 -3.9729624e+11
4.4506812e+28 -0.046128791 -3.9713499e+11
-8.5730672e+28 -0.046094023 -3.9683565e+11
-8.5102088e+28 -0.046074197 -3.9666496e+11
-7.9483529e+28 -0.046056163 -3.9650971e+11
-4.6664192e+28 -0.045990009 -3.9594017e+11
-7.5327318e+28 -0.045974068 -3.9580294e+11
-6.878888e+28 -0.045963507 -3.95712e+11
-8.7043518e+28 -0.045961216 -3.9569228e+11
-6.7339666e+28 -0.045908812 -3.9524113e+11
-8.5230763e+28 -0.045894563 -3.9511848e+11
-6.6175258e+28 -0.0458856 -3.9504128e+11
-4.6882922e+28 -0.045872148 -3.9492547e+11
-4.9594146e+28 -0.045866769 -3.9487917e+11
-7.3310003e+28 -0.04579404 -3.9425301e+11
-1.0055831e+29 -0.045765247 -3.9400515e+11
-6.3847797e+28 -0.045761064 -3.9396911e+11
-6.0990095e+28 -0.045742232 -3.93807e+11
-4.7647729e+28 -0.045726292 -3.9366977e+11
-6.2509304e+28 -0.045662329 -3.9311911e+11
-7.8473892e+28 -0.045656152 -3.9306592e+11
-8.9036253e+28 -0.045649081 -3.9300504e+11
-8.4161534e+28 -0.045582227 -3.924295e+11
-6.3850664e+28 -0.045532413 -3.9200063e+11
-5.4473385e+28 -0.045527335 -3.9195689e+11
-3.8738689e+28 -0.045516472 -3.9186337e+11
-9.3560838e+28 -0.045515478 -3.9185482e+11
-1.0151243e+29 -0.045488678 -3.9162407e+11
5.1320096e+28 -0.04547742 -3.9152717e+11
-7.650093e+28 -0.045473333 -3.9149198e+11
-6.0340085e+28 -0.045456897 -3.9135045e+11
-6.1958704e+28 -0.045407381 -3.9092417e+11
-5.0238126e+28 -0.045346208 -3.9039753e+11
-1.0049646e+29 -0.045333855 -3.9029116e+11
-5.7953944e+28 -0.045324091 -3.9020711e+11
-8.7634098e+28 -0.045320902 -3.9017965e+11
-5.5177854e+28 -0.045303866 -3.9003298e+11
-8.1812959e+28 -0.045297589 -3.8997895e+11
-6.4795132e+28 -0.045287825 -3.898949e+11
-8.2747922e+28 -0.045198258 -3.891238e+11
-2.9518446e+28 -0.04517654 -3.8893683e+11
-7.9148496e+28 -0.045113675 -3.883956e+11
-9.0149221e+28 -0.045096938 -3.8825148e+11
-9.9548524e+28 -0.045072827 -3.880439e+11
-5.0159078e+28 -0.045072131 -3.880379e+11
-6.3803143e+28 -0.045070436 -3.8802332e+11
3.2221224e+28 -0.044968717 -3.871476e+11
-5.8727501e+28 -0.044966623 -3.8712957e+11
-9.9321341e+28 -0.044959947 -3.870721e+11
-8.1101242e+28 -0.044950183 -3.8698805e+11
-4.3982232e+28 -0.044913024 -3.866681e+11
-9.8847074e+28 -0.044886224 -3.8643738e+11
-7.086684e+28 -0.044882435 -3.8640478e+11
-8.3665997e+28 -0.044877354 -3.8636103e+11
-8.1802551e+28 -0.044876657 -3.8635504e+11
-7.3128834e+28 -0.044809908 -3.8578035e+11
-8.2149806e+28 -0.044803929 -3.8572891e+11
-6.4822135e+28 -0.044739172 -3.8517139e+11
-8.8782218e+28 -0.044712771 -3.8494408e+11
-8.5563992e+28 -0.044684675 -3.8470219e+11
-1.0284067e+29 -0.044643328 -3.8434623e+11
-4.198317e+28 -0.044561233 -3.8363949e+11
-4.6041935e+28 -0.044458117 -3.8275174e+11
-7.0995968e+28 -0.044452939 -3.8270711e+11
-8.2281494e+28 -0.044373833 -3.8202609e+11
-8.5602299e+28 -0.044360779 -3.8191373e+11
-9.9770117e+28 -0.044308875 -3.8146684e+11
-6.1451697e+28 -0.044279784 -3.8121639e+11
-8.3384204e+28 -0.044232659 -3.8081069e+11
-9.5941855e+28 -0.04418125 -3.8036809e+11
-8.5545584e+28 -0.044167802 -3.8025229e+11
-1.0218432e+29 -0.044058807 -3.7931395e+11
-9.917185e+28 -0.044052828 -3.7926247e+11
-9.8875427e+28 -0.04397741 -3.7861317e+11
-6.0103551e+28 -0.043870509 -3.7769282e+11
-8.208373e+28 -0.04382199 -3.7727512e+11
-1.0065591e+29 -0.043640565 -3.757132e+11
-7.8498028e+28 -0.043606691 -3.7542157e+11
-9.8264182e+28 -0.043460634 -3.7416413e+11
-4.5990494e+28 -0.043389898 -3.7355513e+11
-1.0007498e+29 -0.043294154 -3.7273086e+11
-1.002275e+29 -0.043180179 -3.7174962e+11
-8.2524365e+28 -0.043020677 -3.7037638e+11
2.076825e+28 -0.042954821 -3.6980942e+11
-9.5678923e+28 -0.042868342 -3.6906494e+11
-9.7783729e+28 -0.042812251 -3.6858203e+11
-9.3755588e+28 -0.042788241 -3.683753e+11
-1.4633339e+28 -0.042785153 -3.6834873e+11
-9.8338852e+28 -0.042730257 -3.6787611e+11
-9.4284616e+28 -0.042688016 -3.6751242e+11
-8.718909e+28 -0.042613491 -3.6687086e+11
-9.8910127e+28 -0.042436652 -3.6534839e+11
-9.4781815e+28 -0.042348482 -3.6458929e+11
-9.2979467e+28 -0.042163171 -3.6299391e+11
-9.7374621e+28 -0.04207759 -3.6225712e+11
-9.4860867e+28 -0.041743238 -3.5937858e+11
-3.8225951e+28 -0.041710954 -3.5910068e+11
-9.4280847e+28 -0.04148978 -3.571965e+11
3.7520878e+27 -0.041324295 -3.5577181e+11
-6.9636057e+27 -0.041308656 -3.5563717e+11
-9.3244958e+28 -0.041304372 -3.5560027e+11
-9.6944706e+28 -0.041112486 -3.539483e+11
-9.6531376e+28 -0.041069448 -3.5357776e+11
-5.0539975e+28 -0.041055799 -3.5346022e+11
-9.9451678e+28 -0.041020527 -3.531566e+11
-9.2531891e+28 -0.040834922 -3.5155866e+11
-9.4681805e+28 -0.0408132 -3.5137166e+11
-9.4892847e+28 -0.040591527 -3.4946322e+11
3.5123271e+28 -0.04049658 -3.4864579e+11
-9.4204062e+28 -0.040435709 -3.4812173e+11
-1.0753286e+29 -0.04040831 -3.4788586e+11
-9.2382097e+28 -0.040397052 -3.4778894e+11
1.3075136e+28 -0.040375933 -3.4760711e+11
-9.2005422e+28 -0.040241234 -3.4644745e+11
4.568329e+28 -0.040217619 -3.4624415e+11
-9.3585876e+28 -0.040200785 -3.4609919e+11
-1.0376115e+29 -0.040106934 -3.4529123e+11
-9.4870218e+28 -0.040094081 -3.4518057e+11
-9.4644696e+28 -0.040026333 -3.4459733e+11
-1.1049192e+29 -0.039899707 -3.4350714e+11
-1.0356836e+29 -0.039802469 -3.4266998e+11
-1.0716432e+29 -0.039762117 -3.4232261e+11
-1.0078021e+29 -0.039745878 -3.4218282e+11
-1.0446276e+29 -0.039608691 -3.410017e+11
-9.9136101e+28 -0.039549313 -3.4049052e+11
-9.7077301e+28 -0.039510757 -3.4015858e+11
-2.5235217e+28 -0.03940196 -3.3922194e+11
-9.3492505e+28 -0.039106265 -3.3667619e+11
-5.947134e+28 -0.039067805 -3.363451e+11
-1.0356626e+29 -0.03886028 -3.3455843e+11
-4.1521115e+28 -0.03869151 -3.3310546e+11
2.3344164e+28 -0.038595367 -3.3227774e+11
-1.0174098e+29 -0.038434368 -3.3089166e+11
-9.0648989e+28 -0.038431279 -3.3086505e+11
-9.938259e+28 -0.038327266 -3.299696e+11
-9.4705341e+28 -0.038295485 -3.2969599e+11
-9.4933724e+28 -0.038267888 -3.2945838e+11
-1.0527116e+29 -0.038093138 -3.2795391e+11
-8.9631054e+28 -0.037694424 -3.245213e+11
-7.0951464e+28 -0.037626278 -3.2393458e+11
1.0893018e+28 -0.037555542 -3.2332562e+11
-1.0640917e+29 -0.037448041 -3.2240012e+11
-9.9462691e+28 -0.037427418 -3.2222256e+11
-9.3332303e+28 -0.037381887 -3.2183058e+11
-1.0599116e+29 -0.037183128 -3.2011941e+11
-1.0370322e+29 -0.037115682 -3.1953872e+11
-9.9303235e+28 -0.036567524 -3.1481951e+11
-1.0396933e+29 -0.036420073 -3.1355008e+11
-1.0156599e+29 -0.036303908 -3.1254997e+11
-9.2330359e+28 -0.036143404 -3.1116814e+11
2.9095992e+28 -0.035805166 -3.0825615e+11
-1.0256657e+29 -0.035791617 -3.0813949e+11
-9.6460323e+28 -0.035722774 -3.0754682e+11
-1.0402288e+29 -0.035689794 -3.0726291e+11
-1.0258844e+29 -0.035434946 -3.0506883e+11
-1.0307554e+29 -0.034921657 -3.0064981e+11
-5.3073194e+28 -0.034884196 -3.0032731e+11
-1.0045664e+29 -0.034725688 -2.9896265e+11
-9.806522e+28 -0.034582023 -2.9772579e+11
-9.8230852e+28 -0.034433678 -2.9644866e+11
-2.3730188e+27 -0.034308046 -2.9536705e+11
-1.0004618e+29 -0.034307346 -2.9536105e+11
-9.8240656e+28 -0.034217384 -2.9458652e+11
-9.8514298e+28 -0.034002084 -2.9273296e+11
-9.9418943e+28 -0.033386178 -2.8743048e+11
-2.3451267e+28 -0.033348817 -2.8710883e+11
-7.3555132e+28 -0.033264235 -2.8638062e+11
-9.8746752e+28 -0.032937452 -2.8356726e+11
-1.0450997e+29 -0.032879669 -2.8306978e+11
-1.01755e+29 -0.032869805 -2.8298484e+11
-1.0666094e+29 -0.032808334 -2.8245564e+11
1.4016062e+28 -0.032751843 -2.819693e+11
-9.9567981e+28 -0.032626811 -2.8089287e+11
-1.0770633e+29 -0.032574803 -2.8044512e+11
-9.8880253e+28 -0.032568924 -2.803945e+11
-1.0125101e+29 -0.032429844 -2.7919712e+11
-9.8288021e+28 -0.031947941 -2.7504827e+11
-9.704381e+28 -0.031916756 -2.7477982e+11
-1.0138542e+29 -0.031864651 -2.7433122e+11
-9.7340232e+28 -0.031851102 -2.7421457e+11
-9.591455e+28 -0.031718295 -2.7307121e+11
-9.7159961e+28 -0.031537868 -2.7151786e+11
-9.8399195e+28 -0.031508379 -2.7126397e+11
-9.9929421e+28 -0.031349968 -2.6990019e+11
-1.0291111e+29 -0.031169839 -2.6834941e+11
-8.3220989e+28 -0.031075791 -2.6753971e+11
-1.0300253e+29 -0.031044308 -2.6726867e+11
-9.5475124e+28 -0.030832397 -2.6544428e+11
-1.4266246e+28 -0.030584522 -2.6331025e+11
-3.3599538e+28 -0.030565092 -2.6314298e+11
-1.0058064e+29 -0.030205633 -2.6004829e+11
-9.881464e+28 -0.03000777 -2.5834485e+11
-9.988658e+28 -0.029950682 -2.5785336e+11
-1.0729526e+29 -0.02988722 -2.5730698e+11
-1.0376206e+29 -0.029731002 -2.5596207e+11
-1.0167128e+29 -0.029646117 -2.5523128e+11
-1.0326455e+29 -0.029611148 -2.5493022e+11
-9.8529834e+28 -0.029396249 -2.5308009e+11
-9.0253455e+26 -0.029389374 -2.5302091e+11
-1.0145693e+29 -0.029352015 -2.5269926e+11
-9.8350016e+28 -0.029262248 -2.5192645e+11
-9.8964434e+28 -0.02918384 -2.5125143e+11
-9.9355134e+28 -0.029044461 -2.5005146e+11
-9.786926e+28 -0.028992254 -2.49602e+11
-9.4558711e+28 -0.028976712 -2.4946819e+11
8.1064438e+27 -0.028960075 -2.4932496e+11
-1.0357636e+29 -0.028829562 -2.4820133e+11
2.0087766e+28 -0.028463127 -2.4504659e+11
-6.2548377e+28 -0.028341679 -2.4400103e+11
-9.8112434e+28 -0.028316872 -2.4378745e+11
-1.0109187e+29 -0.02815338 -2.4237992e+11
-9.9757451e+28 -0.028135348 -2.4222466e+11
-7.9733494e+28 -0.028120006 -2.4209257e+11
-1.0651341e+29 -0.02808404 -2.4178293e+11
-5.0342963e+28 -0.027554812 -2.3722667e+11
-9.5668364e+28 -0.027463552 -2.3644099e+11
-9.4998288e+28 -0.027272265 -2.3479416e+11
-1.0473126e+29 -0.027002869 -2.3247485e+11
-1.0601289e+29 -0.026885705 -2.3146616e+11
-9.9736484e+28 -0.026786475 -2.3061186e+11
-1.0177235e+29 -0.026625773 -2.2922835e+11
-9.9282268e+28 -0.026576258 -2.2880205e+11
-1.009466e+29 -0.026436977 -2.2760294e+11
-1.0045377e+29 -0.026327586 -2.2666115e+11
-7.6851202e+27 -0.026023021 -2.2403908e+11
-9.6306006e+28 -0.025705405 -2.2130464e+11
-9.521325e+28 -0.025694145 -2.2120771e+11
-1.0479463e+29 -0.025614344 -2.2052066e+11
-9.7425008e+28 -0.025435111 -2.1897762e+11
-1.0031076e+29 -0.025196003 -2.1691906e+11
-4.0437714e+28 -0.024926407 -2.1459804e+11
-9.929856e+28 -0.024863342 -2.1405509e+11
-9.321449e+28 -0.024752056 -2.1309702e+11
1.5108968e+28 -0.024597134 -2.1176325e+11
2.5631423e+28 -0.024567544 -2.1150849e+11
-9.9184675e+28 -0.024241259 -2.0869942e+11
-1.0083904e+29 -0.024126986 -2.0771561e+11
-1.0173599e+29 -0.024076076 -2.0727731e+11
-2.265855e+28 -0.023908401 -2.0583376e+11
-5.3762882e+28 -0.023595667 -2.0314135e+11
-1.0149614e+29 -0.023254039 -2.0020019e+11
-1.0065485e+29 -0.02321339 -1.9985023e+11
-1.0048168e+29 -0.023045316 -1.9840324e+11
-9.9835285e+28 -0.023020012 -1.9818539e+11
-1.0351889e+29 -0.022978865 -1.9783113e+11
-9.8500716e+28 -0.022918191 -1.9730878e+11
-1.0176827e+29 -0.022702495 -1.954518e+11
-9.7067799e+28 -0.022535218 -1.9401166e+11
-1.0386297e+29 -0.02252117 -1.9389073e+11
-9.9533583e+28 -0.022504432 -1.9374663e+11
-1.0144274e+29 -0.021881754 -1.8838582e+11
-9.5805331e+28 -0.021872886 -1.8830947e+11
-7.1635419e+28 -0.021823371 -1.8788318e+11
-1.006375e+29 -0.021681799 -1.8666435e+11
-2.6759856e+28 -0.021306397 -1.8343243e+11
-5.2297375e+27 -0.021303011 -1.8340327e+11
-8.6561856e+28 -0.021213742 -1.8263473e+11
-9.3786661e+28 -0.021145895 -1.8205062e+11
-9.80892e+28 -0.020782251 -1.789199e+11
-1.0351965e+29 -0.020775676 -1.7886329e+11
-9.9895477e+28 -0.020602521 -1.7737256e+11
-1.0202488e+29 -0.020324755 -1.749812e+11
-1.3131252e+28 -0.02028331 -1.7462439e+11
-9.8981774e+28 -0.020277631 -1.745755e+11
-9.8682792e+28 -0.020262189 -1.7444256e+11
9.5707434e+27 -0.020091325 -1.7297154e+11
-9.5420666e+28 -0.019975657 -1.7197572e+11
-9.9603275e+28 -0.019884596 -1.7119176e+11
-1.0081792e+29 -0.019701777 -1.6961782e+11
-1.0016203e+29 -0.019685039 -1.6947372e+11
-9.8143205e+28 -0.019652462 -1.6919324e+11
-9.8716585e+28 -0.019612111 -1.6884587e+11
-1.0214872e+29 -0.019303164 -1.6618604e+11
-1.0042842e+29 -0.018727507 -1.6123008e+11
-5.124535e+28 -0.018690646 -1.6091272e+11
-1.0207013e+29 -0.018476544 -1.5906945e+11
-1.006191e+29 -0.01845363 -1.5887217e+11
-9.8455013e+28 -0.018221594 -1.5687452e+11
-1.0064747e+29 -0.018167196 -1.564062e+11
-9.9271709e+28 -0.017936954 -1.54424e+11
-2.9505927e+28 -0.017711794 -1.5248553e+11
3.1216488e+28 -0.017703027 -1.5241005e+11
-9.6336323e+28 -0.017521502 -1.5084726e+11
-8.2472173e+28 -0.017467404 -1.5038151e+11
-9.4297744e+28 -0.01744977 -1.502297e+11
-9.8125704e+28 -0.017415099 -1.499312e+11
-1.0094343e+29 -0.017409321 -1.4988145e+11
1.7627105e+28 -0.017219927 -1.4825092e+11
5.3013156e+27 -0.016960394 -1.4601652e+11
-1.0129793e+29 -0.016813142 -1.4474881e+11
-1.0028814e+29 -0.016810054 -1.4472221e+11
-1.0019853e+29 -0.016670773 -1.435231e+11
-9.5029815e+28 -0.01659894 -1.4290467e+11
-1.0228252e+29 -0.016574631 -1.426954e+11
-1.0251061e+29 -0.016572041 -1.426731e+11
-9.3176021e+28 -0.01654255 -1.424192e+11
-1.0005492e+29 -0.016534282 -1.4234801e+11
-1.0105431e+29 -0.016218558 -1.3962987e+11
-1.0291957e+29 -0.016215868 -1.396067e+11
-9.7697895e+28 -0.016168544 -1.3919928e+11
-6.0903813e+28 -0.016096413 -1.385783e+11
-1.0187357e+29 -0.016096115 -1.3857572e+11
-9.5911225e+28 -0.015934518 -1.3718448e+11
-1.0079484e+29 -0.01556858 -1.3403404e+11
-1.0253233e+29 -0.015464369 -1.3313685e+11
-9.8595749e+28 -0.014742658 -1.2692346e+11
-9.3667336e+28 -0.014724228 -1.2676478e+11
-9.7659427e+28 -0.014504048 -1.2486919e+11
-1.0327271e+29 -0.014100053 -1.213911e+11
-9.7878913e+28 -0.014028221 -1.2077267e+11
-9.68465e+28 -0.014016764 -1.2067403e+11
-1.01267e+29 -0.01388894 -1.1957357e+11
-1.0219186e+29 -0.013854568 -1.1927765e+11
-9.4757986e+28 -0.013776559 -1.1860605e+11
-9.9558026e+28 -0.013504473 -1.1626358e+11
-1.0300147e+29 -0.013176196 -1.1343737e+11
-9.8251819e+28 -0.013093404 -1.1272459e+11
-9.6055749e+28 -0.013038609 -1.1225284e+11
-1.0079499e+29 -0.012929815 -1.113162e+11
-1.0083783e+29 -0.012508385 -1.07688e+11
-1.0085307e+29 -0.012284419 -1.0575983e+11
-9.1404444e+28 -0.012132387 -1.0445092e+11
-4.5120545e+28 -0.012083369 -1.0402892e+11
-2.6923227e+28 -0.01207769 -1.0398003e+11
9.0193115e+27 -0.011550953 -9.9445219e+10
-1.018084e+29 -0.011386666 -9.8030821e+10
-4.5490276e+27 -0.011150645 -9.5998853e+10
-9.8192837e+28 -0.011034478 -9.4998741e+10
-1.040612e+29 -0.01082456 -9.3191504e+10
-9.612121e+28 -0.010786203 -9.2861284e+10
-9.5751175e+28 -0.010647122 -9.1663892e+10
-9.927458e+28 -0.010600495 -9.1262468e+10
-9.8048625e+28 -0.010508239 -9.0468213e+10
-1.0173977e+29 -0.010437702 -8.986094e+10
-3.8925744e+28 -0.010408311 -8.9607913e+10
-9.9871789e+28 -0.0097973878 -8.4348314e+10
-1.0071067e+29 -0.0097763669 -8.4167328e+10
-9.9156162e+28 -0.0097169876 -8.3656122e+10
-1.0088837e+29 -0.009420692 -8.1105232e+10
-1.0451842e+29 -0.0092910752 -7.9989326e+10
-9.5546328e+28 -0.0091993166 -7.9199355e+10
-9.8261472e+28 -0.0091498019 -7.8773068e+10
1.3065783e+28 -0.009097795 -7.8325334e+10
-9.527721e+28 -0.0088362703 -7.6073787e+10
-9.1803437e+28 -0.0083587496 -7.196269e+10
-9.6352767e+28 -0.0083177024 -7.1609303e+10
-1.0646605e+28 -0.0080782948 -6.9548179e+10
-9.7960978e+28 -0.0080357529 -6.9181932e+10
-1.0117091e+29 -0.0079621272 -6.8548067e+10
-9.6875759e+28 -0.0078583146 -6.7654312e+10
-1.0391743e+29 -0.0077931574 -6.7093357e+10
-5.2183935e+28 -0.0077673537 -6.6871206e+10
-7.20403e+28 -0.0076187076 -6.5591472e+10
-9.8735286e+28 -0.0075189793 -6.4732885e+10
-9.6219114e+28 -0.0072983014 -6.2833013e+10
-9.6887981e+28 -0.0070498274 -6.0693832e+10
-9.3644565e+28 -0.0068991887 -5.9396944e+10
-9.7960676e+28 -0.0068962001 -5.9371213e+10
-9.5484626e+28 -0.0066255089 -5.7040761e+10
-9.8522137e+28 -0.0065995054 -5.6816894e+10
9.1565847e+25 -0.0064254543 -5.5318438e+10
-1.0187598e+29 -0.0063341944 -5.453276e+10
-9.6240535e+28 -0.0062171305 -5.3524926e+10
-9.8562419e+28 -0.0061789728 -5.3196415e+10
-9.7448091e+28 -0.0061602425 -5.303516e+10
-9.8387427e+28 -0.0060335151 -5.1944129e+10
-9.9709179e+28 -0.0054814722 -4.7191446e+10
-1.0146009e+29 -0.0052268212 -4.499909e+10
-1.0150097e+29 -0.0051877666 -4.4662858e+10
-9.7622469e+28 -0.0050139148 -4.3166122e+10
-9.8346701e+28 -0.0045542279 -3.9208554e+10
-9.5343578e+28 -0.0044896682 -3.8652744e+10
-9.8749774e+28 -0.0043570627 -3.7511107e+10
-9.7200545e+28 -0.0041632848 -3.5842822e+10
-3.1625516e+28 -0.0041540191 -3.5763053e+10
-9.1654853e+28 -0.0040685376 -3.502712e+10
-1.0074778e+29 -0.0040101553 -3.4524492e+10
-9.7201905e+28 -0.0039894325 -3.4346082e+10
-1.0076301e+29 -0.0037708471 -3.2464222e+10
-9.8129028e+28 -0.0033668529 -2.8986128e+10
-9.7437683e+28 -0.0033215217 -2.8595859e+10
-9.6585834e+28 -0.0028388207 -2.4440158e+10
6.582182e+27 -0.0028036516 -2.413738e+10
-9.5129825e+28 -0.0027452693 -2.3634749e+10
-9.7822802e+28 -0.0026570978 -2.2875658e+10
-7.5146149e+28 -0.0026532123 -2.2842208e+10
-9.7456837e+28 -0.0024785632 -2.1338608e+10
-6.1950709e+28 -0.0023755471 -2.0451715e+10
-9.8024031e+28 -0.0021553675 -1.8556131e+10
-1.1262373e+28 -0.0020126994 -1.7327862e+10
-1.0083919e+29 -0.0017873391 -1.5387677e+10
-8.4752717e+28 -0.0017620334 -1.5169812e+10
-9.8497855e+28 -0.001729953 -1.4893623e+10
-9.8410661e+28 -0.0016317191 -1.4047902e+10
-9.7495154e+28 -0.0016077085 -1.3841189e+10
-4.267783e+28 -0.0010744957 -9.2506184e+09
-9.7276424e+28 -0.0010582563 -9.1108076e+09
-9.8071396e+28 -0.0010029622 -8.6347684e+09
-1.0345523e+29 -0.00097566401 -8.3997501e+09
-9.5758721e+28 -0.00087713118 -7.5514547e+09
-9.7901996e+28 -0.00079344306 -6.8309617e+09
-9.6173562e+28 -0.00077829952 -6.700587e+09
-1.018612e+29 -0.0006508744 -5.6035502e+09
-2.5520323e+28 -0.00048150559 -4.145409e+09
-9.4274208e+28 -0.00047403341 -4.0810793e+09
-1.0421295e+29 -0.00028184964 -2.4265183e+09
-9.931983e+28 -0.00025893503 -2.2292403e+09
-9.5471356e+28 -0.00016518441 -1.4221164e+09
-9.906384e+28 4.3836635e-06 37740120
-6.4444105e+28 1.4944307e-05 1.286595e+08
-9.8519426e+28 0.00018301795 1.57565e+09
-1.0144681e+29 0.00047622525 4.0999493e+09
-9.2105291e+28 0.001541555 1.3271656e+10
-9.6364082e+28 0.0018772043 1.6161349e+10
-9.7412787e+28 0.0019746411 1.7000208e+10
-9.3580596e+28 0.0021582569 1.8581004e+10
-1.0030156e+29 0.0021910346 1.8863198e+10
-9.8902278e+28 0.0023450607 2.018925e+10
-1.0236157e+29 0.0023870044 2.0550353e+10
-9.5734137e+28 0.0025256875 2.1744312e+10
-1.0533497e+29 0.0025573694 2.2017071e+10
-8.4918652e+28 0.0026202351 2.2558298e+10
-1.0182771e+29 0.0026520167 2.2831915e+10
-1.0154019e+29 0.0033243112 2.8619876e+10
-9.9262056e+28 0.0033435395 2.8785418e+10
-9.9339597e+28 0.0033748231 2.9054747e+10
-9.3371669e+28 0.0036309685 3.125997e+10
-1.0127983e+29 0.0037658657 3.2421337e+10
-1.0217301e+29 0.0038645978 3.3271347e+10
-9.5472707e+28 0.0038842247 3.3440319e+10
-1.039645e+29 0.003896479 3.354582e+10
-1.0705285e+29 0.0040446268 3.4821263e+10
-1.0356384e+29 0.0042614192 3.6687684e+10
-3.3025554e+27 0.0042666993 3.6733145e+10
-7.2147706e+28 0.0043958183 3.7844763e+10
-9.9363578e+28 0.0044421456 3.8243607e+10
-6.6945646e+28 0.0046960991 4.0429961e+10
-1.0264788e+29 0.0047825766 4.1174471e+10
-1.067869e+29 0.004805292 4.1370034e+10
-1.0067009e+29 0.0048514204 4.1767162e+10
-9.7128585e+28 0.0049231527 4.2384728e+10
-2.4548698e+28 0.0051827854 4.4619973e+10
-9.9062026e+28 0.005378257 4.6302839e+10
-9.7803034e+28 0.0054215952 4.6675952e+10
-9.6178238e+28 0.0057761739 4.972861e+10
-9.5750278e+28 0.0057774689 4.9739764e+10
-3.7520276e+28 0.0058336598 5.0223522e+10
-1.0031876e+29 0.0058740093 5.0570904e+10
-9.8835759e+28 0.0058839722 5.0656678e+10
-1.0218975e+29 0.0060271388 5.1889234e+10
-9.9829099e+28 0.0062652514 5.3939208e+10
-3.0160614e+28 0.0062797973 5.4064439e+10
-1.0146853e+29 0.0063688653 5.4831247e+10
-5.1164796e+28 0.0064008459 5.510658e+10
-1.0041169e+29 0.006462018 5.5633224e+10
1.4262927e+28 0.0065050577 5.6003764e+10
-1.0271803e+29 0.0065933289 5.6763716e+10
-1.021448e+29 0.0067849145 5.841313e+10
-9.7515366e+28 0.006785911 5.8421707e+10
-9.7049996e+28 0.0068647172 5.9100168e+10
-9.7673764e+28 0.0073146406 6.2973678e+10
-9.6044585e+28 0.0075465762 6.4970473e+10
-1.0094418e+29 0.0076352456 6.5733853e+10
-1.005556e+29 0.0078622997 6.768862e+10
-9.8796081e+28 0.0079543563 6.8481163e+10
-1.0560318e+29 0.0079914182 6.8800242e+10
-9.9874207e+28 0.0080784941 6.9549892e+10
-9.8179255e+28 0.0085039083 7.3212404e+10
-9.9411547e+28 0.0085165612 7.3321333e+10
-1.0254485e+29 0.0085375831 7.3502319e+10
-1.1156884e+29 0.008545354 7.3569214e+10
5.9374495e+26 0.0086587314 7.4545316e+10
-9.6840464e+28 0.0086935023 7.484466e+10
-8.0122532e+28 0.0090527628 7.7937639e+10
-9.6370872e+28 0.0090832496 7.8200103e+10
-1.091462e+29 0.0091752065 7.8991786e+10
-9.9181502e+28 0.0093394946 8.0406184e+10
-9.8901078e+28 0.0093519483 8.0513401e+10
-9.7616132e+28 0.0095909573 8.2571092e+10
-9.6985432e+28 0.0095916549 8.2577097e+10
-1.0256325e+29 0.0095951417 8.260712e+10
-1.0571511e+29 0.0096160639 8.2787238e+10
-1.0703022e+29 0.0096206469 8.2826699e+10
-9.6139014e+28 0.0097824438 8.421965e+10
-9.671722e+28 0.0097997794 8.4368892e+10
-1.0831667e+29 0.010007306 8.6155551e+10
-1.3614877e+28 0.010165815 8.7520199e+10
-1.065463e+29 0.010480641 9.023062e+10
-1.072844e+29 0.010738481 9.2450431e+10
-1.0579612e+29 0.010855445 9.34574e+10
-1.0874975e+29 0.011159612 9.6076055e+10
-9.6706661e+28 0.01131025 9.7372938e+10
-3.9082628e+28 0.011651479 1.0031066e+11
-1.0818136e+29 0.011799626 1.0158611e+11
-1.0492013e+29 0.01190583 1.0250045e+11
-1.0228855e+29 0.01201323 1.0342508e+11
-1.0769412e+29 0.012128999 1.0442177e+11
-1.0319471e+29 0.01222245 1.0522631e+11
-1.0050536e+29 0.012296275 1.058619e+11
1.3621363e+28 0.012313312 1.0600857e+11
-6.0747682e+28 0.012622061 1.0866668e+11
-1.0917259e+29 0.012725277 1.0955528e+11
-1.0182666e+29 0.012824109 1.1040615e+11
-1.0265407e+29 0.012935194 1.1136251e+11
-1.0051155e+29 0.013053055 1.1237721e+11
-1.0225733e+29 0.013105659 1.128301e+11
-9.7864887e+28 0.013213856 1.1376159e+11
-1.0062574e+29 0.013410822 1.1545732e+11
-1.0401654e+29 0.013495008 1.161821e+11
-1.0198535e+29 0.013558173 1.167259e+11
-9.7163739e+28 0.01369576 1.1791043e+11
-1.00334e+29 0.01369576 1.1791043e+11
-3.0331377e+28 0.013715088 1.1807683e+11
-7.4317832e+28 0.013836336 1.1912068e+11
-1.0668598e+29 0.014014971 1.2065859e+11
-1.0348449e+29 0.014022443 1.2072292e+11
-9.9773743e+28 0.014125359 1.2160896e+11
-1.0392256e+29 0.014198686 1.2224025e+11
-4.1023764e+28 0.01436118 1.2363921e+11
-1.0661749e+29 0.014453038 1.2443003e+11
-1.0747433e+29 0.014635657 1.2600225e+11
-9.8411265e+28 0.014775137 1.2720307e+11
-1.0284203e+29 0.01479855 1.2740464e+11
-9.9997451e+28 0.015165383 1.305628e+11
-1.0554178e+29 0.015182121 1.307069e+11
-1.014527e+29 0.015459288 1.3309311e+11
-8.9508405e+28 0.015641509 1.346619e+11
-1.041511e+29 0.015786767 1.3591246e+11
-1.0420873e+29 0.01604132 1.3810396e+11
-7.0630457e+28 0.01620979 1.3955439e+11
-1.031389e+29 0.01629577 1.402946e+11
-1.0098552e+29 0.016613785 1.4303248e+11
-1.0422773e+29 0.016812744 1.4474537e+11
-9.779731e+28 0.016938077 1.458244e+11
-1.0580954e+29 0.017000245 1.4635962e+11
-9.8160404e+28 0.017123187 1.4741805e+11
-9.928921e+28 0.017269442 1.486772e+11
-1.1397625e+29 0.017269641 1.4867892e+11
-1.0333139e+29 0.017317962 1.4909492e+11
-5.3431315e+28 0.017779341 1.5306706e+11
-1.0330996e+29 0.018017653 1.5511875e+11
-8.412111e+28 0.018044852 1.5535291e+11
1.3813244e+28 0.018198181 1.5667297e+11
-1.0292092e+29 0.018559933 1.5978738e+11
-5.7727967e+27 0.019173346 1.6506842e+11
-1.0165665e+29 0.019215688 1.6543295e+11
