# .PCD v0.7 - Point Cloud Data file format
VERSION 0.7
FIELDS x y z
SIZE 4 4 4
TYPE F F F
COUNT 1 1 1
WIDTH 876
HEIGHT 1
VIEWPOINT 0 0 0 1 0 0 0
POINTS 876
DATA ascii
0.039077271 0.053700309 0.82460016
-0.0070457254 0.059719872 0.82300001
0.014474541 0.059850488 0.82480019
0.017553903 0.059092887 0.82493347
0.023191392 0.058827665 0.82480019
0.028097179 0.058312688 0.82475263
0.033044927 0.057935335 0.82375348
0.037469521 0.057428021 0.82307774
0.04197235 0.057687115 0.82379401
-0.0065283827 0.061711509 0.82233334
0.029854761 0.062146954 0.8247335
0.033412848 0.062345952 0.82397789
0.037504725 0.062847227 0.82384449
0.041763831 0.06174605 0.82450014
-0.0040049003 0.053986859 0.82900006
0.003729471 0.054043304 0.82986683
0.0075910892 0.053989038 0.82903367
0.013310308 0.053366374 0.82894689
0.01763556 0.053201128 0.82877797
0.022267202 0.053572871 0.82856685
0.02767241 0.053953223 0.82848358
0.033372544 0.053309035 0.82806671
0.037481323 0.052159075 0.8275584
0.042501576 0.052549019 0.82763344
0.046781324 0.052868359 0.82874304
0.050164845 0.05404764 0.8299334
-0.0055402345 0.057727944 0.82739294
-0.0024585063 0.057067282 0.82896018
0.0021768482 0.057008181 0.82810378
0.0077227326 0.05752233 0.82664889
0.012818321 0.05743954 0.82625449
0.017568478 0.057297736 0.82562
0.021848975 0.057186656 0.82574075
0.02715664 0.057021815 0.82582963
0.032199256 0.055307914 0.82570004
0.04372979 0.055283349 0.82533354
0.046752028 0.057242222 0.82702667
0.050130598 0.056325004 0.8293668
-0.0055443002 0.063934222 0.82800007
-0.0024558872 0.062407684 0.82818818
0.0021750883 0.06234866 0.82739991
0.0073921601 0.062836073 0.826805
0.012965254 0.063062973 0.82667392
0.017586168 0.06304571 0.82644433
0.02221749 0.063067295 0.82673311
0.027119869 0.063148439 0.82578671
0.031919394 0.063964367 0.82508904
0.042531189 0.063929722 0.82596004
0.046528842 0.062075578 0.82817155
-0.0055420678 0.066216983 0.8276667
-0.0024562946 0.067639597 0.82858884
0.0021795691 0.067679346 0.82907534
0.0075889225 0.067849971 0.82880026
0.013005387 0.067883164 0.82920778
0.0176378 0.067856409 0.8288818
0.02226704 0.067832276 0.82858545
0.027639655 0.067744158 0.82750553
0.03301657 0.06769298 0.82688141
0.037606865 0.067628473 0.82608891
0.042301938 0.067743927 0.82750356
0.045493916 0.06713023 0.82943362
-0.0040049003 0.070949949 0.82900006
0.023208601 0.072190665 0.8290804
0.026918024 0.072494678 0.82903004
0.032327745 0.072490938 0.8289836
0.037704326 0.071655236 0.82823342
0.042073738 0.071575008 0.82909364
0.030028509 0.075624891 0.82953364
0.028669115 0.049717795 0.83499974
0.032560937 0.04971581 0.83496642
0.037970964 0.049663544 0.8340888
0.042587016 0.049603999 0.83308905
0.04732205 0.04968207 0.83439988
0.051988605 0.049680084 0.8343665
0.058223177 0.048912425 0.83451033
-0.0022112951 0.05294406 0.83283502
0.0019957144 0.052485369 0.83274162
0.0076199146 0.05187453 0.83224171
0.01265444 0.051445454 0.83155
0.017708084 0.051096428 0.83215553
0.022372371 0.051732816 0.83245325
0.027038477 0.051905122 0.83273321
0.031932157 0.051610563 0.83213335
0.040894262 0.050980434 0.83026671
0.047900796 0.051021378 0.83093327
0.052790605 0.052455056 0.83139402
0.058076687 0.052660465 0.83240414
0.052588537 0.057247542 0.83155
0.05731995 0.056550939 0.83268899
0.048147675 0.06337136 0.83073336
0.051294696 0.061389275 0.83318651
-0.0024627596 0.069519483 0.83033347
0.0021821107 0.069491573 0.83000004
0.047803 0.067965478 0.83258343
-0.0016943113 0.072837442 0.832932
0.0021871249 0.072753035 0.83197039
0.0076139732 0.072718516 0.83157778
0.01304718 0.072745204 0.8318814
0.017688988 0.072693087 0.83128881
0.021157134 0.073009759 0.83050001
0.037789207 0.074131407 0.83008909
0.042870376 0.073830932 0.83104992
0.046822321 0.072655149 0.83339053
-0.0059709121 0.077944428 0.83370841
-0.00091909565 0.076105013 0.83479983
0.0025838651 0.076493338 0.83479983
0.0080723884 0.077274635 0.83437759
0.013084699 0.077165887 0.83426654
0.017746616 0.076807715 0.83398885
0.022582509 0.077307902 0.8330999
0.027029412 0.077442735 0.83245921
0.032673713 0.077577934 0.83240604
0.037950762 0.077551045 0.83362943
0.042616516 0.076778278 0.83366656
0.046543159 0.076065511 0.83436656
-0.0071313353 0.080589533 0.83300006
0.031783685 0.080783039 0.83499974
-0.0071313353 0.085238159 0.83300006
-0.0017039854 0.049892463 0.83793336
0.0022038911 0.049932152 0.8386001
0.0072085327 0.049304426 0.83854675
0.012355039 0.049093131 0.83760828
0.017824776 0.049095158 0.8376444
0.022512786 0.048514135 0.8377167
0.02699011 0.04809751 0.83724999
0.032338869 0.047661018 0.83786672
0.037704218 0.04744843 0.8380478
0.043004859 0.047159307 0.83688557
0.047485918 0.047182016 0.8372857
0.052175421 0.047853805 0.83736187
0.056829154 0.048050471 0.83691424
-0.0024803341 0.051323265 0.83585
0.058001716 0.058782496 0.83578938
0.052851364 0.062973537 0.83570004
0.056910235 0.062375169 0.83808899
0.060089841 0.061649889 0.83883911
0.051955026 0.067218751 0.8362999
0.057009801 0.0656064 0.83955556
-0.0055911718 0.074569985 0.83500004
-0.0040338864 0.074569985 0.83500004
0.048923593 0.073808111 0.83516645
0.052182414 0.072451651 0.83744681
-0.0071484577 0.076899886 0.83500004
-0.0026749186 0.077972077 0.83608478
0.0018846218 0.078648694 0.83542651
0.0063490714 0.078724653 0.83513325
0.01309776 0.079239294 0.83509988
0.017791696 0.079333089 0.83608884
0.020891011 0.079261422 0.83533305
0.042719502 0.07929305 0.83566666
0.047681667 0.07828892 0.8367905
0.051872417 0.076464564 0.83874995
-0.0055941478 0.082380116 0.83544451
-0.0024832685 0.082564272 0.83730149
0.0022008112 0.08254195 0.83708143
0.007194723 0.082368933 0.83690661
0.012557686 0.082662143 0.83686656
0.017811576 0.082538076 0.83704436
0.022482315 0.082493424 0.83658504
0.027164126 0.082495898 0.83660728
0.032892007 0.083032385 0.83679247
0.03807801 0.082478322 0.83642954
0.042820863 0.082598798 0.83765191
0.046503652 0.081625588 0.83833343
-0.0063783759 0.086323634 0.83600003
-0.0024880078 0.08587566 0.83923006
0.0022049982 0.085815199 0.83863926
0.0068978989 0.0866111 0.83878899
0.012283251 0.086846665 0.83854824
0.018162932 0.086461529 0.83885348
0.022537054 0.086593084 0.83861119
0.027035348 0.087184377 0.83866668
0.031921495 0.086594224 0.83862227
0.037656441 0.086852826 0.83860749
0.042111959 0.085862368 0.83910024
0.029012445 0.044025782 0.84499991
0.030588388 0.044025782 0.84499991
0.036892127 0.044025782 0.84499997
0.043959167 0.044001471 0.84453332
0.047858432 0.043965578 0.84384459
0.052630726 0.044008415 0.8446666
0.0572889 0.043956399 0.84366828
-0.0076099969 0.047449902 0.84300005
-0.0019771401 0.047596391 0.84330493
0.0022157393 0.047051631 0.84293306
0.0067030853 0.046574805 0.84240001
0.012432829 0.046261128 0.84279996
0.01753905 0.04665187 0.84276664
0.022652503 0.045875963 0.84291673
0.027333191 0.045427356 0.8418445
0.032064747 0.045454938 0.84235567
0.037575241 0.045471724 0.8426668
0.042212266 0.04538719 0.84109986
0.047679625 0.045365609 0.84069979
0.05249691 0.045463338 0.842511
0.0571809 0.045439351 0.84206659
-0.0056447401 0.050194152 0.84300005
-0.0040725344 0.050194152 0.84300005
0.060177784 0.064083666 0.84006655
0.057087738 0.068041988 0.84069985
0.060314197 0.067362972 0.8419711
0.057185497 0.072074845 0.84213334
0.060445201 0.070646979 0.84379995
0.052865446 0.078338265 0.84211665
0.056796018 0.076433152 0.84413338
0.048225354 0.083458722 0.84108877
0.052128945 0.082084693 0.84381908
-0.0056358124 0.087690651 0.8416667
-0.0025013217 0.088637888 0.84322405
0.0022118401 0.088441767 0.84135556
0.006917397 0.089206837 0.84119987
0.012663771 0.089152627 0.84068877
0.017497949 0.088764876 0.84071648
0.022593157 0.089154989 0.84071094
0.02886367 0.08915028 0.84066647
0.03199558 0.08914084 0.8405776
0.036681551 0.089098424 0.84017777
0.043232162 0.088100307 0.84130466
0.047815755 0.087838806 0.84308171
-0.0025045131 0.092688359 0.84440517
0.0022175079 0.092595011 0.84354836
0.006935284 0.092573233 0.84334826
0.012437433 0.092541926 0.84306121
0.017943121 0.092562772 0.843252
0.022639016 0.092471711 0.84242231
0.027336223 0.09241572 0.84191108
0.032057896 0.092447132 0.84220004
0.037537739 0.092405021 0.8418166
0.043073397 0.092489809 0.84259278
0.047085915 0.092655636 0.8441
-0.0032908225 0.095814496 0.84427094
0.0026142676 0.096250407 0.84464997
0.0069470927 0.095869482 0.84475547
0.012464928 0.095895328 0.84498328
0.02270449 0.095879562 0.84484434
0.027722299 0.09642449 0.84410679
0.032128017 0.097360842 0.8440519
0.037605647 0.097277381 0.84333366
0.042693164 0.097124584 0.84395248
0.03320967 0.10112094 0.84486657
0.036875147 0.10135239 0.84461117
0.041209903 0.10096614 0.84466672
-0.0072385315 0.043273345 0.84566671
-0.0025177251 0.044207256 0.84848309
0.0022271362 0.044144128 0.84727168
0.00696646 0.043351948 0.84721118
0.012498468 0.043350872 0.84718359
0.018059781 0.043428276 0.84870011
0.022786899 0.044177443 0.84791136
0.027211443 0.043223999 0.84780014
0.032575555 0.043209665 0.84752017
0.037411772 0.042201191 0.84783351
0.042100377 0.042407591 0.84760749
0.047781937 0.041976344 0.84806681
0.053166576 0.042612799 0.84818679
0.057574149 0.041808117 0.84786922
-0.0069188802 0.046855133 0.84500009
-0.0035646439 0.046218771 0.84677774
0.018771062 0.045603052 0.84509993
0.060531165 0.073105246 0.84500009
0.058477934 0.078146815 0.84568882
0.060687304 0.077234268 0.84717983
0.054293722 0.082637377 0.84603345
0.057521813 0.081953339 0.84708899
0.060784645 0.080514379 0.84853846
0.052750997 0.087414674 0.84657353
0.057426982 0.086427607 0.84902894
-0.0025067003 0.092763342 0.84509087
0.049529571 0.092810214 0.84551114
0.052060213 0.09310434 0.84818894
-0.0022857452 0.098110788 0.84664917
0.0019103795 0.098597839 0.84658468
0.0069606919 0.098417632 0.84638882
0.012489064 0.098447658 0.84664994
0.018004119 0.097596794 0.84609628
0.022741629 0.098398976 0.84623337
0.02705805 0.098706424 0.84549987
0.044833615 0.098391034 0.84616649
0.047872193 0.097568214 0.84755844
0.051309273 0.096336037 0.84886688
0.0022305984 0.10105473 0.84871119
0.0073760925 0.10145254 0.84873348
0.012520531 0.10185333 0.84878361
0.018251291 0.10240049 0.84840858
0.022807559 0.10263067 0.84868175
0.027537081 0.10256161 0.84810394
0.031709127 0.10293943 0.84688902
0.036944896 0.10390394 0.84619999
0.04312136 0.10306343 0.84737509
0.047078002 0.10157856 0.84868914
0.019666385 0.10591844 0.84973347
0.033104029 0.10581459 0.84890032
0.037288848 0.1069449 0.84891456
0.041368384 0.10719091 0.84907645
0.045026135 0.10592677 0.84980029
0.012598205 0.039728884 0.85400009
0.015003352 0.039772294 0.85493368
0.027738592 0.039743353 0.85431117
0.032506898 0.039728884 0.85400003
0.037283611 0.03972733 0.85396671
0.042449802 0.039320059 0.85375834
0.047210664 0.038976647 0.85246193
0.052575991 0.038507782 0.85336673
0.057939809 0.038899396 0.8532508
-0.0025274693 0.042032 0.85240704
0.0022400881 0.042027608 0.85231787
0.0069993506 0.041178256 0.8511222
0.012551226 0.041162267 0.85079157
0.018146386 0.041258346 0.85277778
0.022899339 0.042016014 0.85208327
0.027637577 0.041182023 0.85119992
0.032392707 0.041172344 0.85099989
0.036346097 0.041156217 0.85066664
0.043461695 0.041133642 0.85020006
0.049815927 0.041143313 0.85040015
0.052228563 0.041169114 0.85093343
0.061013069 0.083194621 0.85172725
0.058580279 0.088663079 0.85099989
0.061190907 0.087408453 0.85421014
0.054590385 0.091792919 0.85065556
0.057907522 0.092021808 0.85277778
0.061590727 0.092574693 0.85422969
0.049851071 0.099744231 0.85099989
0.053306162 0.097914897 0.85230005
0.058012083 0.096160956 0.85432237
0.061987363 0.095352754 0.85420364
-0.001573906 0.10274011 0.8521992
0.0022375705 0.10375743 0.85145003
0.0066792541 0.10382787 0.8507334
0.012553639 0.10449331 0.85099989
0.016516276 0.10446057 0.85073334
0.048582435 0.10322832 0.8510133
0.051564168 0.10316266 0.85308009
-0.0057239761 0.10973445 0.85483336
-0.0020018704 0.10806092 0.85417789
0.0022452699 0.10805205 0.85410005
0.007018615 0.10797647 0.85350007
0.01257464 0.1078445 0.85244989
0.017911343 0.10786676 0.85107076
0.02286613 0.1076418 0.85085917
0.027633078 0.10766588 0.85104805
0.032159474 0.1080913 0.85083801
0.036350586 0.10921243 0.85076666
0.043478742 0.10839152 0.85053349
0.046931166 0.10798375 0.85199171
0.050835077 0.10647522 0.85420012
-0.0041232598 0.11115097 0.85350007
0.0038394257 0.1112595 0.85433346
0.0070247655 0.11124214 0.85420012
0.012598814 0.11201917 0.85406673
0.018159846 0.11273228 0.85344446
0.02290589 0.1125863 0.85233331
0.027719267 0.1127651 0.85369265
0.032298118 0.11257435 0.85375005
0.037237741 0.11266514 0.85292953
0.041965228 0.1125425 0.85200363
0.046616398 0.11254115 0.85350424
0.01818944 0.11609054 0.85480016
0.022165956 0.11604528 0.85446686
0.038367536 0.11657507 0.85446674
0.041879691 0.11741593 0.85431677
0.045800846 0.1165663 0.8544001
0.046804685 0.03293737 0.85918677
0.051916972 0.033566386 0.85891128
0.055177204 0.03360112 0.85980004
-0.0014774287 0.039379377 0.85793656
0.0022529529 0.03989768 0.85762835
0.0070442185 0.039842602 0.85644454
0.011848424 0.038817003 0.85727781
0.017920885 0.038281716 0.85722017
0.023030888 0.038270935 0.85698539
0.027840221 0.037494782 0.8574335
0.032620184 0.037475225 0.85697788
0.037413653 0.037473757 0.8569445
0.042262301 0.03698758 0.85801125
0.047013745 0.035889473 0.85716671
0.052292872 0.035854381 0.85633349
0.057414081 0.035894409 0.85729772
0.062891096 0.088353723 0.85566676
0.05813079 0.098745644 0.85606694
0.062171377 0.098028228 0.85674173
-0.0041366257 0.1027507 0.85626668
0.05448224 0.10222316 0.85518366
0.058094125 0.10201736 0.85846663
-0.0029397667 0.10751705 0.85618305
0.051993873 0.10811663 0.85640973
0.055617552 0.10592588 0.85833335
-0.0057334621 0.11230527 0.85625005
-0.0020859763 0.11322277 0.85715568
0.0020522638 0.11333429 0.85649174
0.0070419456 0.11391143 0.85634464
0.01182882 0.11465824 0.85597801
0.015011539 0.11458083 0.85540026
0.034150202 0.11456296 0.85526675
0.04854374 0.11465228 0.85593361
0.051344667 0.11256928 0.85826665
-0.0014782926 0.11716718 0.85880184
0.0020303482 0.11785509 0.85938102
0.0072892108 0.11774192 0.8585524
0.011856029 0.11811697 0.85795563
0.017353296 0.11805788 0.85647905
0.023235794 0.11831862 0.85612404
0.027824767 0.11797868 0.85695571
0.032622453 0.11798865 0.85702974
0.036833219 0.11835548 0.8558448
0.043744549 0.11940098 0.85573357
0.047537196 0.11850943 0.85695571
0.050859403 0.1166729 0.8590889
0.017821712 0.12214822 0.85905713
0.023067765 0.12216405 0.85836667
0.027900293 0.12229377 0.85927778
0.032939103 0.1226454 0.85934293
0.037458804 0.12291004 0.85799998
0.042231217 0.1228245 0.85740006
0.046880934 0.12257899 0.85887623
0.038326271 0.12632191 0.85950017
0.041537777 0.12633662 0.85960019
0.017587837 0.033782199 0.86443341
0.023228526 0.033778287 0.86433339
0.02833125 0.033069536 0.86264002
0.032822322 0.032093961 0.86228776
0.037791852 0.032247081 0.86102515
0.042367954 0.032816108 0.86018902
0.052062809 0.032058805 0.86133337
-0.0020214929 0.037431251 0.86206251
0.0017312617 0.037456591 0.862688
0.0070928228 0.038518906 0.86247784
0.011522161 0.037333097 0.86290014
0.017068706 0.035638463 0.86266661
0.023176616 0.035306972 0.8624
0.027983317 0.035284225 0.86184448
0.032754201 0.035229634 0.8605113
0.037547018 0.035208706 0.86000019
0.041556798 0.035208706 0.86000019
0.062158074 0.10278294 0.86129916
0.057466242 0.10798863 0.86205
0.061839018 0.10680217 0.86326128
0.053650498 0.11293291 0.8610332
0.056205135 0.11242274 0.86326122
-0.0025551997 0.11860303 0.86150002
0.0022609823 0.1199963 0.86000019
0.0062707588 0.1199963 0.86000019
0.0526198 0.11782321 0.86166126
0.05539326 0.11562122 0.86316693
-0.0023548147 0.12201631 0.86155194
0.002493216 0.12219165 0.86097145
0.0070807817 0.12254062 0.86101121
0.011892602 0.12248347 0.86061126
0.017500075 0.12441017 0.86010015
0.023112418 0.12479884 0.86002237
0.027928649 0.1248182 0.86015576
0.031938162 0.12481497 0.86013353
0.047974329 0.12480046 0.86003351
0.051423453 0.12211039 0.86137331
-0.0013520854 0.12634572 0.86239409
0.0022695684 0.12684818 0.86307454
0.0070989546 0.12686418 0.86318165
0.011925302 0.12683587 0.86298883
0.017532673 0.12745079 0.86172676
0.023140274 0.12815589 0.86107415
0.027955076 0.12814052 0.86097044
0.032765076 0.12811315 0.86078525
0.037360173 0.12859836 0.86097151
0.042651236 0.12864368 0.86127621
0.047278937 0.12828875 0.86197031
0.051369771 0.12686364 0.86317784
-0.00095031981 0.13247997 0.86316073
0.017738644 0.13082865 0.86392009
0.023596387 0.13206202 0.86304998
0.027995026 0.13153028 0.86219996
0.032830432 0.13157435 0.86248893
0.037680697 0.1316625 0.86306685
0.042930979 0.13212045 0.86343354
0.046963267 0.13214087 0.86356688
0.050653614 0.13030311 0.86470014
0.0039053396 0.029111145 0.8689999
0.0055260356 0.029111145 0.8689999
0.028188152 0.029083973 0.86818886
0.0029321308 0.03296366 0.86830664
0.0071458616 0.032340813 0.86891103
0.01199861 0.032317445 0.86829638
0.016301047 0.032016631 0.86745483
0.022345003 0.031966306 0.8675667
0.027745184 0.031059125 0.86697567
0.0033555937 0.036014814 0.86658746
0.0071300804 0.036302283 0.86703348
0.011978575 0.035488918 0.86684448
0.061236966 0.10957175 0.86611676
0.058928255 0.11301571 0.86781102
0.061023492 0.1127442 0.86883342
0.057501189 0.11803297 0.86761671
0.060655288 0.11726061 0.86936671
-0.0041812323 0.12076371 0.86550003
0.053923067 0.12236098 0.86540747
0.056071181 0.12224164 0.86741674
0.054019447 0.12741767 0.86695409
0.055760492 0.12770255 0.86888885
-0.0025668989 0.1320252 0.86544442
0.0022792546 0.13220911 0.86664176
0.007135605 0.1323545 0.86759257
0.011992291 0.13239576 0.86786294
0.016517537 0.13329904 0.86744004
0.021664217 0.13376553 0.86628896
0.028107544 0.13366945 0.86566681
0.032991394 0.13383417 0.86673349
0.037824553 0.13377756 0.86636686
0.041829854 0.13366689 0.86565018
0.04832112 0.13375954 0.86625016
0.052412536 0.1322799 0.86710793
0.055827495 0.13109179 0.86993349
0.002487357 0.13719881 0.86889088
0.0068247803 0.1364935 0.86929333
0.012826137 0.13587876 0.86950004
0.016871188 0.13644931 0.86901319
0.022734525 0.13709933 0.86791223
0.028172307 0.13720563 0.86765563
0.033050783 0.13730566 0.86828887
0.037895966 0.13726008 0.86800009
0.042706925 0.13711391 0.86707789
0.047579978 0.13717318 0.86745191
0.051452458 0.13635685 0.86911106
0.0022842048 0.14062317 0.86883348
0.023689073 0.14136639 0.86942673
0.028223246 0.14149658 0.86923331
0.033087146 0.14149834 0.86924428
0.037946079 0.14228997 0.86914068
0.04279862 0.14225595 0.86893332
0.047127679 0.1417387 0.86906666
0.037974887 0.14563362 0.86979997
0.042811688 0.14553319 0.86919993
0.046071682 0.14558898 0.86953336
0.022594329 0.029177025 0.87096685
0.025014622 0.029158045 0.87040013
0.062367395 0.11419183 0.87063354
0.062851772 0.11850975 0.87090999
0.065642513 0.1199109 0.87100017
0.05845847 0.12339817 0.87045348
0.062420547 0.12320295 0.8713631
0.065782487 0.12260223 0.87285721
0.05840629 0.12817499 0.87210006
0.062532812 0.12748455 0.87293226
0.065793261 0.12505808 0.87300009
0.054238301 0.13441059 0.87046665
0.0573349 0.13286905 0.87310666
0.060973898 0.13006885 0.87393314
0.00066496589 0.13924697 0.87033337
0.0075692851 0.13894863 0.87100023
0.011803827 0.13818893 0.87095261
0.016905015 0.13891147 0.87076688
0.02013544 0.13919359 0.87
0.05299487 0.13811414 0.87136012
0.056146257 0.13672264 0.8749001
0.0027017638 0.14244929 0.87259215
0.0073825181 0.14270654 0.87292069
0.01205649 0.14283529 0.87246656
0.016917627 0.14266399 0.87142235
0.021240488 0.14312734 0.87095571
0.027450766 0.14412327 0.87045002
0.033130944 0.144115 0.87040013
0.04883939 0.14362307 0.87068909
0.051765561 0.14252421 0.87255335
0.0022983954 0.14637546 0.8742308
0.012089415 0.14647828 0.87484437
0.017196061 0.14746048 0.87377125
0.021639144 0.14765942 0.87339997
0.027616015 0.14722651 0.8728407
0.032885738 0.14787847 0.87253332
0.038032167 0.14767802 0.87111682
0.0428911 0.14823304 0.87081128
0.048025675 0.14780527 0.8718667
0.051198419 0.14715046 0.87399995
0.034934148 0.15136996 0.87490004
0.038134512 0.15112199 0.87346649
0.043011274 0.15189852 0.87325555
0.046937145 0.15244031 0.87356651
0.059473004 0.13361005 0.87583339
0.062808506 0.13259071 0.87678236
0.057988666 0.13721816 0.87807333
0.061397173 0.13588263 0.87999976
0.0039330521 0.14490423 0.87516677
0.0055641895 0.14487664 0.87500006
0.054182742 0.14261876 0.8761251
0.056837708 0.14190571 0.87928313
0.0026317243 0.14740483 0.87649727
0.007204799 0.14751504 0.87616682
0.012096797 0.14819397 0.87536669
0.016173292 0.14977673 0.87510008
0.023522994 0.14981095 0.87530005
0.025981817 0.14987086 0.87565005
0.054070186 0.14737979 0.87827337
0.0025128848 0.15205875 0.87770003
0.0072211442 0.15191807 0.87806684
0.01212984 0.15186641 0.87776685
0.01704115 0.15268548 0.87778354
0.021954097 0.15269414 0.87783355
0.026863551 0.15268548 0.87778354
0.03175116 0.15257204 0.87712789
0.037998665 0.15384044 0.87661117
0.043121759 0.15473096 0.87550002
0.049101043 0.15307736 0.87535554
0.051835794 0.15147801 0.87788343
0.0023107152 0.15648189 0.87879509
0.0072287 0.15698045 0.87897038
0.01214321 0.15693691 0.87872601
0.017064331 0.15697926 0.87896287
0.021981835 0.15697375 0.87893325
0.026912069 0.15705138 0.87937027
0.031796649 0.15687385 0.87837785
0.037183233 0.1571191 0.87792361
0.043225568 0.15755123 0.87760013
0.048407082 0.15731928 0.87825722
0.0515128 0.1562328 0.87936652
0.012981435 0.16043715 0.87999976
0.026930278 0.16042906 0.87995529
0.031841516 0.16036831 0.87962204
0.036746066 0.16111182 0.87921113
0.043069728 0.16122329 0.87918091
0.047422137 0.1603521 0.87953317
0.059774045 0.13838008 0.88026643
0.062425584 0.13794394 0.88061619
0.059035107 0.14267024 0.88148338
0.062373094 0.14279102 0.88221669
0.00067235151 0.14734143 0.88000005
0.057398777 0.14761035 0.88160008
0.062523074 0.1464192 0.8843168
0.054045163 0.15234622 0.88054156
0.056704726 0.15232728 0.88360006
0.002313904 0.15885131 0.88028318
0.052902013 0.15793216 0.88200825
0.0026511648 0.16162792 0.8829217
0.007258547 0.16172335 0.88254434
0.01196673 0.16308399 0.88292378
0.01712708 0.16227272 0.88217914
0.022061033 0.16246551 0.88211107
0.02699443 0.16327573 0.88206655
0.031903159 0.16313908 0.88132757
0.03681219 0.16385788 0.88078862
0.040902667 0.16297626 0.88044977
0.047499031 0.16279905 0.88096642
0.051476106 0.16270269 0.88341117
0.021300646 0.16623122 0.88470012
0.027050612 0.1660767 0.88387793
0.031997021 0.16608298 0.88391113
0.036945522 0.16609341 0.88396674
0.042191498 0.16664109 0.88338012
0.046386242 0.16637021 0.88325006
0.050190356 0.16628133 0.88496685
0.061360069 0.14783122 0.88538337
0.057673335 0.15325871 0.88581651
0.061954934 0.15198474 0.88799244
0.065341078 0.15380949 0.88900006
0.056969803 0.1568877 0.88770479
0.002329967 0.16437979 0.88655329
0.007280705 0.16469301 0.88527793
0.017181536 0.16464135 0.88500011
0.053594075 0.16330202 0.8866666
0.055330794 0.16189675 0.88799983
0.0034374185 0.16732089 0.88756651
0.0072952737 0.16749699 0.88704425
0.012248576 0.16736722 0.8863554
0.017208746 0.16799349 0.88639569
0.022404222 0.16867331 0.88640934
0.027122723 0.1689949 0.88624436
0.032089055 0.16903503 0.88645548
0.037047956 0.16903074 0.88643318
0.041581515 0.16939196 0.88616657
0.04727874 0.16912858 0.88607991
0.0525336 0.16728204 0.88736099
0.05542529 0.16630916 0.88951671
0.0039964179 0.17039768 0.88926667
0.0076422766 0.17099306 0.88891995
0.012279227 0.17192256 0.88859248
0.017243415 0.17231657 0.88819039
0.022209572 0.17264211 0.88804418
0.027174311 0.17261845 0.88792199
0.03214027 0.1726097 0.88787764
0.037078258 0.17247093 0.88716632
0.041806675 0.17282736 0.88718069
0.047071666 0.17271101 0.8883999
0.051254176 0.17119312 0.88910002
0.017816415 0.17645466 0.8892222
0.022240132 0.17701638 0.88927406
0.02721397 0.17700611 0.88922215
0.032184307 0.17677313 0.88909161
0.03714928 0.17693518 0.8888666
0.042313673 0.17707416 0.88852495
0.046913188 0.1768197 0.88932508
0.022258192 0.18047158 0.88999993
0.038006864 0.18037699 0.88953346
0.042152837 0.18036796 0.889489
0.058797169 0.1590087 0.89033359
0.06200977 0.15739639 0.89175022
0.065661401 0.15705767 0.89335811
0.057890229 0.16223738 0.89169359
0.06072925 0.16221875 0.89433378
0.05690226 0.16823611 0.89315861
0.0034528791 0.17304842 0.89155573
0.0069132121 0.17367131 0.89120853
0.052920353 0.17324598 0.89200687
0.055705674 0.17213982 0.89401692
0.0040220348 0.17648435 0.89496678
0.00768037 0.17685121 0.89345348
0.012536713 0.17738947 0.89218354
0.016186094 0.17842023 0.89077789
0.032219771 0.17882948 0.89006674
0.048878118 0.1790438 0.89113349
0.051456347 0.17767833 0.89259464
0.014035209 0.1814585 0.89486682
0.017815055 0.18253258 0.89313358
0.022318622 0.18283123 0.89241695
0.027297772 0.18253081 0.89196324
0.032287464 0.1825262 0.89194107
0.03702775 0.1829375 0.89163828
0.042255137 0.18329489 0.8916502
0.04710374 0.18252029 0.89292943
0.050732926 0.18139093 0.89453351
0.023212645 0.1864384 0.89480031
0.027369509 0.18633653 0.89431149
0.032371435 0.18632729 0.89426702
0.037706256 0.18698058 0.894207
0.042021532 0.18688871 0.893767
0.045738202 0.18642452 0.89473343
0.064170212 0.1599851 0.89579999
0.05910971 0.16484906 0.89506668
0.063395441 0.16263914 0.89665002
0.066044241 0.16215171 0.8985669
0.059199966 0.1676023 0.89643347
0.062633395 0.16700755 0.89771491
0.065998517 0.16704899 0.89794463
0.05812249 0.17271154 0.89698911
0.062737666 0.17062837 0.8992002
0.066127524 0.17072324 0.89970016
0.007367278 0.17943037 0.89582223
0.010705304 0.17992783 0.89553338
0.054142095 0.17746899 0.89573336
0.05764268 0.17711987 0.8981908
0.0071415775 0.18247178 0.89750969
0.012050117 0.18272927 0.8962
0.015706483 0.18315037 0.89500022
0.049104851 0.18487039 0.89526665
0.053094581 0.18241201 0.89682788
0.056568027 0.18115693 0.89887804
0.007601025 0.1870618 0.89879185
0.012405739 0.18705481 0.89775586
0.017158469 0.18719077 0.89612377
0.021985855 0.18789689 0.89580005
0.027415747 0.18831791 0.89582223
0.032432009 0.18834126 0.89593333
0.035768673 0.18831323 0.89579999
0.044085938 0.18815908 0.89506668
0.047792152 0.18762445 0.8956933
0.052086014 0.1867214 0.89730018
0.012756643 0.19131002 0.89892024
0.017626464 0.19173412 0.89718342
0.022427209 0.19185153 0.89675564
0.027447101 0.19186987 0.89684081
0.032477345 0.19194238 0.89717782
0.037501622 0.19196782 0.89729637
0.042495541 0.19184682 0.8967334
0.047540653 0.19195683 0.89724839
0.051515136 0.19110191 0.89846689
0.019119345 0.19556631 0.89850026
0.02248954 0.1957259 0.89923352
0.027516397 0.19569688 0.89910024
0.038445588 0.19584921 0.8998003
0.043154135 0.19675435 0.89883351
0.047333527 0.1967067 0.89861685
0.062885195 0.17318694 0.90131932
0.066342093 0.17379734 0.90261972
0.059488349 0.17931026 0.90080017
0.062751606 0.17774525 0.90242088
0.066953123 0.17756499 0.90328503
0.058242619 0.18330105 0.90230006
0.061412819 0.18170924 0.90439999
0.0057375804 0.18967262 0.90226686
0.054439276 0.18849567 0.90065026
0.057745777 0.18730006 0.9035477
0.0082545467 0.19286782 0.90150577
0.012040278 0.19416159 0.90167522
0.015800666 0.19429781 0.9003669
0.05316031 0.19324884 0.90172684
0.05633191 0.19173278 0.90406674
0.0085579567 0.19730757 0.90392214
0.012486227 0.19734202 0.90356666
0.017172258 0.19730754 0.90187359
0.022558907 0.19885071 0.90202242
0.027607789 0.19886422 0.90208358
0.032627042 0.19701584 0.90130574
0.037680048 0.19818859 0.90155572
0.041564692 0.1988427 0.90072244
0.048277497 0.19881321 0.90058917
0.051870145 0.1978229 0.90269345
0.0192456 0.20022266 0.90443337
0.024318475 0.20200916 0.90490001
0.026842576 0.20195335 0.90465003
0.032732964 0.2001784 0.90423328
0.038197346 0.20177516 0.90384996
0.042992678 0.20259722 0.90216202
0.047602918 0.20291805 0.90238762
0.051318992 0.20200174 0.90486664
0.042861376 0.20583586 0.90445548
0.046257924 0.20705906 0.90490001
0.063777953 0.18260336 0.90605015
0.067448176 0.18206637 0.90617132
0.070128098 0.18328679 0.90804791
0.059897788 0.18898048 0.90700042
0.062822558 0.18712771 0.90736216
0.066919632 0.18762907 0.90760225
0.058486026 0.19234516 0.9069559
0.062033609 0.19285963 0.90937781
0.066490866 0.19182122 0.90926677
0.0063229972 0.19828521 0.90583342
0.012511835 0.19875234 0.9054001
0.054773401 0.19723864 0.906178
0.057013258 0.19725604 0.90820014
0.0040874989 0.2047355 0.90953368
0.0074590775 0.20247422 0.90697807
0.012538724 0.20255508 0.90734112
0.017390173 0.20261157 0.90665019
0.022318128 0.20324674 0.90591347
0.028150313 0.20352268 0.90601683
0.032805171 0.20315246 0.9062447
0.036719039 0.20326848 0.9055112
0.053149372 0.20254354 0.90729362
0.0074772071 0.20636182 0.9092446
0.012803301 0.20750822 0.90897167
0.01763132 0.20780931 0.90817821
0.022702919 0.20772125 0.90779293
0.027783437 0.20772852 0.90782261
0.032873541 0.20779975 0.90813375
0.037904274 0.20752701 0.906941
0.042593233 0.20830688 0.90593338
0.048563391 0.20785619 0.90592784
0.052191716 0.20749971 0.90830028
0.018790826 0.21209307 0.90964437
0.022944173 0.21285041 0.90896261
0.027400339 0.21183674 0.90915006
0.033781167 0.21155736 0.90976667
0.038329434 0.21205425 0.90899342
0.043248221 0.21266198 0.90815437
0.047932163 0.21277501 0.90863764
0.051591214 0.21153411 0.90966666
0.063546076 0.19485503 0.91079992
0.066945568 0.1942976 0.91083336
0.05845223 0.19825079 0.91083336
0.061643649 0.19766036 0.91280001
0.067145854 0.19630122 0.91358346
0.056809768 0.20267926 0.91170567
0.060371086 0.20067674 0.91416705
0.0074884016 0.20837098 0.91063333
0.011727678 0.20993422 0.91006666
0.056012928 0.20712125 0.91259181
0.0087884218 0.2119552 0.91330016
0.01260597 0.21298341 0.91224998
0.016540462 0.2128052 0.91027766
0.02870417 0.21334735 0.91018331
0.032527626 0.21295144 0.91029996
0.036344972 0.21335909 0.91023326
0.052970346 0.21238509 0.91149998
0.055255625 0.21257865 0.91415578
0.012969037 0.21658175 0.91382682
0.017725861 0.21742211 0.91306686
0.022565553 0.21765642 0.91201913
0.063848391 0.19918673 0.91513366
0.065736607 0.19973807 0.91766661
0.058736749 0.2043234 0.91526675
0.062287029 0.20277709 0.91725546
0.058189314 0.20780392 0.91560012
0.061520651 0.20677385 0.9185915
0.0066810292 0.2131048 0.91642511
0.057977159 0.21232374 0.91673332
0.066016003 0.20315981 0.92156678
0.063899443 0.20797513 0.92201674
0.066245206 0.20644419 0.9247666
0.067994431 0.20479779 0.92510003
0.070056356 0.20405741 0.92956662
