# .PCD v0.7 - Point Cloud Data file format
VERSION 0.7
FIELDS x y z
SIZE 4 4 4
TYPE F F F
COUNT 1 1 1
WIDTH 1106
HEIGHT 1
VIEWPOINT 0 0 0 1 0 0 0
POINTS 1106
DATA ascii
0.039093066 0.053722009 0.82493347
0.022907868 0.058248248 0.82384449
0.02748855 0.05742 0.82297909
0.032861814 0.058188934 0.82300001
0.037633438 0.057902746 0.82329339
0.04136695 0.05827868 0.82426685
0.023686223 0.062872089 0.82417798
0.027473206 0.06274657 0.82253331
0.032869175 0.062795706 0.82317781
0.037103109 0.061667468 0.82345009
0.027521793 0.065922305 0.82398349
0.032936361 0.065992981 0.82486689
0.013393037 0.053620778 0.82930028
0.017631529 0.05318971 0.82860023
0.021948298 0.053319305 0.82822669
0.027656026 0.053918485 0.82795
0.033453472 0.053545665 0.82815003
0.037385337 0.052996833 0.82800007
0.042324048 0.053147074 0.82794458
0.04697578 0.053168744 0.82827789
0.0099110203 0.05707702 0.82908916
0.012992542 0.057033103 0.82845211
0.017746529 0.057224434 0.82676649
0.021413999 0.056827873 0.82547784
0.032941684 0.05526102 0.82500011
0.036788274 0.05526102 0.82500017
0.042948108 0.056802377 0.82510018
0.046709459 0.057191115 0.82628649
0.0099099586 0.060155269 0.82900035
0.013193665 0.061500289 0.82893354
0.017470576 0.062576286 0.82763022
0.021425642 0.063006215 0.82593322
0.037865318 0.063855104 0.82500017
0.042220261 0.06300506 0.8259111
0.047092184 0.062592506 0.82784843
0.018160878 0.067371599 0.82924479
0.022236329 0.067741223 0.82746667
0.027583744 0.068375245 0.82583344
0.032964919 0.067778237 0.82557511
0.037633393 0.067673974 0.82665163
0.042310782 0.067758814 0.82768142
0.046588816 0.067665681 0.82924789
0.022714833 0.072255768 0.8288098
0.027623983 0.07231918 0.8270219
0.033030495 0.072336376 0.82721466
0.037512019 0.072234496 0.82824171
0.042074095 0.071576111 0.82910699
0.045499403 0.070995584 0.82953358
0.023834396 0.075606659 0.8293336
0.027683517 0.07607428 0.82882243
0.031942088 0.076926664 0.8290087
0.038777307 0.049699932 0.83469987
0.0426424 0.049668837 0.83417779
0.047323268 0.049683392 0.83442205
-0.0014384113 0.053859834 0.83499974
0.0024149881 0.053224567 0.8343237
0.0076248012 0.052691523 0.83292222
0.012722912 0.05164184 0.83097333
0.017699776 0.051071867 0.83175558
0.022775531 0.051536933 0.83303338
0.027065845 0.051957209 0.83356661
0.032167487 0.051839627 0.83344758
0.037812095 0.051000904 0.83059996
0.042474922 0.051020011 0.8309111
0.047119919 0.051014554 0.83082217
0.0523981 0.052765802 0.83186668
0.057094783 0.053742319 0.83317786
-0.00091931579 0.057484109 0.83499974
0.0021920833 0.057430997 0.83422959
0.0068417951 0.057281394 0.83205926
0.052334156 0.057057332 0.83084238
0.056991037 0.057550699 0.83274609
0.0025062582 0.061204206 0.83489311
0.0076274746 0.062008649 0.83317327
0.013031811 0.064417116 0.83093327
0.051852345 0.061932445 0.83214819
0.056934167 0.061128903 0.83385867
0.0094601968 0.065752536 0.83479983
0.013258754 0.067613475 0.83300006
0.016659265 0.069100969 0.83148885
0.048658006 0.068772078 0.83063328
0.050671089 0.066966355 0.83316004
0.014653536 0.072240099 0.83499974
0.017721122 0.072830535 0.83285928
0.020787649 0.073457897 0.83119988
0.039333165 0.074123465 0.82999998
0.042863034 0.073819309 0.83091658
0.047355156 0.072909139 0.83154994
0.050442889 0.071423531 0.83453315
0.018151261 0.076487251 0.83473319
0.022387851 0.077500328 0.83309519
0.026595647 0.078468651 0.83104992
0.034234051 0.078379244 0.83146662
0.037931006 0.077508807 0.8331778
0.042626068 0.076795563 0.83385557
0.04698211 0.076642469 0.83387995
0.023474323 0.081287883 0.83486646
0.027272485 0.082041748 0.83396655
0.032513618 0.082211964 0.83372205
0.036448732 0.082321234 0.83484417
0.02789047 0.085442789 0.83499974
0.03256233 0.085442789 0.83499974
-0.011041671 0.04971781 0.83500004
-0.0067787003 0.049473953 0.83744961
-0.0024878718 0.049944058 0.83880019
0.0037705158 0.049955968 0.83900017
0.0072887545 0.049554817 0.83881682
0.012697769 0.049231865 0.83807617
0.017829139 0.049263917 0.83786666
0.022513883 0.049102586 0.83776665
0.027192524 0.048305992 0.83748156
0.032065235 0.048879083 0.83728337
0.037605718 0.048306912 0.83748889
0.043041758 0.047201265 0.83761901
0.047466025 0.047497746 0.83694434
0.052191857 0.049093235 0.83761114
-0.011635412 0.0525539 0.83774287
-0.0071690697 0.052972347 0.83733332
-0.0030007863 0.052391902 0.83636659
0.0014192029 0.051369313 0.83659983
0.057208709 0.051765308 0.83672184
-0.010320799 0.057026841 0.83970016
-0.0071769473 0.057703502 0.83817792
-0.0032608935 0.057578892 0.83636647
-0.0056197429 0.061681092 0.83926684
-0.0024853211 0.062338293 0.83759993
0.0018078852 0.063382484 0.83596647
0.0053106737 0.063707307 0.83513314
0.055819944 0.063358843 0.83735561
-0.001314502 0.066705361 0.83863342
0.0022024501 0.06703601 0.83788896
0.0070517561 0.067264944 0.83643693
0.011539893 0.068362422 0.83506638
0.052887131 0.06768167 0.83625549
0.055473171 0.065641128 0.83999991
0.0037705158 0.070245117 0.83900017
0.0074205282 0.071278639 0.83891129
0.011697193 0.07281629 0.83715552
0.052159805 0.07275299 0.83708572
0.013141844 0.077177428 0.83801103
0.017499503 0.078801796 0.8370533
0.020902684 0.079305701 0.83579981
0.042762384 0.079373151 0.83651108
0.047856439 0.079024278 0.83693326
0.051159963 0.076896779 0.83777779
0.014714378 0.081118397 0.8384667
0.018052474 0.082177125 0.83789527
0.021963933 0.083018444 0.83665544
0.0255627 0.083916344 0.83526635
0.038867597 0.082498029 0.83663327
0.042650279 0.082452185 0.83814168
0.047555815 0.081902273 0.83850008
0.019416431 0.085845314 0.83893353
0.022515632 0.08729475 0.83785921
0.026937116 0.087595992 0.83648556
0.032618709 0.087924741 0.83644158
0.038126931 0.087254554 0.83747411
0.041330982 0.085865781 0.8391335
0.023590377 0.091054447 0.83900017
0.027208425 0.09198565 0.83799267
0.032205041 0.091815211 0.83786011
0.036314815 0.091777265 0.83894682
0.030380845 0.095246561 0.83926684
0.04319587 0.044025782 0.84499991
0.047882508 0.043987576 0.84426671
-0.0056447401 0.047057863 0.84300005
-0.0024991175 0.04797462 0.84259999
0.0022180295 0.047101825 0.84381479
0.0067360108 0.046857797 0.84296656
0.01204332 0.046663776 0.84299999
0.017616052 0.047036685 0.84265339
0.022619465 0.046592485 0.84169996
0.027382998 0.045508903 0.84335566
0.032395504 0.04610512 0.84281319
0.037239935 0.046143163 0.84268558
0.042215303 0.045390781 0.8411665
0.047675606 0.045361403 0.84062201
0.052536931 0.046280522 0.84314442
0.05651664 0.047891092 0.8438834
-0.015042202 0.054768331 0.84100002
-0.012688395 0.05476616 0.8409667
0.001426512 0.050053224 0.84063315
0.056317277 0.050069101 0.8409
0.06041348 0.052567407 0.84335721
-0.015077974 0.058034863 0.84300005
-0.012382516 0.058252789 0.84291464
-0.011941191 0.062778339 0.84351683
-0.0076514152 0.06283801 0.8413142
-0.015100628 0.06833037 0.84426665
-0.011948818 0.067531221 0.84408927
-0.0072143003 0.067412257 0.84259272
-0.003435865 0.067601703 0.84105319
0.056459993 0.067572378 0.8406933
-0.013516448 0.070635818 0.84366673
-0.0067077149 0.071782336 0.84484434
-0.0025017103 0.072159782 0.84312606
0.0020160675 0.072232075 0.84168333
0.0058700182 0.073010333 0.84088868
0.053936496 0.073494762 0.84046662
0.055682294 0.071379259 0.84316671
-0.0021906772 0.076059654 0.84463996
0.0022182735 0.076934218 0.84388155
0.0070699765 0.077365883 0.84236377
0.011622936 0.079029404 0.84113318
0.052754633 0.077979133 0.84161341
0.0037974806 0.080178641 0.84499991
0.0074709766 0.082499854 0.84462219
0.012206262 0.083178528 0.84209096
0.017100323 0.084438771 0.84046662
0.044549275 0.084472261 0.84079987
0.047678079 0.084458865 0.84066653
0.051590014 0.08282204 0.84309942
0.013061185 0.087583147 0.84397793
0.017710032 0.087873124 0.84153324
0.043229491 0.087900855 0.84179997
0.0477814 0.087777242 0.842489
0.051031239 0.087176353 0.84426653
0.014829034 0.091181673 0.84499991
0.018475942 0.092080146 0.84362239
0.022093797 0.092904054 0.84161109
0.038805034 0.092826635 0.84091091
0.043098461 0.092543587 0.84308171
0.047878809 0.09266679 0.84419996
0.023212256 0.096857667 0.84423333
0.027338652 0.097126745 0.84201485
0.032215741 0.097227074 0.84119987
0.037546232 0.097120024 0.84196663
0.042699866 0.097138338 0.84407628
0.046347741 0.09589722 0.84499991
0.028218757 0.10137894 0.84483331
0.032316554 0.10184854 0.84383345
0.037139468 0.10184252 0.8434602
0.041302193 0.10186392 0.84494656
0.036892131 0.1053284 0.84499991
0.06556917 0.038706787 0.84901685
-0.002511556 0.044158679 0.84755081
0.0022294775 0.04339534 0.84805816
0.0069729541 0.043384422 0.84784466
0.012506858 0.043384887 0.8478502
0.018052237 0.04340918 0.84832239
0.022802839 0.044207543 0.84848922
0.027524516 0.044168185 0.84773356
0.032665446 0.043775033 0.84776682
0.037019771 0.04338837 0.84792238
0.042655557 0.042812798 0.84768587
0.047782391 0.041977011 0.84808028
0.05281115 0.043369647 0.84755582
0.057362974 0.043058615 0.84808594
0.062575214 0.042835265 0.84867531
0.066611506 0.042824041 0.84788853
-0.005658132 0.045597646 0.84500003
-0.0025082894 0.046035402 0.84583002
0.013255185 0.045604851 0.84513324
0.018780781 0.045626435 0.84553331
0.022713836 0.045608446 0.84519994
0.058092337 0.046606787 0.84618664
0.062317975 0.047330663 0.84786689
0.066867508 0.047116425 0.84874457
0.058997087 0.05034896 0.84559995
0.06193839 0.051679336 0.84809178
0.067198753 0.050587136 0.84960026
-0.01671413 0.058571022 0.84619999
-0.015763497 0.062961444 0.84600008
-0.016190704 0.067188926 0.84633332
-0.016762724 0.071054444 0.84866667
-0.011462436 0.072228745 0.8469941
-0.0082949931 0.07345441 0.84599996
0.05582536 0.073920324 0.84533322
-0.0070375749 0.076884389 0.84829062
-0.0029053369 0.078339078 0.84634995
0.054308712 0.078724585 0.84626663
0.055991188 0.077295698 0.8478446
-0.0056853625 0.080564484 0.84906703
-0.0019890971 0.081560962 0.84846687
0.0020292508 0.082165703 0.84724188
0.0053782924 0.082611948 0.84576666
0.054011099 0.082805835 0.84777194
0.0032871768 0.085813679 0.84891146
0.0069722333 0.087289348 0.84789646
0.010635874 0.089168258 0.84577769
0.052765846 0.088541791 0.8468135
0.0085710268 0.091670841 0.8495335
0.012772208 0.09308394 0.84800023
0.01695448 0.093939491 0.84624439
0.051991571 0.092982203 0.84707791
0.014907416 0.096404128 0.84946698
0.01856894 0.097278647 0.84790021
0.021710372 0.098755561 0.84704447
0.044782396 0.098278418 0.84519994
0.048208676 0.09784472 0.8465417
0.05211186 0.097936369 0.84904456
0.019649414 0.10108908 0.84900033
0.022989687 0.1023674 0.84813356
0.026868016 0.10305303 0.84696007
0.030602871 0.10380571 0.84539992
0.043840665 0.1029891 0.84730011
0.048115965 0.10180467 0.848378
0.023877507 0.10637876 0.84920025
0.027554801 0.10657542 0.84866685
0.032271221 0.10725906 0.84782237
0.036987357 0.10762886 0.84719056
0.04178293 0.10692171 0.84828353
0.037086394 0.11062571 0.84946692
0.040268313 0.11066044 0.84973359
0.054843504 0.03498764 0.85460013
0.057986941 0.034563646 0.85395008
0.061965059 0.034958977 0.85390002
0.0030420888 0.039737497 0.85418522
0.0070253499 0.039739735 0.85423344
0.012598703 0.039732758 0.85408342
0.018177101 0.039739221 0.8542223
0.03413156 0.039766096 0.85480028
0.038082883 0.039730433 0.85403335
0.042037975 0.039705619 0.85350007
0.046782479 0.038883876 0.85291672
0.052293818 0.039041512 0.85385734
0.057953741 0.038116854 0.85346675
0.062588781 0.038029909 0.8515535
-0.0014658036 0.042219963 0.85084611
0.0022375986 0.041186053 0.85128325
0.0069999271 0.041179333 0.85114431
0.012552177 0.041168313 0.85091656
0.018115731 0.041188475 0.8513332
0.022898132 0.042013347 0.85202771
0.027671063 0.042023331 0.85223335
0.032117568 0.041859806 0.8521266
0.037158269 0.041177183 0.85109991
0.041912097 0.041169118 0.85093325
0.049843259 0.041165896 0.85086656
0.053033471 0.041178789 0.85113329
0.058556736 0.041155413 0.85064995
0.060913227 0.041140087 0.85033327
0.067334123 0.049105179 0.85130727
0.064098589 0.05222398 0.85051399
0.067213885 0.052357502 0.85267717
0.062674068 0.055528995 0.85268039
-0.016014626 0.072832823 0.85100001
-0.01204598 0.074410707 0.85094118
0.059627343 0.073143803 0.85463345
-0.015247891 0.078511551 0.85250002
-0.01206541 0.077694856 0.85223556
-0.0080827372 0.079197466 0.85134995
0.057835758 0.077649035 0.85172224
-0.011887709 0.082405657 0.85381693
-0.0074982713 0.082673371 0.85248327
-0.0035806382 0.083356239 0.85068887
0.057093006 0.082473256 0.85246682
-0.011027916 0.086330861 0.85402721
-0.0069925217 0.086429209 0.85395336
-0.002527735 0.087188616 0.85204434
0.0017079898 0.087594122 0.85086656
0.054561131 0.086207472 0.85020018
0.056668356 0.086790942 0.85206485
-0.0017367426 0.091363937 0.85405004
0.0022415672 0.092058674 0.85311484
0.0065497071 0.092126325 0.8516475
0.010169365 0.094170727 0.85069996
0.054596793 0.091802962 0.85075551
0.056372017 0.092111431 0.85361117
0.003307513 0.095877014 0.8541556
0.0070184958 0.096866354 0.85353333
0.012645043 0.098018453 0.85128516
0.017045809 0.099190556 0.85077769
0.054649919 0.097436942 0.8515833
0.05644539 0.097000845 0.85472232
0.0086228158 0.10017396 0.85466671
0.012940997 0.10170042 0.85413343
0.017932378 0.10324463 0.85211658
0.021282829 0.10449331 0.85099989
0.048240345 0.10444147 0.85057777
0.052881312 0.10281688 0.85185832
0.019122932 0.10769387 0.85378009
0.022342989 0.10819858 0.85108876
0.027621532 0.10920531 0.85071105
0.043473624 0.10837893 0.85043347
0.047226764 0.10770704 0.85137028
0.05160388 0.10774166 0.85373896
0.019783653 0.11132029 0.85480028
0.023110788 0.11242321 0.85260415
0.027653612 0.11250067 0.8516888
0.032399174 0.1124303 0.85115927
0.037190635 0.11297232 0.85183328
0.042196184 0.11282596 0.85264993
0.046637982 0.11259473 0.85390842
0.024019128 0.11654475 0.85424453
0.02796014 0.1171325 0.85411441
0.032501016 0.11754894 0.85384071
0.037289351 0.11758402 0.85409635
0.041279901 0.11681273 0.85426676
0.032535188 0.12085143 0.85473347
0.043925181 0.033580281 0.8592667
0.045415174 0.033497281 0.85714298
0.052518643 0.033440255 0.85568351
0.058078513 0.033425272 0.85530019
0.0070503945 0.038286131 0.85726595
0.012249188 0.037894472 0.85745019
0.017440233 0.03748396 0.85718352
0.023019103 0.038252436 0.85654843
0.027823277 0.038268123 0.85690391
0.032421861 0.038073808 0.85701698
0.037186068 0.037815094 0.85695249
0.042418405 0.036884729 0.85715842
0.046952184 0.035842121 0.85602254
0.052298285 0.036210742 0.85532951
0.063011147 0.057822615 0.85728031
0.066698 0.056326296 0.85674804
0.061402705 0.063793629 0.85716689
0.061409865 0.066990606 0.8572669
0.059773851 0.074917197 0.8567335
0.061486285 0.071865015 0.85833335
0.059745938 0.078068018 0.85633355
0.059805013 0.082131758 0.85718012
0.061567478 0.083150081 0.85946673
-0.012454936 0.088029101 0.85716641
-0.0077259662 0.08876472 0.8557927
0.058682758 0.087626517 0.85634714
0.061496995 0.086248778 0.85848284
-0.010555607 0.091873072 0.85880417
-0.0071484563 0.092417307 0.85828966
-0.0031815588 0.093103178 0.85689342
0.05828847 0.092625923 0.8583889
-0.0015846307 0.09702532 0.85774672
0.0017184647 0.097729884 0.85646683
0.058283929 0.097407818 0.85832232
0.0030557038 0.10137503 0.85809994
0.0068511935 0.10229421 0.85743344
0.010768056 0.10301652 0.85626698
0.057335597 0.10193559 0.8561058
0.012099299 0.1066215 0.85902864
0.016101861 0.10760617 0.85687798
0.053965639 0.10795367 0.85584021
0.056621496 0.10687342 0.85738891
0.017719507 0.11260375 0.8578518
0.021409547 0.11467014 0.85606694
0.04854374 0.11465228 0.85593361
0.051300164 0.11273866 0.85752225
0.055166509 0.11035061 0.85963327
0.019346325 0.11719111 0.85897779
0.022493361 0.11849377 0.8568446
0.02699005 0.11941492 0.85583365
0.042806502 0.11849798 0.85610688
0.04702187 0.1180228 0.85727423
0.050851304 0.11665507 0.85895556
0.024027884 0.12264304 0.85836011
0.027813293 0.12271316 0.85662234
0.032583706 0.12342244 0.85602254
0.037379727 0.12264591 0.85615575
0.04226334 0.12291557 0.85803705
0.046070468 0.12204754 0.85942227
0.028098913 0.12729599 0.85836184
0.032664929 0.1277224 0.85815555
0.037147269 0.12676397 0.85816002
0.040723249 0.12629741 0.8593334
0.023229696 0.033780891 0.86440021
0.028036056 0.033743553 0.86344457
0.033111025 0.032610614 0.86383867
0.037449323 0.032297485 0.86237401
0.042078469 0.032680683 0.86084098
0.0079064528 0.036962554 0.86360002
0.011098132 0.036862694 0.86126661
0.018349409 0.035306517 0.86238891
0.023164505 0.035288777 0.86195546
0.027984329 0.035285134 0.86186665
0.03280076 0.035279676 0.86173338
0.037554696 0.035215985 0.86017793
0.04075484 0.035208706 0.86000019
0.064819776 0.059210923 0.86008358
0.06759315 0.058764283 0.86135095
0.064093821 0.062484372 0.8611002
0.06785129 0.062900349 0.86366504
0.064107239 0.067304447 0.86127782
0.06751398 0.067498639 0.86376685
0.070007361 0.067572862 0.86472011
0.063462771 0.072292492 0.86344451
0.066180855 0.071793579 0.86388904
0.07002382 0.070806585 0.86492306
0.062590159 0.077025734 0.86250001
0.06513004 0.07637392 0.86420017
0.062550478 0.081788078 0.86195552
0.060677454 0.088738978 0.86198896
-0.012451987 0.093408726 0.86069447
-0.0089789042 0.094531767 0.86120003
0.060153704 0.093034826 0.86217791
-0.011244515 0.097550891 0.86239827
-0.007379157 0.097805977 0.86181188
-0.0037552933 0.098037958 0.8603335
-0.010607177 0.10115074 0.86300004
-0.0063165687 0.10170596 0.86316681
-0.0025585676 0.10267217 0.86228156
0.0016196414 0.10307425 0.86029351
0.0027265775 0.10726541 0.86237144
0.0070831371 0.10736267 0.8613112
0.01108608 0.10883591 0.86030018
0.003077175 0.11171588 0.86400855
0.0070942366 0.11235455 0.86273706
0.011900201 0.11215445 0.86120009
0.015092262 0.11279732 0.86000019
0.053631809 0.11369407 0.86073321
0.055921476 0.11239632 0.86305046
0.0079129394 0.11575963 0.86420017
0.012127495 0.11701402 0.86307096
0.016709698 0.11749927 0.86075008
0.053052016 0.1173533 0.86173332
0.013565206 0.12068003 0.86490023
0.017817384 0.12196074 0.86257786
0.022051511 0.12324423 0.86033344
0.047722537 0.12377425 0.86031121
0.052125063 0.12192477 0.86232239
0.019458046 0.12590374 0.86394459
0.023150457 0.12741446 0.8614834
0.0271216 0.12959486 0.86000019
0.03795179 0.12920746 0.86008352
0.042614192 0.1283599 0.86110002
0.047281574 0.12749438 0.86202222
0.05135924 0.1268384 0.86300564
0.023203008 0.1309128 0.86341685
0.028189991 0.13291074 0.86204183
0.032785766 0.13300034 0.86132598
0.037397597 0.13261993 0.86182863
0.042517651 0.1324891 0.86321682
0.047376383 0.13096283 0.86374474
0.028861031 0.136637 0.86406678
0.032555848 0.13722973 0.86374682
0.037724532 0.13583344 0.86406684
0.042038646 0.13561977 0.86441129
0.013643106 0.029140176 0.86986673
0.020936906 0.029131245 0.86959994
0.028213585 0.029109657 0.86895561
0.031319611 0.028983846 0.86520004
0.0076012341 0.032306854 0.867993
0.012006838 0.03233758 0.86882955
0.016855527 0.033123121 0.86824995
0.022355841 0.031982373 0.86800671
0.028166151 0.031480711 0.86750001
0.032175049 0.030639693 0.86651248
0.0079328055 0.035470728 0.86640012
0.011961944 0.035436157 0.86555576
0.015192878 0.035443433 0.8657335
0.070076048 0.067639276 0.86556816
0.067936756 0.073557369 0.86573344
0.070813403 0.073750354 0.86800319
0.067441739 0.077682592 0.86726665
0.070375457 0.076013178 0.86926663
0.063596688 0.080492087 0.86526674
0.065491788 0.080839396 0.8689999
0.063062817 0.092964128 0.86901665
0.062305309 0.095472105 0.86976665
-0.011485187 0.10341758 0.86855561
-0.0077426368 0.10350833 0.86660451
-0.011763665 0.10672589 0.86918521
-0.0074391905 0.10776307 0.86885434
-0.0025729027 0.10808856 0.86713338
0.00066190987 0.108794 0.86633348
-0.010691167 0.11004195 0.86983347
-0.0074440469 0.11107171 0.86945277
-0.002374449 0.11293694 0.86876249
0.0016331865 0.11363421 0.86760676
0.0029323935 0.11736739 0.86896002
0.0068991994 0.11822651 0.86712855
0.010355846 0.11926385 0.86630023
0.056024238 0.11770489 0.86668342
0.007473208 0.12193997 0.86929333
0.012000442 0.12278853 0.86842853
0.015219787 0.12343039 0.86726677
0.055666361 0.12264612 0.86742228
0.013629517 0.12610155 0.8689999
0.016654456 0.12782483 0.86834997
0.02002204 0.12875412 0.8651002
0.054024372 0.1274305 0.86703342
0.055796683 0.12778522 0.86945289
0.017952191 0.13149667 0.86904436
0.021701684 0.13307694 0.86780006
0.047544584 0.13384618 0.86681128
0.051981959 0.13212909 0.86763334
0.023810429 0.13715513 0.86880004
0.027502213 0.13773969 0.86695349
0.03455881 0.13847367 0.86550015
0.038248643 0.13828151 0.86681682
0.04294749 0.13755716 0.86648345
0.04761022 0.13726041 0.86800373
0.051561702 0.13711503 0.86913329
0.024991633 0.14074729 0.86959994
0.028438047 0.1417633 0.86874288
0.033028722 0.14205453 0.86769634
0.037935186 0.14224784 0.86888146
0.04257223 0.14181133 0.86903805
0.04659329 0.14121793 0.86917776
0.033916991 0.14562245 0.86973339
0.037158027 0.14561129 0.86966676
0.016918501 0.028787326 0.87145013
0.023407441 0.028367594 0.87100017
0.026263868 0.027977638 0.87146556
0.016904306 0.030788943 0.87073356
0.070461802 0.077725455 0.87033349
0.067203343 0.080948837 0.87017661
0.063971549 0.092300549 0.87036675
0.065842241 0.093460649 0.87364984
0.063293494 0.097361676 0.87220001
0.065891221 0.096783429 0.87429988
0.06262131 0.10246041 0.87417769
0.062612161 0.10651116 0.87404978
-0.01070733 0.11264 0.87114835
-0.0078611365 0.11298901 0.870722
-0.004204582 0.1149622 0.87033337
-0.0072700693 0.11672468 0.8729102
-0.002585697 0.11754689 0.87148899
0.0014772192 0.1190782 0.87083352
0.057458751 0.11978244 0.87006658
-0.0020497753 0.12140945 0.87401098
0.0022909013 0.12244924 0.87176675
0.0067574959 0.12437616 0.87106693
0.010408049 0.12472383 0.8706668
0.05800128 0.12290355 0.87211454
-0.00096328114 0.12533502 0.87493336
0.0028406444 0.12629212 0.87404436
0.0074117579 0.12785894 0.87311417
0.011835084 0.12823947 0.87116683
0.057650466 0.12830158 0.87296969
0.0080053648 0.13093168 0.87426651
0.012293481 0.13269483 0.8728714
0.016370259 0.13343182 0.87112236
0.054240391 0.13360639 0.87050021
0.056647144 0.13278458 0.87254667
0.013721525 0.13671745 0.87486666
0.017152887 0.13786322 0.87309992
0.020816147 0.13811076 0.87133348
0.053961057 0.13838196 0.87253332
0.056103468 0.13743201 0.87423337
0.018054714 0.1420051 0.87402201
0.021825703 0.14288288 0.87275559
0.026246749 0.14379299 0.87090015
0.043677922 0.14409843 0.87030005
0.048309151 0.14311622 0.87088913
0.051937666 0.14287539 0.87271112
0.023497012 0.14639266 0.8743332
0.02816687 0.14745094 0.87310368
0.032920387 0.14791013 0.87095255
0.038260076 0.14792116 0.8710193
0.042908538 0.14748171 0.87115574
0.047857031 0.14771046 0.8725
0.051192559 0.14713335 0.87389988
0.033459943 0.15258151 0.87367481
0.038141675 0.15277542 0.87362218
0.042501602 0.15228747 0.87393314
0.046324242 0.15207988 0.87429994
0.033303708 0.1562584 0.87493336
0.037381731 0.15625244 0.87489998
0.067608371 0.094464324 0.87542111
0.064319454 0.099313229 0.87509996
0.068005271 0.098445684 0.87702537
0.064609371 0.10303196 0.87904435
0.066280596 0.10144479 0.87946659
0.061972793 0.10925904 0.87653333
0.059634995 0.11273674 0.87821883
0.061916061 0.11239022 0.87805349
-0.010785399 0.1159088 0.87750006
-0.0091380216 0.1190324 0.87646163
0.059541989 0.11745292 0.87684935
0.061391588 0.11704683 0.87991977
-0.0075149206 0.12247099 0.87772888
-0.003687083 0.12328893 0.87581128
0.059485458 0.12223051 0.87601668
0.061355934 0.12270445 0.87940902
-0.0067062117 0.12756367 0.87907219
-0.0028083753 0.12755992 0.8776418
0.0012138803 0.12821245 0.87605566
0.059468985 0.12708433 0.87577415
0.061329007 0.12755691 0.87902325
-0.0020608127 0.13190116 0.87891668
0.0023073126 0.13230917 0.87800384
0.0066612219 0.13259611 0.87630558
0.059614852 0.13229682 0.87792224
0.0039547752 0.13588263 0.87999976
0.0074352184 0.137196 0.87923324
0.011652751 0.13730739 0.87714779
0.057970937 0.13718046 0.87782222
0.012349714 0.14205308 0.87892914
0.0157871 0.1422442 0.87632513
0.05468069 0.14285353 0.8775667
0.056389388 0.14221965 0.87868881
0.013252531 0.14622433 0.87984419
0.017051369 0.14706673 0.87835193
0.021603772 0.14780828 0.87694013
0.025995499 0.14913312 0.87610006
0.053605948 0.14778958 0.87780553
0.017900098 0.15057546 0.87976646
0.022217691 0.1516172 0.87902373
0.026637161 0.15238108 0.878043
0.030607799 0.15312365 0.87562227
0.044220019 0.15421982 0.87567788
0.048346817 0.1527745 0.87548667
0.052420639 0.15224814 0.87808686
0.027113885 0.156831 0.87928319
0.03253958 0.15765825 0.87638348
0.0382502 0.15809685 0.87610006
0.043225896 0.15754931 0.87758905
0.048404492 0.15714705 0.87875825
0.051903136 0.15658271 0.87903333
0.028570769 0.16042501 0.87993306
0.032098129 0.16191781 0.87914437
0.037335522 0.1620255 0.87862086
0.041949879 0.16142699 0.8794443
0.067753799 0.10324217 0.88084435
0.064701647 0.10645347 0.88029981
0.067255311 0.10718767 0.88365078
0.064030871 0.11326262 0.88234484
0.066639856 0.11186366 0.88423336
0.062727161 0.11847094 0.8813833
-0.010816126 0.12114993 0.88000005
0.06247931 0.12297679 0.88136005
-0.010850267 0.12645875 0.88277793
-0.0091845617 0.12783286 0.88092542
0.063227229 0.12643848 0.88263643
-0.0072264322 0.13198788 0.88240969
-0.0037097104 0.13387586 0.88115543
0.062501706 0.13248995 0.8823356
-0.0017978124 0.13648224 0.88388348
0.0026486688 0.13754317 0.88224667
0.0056048869 0.13937803 0.88139993
0.059845719 0.13772629 0.88132209
0.062274873 0.13833669 0.88312662
0.0078111538 0.14238657 0.88310558
0.010522011 0.14410025 0.88019973
0.058891408 0.14239305 0.8817932
0.061121374 0.14306559 0.8839224
0.011639428 0.14822848 0.88202769
0.05739959 0.14761144 0.88161117
0.013309267 0.15178746 0.88364458
0.016883502 0.15303206 0.88179046
0.021200147 0.15398261 0.8805331
0.054902922 0.15244864 0.88113332
0.057081506 0.15237215 0.88305843
0.018249236 0.15668131 0.8834334
0.022050286 0.15747291 0.88172585
0.025298176 0.1588483 0.88026643
0.053804934 0.15735774 0.88108879
0.055895686 0.15702549 0.88383341
0.023740685 0.1610571 0.88340008
0.026997412 0.16247521 0.88217133
0.0302439 0.16305362 0.88086653
0.042832259 0.16329974 0.88072205
0.046765801 0.16228829 0.88263893
0.051313806 0.16139565 0.88300002
0.028706063 0.16611847 0.88410008
0.032268569 0.16644511 0.88233995
0.036696594 0.16734025 0.8829416
0.041546956 0.16669273 0.88365346
0.068497464 0.10890549 0.88693327
0.066456206 0.11177684 0.88615859
0.066047579 0.11720894 0.88733959
0.065903358 0.12219932 0.88762015
0.063461676 0.1285553 0.88590908
0.066157073 0.12649758 0.88881665
-0.0092439875 0.13360707 0.88662487
0.065371506 0.13402733 0.88941377
-0.0073962295 0.13692693 0.88808841
-0.0030458919 0.13824545 0.88728309
0.0015015162 0.13913971 0.88510019
0.063484915 0.13684514 0.88623333
-0.0067876866 0.14070311 0.88978004
-0.0026364177 0.14217408 0.88862216
0.0020939868 0.14232093 0.88659972
0.0064530498 0.14406291 0.88500017
0.063446701 0.14252977 0.88570011
-0.0076190084 0.14735429 0.8899644
-0.0026371581 0.14720805 0.88908154
0.0023333414 0.14701241 0.88789606
0.0070542325 0.14726231 0.88656169
0.061879031 0.14766625 0.88687325
-0.0024004583 0.15171929 0.88920957
0.0023365922 0.15213835 0.88889629
0.0072965971 0.15185954 0.8872664
0.011913623 0.15363356 0.88607997
0.058497779 0.15408018 0.88579988
0.061077807 0.15268692 0.88727498
0.003444196 0.15609646 0.88946676
0.007306946 0.15703511 0.88853317
0.012016187 0.15717933 0.88668555
0.016858378 0.15845257 0.88537341
0.057225309 0.15866041 0.88653982
0.061188746 0.15709846 0.88889462
0.0081404829 0.1604303 0.88903332
0.012510546 0.1614659 0.88822842
0.016989356 0.16223939 0.88729495
0.022155546 0.1628868 0.88589996
0.025434213 0.16464137 0.88500017
0.047727171 0.16467856 0.88520014
0.051902484 0.16400653 0.88601655
0.057010297 0.1622338 0.88834447
0.060412362 0.1605446 0.88966686
0.013945288 0.16541027 0.88913339
0.017463336 0.16680782 0.8888666
0.021980913 0.16690761 0.8871997
0.026916273 0.16837816 0.8862499
0.031642832 0.16927391 0.88555002
0.038638484 0.16958013 0.88500017
0.042407468 0.16938508 0.88613319
0.046985019 0.16744453 0.88676637
0.052212924 0.16718718 0.88727587
0.0554014 0.16623786 0.88913345
0.018932788 0.17048711 0.88973343
0.022467289 0.17151164 0.88891423
0.027181501 0.17266595 0.88816661
0.0323429 0.17278096 0.88694257
0.037062883 0.17322332 0.88679236
0.041820932 0.17288314 0.88746637
0.047077961 0.17190963 0.88852572
0.051877785 0.17181961 0.88913333
0.023914456 0.17547864 0.88986665
0.027417447 0.17677477 0.88910002
0.031952672 0.1770526 0.88841653
0.037118521 0.17761348 0.88812202
0.042122182 0.17693114 0.88884765
0.047114771 0.17535156 0.8892222
0.050468259 0.17547864 0.88986671
0.028882481 0.18037698 0.8895334
0.032181159 0.18109567 0.889
0.03715675 0.18145791 0.88903809
0.040474162 0.18028232 0.8890667
0.068789721 0.11351304 0.89071751
0.069013804 0.11803797 0.89361906
0.068522438 0.12288813 0.8926332
0.067935795 0.12852466 0.89256686
0.066595986 0.13249637 0.89246684
-0.0092896018 0.13923863 0.89099997
0.066402659 0.13609159 0.89209998
-0.0078735342 0.14315939 0.8918227
-0.0073887124 0.14724061 0.89071161
-0.0066374047 0.15230891 0.89183396
-0.0034703421 0.15401137 0.89016688
-0.0059790937 0.15615104 0.89293355
-0.0026486046 0.1575934 0.89285851
0.0017905781 0.15823688 0.89220023
0.0027668308 0.1617547 0.89406693
0.0073381425 0.16267243 0.89225358
0.011484316 0.16414005 0.89121687
0.058847796 0.16411854 0.89110023
0.061389759 0.16259068 0.89180857
0.012761528 0.16744307 0.89335859
0.015621082 0.1689079 0.8901335
0.057704248 0.1677912 0.89174312
0.060721699 0.16802062 0.8942225
0.017668465 0.17243242 0.8929469
0.021448765 0.17402188 0.89088356
0.053839888 0.17399257 0.89073348
0.056812219 0.17247413 0.89267164
0.019042032 0.17646462 0.89486706
0.022304878 0.17753831 0.89189547
0.025577903 0.17881608 0.89000016
0.043836374 0.17881609 0.89000022
0.047186587 0.17810428 0.89057797
0.052450232 0.17772816 0.89180446
0.055736832 0.17722796 0.89451689
0.023476057 0.18188722 0.89424467
0.027082499 0.18269306 0.8917461
0.032244381 0.18393874 0.89075571
0.037219346 0.18389285 0.89053345
0.042462569 0.18266585 0.89161688
0.047132321 0.18248108 0.89404786
0.051556811 0.18135378 0.89435029
0.027694762 0.18694982 0.89406025
0.032311741 0.18681498 0.89261705
0.037518583 0.18745786 0.8927086
0.041983463 0.18671605 0.89294034
0.070939638 0.11847085 0.8968966
0.071433268 0.12308697 0.89609337
0.070831157 0.12828515 0.89552498
0.069146171 0.13242114 0.89533341
0.070937425 0.13264841 0.89686847
0.069260746 0.13597699 0.89681673
-0.0059956117 0.159081 0.89540011
-0.0026555487 0.15990177 0.89533347
-0.005997397 0.1624603 0.89566672
-0.00265681 0.16247471 0.8957445
0.0015194486 0.1632874 0.8956334
0.0073676873 0.1649964 0.89586663
-0.0060208323 0.16727686 0.89916682
-0.002665086 0.16630027 0.89840579
0.0026008084 0.16661 0.89814299
0.0071396348 0.16740401 0.89728111
0.011539899 0.16826679 0.89553344
0.0090635419 0.17130294 0.8983503
0.012189932 0.17214343 0.89728343
0.015724035 0.17335464 0.89599997
0.059175752 0.17336755 0.89606667
0.060971431 0.17288834 0.8979001
0.013252076 0.1754804 0.89835024
0.016935928 0.17712954 0.89702863
0.020714046 0.1798207 0.8950001
0.058396075 0.17686656 0.8969084
0.018678147 0.18156546 0.89745015
0.021291306 0.1827767 0.89588886
0.047449294 0.18492547 0.89553338
0.052901074 0.18292473 0.89593327
0.05662195 0.18175468 0.89796686
0.019127857 0.18645744 0.89890027
0.022430403 0.18688066 0.89691859
0.025746511 0.18832725 0.89586663
0.032416686 0.18991828 0.89551115
0.035760686 0.18993713 0.89560014
0.042445064 0.18939589 0.8956666
0.047711074 0.18715696 0.89596188
0.052361041 0.18677406 0.89740849
0.023585737 0.19109483 0.89843363
0.02745782 0.19195074 0.89721859
0.032469925 0.19273306 0.8969779
0.037486669 0.1927235 0.8969335
0.042733543 0.19231904 0.89671433
0.047353495 0.19183806 0.89767098
0.051524524 0.19113763 0.89863366
0.029202849 0.19576219 0.89940029
0.032526858 0.19599548 0.89855027
0.037798502 0.19679829 0.89867175
0.042589765 0.19728576 0.89871514
0.04681934 0.19661534 0.89947522
-0.0060346713 0.16766235 0.90123349
-0.0026747731 0.16942334 0.90168911
0.00152876 0.16930643 0.90106702
-0.0060585546 0.1733741 0.90480006
-0.0026823196 0.17158353 0.90423328
0.0027937377 0.17171572 0.90271664
0.0069365399 0.17307778 0.90199548
0.063090242 0.17495412 0.90426672
0.0085494975 0.17696416 0.90307778
0.012214163 0.17820449 0.9012574
0.059461933 0.17923065 0.90040016
0.061931472 0.17755838 0.90211344
0.0091296257 0.1801264 0.90489995
0.013047975 0.18266608 0.90358335
0.016491275 0.18312593 0.90143359
0.05913467 0.18328452 0.90180016
0.061363019 0.18240324 0.90366662
0.017527409 0.1881137 0.90284002
0.054430209 0.18930127 0.90050024
0.056916632 0.18773618 0.90263337
0.019215101 0.19234639 0.90299994
0.021979669 0.19337541 0.90126687
0.049391869 0.19432659 0.90050036
0.053144168 0.19319561 0.90147352
0.02301348 0.19704773 0.90337497
0.027598009 0.19767725 0.90177244
0.032618694 0.19881456 0.90110028
0.036798432 0.19936654 0.90056694
0.048447978 0.19860527 0.9016735
0.052493725 0.1966069 0.90328336
0.027657051 0.20006032 0.90369999
0.033027653 0.2022763 0.90308666
0.037914176 0.20286174 0.90213758
0.04273783 0.20216499 0.90183908
0.047000714 0.20241614 0.90295833
0.051300082 0.20024481 0.90453345
0.038927563 0.20752859 0.90450001
0.041716352 0.20573503 0.90401107
0.071817636 0.14358078 0.90797806
0.068431005 0.14780751 0.90800023
0.071046136 0.14711849 0.90895563
0.068436027 0.15035158 0.90806693
0.070268594 0.15064961 0.90986663
0.066855155 0.16414168 0.90960008
-0.0026871862 0.17360403 0.90600008
0.0015363505 0.17351782 0.90555
-0.0060779736 0.17815092 0.90770042
-0.0026914212 0.17728047 0.90756333
0.002382494 0.17707692 0.9065187
0.0063234586 0.17807202 0.90586668
0.06492953 0.17705289 0.90640014
0.06505847 0.17740363 0.90820014
-0.0060912538 0.18192458 0.90968376
-0.0026928629 0.18246195 0.90814483
0.0023865849 0.18243021 0.90798557
0.007243616 0.18235165 0.906546
0.010823253 0.18359445 0.90540004
0.063208073 0.18202229 0.90595579
0.06514205 0.18101558 0.90936673
-0.0026942049 0.18588568 0.90836698
0.0028125534 0.18643276 0.90897518
0.0074668708 0.18749899 0.9079929
0.012314029 0.18738236 0.90640849
0.015896022 0.18873048 0.90580004
0.059892286 0.18812037 0.90691686
0.062313724 0.18709971 0.90769356
0.0083213868 0.19104606 0.90880024
0.012543712 0.19252437 0.90779656
0.0165706 0.19242744 0.90575343
0.057896182 0.19225667 0.90653914
0.060047481 0.19368178 0.90926671
0.014258449 0.19702853 0.90910017
0.017612007 0.19747128 0.90724826
0.021812528 0.19887674 0.90596676
0.054163098 0.19818859 0.90538901
0.057469219 0.19778977 0.90871119
0.01877141 0.20173545 0.90872246
0.022687783 0.20253284 0.90724087
0.027473629 0.20264699 0.90560001
0.031072499 0.20371492 0.90499997
0.049660657 0.20296328 0.90540004
0.053354956 0.20273271 0.90719187
0.05668705 0.20140329 0.90976661
0.024411939 0.20785539 0.90837806
0.027768498 0.20762341 0.90736324
0.032803722 0.20735973 0.90621132
0.036581032 0.20763488 0.90557504
0.043480456 0.20778883 0.90563345
0.048030488 0.20742363 0.90648907
0.052094355 0.20677413 0.90857798
0.024444791 0.21151863 0.90959996
0.028055355 0.21254627 0.90882397
0.032857005 0.21276182 0.90768176
0.037907343 0.21260254 0.90700024
0.043013308 0.21275496 0.9076522
0.047587562 0.21246165 0.90880579
0.032930478 0.21661852 0.90969998
0.03801889 0.21661057 0.90966678
0.043119576 0.21666613 0.90989995
0.073782064 0.14750563 0.91134447
0.075370371 0.14559336 0.91000003
0.068727419 0.15353678 0.9119333
0.072149567 0.15273009 0.91218102
0.075618848 0.15116841 0.91300005
0.06868472 0.15767854 0.9113667
0.07140588 0.15805806 0.91355556
0.068791918 0.16301996 0.91278893
0.070618697 0.16160594 0.91440022
0.067125469 0.16820364 0.91327804
0.065847464 0.17292058 0.91128904
0.067193255 0.17687593 0.91420001
0.065249488 0.18300858 0.91086668
-0.0010026228 0.18720379 0.9106667
0.0023934338 0.18863547 0.91076666
0.063543759 0.18976526 0.9107666
0.065374844 0.1876049 0.91261673
-0.0010045841 0.19011559 0.91244829
0.0027414039 0.19164017 0.91324013
0.0070709176 0.1928928 0.91153336
0.062564932 0.19293606 0.91134006
0.004111466 0.19572504 0.91486704
0.0080820341 0.19660614 0.91368347
0.011764627 0.19786815 0.91297507
0.061964367 0.19719861 0.91249996
0.013054037 0.20103791 0.91387522
0.017275449 0.20355424 0.91182494
0.05798319 0.20310831 0.91235572
0.061202489 0.2006073 0.91385019
0.018024566 0.20740341 0.91383356
0.021942157 0.20769344 0.91137499
0.053342428 0.20836337 0.91059995
0.05655057 0.20687671 0.91301358
0.018890908 0.21152157 0.91448921
0.022346511 0.21256128 0.91303825
0.049934879 0.21339817 0.91039997
0.052566588 0.21204548 0.91186112
0.055274434 0.21179995 0.91446692
0.074094191 0.15493757 0.91520035
0.071619257 0.16279037 0.91628337
0.069054015 0.16790247 0.9162668
0.071583591 0.16702798 0.91801625
0.068702891 0.17277926 0.91727507
0.071022876 0.17108434 0.91963333
0.068701901 0.17704125 0.91725838
0.069257498 0.18121706 0.91896671
0.067595072 0.18990888 0.91966653
-0.0010088983 0.19349019 0.91636676
0.0012688185 0.19369836 0.91601133
0.065666169 0.19355592 0.91668332
-0.0010114309 0.19653799 0.91866648
0.002697815 0.19805549 0.91777772
0.0063918326 0.19874261 0.91570026
0.063869335 0.19925198 0.91543329
0.003557604 0.202259 0.91877753
0.0077855908 0.20252882 0.91704768
0.012317127 0.20382968 0.916107
0.061397169 0.20294924 0.91675007
0.0075598676 0.20606792 0.91924977
0.012923294 0.2077674 0.91758585
0.016069168 0.20867138 0.91566706
0.058245793 0.20914276 0.91648883
0.060692482 0.20601943 0.91903335
0.013550244 0.21189883 0.91858315
0.017453704 0.21350272 0.91666698
0.072956823 0.16988324 0.92240012
0.072630569 0.17335321 0.92260659
0.073048696 0.17696491 0.92354214
0.068640165 0.18441975 0.92216647
0.072835408 0.18220283 0.92396402
0.068725064 0.18765542 0.92331648
0.071419321 0.18580131 0.92476654
0.068734527 0.19154875 0.92344999
0.00070449215 0.19898055 0.92206675
0.0012774173 0.20263295 0.92308885
0.064460047 0.20453212 0.92390007
0.0037188218 0.207436 0.92343336
0.0071534929 0.20888659 0.92225844
0.062137671 0.2078338 0.92139173
0.0081674308 0.2124325 0.92337799
0.011440126 0.21290666 0.92109168
0.07496047 0.17913958 0.9259001
0.07406199 0.18249664 0.92545831
0.069762431 0.18770401 0.92566657
0.07297238 0.1876234 0.92696828
0.069817699 0.19302259 0.92639989
0.071617536 0.19149207 0.9273333
0.00070742075 0.20497489 0.9258998
0.067400008 0.20302063 0.92878318
-0.0010228073 0.20566113 0.92900008
0.0012854825 0.20829944 0.92792207
-0.0018972569 0.20810765 0.93222511
