# .PCD v0.7 - Point Cloud Data file format
VERSION 0.7
FIELDS x y z
SIZE 4 4 4
TYPE F F F
COUNT 1 1 1
WIDTH 1325
HEIGHT 1
VIEWPOINT 0 0 0 1 0 0 0
POINTS 1325
DATA ascii
0.038811874 0.059429638 0.81900018
0.034268551 0.062547833 0.81993318
0.037286691 0.062480543 0.81905198
0.040346995 0.062488198 0.81915569
0.038308796 0.066042118 0.81913346
0.04038858 0.065603621 0.81999993
0.038275085 0.053654734 0.8239001
0.041387692 0.053704649 0.8246668
0.02843878 0.057941865 0.82384682
0.032821439 0.057351943 0.82199997
0.037249904 0.057095625 0.82130885
0.042013969 0.057342131 0.82186109
0.045164224 0.058218133 0.82342225
0.0284729 0.062646344 0.82373345
0.032587018 0.062623754 0.82092476
0.042718004 0.062604666 0.82067752
0.045122776 0.062756293 0.82266665
0.029833041 0.065934315 0.82413352
0.032845534 0.067345627 0.82263702
0.0368503 0.067693405 0.82067752
0.042200305 0.067464374 0.82175815
0.033651292 0.071249917 0.82355011
0.037642252 0.071448542 0.82204753
0.041754626 0.071030565 0.82278651
0.017646948 0.054008573 0.8293336
0.022283113 0.053996999 0.82915586
0.027681764 0.053971674 0.82876694
0.0334103 0.053476531 0.82708353
0.037453592 0.051912535 0.82756191
0.042543586 0.051935527 0.82792389
0.045952734 0.05343375 0.82840014
0.013199689 0.057283845 0.82929206
0.017618567 0.057001896 0.82800746
0.022382796 0.057250299 0.82715333
0.026046574 0.05685845 0.82592219
0.046565425 0.057205051 0.82647991
0.013316164 0.060795654 0.82932031
0.017780108 0.061956417 0.82832682
0.022093521 0.062554412 0.82734543
0.025670122 0.06341017 0.82619983
0.046892736 0.06307435 0.82682222
0.022726614 0.067665018 0.82923836
0.027426083 0.067877941 0.82743627
0.045351923 0.06769079 0.82684445
0.027671203 0.072446547 0.82847804
0.032370135 0.072856724 0.82613337
0.036794215 0.073688835 0.8251335
0.042602789 0.073368885 0.82585013
0.045451868 0.072463349 0.82866693
0.027691137 0.075579315 0.82903367
0.03291462 0.076742977 0.82863718
0.037663735 0.076965556 0.82734084
0.042310871 0.076996475 0.82767415
0.045475636 0.076356754 0.82910025
0.03775743 0.080241263 0.8294003
0.041616719 0.08022514 0.82923365
0.037935909 0.049618557 0.83333331
0.042902149 0.04898702 0.83316004
0.047329601 0.049688686 0.83451098
0.0094460826 0.053767711 0.83357781
0.013242707 0.052826099 0.83199167
0.017694451 0.051832765 0.83156663
0.022378348 0.051901668 0.83267766
0.027065596 0.05195719 0.83356649
0.032137822 0.051793374 0.83270472
0.047729332 0.052145433 0.83242226
0.0084045492 0.057363585 0.83325177
0.011484617 0.055667374 0.83106667
0.048687298 0.057217091 0.83113337
0.0089288559 0.061534185 0.83374429
0.013039733 0.063426614 0.8314532
0.016901758 0.06491439 0.83069992
0.04880837 0.062010515 0.83319998
0.013341047 0.06673082 0.83407778
0.017716961 0.068166897 0.83265918
0.020799318 0.068858102 0.83166665
0.047151104 0.068061031 0.8313778
0.01892489 0.072586857 0.83451653
0.022356849 0.072753273 0.83197767
0.047553286 0.073108338 0.83161664
0.023177901 0.076767296 0.83354998
0.026810827 0.077895455 0.83258086
0.03058733 0.07830818 0.83071119
0.047403608 0.07732819 0.83125561
0.028669115 0.080783039 0.83499974
0.032991044 0.082088485 0.83404654
0.03784525 0.082748167 0.83133322
0.042712066 0.082404137 0.8312
0.046231773 0.081147425 0.83342218
0.034898266 0.085442789 0.83499974
0.037973676 0.086908549 0.83414799
0.042116612 0.086377762 0.8340221
0.013539897 0.049529728 0.83840001
0.018215815 0.049485292 0.83765
0.022520909 0.049116727 0.83801121
0.027423965 0.048766404 0.83773339
0.03206189 0.048874881 0.83721673
0.037877936 0.047803864 0.83776659
0.042806428 0.046482008 0.83736664
0.047308158 0.046948884 0.83759165
0.051048409 0.048730772 0.83808339
-0.0015497657 0.05337441 0.83877343
0.0022011246 0.052979413 0.83747411
0.0070507326 0.052558023 0.83627391
0.011542657 0.051287454 0.83526647
0.052168872 0.052964997 0.83722222
0.055442352 0.053111129 0.83953327
-0.0017061798 0.057740897 0.83872229
0.0021990016 0.057596367 0.83662951
0.0053105322 0.057491679 0.83511084
0.051715251 0.057406433 0.83710474
-0.00092379272 0.061666206 0.83906686
0.002200888 0.062320367 0.837363
0.0063562444 0.062749498 0.83616656
0.051051989 0.06198721 0.83813328
0.0025965958 0.065948009 0.83893353
0.0071972897 0.066840276 0.83738673
0.011556411 0.06815581 0.83634651
0.049107134 0.067846932 0.83829999
0.05074311 0.067163266 0.83949995
0.0076862196 0.070284188 0.83946681
0.012421614 0.072327733 0.8380872
0.016856413 0.073427811 0.83613318
0.048978914 0.071558528 0.83611101
0.050694067 0.07229767 0.83868885
0.013162792 0.07599546 0.83931118
0.018048208 0.077484205 0.83770484
0.021851648 0.078424796 0.83634651
0.049136419 0.079590335 0.83879977
0.050628252 0.077141128 0.83759987
0.019439574 0.081260309 0.83993334
0.022731598 0.082497962 0.83860838
0.026976068 0.082712404 0.83683324
0.030265007 0.083219767 0.83606648
0.046964396 0.083596177 0.83724433
0.024127539 0.085906699 0.83953351
0.027426563 0.087185867 0.83868349
0.032432839 0.087363809 0.83716369
0.04379553 0.088176645 0.8363778
0.046006452 0.087390542 0.83877796
0.028836202 0.090627715 0.8398667
0.032861084 0.090811983 0.83868015
0.037749358 0.092493348 0.83716404
0.042619556 0.092161573 0.8367666
0.046057038 0.091390528 0.8397001
0.038192187 0.097552411 0.83895838
0.042424805 0.097184062 0.83865726
0.039759647 0.1014591 0.83900017
0.041347396 0.10151555 0.83946681
0.030588388 0.044025782 0.84499991
0.03688449 0.044016521 0.84482217
0.04311065 0.043940112 0.84335566
0.04751651 0.043312542 0.84337342
0.051019147 0.043191224 0.84406674
0.0037944845 0.048702907 0.84433329
0.0069377651 0.047879234 0.84366679
0.012093396 0.047710776 0.84267622
0.017596623 0.047608685 0.8416667
0.022660246 0.046282601 0.84318876
0.027025392 0.046061028 0.84200013
0.032364532 0.046061911 0.84201336
0.03700893 0.045939345 0.84167784
0.041396637 0.045353018 0.84046668
0.049245767 0.045363806 0.84066665
0.052779287 0.047047526 0.84283334
-0.015077974 0.050194152 0.84300005
-0.01038594 0.053456981 0.84499991
-0.0072213411 0.053349033 0.84330374
-0.003124031 0.052329093 0.84206659
0.0022173114 0.050235163 0.84368896
0.0069206618 0.05011211 0.84162211
0.010048624 0.050051238 0.84059978
0.05397927 0.050082996 0.84113318
0.056389049 0.052741233 0.84197766
-0.011435389 0.055547237 0.84491634
-0.0070216274 0.057833571 0.84292501
-0.0040623373 0.057889894 0.84088868
0.053949319 0.05865638 0.84066653
0.056345996 0.057920929 0.84133321
-0.0064387205 0.062810101 0.84394461
-0.0029460269 0.062863201 0.8416571
0.053256337 0.062672675 0.84210008
0.056185886 0.061685175 0.84286666
-0.015077974 0.067443714 0.84300005
-0.0061810631 0.066528015 0.84464437
-0.0023050928 0.067248389 0.84300011
0.0018966023 0.068216234 0.84091985
0.049214527 0.065651543 0.84013331
0.052136216 0.067445047 0.84301674
-0.00092981168 0.070708387 0.84453332
0.0022166611 0.072191119 0.84348899
0.0066957879 0.072471246 0.84154278
0.051686868 0.072068453 0.84210002
0.0037968815 0.075451143 0.84486657
0.0071617705 0.076456331 0.84356207
0.01216097 0.077993803 0.84214073
0.017107941 0.079783261 0.84083313
0.052632794 0.075436242 0.8447001
0.013042197 0.082061023 0.84415007
0.017724779 0.0832453 0.84222507
0.021031078 0.084485658 0.84093308
0.04928482 0.082962073 0.84133339
0.050998095 0.082412206 0.84371841
0.018410912 0.087720968 0.84410477
0.022428939 0.087913908 0.84192508
0.025721852 0.089129068 0.8404665
0.048551947 0.087747566 0.84221119
0.051057436 0.087221071 0.84469986
0.02286428 0.092395194 0.84351671
0.027127353 0.092569731 0.8415333
0.031685248 0.093214929 0.84065312
0.04824191 0.092719905 0.84265709
0.027712662 0.096392319 0.84382677
0.032074861 0.097201079 0.84266686
0.035934012 0.097791903 0.84101641
0.044549271 0.09776707 0.84079993
0.046676293 0.096941404 0.8438167
0.032900348 0.10124104 0.84368354
0.037212901 0.10239728 0.84157324
0.043482505 0.10202485 0.84181911
0.046340428 0.10138291 0.84486657
0.03801186 0.10653217 0.84364188
0.042709336 0.10732836 0.84386677
0.043185636 0.11001797 0.84479988
0.044987276 0.039499391 0.84906703
0.048167214 0.039509729 0.84928924
0.052139141 0.039518774 0.84948361
0.0069809393 0.044229537 0.84891146
0.012855613 0.043530412 0.84848595
0.018054588 0.043416392 0.84846687
0.02280434 0.043420792 0.84855574
0.027504079 0.043345887 0.84710002
0.032553691 0.043181177 0.84696007
0.037007406 0.042190988 0.84763342
0.04250773 0.042159244 0.84700006
0.048403382 0.04134775 0.84649992
0.053240359 0.042337906 0.8472001
0.056458585 0.043045234 0.84892529
-0.011663485 0.048189845 0.8463667
-0.0072638346 0.048548527 0.84850824
-0.0022001783 0.048306242 0.84841359
0.0020299016 0.047099221 0.84730023
0.0069644074 0.04570077 0.84691125
0.012482701 0.045664199 0.84623337
0.017986452 0.045612048 0.84526652
0.054295875 0.04565521 0.84606665
0.056777731 0.047322895 0.84776682
-0.015122689 0.05270173 0.84550005
-0.012165487 0.051719446 0.84551114
-0.0072487532 0.05040586 0.84655553
-0.0032990822 0.050380714 0.84613335
0.057605643 0.050511714 0.84833354
-0.015133122 0.055887319 0.8460834
-0.012152176 0.058069691 0.84602964
-0.0088106971 0.059749104 0.84506649
-0.015131632 0.064536288 0.84600008
-0.011999989 0.063084029 0.84762615
-0.0088160262 0.062931515 0.84557772
0.054334383 0.064587139 0.84666687
0.056986321 0.06408608 0.84696674
-0.015113746 0.066031866 0.84500003
-0.011794092 0.067583479 0.84719354
-0.0077705481 0.068222292 0.84616661
-0.0040838062 0.069202878 0.84533322
0.054418515 0.067842864 0.84797794
0.056677483 0.067579374 0.84864014
-0.0070408233 0.072192363 0.84878117
-0.0027100116 0.072661623 0.84669173
0.052695103 0.073166445 0.84570003
-0.0022015604 0.076426998 0.84872025
0.0020292846 0.077436805 0.84722507
0.0061709601 0.07874319 0.84646678
0.05272625 0.077144295 0.84620017
0.003816356 0.080577135 0.84920031
0.0071703126 0.081843965 0.84799182
0.011293715 0.083403029 0.84581655
0.0085750632 0.085389853 0.84993351
0.012701562 0.086944215 0.84774184
0.016448967 0.089062646 0.84726673
0.051979773 0.089018449 0.84686661
0.014376986 0.090596229 0.8493337
0.018553937 0.092472911 0.84722239
0.021182785 0.09454865 0.84700018
0.051657096 0.092300802 0.84806675
0.023327745 0.097341567 0.84844464
0.027094282 0.098842666 0.84666669
0.048653889 0.097882412 0.84857798
0.028329723 0.10177946 0.84816682
0.031596825 0.10302243 0.84670669
0.047702234 0.10294677 0.84805024
0.033260427 0.10707302 0.84885347
0.035888106 0.10809019 0.846111
0.047135722 0.10694041 0.84781349
0.03754187 0.11146533 0.84783345
0.042754248 0.11236098 0.84665936
0.046951249 0.11172192 0.84878355
0.038656227 0.11532093 0.84913367
0.042268794 0.11597858 0.84899086
0.014910925 0.16359976 0.84966695
0.017280333 0.16431934 0.84930038
0.014111639 0.16747008 0.84925598
0.017278565 0.1674615 0.84921145
0.016498154 0.17073922 0.84980029
0.05227717 0.03465898 0.85433453
0.057221044 0.034979448 0.85440004
0.013404933 0.039760929 0.85468912
0.018188417 0.039764546 0.85476685
0.022956135 0.039739221 0.8542223
0.027728736 0.039728884 0.85400003
0.032510448 0.039733019 0.85408896
0.037273169 0.039716482 0.85373336
0.042321526 0.039037138 0.85279334
0.047549482 0.037540693 0.85243326
0.052902054 0.037464753 0.85221666
0.057968769 0.038124252 0.85366303
0.062807001 0.039117258 0.85452014
0.066004753 0.03896429 0.85465676
-0.0072960835 0.043024272 0.85241073
-0.0027304923 0.043068483 0.85331666
0.0024682016 0.04327596 0.85238564
0.0070082434 0.04202209 0.85221106
0.012090089 0.041532189 0.85189992
0.018135494 0.041235235 0.85229999
0.022876287 0.041183636 0.85123324
0.027631903 0.041173425 0.85102218
0.03238767 0.041165892 0.85086662
0.037117764 0.041132033 0.8501668
0.040303063 0.041146543 0.85046667
0.058791585 0.042475641 0.85175323
0.06270121 0.042859446 0.85308146
0.065949976 0.042903781 0.8539474
-0.010459686 0.045921415 0.85100001
-0.0072811185 0.046526797 0.85049677
-0.0029194858 0.046291661 0.85053331
0.05942269 0.047543969 0.85169989
0.062532172 0.047445852 0.85348338
0.059500206 0.052364841 0.85281116
0.061995648 0.052457154 0.85431671
-0.015212119 0.058551189 0.85050005
0.059615698 0.057234775 0.85446674
-0.015217087 0.061735738 0.8507778
0.059513375 0.061102174 0.85300004
0.057802562 0.069685884 0.8512333
-0.011263042 0.072895594 0.85171121
-0.0080760792 0.074386694 0.8506667
0.054708034 0.072962284 0.85248882
0.0567284 0.072607547 0.85298336
-0.010493282 0.077037364 0.85373342
-0.0070681549 0.077231422 0.85210949
-0.0029210437 0.078770787 0.85101652
0.054213133 0.077763148 0.85301393
-0.0057206275 0.081064232 0.85433334
-0.002074627 0.082252756 0.85251904
0.0020392672 0.082567886 0.85139161
0.0054115709 0.083914019 0.85099989
0.053082228 0.082418717 0.8519128
-0.00094052748 0.085825212 0.85426676
0.0024440421 0.087187752 0.85399175
0.0068080821 0.087396823 0.85215408
0.010167768 0.087827027 0.85056669
0.053009763 0.086263075 0.85075009
0.0075530368 0.091611244 0.85388345
0.011946638 0.092270851 0.8518222
0.017043566 0.094430454 0.85066658
0.053077262 0.092711538 0.85183352
0.013213407 0.096543156 0.8537963
0.018358376 0.097837232 0.85210949
0.02181012 0.099208795 0.85093325
0.049868647 0.098987885 0.85129988
0.052322485 0.096744612 0.85246664
0.018491372 0.10136914 0.85402
0.023113299 0.10291731 0.85268748
0.026994646 0.10353754 0.85094661
0.049933087 0.10308057 0.8524
0.051624574 0.10248899 0.85408342
0.023908483 0.10773142 0.85408002
0.027687451 0.10788399 0.85276675
0.031192046 0.10801966 0.85071665
0.048218582 0.1091397 0.8502
0.050862119 0.10653131 0.85465014
0.024554791 0.11126819 0.85440022
0.027965168 0.1123874 0.85427624
0.032452539 0.11261899 0.85258144
0.036089763 0.11344456 0.85085553
0.04830616 0.11329991 0.85174406
0.032830417 0.11663552 0.85413343
0.036994983 0.11748508 0.85193324
0.041896936 0.11868783 0.85062218
0.046492293 0.11735461 0.85243338
0.037477713 0.12211899 0.8538667
0.041927211 0.12194096 0.85123694
0.045852575 0.12192939 0.85337335
0.038897503 0.12637228 0.85443342
0.042050749 0.12627037 0.85374451
0.045283984 0.12640664 0.85466671
0.019771308 0.14938919 0.85426682
0.023763936 0.1494475 0.85460019
0.014462155 0.1536469 0.85437793
0.017854713 0.15237133 0.85406005
0.022948077 0.15250176 0.85390007
0.026153028 0.15261878 0.85455567
0.0075584208 0.15790527 0.85448903
0.012766212 0.15736321 0.85310262
0.018128268 0.15769279 0.85191661
0.022760306 0.15737703 0.85277998
0.026160508 0.157433 0.85480022
0.0027770894 0.16263779 0.85430008
0.0071610953 0.16248441 0.85324854
0.012010161 0.16230649 0.85149735
0.018331503 0.16257641 0.85080945
0.022717951 0.16219492 0.85267079
0.026164589 0.1606382 0.85493356
0.0028425977 0.16703846 0.85411674
0.0068518063 0.16782799 0.85268003
0.010966361 0.16781205 0.85098881
0.019686958 0.16773935 0.85062218
0.022119144 0.1673357 0.85259992
0.0030433789 0.17088875 0.85450017
0.0072196536 0.17292193 0.85374588
0.01255172 0.17254286 0.85089713
0.018318448 0.17286184 0.85149157
0.021886596 0.17156303 0.85390002
0.0080899252 0.17698449 0.85451126
0.012379438 0.17778105 0.85393947
0.017638862 0.17737971 0.85386109
0.043130655 0.03198636 0.85940385
0.04679203 0.032362457 0.85727543
0.052147698 0.033059791 0.85616201
0.058133319 0.033456091 0.85608882
-0.0057250923 0.039775401 0.85500008
-0.0025426722 0.037972707 0.8574177
0.0022551639 0.039903592 0.85775548
0.0070434995 0.039846729 0.85653347
0.011846499 0.038814045 0.85719997
0.018019026 0.038067043 0.85749543
0.023034394 0.037481859 0.85713357
0.02783143 0.037482563 0.85715562
0.032629211 0.037485253 0.85721129
0.03766036 0.037148885 0.85735255
0.042005729 0.03624348 0.85747629
0.046550162 0.03544151 0.85596699
0.059722673 0.035044957 0.8560003
0.062924042 0.036186188 0.85610974
0.066108488 0.036637273 0.85600007
-0.0073196776 0.041365869 0.85500002
-0.00094170164 0.041381996 0.85533357
0.0014509195 0.041373931 0.85516691
0.064607494 0.049448945 0.85726696
0.066547751 0.048211847 0.85650796
0.063013546 0.052376091 0.85731119
0.066892907 0.052357696 0.85787547
0.059698265 0.057314701 0.85565007
0.062095657 0.057031166 0.85937786
0.059808739 0.063798599 0.85723335
0.061505392 0.061504655 0.85860014
0.059997123 0.065599166 0.85993326
0.058121704 0.074051648 0.85593355
-0.012131481 0.078440323 0.85691273
-0.008121999 0.079583541 0.85550034
0.054911938 0.079599045 0.855667
0.057384688 0.078114495 0.85683346
-0.010953356 0.0826644 0.85856676
-0.0075402558 0.083141804 0.85730845
-0.0041353386 0.083611414 0.85600024
0.054961137 0.08206027 0.85643351
0.056240641 0.083375901 0.85767359
-0.0070357323 0.086959161 0.85918677
-0.0027437718 0.087908879 0.85714179
0.00065401493 0.089184023 0.8560003
0.054906774 0.089140907 0.85558647
0.055053137 0.086984217 0.8578667
-0.0014798999 0.091600917 0.85875553
0.0022524656 0.092500612 0.85720754
0.0059760399 0.093440205 0.85608912
0.055131029 0.091902256 0.85908043
0.0030619123 0.096767962 0.85971677
0.007056118 0.097385079 0.85809642
0.010770324 0.098261081 0.85646683
0.05328704 0.09864565 0.85519999
0.055138711 0.098307736 0.85920006
0.012314125 0.10194171 0.85806668
0.016084714 0.10244738 0.85594463
0.0533715 0.10198874 0.85655576
0.01807504 0.10657703 0.85785925
0.021797093 0.1074478 0.85561693
0.051788911 0.10812315 0.85677797
0.01909484 0.11115675 0.85968351
0.02280326 0.1125261 0.85706669
0.026989028 0.11463442 0.85580027
0.050855093 0.11291188 0.85722017
0.02348277 0.11625198 0.85893345
0.027839193 0.118045 0.85743713
0.032169513 0.118987 0.85561705
0.048549622 0.11864718 0.8560372
0.050726458 0.11747281 0.85909879
0.0282219 0.12214144 0.8593334
0.032616854 0.12275514 0.85691869
0.035764772 0.12417645 0.85573363
0.048148036 0.12301873 0.85598594
0.050302248 0.12301018 0.85870153
0.032672934 0.12775776 0.85840005
0.036947798 0.12773798 0.85673338
0.042164117 0.1289988 0.85604471
0.047506656 0.12789334 0.85778099
0.033115156 0.13151319 0.85946679
0.037511639 0.13247091 0.85919172
0.042295244 0.1325971 0.85871124
0.046472158 0.1319935 0.8589468
0.031124143 0.13916114 0.85980016
0.035940323 0.13598342 0.8599335
0.02416338 0.14335544 0.85937786
0.027888468 0.1422154 0.85893333
0.032495588 0.14241719 0.85894161
0.012933937 0.14910448 0.85873342
0.017501179 0.14768612 0.85716432
0.022862377 0.14693882 0.85666686
0.02780661 0.14737099 0.85639477
0.032471266 0.14670169 0.85829991
0.035940323 0.14558123 0.8599335
0.0076630935 0.15298243 0.85883337
0.0115229 0.15226516 0.85704672
0.028585183 0.15283941 0.85578918
0.031609647 0.15198463 0.85845548
-0.0073618731 0.15997715 0.85992861
-0.0019080242 0.15886033 0.85908002
0.0024144331 0.15762265 0.85757351
0.0058481707 0.15622437 0.85690022
0.028587192 0.15762548 0.85584474
0.031075867 0.15810947 0.85846663
-0.0073576462 0.16308372 0.85944062
-0.0025463752 0.16279706 0.85793334
0.00118592 0.16131878 0.85573363
0.024591204 0.16395947 0.855667
0.027836492 0.16267537 0.85728586
-0.006557514 0.16750145 0.85955006
-0.0025462147 0.16755967 0.85780013
0.00065342913 0.16785377 0.85523361
0.024623774 0.16736524 0.85680026
0.026678015 0.16732417 0.85863334
-0.0057572322 0.171149 0.8598001
-0.0023478549 0.17232321 0.85867506
0.0017176106 0.17251593 0.85600019
0.0054370072 0.17496489 0.85500026
0.024010392 0.17264438 0.85769331
-0.00094617956 0.17586534 0.85940009
0.0024543032 0.17693517 0.85780013
0.0066458154 0.1785104 0.85675019
0.018206306 0.17946476 0.85560024
0.023062926 0.17719543 0.85809636
0.0073286374 0.18212341 0.85875553
0.011831224 0.18237065 0.85616702
0.01743548 0.1825268 0.85690016
0.021882601 0.1817655 0.85895002
0.0086759496 0.18557237 0.8599335
0.012075353 0.18683858 0.85931671
0.017135656 0.18606843 0.85905713
0.034514274 0.028956532 0.86438465
0.036849707 0.028891973 0.86245739
0.00066050899 0.033784807 0.86450005
0.021603772 0.033758748 0.86383355
0.028430099 0.033331364 0.86318338
0.033094097 0.032593399 0.86338586
0.037611872 0.032064512 0.86150372
0.040774848 0.032024559 0.86042219
-0.00094683992 0.03520871 0.86000001
0.0020665156 0.037101943 0.86221033
0.0070934165 0.038520887 0.86252218
0.011921303 0.036922004 0.86267328
0.017373856 0.035923056 0.86180001
0.023166751 0.035291508 0.86202222
0.027968025 0.035264209 0.86135578
0.032793105 0.035271484 0.86153334
0.036749233 0.0352128 0.86010015
0.064858705 0.054443862 0.86060005
0.063275322 0.057664335 0.86088336
0.065815121 0.057782061 0.86262256
0.062942512 0.062938161 0.86182499
0.065162688 0.06113255 0.86463356
0.061521351 0.067402147 0.86253887
0.060086269 0.072105654 0.86121112
-0.013778127 0.076802619 0.86000001
0.060207967 0.07706628 0.86295557
-0.015411847 0.081760682 0.86166668
-0.013146853 0.082624376 0.86065006
0.05847469 0.084112227 0.86113143
0.06026455 0.080352545 0.86376679
-0.015462525 0.085245177 0.86450005
-0.012362709 0.08787407 0.86189616
-0.0077704974 0.089275159 0.86071676
0.057531737 0.087825522 0.86142004
-0.012213072 0.093103603 0.86279702
-0.0073829293 0.093054958 0.86235183
-0.0030894659 0.093458526 0.86114454
0.05657978 0.093506776 0.86283219
-0.0065964321 0.096526347 0.86471659
-0.0023567546 0.097656049 0.86226249
0.0016202868 0.09829922 0.86052001
0.056586619 0.097532153 0.8629334
-0.01541781 0.10103352 0.86200005
-0.013842211 0.10126794 0.86400002
0.0030706646 0.10266384 0.86222219
0.0070782583 0.10248886 0.86074817
0.010280537 0.10319877 0.86000019
0.056171279 0.10272396 0.86272782
0.0030778963 0.10611413 0.86420023
0.0070956009 0.1075578 0.86287779
0.011901006 0.10735589 0.86125922
0.015628072 0.10827314 0.86006689
0.053594436 0.10881482 0.86013359
0.055445671 0.10689137 0.86398339
0.0081812525 0.11146581 0.86414462
0.01192243 0.11236446 0.86281121
0.016710222 0.11249989 0.86078334
0.053783238 0.11241107 0.86316341
0.013554749 0.1157641 0.86423355
0.017768906 0.11700249 0.86258489
0.022805218 0.11815329 0.86056006
0.052066818 0.11778852 0.86140013
0.019454228 0.12105911 0.86377794
0.022958763 0.12205517 0.86182511
0.027536597 0.12446095 0.86045009
0.052117858 0.12191325 0.86224443
0.024118874 0.12733366 0.86326683
0.027946843 0.12810439 0.86073345
0.051385198 0.12776129 0.86150473
0.023885105 0.13281725 0.86312383
0.027956529 0.13295589 0.86104459
0.032414507 0.13375427 0.86000025
0.037547003 0.13439418 0.86000019
0.048005469 0.13368501 0.86058342
0.051315289 0.1331443 0.86226106
0.017889364 0.13846421 0.8634367
0.023001982 0.13758311 0.86194676
0.027925598 0.1376043 0.86006683
0.032935776 0.13739377 0.86000019
0.037749022 0.13779911 0.86003351
0.042366948 0.13762011 0.86016303
0.047242418 0.13780189 0.8612963
0.05099491 0.13777448 0.86364186
0.0087240441 0.14477967 0.8647002
0.012466293 0.14347401 0.86330014
0.017527165 0.14263393 0.86146116
0.022589259 0.14193815 0.86047786
0.034339193 0.14079328 0.86000019
0.037567452 0.14246811 0.86045194
0.042444006 0.14267924 0.86172581
0.047320675 0.14284422 0.86272234
0.050647769 0.14154629 0.86460018
0.0030748835 0.14859241 0.86349183
0.0072953105 0.14784598 0.86265421
0.0116736 0.14696988 0.86138099
0.015895393 0.14560381 0.86006683
0.034339193 0.14879207 0.86000019
0.037627321 0.14750406 0.86181909
0.042499322 0.14687835 0.86285013
0.047382891 0.14624529 0.86385584
-0.0065908255 0.15348855 0.86392236
-0.0025588057 0.15245557 0.86262965
0.0022634608 0.15221594 0.86127412
0.0060062502 0.15099894 0.86042231
0.033970829 0.15253657 0.86081672
0.036058743 0.15248163 0.86276668
-0.0071741333 0.15705091 0.86143667
-0.003011809 0.15671554 0.86084759
0.0014591028 0.15520918 0.86010015
0.03361294 0.15714265 0.86192226
0.036124218 0.15597309 0.86433345
-0.0073648496 0.16003707 0.86025095
0.029559517 0.16496857 0.8609333
0.03253004 0.16183582 0.86302012
-0.0073662861 0.16807635 0.86044413
0.028786814 0.16834348 0.86181325
0.031279787 0.16557534 0.86410022
-0.0067248149 0.17320409 0.86047554
-0.0041562705 0.17445596 0.8603335
0.027544621 0.17281866 0.86243635
-0.0069216788 0.17825355 0.8621096
-0.0027566075 0.17811054 0.86155832
0.0006570706 0.17918763 0.86000019
0.027048144 0.17783368 0.86274672
-0.0064289197 0.18288791 0.86387336
-0.0025609196 0.18307218 0.86322606
0.0022634314 0.18260822 0.86103714
0.0054709218 0.18325841 0.86033356
0.024104785 0.18293695 0.86108005
0.026816238 0.18223184 0.86305726
0.0027286927 0.1876615 0.86323351
0.0068804552 0.18763721 0.86115003
0.010280537 0.18878619 0.86000019
0.017988823 0.18855697 0.86041343
0.02295061 0.18727376 0.8625049
0.0074206493 0.19174173 0.8632201
0.011912638 0.19244164 0.86203706
0.017067816 0.19239004 0.86252677
0.020015096 0.19305728 0.86480021
0.013558409 0.196199 0.86446685
0.02902442 0.029110029 0.86896664
0.032180198 0.029032696 0.86665803
0.0034928534 0.032670289 0.86697376
0.0071466863 0.032343369 0.86897779
0.011772773 0.032793168 0.86866677
0.016859064 0.033131678 0.86847234
0.022785069 0.032481834 0.86792588
0.0278618 0.031341437 0.86809999
0.03216891 0.030633947 0.86635011
0.0038881127 0.035420246 0.86516684
0.0071280636 0.036288261 0.86670017
0.011163928 0.035470046 0.86638343
0.015201068 0.03546254 0.86620021
0.066815153 0.059559733 0.86515009
0.066329047 0.063250497 0.86721343
0.063689798 0.06852188 0.86653352
0.065875933 0.067886055 0.86871672
0.062953606 0.072631665 0.86750865
0.065530017 0.072799012 0.86950725
0.062947646 0.077465899 0.86743408
0.062099196 0.08144965 0.86688972
-0.015498296 0.087054245 0.86650002
0.061490573 0.087471865 0.86742562
0.058879226 0.09195336 0.86708897
-0.012267251 0.097531311 0.86649466
-0.0078181755 0.097875826 0.86598277
0.058864985 0.097571917 0.86687934
0.060626652 0.098616041 0.86895663
-0.01228278 0.10147164 0.86769849
-0.0068993508 0.10131231 0.86897284
-0.0028075874 0.10222308 0.86820954
0.00066168053 0.10311863 0.86603338
0.058814332 0.10232365 0.86613345
0.060572922 0.10175843 0.86818665
-0.0016053969 0.1064052 0.86919993
0.0020488277 0.10866139 0.86803812
0.057296384 0.10782064 0.86759079
0.0028237503 0.11261937 0.86891109
0.0065926262 0.11347882 0.86723894
0.055748686 0.11313228 0.86870527
0.007686839 0.11748066 0.86899996
0.011782428 0.11799274 0.86731255
0.015206333 0.11929138 0.86650014
0.053995986 0.1176905 0.8665778
0.05580911 0.11729832 0.86964673
0.013228307 0.12250237 0.86926657
0.016638551 0.12286021 0.86750841
0.020033615 0.12399804 0.86560023
0.054022294 0.1217794 0.86700004
0.055829596 0.12138679 0.86996543
0.017677153 0.12769051 0.86881107
0.020855904 0.1273164 0.86626679
0.054022294 0.12742417 0.86700004
0.013090986 0.13366228 0.86911106
0.017063156 0.13269413 0.86850834
0.020852881 0.13212991 0.86613339
0.053970367 0.13052416 0.86616677
0.0039061382 0.13744493 0.86917764
0.0073497575 0.13762954 0.8690666
0.011995486 0.13727444 0.86810374
0.016497755 0.13604027 0.86641347
0.02002204 0.13519117 0.86510015
0.052336838 0.13853233 0.86586672
-0.0066274339 0.14304116 0.86879349
-0.0025785873 0.14312786 0.86932212
0.002486937 0.14245906 0.86894161
0.0071340441 0.1423537 0.8675701
0.011431996 0.14128147 0.86626679
0.051579125 0.14269173 0.86668336
-0.0062212581 0.14663571 0.86855173
-0.00257315 0.14766042 0.8674612
0.0018753202 0.14681691 0.86724174
0.0055086524 0.14584735 0.86626685
0.039387658 0.14969175 0.86520022
0.042646375 0.14980131 0.86583358
0.047488105 0.14818306 0.86578912
0.051416386 0.14702916 0.86848885
-0.0058014276 0.150704 0.8664
0.038482841 0.15283856 0.86661351
0.04276754 0.15265141 0.86829996
0.047424939 0.15164742 0.86832911
-0.0090508983 0.15826863 0.86810535
0.037895981 0.15743409 0.86796117
0.042808045 0.15602903 0.86912221
0.046881143 0.15528804 0.86950004
0.034105945 0.16410512 0.86765558
0.03683551 0.16155691 0.86842221
0.032216188 0.16785772 0.86759174
0.029743776 0.17324865 0.86630023
0.03146562 0.17221883 0.86923337
-0.0090251276 0.17875116 0.86563337
0.029776774 0.1774752 0.86726117
-0.0090689166 0.1828545 0.86983329
0.029153371 0.18277976 0.86794007
-0.007109446 0.1870575 0.86830676
-0.0025741465 0.1880331 0.86759448
0.00066180801 0.18853596 0.86620021
0.024059996 0.18993872 0.86525011
0.02783221 0.1867972 0.8671068
-0.0021727656 0.19120282 0.86916661
0.0020498994 0.19265521 0.86816186
0.0071212314 0.19413388 0.86601686
0.022839595 0.19308762 0.86700004
0.026586914 0.19232088 0.86873341
0.0039062381 0.19565648 0.86919999
0.0069353008 0.19719958 0.86798328
0.011968978 0.19790919 0.86608356
0.016819943 0.19777437 0.86633348
0.022131976 0.19696361 0.868725
0.0076902439 0.20162906 0.86938888
0.011800209 0.20217375 0.8685416
0.016864536 0.20220074 0.86865824
0.020655863 0.20103055 0.86913329
0.012820611 0.20533401 0.86909997
0.016063085 0.20534188 0.86913329
0.023421772 0.029196007 0.87153345
0.026646851 0.028627729 0.87068897
0.013650428 0.0307748 0.87033337
0.01611059 0.030823629 0.87171441
0.023385942 0.030770084 0.8702001
0.068880059 0.06400241 0.87085724
0.068212986 0.068035439 0.87063569
0.067533366 0.072649427 0.87094259
0.065702677 0.077857874 0.87179846
0.059257004 0.082802415 0.87265223
0.064269207 0.081343271 0.87441677
-0.015560898 0.089024246 0.87
0.062577628 0.08695282 0.87358344
0.061491393 0.092149138 0.8720066
0.060772721 0.096422881 0.87105
-0.010700589 0.103661 0.87060004
-0.008535726 0.10312141 0.87060016
-0.012327264 0.10693256 0.87086225
-0.0074597877 0.10698783 0.87131131
-0.0038011456 0.10733786 0.87086689
-0.01138473 0.11177783 0.87327433
-0.0072723236 0.11189339 0.87322491
-0.0025851328 0.11185871 0.87137794
0.0006653734 0.11341264 0.87086684
0.057065174 0.11305793 0.87229687
-0.0022662482 0.11605574 0.87368649
0.0020886506 0.11703514 0.87220013
0.0060798046 0.1193618 0.87093353
0.056799337 0.11847298 0.87237048
0.0032740533 0.1215783 0.87366641
0.0074004815 0.12279066 0.87172395
0.011061961 0.12347738 0.87101352
0.055888485 0.12394521 0.87088335
0.0039284579 0.12793113 0.87414426
0.0071776239 0.12779954 0.87287652
0.012039452 0.12804905 0.871252
0.01527946 0.12796316 0.8706668
0.056023166 0.1274918 0.87298214
0.0024738638 0.13295668 0.87274069
0.0071641374 0.13289256 0.87113357
0.011491072 0.13228822 0.87071133
0.015272439 0.13114202 0.87026685
0.054298423 0.1337492 0.87143171
0.056126468 0.1309804 0.87459195
-0.0058515305 0.13900137 0.87388277
-0.0022280824 0.13786057 0.87295556
0.0014778385 0.13777669 0.87127799
0.0055353614 0.13602982 0.87046683
0.054322992 0.13786471 0.87182599
-0.0074548237 0.14095967 0.87091237
-0.0025840888 0.14098103 0.87104458
0.00066547527 0.14097384 0.87100023
0.053495225 0.14268464 0.87156677
0.05275188 0.14774819 0.87273335
-0.0074712085 0.15261273 0.87270004
0.04937936 0.1538768 0.87066686
0.051033083 0.15234829 0.87117791
0.039621353 0.15867479 0.87033349
0.042891752 0.1587639 0.87082243
0.048033524 0.15772769 0.87148583
0.051100776 0.15579401 0.87233335
0.039014347 0.16241129 0.87126666
0.042969532 0.16229895 0.87240005
0.047122784 0.16177963 0.87398326
0.034215257 0.16841017 0.8704446
0.037642062 0.16701019 0.87279522
0.043089356 0.16600467 0.87483335
0.033743385 0.17280556 0.87220001
0.036497582 0.17058071 0.87326658
0.032561205 0.17724551 0.87249184
-0.009075867 0.18461399 0.87050015
0.032134037 0.1820991 0.87267965
-0.0085350964 0.18894456 0.8705557
0.029091448 0.18875542 0.87093341
0.031608604 0.1876211 0.87318337
-0.0069165225 0.19231814 0.87116677
-0.0029075549 0.193746 0.87078696
0.029140323 0.19231665 0.87238878
-0.0058447281 0.19729397 0.87286645
-0.0025877119 0.19798732 0.87234068
0.0020857581 0.19782406 0.87073356
0.023400273 0.19924106 0.8707335
0.026414497 0.19789104 0.87192225
0.030012719 0.19514088 0.87413329
-0.0058534322 0.2008397 0.87416649
-0.0022666128 0.2022744 0.87403983
0.0024958514 0.20262165 0.87220836
0.0060793557 0.20359664 0.87088913
0.022320887 0.20304616 0.87084466
0.025740355 0.20267721 0.87297326
0.0022991425 0.20582774 0.87463331
0.0073765358 0.20752084 0.87234169
0.011803745 0.20785739 0.87096202
0.017136168 0.20779601 0.87070495
0.021814981 0.20769781 0.87223345
0.025132447 0.20660986 0.87449992
0.0088205598 0.2114336 0.87426668
0.012297413 0.2123163 0.87311423
0.016734131 0.21241319 0.8724376
0.021040443 0.21214996 0.87386656
0.064164259 0.09234865 0.87854999
0.062724665 0.10425881 0.87562072
0.05956921 0.10771651 0.87725008
0.061247438 0.10697567 0.87785387
-0.012393636 0.11401603 0.87550008
-0.0091279978 0.11401603 0.8754999
0.059693705 0.11121216 0.8790834
-0.0116121 0.11680902 0.87812608
-0.0075194188 0.11764392 0.87825561
-0.0030109668 0.11868869 0.8769334
0.057806566 0.11725147 0.87533331
-0.006713097 0.12196845 0.87999976
-0.0026058252 0.12252089 0.87808901
0.0010769642 0.122578 0.87558341
0.057828575 0.12218221 0.87566668
-0.002139658 0.12731622 0.87898099
0.001836728 0.12723151 0.87678581
0.0055660964 0.12701575 0.87530005
0.058043212 0.12672362 0.87891668
-0.0017864398 0.1322929 0.87791115
0.00066915527 0.13116327 0.8758167
0.05636289 0.13398267 0.87827581
-0.0064306841 0.13732661 0.87876683
-0.0036968358 0.13613349 0.8781001
-0.0083353221 0.14047359 0.87800002
0.054614231 0.14349453 0.87650001
0.054641236 0.14519674 0.87693328
0.053097423 0.1511673 0.87845004
0.051260903 0.15790996 0.87506652
0.048516985 0.16358052 0.87710011
0.051465929 0.16181076 0.87856668
0.039896011 0.16874185 0.87636673
0.042992715 0.16816422 0.87760496
0.048216928 0.16708328 0.87907767
0.038290441 0.17294154 0.87700021
0.04200203 0.1730849 0.87938654
0.034960758 0.17591612 0.87556678
0.036703046 0.17806804 0.8781476
0.041701868 0.17598508 0.87998307
0.033315383 0.18399113 0.87524009
0.035479352 0.18258858 0.87828338
0.033353616 0.18746406 0.87624454
0.035104506 0.18726984 0.87916648
0.032219145 0.19248623 0.87871671
-0.0074977498 0.19551286 0.87579995
0.02841601 0.19862755 0.87516665
0.030727221 0.19786453 0.87901109
-0.0058652628 0.20368968 0.87593335
-0.0042324411 0.20372844 0.87610012
0.028490687 0.20241569 0.87746674
-0.0058835656 0.20759539 0.8786667
-0.0024008208 0.20732036 0.87836677
0.0019783289 0.20821473 0.87714684
0.027142897 0.20742118 0.87793332
-0.00096885912 0.21118322 0.87999976
0.0028581975 0.21212763 0.87938881
0.0066685895 0.21271062 0.87729454
0.018622112 0.21489905 0.8751334
0.02353688 0.21262358 0.8758167
0.025648747 0.21197678 0.87820005
0.0077781011 0.21703477 0.87938875
0.01192182 0.21732464 0.87752932
0.017046759 0.21806158 0.87803346
0.021319371 0.21674338 0.87864667
0.0088770641 0.22097154 0.87986642
0.012146834 0.22239545 0.87902212
0.01652454 0.22191715 0.87928873
0.066442639 0.087752298 0.88161671
0.067764394 0.091818459 0.88353312
0.063958354 0.097563915 0.88135767
0.067260489 0.097332016 0.88372433
0.06374678 0.102856 0.88221556
0.066666611 0.10039026 0.88459021
0.059783112 0.10974101 0.8804
0.063149638 0.10791764 0.88155377
0.059842475 0.11394936 0.88127422
0.062400006 0.11247533 0.88257492
0.065026075 0.11192451 0.88471442
-0.011640172 0.11954802 0.88025832
0.059888355 0.11895659 0.8819499
0.061703347 0.11640828 0.88439167
-0.011244446 0.12257741 0.88142782
-0.0081969574 0.1235414 0.88070643
0.059828371 0.1229367 0.88106662
0.061646778 0.12164175 0.88357776
-0.011407744 0.12709998 0.88342804
-0.0073421272 0.127719 0.88155401
-0.0042533744 0.12857981 0.88043308
0.059040226 0.12792057 0.88154995
0.060018502 0.12908095 0.88386673
-0.0073564337 0.13288231 0.88318133
-0.0042565409 0.1327728 0.88108873
0.058312878 0.13141826 0.88300002
-0.008360995 0.13762985 0.8807084
0.056611855 0.13785601 0.88215548
0.056755889 0.14314318 0.88439995
0.054842699 0.14736933 0.88016659
0.053397954 0.16270293 0.8834222
0.049938928 0.16872425 0.8805331
0.052050509 0.16686305 0.88151658
0.044988461 0.1702719 0.88006634
0.046906821 0.17237626 0.88140821
0.050764453 0.17257252 0.88346004
0.042160399 0.17823397 0.88098317
0.046577066 0.17719541 0.88295007
0.050163891 0.17688861 0.88450015
0.038068965 0.18240839 0.88135833
0.041844439 0.18134706 0.88297337
0.045230422 0.18106312 0.88480014
0.037297025 0.18675326 0.88252503
0.03352575 0.19334488 0.88076657
0.035634521 0.19159238 0.88212502
-0.0075348467 0.1997548 0.88013327
0.03319291 0.19749211 0.88282508
0.035306823 0.19575074 0.88423347
-0.0075385561 0.20149106 0.88056666
0.031674746 0.20194645 0.88255566
-0.0075579584 0.20939855 0.8828333
-0.0042516026 0.20956211 0.88006645
0.028585924 0.2096415 0.88039982
0.03031219 0.20694232 0.88285547
-0.0067262975 0.21242216 0.88174158
-0.0029469668 0.21271904 0.88229322
0.0012211166 0.21418762 0.88113314
0.027780233 0.21303409 0.8808831
0.030345758 0.21128136 0.88383341
-0.00097381411 0.21555394 0.88450015
0.0026481948 0.21741417 0.88269997
0.0061503518 0.21909343 0.88108873
0.022576066 0.21847527 0.88079983
0.026605105 0.21676953 0.88274992
0.0039743232 0.22127555 0.88435012
0.0072527099 0.22289421 0.88207769
0.018189186 0.22386341 0.88051087
0.021845039 0.22241788 0.88282382
-0.0042609447 0.2280702 0.88199997
0.0080908537 0.22602665 0.88363338
0.012177221 0.22705024 0.88122207
0.017124044 0.22724344 0.88197225
0.020450197 0.22684018 0.88360012
0.013044585 0.23030978 0.88430017
0.016346918 0.23035753 0.8844834
0.068348154 0.095497958 0.88500011
0.066859663 0.10274217 0.88713324
0.065966681 0.10717368 0.88625896
0.065111995 0.11207201 0.88588345
0.062960945 0.11766145 0.88659984
0.065302059 0.11653217 0.88846898
0.063659213 0.12234354 0.88866657
0.0618026 0.12689419 0.88581109
-0.010893557 0.13190998 0.88629961
-0.0092300149 0.13258195 0.88528508
0.058513191 0.13351792 0.88603312
0.061200313 0.13229246 0.88665324
-0.010889873 0.13516101 0.88600004
0.058634266 0.13709818 0.8878665
0.061148603 0.13716541 0.88829988
0.058656275 0.14210555 0.88819981
0.060756702 0.14176178 0.88863319
0.057476219 0.14768858 0.88700557
0.060362577 0.14553002 0.88893324
0.053533632 0.15488027 0.88566655
0.056971543 0.1519389 0.88773316
0.05356184 0.1574344 0.88613319
0.056065887 0.15681212 0.88914663
0.053614225 0.16006342 0.88699985
0.055976134 0.1616137 0.88947773
0.053624291 0.168345 0.88716668
0.055449177 0.16555288 0.88990003
0.053069279 0.17162909 0.88708884
0.048541706 0.17945771 0.88500017
0.052255381 0.17772101 0.88729984
0.041949395 0.18402667 0.88520014
0.047159113 0.18319649 0.88615817
0.050990038 0.18291336 0.8873865
0.038655952 0.18859763 0.88540012
0.04203485 0.18728854 0.88699979
0.047041554 0.18746488 0.88783318
0.051430345 0.18727359 0.88928002
0.037881646 0.19297221 0.88658321
0.041576613 0.19129388 0.88899994
0.04767153 0.19135626 0.88928896
0.050426666 0.19021966 0.88913333
0.037342478 0.19747397 0.88776195
0.033707831 0.20345554 0.88555002
0.036922757 0.20203409 0.88835835
0.032916311 0.20778625 0.88645536
0.035495814 0.20754746 0.88896668
0.032130741 0.21258511 0.88756657
-0.0064883218 0.21665479 0.88675565
-0.0026321174 0.2178748 0.8872475
0.00067647744 0.21906725 0.88540012
0.028220823 0.21869703 0.88612217
0.030506 0.21735582 0.88849998
-0.0022232188 0.22166529 0.88921672
0.0018586199 0.2230209 0.88708556
0.023802493 0.22408412 0.88570005
0.026961096 0.22272685 0.88767481
0.0028074984 0.22779016 0.888219
0.0067355707 0.22802593 0.8860777
0.02263942 0.22777809 0.88633317
0.026733946 0.2277527 0.88899517
-0.0018030101 0.23089796 0.88655818
0.068772919 0.10437395 0.89050001
0.068163186 0.10886698 0.89338893
0.067715637 0.11296758 0.89297247
0.067760751 0.11816306 0.8927725
0.066323578 0.12264664 0.893287
0.063929014 0.12784429 0.89243346
0.065740444 0.12646461 0.89443362
0.063862957 0.13268395 0.8915112
0.063944139 0.13783674 0.89264464
0.063034765 0.14263943 0.89154178
0.061553109 0.14798391 0.89176017
0.05888081 0.15425934 0.89160019
0.061071213 0.15246421 0.89322513
0.058077019 0.15764387 0.89200008
0.057587545 0.16264784 0.89213341
0.056597371 0.16798951 0.89228678
0.053821757 0.173934 0.89043337
0.055595249 0.17262888 0.89224458
0.053803626 0.17884286 0.89013344
0.055633325 0.17772894 0.8928557
0.053826455 0.18223256 0.89051133
0.053972859 0.18770997 0.89293355
0.04331708 0.19331671 0.89070016
0.046083946 0.19330931 0.89066678
0.052248251 0.19246833 0.89189059
0.042078838 0.1973289 0.89229602
0.04751803 0.19746596 0.89291275
0.051483735 0.19687602 0.89306676
0.038878623 0.20376404 0.89050025
0.041066896 0.2022427 0.89292514
0.038087007 0.20728572 0.89139456
0.040718492 0.20716009 0.89443362
0.03387849 0.21359107 0.89003342
0.036069743 0.21220593 0.89290857
0.032733075 0.21714896 0.89274186
-0.0059811026 0.22183764 0.89323342
-0.0037554696 0.22346592 0.8920002
0.030634562 0.22242147 0.89224464
-0.0018152245 0.22737664 0.89215064
0.0006801447 0.22853446 0.89020032
0.028929569 0.227907 0.89098358
0.069185793 0.10999992 0.89584613
0.069129363 0.11324015 0.89511544
0.070981227 0.11686987 0.89742231
0.068737768 0.12369332 0.89545006
0.070982791 0.1218824 0.89744216
0.067895867 0.12775096 0.89645338
0.071034834 0.12614876 0.89810002
0.067211971 0.13176532 0.89816219
0.067090921 0.13665517 0.89761668
0.066105485 0.1430608 0.89940012
0.064290784 0.14609611 0.89748359
0.062629752 0.15363911 0.89766681
0.059131727 0.15908101 0.89540005
0.060848065 0.15753545 0.89608341
0.060832601 0.16166097 0.89585572
0.059315909 0.16709638 0.89818907
0.058156926 0.17197847 0.89752239
0.05773776 0.17574413 0.89970022
0.055945575 0.18290314 0.89786685
0.056041114 0.18656081 0.89940012
0.054097775 0.19480452 0.89500016
0.04408922 0.19982888 0.89513344
0.045762055 0.19984378 0.89520007
0.052565791 0.19863631 0.89728338
0.043563228 0.20274484 0.89575553
0.047486831 0.20257546 0.89623332
0.050983414 0.20318997 0.89895022
0.042956688 0.20725155 0.89637142
0.047336519 0.20665179 0.89790499
0.038273416 0.21330091 0.89576674
0.042569667 0.21139564 0.89829189
0.034082763 0.21821022 0.89539999
0.037511349 0.21732648 0.89748341
-0.0059978431 0.22495633 0.8957333
0.03329391 0.22267412 0.89661121
0.035906635 0.22249532 0.89925575
-0.004326324 0.22740543 0.89553332
0.072944574 0.12236499 0.90100002
0.07121475 0.12897958 0.90037531
0.069645599 0.13337764 0.9018001
0.071427755 0.13272732 0.90306813
0.068740875 0.13744463 0.90096682
0.067529343 0.14230905 0.90346688
0.064485393 0.14904903 0.90020013
0.064657308 0.15196645 0.90260017
0.062957667 0.15780073 0.9023667
0.063099541 0.16152099 0.90440017
0.061240781 0.16778111 0.90186673
0.059632536 0.1738672 0.90298343
0.061249848 0.17115974 0.90200007
0.05788108 0.17869744 0.90193331
0.057930283 0.18136771 0.90270007
0.0561595 0.18946943 0.90130001
0.056275807 0.1923829 0.90316689
0.054490663 0.19957325 0.90150005
0.052828219 0.20300107 0.90182233
0.048564412 0.20945287 0.90071696
0.052640442 0.20727362 0.9026953
0.042694945 0.21397233 0.90093356
0.04757103 0.21270798 0.90233809
0.052377913 0.21127272 0.90372223
0.039350141 0.21964805 0.90130031
0.042471636 0.21711965 0.90333337
0.04706759 0.2161621 0.90425003
0.069931358 0.13982016 0.90550017
0.071710013 0.13662261 0.90663648
0.068285294 0.1432786 0.90606689
0.070971057 0.14104909 0.90799272
0.066592991 0.14748698 0.9060334
0.066672213 0.15188175 0.90711123
0.064925946 0.15596877 0.90635014
0.066245317 0.15839268 0.90897781
0.064067394 0.16183197 0.90615022
0.065097876 0.16314384 0.90875018
0.063257687 0.16614273 0.90666676
0.06149203 0.17352104 0.90556681
0.059828449 0.17780825 0.90595019
0.06166181 0.17737944 0.90806693
0.059027091 0.18214908 0.90660018
0.060900006 0.18185458 0.90933341
0.058154181 0.18712585 0.90618896
0.058370244 0.1928972 0.90955567
0.056618512 0.19777973 0.90866685
0.054764673 0.20310484 0.90603352
0.056687046 0.20478801 0.90976673
0.054732427 0.20888081 0.90550011
0.05658805 0.20780902 0.90817815
0.053782035 0.21316962 0.90654689
0.056655884 0.21313296 0.90926671
0.044609673 0.21819347 0.90570009
0.048583221 0.21805711 0.90630025
0.071514904 0.14354594 0.91132718
0.06884551 0.14870273 0.91350019
0.071065605 0.14761589 0.91466451
0.068827085 0.15290956 0.91325569
0.071474679 0.15310763 0.9144392
0.068213567 0.15789884 0.91262227
0.070659883 0.15999825 0.91493344
0.06701114 0.16283031 0.91172236
0.063625142 0.16965188 0.91193348
0.065407082 0.16731572 0.91306686
0.06363444 0.17307012 0.91206688
0.065540798 0.17191191 0.91493344
0.063571654 0.17798358 0.91116667
0.065411851 0.17751765 0.91313338
0.062281042 0.18360576 0.91215342
0.065481097 0.18025734 0.91410023
0.061652921 0.18715973 0.91293347
0.060766988 0.19165322 0.91370857
0.058609456 0.19793472 0.91328347
0.060360078 0.19553962 0.91400021
0.057704497 0.20198871 0.91241676
0.058624435 0.20648152 0.91351676
0.05869396 0.2126815 0.91460019
0.074096411 0.14472719 0.91522735
0.073012501 0.14880766 0.91589516
0.07427495 0.15190189 0.91743231
0.07604333 0.15372485 0.91812509
0.068958551 0.15660577 0.9150002
0.072511561 0.15718949 0.91675299
0.068998754 0.16265815 0.91553342
0.071698748 0.16212155 0.91731119
0.067999035 0.16725577 0.91739994
0.071017742 0.16594025 0.91956669
0.066536315 0.17184983 0.916875
0.066888891 0.17757452 0.91780001
0.066281237 0.18259417 0.91729999
0.063900717 0.18827635 0.91588354
0.065811433 0.18800287 0.91871101
0.063350588 0.19327804 0.91779339
0.061978191 0.19786637 0.91690558
0.0587346 0.20431596 0.91523355
0.061215956 0.20215642 0.91831112
0.058741752 0.20944902 0.91534489
0.05872605 0.21279757 0.91510016
0.073722541 0.16281018 0.92121673
0.069427058 0.16880925 0.92121673
0.072447918 0.16774273 0.92321116
0.068941906 0.17330974 0.92237782
0.071383283 0.17109321 0.92430007
0.068677723 0.1776576 0.92266661
0.06777636 0.18355682 0.92213339
0.067836799 0.18715353 0.92295551
0.066907592 0.19253337 0.92199171
0.064229816 0.19866404 0.92060012
0.066082053 0.19735758 0.92248899
0.06372875 0.20231386 0.92162228
0.061594427 0.20725778 0.92225999
0.075098082 0.16911544 0.92759991
0.072885066 0.17287606 0.92694986
0.076000385 0.17265117 0.92805558
0.069805138 0.17661983 0.92623323
0.07255692 0.17787337 0.9282794
0.075786926 0.17685466 0.92897505
0.069831103 0.18271939 0.92657775
0.071680173 0.18302722 0.92814445
0.069904372 0.18808401 0.92755008
0.070913166 0.18760322 0.92943347
0.068873242 0.19193617 0.92531657
0.068179384 0.19759116 0.9276166
0.064550743 0.2048199 0.9252001
0.066426679 0.2018349 0.92730016
0.073602766 0.18263938 0.93056685
0.075448737 0.18290579 0.93193114
0.073141225 0.18726303 0.93204468
0.07540407 0.18539734 0.9313795
0.071497723 0.19276667 0.93140006
0.070264868 0.19686219 0.93233335
0.074056238 0.18986021 0.93630004
0.072400123 0.19794588 0.93746674
