# .PCD v0.7 - Point Cloud Data file format
VERSION 0.7
FIELDS x y z
SIZE 4 4 4
TYPE F F F
COUNT 1 1 1
WIDTH 1034
HEIGHT 1
VIEWPOINT 0 0 0 1 0 0 0
POINTS 1034
DATA ascii
0.029028151 0.027034732 0.18866205
0.02241943 0.031551365 0.1911642
0.012989814 0.032618035 0.18910816
0.029996682 0.029157076 0.18652031
0.023505766 0.033708785 0.18727866
0.014387686 0.033952679 0.18554932
0.030583166 0.030068785 0.18267065
0.024027508 0.033821125 0.18227735
0.022897735 0.022529313 0.19165573
0.015227895 0.026364971 0.19256201
0.0047249305 0.030130865 0.19127941
-0.0037810104 0.032831054 0.19125465
-0.0082476651 0.034104947 0.19033056
-0.011257279 0.034910157 0.18993992
0.028207872 0.023329372 0.18887562
0.024947055 0.024614498 0.19085899
0.016519807 0.02941291 0.19191226
0.0064612082 0.032938678 0.18860301
-0.0024113143 0.035696454 0.18832138
-0.0072307186 0.036143631 0.18721887
-0.010528131 0.036337279 0.1873107
0.030924302 0.025408486 0.18500432
0.0074623534 0.034775138 0.18368635
-0.0017760079 0.036646321 0.18267435
-0.0061878758 0.036885921 0.18307966
0.031391874 0.027609628 0.18056601
0.022146562 0.033427794 0.17945844
0.01361557 0.035037398 0.17976213
0.003341171 0.036420185 0.17870942
-0.00057620183 0.037105918 0.17871481
0.030745454 0.029499311 0.17598838
0.024003292 0.033494189 0.17637682
0.014931217 0.035635203 0.17499989
0.031248644 0.030319387 0.17294425
0.024635293 0.033894077 0.17151797
0.016040038 0.035911843 0.17181128
0.026441582 0.034325942 0.16839048
-0.0021788394 0.02487747 0.19144434
-0.0062017972 0.027343377 0.19169122
-0.011187222 0.028530221 0.19142267
-0.01495649 0.030535113 0.19103023
-0.021615315 0.031787105 0.19033518
-0.025711492 0.033109158 0.19038677
0.026251294 0.017086001 0.19000995
0.022266343 0.018869201 0.19156331
0.013305913 0.021662999 0.19213712
0.0045629242 0.025944652 0.19130519
-0.0047752839 0.030634722 0.19208801
-0.0091197379 0.032258451 0.19178188
-0.014626622 0.034188446 0.1896897
-0.019927412 0.034401476 0.188151
-0.024283802 0.034771319 0.18714461
-0.027738962 0.037701257 0.18598989
0.029129844 0.018724738 0.18763062
-0.012823831 0.035927296 0.1852648
-0.017844591 0.034956347 0.1840252
-0.02565912 0.036553308 0.18410265
-0.027055435 0.039067276 0.18420854
0.031252883 0.020965386 0.18365294
-0.0070526581 0.037227221 0.17998365
-0.011834867 0.036193393 0.18099734
0.032105152 0.025006587 0.17926225
-0.0015787911 0.037060242 0.17604247
-0.0065054297 0.036784746 0.17498958
-0.010213185 0.03620515 0.17635277
0.031859193 0.026117941 0.17395887
0.0033168485 0.03568536 0.17165589
-0.0010676719 0.036766659 0.17124927
-0.0055871895 0.036650658 0.17148942
0.032438628 0.028755199 0.17052141
0.019772077 0.034383658 0.16830739
0.0098696938 0.034860939 0.16832727
0.032321092 0.030357292 0.1662631
0.024405785 0.033530694 0.1652278
0.015414512 0.03415677 0.16379523
0.024724962 0.033147264 0.16027486
-0.025676366 0.02722472 0.19416615
0.019932779 0.012307016 0.19123989
0.015464572 0.014493806 0.19133189
0.0067343507 0.018557463 0.19173172
-0.0034570494 0.021147925 0.19159606
-0.0080153197 0.023201184 0.19164911
-0.011961921 0.025088305 0.1917789
-0.016710777 0.026644381 0.19114345
-0.021715451 0.028311389 0.1912601
-0.025724247 0.031560905 0.19148606
0.029506531 0.011050127 0.1870937
0.026631763 0.012637923 0.18931571
0.023114834 0.01460984 0.19095418
-0.025940113 0.034868486 0.18673834
0.030052736 0.012134257 0.18509775
0.029289987 0.014825339 0.18731195
-0.020535316 0.034524441 0.18165213
-0.023744695 0.035835549 0.18240511
-0.013207379 0.035338044 0.17776018
-0.018115111 0.034715433 0.17803234
-0.023393113 0.035985079 0.17690691
-0.026806839 0.037283994 0.17500266
-0.012737731 0.03528925 0.17391622
-0.016659576 0.03456014 0.17300576
-0.0027545979 0.037065603 0.16885579
-0.0065231407 0.036800083 0.16892532
-0.010986024 0.036152624 0.16963685
0.0028925659 0.034066539 0.16501465
-0.0016965298 0.035738312 0.1648953
-0.0060537346 0.036995001 0.16506502
-0.0091175744 0.037756413 0.16461986
0.0097333957 0.033787403 0.16126999
0.029561874 0.029227698 0.15833026
0.019602895 0.03408432 0.15815836
0.011226866 0.034244135 0.15762597
0.024898872 0.032736778 0.15392333
0.016409766 0.034668706 0.15349478
0.00042433571 0.011099562 0.19194514
-0.0054680281 0.013309487 0.19153488
-0.010572607 0.015369099 0.19125807
-0.015425893 0.018026166 0.19137329
-0.020652326 0.019164002 0.19117588
-0.02435538 0.021711139 0.1925371
0.026386674 0.003409259 0.18935397
0.023646522 0.0052405843 0.19052345
0.019431017 0.0075415387 0.19128066
0.01372966 0.010184406 0.19096211
0.0050362395 0.013111797 0.1917327
-2.2190623e-05 0.014043852 0.1915867
-0.0047316998 0.016979167 0.19128531
-0.0097896736 0.019156054 0.19169438
-0.013997098 0.021267597 0.19169152
-0.018986154 0.021537375 0.19047317
-0.021489197 0.023645386 0.19093469
0.028072741 0.0052082669 0.18712792
0.025141288 0.0077480529 0.18909839
-0.019121271 0.034132078 0.17121887
-0.022980155 0.034138426 0.17057931
-0.026874637 0.03466107 0.17013717
-0.013150327 0.035338607 0.16729361
-0.017510466 0.034541756 0.16680479
-0.022567861 0.034252938 0.1654065
-0.025883703 0.035053119 0.16561651
-0.00039657578 0.034077991 0.16219234
-0.0064417506 0.035829667 0.16146013
-0.012212338 0.03564601 0.16286194
-0.016848797 0.035198838 0.16201049
-0.020997029 0.035415746 0.16194436
-0.0019534407 0.034051515 0.15796906
-0.0065397071 0.035275411 0.15734774
-0.011073063 0.035426684 0.15766636
0.030994684 0.022686388 0.1542967
0.030253749 0.025440369 0.15669644
0.0042944476 0.03374644 0.15417072
-0.001110225 0.034199145 0.15265983
-0.0066332091 0.035481624 0.1529249
0.029117242 0.026790798 0.15152901
0.010268899 0.033865076 0.15020412
0.0015170667 0.034665518 0.14932093
0.028886769 0.028205801 0.14665419
0.020245463 0.032898039 0.14695042
0.010882461 0.034270536 0.14519262
0.028317383 0.029520994 0.14197826
0.020619063 0.033132255 0.14151019
0.025374472 0.032657646 0.13809615
-0.02402457 0.012760894 0.19723308
-0.02582904 0.014550967 0.19769484
-0.018300725 0.011656053 0.19267705
-0.022522457 0.013981717 0.19461769
-0.025159381 0.016787888 0.19494361
0.020998899 -0.00018706731 0.1919058
0.016049471 0.0012917034 0.19181818
0.010869558 0.0031993599 0.1912542
0.006269333 0.0053279959 0.19115245
-0.0022792295 0.0095186634 0.19145793
-0.0072025484 0.010117723 0.19191393
-0.011992488 0.012179264 0.19190681
-0.016762046 0.015081776 0.19217408
-0.020780712 0.017008748 0.19181401
-0.023814321 0.018672917 0.19310787
0.029494934 -0.0020661894 0.18720651
0.026796278 0.00012497604 0.1895127
0.022529282 0.0025552581 0.19150925
0.016645137 0.0048030047 0.19112164
0.0122304 0.00648423 0.19082808
0.0095336204 0.0082585579 0.19105509
0.030749777 -0.00030882098 0.1848163
0.029567566 0.0023196889 0.18594325
0.029128995 0.0050377827 0.18270642
0.027749293 0.0047291517 0.17563665
-0.029144909 0.034374297 0.16770655
-0.023923887 0.035426747 0.16359705
-0.02803956 0.035121791 0.16383046
-0.01853504 0.035608463 0.1596511
-0.022707179 0.03531909 0.15950948
-0.026536085 0.036608368 0.16001567
-0.013010814 0.034816757 0.15578619
-0.016928837 0.035100635 0.15605563
-0.021865614 0.035615206 0.15490651
-0.024610501 0.037204497 0.15504941
-0.0030875402 0.034729145 0.15050107
-0.005883798 0.035222109 0.15043718
-0.011360699 0.035602342 0.15139735
-0.016107246 0.035322577 0.15139166
0.030418431 0.02027523 0.14790022
0.030092161 0.023923378 0.14910492
-0.00094001275 0.034966119 0.14707831
-0.0060383575 0.035508513 0.14629537
-0.010627214 0.0356162 0.14688319
0.032248478 0.024523351 0.1453799
0.031052507 0.025862411 0.14585084
0.0054294458 0.035185456 0.14323005
0.033291277 0.026541132 0.14124528
0.030912533 0.027865598 0.14107624
0.011148493 0.034810726 0.13965636
0.0023024445 0.03547987 0.13863766
0.034130551 0.02829567 0.1387921
0.030180134 0.029272055 0.13627222
0.02058531 0.033523008 0.13573787
0.011829827 0.033941802 0.13548478
0.026165996 0.032908749 0.13159359
0.025491908 0.032812424 0.1274597
-0.021930763 0.0075911307 0.19506639
-0.022498341 0.010307241 0.19634706
0.017058421 -0.0068508005 0.19233328
0.012859675 -0.0044329823 0.19249177
0.0097730467 -0.0036120685 0.19209716
-0.0050192829 0.0022332475 0.19122726
-0.0091879219 0.0046495618 0.19139311
-0.013785969 0.0069067138 0.19209808
-0.019035678 0.0083344458 0.19281492
0.026957272 -0.0082627377 0.18962535
0.024215681 -0.0057435329 0.19093582
0.020149658 -0.0042859735 0.19195592
0.014736328 -0.001890732 0.19251314
0.0094808256 -0.00017208559 0.19155082
0.0052989973 0.001101895 0.19110227
-0.003678679 0.005414824 0.1914461
-0.0064546708 0.0070068035 0.19154865
0.029912831 -0.0053977142 0.18735129
0.027198132 -0.0032036449 0.18965489
0.031708464 -0.0035422854 0.18375814
0.03080659 -0.0022364659 0.17910635
0.028699873 -7.7006407e-05 0.17832449
0.030475937 -0.0016159611 0.17468372
0.028678179 0.0024317 0.17379376
0.032760885 0.0029857308 0.16668117
0.030024882 0.0051957862 0.1694344
0.027928326 0.0084190266 0.16844249
0.033104569 0.0036439458 0.16527531
0.030361781 0.0065691946 0.16571525
0.028081544 0.0085353032 0.16667479
-0.017987184 0.034828506 0.14863271
-0.02226124 0.034368448 0.14834517
-0.026340406 0.035566226 0.14722228
-0.01151137 0.03556966 0.14506385
-0.016847692 0.034499481 0.14432377
-0.020992268 0.034344364 0.14425841
-0.026369171 0.036554582 0.14348859
-0.0011652056 0.0341985 0.1393241
-0.0052920152 0.034751438 0.14032605
-0.011486352 0.034985431 0.14026278
-0.01581886 0.034606032 0.14087161
0.00048962794 0.035035484 0.13587934
-0.004142398 0.034951113 0.13504076
-0.0084647676 0.035065189 0.13571191
0.032760695 0.024081958 0.13375419
0.031620014 0.025611212 0.13437855
0.010668011 0.03347937 0.13235337
0.0012490414 0.035006016 0.13095507
-0.0026003914 0.035702385 0.13059193
0.030569188 0.027812982 0.129675
0.015952118 0.032704934 0.12825799
0.006215292 0.03418453 0.12810439
0.028854985 0.02909128 0.12463319
0.021374194 0.032835532 0.12423199
0.02605504 0.031208659 0.12075573
-0.022274079 0.00078119896 0.1932393
0.024923231 -0.013324744 0.19099692
0.021972848 -0.012085106 0.19086289
0.019046044 -0.0083854487 0.1920498
0.012967652 -0.0085015465 0.19220582
0.0071852589 -0.0057326611 0.19212323
0.0028535321 -0.0042549791 0.19151258
-0.0064280117 -0.0010124322 0.1918979
-0.010862196 0.00078910636 0.19166318
-0.015176018 0.0018764716 0.19154486
-0.01979013 0.0035907337 0.19278964
0.027191943 -0.012326878 0.18842477
0.024586791 -0.0097490912 0.19096357
0.03165333 -0.010535778 0.18315494
0.029588159 -0.010941442 0.18610093
0.032705203 -0.0093922 0.1803326
0.031896964 -0.0059086028 0.18016791
0.032866742 -0.0083919615 0.1771808
0.031292841 -0.005578368 0.17568475
0.031080082 -0.0032297429 0.17168328
0.029146425 -0.00093261525 0.17281735
0.031621937 0.00034494326 0.16860282
0.02981847 0.00033822842 0.16996908
0.033026453 0.00075800344 0.16262764
0.030839903 0.0038760714 0.16191763
-0.02259283 0.034535345 0.14197853
-0.025975864 0.036025029 0.14123678
-0.01698627 0.034310237 0.13786238
-0.021865498 0.034553878 0.13708019
-0.026063224 0.036351793 0.1374746
-0.0109017 0.035350155 0.13417962
-0.016160872 0.034795117 0.13342202
-0.021256901 0.0348543 0.13281798
-0.024715653 0.03577045 0.13310942
-0.0048897397 0.035711188 0.12901497
-0.0092238421 0.035389289 0.12933296
-0.013305691 0.034864709 0.12958375
0.030807458 0.024449021 0.1256265
0.005840776 0.03293477 0.12426239
-0.0032771239 0.035512246 0.12428862
-0.0082883369 0.035445139 0.12466061
0.030076647 0.024944959 0.12181759
0.01104405 0.032549746 0.12077451
0.002114092 0.033292294 0.11974108
-0.0053220689 0.035082914 0.1211735
0.029358067 0.026132533 0.11747217
0.021170855 0.032447889 0.1165939
0.011708095 0.032646623 0.11664319
0.021866895 0.032579191 0.11248505
0.022069179 0.032592244 0.10861474
-0.014639294 -0.0075115138 0.19650137
-0.017411634 -0.0058029834 0.19665548
0.0032467302 -0.013191711 0.19270089
-0.0047122505 -0.0092493854 0.19265074
-0.010024564 -0.0076983669 0.19316834
-0.013675679 -0.0055091279 0.19408652
-0.018012896 -0.0034020143 0.19403693
-0.02174844 -0.00094999839 0.19386271
0.027490571 -0.020164123 0.19084176
0.024693133 -0.018904548 0.19145954
0.020806067 -0.016230483 0.19066751
0.016148232 -0.013845534 0.19021642
0.011058635 -0.013322631 0.19192317
0.0062059453 -0.010682973 0.1922065
0.00031718519 -0.0087684086 0.19192085
-0.008149338 -0.0050488804 0.19208384
-0.012370756 -0.0026613497 0.19221473
-0.016852507 -0.00093378453 0.19192794
0.029129088 -0.01795394 0.18747976
0.0271261 -0.015797704 0.18887153
0.030640688 -0.016056344 0.1842337
0.033037562 -0.0099359304 0.17448306
0.033144038 -0.0090519767 0.16933784
0.031998493 -0.007424776 0.16993725
0.032108068 -0.005689404 0.16527119
0.033420838 -0.0037223529 0.1610775
0.032472942 -0.0039132657 0.15686959
-0.026783865 0.035169721 0.13403779
-0.021230433 0.034745723 0.13004225
-0.025579723 0.035633009 0.12984806
-0.015298376 0.034134507 0.12655604
-0.019914394 0.034281313 0.12586915
-0.026237629 0.035340689 0.12542433
-0.010711555 0.034895141 0.12229323
-0.014360689 0.034099258 0.12185991
-0.018762439 0.033944413 0.12144792
0.031152314 0.022403419 0.12049186
0.00019781105 0.034182884 0.11906493
-0.0034577046 0.03514602 0.11886537
-0.0085603893 0.035484862 0.11845475
-0.012263492 0.035046559 0.11798346
0.03056437 0.023152111 0.11588603
0.0067900391 0.033626981 0.11480999
-0.0032296237 0.035263091 0.11410159
-0.0072037671 0.036160465 0.11342752
0.030869097 0.024722453 0.11143708
0.016337473 0.033531114 0.1093666
0.0068203695 0.034364611 0.11055851
-0.0016600071 0.034498677 0.11014831
0.031504981 0.025679117 0.10700202
0.022150623 0.0324127 0.1055482
0.012719561 0.033879906 0.1059525
0.030782383 0.027669704 0.10314816
0.022708632 0.033244461 0.10133004
0.027471308 0.031668145 0.097823501
0.015559339 -0.023248561 0.19631138
0.013917843 -0.023049271 0.1959818
-0.011545707 -0.012782049 0.19458663
0.022049177 -0.022774637 0.19267789
0.017435236 -0.022648368 0.19226402
0.013112631 -0.021120915 0.19303656
0.0087159425 -0.019033879 0.19296297
0.004169845 -0.018187396 0.19188535
-0.0069652912 -0.014706029 0.19199646
0.027696567 -0.024799543 0.1874958
0.021814805 -0.0213266 0.19150794
0.018500429 -0.020195737 0.19047052
0.014181916 -0.018897785 0.18981355
0.011373302 -0.017024102 0.19098628
0.0070413104 -0.014799413 0.19100171
0.030159986 -0.021827376 0.18473798
0.033357438 -0.012738791 0.17110646
0.032834709 -0.011107057 0.16236281
0.033779889 -0.0090292916 0.16000685
0.03342472 -0.0057613635 0.15797767
0.030974615 -0.0036810865 0.15465271
0.027467482 -0.0040831422 0.15275246
0.026589606 -0.002585846 0.14823872
0.0251491 -0.001804654 0.14828277
0.027963459 0.00036163721 0.14461046
0.026710335 0.0018391414 0.1460968
0.028605442 0.0015359009 0.14163369
0.027357357 0.0028643524 0.14207032
0.028092418 0.0039736107 0.13713917
-0.024641581 0.033458948 0.12290204
-0.016630325 0.033243842 0.11838907
-0.02077594 0.033230573 0.11839241
-0.025420271 0.033408657 0.11771208
-0.015151197 0.033471286 0.11477804
-0.019449158 0.033021774 0.11420161
-0.025536912 0.034906764 0.11469817
0.031252921 0.01686734 0.11095107
-0.010310557 0.035002586 0.11167264
-0.013605688 0.034179043 0.11074048
0.032304794 0.019215617 0.10887647
-2.4942681e-05 0.033967409 0.10734564
-0.0037554698 0.033968724 0.10688859
-0.0083482973 0.035035461 0.10637254
-0.012245073 0.034274999 0.10660487
0.037813481 0.018942215 0.1024943
0.034001499 0.02062867 0.10439593
0.032451969 0.023207009 0.10364401
0.0063728848 0.032836363 0.10248488
-0.0033103712 0.034101322 0.10239238
-0.0070195673 0.035038047 0.10215467
0.038456384 0.020293709 0.10062099
0.035371955 0.021759449 0.099861503
0.032017935 0.024750652 0.10027289
0.011787558 0.03195978 0.098859787
0.0022059493 0.034218691 0.098268569
0.034730069 0.023509379 0.096587479
0.032043166 0.025942385 0.095621824
0.022935405 0.032174084 0.095068634
0.012871264 0.032815073 0.094073534
0.032040849 0.027079204 0.092134535
0.023646012 0.032098968 0.090827465
0.024674403 0.031993374 0.087059975
-0.0063947923 -0.018783918 0.19346032
0.0041985023 -0.021674268 0.19225833
0.030744426 -0.0095840767 0.15013558
0.027067816 -0.0079681426 0.14905012
0.027553838 -0.0068213409 0.14560398
0.024754629 -0.0029342803 0.14749032
0.028160879 -0.005195512 0.1417965
0.028887339 -0.002135803 0.13752744
0.026887791 0.0011827387 0.13895851
0.028826794 -0.00035415776 0.13321918
0.029231852 0.0011168215 0.12885404
0.028283972 0.0035158172 0.13104758
-0.021090705 0.032786638 0.11174726
-0.02475819 0.033956341 0.11177814
-0.027788173 0.0356014 0.1104793
0.030576203 0.015263339 0.1116612
-0.015727853 0.033190086 0.10742384
-0.019438121 0.033683907 0.10846233
-0.024516162 0.03481802 0.10802031
-0.027475899 0.036086239 0.10691935
0.032624364 0.015380632 0.10741657
-0.01411163 0.033884682 0.10375094
-0.019744491 0.033757262 0.1036042
-0.02398549 0.034994073 0.10451776
-0.027578779 0.03564892 0.1026026
0.037414435 0.015615921 0.10211474
0.035213795 0.016879257 0.10325944
-0.0033469321 0.033747245 0.099140286
-0.0087573454 0.034921803 0.099511266
-0.013535122 0.034085944 0.09966886
-0.017860539 0.033253931 0.10011828
0.042636041 0.015173109 0.097081184
0.039911672 0.017511699 0.098445475
0.037047885 0.020646935 0.097390354
0.0022050189 0.033923529 0.095055223
-0.0027192971 0.034914803 0.096127927
-0.007656741 0.035213783 0.094965041
0.04773479 0.015644986 0.091409206
0.044765495 0.018013097 0.093838215
0.040616289 0.020355426 0.09433955
0.036410246 0.022412978 0.094120324
0.033624295 0.024589723 0.09294343
0.0073653283 0.033319466 0.092313349
-0.0022532614 0.034952477 0.090838313
-0.0061918469 0.034675259 0.09079057
0.045378774 0.01895196 0.08945632
0.040892839 0.020753644 0.088893771
0.036710825 0.022912728 0.08875531
0.03283751 0.025794063 0.088902771
0.012844405 0.033296969 0.088058829
0.0027177595 0.034411203 0.087487161
0.032073319 0.026443953 0.08400327
0.024758745 0.031907279 0.084747672
0.014888075 0.032508068 0.08250618
0.032292109 0.028151378 0.079788506
0.025224738 0.032365609 0.079381227
0.016702361 0.033065587 0.079030275
0.032693293 -0.01382194 0.14917332
0.03135008 -0.013077954 0.14727575
0.030285738 -0.011188712 0.14443323
0.027471388 -0.0096488446 0.14622855
0.030858053 -0.0097244959 0.13993046
0.029105619 -0.0064697955 0.13984078
0.031445723 -0.0079201926 0.13573661
0.029907972 -0.0051929937 0.13498026
0.029608544 -0.0038367826 0.12949327
0.030195249 -0.0011842139 0.12721562
0.029784434 0.00033471361 0.12210441
0.027971638 0.0026888754 0.12122357
0.027818412 0.0028508604 0.11703712
0.02669552 0.0056754416 0.11312377
0.029871024 0.0086405855 0.10906512
0.034205452 0.0082347449 0.1028176
0.032157067 0.0092200488 0.10416031
-0.025126645 0.034077153 0.10083765
-0.027926039 0.034773093 0.09990108
0.040273771 0.0081776604 0.099358678
0.036985479 0.010610417 0.10127884
-0.01637508 0.032377735 0.096991181
-0.020259235 0.032190233 0.096361101
-0.024883535 0.033362202 0.095906556
-0.027751025 0.034950856 0.096048117
0.049564131 0.0070398953 0.094188392
0.046142593 0.0081197247 0.095581651
0.042651102 0.010978518 0.097315371
-0.014371266 0.032553785 0.092717111
-0.019130904 0.032305438 0.091803789
-0.025307117 0.034190748 0.092287421
-0.028185762 0.035713118 0.091370881
0.055733301 0.0073043872 0.090983033
0.051980413 0.008373471 0.091838241
0.048020512 0.011983764 0.092617989
0.045151338 0.013984081 0.094466746
-0.0034018587 0.034680825 0.087667704
-0.0085325716 0.034656439 0.089329779
-0.013299356 0.033446226 0.087888658
0.061623633 0.0075197369 0.087316692
0.05793428 0.010112491 0.088239908
0.053345367 0.011371478 0.088267148
0.049424529 0.01495469 0.088446617
0.046408933 0.018230997 0.086685479
0.042621486 0.019733943 0.086473346
0.0024921149 0.033654805 0.084853053
-0.0025791787 0.034271352 0.084608138
-0.0076615466 0.034382682 0.084264636
-0.012388455 0.034366067 0.084465921
0.06652239 0.0078762621 0.082051992
0.063509658 0.0097117852 0.084383428
0.059554204 0.012713531 0.084153414
0.054464258 0.013586514 0.084078014
0.050266013 0.015801286 0.083975136
0.045943983 0.018827066 0.083894014
0.041255679 0.020219743 0.083300233
0.036735736 0.022119317 0.083122432
0.033789307 0.024557179 0.082327127
0.0076216441 0.031370021 0.080547333
-0.0022783419 0.034032676 0.079695523
-0.006018986 0.034243986 0.080379963
0.067065984 0.0089336708 0.079910219
0.064600319 0.011839869 0.080121577
0.060090642 0.014486479 0.079896629
0.055480517 0.015475353 0.079624236
0.050910201 0.017256053 0.079345465
0.046234529 0.018716525 0.078801453
0.04155571 0.020178046 0.078257322
0.037131727 0.022396129 0.078341305
0.033484701 0.025555279 0.07772249
0.029436195 0.028525827 0.076835275
0.014963431 0.032881238 0.076603293
0.0049689901 0.032428268 0.076648772
0.064183094 0.013057519 0.076060534
0.060682215 0.015076466 0.075204492
0.055957347 0.016547961 0.074980438
0.051842943 0.01827072 0.074484706
0.047100421 0.01914192 0.074779034
0.042729095 0.020350199 0.07467103
0.037378747 0.022412453 0.074328601
0.033178352 0.025112888 0.073808849
0.029060055 0.027861316 0.07232511
0.019701382 0.03154432 0.0725528
0.011421664 0.033463906 0.071876347
0.025115382 0.030758273 0.068741918
0.017049735 0.032725509 0.068633914
0.033282991 -0.015935607 0.14419466
0.03319877 -0.014239443 0.13930202
0.031977292 -0.012914466 0.13875693
0.03223028 -0.012731453 0.13599253
0.030750472 -0.0025277995 0.11942738
0.030282721 -0.0018625055 0.11598033
0.028649323 0.00183798 0.11425054
0.0298774 -0.0014387472 0.11185127
0.028363224 0.0033947332 0.11156672
0.032044109 0.0045557152 0.1050542
0.029982975 0.0041368315 0.10714602
0.037200026 0.0035028942 0.10095888
0.03468506 0.0049168179 0.102777
0.047341872 0.0013654046 0.095697284
0.04431824 0.0041405335 0.097101092
0.04055436 0.0042035952 0.09879607
-0.029486271 0.034975689 0.093484521
0.053632684 0.0019139629 0.092693865
0.050443456 0.0042107198 0.094830394
0.047056511 0.0054295752 0.096328378
-0.020693395 0.032293424 0.089458406
-0.024218393 0.033900362 0.089836836
-0.027955044 0.036146257 0.09022069
0.056247428 0.0045613851 0.091022611
-0.01546113 0.03365057 0.086007893
-0.019079652 0.033614583 0.085807085
-0.023774736 0.035158515 0.085323632
-0.0272195 0.036493387 0.085107505
0.064950407 0.0041124709 0.085019529
0.062004417 0.0049020965 0.087147832
0.05860506 0.0067424104 0.088828802
-0.0094958916 0.034586627 0.081501484
-0.013315828 0.034107883 0.081595957
-0.017610651 0.033934742 0.081750333
-0.023013577 0.034610592 0.081108987
0.070043728 0.0023828708 0.079346299
0.067223325 0.0049805902 0.082292616
0.00076991692 0.033164106 0.077804267
-0.0039999187 0.034488164 0.07713443
-0.007695999 0.034314439 0.0778175
-0.012475193 0.033710454 0.07784164
0.070784174 0.0041259583 0.077742636
0.069061741 0.0079285502 0.078548074
0.0041488055 0.032950774 0.074101329
-0.0006631827 0.033612877 0.07352823
-0.0050117802 0.03324008 0.073163211
0.068154879 0.0084009599 0.074751854
0.065155856 0.010917829 0.073061287
0.062444624 0.014004389 0.072714925
0.057123143 0.016169071 0.072456777
0.050306603 0.019023931 0.072185397
0.046498157 0.019127645 0.071778536
0.041504629 0.019525854 0.071002364
0.037157923 0.021241028 0.07031095
0.033529393 0.024460709 0.070881248
0.0050511383 0.032604564 0.06924814
0.063659072 0.011600722 0.06827867
0.060835071 0.014296511 0.068825006
0.056460224 0.016100114 0.069075346
0.05177559 0.017603528 0.068554938
0.047869377 0.018040124 0.067871809
0.032413714 0.024424136 0.066847682
0.029498257 0.0276669 0.066911578
0.02011345 0.032267693 0.065737486
0.011073661 0.033068124 0.065786898
0.059786234 0.014573535 0.063915312
0.025665641 0.031282663 0.062273502
0.016942022 0.03168194 0.061610818
0.02631776 0.031412736 0.05759716
0.030911604 -0.0062545775 0.1127587
0.033207413 -0.0059344461 0.10662293
0.031049399 -0.0034725796 0.10889125
0.035316978 -0.0040020868 0.10382694
0.031707317 -0.00080525223 0.10545486
0.041223586 -0.00373019 0.098950565
0.037376489 -0.0012013875 0.10117745
0.033530541 0.0012723599 0.10335851
0.045954809 -0.0023320811 0.095808804
0.043012567 -0.0011094967 0.09695369
0.039060324 0.001080283 0.098923981
0.056198563 -0.0043755919 0.090600908
0.053199712 -0.0024178177 0.093000889
0.048997801 -0.001588935 0.094236255
0.058744367 -0.0017623845 0.088105619
0.055888746 -0.00046645105 0.090102375
0.064409427 -0.0011373423 0.084105909
0.061656099 6.3575804e-05 0.086226106
-0.017401852 0.032854971 0.078332663
-0.02242545 0.033787955 0.078680098
-0.025353396 0.035308875 0.078766525
0.069677904 -0.0017607249 0.080423176
0.067320928 0.00025149062 0.082078516
-0.011888608 0.032782905 0.074641824
-0.017882269 0.032115459 0.074317217
-0.022473253 0.033432595 0.074294686
-0.026202727 0.034780234 0.073579967
0.071948737 0.0013117939 0.07647717
-0.0067745289 0.032818053 0.070889235
-0.012078498 0.032103635 0.070997655
-0.017443724 0.032296255 0.071048617
-0.022084657 0.034066077 0.070738077
0.072184943 0.0021880101 0.073731959
0.068242744 0.0053996816 0.071238816
0.065936938 0.0085126329 0.06993252
-0.00087522995 0.032553561 0.06683898
-0.0063603744 0.032910306 0.06669116
-0.0098866615 0.032616764 0.066576719
0.067838877 0.0056798719 0.066447496
0.065159544 0.0096615367 0.066342652
0.061709583 0.012916995 0.06544894
0.056308053 0.014923673 0.065048039
0.051711485 0.016751958 0.064795375
0.046168171 0.017721955 0.064973533
0.041744739 0.018473502 0.064687312
0.0373106 0.020205474 0.064680636
0.033090778 0.022377441 0.064028382
0.0048945691 0.032466579 0.062435865
-0.00082586147 0.032785881 0.062257469
-0.0054854807 0.03321965 0.062481344
0.06786374 0.0073541421 0.062456429
0.065515704 0.010520259 0.061878681
0.061579309 0.013560886 0.061443627
0.056525789 0.014927678 0.061997473
0.051822968 0.0164483 0.061481714
0.047105193 0.01793718 0.06093663
0.042224947 0.018952005 0.059985161
0.037260219 0.020559371 0.059889793
0.033149466 0.022394165 0.059811473
0.029923297 0.026124595 0.059946895
0.015149938 0.031355541 0.058658898
0.0050130486 0.032838855 0.057965159
0.069057845 0.0095460843 0.057153642
0.06639117 0.011375684 0.057317257
0.061879434 0.014082631 0.056961834
0.056614045 0.014802216 0.056961656
0.052268833 0.01675361 0.056626678
0.047578961 0.018360868 0.056177735
0.043280035 0.019533355 0.056242049
0.039395541 0.020342629 0.056882679
0.032446478 0.023750309 0.056279838
0.029902417 0.027624266 0.055123985
0.020792194 0.03150294 0.054465413
0.010527194 0.032667838 0.053825498
0.066491351 0.012778757 0.053932428
0.062077485 0.01493136 0.05367285
0.056085013 0.016745785 0.052706361
0.053285398 0.017803296 0.05272162
0.048959695 0.01910294 0.053012013
0.029707246 0.028300526 0.050587416
0.021361534 0.032349683 0.05004847
0.012032167 0.033670183 0.049845457
0.029949302 0.029896051 0.046499968
0.022070417 0.033009529 0.045789182
0.030450385 0.031661838 0.042205334
0.023362495 0.03411613 0.04259932
0.03161053 -0.01103411 0.1102494
0.033437945 -0.0092168786 0.10659051
0.039019044 -0.0096418858 0.10139656
0.035761748 -0.0075211264 0.10369134
0.048580177 -0.011086838 0.09658438
0.044007685 -0.0083789844 0.097772479
0.041019648 -0.006205501 0.099990666
0.054339152 -0.011376172 0.093461752
0.050913364 -0.0084037585 0.094352365
0.046700098 -0.00673379 0.094406605
0.060713924 -0.011223037 0.089211047
0.056870393 -0.0080255866 0.090645552
0.053725611 -0.0058437549 0.092893302
0.065190755 -0.010309163 0.084342241
0.062283531 -0.008160701 0.085896075
0.059248 -0.0062178001 0.088288724
0.071225099 -0.0092955381 0.079797983
0.0678242 -0.0078769699 0.081469715
0.06450624 -0.0057459213 0.083483219
0.070828736 -0.0054737777 0.079232574
-0.01309909 0.031633995 0.067897975
-0.0173744 0.032246444 0.067924261
-0.022091512 0.033864923 0.067480087
-0.026147077 0.034996279 0.067951262
0.069783829 -0.00081028789 0.068679571
0.069000207 0.001893634 0.068273902
-0.01242845 0.031974718 0.063908219
-0.016959216 0.032297499 0.063487947
-0.022048848 0.033713058 0.06321758
-0.025971707 0.035108797 0.062883079
0.070601538 4.3189153e-05 0.062247276
0.069505401 0.0025244337 0.064725518
-0.0064462228 0.032617483 0.058890402
-0.010623555 0.032044776 0.059022188
0.069471456 0.00490628 0.059867144
-0.0008286722 0.032253504 0.055250645
-0.0058340346 0.031662751 0.055255294
0.07281296 0.0046430174 0.054821253
0.070315503 0.0071958713 0.055845141
0.058439508 0.013882667 0.054552019
0.041678011 0.019577328 0.053608835
0.037474029 0.020071909 0.053640008
0.033757038 0.022145726 0.053441763
3.7478283e-05 0.032700531 0.050431609
0.069470838 0.0095915943 0.052062869
0.067042813 0.011301892 0.050164878
0.062794164 0.014059283 0.050421894
0.057879746 0.015054718 0.050711453
0.052692138 0.017798843 0.049659133
0.04787812 0.018684369 0.049599826
0.043139093 0.01895632 0.048994482
0.038110528 0.019235684 0.048750818
0.032831516 0.021783352 0.048798084
0.031115655 0.025411997 0.049331844
0.010301274 0.033129606 0.046924114
0.066663079 0.01139712 0.046285987
0.062783271 0.014320759 0.045847654
0.057656933 0.014820881 0.04546088
0.053370763 0.016739367 0.045601189
0.048576009 0.017901361 0.045092404
0.044957064 0.018974379 0.045148194
0.031511918 0.027475068 0.044262886
0.016214449 0.032690853 0.042923212
0.062420279 0.014983628 0.041971147
0.031577196 0.029731108 0.040064335
0.022036932 0.03260779 0.03848052
0.031077698 0.030166198 0.035954595
0.023679292 0.031737961 0.03448832
0.03537691 -0.018965498 0.1070171
0.030661864 -0.016032211 0.10912669
0.039659109 -0.017438108 0.10525864
0.036434297 -0.015907768 0.10465491
0.033830807 -0.013789311 0.10579032
0.045701265 -0.016511332 0.10061294
0.042507835 -0.014861412 0.10129726
0.038099695 -0.01352498 0.10241067
0.04899513 -0.01370702 0.097512901
0.044878103 -0.012466656 0.097313344
0.053194117 -0.014155664 0.095337689
0.064865835 -0.013032813 0.087530732
0.056620512 -0.01295443 0.09108305
0.066179305 -0.012488299 0.084615886
0.070150219 -0.011939703 0.081748843
0.06830053 -0.012087011 0.082071483
-0.018310886 0.03168571 0.059897006
-0.020813946 0.032195874 0.059408426
-0.025330758 0.034334861 0.059406817
0.069851443 -0.0017270595 0.063852549
-0.013218512 0.031289592 0.057159901
-0.017352531 0.031592809 0.057008147
-0.022507992 0.032858152 0.056942046
-0.027384993 0.034295693 0.05657196
0.071659558 -0.00029125065 0.058685124
-0.0062784404 0.031455737 0.052315295
-0.011940251 0.031710565 0.053096592
-0.016831255 0.031881791 0.052732527
-0.021621224 0.033050511 0.052910924
-0.025425706 0.033775225 0.052653432
0.071642794 0.0013841297 0.055161953
-0.001938669 0.032596957 0.047281623
-0.0060265493 0.032369778 0.049306333
-0.011165346 0.03249874 0.048207581
-0.015178663 0.031762548 0.048381925
0.069826253 0.006559629 0.048851013
0.041127983 0.018405488 0.045480311
0.036873735 0.01920476 0.046699166
0.033256449 0.021314114 0.045944333
-1.5324913e-05 0.032610599 0.044788301
-0.0053373016 0.032929953 0.044208884
-0.0094978455 0.033202481 0.044364512
0.069841124 0.0064833425 0.044540167
0.066996075 0.010675583 0.043159783
0.051319711 0.016605532 0.043491423
0.047334261 0.017806038 0.04298079
0.042908303 0.018907208 0.043089271
0.0382009 0.01978302 0.043352842
0.033934653 0.021922801 0.042847753
0.0054418049 0.03283371 0.040969729
-0.0033398643 0.033021417 0.040727139
0.069577143 0.0071678404 0.039622307
0.067444801 0.010483839 0.039714277
0.063466884 0.013759146 0.039806008
0.057944104 0.014559869 0.040034533
0.053246785 0.016283689 0.039667308
0.048562512 0.018052045 0.039339066
0.043666847 0.019187968 0.038450003
0.038800828 0.020436905 0.037657857
0.034384482 0.023001887 0.038037002
0.032167174 0.026424434 0.03773129
0.011203006 0.031949136 0.037173748
0.065787517 0.010683088 0.03559345
0.063015759 0.014016654 0.03630811
0.058226425 0.014516925 0.035820067
0.053646743 0.016534857 0.035185277
0.048772 0.017854823 0.03497839
0.045689978 0.019182149 0.034888744
0.034447528 0.023677636 0.033757687
0.031720828 0.027372211 0.033161938
0.021340262 0.031732824 0.032920063
0.030462913 0.028528735 0.029449224
0.022391297 0.031429853 0.028624177
0.033906102 -0.021600373 0.10742801
0.031599402 -0.019128725 0.10879701
0.036436073 -0.018834224 0.10539162
-0.027808379 0.032658633 0.05313009
-0.018140212 0.0313816 0.049190402
-0.022618702 0.032481626 0.049291253
-0.027279556 0.033614866 0.049778223
-0.017068939 0.031974889 0.045487523
-0.021695096 0.032687631 0.045941293
-0.02551166 0.033232898 0.045863986
-0.011601447 0.032365512 0.040862024
-0.016379355 0.031677511 0.040976226
-0.020654 0.031504661 0.042016387
0.070000209 0.0034438577 0.040148139
-0.001740003 0.032132156 0.036345959
-0.0055498658 0.031879298 0.036936402
-0.010608306 0.031891044 0.03675437
0.070730045 0.0062185545 0.037700415
0.0049467576 0.031329229 0.032225132
-0.0035643643 0.031827193 0.032235801
-0.026045978 0.039243914 0.030919671
0.070441864 0.0057269596 0.033447683
0.067032933 0.0087250378 0.033452392
0.063339375 0.011790302 0.031793952
0.058019798 0.013122009 0.031433702
0.053581104 0.015715539 0.031620443
0.048769906 0.017211441 0.031248987
0.043683514 0.018661523 0.031335235
0.038998373 0.020090174 0.032091856
0.034595475 0.022459785 0.030534625
0.010958528 0.030653445 0.029298782
0.0011469396 0.031754851 0.028486252
0.06547986 0.0085705444 0.029527485
0.062848859 0.011927223 0.028155267
0.057183549 0.012533629 0.027426362
0.053644165 0.015165232 0.027648151
0.049482286 0.016043659 0.027356684
0.038936362 0.019348707 0.028254688
0.03504413 0.020955568 0.028088629
0.031054452 0.025580961 0.02548492
0.02136608 0.030457493 0.024570167
0.011412379 0.03091803 0.024643898
0.061778657 0.012210323 0.024513125
0.030162556 0.026727874 0.021430135
0.02225833 0.030225718 0.021136522
0.013054638 0.030991456 0.021395445
0.023355445 0.030375144 0.017452598
-0.024387868 0.03150297 0.04284364
-0.027461469 0.031539463 0.042507589
-0.017953463 0.03110683 0.038387537
-0.021749143 0.031364225 0.038956404
-0.026062265 0.031645369 0.038077831
-0.029656082 0.031831279 0.035875797
-0.012354708 0.030881472 0.033755541
-0.016282897 0.031366266 0.03518343
-0.020384282 0.032096546 0.03370297
-0.025114385 0.033417761 0.033289969
-0.028017882 0.035193779 0.033602178
-0.006748396 0.031232014 0.031284332
-0.010797319 0.031554434 0.030780673
-0.015189109 0.031591136 0.028653741
-0.019455969 0.032795694 0.028624296
-0.024640542 0.034752637 0.028609395
-0.026442945 0.038362999 0.030102968
0.069227554 0.0039673168 0.029480934
0.068051249 0.0059515815 0.030592978
-0.00056619477 0.031484466 0.026791811
-0.0052056788 0.031810474 0.026229918
-0.009519862 0.03203477 0.025276899
-0.012458337 0.032162063 0.026049912
0.069193281 0.0032750685 0.026757002
0.066826195 0.0066431426 0.026344299
0.064488068 0.010067347 0.025996745
0.058311585 0.011549223 0.025440037
0.053353779 0.013901588 0.024925411
0.048118766 0.015603036 0.024885595
0.043645721 0.016932096 0.024833024
0.038824666 0.018457431 0.02426374
0.034166783 0.020465566 0.024132371
0.0056133512 0.031487308 0.023132324
-0.0040639509 0.032609351 0.021471977
-0.0084029846 0.032573942 0.021315813
0.065993905 0.0081508439 0.020681441
0.063531466 0.010888744 0.0216645
0.058430761 0.012265207 0.021145225
0.053950507 0.014877627 0.021558523
0.049084373 0.016255319 0.020853221
0.044120267 0.017356686 0.019894481
0.039225351 0.018696362 0.019148707
0.03451439 0.020586288 0.018905461
0.03152442 0.02346018 0.019529462
0.016449923 0.03005269 0.018638492
0.0064202743 0.032319382 0.017822027
0.062783912 0.01125852 0.015829206
0.057853289 0.013348203 0.01577425
0.054616366 0.015608652 0.015827715
0.049783532 0.017122483 0.01523906
0.04502207 0.018034045 0.015513897
0.041249648 0.018638961 0.015473664
0.030715685 0.024728712 0.014498472
0.021667708 0.030385202 0.014649034
0.012001029 0.031370327 0.013195872
0.054953363 0.015752157 0.011675596
0.030168597 0.026749954 0.010152459
0.022739388 0.030901354 0.0096157193
-0.021079913 0.033683062 0.026283026
-0.022724338 0.034149367 0.026049256
-0.010666001 0.031729847 0.022016048
-0.014870458 0.031596825 0.023438692
-0.019634578 0.031723104 0.022250593
-0.024174385 0.032903176 0.023482025
0.069160491 0.0025856234 0.02402693
-0.0047801174 0.032107938 0.017910182
-0.0092199203 0.031598534 0.018620849
-0.014127801 0.031330884 0.019575834
0.067537203 0.0042388421 0.019915104
-0.00074972212 0.032622993 0.015420794
-0.0039338432 0.031658497 0.014581859
-0.0075971307 0.031378154 0.01455009
0.067309812 0.0055209585 0.014695823
0.064862385 0.0089294687 0.01540184
0.05973373 0.01135673 0.015067279
0.043052789 0.018300977 0.013678432
0.039232515 0.01878662 0.013524652
0.034651574 0.020096112 0.01308769
0.0013960144 0.03205768 0.010935485
-0.0027333917 0.031909119 0.010168135
0.067176819 0.007137578 0.0097592473
0.064184196 0.010440631 0.010578394
0.059437349 0.012294456 0.010293841
0.05493664 0.015418636 0.010078073
0.049994327 0.016688269 0.0094698071
0.044734191 0.017178971 0.0089976192
0.039856099 0.018005103 0.0084704161
0.034775011 0.020404143 0.0084995031
0.031851579 0.023485634 0.0088127255
-0.021909943 0.031531408 0.019970417
-0.026024159 0.031542487 0.019365013
-0.015168916 0.030635167 0.015697658
-0.020026352 0.030803779 0.01597923
-0.025679901 0.031250734 0.015095592
-0.010240506 0.030939475 0.012245297
-0.014152614 0.031006258 0.012040496
-0.020034518 0.031071674 0.012245357
-0.023830649 0.031016227 0.012283802
0.068860553 0.0042160433 0.012025237
-0.0032714624 0.03192677 0.0080715418
-0.0080925412 0.031705424 0.0082094669
0.069174901 0.0055456311 0.0082300305
-0.030211031 0.029560972 0.013238192
-0.020505255 0.030912083 0.0095559359
-0.025955785 0.030838238 0.0088788271
-0.030030211 0.029740524 0.0090231895
0.068862781 -0.0013650898 0.0097913146
0.068631895 -0.0075367577 0.0081470609
