# .PCD v0.7 - Point Cloud Data file format
VERSION 0.7
FIELDS x y z
SIZE 4 4 4
TYPE F F F
COUNT 1 1 1
WIDTH 954
HEIGHT 1
VIEWPOINT 0 0 0 1 0 0 0
POINTS 954
DATA ascii
-0.029216792 0.027807556 0.19134521
-0.027955372 0.031686462 0.18830627
-0.033460017 0.025535794 0.18801367
-0.032312099 0.030902103 0.18435201
-0.032995 0.032210052 0.18025583
-0.019975588 0.031190179 0.19015604
-0.026979983 0.024659261 0.19235089
-0.033696465 0.017754218 0.19033977
-0.02152222 0.032758959 0.18648353
-0.034202583 0.023431968 0.18649867
-0.036022797 0.016027972 0.18505245
-0.026115572 0.033449471 0.18295604
-0.035809156 0.02071432 0.18110147
-0.033184037 0.031768385 0.17711836
-0.035940558 0.022931086 0.17837363
-0.032744773 0.031570137 0.17317733
-0.011975182 0.029313471 0.19201106
-0.018716302 0.024333246 0.19272095
-0.026435427 0.016381726 0.19194677
-0.031865355 0.0091564264 0.1913304
-0.033742435 0.006735485 0.18966061
-0.017080121 0.030474421 0.19042757
-0.034665316 0.011660731 0.18851864
-0.034909029 0.0080816038 0.18714517
-0.01867367 0.032999039 0.18458521
-0.035769768 0.012828836 0.18272373
-0.035342932 0.0086916732 0.18397585
-0.019829389 0.033455353 0.18002206
-0.035394289 0.014945653 0.17910466
-0.024494993 0.033397831 0.17585501
-0.034994505 0.019951498 0.17467099
-0.026127916 0.033117149 0.17183927
-0.033961654 0.025016537 0.17061457
-0.027176086 0.032784883 0.16623601
-0.033742707 0.026924646 0.16563588
-0.03349448 0.029487664 0.16158155
-0.023980008 0.0076667955 0.19158429
-0.027514573 0.0046132123 0.19158614
-0.029962715 0.00047135632 0.1906426
-0.032052595 -0.001834902 0.19041023
-0.0063002929 0.030416438 0.19021386
-0.0090710698 0.028617904 0.19231731
-0.014687085 0.020362487 0.19193867
-0.021684457 0.013870118 0.1911304
-0.029908799 0.0070901504 0.19189474
-0.032656126 0.0030743731 0.18953949
-0.034750983 -0.0011396296 0.18818536
-0.0075802496 0.032238405 0.18734556
-0.035083845 0.0049669594 0.18573716
-0.035778724 0.00041581132 0.18409061
-0.0086051868 0.033011112 0.18310896
-0.012065808 0.03370491 0.18260494
-0.035236936 0.0062099379 0.18068543
-0.035365313 0.0021067783 0.18083382
-0.013309257 0.033699483 0.17815188
-0.035100795 0.012567292 0.17598864
-0.03507819 0.0076319128 0.17694649
-0.018444132 0.03353684 0.17376795
-0.034501221 0.013206569 0.17136383
-0.019373387 0.033160128 0.16890776
-0.033164803 0.018192818 0.16724542
-0.034263454 0.013990391 0.16771901
-0.024171695 0.03293585 0.16498038
-0.033203632 0.020393588 0.16349658
-0.029629067 0.033107106 0.15859219
-0.034693956 0.022719324 0.15928927
-0.03071497 0.032232191 0.15490103
-0.034712277 0.022940649 0.15567598
-0.0055274256 0.023395004 0.191475
-0.0082909418 0.02007987 0.19150168
-0.014284351 0.013384801 0.19125441
-0.020349562 0.0046790075 0.19147205
-0.024495699 0.0014670156 0.19164318
-0.027733564 -0.0019079959 0.19137534
-0.031349219 -0.0051441593 0.19064128
-0.034779623 -0.0089116553 0.18967441
0.0016943766 0.031594191 0.18750492
-0.0015981952 0.02930345 0.18939891
-0.036746364 -0.0065947575 0.1866008
-0.03858152 -0.0098093804 0.18444985
0.00028211251 0.032486431 0.18421936
-0.0026681926 0.03198899 0.18520054
-0.036323771 -0.0014391616 0.18137309
-0.037443556 -0.0052877013 0.18202263
-0.038974997 -0.0088625867 0.18077379
-9.1999769e-05 0.033103444 0.18098381
-0.0040868288 0.032911949 0.18048415
-0.036115818 0.00046284124 0.17829093
-0.037470073 -0.0042344145 0.17744598
-0.0061681885 0.032765213 0.17672122
-0.0083812354 0.032785192 0.17600697
-0.0350613 0.006245397 0.17411715
-0.035943881 0.0010634121 0.17343414
-0.0099484716 0.032796945 0.17126095
-0.035258591 0.011599854 0.16881895
-0.0356512 0.007262893 0.16937387
-0.035859924 0.0031426027 0.16954821
-0.013252893 0.033421028 0.16673627
-0.034396902 0.012833364 0.16481328
-0.03582222 0.0086379005 0.16449788
-0.01768728 0.033037376 0.1625286
-0.034336608 0.013954832 0.16055465
-0.035385285 0.0098820357 0.16057321
-0.023441527 0.03356301 0.15789682
-0.034172922 0.015566006 0.15728763
-0.024106801 0.033050057 0.15356159
-0.035020705 0.025717542 0.15162653
-0.025310161 0.032151505 0.14909655
-0.033841729 0.027945384 0.14831066
-0.029850321 0.031603746 0.14401385
-0.03553436 0.026014367 0.14258716
-0.019370176 -0.0049854545 0.19119877
-0.022423016 -0.0074886163 0.19125807
-0.025854282 -0.011300466 0.19132501
-0.028852366 -0.013847156 0.19134223
0.0077092852 0.026632458 0.19022581
0.004061983 0.023665577 0.19118512
-0.00024546683 0.020809243 0.19120356
-0.0041468404 0.01701998 0.19088683
-0.010395858 0.0094494922 0.19153115
-0.013622481 0.0055791172 0.19121343
-0.016876951 0.0012825248 0.19089323
-0.021119606 -0.0020358488 0.19141683
-0.024884876 -0.0049150232 0.19158736
-0.027576562 -0.0088760871 0.19083226
-0.031146199 -0.011924281 0.19039014
0.0087470943 0.031451259 0.18671381
0.0052303597 0.030085113 0.18821687
0.0022979304 0.025779791 0.18943113
-0.0013367319 0.023791807 0.18997011
0.0076468475 0.032689407 0.18220335
0.0037148856 0.032573421 0.18284434
-0.039461333 -0.0094165262 0.17886987
0.0023723114 0.033431672 0.17803144
-0.037633777 -0.0051152892 0.17524445
-0.039372467 -0.0082428036 0.17570075
0.001393117 0.033330478 0.17398298
-0.0023506135 0.032776676 0.17399791
-0.036495317 -0.00079684891 0.17067903
-0.036944523 -0.0046344083 0.17109117
-0.038989697 -0.0084725935 0.17079264
-0.003957957 0.032725476 0.16971278
-0.0077549284 0.032689609 0.16919982
-0.036252782 0.00072273798 0.16733322
-0.03656096 -0.003625473 0.16684237
-0.0047577377 0.033358857 0.16543186
-0.0090580508 0.032844849 0.16455299
-0.035734884 0.006417783 0.16148582
-0.036311757 0.0019221809 0.16285023
-0.010699817 0.032972574 0.1597788
-0.034508836 0.011353261 0.15811604
-0.035425693 0.0075240526 0.15729439
-0.035972558 0.0029933862 0.15862697
-0.012676974 0.032833781 0.15493897
-0.03385568 0.012878349 0.15366375
-0.034977335 0.0086301547 0.15412635
-0.033844754 0.014522632 0.14907247
-0.022342721 0.032322582 0.14696839
-0.034852698 0.01633583 0.14526045
-0.023830682 0.032769416 0.14257637
-0.035594728 0.021720268 0.14197743
-0.025336819 0.033347778 0.13732454
-0.032899767 0.029207239 0.1367909
-0.035274487 0.020024454 0.13739258
-0.029471105 0.032098863 0.1320582
-0.034612752 0.025228862 0.13315472
-0.020996621 -0.018432656 0.19673556
-0.023559099 -0.019188805 0.19738263
-0.022357427 -0.016291648 0.19409999
-0.025074156 -0.018313967 0.19447052
0.011658859 0.022104276 0.19135308
0.0082899202 0.019753188 0.1925292
0.004526027 0.015708344 0.19216198
0.0015295283 0.01152187 0.19096571
-0.002436606 0.0082320254 0.19056386
-0.0094977841 0.0018216798 0.19133794
-0.013168372 -0.0012054094 0.19140023
-0.016171563 -0.0058723055 0.19110474
-0.019770784 -0.010298699 0.19168037
-0.023384262 -0.012923494 0.19208592
-0.027316801 -0.016557634 0.19197297
-0.030416278 -0.017337516 0.19081822
0.016364088 0.029909998 0.18846312
0.013739695 0.027937027 0.18952417
0.010113303 0.025245534 0.19110912
0.0070339283 0.0232125 0.19185638
0.0016794903 0.017447721 0.19132897
-0.00093451561 0.013429972 0.19051689
0.014330004 0.032064803 0.18565923
0.011893569 0.031540152 0.18686262
0.01417688 0.032505613 0.18221986
0.010411442 0.032880764 0.18115607
0.0085631544 0.033663284 0.17648572
0.0072597209 0.033962104 0.17134014
0.0031945333 0.033755042 0.17174807
-0.03715587 -0.0068766428 0.16799611
-0.03785098 -0.0084231189 0.16753805
0.0024930472 0.033291262 0.16722119
-0.001287546 0.033132516 0.16756421
-0.036933314 -0.0054271929 0.16424695
-0.037786238 -0.0083506247 0.16380069
0.00094269961 0.033469863 0.16395265
-0.0026052576 0.033117395 0.16296872
-0.03673685 -7.7771023e-05 0.15993294
-0.036942594 -0.0041906983 0.16009048
-0.037672892 -0.0083283987 0.16000506
-0.0042050462 0.033110254 0.1588617
-0.0074709579 0.033249468 0.15811175
-0.036375843 0.0016861353 0.15581858
-0.03673359 -0.0027697198 0.15528795
-0.0046292488 0.032948542 0.15480807
-0.0083755804 0.032922346 0.15321851
-0.035290375 0.0076254867 0.15132672
-0.036453843 0.0025880504 0.15124527
-0.037194051 -0.0015546698 0.1518448
-0.011694174 0.033013515 0.14879739
-0.034330621 0.011682948 0.14783043
-0.035102434 0.0082632191 0.14665818
-0.036056191 0.003215991 0.14711449
-0.012603553 0.032599781 0.14491796
-0.034752268 0.013514977 0.14279413
-0.033737637 0.010209139 0.14203817
-0.035174802 0.015325218 0.13830453
-0.034877826 0.012787226 0.13721356
-0.022017797 0.033596568 0.136435
-0.019579401 0.0337415 0.13151145
-0.028533321 0.032755107 0.1294907
-0.034532554 0.02385246 0.13031712
-0.024847265 0.033501755 0.12657011
-0.032919791 0.029548157 0.12601531
-0.02596052 0.033945996 0.1230911
-0.032942228 0.029905209 0.12041181
-0.032910869 0.031193813 0.11721873
-0.016548708 -0.019631747 0.19540727
0.022042898 0.025735633 0.19520336
0.020042529 0.021567652 0.1942791
0.017002858 0.01793051 0.193353
0.014967321 0.015449479 0.19348434
0.0097547965 0.010585341 0.19238564
0.002205251 0.0024024136 0.19161853
-0.0006538491 -0.0003664075 0.19147792
-0.0038193965 -0.0039425488 0.1910904
-0.0071503739 -0.0073595899 0.19083974
-0.010860053 -0.010398037 0.19090873
-0.015308953 -0.013992958 0.19224641
-0.018348642 -0.016859928 0.19335932
0.023636814 0.03117233 0.19262424
0.020357285 0.027992774 0.19246218
0.017187841 0.024454966 0.19209364
0.014335251 0.020895151 0.19211778
0.01122201 0.016897671 0.19283429
0.007443524 0.01283697 0.19246602
0.0037596612 0.0083047766 0.19110799
0.000246329 0.0055230297 0.19103402
-0.0062732659 -0.0014595895 0.19133168
-0.0097145094 -0.0047432026 0.19118518
-0.013147044 -0.0080315107 0.19103312
0.023554482 0.036310472 0.18762359
0.022456381 0.032927342 0.18834877
0.018966032 0.030242248 0.18876579
0.024573568 0.035611231 0.18503147
0.021770932 0.03348463 0.18442658
0.018507633 0.031579893 0.1837379
0.016274795 0.031537347 0.17904097
0.016069286 0.031324752 0.17528179
0.011621941 0.03347946 0.17348278
0.0097912224 0.034059376 0.16984773
0.0083668418 0.033441938 0.16497567
0.0054203402 0.033507586 0.16486096
0.0036763567 0.032852761 0.16095093
0.00022710487 0.032277927 0.15990064
-0.036536746 -0.0070851138 0.15635282
-0.036719985 -0.0092167193 0.15631545
0.002891669 0.032245174 0.15587157
1.4277175e-05 0.032260239 0.15572202
-0.036231667 -0.0063282205 0.15242714
-0.0028566113 0.032205686 0.15174264
-0.03681425 0.00047837757 0.14891031
-0.03685832 -0.0031731203 0.14859378
-0.0034360429 0.032366015 0.1473119
-0.0065056272 0.032567028 0.14736992
-0.035273917 0.0060137287 0.14343274
-0.036193185 0.0015400462 0.14472762
-0.036580492 -0.0018741619 0.14378595
-0.0093933921 0.032671519 0.14276543
-0.034315564 0.0078465426 0.14011762
-0.035568245 0.0026341677 0.13990191
-0.010300882 0.031971648 0.13777474
-0.034351915 0.0091088219 0.13541672
-0.035020199 0.0052952031 0.13655162
-0.034820177 0.015292007 0.13178313
-0.035000049 0.012069803 0.13111722
-0.021173548 0.033314403 0.12818021
-0.035115652 0.012373477 0.12746477
-0.034274526 0.022770394 0.12362635
-0.023942567 0.033510163 0.1195268
-0.034407623 0.024014905 0.11928111
-0.02511787 0.033649333 0.11471081
-0.03305399 0.030349366 0.11486882
-0.035287105 0.021248594 0.11484021
-0.032052137 0.030138908 0.11082083
0.016592056 0.0070392182 0.19555178
-0.0087748878 -0.019073635 0.19406158
-0.011021923 -0.021895302 0.19319755
0.020710472 0.018636085 0.19546789
0.019027997 0.015537307 0.19441572
0.015764438 0.011058065 0.19242561
0.01330811 0.0083883069 0.19334498
0.0090024341 0.0048132045 0.19266102
0.0050761746 0.00094595132 0.1922248
-0.0012629901 -0.0065793088 0.19168252
-0.0043463921 -0.010263892 0.19121468
-0.0076975436 -0.01402724 0.19121343
-0.01087471 -0.016926153 0.19277579
-0.014133625 -0.018648984 0.19399664
0.030105568 0.033890519 0.1838702
0.031335291 0.037362028 0.18124944
0.028223319 0.034740224 0.18165869
0.024269279 0.032507211 0.1804367
0.027165163 0.035605654 0.17696357
0.024228081 0.032103807 0.17627683
0.019586613 0.031362019 0.17722216
0.022348717 0.032298233 0.17220053
0.01877233 0.031530093 0.17214152
0.017665148 0.031922158 0.16799682
0.013890466 0.031886913 0.16705462
0.01667415 0.031737681 0.16390553
0.01376411 0.031817455 0.16281354
0.010371614 0.032404721 0.15857887
0.0066696499 0.032171186 0.15766457
-0.035890222 -0.012382053 0.15438023
0.0099527258 0.032317694 0.15375802
0.0061881579 0.031881802 0.15328425
-0.034976225 -0.011417315 0.14921865
0.0037355209 0.03200838 0.14869475
0.00091875158 0.031556219 0.14934197
-0.036399584 -0.0068608765 0.14689785
-0.036009785 -0.01072007 0.14476544
-5.8472157e-05 0.031906705 0.14459151
-0.036971074 -0.0048992578 0.14241207
-0.037597466 -0.0082544908 0.14049399
-0.0024757665 0.03282854 0.14077774
-0.005554962 0.03269431 0.14077291
-0.036113519 0.00024395809 0.13698819
-0.037322391 -0.0031634625 0.13769764
-0.039548427 -0.0065994486 0.13693562
-0.006387339 0.032005318 0.13597479
-0.03431908 0.0078348517 0.13241661
-0.035716705 0.0032646675 0.13425064
-0.036548331 -0.0014528986 0.13282651
-0.007462305 0.031503972 0.13169
-0.010876128 0.030986309 0.13133675
-0.034691755 0.0083894078 0.12901437
-0.035073627 0.004427582 0.12927282
-0.034887847 0.01112859 0.12442231
-0.03501185 0.0060366541 0.12450731
-0.034429483 0.015487054 0.12005955
-0.034981027 0.012104253 0.12002307
-0.019321593 0.032231167 0.11694711
-0.03449297 0.013495009 0.11508471
-0.033892691 0.023433007 0.11143529
-0.023539854 0.033063192 0.10818356
-0.03181006 0.028339647 0.10821408
-0.034500223 0.020786073 0.1082918
-0.031434927 0.029367045 0.10366255
-0.029081995 0.031776197 0.099861741
0.0012647286 -0.018585172 0.19556311
-0.00033775344 -0.020394847 0.1953688
0.021155488 0.0083077773 0.19437045
0.01788847 0.0057210936 0.19632232
0.011950574 -0.0017651911 0.19339442
0.0069291056 -0.0080723902 0.19249895
0.0038411235 -0.011837251 0.19274503
0.00023073703 -0.01537978 0.19342858
-0.0034704804 -0.018220779 0.19380718
-0.0084747374 -0.02114627 0.19441152
0.019663246 0.0095279384 0.19239041
0.0099073835 0.00027143257 0.19323245
0.0088564884 -0.0031420456 0.19210526
0.0018215463 -0.0097281225 0.19185796
-0.0020564934 -0.012662578 0.19203395
-0.004830386 -0.015549676 0.1918062
0.02964548 0.033656418 0.17926115
0.027371965 0.03398893 0.17470029
0.026164435 0.032999046 0.17378551
0.027052883 0.034678422 0.17043522
0.024733894 0.033070199 0.17036217
0.02704484 0.035021715 0.16681153
0.023513382 0.033355001 0.16586262
0.019818215 0.03233321 0.16539177
0.022461176 0.033748604 0.16099209
0.018646292 0.032593187 0.16134214
0.021127095 0.034811668 0.15682799
0.01773531 0.033574089 0.15672651
0.013868629 0.032191463 0.15724108
0.016543375 0.032799412 0.15302759
0.012643403 0.0324171 0.15190655
0.0080002677 0.032207221 0.15073371
0.011507762 0.032126501 0.14721319
0.0070871534 0.032003522 0.14758033
0.0059437416 0.031849802 0.14281148
0.0022196965 0.03180223 0.14157724
-0.037237924 -0.010416424 0.14066517
0.0045285635 0.032192737 0.13685054
0.0011043213 0.032588437 0.13814279
-0.00056775846 0.03258352 0.13381836
-0.0044709118 0.032207634 0.13325191
-0.036413476 -0.0032761898 0.13093346
-0.03861874 -0.0064792354 0.13052046
-0.0010548355 0.032205347 0.12905586
-0.0052367002 0.031788543 0.12884855
-0.035694964 0.0025929194 0.12640494
-0.036047831 -0.0014361646 0.12662446
-0.038125254 -0.0065303743 0.12563515
-0.0063058557 0.032119591 0.12456387
-0.010504426 0.032023598 0.12431532
-0.03560406 0.0035991687 0.12260532
-0.035805773 -0.00023872033 0.122343
-0.0078772288 0.032008775 0.12010521
-0.011276003 0.031914905 0.1207093
-0.035045244 0.0092433393 0.11892164
-0.035459198 0.0057031885 0.11846417
-0.035176005 0.011160747 0.11413944
-0.035566583 0.0067892317 0.11331546
-0.01928113 0.032706499 0.10931385
-0.03482645 0.011802042 0.10938692
-0.019988617 0.032525849 0.10560369
-0.034264892 0.018105689 0.10519069
-0.025830578 0.032931317 0.10183829
-0.034624096 0.019313671 0.10033721
-0.027477745 0.03287755 0.097423851
-0.033933494 0.02544071 0.096740663
-0.028539926 0.032601919 0.092464209
-0.033915769 0.026601374 0.092197299
-0.032107189 0.031044638 0.086996913
0.003620286 -0.018693265 0.1955564
0.002021458 -0.021697607 0.19576561
0.010328375 -0.011931567 0.19209394
0.0041695233 -0.016820954 0.19338259
0.026628112 0.033521391 0.16340449
0.024963425 0.033944998 0.15953994
0.023956036 0.03411039 0.1538153
0.023344351 0.034093309 0.15005505
0.019131552 0.033139475 0.14989603
0.018917816 0.032998316 0.14552122
0.01477904 0.032010943 0.14531147
0.013558509 0.031463414 0.14079532
0.010174088 0.030978443 0.14045393
0.0093038715 0.031051641 0.13602069
0.0058992524 0.031892221 0.13118958
0.002111828 0.032779139 0.13048232
0.0054304693 0.032142632 0.12663603
0.0015229024 0.031901926 0.1259867
-0.034936309 -0.005084197 0.12196285
-0.036587041 -0.0068587568 0.12179869
0.00040236115 0.031924743 0.12220228
-0.0033081742 0.032011218 0.120866
-0.035001658 -0.0025271736 0.11893743
-0.035683557 -0.0065567121 0.11956525
-0.0043094046 0.031667564 0.11693299
-0.034744047 0.0020912886 0.114896
-0.034908615 -0.0010270979 0.11466825
-0.0069143781 0.031622086 0.11251438
-0.0086323284 0.031000206 0.11301303
-0.035651095 0.0038215388 0.11084431
-0.035645887 0.00091608614 0.1097461
-0.010509945 0.031449601 0.10872477
-0.034347925 0.0091418903 0.10569346
-0.035152167 0.0055548623 0.10634124
-0.036466084 0.0019199196 0.10672522
-0.01276475 0.032064069 0.10411042
-0.033769798 0.011304404 0.10287511
-0.034888528 0.0063398583 0.10241163
-0.03501159 0.017195713 0.09858644
-0.034206305 0.012894065 0.097743213
-0.034599356 0.017579876 0.094089031
-0.021644469 0.031720351 0.090986788
-0.033202078 0.024349358 0.089048266
-0.027604531 0.03230064 0.085861564
-0.033701073 0.021150522 0.086108327
-0.0317632 0.03100762 0.081739306
-0.03129939 0.030799773 0.077304363
0.016824499 -0.011209646 0.19388157
0.010799417 -0.017845435 0.19416133
0.029045949 0.031891108 0.15678945
0.027683096 0.033468671 0.1533303
0.024143737 0.034343354 0.14724821
0.023822676 0.034406673 0.14327583
0.019764541 0.033449195 0.1427514
0.019713594 0.033039071 0.13842216
0.015473301 0.032097869 0.13830924
0.017810581 0.033309743 0.13330513
0.014008797 0.032310553 0.13452405
0.017406035 0.033983313 0.12990832
0.013448883 0.032500349 0.12964678
0.0098564345 0.031270318 0.12961775
0.0088381292 0.031260163 0.12506717
0.0074056452 0.030698098 0.12099528
0.0034596641 0.031553231 0.12002265
-0.033611663 -0.0062936759 0.11674744
-0.034573629 -0.0092137009 0.1163007
0.0005434677 0.032034665 0.11606556
-0.034528743 -0.0045708437 0.11316442
-0.035701886 -0.0083473148 0.11243141
-0.038300548 -0.010592869 0.11172426
0.0004297737 0.032503605 0.11140543
-0.0037252866 0.031766824 0.1114341
-0.035275333 -0.0029827505 0.10842788
-0.036612108 -0.0071953759 0.1080246
-0.00036082789 0.032413065 0.10774952
-0.0046328781 0.031775422 0.10664439
-0.0086354353 0.031485241 0.10632288
-0.035575315 0.0034923684 0.10316741
-0.036078308 -0.00073682517 0.10364425
-0.037138272 -0.0051941611 0.10446894
-0.0057044169 0.03195969 0.10212779
-0.0093518458 0.031969849 0.10144824
-0.033894598 0.0089666424 0.099381983
-0.035181567 0.0052692974 0.099387169
-0.035937883 0.00088556856 0.099228501
-0.011442477 0.031961441 0.097261429
-0.034487374 0.0097465049 0.096108317
-0.034977794 0.0062809372 0.094687045
-0.012777038 0.032551982 0.092442155
-0.03487169 0.011557868 0.091292799
-0.034842674 0.0080344956 0.0902794
-0.021229265 0.031523921 0.087627828
-0.034984723 0.013834897 0.087267756
-0.021858655 0.03125716 0.083744884
-0.033485949 0.019153696 0.082806706
-0.024528518 0.031660732 0.07969594
-0.033112481 0.020404326 0.077738643
-0.031297348 0.03097352 0.074346006
-0.030129401 0.030009009 0.070574284
0.02794479 0.033757847 0.13942045
0.025741346 0.034597658 0.13625738
0.021804091 0.033838782 0.13568625
0.02532497 0.034823768 0.13093865
0.021176275 0.033636734 0.13193706
0.024078323 0.035786543 0.1277746
0.02005027 0.033559509 0.12688762
0.016215347 0.032412123 0.12635005
0.015103227 0.031536534 0.12244576
0.01091506 0.031019608 0.1221534
0.013694519 0.031846657 0.11664242
0.0099649765 0.031060314 0.11774325
0.009005161 0.031298902 0.11326134
0.0058338949 0.030518122 0.11369532
0.0078264223 0.031241436 0.1091271
0.0049944734 0.030987948 0.10835993
-0.037537362 -0.0087902574 0.10535836
-0.038153689 -0.010502909 0.10472214
0.001585274 0.031552944 0.10431635
-0.0012230901 0.031290248 0.10354662
-0.035787575 -0.0033409912 0.10148811
-0.037153419 -0.0074499184 0.10122889
-0.038633715 -0.0098592164 0.10129982
0.00090044551 0.031728588 0.1007241
-0.0020495337 0.031475246 0.099630892
-0.035349667 -0.0030267388 0.096919298
-0.035207294 -0.0061668493 0.09661448
-0.0047026984 0.031601161 0.095782757
-0.0080180485 0.031688917 0.095084071
-0.034486122 0.002820164 0.092195868
-0.034643315 -0.00060239807 0.092368364
-0.0058194026 0.03218399 0.090191245
-0.0085455226 0.031932559 0.090935588
-0.034502685 0.0039587589 0.088392019
-0.03458567 0.00071999058 0.088015676
-0.010237023 0.031830162 0.086156487
-0.034374662 0.011396394 0.083854198
-0.034493875 0.0063372348 0.084732533
-0.012156331 0.032079902 0.082195759
-0.032911278 0.015981343 0.079635143
-0.034065753 0.012109156 0.079883218
-0.034322213 0.0079731625 0.079804718
-0.020990452 0.03119923 0.07713443
-0.033712521 0.013478886 0.075524509
-0.022290103 0.030916246 0.072680414
-0.032781489 0.019084591 0.071761608
-0.022968005 0.031073695 0.067838609
-0.031392429 0.025517784 0.066727757
-0.02782033 0.03012695 0.062824726
-0.032607239 0.023650628 0.062422752
-0.031615164 0.028060136 0.057907224
0.024634546 0.034411009 0.12481779
0.021927508 0.033961356 0.1245122
0.025681529 0.033691447 0.12196547
0.021156069 0.033491269 0.12097776
0.01719806 0.03204428 0.11974502
0.020641673 0.032682266 0.11629856
0.016449917 0.032708649 0.11579502
0.015237082 0.032496043 0.11175328
0.011291949 0.031624764 0.11033541
0.0099614207 0.031234279 0.10648012
0.0060661584 0.03091678 0.10578889
0.0054109925 0.030339079 0.10176122
0.0025238367 0.030502178 0.096197486
-0.036115792 -0.0082082516 0.094630897
-0.038799629 -0.0094034635 0.093571424
-0.0014178855 0.031682141 0.093258202
-0.034958266 -0.0037944615 0.090730548
-0.034483641 -0.0072528981 0.08905375
-0.035976976 -0.0099084713 0.089842558
-0.0025160816 0.031931125 0.088870525
-0.035320401 -0.0012219939 0.086270273
-0.035475589 -0.002939485 0.083329618
-0.0045864414 0.03201919 0.083853304
-0.0077926777 0.03225787 0.084116101
-0.034643598 0.0042541493 0.081571996
-0.035264846 0.00053797476 0.081117988
-0.0091565577 0.03228787 0.079429746
-0.034594871 0.005967427 0.0777601
-0.034725621 0.002549557 0.076872945
-0.01124788 0.032594789 0.075246513
-0.034065552 0.011136102 0.074337482
-0.034327388 0.0083027156 0.072813869
-0.01959005 0.031025868 0.07011497
-0.032997161 0.013781035 0.068730831
-0.03406857 0.0093957074 0.069190562
-0.020061553 0.031196935 0.065816045
-0.031982854 0.015785627 0.064613938
-0.026165232 0.031206574 0.061381936
-0.023574341 0.032153904 0.056774437
-0.032568254 0.026282486 0.056723833
-0.028382821 0.030996017 0.052352786
-0.032206804 0.023816643 0.051872253
-0.030872164 0.028590379 0.047768712
0.026481617 0.033268183 0.11837131
0.022979956 0.033679519 0.11482275
0.021761522 0.033599723 0.1099773
0.017711878 0.032104854 0.10884726
0.01682179 0.03146394 0.10517842
0.012951307 0.031267732 0.10464054
0.01576297 0.0311657 0.10118854
0.011856731 0.030646382 0.10053176
0.0077519771 0.029728521 0.10027206
0.010874872 0.031034801 0.095676541
0.0066888295 0.03012635 0.096553028
0.0091838175 0.031951118 0.091125309
0.0054353084 0.030637518 0.091506481
-0.034879334 -0.0086009381 0.087986588
-0.036232766 -0.0095312167 0.087126434
0.0045243111 0.030953165 0.08655262
0.0010720799 0.030407799 0.085660398
-0.035270981 -0.0070776008 0.084552288
-0.037197702 -0.0083774282 0.084183335
0.0027796747 0.03132312 0.082224786
-0.00020337943 0.03132996 0.082221568
-0.035766914 -0.0052105309 0.079874754
-0.0022247126 0.031515524 0.077712774
-0.034765352 0.00087183341 0.074890375
-0.035725273 -0.0044126883 0.074981213
-0.0040158173 0.032571942 0.073478222
-0.0081147114 0.032590542 0.073172688
-0.03387709 0.0055180788 0.070941389
-0.034373395 0.001233615 0.070762992
-0.035166852 -0.0027674697 0.070917189
-0.0053578578 0.033282455 0.069004834
-0.0087450789 0.032321375 0.068612337
-0.012756233 0.031361483 0.067672551
-0.032775871 0.011788772 0.065772474
-0.033505417 0.006768004 0.066506982
-0.034226779 0.0024832133 0.066231608
-0.010092456 0.032240257 0.064055681
-0.032215793 0.013366614 0.062253654
-0.03317612 0.0083674407 0.062564015
-0.010985467 0.032466751 0.060079277
-0.019574564 0.031728685 0.059109867
-0.016135249 0.032872852 0.054765522
-0.032773979 0.020390391 0.052882135
-0.017482694 0.033304341 0.050870121
-0.026049811 0.031782661 0.050178647
-0.03212218 0.021525955 0.04866159
-0.022798821 0.032888882 0.045866013
-0.031033209 0.027740739 0.044870198
-0.024195328 0.032751977 0.042341053
-0.030337458 0.02786169 0.040667772
0.023142254 0.031538323 0.10237646
0.02071101 0.031017344 0.10174632
0.018554825 0.031101938 0.097751379
0.016804323 0.032010395 0.092981577
0.013324313 0.03181877 0.093582273
0.01595939 0.033070248 0.089891374
0.012391672 0.031933643 0.088991284
0.010101103 0.031617992 0.084313035
0.0074720085 0.031284891 0.083918333
0.0055613182 0.03114656 0.079660475
0.003653001 0.031076267 0.074391425
0.00065861456 0.031596757 0.075219274
-0.036003985 -0.0055514509 0.071808755
-0.00055365823 0.032535911 0.070694983
-0.034567945 -0.00084363855 0.067575097
-0.035183728 -0.0050505819 0.067516565
-0.0020220075 0.032552399 0.066274464
-0.033967018 0.00016864575 0.062850475
-0.034918923 -0.0027336497 0.063523591
-0.0031300718 0.031643182 0.06161952
-0.0071913479 0.032691792 0.061816394
-0.033021964 0.0059616799 0.058954656
-0.033573903 0.0023503043 0.058911562
-0.0096106585 0.032478109 0.057237804
-0.032591794 0.0075985128 0.055070221
-0.010231919 0.032272924 0.052188993
-0.013253487 0.032920744 0.052145362
-0.0333471 0.013101342 0.051195979
-0.033373393 0.010126542 0.050979257
-0.032515168 0.014865058 0.046535909
-0.033239491 0.010801183 0.046561718
-0.0198735 0.032330763 0.04244554
-0.032048877 0.016205218 0.042153955
-0.025369845 0.031035956 0.038395286
-0.031979077 0.022341553 0.038143516
-0.030151263 0.027462382 0.033918202
-0.027975542 0.030225124 0.03012836
0.025691668 0.031039592 0.10036314
0.02464336 0.031434223 0.096587896
0.020743044 0.031571489 0.094889224
0.023169689 0.032951295 0.092401266
0.020249398 0.032246832 0.092429996
0.022152085 0.033148278 0.087866485
0.019267432 0.032257169 0.08695358
0.014741822 0.031146381 0.085306764
0.017848969 0.030656802 0.083462596
0.014094822 0.03124336 0.082244217
0.012408617 0.031245895 0.078269005
0.0087141432 0.030577986 0.077710688
0.01049873 0.031546187 0.073181927
0.0075790985 0.031034406 0.073987484
0.0058623636 0.031950921 0.069316387
-0.034732379 -0.011141606 0.064414084
0.004125555 0.03228445 0.064828873
0.00081536174 0.032284304 0.064077735
-0.034588348 -0.0069242502 0.06150502
-0.035196036 -0.0097151427 0.061654747
-0.00049269199 0.031517584 0.060124159
-0.033768587 -0.00044054538 0.056933284
-0.034690842 -0.0051665502 0.056981087
-0.036335625 -0.0082633765 0.05576241
-0.0024927445 0.031364828 0.056901336
-0.005423543 0.031303808 0.05424118
-0.033921845 0.0011602696 0.053160787
-0.03453403 -0.002712816 0.052826345
-0.0084442506 0.032221049 0.050113082
-0.033002026 0.0065625729 0.048921824
-0.034168366 0.0022766907 0.048496008
-0.0092029311 0.032444984 0.046427727
-0.0326408 0.012753213 0.043184876
-0.03311022 0.0078625027 0.044262528
-0.033829078 0.0042082863 0.044975281
-0.010334021 0.033004902 0.043147624
-0.032484513 0.013549119 0.040042639
-0.032822825 0.010067662 0.040028691
-0.018558472 0.032178912 0.036626995
-0.032333169 0.01548319 0.036447704
-0.02041385 0.031891819 0.033229947
-0.032041002 0.021375913 0.032014251
-0.021824881 0.032203585 0.028228104
-0.03038823 0.027497683 0.027109623
-0.033769585 0.018366743 0.027020574
-0.03026546 0.028468955 0.023617983
-0.027071431 0.031141371 0.019393325
-0.032505944 0.025915908 0.019237757
0.02888703 0.030854946 0.09460777
0.024758738 0.032472953 0.085150898
0.020456623 0.030783018 0.080138445
0.019092998 0.030754013 0.075080633
0.016063562 0.030727373 0.075053573
0.018319609 0.031241154 0.071045458
0.014497372 0.031388562 0.071013927
0.01166153 0.031523902 0.066804588
0.011338453 0.031609904 0.062288404
0.0073826471 0.032264456 0.062664509
-0.034680948 -0.012009566 0.058453381
0.0053497674 0.030719806 0.057562232
0.0028091017 0.030886568 0.056913674
-0.03377049 -0.0060217632 0.053602755
0.00065493584 0.030565877 0.052593052
-0.034503039 -0.0055060051 0.050073922
-0.036344148 -0.0080637792 0.050599873
-0.00058803055 0.030098412 0.048739731
-0.0034323847 0.030547582 0.048447132
-0.034079455 -0.00039939955 0.044430494
-0.034415245 -0.0041747103 0.045161128
-0.0048540579 0.030762976 0.04296869
-0.032492708 0.0054241996 0.040714443
-0.033159524 0.0016336273 0.040893793
-0.03398554 -0.0028124638 0.040771008
-0.0089472272 0.031886574 0.039538264
-0.032266714 0.0065754028 0.037019074
-0.032759383 0.0034032054 0.037478447
-0.0079220813 0.031242032 0.034260571
-0.012821 0.032582447 0.033591509
-0.032309849 0.012933193 0.032425165
-0.032289941 0.0088186609 0.033061683
-0.017872963 0.031948321 0.029645264
-0.032793596 0.011200717 0.028381586
-0.018651217 0.032177292 0.025926173
-0.032917067 0.011473847 0.025382996
-0.023739168 0.031266175 0.020750463
-0.033250812 0.018176012 0.020101786
-0.025581451 0.031015443 0.016247034
-0.032084845 0.022775851 0.015640616
-0.02502265 0.030659994 0.012769163
-0.031332068 0.023845658 0.01283133
0.027383065 0.031145003 0.081011951
0.026138678 0.031787362 0.078173816
0.02281585 0.031135716 0.077054203
0.025407685 0.033154607 0.074786842
0.021744289 0.031286076 0.073501408
0.023778178 0.033839636 0.071116507
0.020700132 0.032209672 0.069669724
0.01941449 0.032365791 0.065110624
0.015724275 0.031127343 0.064616919
0.018419517 0.031990457 0.060881734
0.014748212 0.031242713 0.060265958
0.0096920524 0.031136196 0.058657765
0.013073165 0.030413806 0.056424856
0.0095080864 0.030013621 0.055263162
0.0065047527 0.030083802 0.051249266
0.0041166963 0.030104354 0.050430834
0.0065426743 0.030440778 0.046101987
0.0027934276 0.030137034 0.046193242
-0.034229003 -0.0076417578 0.044380367
-0.035453029 -0.0093880668 0.043462157
0.00091542117 0.030334339 0.041634738
-0.0025094971 0.030157343 0.04128933
-0.032951415 -0.0013759173 0.0389328
-0.033565175 -0.0050347904 0.038642049
-0.035460081 -0.0085605271 0.038076282
-0.037109822 -0.011688527 0.036005497
-0.00014742184 0.030528486 0.036969185
-0.0033219336 0.030307792 0.037109315
-0.032836027 0.00031474791 0.034897149
-0.034119055 -0.0036312845 0.033898056
-0.036280353 -0.0071797203 0.033192515
-0.038417984 -0.010134664 0.03230083
-0.0046547484 0.031210698 0.032382071
-0.031947445 0.0053027859 0.030669034
-0.032982081 0.0017933715 0.030417323
-0.034061633 -0.001013279 0.029011011
-0.0072090738 0.032170579 0.02794832
-0.010769876 0.03212988 0.027809501
-0.032040812 0.0068298783 0.02627331
-0.032853801 0.0034309272 0.025142252
-0.008372358 0.032374792 0.024406195
-0.011304078 0.0315038 0.023813784
-0.032196689 0.0089308815 0.021613717
-0.017077507 0.031081755 0.018505752
-0.031859592 0.010776246 0.016704917
-0.018273847 0.03165061 0.014170408
-0.020221703 0.032031029 0.0093148947
-0.028362723 0.02706898 0.0087731481
-0.032612998 0.018356873 0.0082545877
0.030596798 0.030805169 0.07711041
0.029258542 0.032558046 0.07142663
0.022981774 0.032190517 0.062840044
0.019838676 0.031678479 0.05782187
0.017327514 0.031031642 0.056648672
0.020053346 0.031085616 0.053093195
0.016373284 0.029918518 0.052588582
0.012091731 0.029346224 0.052057147
0.01682961 0.029713055 0.04972434
0.011264441 0.029009186 0.048452795
0.010383938 0.02974805 0.043796301
0.008390421 0.02995519 0.039413333
0.005086896 0.029936252 0.040151894
-0.036336157 -0.01260908 0.038241923
0.007169392 0.030673422 0.035123229
0.003249405 0.030205263 0.035082579
-0.037692789 -0.0083700409 0.030822635
-0.038399171 -0.010154374 0.03227818
0.0011933744 0.030466381 0.030766726
-0.033853423 -0.0036514103 0.027247787
-0.036295496 -0.0072628902 0.027469039
-0.039314665 -0.0090486705 0.029155016
-0.0003492441 0.03139146 0.027872503
-0.0025965702 0.031353723 0.025869489
-0.03308107 0.0018778872 0.023752332
-0.03336649 -0.0022609346 0.023054004
-0.035658631 -0.0065827807 0.024270356
-0.0049657514 0.031615853 0.021404266
-0.031639677 0.0080172205 0.018089235
-0.032390438 0.0030010287 0.018974423
-0.032817192 -0.00071966648 0.019780159
-0.0064015295 0.030952293 0.016887009
-0.008814971 0.030031104 0.016175687
-0.031608954 0.0081351036 0.014862716
-0.031725332 0.0048164101 0.014339864
-0.010914438 0.030934177 0.012393117
-0.031844277 0.0098175472 0.010594308
0.023132255 0.030338772 0.055292845
0.021183504 0.030280139 0.049867749
0.021447448 0.03030806 0.046513379
0.017483855 0.029338412 0.046640515
0.016244709 0.029495422 0.041727543
0.012226486 0.030034455 0.041663527
0.015561245 0.029547673 0.037369013
0.011682943 0.029962111 0.037161231
0.010144393 0.030782774 0.032440424
0.005413725 0.030191179 0.032556295
0.0083144847 0.030872149 0.028439224
0.0046659708 0.030288722 0.028250277
0.0025963886 0.030588046 0.024049044
-0.032725956 -0.0058165388 0.019794881
-0.033806331 -0.0096790278 0.019815147
0.0013127849 0.030362412 0.019712031
-0.0012830477 0.030625148 0.018085837
-0.032801561 -0.0030845739 0.016082227
-0.032850452 -0.0080997944 0.017333448
-0.003364576 0.031010645 0.014486909
-0.032525726 0.0024021314 0.012272835
-0.032866746 -0.0015767533 0.011577666
-0.0049906801 0.031454876 0.010431647
-0.0092486804 0.031079277 0.0094733834
0.020227449 0.029356958 0.043367863
0.023001155 0.029311124 0.040749848
0.020254746 0.028916508 0.038754046
0.018898543 0.028917436 0.035149515
0.015639506 0.029976595 0.03105247
0.015566253 0.030456815 0.02591455
0.012066813 0.03078844 0.026447773
0.010240258 0.030575773 0.022634983
0.0063412255 0.029010326 0.020363748
0.0051896218 0.029199837 0.016738296
-0.032169975 -0.0099549554 0.013566971
0.002960165 0.030243926 0.012505293
-0.031774439 -0.0064141741 0.0089510679
-0.0018997481 0.031862739 0.0093101263
0.028382747 0.026520271 0.041604459
0.023366744 0.029254233 0.037254393
0.024557533 0.029450778 0.0327878
0.0208633 0.028841274 0.032559156
0.024701117 0.029851455 0.029223442
0.020554449 0.028863443 0.028067887
0.01921238 0.029572576 0.023315907
0.016503761 0.030143235 0.018574238
0.01137073 0.030216098 0.019341588
0.011926871 0.029974231 0.015553117
0.007753484 0.02922022 0.015269339
-0.031811953 -0.011483178 0.010181129
0.010634093 0.03018913 0.010217905
0.0069075031 0.029793575 0.010580838
0.025482658 0.029766206 0.026168227
0.024615221 0.02992437 0.022147059
0.021974333 0.02946905 0.021693468
0.021030955 0.028953295 0.016919017
0.017503802 0.029610563 0.01322794
0.014447947 0.030227806 0.012039006
0.027418012 0.029283006 0.019623756
0.027111959 0.028753994 0.015014112
0.023423564 0.02865196 0.014814556
0.026352284 0.028608991 0.010883808
0.022596946 0.028828688 0.010482788
