# .PCD v0.7 - Point Cloud Data file format
VERSION 0.7
FIELDS x y z
SIZE 4 4 4
TYPE F F F
COUNT 1 1 1
WIDTH 844
HEIGHT 1
VIEWPOINT 0 0 0 1 0 0 0
POINTS 844
DATA ascii
0.027326191 -0.030394791 0.18993786
0.029854406 -0.021836447 0.18913475
0.029367279 -0.031699989 0.18712622
0.031974349 -0.022861719 0.18610257
0.030594908 -0.031874686 0.18304229
0.03283935 -0.024192702 0.18334904
0.025073921 -0.015077974 0.19161949
0.029629514 -0.0045257234 0.19094402
0.032103717 0.0043003317 0.19099611
0.033562232 0.0082501331 0.1904161
0.022684775 -0.029364403 0.18992618
0.024540005 -0.024918657 0.19080982
0.029272813 -0.016739814 0.18972585
0.032315388 -0.0061847605 0.18883353
0.034082916 0.0030756043 0.18722656
0.035010371 0.0071692532 0.18720433
0.023226928 -0.032734707 0.18481776
0.033264607 -0.01267301 0.18394047
0.03452548 -0.0024993382 0.18292743
0.035060752 0.0016988292 0.18452835
0.024519933 -0.035262171 0.17897123
0.027370654 -0.033521838 0.18043244
0.032395042 -0.023100048 0.18043557
0.033669628 -0.013913308 0.17905456
0.029502299 -0.032383621 0.17646608
0.033114288 -0.023862571 0.17611307
0.034657799 -0.014751303 0.17460415
0.030592425 -0.032508679 0.17224699
0.033324495 -0.024747372 0.17159599
0.035451397 -0.016690463 0.17172867
0.03142241 -0.031958729 0.16827762
0.023319513 -0.00054367539 0.19133836
0.025264448 0.0020220289 0.19170088
0.027519004 0.0061294138 0.19180796
0.028457619 0.010780968 0.19103959
0.030115776 0.015135027 0.19074988
0.031883325 0.021496229 0.19069406
0.014095481 -0.030570898 0.1890904
0.01670908 -0.027105188 0.18958178
0.018938895 -0.022102758 0.1907334
0.021582993 -0.012885697 0.19152284
0.025022937 -0.00419934 0.19069266
0.030104969 0.0033226851 0.19219771
0.03181937 0.010142773 0.19125527
0.033860095 0.013414776 0.18966314
0.033772603 0.019028619 0.18841624
0.016342383 -0.03271123 0.18668681
0.018635228 -0.030120352 0.18907332
0.035378966 0.008624821 0.18518278
0.035247881 0.012642372 0.18519324
0.034468248 0.017223988 0.1843822
0.019029882 -0.034139879 0.18353277
0.034617648 0.0028650938 0.18159845
0.034954347 0.0075339647 0.18098679
0.035047781 0.01207269 0.18001467
0.021653168 -0.036050785 0.17897791
0.034740236 -0.0027080942 0.1764535
0.034727938 0.0023542978 0.17591104
0.034778539 0.0069389818 0.17581043
0.022239154 -0.035807058 0.17381033
0.025717434 -0.034320567 0.17480537
0.03500282 -0.0088809449 0.17287147
0.034973372 0.0012357086 0.17176783
0.026973736 -0.033802249 0.16949248
0.03383233 -0.019518457 0.16882753
0.034384482 -0.010002113 0.16840136
0.029495258 -0.032200485 0.16533798
0.031911109 -0.024001874 0.16436413
0.033071071 -0.016049117 0.16457111
0.030000543 -0.03182371 0.16087952
0.031622425 -0.025749544 0.16098672
0.024622224 0.021973461 0.19315925
0.012744054 -0.019849742 0.19084728
0.014863495 -0.01519991 0.19118777
0.017636847 -0.0065922476 0.19170919
0.02124271 0.0034178291 0.19165912
0.02331795 0.0082045486 0.19234607
0.024731088 0.012476245 0.19217303
0.026674435 0.016932087 0.1917831
0.028388258 0.02106837 0.19162887
0.031324103 0.024804607 0.1896559
0.0089605032 -0.034250721 0.18786356
0.010641804 -0.0309035 0.18909082
0.012988882 -0.026334289 0.18958098
0.014407586 -0.022215188 0.19059286
0.033683605 0.021036059 0.18561843
0.033272617 0.024667261 0.18620512
0.011071191 -0.035518575 0.18511716
0.01321123 -0.0331572 0.18687963
0.033792179 0.019459192 0.18215385
0.033853803 0.023615057 0.18109602
0.01248662 -0.036608025 0.18101165
0.016727513 -0.035449617 0.18095645
0.035005711 0.014224892 0.17819977
0.033993982 0.017877959 0.17773491
0.034537267 0.022979856 0.1772902
0.015696846 -0.037414223 0.17677784
0.017651625 -0.035939485 0.17886668
0.035964381 0.0074962238 0.17349279
0.035279348 0.012266974 0.17430902
0.034387276 0.016042411 0.17271248
0.017034136 -0.038251691 0.17394072
0.018704744 -0.036820363 0.1714139
0.035297886 0.0020912662 0.16932997
0.036197152 0.006553283 0.16909233
0.03675437 0.011098031 0.16939896
0.02282951 -0.033754118 0.16552112
0.033326499 -0.0035747224 0.16551983
0.035074577 0.0020106966 0.164709
0.036771424 0.006147272 0.16490471
0.037683479 0.010027741 0.16524231
0.025393859 -0.033224758 0.16317362
0.032239452 -0.01415191 0.16164666
0.0278107 -0.033239961 0.15876716
0.031891547 -0.024095368 0.15855426
0.032192014 -0.015148159 0.15817347
0.028065298 -0.033058934 0.15538621
0.031785157 -0.024757799 0.15383136
0.018455323 0.021399857 0.19547379
0.011647621 0.0010505007 0.19183969
0.013557056 0.0053682476 0.19169614
0.016558761 0.010081966 0.192036
0.018319968 0.015333844 0.19247448
0.020072795 0.019236431 0.19301307
0.022067085 0.022286527 0.19351879
0.0034225443 -0.027224183 0.18959194
0.005132576 -0.023345631 0.19077617
0.0081469538 -0.018854415 0.1907973
0.010301684 -0.014121879 0.19085896
0.012563421 -0.0044535445 0.19200623
0.014915532 7.7821314e-05 0.19158861
0.017076252 0.004692269 0.19134894
0.019156815 0.0080972146 0.19215786
0.022481339 0.016880915 0.1915625
0.0042895665 -0.033654042 0.18678436
0.0050611999 -0.029182583 0.18873453
0.0080468124 -0.024804888 0.18962866
0.0097101685 -0.022073541 0.18979028
0.0063638855 -0.036398403 0.18271622
0.010693199 -0.036686406 0.17785341
0.033647142 0.019881736 0.1748918
0.03451262 0.024293335 0.17450169
0.010320308 -0.037567955 0.17510802
0.03394758 0.018788939 0.17167133
0.034298282 0.022908784 0.17069283
0.034999236 0.026885958 0.16995764
0.014633768 -0.037849534 0.17025435
0.035899699 0.013456702 0.16691381
0.034587748 0.017490827 0.16683719
0.034773715 0.022337833 0.1657767
0.03487698 0.025986325 0.16641837
0.017822165 -0.034212582 0.1673446
0.033558059 0.0014538402 0.16157091
0.03553766 0.0065636914 0.16124988
0.035823956 0.01185819 0.1620025
0.034702972 0.017299876 0.16228905
0.035007033 0.020622112 0.16243717
0.020415822 -0.03319161 0.15922421
0.030966174 -0.0084117344 0.1586448
0.033518575 0.0021720203 0.15758359
0.03485246 0.0067163724 0.15704089
0.035637967 0.010678061 0.15728292
0.022010602 -0.033972673 0.1566622
0.031727593 -0.0091792708 0.15422946
0.033213053 -0.00016143266 0.15306905
0.025479933 -0.033087511 0.15191782
0.028582124 -0.031801861 0.15155977
0.031874176 -0.019112196 0.15137506
0.032380085 -0.009677426 0.14934638
0.026364416 -0.032897554 0.14672536
0.029371236 -0.029804412 0.14766055
0.031225599 -0.01983007 0.14632261
0.032895025 -0.011748707 0.14626211
0.027234187 -0.033479985 0.14269334
0.029712295 -0.030007599 0.14241001
0.071665727 0.0086261183 0.090112984
0.011329247 0.014157105 0.1936211
0.012478703 0.01856943 0.19426972
0.015426262 0.020889478 0.19619071
-0.0023935107 -0.024854783 0.19130138
8.257851e-05 -0.021095073 0.19207776
0.0013790615 -0.016081236 0.19187412
0.0034674739 -0.010969118 0.19142652
0.0056275162 -0.006383406 0.19134521
0.0088570705 0.0022348762 0.19184718
0.0099890083 0.0069210888 0.19210508
0.012913842 0.011688309 0.19238451
0.015649768 0.016555667 0.19345146
-0.0021988796 -0.030023679 0.18876031
0.00050197542 -0.027132938 0.19033849
0.0017784229 -0.023088448 0.1912398
0.0044348375 -0.017348468 0.19111389
0.006752166 -0.01232961 0.19100088
0.0081516635 -0.0094932616 0.19098592
0.00025511626 -0.032811958 0.18644023
0.0023638001 -0.036713157 0.18055075
0.0025665117 -0.037067335 0.17642391
0.0059618708 -0.036625225 0.1769895
0.0063370448 -0.03877756 0.17222279
0.0059640836 -0.037112225 0.16965935
0.033653993 0.030031662 0.16641185
0.011501525 -0.037677296 0.16743273
0.035221577 0.02401514 0.16345003
0.03456869 0.027801711 0.16384295
0.010967387 -0.035953749 0.16474113
0.013490773 -0.033604689 0.16366863
0.034255821 0.017409541 0.15917677
0.035010092 0.022496533 0.15977934
0.035881329 0.0253461 0.15969837
0.014620245 -0.03331811 0.15898257
0.035082303 0.012433438 0.15586573
0.034451753 0.01721064 0.15558332
0.034328651 0.022485867 0.15584463
0.036440641 0.024903825 0.15261406
0.016908282 -0.033808596 0.15445623
0.020298969 -0.033545829 0.15265572
0.033714361 0.0024183867 0.15134254
0.034464292 0.0064714272 0.15145403
0.035194192 0.011534624 0.15109742
0.035063528 0.016386941 0.1519416
0.023637943 -0.033383138 0.1489751
0.034116339 -0.0044954456 0.14766875
0.033835247 0.00075705908 0.14685765
0.033878751 0.0068084886 0.14759773
0.034971546 0.011514211 0.14748842
0.023400841 -0.033914745 0.14566344
0.031973198 -0.01489922 0.14379254
0.034171361 -0.0053619375 0.14297146
0.034204401 0.0030187666 0.14259043
0.025903128 -0.034347467 0.14068496
0.028324159 -0.032361556 0.14017549
0.031140074 -0.019871132 0.14002037
0.032956395 -0.010626772 0.13856399
0.025926344 -0.033353157 0.13608015
0.029599691 -0.030526314 0.13659015
0.031461552 -0.02049369 0.13521436
0.030160228 -0.029808696 0.13211405
0.058845542 -0.016829673 0.087569237
0.062117595 -0.0083570611 0.088455677
0.070009634 0.0093479436 0.088003278
0.063178755 -0.014471035 0.08593297
0.067023836 -0.0049674753 0.08545959
0.069300793 0.0045829304 0.083246708
0.072019547 0.0083219893 0.084513783
0.068861671 -0.011090556 0.081968307
0.070367835 -0.0014384836 0.080705643
0.070722483 0.0033363365 0.079870701
0.071984939 0.0073761605 0.080824494
0.069729485 -0.011920379 0.076474547
0.070334665 -0.0015448872 0.076709151
0.070011579 -0.012162653 0.071726203
0.0066566807 0.020599833 0.1949293
-0.01320187 -0.031451441 0.19652414
-0.0051501049 -0.013443831 0.19226623
-0.0036009655 -0.0092123179 0.19195169
-0.0010914786 -0.0039248648 0.1918653
8.5797015e-05 0.00042923813 0.19205937
0.0019259602 0.0051823594 0.19194427
0.0047151218 0.0092010349 0.19234928
0.006555656 0.013258363 0.19242191
0.0080668889 0.017851453 0.19383326
-0.010633068 -0.032840341 0.1903435
-0.0082385018 -0.028391046 0.19072482
-0.0062414203 -0.024444848 0.19148946
-0.0040810443 -0.020222643 0.19208622
-0.0023147066 -0.014581457 0.19224364
6.2789535e-05 -0.0095684249 0.19170082
0.0021799477 -0.0057087955 0.19179186
0.0057079075 0.0035629272 0.19163477
-0.008540554 -0.033876073 0.18672258
-0.0050282879 -0.031261642 0.1883865
-0.0055641597 -0.034763642 0.18302006
-0.0036986498 -0.03707058 0.17911023
-0.00085045211 -0.037973415 0.17536053
0.0053604767 -0.037093066 0.16648474
0.0073239459 -0.035672117 0.16061783
0.0092106406 -0.033325359 0.15979037
0.0082155997 -0.035498332 0.15540731
0.010098192 -0.034073111 0.15564159
0.034248494 0.022443909 0.15297052
0.011362421 -0.033512283 0.15195483
0.034574591 0.017296771 0.1488111
0.034133479 0.022365443 0.14817202
0.035312481 0.025997121 0.14742443
0.014168456 -0.033091605 0.14876723
0.01734104 -0.032743584 0.14679286
0.033701483 0.0070178704 0.14434028
0.034518521 0.01161343 0.14432144
0.033888184 0.01711151 0.14386851
0.034625754 0.020701563 0.14372095
0.035566408 0.025076283 0.14346203
0.019722838 -0.033972148 0.14194775
0.033906084 0.00073945895 0.13990992
0.032967869 0.0051866444 0.13956496
0.034054551 0.010898898 0.13988838
0.019245869 -0.035891831 0.1355018
0.019889919 -0.03431733 0.13735497
0.034051061 -0.0058377092 0.13562334
0.033641323 0.0038586287 0.13526443
0.023025658 -0.034569595 0.1333642
0.032131243 -0.015243316 0.13291225
0.033690885 -0.0058568367 0.13154405
0.024964072 -0.03340726 0.12871933
0.028210629 -0.031238992 0.12931454
0.031843323 -0.020712297 0.12919348
0.032351729 -0.010995959 0.12764072
0.02635612 -0.034233548 0.12405813
0.029309263 -0.031069228 0.12499106
0.031915858 -0.021031074 0.12352163
0.028000206 -0.03514868 0.11958122
0.029673267 -0.031206112 0.1200816
0.032900795 -0.02197298 0.1197921
0.058148354 0.014550565 0.097641349
0.049709707 -0.014750604 0.094741225
0.053390238 -0.0055368459 0.093745232
0.060307376 0.015824025 0.095423818
0.052324556 -0.015541908 0.092391372
0.055898316 -0.0063767368 0.091635168
0.052918959 -0.020778954 0.088398337
0.057342853 -0.01313781 0.089483142
0.061241705 -0.0018420797 0.08814764
0.061915249 0.0025707539 0.085853577
0.064182043 0.0067824423 0.086322725
0.064763322 0.010631137 0.087752223
0.0581531 -0.019088255 0.084248185
0.066272147 0.0022795722 0.084394813
0.067320101 0.0044105072 0.084424019
0.05948288 -0.019355265 0.079304159
0.070560887 0.0044464283 0.07678175
0.070427857 0.008450266 0.077288866
0.060991921 -0.019547265 0.074333906
0.069857188 -0.0049038902 0.073512018
0.069898568 0.0037625171 0.072494745
0.070248038 0.0070775673 0.071587861
0.065495975 -0.017456813 0.070346236
0.068891756 -0.0015567783 0.069068074
0.07030347 0.0034746826 0.068854332
0.069537826 -0.013062492 0.066248178
0.069561303 -0.013422276 0.060394228
-0.0012381715 0.017915837 0.19333994
0.0012827031 0.021214698 0.19424781
-0.015732219 -0.030790847 0.19222361
-0.014215074 -0.026413374 0.19255185
-0.011271747 -0.022255208 0.19137377
-0.0082972273 -0.018232159 0.19187722
-0.00789594 -0.013221848 0.1919772
-0.0063130315 -0.0073710461 0.19232804
-0.0045093438 -0.0024840343 0.19243553
-0.001756951 0.0067633307 0.19233868
-0.00022783736 0.011349902 0.19284669
0.0019648816 0.015624961 0.19286063
0.0035126782 0.018469822 0.19384059
-0.013994093 -0.035106618 0.18874615
-0.012040738 -0.03221079 0.19179872
-0.011304984 -0.029101579 0.19135141
-0.011753779 -0.036162607 0.18559551
-0.0082202572 -0.036032703 0.18190274
-0.0092411786 -0.037692796 0.1771152
-0.0059691728 -0.033739828 0.17784074
0.002632603 -0.036362793 0.16184294
-0.00048972294 -0.037000988 0.16019469
0.0023892354 -0.035968613 0.15778568
0.0047063269 -0.035993345 0.15344831
0.0070883101 -0.035357706 0.15087163
0.008394205 -0.03367563 0.14924663
0.011649073 -0.032939553 0.14462161
0.034439847 0.023105856 0.14202112
0.035619203 0.026323304 0.14168224
0.013173163 -0.033636775 0.14063966
0.03376269 0.013464347 0.13721827
0.033845782 0.016955886 0.13813132
0.034261636 0.021760251 0.13748127
0.035900958 0.025369346 0.13813901
0.01827877 -0.033758488 0.13616264
0.032961346 0.0067589739 0.13490969
0.033734821 0.0098888455 0.13443655
0.033537805 0.015775159 0.13315278
0.033589117 0.020436782 0.13304955
0.019416615 -0.036126465 0.132783
0.034308001 0.00012808386 0.12878913
0.033383425 0.0048564719 0.1297181
0.033308953 0.0096430657 0.12898558
0.018786196 -0.036086213 0.12945604
0.021116573 -0.034402177 0.12693053
0.031820811 -0.010136713 0.12440312
0.033099357 -0.00066612381 0.12469417
0.033829816 0.0039489074 0.12586635
0.023115795 -0.035154589 0.12320423
0.031894885 -0.010789459 0.12026489
0.03215345 -0.0021259654 0.12161195
0.026867706 -0.035277151 0.11952353
0.029096451 -0.032272212 0.11743224
0.032511439 -0.021194521 0.11664391
0.032266356 -0.011560621 0.11634463
0.027265899 -0.035176218 0.11419696
0.028961515 -0.032171365 0.1139434
0.03288376 -0.021979844 0.11272585
0.030767625 -0.027366199 0.10910052
0.036397077 -0.022626547 0.10297447
0.038570911 -0.016201261 0.10185868
0.040629838 -0.020490024 0.099337459
0.043123044 -0.011594415 0.097946644
0.047415301 -0.0027906289 0.096586347
0.048811287 0.0018239021 0.096023977
0.054458894 0.013302166 0.096146941
0.054955065 0.015424285 0.096446395
0.04385924 -0.022364033 0.095385194
0.046863362 -0.01282824 0.095819771
0.050339632 -0.004138289 0.095104218
0.052457102 0.00038482435 0.093852997
0.053010844 0.0061363839 0.092741728
0.056138799 0.010521287 0.093003869
0.058732402 0.014241822 0.09285599
0.046129335 -0.023386912 0.090626895
0.05701381 0.0014318973 0.089980245
0.056845788 0.0048310272 0.089435577
0.059350774 0.0090894494 0.089051485
0.06061672 0.01352803 0.088200092
0.051033217 -0.022213491 0.085745454
0.05957732 0.003673153 0.087058544
0.051860284 -0.022713048 0.082502067
0.066743478 0.01227304 0.073220372
0.058327489 -0.020711215 0.072459161
0.069083214 0.0089372788 0.071578085
0.059910856 -0.020405408 0.068468332
0.069968022 0.0031176247 0.066188276
0.071102306 0.007731149 0.066929698
0.060225502 -0.019810412 0.063804924
0.069379129 -0.0056013502 0.063260078
0.070349529 0.0034980271 0.06251967
0.072739527 0.006860802 0.062716961
0.067976534 -0.015034988 0.058434725
0.068315551 -0.0033881664 0.058063745
0.070367128 0.0049138032 0.058186114
0.07278198 0.0081884619 0.057838082
0.069150731 -0.01375543 0.054005742
0.066914849 -0.016601138 0.050975323
0.069457039 -0.01072465 0.05081737
-0.0094034709 0.014536563 0.19554833
-0.006165918 0.019671548 0.19661382
-0.0043736128 0.022933042 0.19686776
-0.018243553 -0.02275859 0.1952458
-0.015865659 -0.0082619525 0.19263288
-0.013346622 -0.0040233424 0.19329268
-0.0094728572 0.0047998074 0.1925101
-0.0079873512 0.0094384141 0.19298664
-0.0058660833 0.013819932 0.193863
-0.0038106157 0.017953966 0.19436947
-0.0015313528 0.022484843 0.19493982
-0.017809188 -0.02822265 0.19321713
-0.017175242 -0.023848251 0.19362122
-0.016991492 -0.020256534 0.19128373
-0.014054345 -0.015619074 0.1904301
-0.012991155 -0.011445391 0.1918048
-0.011035882 -0.0063992608 0.19244325
-0.0088919438 -0.00067414693 0.19241536
-0.0046564518 0.007994472 0.19233221
-0.0016592834 -0.037385285 0.15643775
-0.0025123507 -0.037313584 0.15271747
0.00060424861 -0.036179896 0.15296185
0.0047755139 -0.034695692 0.14735496
0.0064064413 -0.033679459 0.14611939
0.0060225297 -0.032912474 0.14227819
0.010359593 -0.033936553 0.13898274
0.033730019 0.023049092 0.13427672
0.034545753 0.026211534 0.13479012
0.010665956 -0.034280047 0.13540161
0.033392966 0.016047409 0.13039333
0.033958793 0.021763038 0.13050422
0.035177641 0.025357116 0.1301145
0.014141258 -0.035946831 0.13033217
0.033732563 0.01049598 0.12649167
0.032801136 0.015310932 0.12635112
0.034018081 0.020029021 0.12566578
0.035436947 0.024452381 0.12544471
0.015281951 -0.035565715 0.12508571
0.033634029 0.0047116876 0.12286866
0.034117002 0.0093343435 0.12319803
0.032978553 0.014489171 0.12150604
0.034613356 0.020083036 0.1216296
0.036262091 0.024174029 0.12092394
0.033020679 -0.00062025338 0.11949909
0.033930149 0.0039956653 0.11888027
0.034313973 0.0088427961 0.11784637
0.021343092 -0.034519754 0.11496431
0.032749418 -0.011094676 0.11386102
0.033754956 -0.0013550455 0.11456633
0.033684231 0.0036536679 0.11348778
0.024694579 -0.034449436 0.10927546
0.026963959 -0.032697875 0.11023766
0.033642866 -0.011996721 0.11001402
0.035388824 -0.002434087 0.10936052
0.027480714 -0.032254785 0.10648131
0.033499278 -0.022555415 0.10642034
0.035656665 -0.01304369 0.1057772
0.03858462 -0.0036632651 0.10510725
0.039958097 0.00062824972 0.10464233
0.041528933 0.0053507397 0.10377282
0.02908681 -0.03230593 0.10162956
0.03469988 -0.024255086 0.10323691
0.038696356 -0.013985593 0.10249239
0.041990347 -0.0054611014 0.10166907
0.044513807 0.0038952148 0.10032725
0.044452053 0.0087145297 0.098699927
0.046350662 0.012648213 0.096714556
0.030032048 -0.032616142 0.097726345
0.037110142 -0.025649654 0.09767139
0.04374655 -0.0059139822 0.098556519
0.047201049 0.002599109 0.097634017
0.048225999 0.0073513091 0.095773816
0.049944431 0.012189034 0.095163822
0.048152983 0.016190883 0.094790697
0.038307395 -0.026043154 0.093979239
0.051077928 0.0071471687 0.093173504
0.039316025 -0.026368074 0.088498473
0.04507079 -0.024981458 0.084389329
0.047838438 -0.024331518 0.075493813
0.053324886 -0.023917731 0.069838881
0.066128939 0.012476854 0.069647253
0.054418668 -0.023853755 0.066150486
0.05881273 -0.020822063 0.061313033
0.067851849 -0.0019342676 0.055636346
0.069034845 0.0025763027 0.055759668
0.071372047 0.0071955044 0.055258274
0.064056896 -0.01833681 0.052982926
0.068282202 -0.0031465907 0.051252246
0.069334954 0.0019970089 0.05040437
0.071680166 0.0069838222 0.05001986
0.06899257 -0.013690727 0.04792279
0.068575025 -0.0045856312 0.047175527
0.072666287 0.0070880223 0.046799064
0.068891011 -0.014251767 0.043375969
-0.022240853 -0.010776655 0.19557235
-0.021304486 -0.0076781078 0.19524044
-0.020378377 -0.0022412208 0.19490987
-0.016183496 0.0080558928 0.19449246
-0.012060564 0.017150078 0.19566154
-0.0093145519 0.01892218 0.19629931
-0.021386698 -0.018263226 0.19239816
-0.021219432 -0.012877136 0.19268912
-0.018832613 -0.0089912191 0.19337329
-0.018010631 -0.0044709407 0.19299346
-0.013837079 0.006627277 0.19253936
-0.019967247 -0.017168473 0.19098303
-0.01841935 -0.014683479 0.19038761
-0.0043608993 -0.036346931 0.14811751
-0.0023360634 -0.034722224 0.14498454
0.0017439015 -0.033791441 0.14331084
0.0017207647 -0.032445818 0.13706303
0.032347489 0.016452216 0.1185205
0.03340482 0.019746076 0.1183033
0.034456018 0.023617774 0.11845881
0.033158481 0.011221744 0.11412388
0.032311942 0.014922707 0.11493975
0.032893531 0.02024401 0.11505437
0.03472133 0.024128858 0.11436158
0.034101427 0.0045080697 0.11095113
0.033626832 0.0091418754 0.11113691
0.033416543 0.012737859 0.10985261
0.020269249 -0.034321435 0.11122054
0.034684125 0.0032522082 0.10777891
0.035534553 0.0081381835 0.10677582
0.035669994 0.011587261 0.10575676
0.022900281 -0.033995859 0.10493433
0.036956653 0.0030401442 0.10540187
0.037419662 0.0072116712 0.10436332
0.03887248 0.011520439 0.10138547
0.023172772 -0.034322374 0.10123318
0.025524367 -0.033551078 0.10059065
0.041367877 0.011441152 0.09868598
0.042600211 0.014206314 0.097224236
0.027603526 -0.033610068 0.095836759
0.046693366 0.01859834 0.092983246
0.028357817 -0.03260614 0.09120059
0.032779898 -0.030030301 0.086531401
0.033654377 -0.02972105 0.081837356
0.03881675 -0.026253268 0.076917887
0.04343576 -0.024906725 0.072010517
0.047119755 -0.025080016 0.064055085
0.053625606 -0.022632098 0.054818869
0.05447254 -0.021736575 0.051416755
0.059581175 -0.019935511 0.046010554
0.068364486 0.0019158199 0.044270575
0.070214123 0.0060290564 0.044007361
0.063915305 -0.018612292 0.041024566
0.067974024 -0.0031055957 0.039996147
0.068043508 0.0015111323 0.040509701
0.070238993 0.0069719292 0.039499283
0.067633711 -0.013930823 0.037022471
0.068520673 -0.0050660446 0.035994768
0.067217134 -0.013914924 0.032473803
0.069850266 -0.0062155407 0.032763958
-0.027366465 -0.010661653 0.19288665
-0.021733169 -0.0022957991 0.19453543
-0.018894404 0.00620858 0.19469953
-0.015463447 0.016262416 0.19569635
-0.027442642 -0.01431047 0.19005078
-0.027894294 -0.01231209 0.19116819
-0.0067976182 -0.03645229 0.14318818
-0.0050637219 -0.034789052 0.14140975
-0.0033827806 -0.033608932 0.13817963
-0.0030424679 -0.033728257 0.1338568
-0.0020409068 -0.031287689 0.13242951
0.001568621 -0.032760326 0.13119543
0.0037078019 -0.032261979 0.12451673
0.0069687776 -0.034105871 0.11529672
0.031553011 0.016300591 0.11146325
0.032570101 0.02030161 0.11185497
0.034231111 0.024422223 0.11114323
0.032655664 0.015704397 0.10840452
0.033477865 0.019550633 0.10797036
0.034668695 0.024582125 0.10790038
0.035473645 0.027752012 0.10642719
0.034747865 0.014621809 0.10416406
0.034933221 0.019148817 0.10323155
0.0354499 0.023920443 0.10324299
0.036458652 0.027213996 0.10325843
0.018689651 -0.034125026 0.10412496
0.036142588 0.013900256 0.10133749
0.037278913 0.017767046 0.098849118
0.037013397 0.022335548 0.09785521
0.036818448 0.02695745 0.099575162
0.019425131 -0.033993248 0.096555233
0.039800406 0.017837051 0.095018625
0.039314389 0.021464985 0.094002545
0.039775331 0.025436522 0.094025731
0.021539615 -0.034102626 0.09401381
0.042587653 0.016931914 0.092705727
0.040562037 0.019595735 0.090429604
0.025180601 -0.033661574 0.088821352
0.027109671 -0.033150878 0.084430158
0.030722573 -0.031316638 0.084346175
0.028539119 -0.032889418 0.07975924
0.032414131 -0.030750886 0.075176358
0.03365647 -0.030299136 0.071139872
0.039195523 -0.027804103 0.066809714
0.04021934 -0.028032545 0.061978579
0.044976193 -0.025377741 0.057550609
0.050054189 -0.023373865 0.051711619
0.05254636 -0.022139365 0.043799162
0.053481806 -0.021811418 0.040214121
0.068245962 0.0021371283 0.03760767
0.069454767 0.0056782868 0.037466705
0.062424827 -0.018810812 0.03465265
0.068885654 0.0013655499 0.033355474
0.070614122 0.0059177075 0.033043325
0.063977234 -0.018402809 0.03017509
0.068623289 -0.0093331616 0.029247165
0.069820642 0.00081192143 0.029036283
0.072038837 0.0053976849 0.028654337
0.067993417 -0.014500021 0.025924444
0.06873247 -0.0053817816 0.024478555
0.068222553 -0.014786682 0.020902455
-0.0099428808 -0.036663804 0.13483369
-0.0064923898 -0.034630574 0.13560146
-0.0079566557 -0.036186609 0.13024706
-0.0044874698 -0.034229741 0.13114867
-0.0026830882 -0.031192038 0.13003418
-0.0042745825 -0.034225255 0.12799174
-0.00074702315 -0.028769081 0.12457973
0.00029191747 -0.035043694 0.11525249
0.0011838675 -0.033617713 0.11538208
0.0019747131 -0.035861477 0.11260194
0.0045189671 -0.034011073 0.11287516
0.004848497 -0.033228911 0.10914081
0.0080534061 -0.031395297 0.10916066
0.013843448 -0.032267928 0.10326678
0.035964716 0.025050245 0.09710449
0.036441498 0.027056081 0.096273422
0.016200017 -0.033498835 0.098219216
0.038903657 0.024020545 0.092884898
0.039518926 0.025504384 0.091812134
0.018384533 -0.034299213 0.091898322
0.038141459 0.02336853 0.088529646
0.040771015 0.024845619 0.088842034
0.020410789 -0.034062278 0.087136149
0.021331996 -0.034677379 0.082895458
0.024617283 -0.034212399 0.083022654
0.02269534 -0.035505991 0.078002632
0.025932871 -0.034158539 0.07781297
0.024826841 -0.036541518 0.074752808
0.026812822 -0.033892296 0.073223948
0.027345542 -0.034309991 0.069633484
0.032342985 -0.030154154 0.063933134
0.033344086 -0.030171566 0.060183883
0.038639132 -0.02846483 0.055230439
0.042583726 -0.025406012 0.050090194
0.044191781 -0.024740154 0.045583785
0.048920434 -0.02295915 0.040729582
0.052588917 -0.021652063 0.035226703
0.056984235 -0.020304481 0.027640641
0.060040001 -0.020007495 0.023619354
0.067392945 -0.0032365508 0.021142006
0.067411989 0.0014652386 0.022114277
0.069206923 0.0059337877 0.022132099
0.063279971 -0.019138705 0.018259287
0.068390965 -0.0084123444 0.018239021
0.064268336 -0.018161068 0.013854384
0.068052091 -0.0096176732 0.013410211
0.065952852 -0.018716002 0.0087049007
0.068667114 -0.010770586 0.0087670088
-0.015596963 -0.034740079 0.13500091
-0.010206893 -0.037103534 0.13011968
-0.0096823312 -0.036987063 0.12611723
-0.0061417618 -0.033725519 0.12469
-0.0040346691 -0.030176157 0.12393433
-0.0054940502 -0.033877287 0.12077284
-0.0042065806 -0.030797251 0.1200406
-0.0031698318 -0.034768716 0.11533844
-0.0017966935 -0.032421529 0.11608911
-0.0015669614 -0.037207883 0.11172861
0.0010892162 -0.0366132 0.10663849
0.0042969203 -0.03398627 0.10630655
0.0039167143 -0.033281364 0.10250336
0.0055698389 -0.030838877 0.10231405
0.0055900486 -0.032949466 0.096933126
0.0064869933 -0.031517498 0.097073376
0.0099768816 -0.034877636 0.093419313
0.01163708 -0.0337127 0.094171286
0.010832059 -0.035539377 0.088109195
0.012243839 -0.034285594 0.088669002
0.015409607 -0.033941872 0.085645556
0.017658152 -0.035199009 0.079451621
0.020317499 -0.036416505 0.076615274
0.022942383 -0.03606854 0.070136189
0.026734602 -0.034231286 0.066747487
0.026008587 -0.033261921 0.063109517
0.029593457 -0.031624638 0.062584102
0.032991529 -0.030374007 0.053729832
0.037554026 -0.029147079 0.049155414
0.038137969 -0.028208945 0.044617772
0.042989526 -0.025612865 0.039271295
0.043966621 -0.025105093 0.036036193
0.04866438 -0.023464549 0.030647099
0.049669847 -0.022571171 0.026850879
0.055959124 -0.02059143 0.021036685
0.067364506 0.002554439 0.018911004
0.068169236 0.0057767499 0.018345237
0.060977239 -0.020725785 0.016096234
0.06755536 0.0014596749 0.01518935
0.067651331 0.0063976534 0.015533209
0.061603088 -0.020460263 0.011772752
0.068454184 2.5780872e-05 0.011099637
0.067664534 0.0036792159 0.010111392
-0.010744054 -0.03605438 0.11651236
-0.0081621725 -0.033369411 0.1183235
-0.010154784 -0.029150289 0.1167658
-0.0089820037 -0.036898565 0.11388028
-0.0069636218 -0.035828196 0.11484009
-0.0074633313 -0.037729114 0.11008
-0.0027996479 -0.03785906 0.10811222
-0.0011519957 -0.037191838 0.10089672
0.0024881428 -0.034192689 0.10032815
3.8174912e-05 -0.036729589 0.09679842
0.0031232936 -0.034022931 0.096382678
0.0029227622 -0.037714038 0.089536309
0.0052145328 -0.035655476 0.091886759
0.0036177104 -0.038075112 0.088079751
0.0055375276 -0.0359409 0.086644053
0.0082053393 -0.035705645 0.08327508
0.01219564 -0.034055088 0.08241868
0.013797157 -0.033687241 0.079304814
0.018643178 -0.036083534 0.071174145
0.024166338 -0.032983452 0.060267508
0.025838306 -0.032733034 0.055485189
0.028465465 -0.03146375 0.054555655
0.025034372 -0.032624017 0.051692605
0.029596521 -0.03125621 0.050431192
0.031110356 -0.031201746 0.046289384
0.035997603 -0.029289402 0.041241407
0.036326326 -0.028695468 0.036891937
0.037612364 -0.027926704 0.034207165
0.042312481 -0.026018182 0.027596235
0.043925229 -0.025695648 0.023397565
0.048220187 -0.023865156 0.018798709
0.049573466 -0.023700841 0.01428318
0.065000042 0.0079571586 0.010584116
-0.01502927 -0.034245979 0.11927468
-0.0021370137 -0.036761314 0.092625737
-0.0018013604 -0.037359308 0.089079738
0.00032666419 -0.037109066 0.083447933
0.0035196142 -0.036490232 0.084409237
0.0045123817 -0.035394341 0.079575956
0.0055526476 -0.034242809 0.075771451
0.0075749177 -0.033300426 0.074798584
0.019583009 -0.031998016 0.05583787
0.021009924 -0.032734212 0.052937627
0.024116965 -0.032476194 0.047779977
0.028015994 -0.032441087 0.044370472
0.026037069 -0.033679113 0.040112734
0.030318638 -0.032665331 0.040909171
0.034093708 -0.030064378 0.034369648
0.035060793 -0.028575536 0.030301154
0.039328754 -0.027268603 0.025680304
0.043598168 -0.025879823 0.016720831
0.046549525 -0.024627181 0.012149096
0.00222064 -0.03637673 0.078306913
0.0036230413 -0.034761183 0.07459265
0.014903497 -0.032311089 0.049308479
0.01860762 -0.033077653 0.045968592
0.020657236 -0.032522965 0.041566014
0.022694975 -0.033097036 0.03733784
0.026448915 -0.032175824 0.037753344
0.025368379 -0.031968582 0.033629537
0.029251607 -0.031388 0.028918147
0.031935375 -0.031505331 0.024604797
0.032961223 -0.032156415 0.020252228
0.038251586 -0.027136721 0.019371748
0.039550915 -0.027138144 0.015646636
0.01094098 -0.032715354 0.04650569
0.01156963 -0.030970875 0.049558342
0.012346269 -0.034336574 0.043851674
0.01453385 -0.032364756 0.045859337
0.016341385 -0.035131112 0.041789889
0.016512103 -0.033538185 0.039210498
0.018048737 -0.036214039 0.034896851
0.019498928 -0.034266464 0.036741316
0.020799279 -0.032077868 0.031212747
0.027446099 -0.031451806 0.025363922
0.02738839 -0.032051682 0.02229166
0.030609027 -0.032561429 0.017433286
0.034843076 -0.031562999 0.011747837
0.0043040607 -0.029930629 0.049184203
0.0070889862 -0.032669462 0.047196984
0.011524285 -0.035132147 0.040299475
0.017454557 -0.032571543 0.030971289
0.021513276 -0.030900516 0.024845481
0.022845965 -0.031784598 0.018595219
0.023814514 -0.032422934 0.014128327
0.027863955 -0.031520516 0.010460436
0.001013454 -0.031551231 0.04626435
0.0033494625 -0.033369754 0.046466887
0.017995596 -0.031514879 0.021229446
0.01733302 -0.031524856 0.01633203
0.018163785 -0.032058004 0.012789607
-0.0011102753 -0.02979916 0.046252012
0.012676547 -0.031336684 0.019197702
0.013233197 -0.031776831 0.015395463
0.015358414 -0.031983338 0.01053977
0.0037556048 -0.031692393 0.01569289
0.0063083898 -0.030816354 0.0162521
0.0075573334 -0.031562295 0.011966586
0.0037634531 -0.031951468 0.011360526
-0.0015937807 -0.031691011 0.011543214
