# .PCD v0.7 - Point Cloud Data file format
VERSION 0.7
FIELDS x y z
SIZE 4 4 4
TYPE F F F
COUNT 1 1 1
WIDTH 1061
HEIGHT 1
VIEWPOINT 0 0 0 1 0 0 0
POINTS 1061
DATA ascii
0.034902282 0.023138292 0.1871537
0.033033412 0.028974377 0.18720922
0.033751931 0.029133372 0.18406618
0.024263941 0.0265572 0.19229439
0.031498525 0.020283729 0.19084534
0.027883844 0.028723598 0.19037136
0.025762968 0.031124687 0.18867865
0.034828693 0.0212346 0.18672121
0.028429631 0.032024384 0.18503904
0.035494536 0.021488074 0.18174255
0.032460745 0.03037809 0.18149331
0.03587446 0.026676744 0.1781199
0.03029912 0.00314824 0.19124922
0.026671538 0.012516863 0.19094986
0.022744916 0.021601576 0.19274721
0.020407278 0.026110614 0.19225356
0.019325208 0.029252686 0.19050702
0.033611029 -0.00042633619 0.18864903
0.031579755 0.0087683182 0.18913603
0.022307007 0.031086341 0.18805099
0.034634452 0.0047903247 0.18471405
0.033788741 0.013012854 0.18396264
0.024552455 0.032091625 0.1827012
0.034112178 0.014778902 0.17934206
0.027242851 0.031336144 0.17871657
0.035395142 0.020500526 0.17527434
0.031709984 0.030019373 0.17434645
0.027908104 0.031409897 0.17365095
0.034938533 0.020592187 0.17064276
0.032015678 0.029571535 0.17031193
0.029311894 0.031821251 0.17001677
0.032514341 0.028801117 0.16677696
0.016924603 0.01950147 0.1920276
0.014767177 0.024009377 0.19236925
0.012217785 0.027631586 0.19085273
0.030134715 -0.0059965337 0.18995625
0.029434208 -0.0020584418 0.19130448
0.024773717 0.0058827274 0.19125193
0.020753182 0.01476226 0.19075292
0.014826213 0.029147863 0.18964633
0.032439236 -0.0063085603 0.18700436
0.032164179 -0.0029024538 0.18934131
0.017753284 0.031240113 0.18572778
0.03371847 -0.0054236138 0.18306839
0.034730937 -0.00052394718 0.18223295
0.018225309 0.031242536 0.18052781
0.034013905 -0.00078357011 0.17807174
0.033872999 0.0072500873 0.17688635
0.02307702 0.031292669 0.17615354
0.034754019 0.0091081019 0.17321667
0.025003254 0.032288581 0.17157185
0.034793403 0.013675068 0.1681388
0.027256304 0.032892823 0.16803369
0.033019803 0.019351073 0.16338882
0.031491317 0.029357787 0.16386873
0.027732233 0.03153808 0.16372186
0.033098795 0.02454683 0.15879887
0.022729721 -0.0047147735 0.19117951
0.02141352 -0.00016685296 0.19129235
0.01729564 0.0081008505 0.19133753
0.012603448 0.017489817 0.19154668
0.010329828 0.021951627 0.19260508
0.0085396832 0.026039785 0.19181988
0.0074393749 0.029518545 0.18979651
0.030276241 -0.018078197 0.18851715
0.029612903 -0.014213804 0.18925193
0.028414225 -0.0093885809 0.18989787
0.026823463 -0.0050849253 0.19122249
0.0095825298 0.031475574 0.18640494
0.0064858608 0.03359738 0.18499544
0.032351799 -0.01757798 0.18470466
0.032370035 -0.013232842 0.18558234
0.03227105 -0.0098262867 0.18620259
0.011864945 0.03174071 0.18257529
0.033533469 -0.016435837 0.18103886
0.033919036 -0.012837964 0.18107691
0.033382356 -0.0085262777 0.18101338
0.013383843 0.031395074 0.17809704
0.034147993 -0.012561165 0.17712042
0.033918746 -0.0076426892 0.17678702
0.033575576 -0.0030784365 0.17585722
0.016684249 0.030392997 0.17297357
0.014759175 0.031328127 0.17291451
0.033621807 -0.0075024208 0.1727474
0.033724952 -0.0023607705 0.17131341
0.020152621 0.031645071 0.17074054
0.017742362 0.032327332 0.16877627
0.034107734 -0.0016301535 0.16746384
0.034045301 0.0077817375 0.16619906
0.021577405 0.031904511 0.16239384
0.020821877 0.033376202 0.16502583
0.033729706 0.0082989531 0.16149652
0.033027723 0.016250655 0.16160595
0.025502115 0.031090766 0.15972584
0.033886358 0.013223431 0.15705249
0.029541874 0.029185301 0.15628743
0.026383512 0.030170303 0.15572047
0.033326752 0.018701296 0.15353638
0.031507995 0.028532049 0.15266508
0.02743591 0.030433943 0.1517612
0.032351192 0.028346449 0.14736485
0.034099296 0.027671274 0.14323375
0.0056850421 0.013337586 0.19162703
0.0042966269 0.019570196 0.19201219
0.0022159414 0.0234941 0.192294
0.00019219145 0.02640708 0.1918664
0.021582833 -0.016000133 0.1897012
0.020468678 -0.012993988 0.19055244
0.019093582 -0.0079338131 0.1908589
0.017622823 -0.0025397302 0.19109508
0.012842602 0.0057151061 0.19173962
0.0090031363 0.014931129 0.19140321
0.0079255784 0.019315505 0.1922271
0.0045945318 0.026402591 0.19165587
0.0022017173 0.029036542 0.18894443
0.030954853 -0.032496944 0.19013888
0.028938804 -0.028516479 0.18604591
0.028957909 -0.024993956 0.18674922
0.027822785 -0.020926496 0.18798456
0.023425367 -0.016973522 0.18874833
0.023109667 -0.011906924 0.18954739
0.022629101 -0.0086694323 0.18989486
0.0044385288 0.031216659 0.1869981
0.0039919885 0.033471271 0.18411645
0.030373808 -0.029143659 0.18430668
0.031203087 -0.024026345 0.18296543
0.03165004 -0.020537261 0.18369609
0.0086928206 0.032592118 0.17966795
0.0068605896 0.034418467 0.1798597
0.032403499 -0.023174912 0.17806852
0.032832768 -0.019103296 0.17888826
0.0096467901 0.031983487 0.17549837
0.0074056592 0.034221802 0.1758334
0.038743455 -0.030034516 0.17494604
0.033421464 -0.022677369 0.17444983
0.033485457 -0.018407349 0.17435682
0.033875965 -0.013637662 0.17423123
0.014191678 0.029474696 0.17403954
0.0115261 0.031291224 0.17093116
0.033271849 -0.017246354 0.1705071
0.03349828 -0.013763173 0.16950426
0.033359423 -0.0088898828 0.16990489
0.014524496 0.031892668 0.16731647
0.033235271 -0.012384019 0.16589159
0.033364471 -0.0086699957 0.16541854
0.03316547 -0.0033438951 0.16443416
0.01359475 0.03223972 0.16307235
0.033047508 -0.0027295286 0.15985543
0.033466883 0.0061397008 0.15875506
0.021025028 0.031549845 0.15822506
0.018186826 0.032120295 0.1574868
0.033660203 0.0075242841 0.15518624
0.022784498 0.031227741 0.15364143
0.019553702 0.032484639 0.1527867
0.034172311 0.012626369 0.15098959
0.024800474 0.031483665 0.14907098
0.033359647 0.017367445 0.14608306
0.030050747 0.029546717 0.14571816
0.026418166 0.030213108 0.14490134
0.034495857 0.023216888 0.14171395
0.027724743 0.03013817 0.14051622
0.032673959 0.028056908 0.13596576
-0.0030095377 0.018458961 0.19312847
-0.004468631 0.021276893 0.19282544
-0.0062267594 0.02482797 0.19248942
0.014632801 -0.015486395 0.19130048
0.012277761 -0.010062496 0.19176605
0.010137163 -0.0053274743 0.1915656
0.0081460429 -0.0010268416 0.19123688
0.0053606723 0.0084468611 0.19161651
0.0025755861 0.012111325 0.19190687
0.0008386625 0.017368589 0.19190457
-0.0015163389 0.022824172 0.19250289
-0.0035837647 0.027110746 0.1910136
-0.0059387567 0.029486885 0.1893883
0.025990734 -0.030958174 0.19011909
0.022669103 -0.027713388 0.18853489
0.020585433 -0.023091191 0.18849096
0.019213684 -0.018976737 0.189825
0.016894318 -0.014524583 0.19094536
0.015183363 -0.0092345336 0.19096714
0.013701003 -0.0038492014 0.19113925
-0.0016118549 0.028982004 0.18856138
-0.0032152869 0.030832898 0.1861459
0.030117221 -0.033138279 0.18675846
0.028467994 -0.030584339 0.18744218
0.025054358 -0.026685836 0.18781546
0.023780093 -0.022923548 0.18780056
-0.002561219 0.03182628 0.18302172
0.031095948 -0.032916699 0.18367928
0.030917544 -0.02986449 0.18160471
0.031089332 -0.026206402 0.18037888
0.035066828 -0.031648725 0.17610061
0.031850539 -0.029621907 0.17642915
0.032121897 -0.025952972 0.17733607
0.0064435145 0.031489611 0.17160252
0.0049054651 0.033722971 0.17174491
0.036530092 -0.031035494 0.17525211
0.034142837 -0.02862585 0.17265719
0.033619344 -0.02446951 0.17233717
0.033232585 -0.02064592 0.17164528
0.0068369592 0.031528484 0.16811404
0.0052771242 0.033298265 0.16790038
0.033037547 -0.024239317 0.16756868
0.033157986 -0.019419461 0.16787887
0.011749521 0.031589173 0.16459808
0.033039361 -0.019195693 0.1635792
0.032971855 -0.014617701 0.16314003
0.032488383 -0.010361264 0.1620988
0.013135361 0.031993717 0.16085768
0.032095768 -0.013296053 0.15933967
0.032271251 -0.0095914342 0.15859175
0.033035941 -0.0047723623 0.15799475
0.031759709 -0.0085478863 0.15447277
0.032534122 -0.0037203515 0.15388742
0.018268988 0.032752108 0.15013075
0.032239202 -0.0022805119 0.14982316
0.033124734 0.0053885505 0.14703262
0.018927321 0.032466106 0.14669517
0.0329361 0.011523542 0.14305496
0.022256577 0.030326521 0.14171791
0.032969166 0.01621338 0.13908643
0.025348075 0.03038343 0.13756201
0.033994161 0.021080926 0.13464701
0.027568826 0.030527357 0.13418955
0.032707479 0.027745623 0.13021863
0.029031143 0.030669708 0.12953344
0.032683447 0.026925191 0.12596595
0.064378224 0.010905668 0.08473295
0.065868437 0.011386716 0.082007349
-0.01233425 0.022400364 0.19448265
-0.014242686 0.026932195 0.19387498
0.0054208399 -0.0124776 0.19213918
0.0034244871 -0.0081420615 0.19181439
0.0019163768 -0.0035864152 0.19180834
0.00015678306 0.00085226382 0.19163746
-0.0018474265 0.0051820045 0.19130704
-0.0034998313 0.0096618887 0.19120482
-0.005102396 0.014531859 0.19194391
-0.0076077185 0.019226735 0.1931195
-0.0096361889 0.024183083 0.19296911
-0.012539286 0.028345991 0.19140682
-0.01473075 0.032573942 0.18984118
-0.016202707 0.035417635 0.18972117
0.017084645 -0.030027615 0.19156903
0.014536342 -0.026202597 0.19083238
0.0132662 -0.021072296 0.19077724
0.011001297 -0.017041638 0.19169304
0.008970621 -0.012355185 0.19196782
0.0060715517 -0.0070346221 0.19168112
0.0049777231 -0.0023070876 0.19194514
0.0014115842 0.0065099555 0.19156617
3.8260594e-05 0.011089556 0.19164282
-0.0014828409 0.013883209 0.19129935
-0.0093889637 0.030450171 0.18842241
-0.011854222 0.033563212 0.18722737
-0.013837742 0.036201973 0.1865879
0.020795006 -0.031959921 0.18986863
0.020181973 -0.028780174 0.1893824
0.018281398 -0.024847822 0.1893124
-0.0073134927 0.031770024 0.18394583
-0.01003455 0.033909582 0.18300909
-0.0060517699 0.032102898 0.17917311
-0.0082173068 0.033815894 0.1782358
0.028818738 -0.034301817 0.17926288
-0.0052161417 0.032268718 0.17409918
0.03003777 -0.033958249 0.17632785
-0.0022621974 0.033289768 0.17138803
0.0037108362 0.033631373 0.16475976
0.032734111 -0.029114999 0.16582447
0.032948013 -0.025593631 0.16481191
0.0054443581 0.030794023 0.16146863
0.0040732166 0.032397337 0.16142833
0.032684579 -0.02859669 0.16118065
0.032677203 -0.024821 0.16156849
0.032562874 -0.020398021 0.16047898
0.0073947897 0.030826431 0.15702298
0.032094035 -0.02389688 0.15706763
0.032597683 -0.019704692 0.15665585
0.031971414 -0.015473576 0.15666276
0.031525824 -0.012054035 0.15546018
0.010830238 0.030881274 0.15350723
0.032361992 -0.018829923 0.15262073
0.031826038 -0.015441588 0.15134811
0.03161535 -0.010725084 0.15176719
0.031712085 -0.0069893813 0.15193379
0.013519959 0.031809725 0.15067178
0.031841602 -0.010106729 0.14719844
0.032000169 -0.0052132085 0.14732397
0.015542737 0.032376461 0.14447922
0.031846769 -0.0042042676 0.14255819
0.031847462 0.0051182956 0.14104304
0.020099647 0.030549202 0.13939315
0.01716581 0.03202074 0.14067456
0.031599618 0.0061642858 0.13687494
0.021046756 0.030770481 0.13526776
0.01875636 0.031584054 0.13489717
0.031927716 0.011016719 0.13219059
0.026225919 0.030914448 0.1310668
0.020439506 0.031248093 0.13111603
0.032648429 0.011334285 0.12749845
0.032557461 0.02021027 0.12769014
0.026841069 0.030996239 0.12667203
0.033158511 0.02119988 0.12357116
0.028857894 0.029655652 0.12288505
0.03372784 0.026603516 0.11967969
0.034413151 0.023246009 0.1144557
0.031658247 0.028989039 0.11393517
0.05082478 0.012666961 0.094955385
0.054966211 0.0078993579 0.092986107
0.05132512 0.015316753 0.092040777
0.061291121 -0.00087037124 0.088524103
0.058962636 0.0097303968 0.089289784
0.053301357 0.015917053 0.087685227
0.065513454 -0.0044852328 0.084729552
0.06450595 -0.00010363571 0.085097432
0.061965846 0.011037478 0.085496485
0.054640874 0.016327202 0.08479929
0.067619734 -0.0037269592 0.080935836
0.06716828 0.0049955454 0.08123982
0.061157953 0.014486569 0.080237806
0.068972081 -0.003141107 0.077352524
0.06873554 0.0071526319 0.077021599
0.062127043 0.014379402 0.075917602
0.068751283 0.0065767895 0.070989013
-0.013870005 0.011729218 0.1950002
-0.013489624 0.015939893 0.19545066
-0.014457094 0.02135328 0.19504035
-0.016642626 0.026899701 0.19436896
0.012922806 -0.030050663 0.19312048
0.0088983877 -0.02833098 0.1933828
0.0075597339 -0.023806889 0.19123748
0.0065676644 -0.018977221 0.19157627
0.00362747 -0.01499748 0.19188648
0.00055693253 -0.0095850555 0.19203773
-0.0014494945 -0.0049534049 0.19242424
-0.0053932555 0.0037723947 0.1918129
-0.0076937554 0.0082610901 0.19174296
-0.0099597294 0.012049486 0.19222328
-0.010961048 0.016660376 0.19336784
-0.01649813 0.028610712 0.19291639
-0.017365592 0.031652872 0.19166905
-0.018363556 0.034665093 0.19113347
0.014286406 -0.031278625 0.19181469
0.011447005 -0.025584389 0.19126368
0.010607525 -0.023338402 0.19120649
-0.012978701 0.034638625 0.17934367
-0.013718992 0.036523502 0.1806742
-0.011047083 0.033585053 0.17683977
-0.01307425 0.036905944 0.17635965
-0.0061544054 0.031901795 0.17346796
-0.010217024 0.032619685 0.17182353
-0.0045305146 0.032321163 0.16700679
-0.0073397853 0.033017859 0.168284
-0.0059406338 0.031714968 0.1641413
0.0018153591 0.032743745 0.15868741
0.031453006 -0.031110171 0.15854901
0.031469464 -0.02674688 0.15796664
0.0058312528 0.030708991 0.15411797
0.0032325294 0.032306183 0.15473017
0.031568166 -0.030066308 0.15398133
0.031402901 -0.026401307 0.15394855
0.031277075 -0.022725768 0.15394658
0.0063131098 0.030811347 0.15158719
0.0054032234 0.031691261 0.14976957
0.031428717 -0.026116142 0.14967388
0.031746484 -0.021280192 0.1495423
0.031854711 -0.017560076 0.14875296
0.010205774 0.032097291 0.14575195
0.0073595466 0.031048736 0.14657155
0.031618804 -0.020218562 0.14545703
0.031745315 -0.016090903 0.14516941
0.031551793 -0.012130276 0.14464533
0.0085835187 0.031356547 0.1416651
0.031349212 -0.015705151 0.14018384
0.031299658 -0.011351177 0.14016348
0.031487729 -0.0072121797 0.13993612
0.015460227 0.032124281 0.13765863
0.011377483 0.032232076 0.13596669
0.031252597 -0.0058914414 0.13585073
0.031642154 -0.0015650792 0.13617757
0.015857529 0.032158829 0.13407215
0.031848501 0.0044868523 0.13158685
0.019091196 0.031505238 0.12865913
0.032581434 0.0055740862 0.12637299
0.021279719 0.031167194 0.12428927
0.032740511 0.010815113 0.12103802
0.025743166 0.030335773 0.11993098
0.021897309 0.030980643 0.11939728
0.03334574 0.016045796 0.11684829
0.027920306 0.030613028 0.11612868
0.024885166 0.031536352 0.11473203
0.033990007 0.020780073 0.11228848
0.028953489 0.030035418 0.11103022
0.033944018 0.021027695 0.10693139
0.030296531 0.029229805 0.10693288
0.035576198 0.019810943 0.10358286
0.042444333 0.013736831 0.099043667
0.051766638 0.001151111 0.093961239
0.04841359 0.010693825 0.096247792
0.043118771 0.018801831 0.095116735
0.055571504 -0.0031431839 0.090812802
0.049459431 0.01709461 0.091121972
0.063940138 -0.016274655 0.085033059
0.061903212 -0.011132181 0.086090326
0.060792834 -0.0067870952 0.08763057
0.05930708 -0.0035953224 0.088973761
0.048701875 0.019093128 0.085074008
0.065729193 -0.015640216 0.082525909
0.064850986 -0.010713033 0.083199739
0.064421952 -0.006675072 0.085312724
0.053013552 0.01724175 0.081800342
0.067312986 -0.014321439 0.078535795
0.067107186 -0.009981975 0.079067588
0.06798581 -0.0060363598 0.079823554
0.054509994 0.016331665 0.077141821
0.068437234 -0.013166349 0.075158
0.068482056 -0.0094564017 0.074449122
0.069050603 -0.0046936739 0.07529372
0.069446087 -0.00056681037 0.073384821
0.06893757 -0.0079497155 0.070905209
0.069316506 -0.0040806998 0.070511937
0.065832488 0.011497336 0.068378568
0.068926588 0.00074141659 0.065202951
0.066493347 0.010732678 0.065116882
0.069001891 0.0020115562 0.061531544
0.066498645 0.010137689 0.061002135
-0.015711199 0.0015247725 0.19584242
-0.015153129 0.0043854876 0.19666547
7.9235062e-05 -0.028721303 0.19355324
-0.0078791939 -0.0093590524 0.19264111
-0.012700045 0.0011309818 0.19319302
-0.013270784 0.0058994852 0.1942738
-0.013709029 0.0091946032 0.1946286
0.0049510966 -0.02825941 0.19450897
0.0028286609 -0.026086943 0.19162351
0.001186749 -0.021416979 0.18992767
-0.0016093506 -0.017297758 0.19097719
-0.0035729248 -0.012130192 0.1919423
-0.0063794088 -0.007019599 0.19204891
-0.0098959506 0.001948874 0.19172248
-0.010384014 0.0060998937 0.19221169
-0.013475475 0.034302983 0.17336351
-0.011605754 0.03320929 0.1704883
-0.013963498 0.034876846 0.16941616
-0.009838541 0.033297442 0.16542077
-0.013785767 0.033988759 0.16555932
-0.0078154113 0.032364197 0.16123837
-0.004055039 0.032235194 0.15780497
0.028925106 -0.034030139 0.15863919
-0.0032515945 0.032385577 0.15260902
0.030499712 -0.035452113 0.15358669
0.030781351 -0.032872267 0.15316859
0.0020818729 0.032509182 0.14736348
-0.0024357634 0.032595303 0.14933011
0.029840481 -0.036087248 0.14918962
0.031843469 -0.031885087 0.14791268
0.03155518 -0.027042598 0.14695904
0.003910657 0.032068178 0.14401352
0.033427775 -0.031347416 0.14287457
0.031804845 -0.026776239 0.14283869
0.031209312 -0.022338036 0.14279452
0.0057382612 0.031469133 0.138403
0.031173535 -0.026469655 0.13862339
0.031919058 -0.021498859 0.13852862
0.031985372 -0.017109986 0.13854373
0.0074725552 0.032011196 0.13480964
0.038939215 -0.032834098 0.13645557
0.036816955 -0.032129727 0.13521564
0.03201554 -0.015816081 0.13381341
0.031486556 -0.01161907 0.13442114
0.031105764 -0.0083089229 0.13395643
0.010148386 0.032452177 0.13035819
0.031997629 -0.016075309 0.12984481
0.032074913 -0.011696103 0.12895507
0.031325795 -0.006719525 0.1296069
0.03117956 -0.002730554 0.12913704
0.016004412 0.031964961 0.1263659
0.011325349 0.031903602 0.12614107
0.032392677 -0.010633295 0.12485325
0.032344513 -0.0065800119 0.12446517
0.032080323 -0.0014144201 0.12501323
0.015142485 0.031488966 0.12176383
0.032087833 -0.0051505603 0.12070543
0.032252353 -0.00049631577 0.12013799
0.019667389 0.031366453 0.11795819
0.033037268 0.0052519073 0.11573541
0.020837758 0.031678136 0.11392558
0.03461783 0.011085548 0.110623
0.024363056 0.032128029 0.10916603
0.036557078 0.01166767 0.10620326
0.03415525 0.021024559 0.10485554
0.029138248 0.030242912 0.10458285
0.026220443 0.032542683 0.1040737
0.039934333 0.0074613825 0.10199922
0.037375979 0.017245071 0.1024884
0.033531487 0.025820768 0.10165048
0.027342767 0.032381918 0.099366009
0.046773184 -0.0055953637 0.095218182
0.045782257 -0.0018302407 0.096802831
0.043235775 0.0082696257 0.098878086
0.037433308 0.02202259 0.097530842
0.031850182 0.030105494 0.095551729
0.028424347 0.032236196 0.095614374
0.051742028 -0.009742599 0.092764378
0.05036287 -0.0056769233 0.093563795
0.049207639 -0.0013187174 0.09467262
0.041954543 0.020152804 0.092365503
0.035521504 0.026232976 0.092225909
0.057522602 -0.018028518 0.088825822
0.056452174 -0.014001204 0.090102673
0.055470038 -0.0091154706 0.090663075
0.054082993 -0.0055473857 0.091912091
0.040724635 0.021187903 0.087713778
0.061343718 -0.017099254 0.086890697
0.059976019 -0.013123225 0.087214768
0.058080614 -0.0089720599 0.088626206
0.04102882 0.0211454 0.083898664
0.063712068 -0.016392402 0.084828973
0.046174996 0.019206192 0.079566121
0.067188986 -0.015320139 0.07765764
0.047510657 0.018185081 0.075839639
0.069219656 -0.014014855 0.073088288
0.068858251 -0.011437928 0.071899354
0.070279941 -0.014100147 0.067884982
0.068967901 -0.010108655 0.068021715
0.069311544 -0.00624259 0.067601562
0.07077048 -0.013665179 0.062945247
0.06980288 -0.0098611973 0.062856495
0.069381319 -0.0046860594 0.064005971
0.068936169 -0.0013967007 0.063572645
0.057667371 0.016889777 0.061925113
0.069728173 -0.0043822322 0.058495641
0.069750488 0.0039089099 0.058573961
0.061947726 0.014293963 0.057974219
0.069120742 0.0051390752 0.054300189
0.063922092 0.011560955 0.051976919
-0.017063422 -0.0052194577 0.19388184
-0.0035373624 -0.027244328 0.19320396
-0.0067574186 -0.024725266 0.19233266
-0.0081794448 -0.020320596 0.19180691
-0.0099305892 -0.015556538 0.19129696
-0.014896223 -0.0056295358 0.19239292
-0.0010188567 -0.025798328 0.19160721
-0.0031576264 -0.023305912 0.18992925
-0.0049086427 -0.019618586 0.19055817
-0.0064004054 -0.015865603 0.19041023
-0.015575492 0.035074048 0.16660348
-0.01535297 0.034366284 0.16241243
-0.011363911 0.032971203 0.15824625
-0.014271921 0.034038205 0.15765035
-0.009985744 0.032512236 0.1542123
-0.012542213 0.034120802 0.1529724
-0.0077412692 0.033225488 0.14998984
-0.0051661744 0.03322871 0.14678738
0.029081486 -0.036628418 0.14665881
-0.0026268773 0.03332755 0.14126775
0.00072125439 0.031713549 0.13763437
0.032508634 -0.032182451 0.13724095
0.031270478 -0.027877301 0.13691282
0.0034306413 0.032582998 0.13278508
0.0015372196 0.03354311 0.13078457
0.033336811 -0.032095667 0.13320577
0.030072652 -0.027694682 0.13242662
0.029434711 -0.023538349 0.13173914
0.030165339 -0.019410519 0.13176596
0.0061897589 0.033501063 0.12895334
0.0035901265 0.03423788 0.12838179
0.030048948 -0.022224057 0.12751877
0.030512441 -0.01812214 0.12585962
0.008127355 0.032341946 0.12351757
0.031291749 -0.017184712 0.12191725
0.031484082 -0.012981866 0.12172121
0.010265873 0.031260647 0.11840796
0.031447802 -0.012087308 0.11730403
0.031363104 -0.0076301098 0.11740166
0.031209631 -0.0040089991 0.11643547
0.014725162 0.031127706 0.11549711
0.011373872 0.031549551 0.11429274
0.031260274 -0.0064161802 0.11242557
0.031439647 -0.002579215 0.11273313
0.016224941 0.031573508 0.11169583
0.012958146 0.032029677 0.11054087
0.032164406 -0.0014414079 0.10780483
0.018773716 0.032379329 0.10672414
0.036478508 -0.0048887413 0.10267752
0.034912899 -0.0011713216 0.10357666
0.020857047 0.033093952 0.10438836
0.041851006 -0.012755336 0.099862039
0.040628888 -0.0095441537 0.099546373
0.039353888 -0.0049865153 0.10003459
0.038318414 -0.00040640216 0.10164738
0.025372673 0.032861602 0.09757328
0.048946753 -0.021420896 0.095741272
0.046926755 -0.017916692 0.095175266
0.044877149 -0.013244042 0.095641255
0.044039261 -0.0084928423 0.096101403
0.042851917 -0.0042243991 0.097401857
0.026908077 0.032450877 0.093571365
0.050597634 -0.020444442 0.092664719
0.050450869 -0.016551228 0.092057109
0.048444021 -0.012528339 0.092638016
0.047310874 -0.0089776162 0.09373343
0.034409411 0.025640579 0.0882411
0.027496627 0.032229308 0.088912606
0.053975619 -0.018655635 0.090067327
0.033686008 0.025212381 0.084564924
0.057350345 -0.021194695 0.08279717
0.034540899 0.025416279 0.081201315
0.042875804 0.019190922 0.075295806
0.045385823 0.018026713 0.072133303
0.04635331 0.017334975 0.06756568
0.068553954 -0.017299484 0.065916657
0.067084745 -0.018363914 0.060332119
0.069403283 -0.015390668 0.057230592
0.068574488 -0.010839932 0.056435645
0.068600506 -0.0072808266 0.056454897
0.056097429 0.016915979 0.055941164
0.068593092 -0.010623952 0.05288136
0.068338774 -0.0061782617 0.051822543
0.068659455 -0.00051729381 0.051225603
0.057802066 0.015944537 0.050386131
0.06811706 -0.0044539645 0.048580766
0.068555318 -0.0010032225 0.047612727
0.066125982 0.0087309591 0.047292411
0.069132105 -0.0002209153 0.043006063
0.066257946 0.0085122176 0.042299032
0.068958178 0.0051001143 0.039572835
-0.016798034 -0.011303624 0.19293416
-0.011175942 -0.019534335 0.19268978
-0.013247858 -0.017812006 0.19185135
-0.018943448 0.035404362 0.1598863
-0.016676284 0.035456337 0.15647799
-0.014561963 0.035377175 0.15231046
-0.012149787 0.034122102 0.14743006
-0.007987258 0.028619029 0.14305815
-0.012077877 0.032307781 0.14321563
0.027213212 -0.037746198 0.14328319
-0.0081977444 0.031884506 0.13876724
-0.0041579865 0.032239668 0.13499603
-0.0011767428 0.032560728 0.13172406
0.031377703 -0.031451859 0.12982008
0.030257825 -0.029553495 0.13016626
0.033304825 -0.032569658 0.12691236
0.03100263 -0.028292432 0.12636262
0.030033171 -0.024733648 0.12604505
0.033193067 -0.03194271 0.12145549
0.031620052 -0.028154768 0.12113184
0.031175958 -0.023174597 0.12175071
0.030968333 -0.019790797 0.12042844
0.0068435343 0.031074315 0.11670768
0.031106206 -0.023169586 0.11695057
0.030967724 -0.018486127 0.11652666
0.03141002 -0.014026514 0.11483461
0.0093375603 0.031576514 0.11191958
0.031373315 -0.017318085 0.11176574
0.03179517 -0.012634981 0.11136454
0.03118821 -0.0089235175 0.11087525
0.013359601 0.032096714 0.10785276
0.033596911 -0.015997281 0.1059069
0.033230506 -0.012565191 0.10642469
0.032667186 -0.0074703768 0.10667837
0.031782337 -0.0043018246 0.10683584
0.013237523 0.031921212 0.10373503
0.037570916 -0.016069029 0.10222661
0.036921557 -0.011182208 0.10275859
0.035233136 -0.0071583269 0.10323131
0.033538532 -0.0037011076 0.10422432
0.017993912 0.031835131 0.099054873
0.013490811 0.031896289 0.099899948
0.042761739 -0.023240808 0.096862316
0.041517381 -0.01974182 0.098086715
0.041313533 -0.015729014 0.098727822
0.039527513 -0.011964972 0.10040569
0.019528657 0.032293871 0.095243394
0.046656884 -0.023285393 0.096628547
0.044589985 -0.018888559 0.096257329
0.04330676 -0.015907401 0.096090794
0.022246111 0.032325979 0.091169238
0.023905624 0.031923249 0.086205721
0.050503638 -0.022322223 0.085526049
0.02968107 0.03051303 0.081979632
0.027915239 0.031607915 0.082987249
0.034389883 0.025231205 0.077988803
0.028524879 0.031718574 0.079405546
0.034700058 0.025201963 0.074129522
0.042557623 0.018835925 0.07018733
0.034389883 0.02490739 0.069715381
0.040369965 0.020146439 0.066813827
0.067351744 -0.01837475 0.058469534
0.069044024 -0.017284412 0.05459702
0.050109006 0.018149763 0.052135706
0.069426268 -0.01556018 0.051242113
0.068750344 -0.011552623 0.049924016
0.069887578 -0.01452353 0.045997262
0.069300488 -0.011250986 0.045439422
0.068613157 -0.0063936543 0.046059668
0.057851244 0.015359789 0.043992281
0.070458367 -0.014523726 0.042264044
0.069755144 -0.010997437 0.040846109
0.069440678 -0.0059000123 0.041116834
0.069479525 -0.0019851513 0.040664315
0.059449419 0.015024927 0.039323211
0.06903965 -0.0065515451 0.037165523
0.069571294 -0.00079821609 0.0364483
0.067046873 0.008774111 0.036393166
0.060257159 0.014446293 0.035178542
0.069130555 0.0040803943 0.031568408
0.064918548 0.011746113 0.030840397
-0.010352899 0.032198381 0.13158697
-0.0020632055 0.033708062 0.12255883
-0.00052045286 0.030697661 0.11893606
-0.0020142943 0.031891789 0.11920488
0.032842115 -0.033397175 0.11849862
0.031520557 -0.030417236 0.11830407
-0.00045028701 0.030607387 0.11498851
0.031698797 -0.033292107 0.11475843
0.030316221 -0.029488098 0.11371833
0.030014608 -0.024718117 0.1131506
0.0060224067 0.031185303 0.11154348
0.030555626 -0.028803686 0.10904199
0.030662069 -0.024244417 0.10920829
0.031189643 -0.019915141 0.11011559
0.0079747494 0.031781442 0.10704273
0.031929266 -0.023476502 0.10453784
0.032027166 -0.019018572 0.10540676
0.031601749 -0.015076741 0.10607255
0.0073540676 0.031379543 0.10150325
0.034884136 -0.022033576 0.10063612
0.035045609 -0.019151151 0.10246867
0.011821472 0.031128258 0.0955109
0.0383563 -0.025880864 0.096077442
0.03724122 -0.023300972 0.097278595
0.04115786 -0.026875596 0.093779445
0.018236101 0.031571291 0.088071644
0.018649209 0.031672809 0.086367249
0.020763824 0.030534901 0.080488026
0.027242137 0.031118872 0.076248348
0.026137155 0.030520838 0.071156085
0.033200115 0.024064844 0.066516995
0.037741363 0.020687945 0.062873602
0.041571926 0.018623848 0.061125576
0.035362884 0.023091661 0.058588386
0.042214654 0.019008044 0.053941548
0.043777771 0.018995661 0.04942596
0.067419827 -0.01741082 0.046286345
0.050456833 0.016573474 0.0404284
0.070344985 -0.014805101 0.038924575
0.069568992 -0.01337358 0.038714767
0.069942445 -0.015312189 0.034201503
0.068647116 -0.012058517 0.034377098
0.068248615 -0.0074671991 0.033901453
0.068513192 -0.010826519 0.03012228
0.067876473 -0.0069653224 0.029349446
0.068262704 -0.0026022699 0.029592752
0.062571213 0.013343986 0.029358327
0.06810087 -0.001775464 0.024734199
0.065890729 0.0073482394 0.023914099
0.069053739 -0.00039384514 0.020976901
0.066844881 0.0069408733 0.019959688
-0.015789008 0.032445464 0.1340588
-0.016011901 0.033497255 0.12949839
-0.010147378 0.031678531 0.12568682
-0.013470474 0.03375122 0.12458247
-0.0083543714 0.031912036 0.12063533
-0.012537792 0.033313911 0.12151748
-0.0021976642 0.029974179 0.11566037
-0.0053009694 0.032343458 0.11652368
-0.0010166969 0.030293921 0.1115396
-0.0037516812 0.031918533 0.11207438
-0.0067645856 0.033415861 0.11139792
0.031251308 -0.033744246 0.11134601
0.00068833213 0.03079153 0.10680926
-0.0031385403 0.031147743 0.10779846
0.031529039 -0.033399068 0.10810483
0.031304467 -0.030204095 0.10741305
0.0032120766 0.031643607 0.10372221
-0.00010538567 0.032155275 0.10357469
0.032046661 -0.033669338 0.10319155
0.03217081 -0.029152662 0.10328442
0.032200649 -0.025781587 0.10286874
0.0053971009 0.031450603 0.099152505
0.0036828062 0.031620655 0.09698379
0.033213921 -0.029052561 0.097973108
0.033573825 -0.025437277 0.098867893
0.0061176755 0.03073024 0.09543401
0.037730571 -0.028343363 0.095013261
0.010384548 0.030420901 0.090261996
0.010928757 0.030446555 0.084542215
0.016977629 0.030927168 0.082922757
0.021897033 0.030549562 0.067974091
0.028313193 0.029360486 0.064234138
0.025836116 0.030644521 0.065285563
0.030493528 0.026779559 0.060787141
0.027389223 0.029540947 0.059420466
0.031576898 0.026575463 0.055837929
0.028754042 0.029210303 0.055166185
0.035348438 0.022840729 0.052452445
0.039986495 0.019634916 0.048172474
0.043162465 0.018962072 0.044197321
0.065904364 -0.01850052 0.040516675
0.043496057 0.018448282 0.039563775
0.066345215 -0.018422203 0.038784027
0.068121113 -0.018180108 0.030755758
0.069056801 -0.014078988 0.031714439
0.05166661 0.016016696 0.030651689
0.070017822 -0.016571051 0.02855593
0.068183556 -0.013291579 0.027810037
0.068082124 -0.0088338479 0.026813149
0.052834637 0.016291825 0.026368558
0.066910051 -0.011932548 0.024158835
0.067715481 -0.0076717734 0.023150206
0.06833744 -0.0036186464 0.02221936
0.057688192 0.014077363 0.022266746
0.067610055 -0.0065431483 0.01889497
0.068820976 -0.0024493672 0.018341482
0.062106457 0.010511877 0.017540812
0.075879976 -0.012186719 0.014505386
0.068659112 -0.0018338319 0.014801741
0.066873252 0.0072193891 0.013972044
0.06805779 0.003042141 0.010420799
-0.01575328 0.033992767 0.12553364
-0.0135761 0.032850835 0.11823982
-0.010518522 0.033003811 0.11480063
-0.0076623205 0.03306713 0.11071366
-0.0048376019 0.031627569 0.10558236
-0.0077813463 0.032885976 0.10555935
-0.0046495823 0.032140728 0.10044599
0.00042723212 0.032190997 0.097890019
0.031726968 -0.03361446 0.097575366
0.032163799 -0.031611606 0.097360969
0.0045728497 0.030049903 0.092147827
0.0024387576 0.032089151 0.092775702
0.033431564 -0.033032168 0.094852507
0.0046825418 0.02996856 0.088125944
0.0033506146 0.032106295 0.087713301
0.0066695074 0.030575659 0.083557725
0.0053195516 0.03227704 0.083531737
0.010617647 0.030753739 0.079271793
0.0069419192 0.032340296 0.080095351
0.016525354 0.028696189 0.073801577
0.012162478 0.030621026 0.075216472
0.017296094 0.028907618 0.071331084
0.013605419 0.029948357 0.070314288
0.017772846 0.028998462 0.068605304
0.015546502 0.030424964 0.065935016
0.021375429 0.030125894 0.06123215
0.017202578 0.030344529 0.062298536
0.02314483 0.030118119 0.058409333
0.026057081 0.030164178 0.052993119
0.031499922 0.026733264 0.049010575
0.028844818 0.029717583 0.048454583
0.034752384 0.022318935 0.045316458
0.029129613 0.030015802 0.04369843
0.03515587 0.021705721 0.040876329
0.030982688 0.029576749 0.041232347
0.046575241 0.017584343 0.032254457
0.048131131 0.01713321 0.028061986
0.04973229 0.016675416 0.023360074
0.067845568 -0.017672049 0.022458255
0.066444553 -0.014167735 0.02092284
0.067112826 -0.01027018 0.020543218
0.051801793 0.015516045 0.01881659
0.066424668 -0.014008505 0.016634822
0.067079313 -0.0092732906 0.016198754
0.056317825 0.013364448 0.014684856
0.067947425 -0.0081611723 0.011409104
0.068166688 -0.0037222579 0.011973321
0.057629138 0.013368412 0.0096515417
0.07253734 -0.011287821 0.009726882
-0.016290905 0.033538777 0.11510688
-0.016312625 0.032516196 0.10982877
-0.013948747 0.032852877 0.10643941
-0.011462197 0.03371235 0.10195464
-0.009265135 0.03284375 0.097849607
-0.0052704043 0.031727955 0.093815386
-0.0082169846 0.03241707 0.093982995
-0.0023250701 0.032712158 0.08998996
-0.00093263946 0.033087239 0.084914267
0.0024809455 0.033365883 0.081256509
0.0053201728 0.032693122 0.076534986
0.0093624247 0.031211827 0.071242213
0.0063732043 0.032331284 0.071929395
0.01089798 0.030808223 0.068121314
0.013249535 0.031024814 0.06368053
0.015940204 0.030825023 0.058962703
0.021221478 0.029851496 0.054763138
0.018474121 0.030589052 0.054956079
0.023683771 0.030650694 0.050581574
0.020275526 0.031117527 0.050174713
0.024904583 0.031010531 0.047417164
0.025392413 0.030997371 0.041446149
0.032916069 0.025467221 0.038049519
0.029068271 0.03050282 0.037847936
0.03242654 0.026508089 0.033247888
0.040685382 0.020448761 0.029349029
0.041884806 0.019886291 0.025874317
0.047517538 0.017468045 0.021211028
0.04743395 0.015892372 0.01687324
0.064829499 -0.018952893 0.01481998
0.06564448 -0.016216803 0.013832569
0.066505373 -0.013945749 0.010201812
0.06756898 -0.010755748 0.0099495649
-0.018168859 0.032668971 0.10761559
-0.016101958 0.033360172 0.10510832
-0.017046999 0.03468366 0.10071731
-0.011489715 0.034366757 0.095767677
-0.014800084 0.035393052 0.096292973
-0.010114631 0.033793122 0.091772676
-0.013417948 0.035797343 0.092223167
-0.009384077 0.033086982 0.087474942
-0.0066934093 0.033883713 0.083431602
-0.0048203841 0.033215191 0.077010632
-0.0011914438 0.032727364 0.075345755
0.002741022 0.032218248 0.068715096
0.0084164478 0.030672258 0.065195382
0.0064804442 0.031755731 0.06613332
0.0085305506 0.03241786 0.062607646
0.0097432174 0.030915221 0.056814492
0.01294682 0.030810205 0.052896798
0.01308502 0.030130316 0.048582017
0.018500727 0.030219857 0.04324472
0.018894348 0.03024132 0.039297163
0.026901826 0.031331766 0.034219205
0.032392051 0.024368269 0.030183673
0.027436545 0.029605508 0.029863
0.032105796 0.025935931 0.027189493
0.035940871 0.022416802 0.023276091
0.041048694 0.019238794 0.018511176
0.04525315 0.016256317 0.014609337
0.064256564 -0.019481426 0.010899723
0.043383725 0.017053988 0.0089150667
0.064844847 -0.017529914 0.008736968
-0.01820538 0.03588796 0.094079614
-0.014021861 0.03549327 0.088650227
-0.012533871 0.034143027 0.084200799
-0.014557111 0.03519024 0.084071636
-0.0096687526 0.034217529 0.081064105
-0.0089699626 0.032847926 0.075677395
-0.0020970302 0.032284979 0.071457148
-0.002757756 0.031938165 0.067749798
0.00075005926 0.031309605 0.062822163
0.00075545255 0.031190513 0.05858171
0.0063489377 0.031359397 0.054368973
0.0088598672 0.03033255 0.048579812
0.0077647651 0.031798854 0.05133003
0.012584738 0.029826507 0.044923186
0.013160843 0.029958636 0.042208195
0.018648952 0.030036135 0.035835743
0.018432932 0.029842434 0.032385707
0.023727478 0.029879011 0.026942134
0.025691846 0.028727837 0.023870707
0.027002813 0.028831705 0.019708633
0.031792395 0.025118653 0.015392184
0.028098136 0.028769303 0.015719593
0.0350569 0.02071372 0.011342883
-0.012682773 0.033904884 0.07677114
-0.015750008 0.034635764 0.078947604
-0.010905588 0.032679312 0.0735569
-0.014530694 0.034073405 0.074455857
-0.008293868 0.031748679 0.069966912
-0.0071986485 0.032035105 0.065585077
-0.0040413011 0.031316876 0.062447011
-0.0055703204 0.031859368 0.058999062
-0.00088746287 0.031447105 0.057428002
-0.0027796114 0.031577867 0.054989696
0.00097595248 0.031125598 0.053436816
0.0058966987 0.03098944 0.047560215
0.008200964 0.029936478 0.043703198
0.0055821287 0.030736635 0.042977214
0.0099684466 0.029575717 0.039622366
0.0069039883 0.030194763 0.038486123
0.012895813 0.029647278 0.035484195
0.01273716 0.029377539 0.028806508
0.0163575 0.028816864 0.02502811
0.021606229 0.028895058 0.021685541
0.018619582 0.029458173 0.018334627
0.024651432 0.02989468 0.01685071
0.021286957 0.030408174 0.016426027
0.026140243 0.029238377 0.012638211
0.022797763 0.030812716 0.011221468
0.030647343 0.025286783 0.008759141
-0.016274968 0.033647645 0.07065779
-0.014594062 0.031114886 0.065254092
-0.016909221 0.03253914 0.065532088
-0.012492642 0.031792369 0.06166482
-0.014415984 0.033782765 0.060776591
-0.009487927 0.032187603 0.057604551
-0.011367906 0.033833452 0.054523945
-0.0060589639 0.032139421 0.053755522
-0.0017763218 0.029942583 0.047849953
-0.0044535659 0.030800575 0.049268901
-0.00034272484 0.030387893 0.044776022
-0.003916678 0.03086306 0.044335842
0.0026170928 0.031377163 0.040875077
9.7981654e-05 0.032235764 0.040251851
0.004893343 0.030623753 0.035536647
0.00053813308 0.032319341 0.037380517
0.006131961 0.03025886 0.032077432
0.0079031512 0.029794764 0.027808309
0.011950687 0.028885733 0.022604108
0.0095906816 0.029866418 0.024272561
0.014836583 0.028970968 0.019494593
0.015618157 0.030030021 0.014965892
0.017527897 0.030563131 0.0089920163
-0.019887775 0.034676552 0.067631245
-0.01813766 0.034013972 0.063788176
-0.018473854 0.035018288 0.060265541
-0.018917371 0.03662654 0.058229089
-0.012264164 0.03177112 0.057581961
-0.014832502 0.034424488 0.056032658
-0.0099716717 0.032467354 0.051998258
-0.012720425 0.03417287 0.051474869
-0.0089753233 0.031495836 0.047131598
-0.012514058 0.033231847 0.047092438
-0.0058915638 0.031018186 0.043419123
-0.0041849641 0.031802487 0.037921429
-0.0012749527 0.032156274 0.033771396
0.003380538 0.031338301 0.029574037
0.00023537874 0.031958729 0.028372705
0.0043429127 0.030818092 0.024304271
0.0076760771 0.030561177 0.020761907
0.013230644 0.029163208 0.016060114
0.0088039692 0.029939178 0.016368508
0.01545692 0.029859807 0.011486351
0.017169844 0.030417327 0.0086529851
-0.016334251 0.034620468 0.048912942
-0.011886947 0.031557284 0.043885171
-0.015177048 0.033396896 0.04370749
-0.010581765 0.031311896 0.03940475
-0.014099254 0.032486212 0.040308416
-0.0087412912 0.031580795 0.035455346
-0.0052888459 0.031804871 0.030563712
-0.004343038 0.032058261 0.02700609
-0.00077142008 0.032347884 0.022775888
0.004187081 0.031313144 0.01818949
0.0013455842 0.032092627 0.018342435
0.005225095 0.03098507 0.014524519
0.0078141373 0.029498789 0.0099977255
-0.019119725 0.034328461 0.040278792
-0.016009154 0.033095162 0.037403822
-0.018250827 0.035481818 0.036896765
-0.012502261 0.031093985 0.034626663
-0.014677164 0.032999374 0.03239727
-0.016997596 0.035534583 0.032775283
-0.010032631 0.031856313 0.029090941
-0.011887865 0.032986835 0.027973652
-0.008413204 0.032316204 0.02390486
-0.010536291 0.032445963 0.023383379
-0.0044805515 0.032781504 0.021622717
-0.0034752367 0.032073833 0.015602827
0.0031789476 0.030721152 0.010587454
-0.00059810746 0.031201627 0.01211822
-0.014767397 0.033757057 0.027062654
-0.016479043 0.034956481 0.026077032
-0.013667998 0.033429377 0.022323489
-0.014897358 0.03548288 0.024144411
-0.010005219 0.032962497 0.017876863
-0.008399142 0.032064356 0.013904691
-0.016249467 0.033003561 0.017982364
-0.01285604 0.032199312 0.010411382
