# .PCD v0.7 - Point Cloud Data file format
VERSION 0.7
FIELDS x y z
SIZE 4 4 4
TYPE F F F
COUNT 1 1 1
WIDTH 1327
HEIGHT 1
VIEWPOINT 0 0 0 1 0 0 0
POINTS 1327
DATA ascii
0.021733359 -0.041309766 0.18234862
0.019976616 -0.041176841 0.18410537
0.021733359 -0.040996917 0.18410537
0.023490101 -0.0411359 0.17883514
0.025246851 -0.040761232 0.17883514
0.023490101 -0.041166171 0.18059188
0.025246851 -0.040780522 0.18059188
0.026022099 -0.040555477 0.17883514
0.026212551 -0.040555477 0.18059188
0.027003594 -0.040277198 0.17883514
0.028760329 -0.039723851 0.17883514
0.027003594 -0.040347263 0.18059188
0.028760329 -0.039798416 0.18059188
0.023490101 -0.041078746 0.18234862
0.025246851 -0.04071454 0.18234862
0.023490101 -0.040774435 0.18410537
0.02458591 -0.040555477 0.18410537
0.025246851 -0.040555477 0.18333957
0.025969639 -0.040555477 0.18234862
0.025246851 -0.040396668 0.18410537
0.027003594 -0.040284149 0.18234862
0.028760329 -0.039790183 0.18234862
0.027003594 -0.039973326 0.18410537
0.028760329 -0.039537773 0.18410537
0.030517071 -0.038883016 0.17180817
0.03074488 -0.038798735 0.17180817
0.032273814 -0.038170896 0.17180817
0.030517071 -0.038897596 0.17356491
0.030760527 -0.038798735 0.17356491
0.032273814 -0.038154244 0.17356491
0.034030572 -0.037360847 0.17180817
0.03467527 -0.037041992 0.17180817
0.034030572 -0.037328728 0.17356491
0.03459467 -0.037041992 0.17356491
0.030517071 -0.038928062 0.17532165
0.030828759 -0.038798735 0.17532165
0.032273814 -0.038176291 0.17532165
0.030517071 -0.038975954 0.1770784
0.030943185 -0.038798735 0.1770784
0.032273814 -0.038211577 0.1770784
0.034030572 -0.03735055 0.17532165
0.034634545 -0.037041992 0.17532165
0.034030572 -0.037353508 0.1770784
0.034613729 -0.037041992 0.1770784
0.035787314 -0.036461264 0.17180817
0.035787314 -0.036328092 0.17356491
0.035787314 -0.036287285 0.17532165
0.035787314 -0.036297597 0.1770784
0.037544057 -0.035469867 0.17180817
0.037839442 -0.035285249 0.17180817
0.039300799 -0.034324482 0.17180817
0.037369028 -0.035285249 0.17356491
0.037544057 -0.035285249 0.17282827
0.037544057 -0.035161063 0.17356491
0.039300799 -0.033728257 0.17356491
0.040438488 -0.033528507 0.17180817
0.041057542 -0.033528507 0.17078358
0.039527684 -0.033528507 0.17356491
0.041057542 -0.033052839 0.17180817
0.042474195 -0.031771764 0.17180817
0.042814285 -0.031771764 0.17135359
0.042814285 -0.031432122 0.17180817
0.041057542 -0.032008529 0.17356491
0.041260555 -0.031771764 0.17356491
0.042574719 -0.030015022 0.17356491
0.042814285 -0.030015022 0.1732447
0.03707312 -0.035285249 0.17532165
0.037544057 -0.034887314 0.17532165
0.038914427 -0.033528507 0.17532165
0.039300799 -0.033528507 0.17414318
0.036966309 -0.035285249 0.1770784
0.037544057 -0.034663506 0.1770784
0.038454562 -0.033528507 0.1770784
0.039300799 -0.033100277 0.17532165
0.039300799 -0.032297298 0.1770784
0.040371463 -0.031771764 0.17532165
0.041057542 -0.031771764 0.17392088
0.041057542 -0.030672505 0.17532165
0.041402951 -0.030015022 0.17532165
0.039639592 -0.031771764 0.1770784
0.040509 -0.030015022 0.1770784
0.041057542 -0.030015022 0.17595729
0.030517071 -0.039069533 0.17883514
0.0311656 -0.038798735 0.17883514
0.032273814 -0.038319759 0.17883514
0.030517071 -0.039169401 0.18059188
0.031362548 -0.038798735 0.18059188
0.032273814 -0.0384188 0.18059188
0.034030572 -0.037444562 0.17883514
0.03468737 -0.037041992 0.17883514
0.034030572 -0.037541799 0.18059188
0.034692362 -0.037041992 0.18059188
0.030517071 -0.039139815 0.18234862
0.031232357 -0.038798735 0.18234862
0.032273814 -0.038323037 0.18234862
0.030517071 -0.038869902 0.18410537
0.03067717 -0.038798735 0.18410537
0.032273814 -0.038054705 0.18410537
0.034030572 -0.037385039 0.18234862
0.034461841 -0.037041992 0.18234862
0.03385821 -0.037041992 0.18410537
0.034030572 -0.037041992 0.18369758
0.035787314 -0.036279626 0.17883514
0.035787314 -0.036122054 0.18059188
0.035787314 -0.035708688 0.18234862
0.034030572 -0.036900029 0.18410537
0.035452053 -0.035285249 0.18410537
0.035787314 -0.035285249 0.18329699
0.035787314 -0.034805998 0.18410537
0.036814243 -0.035285249 0.17883514
0.037544057 -0.034308314 0.17883514
0.038030982 -0.033528507 0.17883514
0.036564827 -0.035285249 0.18059188
0.037544057 -0.033680148 0.18059188
0.03761524 -0.033528507 0.18059188
0.038969427 -0.031771764 0.17883514
0.039300799 -0.031771764 0.17795473
0.039300799 -0.031088784 0.17883514
0.038393602 -0.031771764 0.18059188
0.039066851 -0.030015022 0.18059188
0.039300799 -0.030015022 0.17988868
0.039721027 -0.030015022 0.17883514
0.036140889 -0.035285249 0.18234862
0.037119672 -0.033528507 0.18234862
0.037544057 -0.033528507 0.18090616
0.036526293 -0.033528507 0.18410537
0.037544057 -0.03257747 0.18234862
0.037891313 -0.031771764 0.18234862
0.038493589 -0.030015022 0.18234862
0.037242785 -0.031771764 0.18410537
0.037544057 -0.031771764 0.1833123
0.037544057 -0.030945979 0.18410537
0.037824392 -0.030015022 0.18410537
0.044571027 -0.034157254 0.15775423
0.04632777 -0.033543825 0.15775423
0.04632777 -0.033528507 0.15744086
0.044571027 -0.034225024 0.15951097
0.04632777 -0.033580303 0.15951097
0.046371937 -0.033528507 0.15775423
0.046468213 -0.033528507 0.15951097
0.048084512 -0.03291323 0.15775423
0.049841255 -0.032261133 0.15775423
0.048084512 -0.032950118 0.15951097
0.049841255 -0.032303758 0.15951097
0.044571027 -0.034180574 0.16126771
0.046322569 -0.033528507 0.16126771
0.04632777 -0.033528507 0.16123086
0.044571027 -0.0339863 0.16302446
0.045811534 -0.033528507 0.16302446
0.04632777 -0.033526503 0.16126771
0.04632777 -0.033334598 0.16302446
0.048084512 -0.032854825 0.16126771
0.049841255 -0.032137699 0.16126771
0.048084512 -0.032599948 0.16302446
0.049841255 -0.031803131 0.16302446
0.051094383 -0.031771764 0.15775423
0.051597998 -0.031547017 0.15775423
0.05335474 -0.030685075 0.15775423
0.051116243 -0.031771764 0.15951097
0.051597998 -0.031555258 0.15951097
0.05335474 -0.030675858 0.15951097
0.054548502 -0.030015022 0.15775423
0.05446212 -0.030015022 0.15951097
0.050666437 -0.031771764 0.16126771
0.051597998 -0.031341203 0.16126771
0.05335474 -0.03043548 0.16126771
0.049908176 -0.031771764 0.16302446
0.051597998 -0.030940175 0.16302446
0.053354219 -0.030015022 0.16302446
0.05335474 -0.030015022 0.16302358
0.054103151 -0.030015022 0.16126771
0.044571027 -0.033673041 0.1647812
0.044928104 -0.033528507 0.1647812
0.043875933 -0.033528507 0.16653794
0.044571027 -0.033528507 0.16543508
0.04632777 -0.032948248 0.1647812
0.044571027 -0.033206902 0.16653794
0.04632777 -0.032331623 0.16653794
0.048084512 -0.032129407 0.1647812
0.048822373 -0.031771764 0.1647812
0.049841255 -0.031771764 0.16314688
0.049841255 -0.031256475 0.1647812
0.047423542 -0.031771764 0.16653794
0.048084512 -0.031771764 0.16576061
0.048084512 -0.031405516 0.16653794
0.049841255 -0.030361518 0.16653794
0.044571027 -0.032404453 0.16829468
0.045617551 -0.031771764 0.16829468
0.04632777 -0.031771764 0.1676552
0.04632777 -0.031352594 0.16829468
0.043899775 -0.031771764 0.17005143
0.044571027 -0.031771764 0.16931745
0.044571027 -0.031241126 0.17005143
0.046077818 -0.030015022 0.17005143
0.04632777 -0.030015022 0.1698595
0.048084512 -0.030191697 0.16829468
0.048341259 -0.030015022 0.16829468
0.049841255 -0.030015022 0.16705638
0.048084512 -0.030015022 0.16850041
0.051597998 -0.030284837 0.1647812
0.052097127 -0.030015022 0.1647812
0.050465882 -0.030015022 0.16653794
0.051597998 -0.030015022 0.16538748
0.044095799 -0.030015022 0.17180817
0.044571027 -0.030015022 0.17135862
0.042814285 -0.02963578 0.17356491
0.042243332 -0.028258272 0.17532165
0.042814285 -0.028258272 0.1745377
0.042814285 -0.026727945 0.17532165
0.041057542 -0.028456122 0.1770784
0.041123196 -0.028258272 0.1770784
0.041659415 -0.026501529 0.1770784
0.042814285 -0.026501529 0.17541657
0.041901186 -0.024744786 0.1770784
0.042814285 -0.024744786 0.1758361
0.041972443 -0.022988044 0.1770784
0.042814285 -0.022988044 0.17605634
0.04210043 -0.021231301 0.1770784
0.042814285 -0.021231301 0.17628454
0.04226172 -0.019474559 0.1770784
0.042814285 -0.019474559 0.1765029
0.042394772 -0.017717816 0.1770784
0.042814285 -0.017717816 0.17668146
0.042419881 -0.015961073 0.1770784
0.042814285 -0.015961073 0.17670849
0.039300799 -0.029257149 0.18059188
0.040245697 -0.028258272 0.17883514
0.041057542 -0.028258272 0.17719176
0.040680513 -0.026501529 0.17883514
0.041057542 -0.026501529 0.17810136
0.039568454 -0.028258272 0.18059188
0.039946631 -0.026501529 0.18059188
0.040851101 -0.024744786 0.17883514
0.041057542 -0.024744786 0.17846015
0.040868089 -0.022988044 0.17883514
0.041057542 -0.022988044 0.17849438
0.040063322 -0.024744786 0.18059188
0.04002291 -0.022988044 0.18059188
0.03888391 -0.028258272 0.18234862
0.039300799 -0.028258272 0.18129593
0.039217368 -0.026501529 0.18234862
0.039300799 -0.026501529 0.18215512
0.038240388 -0.028258272 0.18410537
0.038492396 -0.026501529 0.18410537
0.039300799 -0.026059046 0.18234862
0.038502127 -0.024744786 0.18410537
0.039300799 -0.024744786 0.18253477
0.038471445 -0.022988044 0.18410537
0.039300799 -0.022988044 0.18239205
0.039382309 -0.024744786 0.18234862
0.039318219 -0.022988044 0.18234862
0.040865764 -0.021231301 0.17883514
0.041057542 -0.021231301 0.17852575
0.040885374 -0.019474559 0.17883514
0.041057542 -0.019474559 0.17858347
0.039980963 -0.021231301 0.18059188
0.039921492 -0.019474559 0.18059188
0.040945083 -0.017717816 0.17883514
0.041057542 -0.017717816 0.1786736
0.040935069 -0.015961073 0.17883514
0.041057542 -0.015961073 0.17866327
0.039913133 -0.017717816 0.18059188
0.039875388 -0.015961073 0.18059188
0.0392396 -0.021231301 0.18234862
0.039300799 -0.02239392 0.18234862
0.039300799 -0.021231301 0.18221609
0.03916128 -0.019474559 0.18234862
0.039300799 -0.019474559 0.18204173
0.038385972 -0.021231301 0.18410537
0.038296461 -0.019474559 0.18410537
0.039103001 -0.017717816 0.18234862
0.039300799 -0.017717816 0.18192872
0.038980618 -0.015961073 0.18234862
0.039300799 -0.015961073 0.18173128
0.038175195 -0.017717816 0.18410537
0.038105488 -0.015961073 0.18410537
0.042429447 -0.014204331 0.1770784
0.042814285 -0.014204331 0.17670627
0.042393073 -0.012447588 0.1770784
0.042814285 -0.012447588 0.17667259
0.042428091 -0.010690838 0.1770784
0.042814285 -0.010690838 0.17670821
0.042488411 -0.0089340955 0.1770784
0.042814285 -0.0089340955 0.1767635
0.042574167 -0.0071773529 0.1770784
0.042814285 -0.0071773529 0.17683558
0.042707086 -0.0054206103 0.1770784
0.042814285 -0.0054206103 0.17696767
0.042814285 -0.0037602037 0.1770784
0.040934399 -0.014204331 0.17883514
0.041057542 -0.014204331 0.17867178
0.040885955 -0.012447588 0.17883514
0.041057542 -0.012447588 0.17860155
0.039798781 -0.014204331 0.18059188
0.039731905 -0.012447588 0.18059188
0.04090862 -0.010690838 0.17883514
0.041057542 -0.010690838 0.17863537
0.040962249 -0.0089340955 0.17883514
0.041057542 -0.0089340955 0.1787069
0.039750323 -0.010690838 0.18059188
0.039776817 -0.0089340955 0.18059188
0.038892105 -0.014204331 0.18234862
0.039300799 -0.014204331 0.18153839
0.03874521 -0.012447588 0.18234862
0.039300799 -0.012447588 0.1813288
0.03801693 -0.014204331 0.18410537
0.037853315 -0.012447588 0.18410537
0.03869015 -0.010690838 0.18234862
0.039300799 -0.010690838 0.18136069
0.038722873 -0.0089340955 0.18234862
0.039300799 -0.0089340955 0.18141465
0.037794843 -0.010690838 0.18410537
0.037793964 -0.0089340955 0.18410537
0.041052803 -0.0071773529 0.17883514
0.041057542 -0.0071773529 0.17882907
0.041057542 -0.0071409494 0.17883514
0.04122746 -0.0054206103 0.17883514
0.039866835 -0.0071773529 0.18059188
0.040043965 -0.0054206103 0.18059188
0.041057542 -0.0054206103 0.17906916
0.041346401 -0.0036638677 0.17883514
0.042814285 -0.0036638677 0.17708804
0.041582882 -0.0019071251 0.17883514
0.042814285 -0.0019071251 0.17730275
0.040234134 -0.0036638677 0.18059188
0.041057542 -0.0036638677 0.17925088
0.040526167 -0.0019071251 0.18059188
0.041057542 -0.0019071251 0.17961814
0.038827077 -0.0071773529 0.18234862
0.039300799 -0.0071773529 0.18156822
0.03896217 -0.0054206103 0.18234862
0.039300799 -0.0054206103 0.1818286
0.037923023 -0.0071773529 0.18410537
0.038169533 -0.0054206103 0.18410537
0.039258733 -0.0036638677 0.18234862
0.039300799 -0.0036638677 0.18227741
0.039300799 -0.0035336092 0.18234862
0.038409844 -0.0036638677 0.18410537
0.03865318 -0.0019071251 0.18410537
0.039300799 -0.0019071251 0.18287186
0.039613008 -0.0019071251 0.18234862
0.055111483 -0.029659256 0.15775423
0.056868225 -0.028486118 0.15775423
0.055111483 -0.029583499 0.15951097
0.056868225 -0.028394453 0.15951097
0.05335474 -0.030014738 0.16302446
0.055111483 -0.029370688 0.16126771
0.056785926 -0.028258272 0.16126771
0.056868225 -0.028258272 0.16075431
0.056868225 -0.028202288 0.16126771
0.055111483 -0.028976992 0.16302446
0.056193143 -0.028258272 0.16302446
0.056868225 -0.027797699 0.16302446
0.04632777 -0.029817715 0.17005143
0.049841255 -0.028986007 0.16829468
0.048084512 -0.02829352 0.17005143
0.048125803 -0.028258272 0.17005143
0.049841255 -0.028258272 0.16897495
0.049841255 -0.026708469 0.17005143
0.05335474 -0.029324882 0.1647812
0.051597998 -0.029355347 0.16653794
0.05335474 -0.028270938 0.16653794
0.05509308 -0.028258272 0.1647812
0.055111483 -0.028258272 0.16475576
0.055111483 -0.028246053 0.1647812
0.056868225 -0.026967242 0.1647812
0.053374618 -0.028258272 0.16653794
0.055111483 -0.02704671 0.16653794
0.055859342 -0.026501529 0.16653794
0.056868225 -0.026501529 0.1655245
0.056868225 -0.025681794 0.16653794
0.050896734 -0.028258272 0.16829468
0.051597998 -0.028258272 0.1678517
0.05335474 -0.028258272 0.1665547
0.051597998 -0.027769431 0.16829468
0.053333655 -0.026501529 0.16829468
0.05335474 -0.026501529 0.16828352
0.050037578 -0.026501529 0.17005143
0.051597998 -0.026501529 0.16918316
0.055111483 -0.026501529 0.1671242
0.05335474 -0.026486963 0.16829468
0.051597998 -0.025012054 0.17005143
0.051943481 -0.024744786 0.17005143
0.05335474 -0.024744786 0.16941977
0.05335474 -0.023474738 0.17005143
0.055111483 -0.025137067 0.16829468
0.055579528 -0.024744786 0.16829468
0.056868225 -0.024744786 0.16740027
0.056868225 -0.023470804 0.16829468
0.055111483 -0.024744786 0.16854775
0.053923979 -0.022988044 0.17005143
0.055111483 -0.022988044 0.16952768
0.056868225 -0.022988044 0.16856019
0.055111483 -0.021819204 0.17005143
0.055510134 -0.021231301 0.17005143
0.056868225 -0.021231301 0.16931468
0.056562483 -0.019474559 0.17005143
0.056868225 -0.019474559 0.16988036
0.056868225 -0.018717945 0.17005143
0.057175249 -0.028258272 0.15775423
0.058624968 -0.027085714 0.15775423
0.059296668 -0.026501529 0.15775423
0.057053655 -0.028258272 0.15951097
0.058624968 -0.026968993 0.15951097
0.059151456 -0.026501529 0.15951097
0.060381711 -0.02539403 0.15775423
0.060381711 -0.025262572 0.15951097
0.060935065 -0.024744786 0.15775423
0.062138453 -0.023095973 0.15775423
0.062204689 -0.022988044 0.15775423
0.060832873 -0.024744786 0.15951097
0.062138453 -0.022997975 0.15951097
0.062144965 -0.022988044 0.15951097
0.058624968 -0.026794977 0.16126771
0.058944136 -0.026501529 0.16126771
0.058489963 -0.026501529 0.16302446
0.058624968 -0.026501529 0.16266975
0.060381711 -0.025016427 0.16126771
0.058624968 -0.026377492 0.16302446
0.060206175 -0.024744786 0.16302446
0.060381711 -0.024744786 0.16244113
0.060381711 -0.024542831 0.16302446
0.060612708 -0.024744786 0.16126771
0.061970755 -0.022988044 0.16126771
0.062138453 -0.022988044 0.15960579
0.061552674 -0.022988044 0.16302446
0.063168168 -0.021231301 0.15775423
0.063895196 -0.019800246 0.15775423
0.06313926 -0.021231301 0.15951097
0.063895196 -0.019672036 0.15951097
0.062138453 -0.022747383 0.16126771
0.062994212 -0.021231301 0.16126771
0.063772976 -0.019474559 0.16126771
0.063895196 -0.019474559 0.16036871
0.062138453 -0.022007868 0.16302446
0.062554479 -0.021231301 0.16302446
0.063286126 -0.019474559 0.16302446
0.063895196 -0.019182347 0.16126771
0.063845128 -0.017717816 0.16302446
0.063895196 -0.017717816 0.16290712
0.063895196 -0.017544739 0.16302446
0.064045444 -0.019474559 0.15775423
0.063982695 -0.019474559 0.15951097
0.064798564 -0.017717816 0.15775423
0.06540139 -0.015961073 0.15775423
0.064676315 -0.017717816 0.15951097
0.065228209 -0.015961073 0.15951097
0.064405963 -0.017717816 0.16126771
0.064875767 -0.015961073 0.16126771
0.064280018 -0.015961073 0.16302446
0.057452694 -0.026501529 0.1647812
0.058624968 -0.025440335 0.1647812
0.059286654 -0.024744786 0.1647812
0.060381711 -0.023441583 0.1647812
0.057835668 -0.024744786 0.16653794
0.058624968 -0.024744786 0.16567452
0.058624968 -0.023843147 0.16653794
0.059292093 -0.022988044 0.16653794
0.060381711 -0.022988044 0.165254
0.060698211 -0.022988044 0.1647812
0.057235181 -0.022988044 0.16829468
0.058624968 -0.022988044 0.16716984
0.060381711 -0.021274343 0.16653794
0.061720535 -0.021231301 0.1647812
0.062138453 -0.021231301 0.16398038
0.062138453 -0.020311408 0.1647812
0.062452093 -0.019474559 0.1647812
0.060403988 -0.021231301 0.16653794
0.061200202 -0.019474559 0.16653794
0.062138453 -0.019474559 0.16532911
0.06299448 -0.017717816 0.1647812
0.063398629 -0.015961073 0.1647812
0.063895196 -0.015961073 0.16385254
0.061786145 -0.017717816 0.16653794
0.062138453 -0.017717816 0.16612455
0.062120229 -0.015961073 0.16653794
0.062138453 -0.015961073 0.16651699
0.058477491 -0.021231301 0.16829468
0.058624968 -0.021231301 0.16818152
0.060381711 -0.021231301 0.16656145
0.058624968 -0.020968966 0.16829468
0.059321046 -0.019474559 0.16829468
0.060381711 -0.019474559 0.1673746
0.058624968 -0.019474559 0.16879646
0.059844717 -0.017717816 0.16829468
0.060381711 -0.017717816 0.16787383
0.060116187 -0.015961073 0.16829468
0.060381711 -0.015961073 0.16810618
0.057118386 -0.017717816 0.17005143
0.058624968 -0.017717816 0.1691353
0.05735296 -0.015961073 0.17005143
0.058624968 -0.015961073 0.16931114
0.065651938 -0.014975131 0.15775423
0.065804154 -0.014204331 0.15775423
0.066111535 -0.012447588 0.15775423
0.065578565 -0.014204331 0.15951097
0.065651938 -0.014204331 0.15905656
0.065651938 -0.013687983 0.15951097
0.065847307 -0.012447588 0.15951097
0.066366464 -0.010690838 0.15775423
0.066503763 -0.0089340955 0.15775423
0.066061765 -0.010690838 0.15951097
0.066180259 -0.0089340955 0.15951097
0.065187663 -0.014204331 0.16126771
0.06542851 -0.012447588 0.16126771
0.065651938 -0.012447588 0.16042794
0.064549431 -0.014204331 0.16302446
0.064749286 -0.012447588 0.16302446
0.065621227 -0.010690838 0.16126771
0.065651938 -0.010690838 0.16116469
0.065651938 -0.010243624 0.16126771
0.065751076 -0.0089340955 0.16126771
0.064911753 -0.010690838 0.16302446
0.065022364 -0.0089340955 0.16302446
0.065651938 -0.0089340955 0.16157663
0.066620827 -0.0071773529 0.15775423
0.066748053 -0.0054206103 0.15775423
0.06629242 -0.0071773529 0.15951097
0.066455662 -0.0054206103 0.15951097
0.066802561 -0.0036638677 0.15775423
0.06685771 -0.0019071251 0.15775423
0.066572115 -0.0036638677 0.15951097
0.066660061 -0.0019071251 0.15951097
0.065861344 -0.0071773529 0.16126771
0.065957129 -0.0054206103 0.16126771
0.06513162 -0.0071773529 0.16302446
0.065651938 -0.0071773529 0.16189407
0.06523563 -0.0054206103 0.16302446
0.065651938 -0.0054206103 0.16211373
0.066058487 -0.0036638677 0.16126771
0.066164419 -0.0019071251 0.16126771
0.065327108 -0.0036638677 0.16302446
0.065651938 -0.0036638677 0.16232534
0.065438181 -0.0019071251 0.16302446
0.065651938 -0.0019071251 0.16257243
0.06364575 -0.014204331 0.1647812
0.063895196 -0.014204331 0.16433254
0.063745975 -0.012447588 0.1647812
0.063895196 -0.012447588 0.1645475
0.062138453 -0.015820958 0.16653794
0.062291488 -0.014204331 0.16653794
0.062300056 -0.012447588 0.16653794
0.063870251 -0.010690838 0.1647812
0.063895196 -0.010690838 0.16474496
0.063895196 -0.010417014 0.1647812
0.062342674 -0.010690838 0.16653794
0.062415034 -0.0089340955 0.16653794
0.063895196 -0.0089340955 0.16486889
0.060309455 -0.014204331 0.16829468
0.060381711 -0.014204331 0.16824126
0.060324088 -0.012447588 0.16829468
0.060381711 -0.012447588 0.16825044
0.057411984 -0.014204331 0.17005143
0.058624968 -0.014204331 0.16940467
0.057441443 -0.012447588 0.17005143
0.058624968 -0.012447588 0.16941777
0.062138453 -0.014204331 0.16669886
0.062138453 -0.012447588 0.16670017
0.060257182 -0.010690838 0.16829468
0.060381711 -0.010690838 0.16820702
0.060247794 -0.0089340955 0.16829468
0.060381711 -0.0089340955 0.16820252
0.057368979 -0.010690838 0.17005143
0.058624968 -0.010690838 0.16935712
0.05720827 -0.0089340955 0.17005143
0.058624968 -0.0089340955 0.16929694
0.062138453 -0.010690838 0.16673821
0.062138453 -0.0089340955 0.16679868
0.063957855 -0.0089340955 0.1647812
0.062438622 -0.0071773529 0.16653794
0.063895196 -0.0071773529 0.16492285
0.062548876 -0.0054206103 0.16653794
0.063895196 -0.0054206103 0.16506007
0.0626508 -0.0036638677 0.16653794
0.063895196 -0.0036638677 0.16519858
0.0627518 -0.0019071251 0.16653794
0.063895196 -0.0019071251 0.16531415
0.060253412 -0.0071773529 0.16829468
0.060381711 -0.0071773529 0.16820292
0.060290381 -0.0054206103 0.16829468
0.060381711 -0.0054206103 0.16823544
0.057167441 -0.0071773529 0.17005143
0.058624968 -0.0071773529 0.1693109
0.057198778 -0.0054206103 0.17005143
0.058624968 -0.0054206103 0.16931085
0.062138453 -0.0071773529 0.16681007
0.062138453 -0.0054206103 0.16690776
0.060381711 -0.0040069222 0.16829468
0.057213083 -0.0036638677 0.17005143
0.058624968 -0.0036638677 0.16934432
0.060381711 -0.0036638677 0.1683137
0.057327643 -0.0019071251 0.17005143
0.058624968 -0.0019071251 0.16943046
0.060381711 -0.0019071251 0.16840149
0.060411185 -0.0036638677 0.16829468
0.062138453 -0.0036638677 0.16699006
0.060539871 -0.0019071251 0.16829468
0.062138453 -0.0019071251 0.16707604
0.064002126 -0.0071773529 0.1647812
0.064107388 -0.0054206103 0.1647812
0.064211711 -0.0036638677 0.1647812
0.064309537 -0.0019071251 0.1647812
0.044571027 -0.029451199 0.17180817
0.045614883 -0.028258272 0.17180817
0.04632777 -0.028258272 0.17128728
0.04632777 -0.027421348 0.17180817
0.043613091 -0.028258272 0.17356491
0.044571027 -0.028258272 0.17260914
0.044501513 -0.026501529 0.17356491
0.044571027 -0.026501529 0.17350051
0.04632777 -0.026501529 0.17224684
0.048084512 -0.028258272 0.17007625
0.047045231 -0.026501529 0.17180817
0.048084512 -0.026501529 0.17114192
0.049841255 -0.026501529 0.17016055
0.044571027 -0.026327007 0.17356491
0.045279756 -0.024744786 0.17356491
0.04632777 -0.024744786 0.17286408
0.045989737 -0.022988044 0.17356491
0.04632777 -0.022988044 0.17334998
0.048084512 -0.024899833 0.17180817
0.048180416 -0.024744786 0.17180817
0.049841255 -0.024744786 0.17094575
0.049312487 -0.022988044 0.17180817
0.049841255 -0.022988044 0.17155896
0.048084512 -0.024744786 0.17186134
0.048084512 -0.022988044 0.17240879
0.042886868 -0.026501529 0.17532165
0.043255776 -0.024744786 0.17532165
0.044571027 -0.024744786 0.17408317
0.043573186 -0.022988044 0.17532165
0.044571027 -0.022988044 0.17451937
0.051597998 -0.024744786 0.17019565
0.051597998 -0.022988044 0.17090298
0.05335474 -0.022988044 0.17028749
0.04632777 -0.021932088 0.17356491
0.049841255 -0.022187561 0.17180817
0.046587452 -0.021231301 0.17356491
0.048084512 -0.021231301 0.17283036
0.049841255 -0.021231301 0.17210944
0.047204524 -0.019474559 0.17356491
0.048084512 -0.019474559 0.17316656
0.049841255 -0.019474559 0.17254157
0.047820359 -0.017717816 0.17356491
0.048084512 -0.017717816 0.17345503
0.049841255 -0.017717816 0.17277995
0.048084512 -0.016773313 0.17356491
0.048182011 -0.015961073 0.17356491
0.049841255 -0.015961073 0.17291754
0.043861657 -0.021231301 0.17532165
0.044571027 -0.021231301 0.17479448
0.04632777 -0.021231301 0.17370382
0.044111922 -0.019474559 0.17532165
0.044571027 -0.019474559 0.17500316
0.04632777 -0.019474559 0.17400414
0.044430867 -0.017717816 0.17532165
0.044571027 -0.017717816 0.17522325
0.04632777 -0.017717816 0.17420454
0.044571027 -0.016554274 0.17532165
0.044629142 -0.015961073 0.17532165
0.04632777 -0.015961073 0.17437001
0.044571027 -0.015961073 0.17535712
0.048084512 -0.015961073 0.17360699
0.050639957 -0.021231301 0.17180817
0.051597998 -0.021231301 0.17149711
0.05335474 -0.021231301 0.17098241
0.051597998 -0.020258173 0.17180817
0.052227199 -0.019474559 0.17180817
0.05335474 -0.019474559 0.17140433
0.051597998 -0.019474559 0.17200476
0.055111483 -0.021231301 0.17026487
0.055111483 -0.019474559 0.17074543
0.053074807 -0.017717816 0.17180817
0.05335474 -0.017717816 0.1717051
0.05335474 -0.016839519 0.17180817
0.051597998 -0.017717816 0.17229512
0.051597998 -0.015961073 0.17242514
0.05335474 -0.015961073 0.17185962
0.055111483 -0.017717816 0.17103435
0.056868225 -0.017717816 0.1701901
0.053492635 -0.015961073 0.17180817
0.055111483 -0.015961073 0.17116173
0.056868225 -0.015961073 0.17031065
0.048300385 -0.014204331 0.17356491
0.049841255 -0.014204331 0.17296419
0.048355833 -0.012447588 0.17356491
0.049841255 -0.012447588 0.17301968
0.048111498 -0.010690838 0.17356491
0.049841255 -0.010690838 0.17295478
0.047975987 -0.0089340955 0.17356491
0.048084512 -0.010549098 0.17356491
0.048084512 -0.0089340955 0.17351809
0.049841255 -0.0089340955 0.17285298
0.044720829 -0.014204331 0.17532165
0.04632777 -0.014204331 0.17445709
0.044637188 -0.012447588 0.17532165
0.04632777 -0.012447588 0.17443219
0.044571027 -0.014204331 0.17540227
0.044571027 -0.012447588 0.17535968
0.048084512 -0.014204331 0.17365335
0.048084512 -0.012447588 0.17367601
0.044615373 -0.010690838 0.17532165
0.04632777 -0.010690838 0.17436928
0.044571966 -0.0089340955 0.17532165
0.04632777 -0.0089340955 0.17431547
0.044571027 -0.010690838 0.17534915
0.044571027 -0.0089340955 0.17532226
0.048084512 -0.010690838 0.17357621
0.053280592 -0.012447588 0.17180817
0.05335474 -0.012843527 0.17180817
0.05335474 -0.012447588 0.17178348
0.051597998 -0.014204331 0.17243046
0.05335474 -0.014204331 0.17186394
0.051597998 -0.012447588 0.17241234
0.053507581 -0.014204331 0.17180817
0.055111483 -0.014204331 0.17117704
0.056868225 -0.014204331 0.17033793
0.055111483 -0.012447588 0.17114803
0.056868225 -0.012447588 0.17034492
0.053053811 -0.010690838 0.17180817
0.05335474 -0.010690838 0.17171115
0.052834213 -0.0089340955 0.17180817
0.05335474 -0.0089340955 0.17163932
0.051597998 -0.010690838 0.172353
0.051597998 -0.0089340955 0.17224461
0.055111483 -0.010690838 0.17107275
0.056868225 -0.010690838 0.17028898
0.055111483 -0.0089340955 0.17099504
0.056868225 -0.0089340955 0.17021629
0.047926396 -0.0071773529 0.17356491
0.048084512 -0.0071773529 0.17348939
0.049841255 -0.0071773529 0.17278405
0.047872141 -0.0054206103 0.17356491
0.048084512 -0.0054206103 0.17346406
0.049841255 -0.0054206103 0.17272231
0.047986895 -0.0036638677 0.17356491
0.048084512 -0.0036638677 0.17351915
0.049841255 -0.0036638677 0.17276891
0.048084512 -0.0022642016 0.17356491
0.048106968 -0.0019071251 0.17356491
0.049841255 -0.0019071251 0.17279372
0.044571593 -0.0071773529 0.17532165
0.04632777 -0.0071773529 0.17431562
0.044694752 -0.0054206103 0.17532165
0.04632777 -0.0054206103 0.1743419
0.044571027 -0.0071773529 0.17532206
0.044571027 -0.0054206103 0.17540778
0.044803068 -0.0036638677 0.17532165
0.04632777 -0.0036638677 0.17439376
0.044971809 -0.0019071251 0.17532165
0.04632777 -0.0019071251 0.17449336
0.042823464 -0.0036638677 0.1770784
0.044571027 -0.0036638677 0.17549007
0.043017715 -0.0019071251 0.1770784
0.044571027 -0.0019071251 0.17561147
0.048084512 -0.0019071251 0.17357561
0.052483439 -0.0071773529 0.17180817
0.05335474 -0.0071773529 0.17153321
0.052406341 -0.0054206103 0.17180817
0.05335474 -0.0054206103 0.17149836
0.051597998 -0.0071773529 0.1721347
0.051597998 -0.0054206103 0.17209071
0.055111483 -0.0071773529 0.17094323
0.056868225 -0.0071773529 0.17019127
0.055111483 -0.0054206103 0.17089042
0.056868225 -0.0054206103 0.17019606
0.052391887 -0.0036638677 0.17180817
0.05335474 -0.0036638677 0.17145191
0.052347064 -0.0019071251 0.17180817
0.05335474 -0.0019071251 0.17143947
0.051597998 -0.0036638677 0.17210262
0.051597998 -0.0019071251 0.17209865
0.055111483 -0.0036638677 0.17084254
0.056868225 -0.0036638677 0.17020328
0.055111483 -0.0019071251 0.1708606
0.056868225 -0.0019071251 0.17024654
0.016463131 -0.040555477 0.18585438
0.016539365 -0.040555477 0.18586211
0.018219873 -0.040608004 0.18586211
0.018219873 -0.040555477 0.18597683
0.019976616 -0.040584184 0.18586211
0.020502038 -0.040555477 0.18586211
0.021733359 -0.040555477 0.18557104
0.019976616 -0.040555477 0.1859282
0.016463131 -0.040551797 0.18586211
0.016463131 -0.039473839 0.18761885
0.018219873 -0.039558239 0.18761885
0.021733359 -0.040445007 0.18586211
0.019976616 -0.039570488 0.18761885
0.021733359 -0.039427802 0.18761885
0.016463131 -0.038798735 0.18835132
0.018219873 -0.038798735 0.18841949
0.016463131 -0.037589401 0.18937559
0.018219873 -0.037674613 0.18937559
0.016463131 -0.037041992 0.18972987
0.018219873 -0.037041992 0.1897946
0.019976616 -0.038798735 0.18851385
0.021733359 -0.038798735 0.18834516
0.019976616 -0.037759118 0.18937559
0.021733359 -0.037600458 0.18937559
0.019976616 -0.037041992 0.18980427
0.021733359 -0.037041992 0.18972591
0.023490101 -0.040555477 0.18494853
0.023490101 -0.040231042 0.18586211
0.025246851 -0.039895818 0.18586211
0.023490101 -0.039196238 0.18761885
0.025246851 -0.038869083 0.18761885
0.027003594 -0.039468259 0.18586211
0.028760329 -0.038925111 0.18586211
0.025530614 -0.038798735 0.18761885
0.027003594 -0.038798735 0.18714812
0.028760329 -0.038798735 0.18612021
0.027003594 -0.038475238 0.18761885
0.028760329 -0.0379126 0.18761885
0.023490101 -0.038798735 0.18809111
0.025246851 -0.038798735 0.18770654
0.023490101 -0.037383243 0.18937559
0.025246851 -0.037092224 0.18937559
0.023490101 -0.037041992 0.18961369
0.025246851 -0.037041992 0.18941259
0.02546782 -0.037041992 0.18937559
0.027003594 -0.037041992 0.18911119
0.028760329 -0.037041992 0.18860736
0.016463131 -0.035285249 0.19053181
0.018219873 -0.035285249 0.19056982
0.016463131 -0.033684663 0.19113234
0.018219873 -0.033689328 0.19113234
0.019976616 -0.035285249 0.19061202
0.021733359 -0.035285249 0.1905973
0.019976616 -0.033803836 0.19113234
0.021733359 -0.033793077 0.19113234
0.023490101 -0.035285249 0.1905183
0.025246851 -0.035285249 0.19036728
0.023230582 -0.033528507 0.19113234
0.023490101 -0.033528507 0.19111124
0.025246851 -0.033528507 0.19096611
0.027003594 -0.036684744 0.18937559
0.028760329 -0.036018908 0.18937559
0.027003594 -0.035285249 0.19016275
0.028760329 -0.035285249 0.18979648
0.027003594 -0.033528507 0.19080178
0.028760329 -0.033528507 0.19050236
0.023490101 -0.033458315 0.19113234
0.025246851 -0.032948598 0.19113234
0.027003594 -0.032282405 0.19113234
0.027824894 -0.031771764 0.19113234
0.028760329 -0.031771764 0.19096723
0.028760329 -0.030926324 0.19113234
0.016463131 -0.033528507 0.19118866
0.018219873 -0.033528507 0.19118981
0.019976616 -0.033528507 0.19122335
0.021733359 -0.033528507 0.19121419
0.016463131 -0.031771764 0.191726
0.018219873 -0.031771764 0.19171254
0.016463131 -0.030015022 0.1921145
0.018219873 -0.030015022 0.19208457
0.019976616 -0.031771764 0.19170292
0.021733359 -0.031771764 0.19167726
0.019976616 -0.030015022 0.19202867
0.021733359 -0.030015022 0.19200712
0.023490101 -0.031771764 0.19158307
0.025246851 -0.031771764 0.19144262
0.023490101 -0.030015022 0.19192694
0.025246851 -0.030015022 0.19176978
0.027003594 -0.031771764 0.1912524
0.027003594 -0.030015022 0.19160308
0.028760329 -0.030015022 0.19128883
0.0290647 -0.038798735 0.18586211
0.030517071 -0.038798735 0.18437718
0.030517071 -0.038206093 0.18586211
0.032273814 -0.037339039 0.18586211
0.030517071 -0.03706111 0.18761885
0.030552655 -0.037041992 0.18761885
0.032273814 -0.037041992 0.18630411
0.032715529 -0.037041992 0.18586211
0.030517071 -0.037041992 0.18764219
0.032273814 -0.035897739 0.18761885
0.034030572 -0.035863519 0.18586211
0.034497872 -0.035285249 0.18586211
0.035681844 -0.033528507 0.18586211
0.035787314 -0.033528507 0.18568473
0.032982096 -0.035285249 0.18761885
0.034030572 -0.035285249 0.18651818
0.034030572 -0.033946708 0.18761885
0.034285352 -0.033528507 0.18761885
0.035787314 -0.033338048 0.18586211
0.035195202 -0.031771764 0.18761885
0.035787314 -0.031771764 0.18690304
0.035717607 -0.030015022 0.18761885
0.035787314 -0.030015022 0.18753797
0.029982135 -0.035285249 0.18937559
0.030517071 -0.035285249 0.18915169
0.032273814 -0.035285249 0.1881578
0.030517071 -0.03488297 0.18937559
0.03190881 -0.033528507 0.18937559
0.032273814 -0.033528507 0.18918158
0.030517071 -0.033528507 0.18999559
0.034030572 -0.033528507 0.18786009
0.032273814 -0.03305047 0.18937559
0.030517071 -0.031771764 0.19048442
0.032273814 -0.031771764 0.18977633
0.029390603 -0.030015022 0.19113234
0.030517071 -0.030015022 0.19080241
0.032273814 -0.030015022 0.19017458
0.033025175 -0.031771764 0.18937559
0.034030572 -0.031771764 0.18870308
0.033743232 -0.030015022 0.18937559
0.034030572 -0.030015022 0.18918003
0.036483407 -0.031771764 0.18586211
0.036982194 -0.030015022 0.18586211
0.037544057 -0.030015022 0.18475363
0.016463131 -0.028258272 0.19235393
0.018219873 -0.028258272 0.19231939
0.016463131 -0.026501529 0.19254211
0.018219873 -0.026501529 0.19246863
0.019976616 -0.028258272 0.19230656
0.021733359 -0.028258272 0.19225354
0.019976616 -0.026501529 0.19243489
0.021733359 -0.026501529 0.19240376
0.016463131 -0.024744786 0.19267505
0.018219873 -0.024744786 0.19259889
0.016463131 -0.022988044 0.19274126
0.018219873 -0.022988044 0.19266795
0.019976616 -0.024744786 0.19250754
0.021733359 -0.024744786 0.19245403
0.019976616 -0.022988044 0.19257517
0.021733359 -0.022988044 0.19248427
0.023490101 -0.028258272 0.19215856
0.025246851 -0.028258272 0.19201696
0.023490101 -0.026501529 0.19231227
0.025246851 -0.026501529 0.19217668
0.027003594 -0.028258272 0.1918081
0.028760329 -0.028258272 0.19151355
0.027003594 -0.026501529 0.19192956
0.028760329 -0.026501529 0.1916257
0.023490101 -0.024744786 0.19235764
0.025246851 -0.024744786 0.19221114
0.023490101 -0.022988044 0.19235711
0.025246851 -0.022988044 0.19219659
0.027003594 -0.024744786 0.19199836
0.028760329 -0.024744786 0.19166955
0.027003594 -0.022988044 0.1919833
0.028760329 -0.022988044 0.19166689
0.016463131 -0.021231301 0.19279158
0.018219873 -0.021231301 0.1927062
0.016463131 -0.019474559 0.19279034
0.018219873 -0.019474559 0.1926997
0.019976616 -0.021231301 0.19260798
0.021733359 -0.021231301 0.19250971
0.019976616 -0.019474559 0.19259033
0.021733359 -0.019474559 0.19248115
0.016463131 -0.017717816 0.19276401
0.018219873 -0.017717816 0.19265968
0.016463131 -0.015961073 0.19270574
0.018219873 -0.015961073 0.19260645
0.019976616 -0.017717816 0.19254059
0.021733359 -0.017717816 0.19242598
0.019976616 -0.015961073 0.19248994
0.021733359 -0.015961073 0.19236742
0.023490101 -0.021231301 0.19236082
0.025246851 -0.021231301 0.19218263
0.023490101 -0.019474559 0.19232805
0.025246851 -0.019474559 0.19215287
0.027003594 -0.021231301 0.19196665
0.028760329 -0.021231301 0.1916468
0.027003594 -0.019474559 0.1919298
0.028760329 -0.019474559 0.19160302
0.023490101 -0.017717816 0.19227403
0.025246851 -0.017717816 0.19210221
0.023490101 -0.015961073 0.19220383
0.025246851 -0.015961073 0.19204232
0.027003594 -0.017717816 0.19183417
0.028760329 -0.017717816 0.19149613
0.027003594 -0.015961073 0.19176996
0.028760329 -0.015961073 0.19140889
0.035787314 -0.029586375 0.18761885
0.030182749 -0.028258272 0.19113234
0.030517071 -0.028258272 0.19102725
0.032273814 -0.028258272 0.19039458
0.030517071 -0.027118921 0.19113234
0.030700594 -0.026501529 0.19113234
0.032273814 -0.026501529 0.19053882
0.034027621 -0.028258272 0.18937559
0.034030572 -0.028258272 0.18937331
0.035787314 -0.028258272 0.18785402
0.034030572 -0.028232433 0.18937559
0.034262493 -0.026501529 0.18937559
0.035787314 -0.026501529 0.18806474
0.034030572 -0.026501529 0.18955128
0.031067118 -0.024744786 0.19113234
0.032273814 -0.024744786 0.19066826
0.03107357 -0.022988044 0.19113234
0.032273814 -0.022988044 0.19067477
0.034425333 -0.024744786 0.18937559
0.035787314 -0.024744786 0.18817614
0.034479782 -0.022988044 0.18937559
0.035787314 -0.022988044 0.18818469
0.034030572 -0.024744786 0.18967506
0.034030572 -0.022988044 0.18970367
0.037329346 -0.028258272 0.18586211
0.037544057 -0.028258272 0.18551733
0.037525669 -0.026501529 0.18586211
0.037544057 -0.026501529 0.18583283
0.036022484 -0.028258272 0.18761885
0.036233351 -0.026501529 0.18761885
0.037544057 -0.025884733 0.18586211
0.037597403 -0.024744786 0.18586211
0.037552655 -0.022988044 0.18586211
0.03633742 -0.024744786 0.18761885
0.037544057 -0.024744786 0.18595718
0.036277667 -0.022988044 0.18761885
0.037544057 -0.022988044 0.18587564
0.035688236 -0.015961073 0.18761885
0.035787314 -0.016677484 0.18761885
0.035787314 -0.015961073 0.18751661
0.030965954 -0.021231301 0.19113234
0.032273814 -0.021231301 0.19063139
0.03076148 -0.019474559 0.19113234
0.032273814 -0.019474559 0.19052763
0.034429148 -0.021231301 0.18937559
0.035787314 -0.021231301 0.18810715
0.034192219 -0.019474559 0.18937559
0.035787314 -0.019474559 0.18797028
0.034030572 -0.021231301 0.1896531
0.034030572 -0.019474559 0.18949062
0.03031604 -0.017717816 0.19113234
0.030517071 -0.018346883 0.19113234
0.030517071 -0.017717816 0.19106884
0.032273814 -0.017717816 0.19032431
0.029913992 -0.015961073 0.19113234
0.030517071 -0.015961073 0.19093116
0.032273814 -0.015961073 0.19013759
0.033935472 -0.017717816 0.18937559
0.034030572 -0.018385917 0.18937559
0.034030572 -0.017717816 0.18931177
0.035787314 -0.017717816 0.18774843
0.03365694 -0.015961073 0.18937559
0.034030572 -0.015961073 0.18912815
0.037452698 -0.021231301 0.18586211
0.037544057 -0.022906773 0.18586211
0.037544057 -0.021231301 0.18570304
0.037347749 -0.019474559 0.18586211
0.037544057 -0.019474559 0.18547805
0.036215231 -0.021231301 0.18761885
0.036138818 -0.019474559 0.18761885
0.037209764 -0.017717816 0.18586211
0.037544057 -0.017717816 0.18521948
0.037048265 -0.015961073 0.18586211
0.037544057 -0.015961073 0.18503931
0.035913423 -0.017717816 0.18761885
0.030517071 -0.026501529 0.19119261
0.030517071 -0.024744786 0.19128925
0.030517071 -0.022988044 0.19129227
0.030517071 -0.021231301 0.19125901
0.030517071 -0.019474559 0.19120328
0.028695449 -0.0089340955 0.19113234
0.028760329 -0.0093920529 0.19113234
0.028760329 -0.0089340955 0.19111575
0.028673291 -0.0071773529 0.19113234
0.028760329 -0.0071773529 0.19111246
0.028760329 -0.006531097 0.19113234
0.016463131 -0.014204331 0.19264351
0.018219873 -0.014204331 0.19255356
0.016463131 -0.012447588 0.19258626
0.018219873 -0.012447588 0.19250238
0.019976616 -0.014204331 0.19244085
0.021733359 -0.014204331 0.19232267
0.019976616 -0.012447588 0.1923935
0.021733359 -0.012447588 0.19226535
0.016463131 -0.010690838 0.19252372
0.018219873 -0.010690838 0.19245385
0.016463131 -0.0089340955 0.19247696
0.018219873 -0.0089340955 0.19241546
0.019976616 -0.010690838 0.19234549
0.021733359 -0.010690838 0.19221741
0.019976616 -0.0089340955 0.1923188
0.021733359 -0.0089340955 0.19218609
0.023490101 -0.014204331 0.19216715
0.025246851 -0.014204331 0.19196293
0.023490101 -0.012447588 0.1921048
0.025246851 -0.012447588 0.19190493
0.027003594 -0.014204331 0.1917049
0.028760329 -0.014204331 0.19135892
0.027003594 -0.012447588 0.19164221
0.028760329 -0.012447588 0.19128561
0.023490101 -0.010690838 0.19204161
0.025246851 -0.010690838 0.19185175
0.023490101 -0.0089340955 0.19201489
0.025246851 -0.0089340955 0.19180891
0.027003594 -0.010690838 0.19159092
0.028760329 -0.010690838 0.19119737
0.027003594 -0.0089340955 0.19151172
0.016463131 -0.0071773529 0.1924264
0.018219873 -0.0071773529 0.19237216
0.016463131 -0.0054206103 0.19238895
0.018219873 -0.0054206103 0.19234058
0.019976616 -0.0071773529 0.19228895
0.021733359 -0.0071773529 0.19215238
0.019976616 -0.0054206103 0.19225833
0.021733359 -0.0054206103 0.19212839
0.016463131 -0.0036638677 0.19236632
0.018219873 -0.0036638677 0.19232485
0.016463131 -0.0019071251 0.19234511
0.018219873 -0.0019071251 0.19231355
0.019976616 -0.0036638677 0.19224247
0.021733359 -0.0036638677 0.19211905
0.019976616 -0.0019071251 0.19225039
0.021733359 -0.0019071251 0.19213596
0.023490101 -0.0071773529 0.1919913
0.025246851 -0.0071773529 0.19178921
0.023490101 -0.0054206103 0.19197863
0.025246851 -0.0054206103 0.19177721
0.027003594 -0.0071773529 0.19149518
0.027003594 -0.0054206103 0.19151072
0.028760329 -0.0054206103 0.19117565
0.023490101 -0.0036638677 0.19196469
0.025246851 -0.0036638677 0.19177406
0.023490101 -0.0019071251 0.19198851
0.025246851 -0.0019071251 0.19181029
0.027003594 -0.0036638677 0.19153957
0.028760329 -0.0036638677 0.19124168
0.027003594 -0.0019071251 0.19158359
0.028760329 -0.0019071251 0.19132604
0.035474539 -0.014204331 0.18761885
0.035787314 -0.014204331 0.18728468
0.035379961 -0.012447588 0.18761885
0.035787314 -0.012447588 0.18716045
0.035404384 -0.010690838 0.18761885
0.035787314 -0.010690838 0.18718983
0.0354902 -0.0089340955 0.18761885
0.035787314 -0.0089340955 0.18729261
0.029620841 -0.014204331 0.19113234
0.030517071 -0.014204331 0.19083592
0.032273814 -0.014204331 0.19003882
0.029334128 -0.012447588 0.19113234
0.030517071 -0.012447588 0.19074157
0.032273814 -0.012447588 0.18992801
0.03341803 -0.014204331 0.18937559
0.034030572 -0.014204331 0.18894698
0.033216402 -0.012447588 0.18937559
0.034030572 -0.012447588 0.18882833
0.029001698 -0.010690838 0.19113234
0.030517071 -0.010690838 0.19065909
0.032273814 -0.010690838 0.18987283
0.030517071 -0.0089340955 0.1906188
0.032273814 -0.0089340955 0.18988451
0.033141628 -0.010690838 0.18937559
0.034030572 -0.010690838 0.18880655
0.033185005 -0.0089340955 0.18937559
0.034030572 -0.0089340955 0.18885544
0.036860913 -0.014204331 0.18586211
0.037544057 -0.014204331 0.1848419
0.036735103 -0.012447588 0.18586211
0.037544057 -0.012447588 0.1846237
0.036729619 -0.010690838 0.18586211
0.037544057 -0.010690838 0.18459107
0.036816224 -0.0089340955 0.18586211
0.037544057 -0.0089340955 0.18462604
0.035582647 -0.0071773529 0.18761885
0.035787314 -0.0071773529 0.1873937
0.035787314 -0.0054414719 0.18761885
0.030517071 -0.0071773529 0.19064721
0.032273814 -0.0071773529 0.18993984
0.028962001 -0.0054206103 0.19113234
0.030517071 -0.0054206103 0.19071084
0.032273814 -0.0054206103 0.19002256
0.033335581 -0.0071773529 0.18937559
0.034030572 -0.0071773529 0.18894361
0.033573836 -0.0054206103 0.18937559
0.034030572 -0.0054206103 0.18909618
0.035787314 -0.0054206103 0.18762265
0.029299408 -0.0036638677 0.19113234
0.030517071 -0.0036638677 0.19081667
0.032273814 -0.0036638677 0.19016272
0.029788673 -0.0019071251 0.19113234
0.030517071 -0.0019071251 0.1909502
0.032273814 -0.0019071251 0.19032373
0.033848703 -0.0036638677 0.18937559
0.034030572 -0.0036638677 0.18926744
0.035787314 -0.0036638677 0.18784787
0.034030572 -0.0026766211 0.18937559
0.034184381 -0.0019071251 0.18937559
0.035787314 -0.0019071251 0.1881455
0.034030572 -0.0019071251 0.1894625
0.036919966 -0.0071773529 0.18586211
0.037544057 -0.0071773529 0.1848419
0.037299022 -0.0054206103 0.18586211
0.037544057 -0.0054206103 0.18549965
0.035791188 -0.0054206103 0.18761885
0.037544057 -0.0041007102 0.18586211
0.037566677 -0.0036638677 0.18586211
0.037736341 -0.0019071251 0.18586211
0.036019549 -0.0036638677 0.18761885
0.037544057 -0.0036638677 0.18589438
0.036301643 -0.0019071251 0.18761885
0.037544057 -0.0019071251 0.18614708
-0.036239166 -0.00032376498 0.10153843
-0.036215719 -0.00015038252 0.10153843
-0.035993371 0.0016063601 0.10153843
-0.036239166 -0.00072234869 0.10329518
-0.036155593 -0.00015038252 0.10329518
-0.035931524 0.0016063601 0.10329518
-0.035810549 0.0033631027 0.10153843
-0.035634428 0.0051198453 0.10153843
-0.035757989 0.0033631027 0.10329518
-0.035596866 0.0051198453 0.10329518
-0.036239166 -0.0010979623 0.10505192
-0.036095522 -0.00015038252 0.10505192
-0.035878226 0.0016063601 0.10505192
-0.036239166 -0.0015113652 0.10680866
-0.036045317 -0.00015038252 0.10680866
-0.035846692 0.0016063601 0.10680866
-0.035726588 0.0033631027 0.10505192
-0.03557919 0.0051198453 0.10505192
-0.0357043 0.0033631027 0.10680866
-0.035578076 0.0051198453 0.10680866
-0.035506204 0.0068765879 0.10153843
-0.035439953 0.0086333379 0.10153843
-0.035484597 0.0068765879 0.10329518
-0.035413086 0.0086333379 0.10329518
-0.035401106 0.010390081 0.10153843
-0.035406645 0.012146816 0.10153843
-0.035380084 0.010390081 0.10329518
-0.035396319 0.012146816 0.10329518
-0.035468575 0.0068765879 0.10505192
-0.035394009 0.0086333379 0.10505192
-0.0354697 0.0068765879 0.10680866
-0.035394747 0.0086333379 0.10680866
-0.035359193 0.010390081 0.10505192
-0.035380136 0.012146816 0.10505192
-0.035363358 0.010390081 0.10680866
-0.035391618 0.012146816 0.10680866
-0.036239166 -0.0018448532 0.10856541
-0.036023289 -0.00015038252 0.10856541
-0.035836767 0.0016063601 0.10856541
-0.036011849 -0.00015038252 0.11032216
-0.035829682 0.0016063601 0.11032216
-0.035685521 0.0033631027 0.10856541
-0.03555844 0.0051198453 0.10856541
-0.035680771 0.0033631027 0.11032216
-0.035540413 0.0051198453 0.11032216
-0.035985041 -0.00015038252 0.1120789
-0.035812486 0.0016063601 0.1120789
-0.036002219 -0.00015038252 0.11383563
-0.035814557 0.0016063601 0.11383563
-0.035654794 0.0033631027 0.1120789
-0.035520043 0.0051198453 0.1120789
-0.035640147 0.0033631027 0.11383563
-0.035492834 0.0051198453 0.11383563
-0.035449784 0.0068765879 0.10856541
-0.035380062 0.0086333379 0.10856541
-0.035431925 0.0068765879 0.11032216
-0.03536566 0.0086333379 0.11032216
-0.035347834 0.010390081 0.10856541
-0.035382517 0.012146816 0.10856541
-0.035341978 0.010390081 0.11032216
-0.03537304 0.012146816 0.11032216
-0.035410117 0.0068765879 0.1120789
-0.035347957 0.0086333379 0.1120789
-0.035371222 0.0068765879 0.11383563
-0.035320468 0.0086333379 0.11383563
-0.035338145 0.010390081 0.1120789
-0.035381652 0.012146816 0.1120789
-0.035330135 0.010390081 0.11383563
-0.035391241 0.012146816 0.11383563
-0.035452686 0.013903558 0.10153843
-0.035535738 0.015660301 0.10153843
-0.035441495 0.013903558 0.10329518
-0.035525255 0.015660301 0.10329518
-0.035626467 0.017417058 0.10153843
-0.035710894 0.019173801 0.10153843
-0.035605721 0.017417058 0.10329518
-0.035701338 0.019173801 0.10329518
-0.035422705 0.013903558 0.10505192
-0.035506647 0.015660301 0.10505192
-0.035423234 0.013903558 0.10680866
-0.035497587 0.015660301 0.10680866
-0.03558648 0.017417058 0.10505192
-0.035688911 0.019173801 0.10505192
-0.035563439 0.017417058 0.10680866
-0.035638042 0.019173801 0.10680866
-0.035728157 0.020930544 0.10153843
-0.035611123 0.022687286 0.10153843
-0.035741229 0.020930544 0.10329518
-0.035632789 0.022687286 0.10329518
-0.035320479 0.024444029 0.10153843
-0.034875229 0.026200771 0.10153843
-0.035346422 0.024444029 0.10329518
-0.034901567 0.026200771 0.10329518
-0.03574869 0.020930544 0.10505192
-0.035649836 0.022687286 0.10505192
-0.035749692 0.020930544 0.10680866
-0.035661008 0.022687286 0.10680866
-0.035374213 0.024444029 0.10505192
-0.034942374 0.026200771 0.10505192
-0.035377637 0.024444029 0.10680866
-0.034935787 0.026200771 0.10680866
-0.035431884 0.013903558 0.10856541
-0.035482492 0.015660301 0.10856541
-0.035435136 0.013903558 0.11032216
-0.035502296 0.015660301 0.11032216
-0.035540789 0.017417058 0.10856541
-0.035621777 0.019173801 0.10856541
-0.035565536 0.017417058 0.11032216
-0.035655331 0.019173801 0.11032216
-0.035460245 0.013903558 0.1120789
-0.03551757 0.015660301 0.1120789
-0.035466947 0.013903558 0.11383563
-0.035529178 0.015660301 0.11383563
-0.03559453 0.017417058 0.1120789
-0.035670348 0.019173801 0.1120789
-0.035630517 0.017417058 0.11383563
-0.035668734 0.019173801 0.11383563
-0.035750922 0.020930544 0.10856541
-0.035671435 0.022687286 0.10856541
-0.03573304 0.020930544 0.11032216
-0.035617046 0.022687286 0.11032216
-0.035374474 0.024444029 0.10856541
-0.034927048 0.026200771 0.10856541
-0.035339888 0.024444029 0.11032216
-0.034911707 0.026200771 0.11032216
-0.035685562 0.020930544 0.1120789
-0.03555641 0.022687286 0.1120789
-0.035651118 0.020930544 0.11383563
-0.035539009 0.022687286 0.11383563
-0.03530274 0.024444029 0.1120789
-0.034871005 0.026200771 0.1120789
