# .PCD v0.7 - Point Cloud Data file format
VERSION 0.7
FIELDS x y z
SIZE 4 4 4
TYPE F F F
COUNT 1 1 1
WIDTH 1076
HEIGHT 1
VIEWPOINT 0 0 0 1 0 0 0
POINTS 1076
DATA ascii
0.032472055 0.032512654 0.18695545
0.033776164 0.033494502 0.18475041
0.035123397 0.033798415 0.18154457
0.034550902 0.022725739 0.1900757
0.026822124 0.02910177 0.19004911
0.038756303 0.021342993 0.18694562
0.033646382 0.028319262 0.18842047
0.024587732 0.03205131 0.18571544
0.038911942 0.026858296 0.18396538
0.040870197 0.024042353 0.17821023
0.03775312 0.03190314 0.17834771
0.052006543 0.018548882 0.17206061
0.04173379 0.024735752 0.17527875
0.03721837 0.031059781 0.17405307
0.056444611 0.01734693 0.16820231
0.053743474 0.018798076 0.16958696
0.057209171 0.018080696 0.16707796
0.055720031 0.018696131 0.16661131
0.025872011 0.02051717 0.19232634
0.01816001 0.028618438 0.1916748
0.011720031 0.033572741 0.1902968
0.037174162 0.013439565 0.18887699
0.031764515 0.019885775 0.19118509
0.023932686 0.026202252 0.19108677
0.017132953 0.033226207 0.18868834
0.012871238 0.034380771 0.18790272
0.038887359 0.015331526 0.18587837
0.023162436 0.033349998 0.18442577
0.014618407 0.035056371 0.18409202
0.040192574 0.019606218 0.18096054
0.020525672 0.035021093 0.1790354
0.041349806 0.021103647 0.17714486
0.02175555 0.035197739 0.17567194
0.056446739 0.0084826741 0.17156169
0.052805573 0.011805041 0.17257601
0.050428942 0.01557993 0.17325747
0.046407871 0.01908917 0.17382881
0.040245656 0.027370531 0.1715278
0.031767391 0.033518501 0.17194411
0.061555341 0.0068457853 0.16781127
0.058518607 0.010518353 0.1688948
0.055904433 0.014390608 0.16960377
0.052800506 0.020168751 0.16766676
0.044721778 0.025084276 0.16771379
0.036990166 0.030554036 0.16671291
0.063880593 0.0086396299 0.16442567
0.061309483 0.013238009 0.16506436
0.058607079 0.016867725 0.16514465
0.05438729 0.019609343 0.16427779
0.045523439 0.025267337 0.1631749
0.038562097 0.030202679 0.16264725
0.064759381 0.010325139 0.16015628
0.062489551 0.014111672 0.16050249
0.059053302 0.017195486 0.16019064
0.054867618 0.019400774 0.15908402
0.065328181 0.011129571 0.15682834
0.062896088 0.014446748 0.15580818
0.059855379 0.017624693 0.15520993
0.056100771 0.0198787 0.15574324
0.061836682 0.017234005 0.15230724
0.0095525654 0.02599021 0.19159475
0.0070074927 0.028947813 0.19164523
0.033408612 0.0073591052 0.19019738
0.030362526 0.011972887 0.19152609
0.023284025 0.017862257 0.19274375
0.016442798 0.024749171 0.19166252
0.0085524125 0.03183531 0.19043604
0.0050095515 0.03228822 0.18846023
0.037556484 0.0053314772 0.18683919
0.036430907 0.0090661952 0.18829671
0.0095860464 0.033938579 0.18535289
0.0064329393 0.033535253 0.18507442
0.03922537 0.0067875236 0.18273988
0.038498394 0.010370622 0.18370178
0.012870894 0.034839675 0.18179795
0.042343356 0.0081250519 0.17682725
0.039760068 0.011596458 0.17863509
0.013405792 0.03437398 0.17716807
0.051207647 0.0039471518 0.1725077
0.048205201 0.0068749115 0.17366421
0.045225587 0.010257874 0.1742377
0.042779472 0.013881654 0.17491165
0.061244439 -0.002745036 0.16887978
0.057449393 0.0022925828 0.17071557
0.054163538 0.0060112905 0.1721009
0.051637277 0.0091030765 0.17316383
0.02132282 0.034324169 0.1676847
0.062835544 -0.0011812784 0.1666545
0.060647838 0.0027417764 0.16796458
0.026580354 0.03283279 0.16450778
0.064693056 0.00094223022 0.16240197
0.0637777 0.0040006693 0.16111165
0.041261956 0.027590819 0.15970388
0.032906689 0.032581925 0.16002169
0.065401375 0.0020090528 0.15820354
0.06472598 0.0058954414 0.15780169
0.044765741 0.024261184 0.15619797
0.037542276 0.030135274 0.15525645
0.065233134 0.0095677469 0.1538558
0.063371398 0.013227208 0.15306795
0.055547856 0.02007548 0.1530236
0.045244057 0.024069551 0.15125898
0.038181227 0.029422741 0.15149611
0.064540312 0.0099312253 0.14959323
0.062674284 0.013222331 0.14893979
0.0597542 0.017253399 0.14911619
0.055399608 0.018743526 0.14803022
0.051616888 0.020733315 0.14866561
0.062195607 0.013833007 0.14457643
0.059952017 0.016728695 0.14407748
0.057247397 0.018374588 0.14385843
0.025641233 0.0072788261 0.1917277
0.019177772 0.013537202 0.19179547
0.011830972 0.020068463 0.19176453
0.0069477232 0.022760242 0.19193715
0.0033763759 0.026718412 0.19179666
-6.3030049e-05 0.029838346 0.19035959
-0.0032939427 0.03292048 0.18945783
-0.0059694266 0.034619167 0.18801111
0.03717529 -0.0018832069 0.18821326
0.03570009 0.0012716334 0.18976498
0.031904873 0.0046304613 0.19086856
0.028352566 0.0061148731 0.19112539
0.0023467103 0.032898508 0.18747893
-0.001470957 0.034570731 0.18640319
-0.0056840489 0.035937984 0.18685514
0.038591459 -0.00064210035 0.18479747
0.038290862 0.0026064999 0.18603098
0.004220454 0.034074932 0.18308431
-0.00019585527 0.034912385 0.18224216
0.040341746 0.00090720505 0.18074948
0.039950825 0.0040512439 0.1819115
0.0088508399 0.033485584 0.179766
0.0053818701 0.033758052 0.17849991
0.0013998859 0.034861997 0.17866915
0.043579392 0.0026374888 0.17680275
0.041466154 0.0057802964 0.17846167
0.011214417 0.034093108 0.17408794
0.006582466 0.033923354 0.17456502
0.052961849 -0.0018106643 0.1712732
0.049431983 0.0008774437 0.17306757
0.04668808 0.0038391612 0.17489257
0.013217431 0.034514464 0.16990146
0.061480649 -0.0082488433 0.1680153
0.059437916 -0.0047568474 0.16918066
0.056527324 -0.0024732333 0.16977823
0.013788934 0.034408513 0.16588002
0.065768927 -0.0099698696 0.16412455
0.064486668 -0.0065746233 0.16502792
0.020039959 0.03356063 0.16111603
0.068470091 -0.0078327488 0.16082856
0.066400044 -0.0048120338 0.16117519
0.065657511 -0.00097153708 0.16069749
0.022373756 0.033878542 0.15643105
0.066639453 -0.0037983395 0.1570687
0.065494806 0.00033587217 0.15621808
0.064240545 0.003869351 0.15472549
0.027642436 0.033266757 0.15354985
0.064690113 0.0011706613 0.15104258
0.064242788 0.0042907689 0.15115747
0.04112009 0.02667143 0.14888138
0.033438422 0.032178745 0.14846876
0.064081162 0.0070708916 0.14634416
0.053696208 0.019249873 0.14525846
0.045759127 0.023633888 0.14493915
0.037816193 0.029654002 0.14385509
0.064055316 0.0094438959 0.14215872
0.063030519 0.012217285 0.14233419
0.060247533 0.016851865 0.14185619
0.055256687 0.019009089 0.14189705
0.051577825 0.021236252 0.14131036
0.064536288 0.0096416529 0.13869968
0.063065328 0.01289922 0.13784498
0.06009344 0.01630944 0.13769978
0.056263261 0.018725591 0.13739401
0.052090898 0.020870015 0.13711473
0.062973484 0.014436621 0.13353628
0.061404224 0.015082609 0.13397241
0.0061300863 0.013667215 0.19230074
0.0028663045 0.017081376 0.19220576
-0.00022214372 0.020670444 0.19226137
-0.0056069847 0.024146961 0.19122896
-0.012555797 0.030535135 0.19066903
-0.016603976 0.033920344 0.19081888
-0.018346511 0.035858609 0.19020241
0.030089693 -0.0047667716 0.19018137
0.026935702 -0.0011334866 0.19114956
0.023662124 0.0029610293 0.19146326
0.01825867 0.0057848417 0.19185561
0.01162457 0.012543782 0.19250658
0.0042920108 0.019620508 0.19205272
0.00088503305 0.023992732 0.19228411
-0.0027413098 0.026414774 0.19116238
-0.006993847 0.029335639 0.18995792
-0.01036759 0.032578472 0.1888262
-0.014619793 0.034991555 0.18786895
-0.017727442 0.037904233 0.18737811
0.036866374 -0.0093509741 0.18679583
0.03584493 -0.0061458163 0.18802798
0.031554658 -0.0032255715 0.18964997
0.028899916 0.0008893935 0.19012854
-0.0074067377 0.035554763 0.18474889
-0.01259354 0.036797632 0.1840153
-0.016060662 0.039365172 0.18347895
0.038836882 -0.0076317778 0.18195561
0.038672216 -0.004175188 0.18334067
-0.0022335425 0.034996901 0.17947564
-0.0065129055 0.035657365 0.18003625
0.041064981 -0.0061717741 0.17759216
0.040276304 -0.0028002523 0.17912874
0.0029955925 0.034133252 0.17633942
-0.0010369439 0.034811236 0.17540857
-0.0044442825 0.035599738 0.1752902
0.046450756 -0.0079060327 0.17304718
0.044351406 -0.0045784377 0.17473125
0.042896841 -0.0013448521 0.17636633
0.0045444202 0.03398665 0.17175791
0.00043562427 0.034469806 0.17098787
0.06086462 -0.014860159 0.17074543
0.05776903 -0.013616836 0.17072335
0.05327896 -0.01002205 0.17089242
0.04975114 -0.0062765814 0.1712333
0.047126476 -0.0028368831 0.17310229
0.0094605396 0.033524863 0.16803485
0.0055481065 0.034039162 0.16729334
0.0016479753 0.034626972 0.16753259
0.063500859 -0.014338164 0.1678468
0.060889564 -0.011310039 0.16859698
0.056024775 -0.0073585678 0.16984066
0.011356022 0.033245794 0.16256106
0.0065118512 0.034269691 0.16365427
0.065413855 -0.011262238 0.16336125
0.013137057 0.033344511 0.157581
0.07073687 -0.01339457 0.15752509
0.066776969 -0.011889806 0.15810928
0.014949598 0.033858392 0.15400472
0.070772775 -0.012544041 0.15415651
0.069221638 -0.0094484743 0.15480936
0.066920847 -0.0058968458 0.15453762
0.017150484 0.033640176 0.15028381
0.072606288 -0.011461915 0.15038577
0.070206597 -0.0088070706 0.15047047
0.066857018 -0.0055411924 0.14974529
0.065015852 -0.0022580996 0.149874
0.022679122 0.034226038 0.14602506
0.064124942 0.00042725727 0.14546344
0.063665204 0.0044250488 0.14333344
0.028216567 0.033470657 0.14234731
0.063664198 0.0011604354 0.14032346
0.063593358 0.0051736943 0.13983998
0.041243196 0.026038764 0.13819301
0.033843152 0.031604663 0.13723549
0.064365208 0.0021900609 0.13687912
0.063827932 0.0065163355 0.13487238
0.063569389 0.010536401 0.13479793
0.054978877 0.018544778 0.13416055
0.05147621 0.021015352 0.1342749
0.041923046 0.026378615 0.1329709
0.034196481 0.031630658 0.13253745
0.064225323 0.0079047885 0.1304782
0.063561693 0.011872398 0.1313405
0.059883684 0.015799833 0.1313509
0.056063604 0.018271547 0.13076454
0.051908009 0.020647533 0.1297102
0.042296354 0.026513521 0.12938756
0.063507408 0.012294121 0.12625319
0.06063588 0.015872115 0.12625378
0.056655325 0.018452717 0.12538773
0.053052116 0.019988205 0.12549335
0.063677423 0.013020651 0.1225968
0.060780905 0.016247682 0.12216508
0.057834931 0.018281519 0.12206995
-0.007089152 0.017229851 0.19329047
-0.011184566 0.020955976 0.19294491
-0.013035611 0.02365569 0.19503438
-0.015680848 0.027657801 0.19434586
-0.018014112 0.030860556 0.19384682
0.024055522 -0.0088636912 0.19128767
0.022260502 -0.0054691983 0.19231305
0.018587239 -0.0018410329 0.19258013
0.014491777 0.0018657511 0.1922268
0.0067026648 0.0075089154 0.19282874
0.0036405327 0.011115585 0.19197911
-0.00029308628 0.013901292 0.19224945
-0.0037713051 0.018618375 0.19227561
-0.0075855902 0.022217879 0.19162279
-0.010820681 0.025661176 0.19132012
-0.013883686 0.029290045 0.1916323
-0.01717186 0.032320198 0.1917516
-0.019248024 0.036105417 0.1908125
0.036529787 -0.016668757 0.18823767
0.034346059 -0.014265781 0.18915087
0.030926164 -0.010889299 0.18989712
0.027552551 -0.0074714329 0.19067711
0.024767937 -0.0033882745 0.19199535
0.020721052 0.00035135914 0.19167715
0.036112636 -0.01296036 0.18648857
-0.018410854 0.039952695 0.18448395
0.037364639 -0.011002377 0.18216401
-0.0082598468 0.035620905 0.17690393
-0.01235103 0.036612019 0.1781258
-0.015230901 0.039531339 0.17838013
0.047406826 -0.01678301 0.17502147
0.042833615 -0.012476421 0.17557082
0.040356625 -0.010087685 0.17737761
-0.0073296661 0.035529111 0.17269385
-0.012229983 0.036342952 0.17322776
0.053461272 -0.017893296 0.17219305
0.049626619 -0.014242826 0.1730642
0.046318054 -0.010347405 0.17379147
-0.0019779615 0.035011314 0.16922468
-0.0052485336 0.035652004 0.16839993
0.055692725 -0.015899355 0.1715183
0.053623341 -0.013459586 0.17158717
-0.00020960905 0.035176151 0.16476473
-0.0038421489 0.035759281 0.16443384
0.0055970401 0.034226082 0.16064891
0.0014570933 0.035022013 0.16047761
0.0089456867 0.032483146 0.15699223
0.0060919849 0.033202365 0.1566596
0.013275349 0.033742834 0.15168941
0.0091160359 0.032380149 0.1513468
0.011251561 0.034268804 0.14663067
0.069456846 -0.010062408 0.14704567
0.017258072 0.034493618 0.14312464
0.068651006 -0.01095357 0.14314476
0.066154651 -0.007090902 0.14292336
0.064257801 -0.003845524 0.14301118
0.018182298 0.034846701 0.13930494
0.064438462 -0.0026610475 0.13816249
0.023641614 0.034234602 0.1350944
0.064993717 -0.00058448315 0.13393012
0.064442828 0.0042707808 0.1331318
0.028740831 0.033341222 0.13105947
0.065021202 0.0004449971 0.13010269
0.064759806 0.0051093064 0.1285041
0.042245775 0.026240826 0.12632495
0.034395192 0.031797361 0.12680066
0.064551704 0.0065271873 0.12394756
0.063837275 0.0096957348 0.12293875
0.051679119 0.020640654 0.12313604
0.04180121 0.026085142 0.12261158
0.034920134 0.031316251 0.12264144
0.065031737 0.0072216205 0.12038916
0.063745514 0.011263739 0.11923552
0.061260819 0.015470801 0.11940688
0.05679132 0.018390479 0.11904997
0.052754123 0.019894149 0.1188044
0.059077889 0.015552716 0.11550975
0.028071785 -0.021804297 0.19528818
0.012945043 -0.0066481358 0.19271803
0.0094837891 -0.0033625495 0.19248062
0.0056001889 -1.8428778e-05 0.19281787
-0.001290459 0.0061235223 0.19237059
-0.0047362968 0.0094208345 0.19214517
-0.0074396767 0.013041668 0.1925669
-0.011607295 0.017599143 0.19346464
0.036188655 -0.024734151 0.19096875
0.033354361 -0.021936528 0.19182333
0.030161323 -0.018620504 0.19195351
0.026714945 -0.015378369 0.19117641
0.023123059 -0.012206435 0.19136399
0.019991286 -0.0089428267 0.19237661
0.015734177 -0.0048462134 0.19284534
0.011864869 -0.00085181417 0.19270951
0.0077635078 0.0028797521 0.19236338
0.0015245224 0.0089652371 0.19200143
0.037943501 -0.024386292 0.18780524
0.035826843 -0.02009587 0.18859518
0.032397259 -0.016318321 0.19019657
0.039141484 -0.022604408 0.18326497
0.037382469 -0.018502533 0.18415511
0.036190793 -0.015164995 0.18313095
0.040963396 -0.020974241 0.17918488
0.038840286 -0.017313445 0.17973357
0.037397292 -0.014088484 0.18041635
0.049207225 -0.020527558 0.17482996
0.045061681 -0.018552665 0.17652181
0.041465297 -0.015471649 0.17675945
-0.013577659 0.035936646 0.17016917
-0.017646883 0.036792848 0.17085764
0.051494554 -0.020591222 0.17245352
-0.0089061847 0.03534802 0.16651228
-0.012894105 0.035270289 0.16591117
-0.0070055434 0.035425417 0.1615406
-0.01068774 0.035676185 0.1620267
-0.0018543154 0.034669094 0.15784401
-0.0051623462 0.035086438 0.15726018
0.0041470993 0.033164494 0.15397179
-0.00027742051 0.033628561 0.15356934
0.0063289739 0.03242733 0.14996842
0.0025456687 0.033580415 0.1486001
0.012901903 0.033560276 0.14427638
0.0074307369 0.033006299 0.14474395
0.0041401237 0.033902969 0.14572564
0.013634467 0.034130812 0.14109004
0.01066821 0.034191545 0.14151579
0.067695059 -0.012861671 0.14032459
0.011629689 0.034189414 0.1372
0.067301542 -0.012058318 0.13535851
0.06600441 -0.0079483911 0.13666624
0.018043276 0.033556774 0.1315484
0.066179492 -0.0074723884 0.1318298
0.065771647 -0.0039268807 0.1317369
0.018377621 0.033702061 0.12791872
0.065904707 -0.0048882905 0.12696344
0.065549538 -0.00031607226 0.12739033
0.024659021 0.032982606 0.12312913
0.065193087 -0.0004224889 0.12271082
0.06479203 0.0035749581 0.12231171
0.041966267 0.02437515 0.12037957
0.033319518 0.031192051 0.12028205
0.064908847 0.0052837785 0.11765975
0.050918113 0.020016801 0.11590236
0.041913692 0.02521975 0.11686838
0.034560058 0.031281997 0.1159212
0.064329594 0.0053323209 0.11315554
0.062685043 0.01021341 0.11335522
0.060200509 0.013916407 0.11308205
0.05624114 0.016630843 0.11277467
0.05206769 0.019432247 0.11264074
0.042278524 0.024705295 0.11239237
0.035403736 0.03077027 0.1121996
0.062600337 0.0098478217 0.10901058
0.060008183 0.013792807 0.10749298
0.055986263 0.016231431 0.10791153
0.052216448 0.018701604 0.10889941
0.060962021 0.014231158 0.10405576
-0.011370658 0.005114886 0.19397414
-0.013152756 0.0079031978 0.19474685
-0.015304071 0.011443335 0.19564876
0.031930488 -0.02856363 0.19246092
0.028955743 -0.02619344 0.19331554
0.025847208 -0.0228622 0.19387335
0.02183632 -0.02054848 0.19300359
0.018995171 -0.0166717 0.19141865
0.015731653 -0.013126894 0.19137383
0.012026503 -0.0099881133 0.19220766
0.0070576789 -0.0066264328 0.19318506
0.0027831143 -0.0036762904 0.19360128
-0.0044685272 0.0035094335 0.1931552
-0.0082984036 0.0058712508 0.19285077
-0.011136883 0.0098329438 0.19315726
-0.014096661 0.013101574 0.19359818
0.032419749 -0.025656866 0.1919885
0.024707885 -0.017517803 0.19178927
0.022308078 -0.015428196 0.191549
0.039194729 -0.028331127 0.18559423
0.039060835 -0.026072273 0.18552804
0.040118754 -0.025178878 0.1826475
0.040570837 -0.02523933 0.17720425
-0.018968744 0.036764242 0.16796502
-0.015456208 0.035600126 0.16442233
-0.018823676 0.036520209 0.16438973
-0.013173883 0.035667319 0.15976635
-0.017869329 0.036823779 0.15968975
-0.007895533 0.035355046 0.15518436
-0.012297086 0.03609151 0.15478152
-0.015561833 0.037390191 0.15471449
-0.0022067297 0.033855475 0.15080887
-0.0061863856 0.035177518 0.15070274
-0.010722077 0.035234429 0.15039641
-0.00098472275 0.034317903 0.14755031
-0.0038059186 0.035079725 0.14610049
0.0059482418 0.033303875 0.14252815
0.0018138885 0.03399365 0.14242986
-0.0022200868 0.034254726 0.14267462
0.0071788775 0.033459365 0.1389958
0.0035112146 0.03384421 0.13806751
0.0084919343 0.033567417 0.1343143
0.067693189 -0.013723057 0.13281801
0.010874817 0.03307052 0.12949324
0.067289017 -0.013113378 0.12939715
0.066242039 -0.010180661 0.12859058
0.015663188 0.033108976 0.1252178
0.011336006 0.033358198 0.12597817
0.067652017 -0.012360912 0.12370503
0.066552311 -0.0089544281 0.12456167
0.017348073 0.033191223 0.12048537
0.069741935 -0.012743635 0.12071371
0.066354483 -0.0072002895 0.12042928
0.065224729 -0.0034841467 0.11898535
0.02291174 0.033115327 0.11638147
0.064678147 -0.0020535849 0.11547565
0.024340682 0.032819293 0.11241758
0.065020345 -0.00078053772 0.11236817
0.063797481 0.0024659652 0.11039543
0.041778523 0.024134513 0.10902828
0.033913404 0.030488409 0.1086936
0.063749112 0.0051062796 0.10728174
0.062849104 0.0078072175 0.10637027
0.054305259 0.016561124 0.105492
0.051363252 0.018580286 0.10568851
0.042722199 0.02320483 0.10519367
0.03385203 0.029862961 0.10494238
0.06198312 0.0087102093 0.10200334
0.060405359 0.013083994 0.10247225
0.056131579 0.015900755 0.10220271
0.051825102 0.017939564 0.10109192
0.061618701 0.0096440315 0.098016143
0.060085602 0.013353007 0.097403586
0.056300119 0.015743257 0.098231077
-0.010264946 -0.0032947902 0.19721583
-0.012982836 0.0014016405 0.19738361
-0.015056434 0.0050321436 0.1978848
0.018203123 -0.024298063 0.19548243
0.014519233 -0.023582827 0.19506806
0.0020748763 -0.011048615 0.19356272
-0.00094442139 -0.00720484 0.19373927
-0.0090585109 -0.0016705587 0.19419309
-0.011392733 0.0025913753 0.19506472
-0.014803736 0.0063154441 0.19590038
0.022047132 -0.024892464 0.19509047
0.01909578 -0.023423335 0.1943613
0.015616013 -0.020262113 0.19220471
0.01158644 -0.017275169 0.19136208
0.0087458501 -0.013804062 0.19223985
0.0047916644 -0.010564433 0.19309369
-0.0056523727 0.00057190773 0.19285834
-0.021470157 0.036388032 0.16093278
-0.01982883 0.037088469 0.15695435
-0.018969174 0.037419882 0.15306124
-0.012865563 0.035621658 0.14879078
-0.016734749 0.036970884 0.14858997
-0.0064541791 0.034649074 0.1436114
-0.01091608 0.034825481 0.14402699
-0.014890173 0.036619656 0.14511093
-0.0046303105 0.034297816 0.13930202
-0.0092155794 0.034121417 0.14101565
0.00040818192 0.033725791 0.13554999
-0.0033282964 0.034367088 0.13506973
0.0064959172 0.033328474 0.1312235
0.0023355465 0.033743843 0.13120782
-0.0015766937 0.034387678 0.13046348
0.0074114818 0.032939829 0.127617
0.0038293079 0.033861861 0.12618542
0.013584844 0.033195544 0.12317985
0.0091178119 0.033550814 0.12269837
0.0050311722 0.033766098 0.12285107
0.067364931 -0.015090698 0.1241613
0.011626391 0.033878468 0.11903906
0.067910329 -0.013210719 0.1189962
0.066338673 -0.0084943138 0.11706376
0.067495942 -0.013502797 0.1151666
0.06580621 -0.0079009123 0.11368591
0.018441834 0.033993904 0.11044765
0.065821387 -0.007828841 0.1098581
0.063764043 -0.0033729225 0.10796064
0.023944704 0.032800801 0.10558879
0.064085498 -0.0030202791 0.10473651
0.063519895 0.0013059191 0.10427761
0.038068317 0.02667506 0.10246056
0.0293264 0.031634208 0.10159373
0.063233487 0.0031676088 0.099501133
0.062811501 0.0063536689 0.09994626
0.050403401 0.018855162 0.098527372
0.04273342 0.023619879 0.098696768
0.034793403 0.030377593 0.097771645
0.063578084 0.0043495651 0.095310509
0.062696934 0.0078964233 0.09544605
0.061265491 0.011436218 0.095768631
0.056550696 0.015770601 0.09538871
0.052581385 0.018600596 0.095631778
0.043834206 0.024100188 0.093751371
0.035807539 0.030436935 0.092651904
0.062945932 0.008693587 0.090522587
0.060964264 0.013100555 0.091471493
0.05735876 0.016278867 0.091106951
0.05351359 0.019179184 0.090454936
0.045518596 0.023986865 0.08872503
0.062997423 0.010138733 0.087009966
0.06155616 0.013336932 0.086903989
0.057789125 0.016337827 0.086347818
0.054291282 0.019085366 0.086316347
0.0095444415 -0.024010925 0.1973761
0.0070798434 -0.023159876 0.19662917
0.00097272359 -0.020318463 0.19506231
-0.0032955306 -0.016595926 0.19464031
-0.010425441 -0.009481106 0.19503123
0.011194699 -0.023447629 0.19421491
0.0075270268 -0.021736583 0.19364306
0.0036733877 -0.018785393 0.19310215
3.1292439e-06 -0.015927894 0.19313982
-0.0040480653 -0.011608983 0.19344538
0.010966757 -0.020560728 0.19188532
-0.013109129 0.034858841 0.14133334
-0.016710121 0.035413377 0.14055645
-0.011416577 0.03440785 0.13785577
-0.015214936 0.035823565 0.1368331
-0.0055582551 0.033960424 0.13211355
-0.010165478 0.034430597 0.13355169
-0.013941774 0.036040291 0.13368076
-0.0050574653 0.033930164 0.12844712
0.00051078945 0.033925209 0.12447768
-0.0028403979 0.033795401 0.12384135
0.0025930945 0.033767834 0.11934835
0.0076294225 0.032821603 0.11548942
0.0035375794 0.033124782 0.11583
0.066125624 -0.015024424 0.11563706
0.010621308 0.032542795 0.11190951
0.065418035 -0.014660161 0.11146027
0.011397629 0.032497805 0.10683769
0.066356435 -0.013294822 0.10668719
0.065792181 -0.0099342037 0.10729992
0.063755393 -0.0064262412 0.10678142
0.01668347 0.032998897 0.10300601
0.067031793 -0.012902429 0.1032573
0.06597399 -0.008906737 0.1029827
0.064041801 -0.0053294692 0.10251123
0.018669963 0.032478441 0.098833799
0.065261714 -0.0080154222 0.098782361
0.063509934 -0.0049047451 0.097665429
0.063015178 -0.00082759187 0.098274291
0.023834502 0.031467553 0.094566762
0.062949277 0.00052539259 0.093117774
0.028893983 0.031589523 0.090376556
0.06290628 0.0021492299 0.088703752
0.063215785 0.0056290701 0.087721765
0.039666004 0.026099347 0.086603343
0.030396013 0.031341702 0.086384594
0.063392982 0.0031867344 0.085486352
0.062899381 0.006849438 0.083941996
0.060240895 0.011463031 0.082069516
0.056516159 0.014551435 0.081584871
0.052631691 0.018023372 0.08202976
0.044923656 0.023602061 0.082819641
0.034650695 0.029869555 0.082802773
0.062118806 0.0073991325 0.080936849
0.0599024 0.011291629 0.078923285
0.056651015 0.014437232 0.078543425
0.052901037 0.017513536 0.078036249
0.045785557 0.022664633 0.079078078
0.056929968 0.01449368 0.075672925
-0.0030293204 -0.018722078 0.19393256
-0.017182868 0.035251137 0.13557485
-0.012737033 0.034087531 0.13012135
-0.01618455 0.035644174 0.12973934
-0.01119433 0.033658769 0.1263743
-0.0062514702 0.033473782 0.12219971
-0.0091415849 0.034062766 0.12196183
-0.003933345 0.033485029 0.11798704
-0.008318943 0.034144677 0.11797905
0.0026139244 0.033236101 0.11307758
-0.0021754298 0.034035243 0.11362958
0.0074147927 0.032318898 0.1091693
0.0027326318 0.033504978 0.10905606
-0.00072602183 0.034356676 0.10918534
0.0088056093 0.032483213 0.10441667
0.0041973544 0.033687349 0.10518193
0.010587255 0.032922372 0.10060626
0.012595656 0.033103496 0.09476459
0.065501198 -0.010554265 0.095568419
0.064494185 -0.006834602 0.094937503
0.017688576 0.033428639 0.091729224
0.065106735 -0.0098452233 0.090990365
0.063548073 -0.005872298 0.090859115
0.06252031 -0.0021914821 0.090208113
0.019400086 0.033517137 0.087072194
0.062982753 -0.0057219621 0.086550295
0.062778234 -0.0013121143 0.086358845
0.024451349 0.032085191 0.083367169
0.063245311 0.00064763054 0.081982076
0.030410746 0.031742197 0.079831123
0.062900595 0.0018435325 0.077317297
0.062428571 0.0058730114 0.077650607
0.060883813 0.0093176682 0.077183723
0.048908196 0.020231433 0.076165855
0.04078662 0.025876123 0.07655102
0.032521781 0.030625993 0.073800623
0.062016755 0.0061040949 0.072647095
0.06029024 0.01074861 0.073526621
0.057060324 0.01444147 0.073414087
0.05312667 0.017342351 0.072953641
0.049221668 0.020264152 0.072265923
0.041271798 0.025675604 0.071155727
0.060376763 0.01046324 0.069302678
0.057340495 0.014242552 0.067548931
0.05359859 0.016973779 0.068087459
0.049895003 0.019467922 0.068103015
-0.013907788 0.033462912 0.12265849
-0.017934814 0.034141287 0.12287545
-0.013665515 0.032634124 0.11802369
-0.017312383 0.034140438 0.1184358
-0.0067873625 0.033262663 0.1153788
-0.010527139 0.033237126 0.11398822
-0.0056826882 0.033584155 0.1106416
-0.0095252395 0.033240765 0.10942417
-0.0037435126 0.034236252 0.10621488
-0.0077465354 0.034235239 0.10534978
0.0024063587 0.034096267 0.10240734
-0.0020496976 0.034402296 0.1017611
0.0074477214 0.032790124 0.098807871
0.0036420533 0.033320479 0.098242462
-0.00051528215 0.034074455 0.097101212
0.0075948928 0.031532049 0.093189001
0.0044739638 0.031930715 0.09369123
0.065617137 -0.013265274 0.092179179
0.011167715 0.032812349 0.089358091
0.065869205 -0.011354618 0.088859975
0.013528156 0.033576172 0.085393786
0.065946266 -0.011594281 0.084515333
0.063404292 -0.0067596845 0.083852947
0.017384006 0.032558829 0.080583453
0.013773147 0.033579763 0.080425858
0.065744743 -0.010673482 0.080355167
0.064167872 -0.006649645 0.080010355
0.063208565 -0.002526205 0.079205513
0.020208852 0.032233458 0.075710356
0.063901931 -0.0056838207 0.076857328
0.062605575 -0.0016984008 0.074578702
0.025736375 0.031182943 0.071667552
0.062489815 -0.00049323589 0.07063216
0.06246464 0.0038728099 0.069604933
0.036367476 0.027761986 0.067788363
0.027691076 0.031383973 0.067765534
0.062652335 0.00058024563 0.067182839
0.061784986 0.0052048974 0.065804303
0.060065895 0.0097930115 0.065635979
0.053052172 0.017224072 0.065110028
0.048945554 0.01975642 0.065037012
0.040976245 0.025209565 0.0639292
0.032171499 0.030544441 0.063147008
0.062132124 0.0055808313 0.061373889
0.060294565 0.0099228434 0.060914576
0.057574619 0.013963077 0.061313093
0.053415172 0.016624456 0.060315073
0.049535021 0.019319275 0.060099781
0.04147163 0.02539628 0.059134185
0.03349508 0.03088541 0.059735894
0.061358154 0.010336252 0.055970848
0.058458429 0.014454607 0.05587858
0.054656874 0.01725829 0.055434108
0.049768746 0.019591058 0.055974305
0.04261807 0.025230091 0.056603611
0.061245896 0.012307599 0.052154839
0.059416428 0.014635922 0.051544249
-0.02137698 0.035286114 0.11965626
-0.017951529 0.03445961 0.11556613
-0.021929797 0.035804369 0.11662906
-0.014135987 0.032894455 0.11231649
-0.016806487 0.034219626 0.11183965
-0.02190138 0.034601491 0.11306733
-0.012067549 0.033798717 0.10744101
-0.015511284 0.035200603 0.1073674
-0.0099838562 0.034669012 0.10335588
-0.014315888 0.034685038 0.10305077
-0.0048257671 0.034538873 0.099021018
-0.00777636 0.034887824 0.09900564
0.0014376044 0.033598226 0.094896495
-0.0028467253 0.034006648 0.094770968
0.0033088783 0.032601923 0.091359556
-5.6497753e-05 0.032685325 0.089531481
0.0076027457 0.032430857 0.087560475
0.0046018343 0.032307506 0.086322069
0.010471615 0.032754358 0.083222508
0.0075170873 0.032672543 0.082015932
0.012447682 0.032715786 0.077666104
0.065688349 -0.011097223 0.077003658
0.014382483 0.032722771 0.074145198
0.064551435 -0.011452056 0.074080884
0.063681319 -0.0079427846 0.072833836
0.063209862 -0.0072291549 0.069395125
0.062558889 -0.0037248377 0.068356037
0.021594575 0.031891797 0.064960718
0.062850557 -0.0014353525 0.064507544
0.062519357 0.0025893431 0.064076543
0.062643498 -7.4904412e-05 0.06055814
0.06282188 0.0031356607 0.059876442
0.028997554 0.03246427 0.056665838
0.062997729 0.0050716214 0.055595696
0.049104158 0.019879524 0.053290963
0.041910198 0.025827963 0.053824306
0.033772681 0.030435514 0.052812517
0.062834918 0.0064966474 0.049747944
0.06223847 0.010012774 0.0507285
0.058146868 0.01606581 0.050335109
0.054938283 0.017835919 0.050888419
0.050417934 0.019517679 0.049946129
0.041817926 0.025115654 0.049755454
0.061386749 0.011160539 0.04665643
0.059372708 0.01460083 0.046019495
0.054630093 0.016122498 0.045554638
0.051658601 0.018387439 0.045569956
-0.022577949 0.033869766 0.10984755
-0.021113485 0.034212556 0.10524642
-0.015665404 0.035072342 0.10201257
-0.019562326 0.035312437 0.10054523
-0.014028509 0.034769479 0.097170293
-0.018188281 0.036250651 0.096066117
-0.0082115615 0.034110211 0.093231261
-0.012482917 0.034710661 0.092281818
-0.003346527 0.032504983 0.088291645
-0.0072180927 0.033370718 0.088636339
-0.011398917 0.034699045 0.088373661
0.0022765994 0.031665944 0.084168613
-0.0019616252 0.03243034 0.083985388
-0.0055064093 0.033345327 0.08479166
0.0035342835 0.032162409 0.080516517
-6.5939501e-05 0.032638036 0.079244494
0.010272685 0.0321525 0.074564219
0.0052888533 0.031937856 0.075723708
0.0011792667 0.032551024 0.075773835
0.012003851 0.03194705 0.07079792
0.0073213559 0.032344222 0.071309626
0.064148366 -0.012316426 0.070257843
0.013020285 0.031734187 0.067222059
0.064773217 -0.01199365 0.066635191
0.06325829 -0.0087541528 0.066147685
0.014356956 0.031549729 0.062585831
0.065415628 -0.011768335 0.06191057
0.064065829 -0.0086017605 0.062282562
0.062291704 -0.0041191895 0.061201513
0.020716826 0.031649455 0.058566272
0.063519359 -0.0076115616 0.058215916
0.062463358 -0.0030797962 0.057248712
0.021648206 0.032171465 0.053749859
0.063299216 -0.0013350863 0.052884698
0.063076332 0.0020009317 0.05150789
0.028113915 0.032354672 0.049767852
0.063570738 -0.00022790581 0.048405766
0.063207135 0.0033466127 0.048566639
0.048423048 0.019846413 0.04653585
0.041631296 0.024678506 0.046220839
0.033375394 0.030086633 0.045605838
0.062996365 0.0041465964 0.043818295
0.061742391 0.008804854 0.043373644
0.054118361 0.016420882 0.042552114
0.04998133 0.019086901 0.042555451
0.041796215 0.024561556 0.042015612
0.03379887 0.030057061 0.040917933
0.063041754 0.0058122054 0.039934278
0.061455294 0.0094215441 0.039164484
0.058922581 0.013487553 0.038714468
0.054834649 0.016410805 0.038954675
0.050528035 0.018999008 0.037792265
0.042449027 0.024407761 0.038608789
0.061350025 0.010117626 0.035385847
0.059252389 0.013401357 0.033533514
0.055214368 0.016089337 0.034274638
0.051424958 0.018513434 0.034863472
0.059821859 0.01379393 0.030915856
-0.018936776 0.036834095 0.093507171
-0.015429358 0.034911737 0.089848399
-0.018037446 0.036213949 0.09000206
-0.0092619695 0.033590309 0.085566819
-0.013708711 0.034223605 0.085208833
-0.0077862516 0.033612322 0.081339657
-0.012016667 0.033837862 0.080381572
-0.0029357541 0.03326387 0.077951252
-0.0060574431 0.033433251 0.076688886
0.0032126075 0.032082427 0.072540879
-0.00082327053 0.032793172 0.072686315
-0.0051926384 0.033183794 0.072480798
0.0043429304 0.032443009 0.068706691
0.00031307712 0.032164861 0.068143129
0.0098539069 0.031267256 0.064490438
0.0064772572 0.03183423 0.064571381
0.011481701 0.031514656 0.060350239
0.0077692261 0.031348273 0.060171664
0.066643924 -0.013117509 0.059787154
0.01376304 0.030853108 0.056428432
0.065956078 -0.012405137 0.05608815
0.064080037 -0.0097974297 0.055207014
0.061470665 -0.0070221648 0.053803802
0.066111147 -0.012196898 0.050481737
0.064349227 -0.0088261496 0.050546408
0.06246879 -0.0062238201 0.05063045
0.063915342 -0.0075268261 0.046515465
0.062941007 -0.0046713054 0.045867324
0.023005042 0.032488868 0.042907834
0.063283995 -0.0010226499 0.043519795
0.062675379 0.00053494237 0.040856123
0.028085839 0.031300757 0.038529932
0.063060194 0.003103951 0.037271917
0.062186465 0.0070661958 0.03694123
0.041835509 0.024633354 0.035476089
0.033494711 0.029529242 0.035051525
0.062311672 0.0042841434 0.032139897
0.061788164 0.0078390185 0.03215158
0.054481838 0.016637009 0.031384528
0.050482653 0.018828511 0.03170079
0.041852217 0.023469578 0.030255854
0.06184426 0.0091718268 0.027969718
0.05997286 0.013683647 0.027718604
0.055274818 0.015924614 0.027152896
0.051315602 0.018169884 0.02670747
0.05950211 0.01282534 0.023654521
-0.020009641 0.035609957 0.086148083
-0.016824564 0.033941075 0.082926095
-0.020452496 0.035109147 0.083239794
-0.015764691 0.033681907 0.079242051
-0.018532725 0.034473673 0.07810837
-0.0091113076 0.033341024 0.074499011
-0.012812055 0.033476148 0.075080097
-0.0079584895 0.033531509 0.070394993
-0.011428858 0.03406281 0.070440352
-0.0020940425 0.03222904 0.066232979
-0.0059162201 0.033179246 0.066218138
0.0045015812 0.031707451 0.061603665
-0.00099083874 0.03219232 0.061817944
-0.0050584786 0.032916196 0.061953127
0.0097298864 0.030785119 0.056808412
0.0049574962 0.031607505 0.057960868
0.001581993 0.032206967 0.058064878
0.01095401 0.030052848 0.052904904
0.0067350864 0.030848689 0.054367483
0.065058365 -0.011206498 0.047220469
0.014586512 0.031739194 0.045004368
0.064518988 -0.0087036602 0.044782996
0.063214384 -0.0061967764 0.042591035
0.015753707 0.032202832 0.040434659
0.064202502 -0.0085989274 0.041086912
0.062255323 -0.0050700549 0.039445817
0.021287335 0.032155626 0.036692381
0.061447497 -0.0038592257 0.035360575
0.062645718 -4.601106e-05 0.035142004
0.02712157 0.031195506 0.032871664
0.062429886 0.0017896853 0.030721962
0.038019743 0.026109893 0.028084099
0.028337996 0.031359136 0.027989805
0.063146949 0.0031508841 0.026159167
0.062244687 0.0073067136 0.025292516
0.049760737 0.018740455 0.023899734
0.042398103 0.024017066 0.024924219
0.033704106 0.029105823 0.023817301
0.062890358 0.0040373206 0.022630513
0.062034898 0.0076170657 0.021474361
0.059326172 0.012418553 0.021123946
0.055339217 0.015537703 0.021552205
0.051411435 0.018637722 0.020922542
0.043192141 0.02452857 0.020324707
0.035539567 0.028658001 0.020107448
0.061287403 0.0084147956 0.017023683
0.059333794 0.012384966 0.017027617
0.055906944 0.01574455 0.016608119
0.051859424 0.018720612 0.01582092
0.043592855 0.024671385 0.016319335
-0.023416057 0.034509949 0.079567075
-0.024650814 0.03564541 0.079467714
-0.021734629 0.034857471 0.076522052
-0.02375037 0.036431007 0.077255785
-0.016003912 0.033464253 0.072336495
-0.020011032 0.03518533 0.071398795
-0.014628599 0.033609938 0.067332387
-0.018487278 0.034962315 0.067255139
-0.0089912899 0.033260204 0.063547134
-0.012493854 0.033714116 0.062722027
-0.0031853765 0.032262318 0.058471262
-0.0072546322 0.033007622 0.058619201
-0.001466075 0.032119475 0.0548684
0.0042030914 0.030544117 0.050575495
-0.00020593964 0.031935096 0.05103904
0.0089087654 0.029521404 0.047137201
0.0060652746 0.029976603 0.046116114
0.0098647298 0.030210685 0.041696608
0.0074804146 0.030256355 0.042423189
0.011988696 0.03131146 0.037191331
0.061454684 -0.0088630076 0.035651743
0.06176525 -0.0062943511 0.032610834
0.016485143 0.032210819 0.028991163
0.061914228 -0.0065555256 0.028289974
0.06133575 -0.0022184718 0.027626038
0.017159253 0.031923026 0.025630295
0.063242048 -0.0046809446 0.023731828
0.062066905 -0.0017536674 0.024025619
0.028128922 0.031172704 0.019941747
0.065119877 -0.0038737692 0.01923579
0.062536255 0.0013446324 0.019454837
0.033258181 0.028524546 0.01674509
0.06273365 0.0023112446 0.014924109
0.061705578 0.0064583533 0.014189959
0.0600284 0.01005422 0.01357764
0.043358181 0.024171103 0.012578726
0.034098331 0.027969474 0.013301551
0.060956523 0.0065804292 0.009824574
0.058702521 0.010779256 0.0098709464
0.055117391 0.014340699 0.0097479224
0.051126905 0.016923651 0.0089680552
0.039113685 0.02563896 0.0096291304
-0.019907268 0.035100281 0.065118492
-0.021795699 0.035642371 0.065384448
-0.016694495 0.033403359 0.061830938
-0.018936671 0.034746461 0.061265349
-0.021461839 0.035818573 0.060392022
-0.013412794 0.033105485 0.056789696
-0.017546037 0.034733862 0.055701911
-0.020454139 0.036618464 0.055039227
-0.0079211211 0.031686462 0.052842855
-0.011771385 0.032707326 0.051575184
-0.016435903 0.034506701 0.051967382
-0.0023151021 0.031522363 0.047961652
-0.0065770736 0.032095134 0.047890067
-0.0097908536 0.033081539 0.047072709
0.0022426769 0.029928688 0.044440925
-0.0013477895 0.030838361 0.044144094
-0.0054225884 0.03221298 0.04221493
0.0042767935 0.030044649 0.040061235
0.00015897211 0.030966137 0.038837194
-0.0028351583 0.031852167 0.039260268
0.0057854615 0.030341469 0.035263538
0.010728763 0.030595208 0.031686425
0.0077139866 0.030530652 0.030335367
0.013234147 0.03226582 0.02718097
0.0091242045 0.031107321 0.025571048
0.062621735 -0.0085532293 0.025731146
0.015222725 0.03251718 0.022320747
0.062806018 -0.0072033647 0.024478376
0.017336404 0.032308534 0.017800152
0.062963486 -0.0038797613 0.01784879
0.062128171 -0.0023448039 0.017154992
0.022286253 0.031352021 0.013526022
0.062417205 -0.0015158542 0.011918008
0.027912213 0.029587636 0.0094724298
-0.013994423 0.033244997 0.049500406
-0.017982423 0.034109242 0.048707604
-0.021495933 0.035457667 0.048463643
-0.012679545 0.033176318 0.044882178
-0.017506626 0.033287417 0.045317829
-0.0064737089 0.033075873 0.039920866
-0.010741392 0.033267364 0.041354895
-0.00052224193 0.031613972 0.036208034
-0.00513322 0.032372307 0.036877155
-0.0095426049 0.033179566 0.03741914
0.00088310055 0.030950246 0.032788455
-0.0042080302 0.031943858 0.032304943
0.0060896464 0.030650437 0.028862953
0.0013157455 0.030704394 0.028133333
0.0070741465 0.030813172 0.024126232
0.0030768747 0.030666482 0.024107635
0.0081875464 0.031105284 0.019525766
0.011143677 0.031421185 0.014992297
0.013213513 0.032089628 0.011200368
0.061873797 -0.0066759251 0.010298908
-0.019048398 0.033708084 0.042847633
-0.021684146 0.035124436 0.04279542
-0.014246317 0.032638609 0.038262963
-0.018242663 0.033526458 0.037460744
-0.021067215 0.035602819 0.039108634
-0.012416403 0.032648154 0.03322351
-0.016544415 0.032662548 0.033649385
-0.006408642 0.032778744 0.030049026
-0.0099181896 0.032699149 0.02939415
-0.00068143848 0.031003568 0.024897993
-0.0045088166 0.031774372 0.025450408
-0.0083161341 0.03312318 0.024717569
0.00093950331 0.030508451 0.020793319
-0.0044769244 0.031958777 0.021654904
-0.007858349 0.033463404 0.021909773
0.0068370327 0.030829184 0.01631844
0.0023498219 0.03043461 0.016572893
0.0077287545 0.030768007 0.013172626
0.004915229 0.031150166 0.01199156
0.0091422964 0.031033089 0.0084395409
0.0053667929 0.031469807 0.0091497302
-0.021284085 0.03530103 0.035559773
-0.018211789 0.033862855 0.032020986
-0.021213803 0.035277952 0.032326221
-0.012764868 0.032905921 0.027347147
-0.017897237 0.033531107 0.02677685
-0.012043437 0.033299528 0.02319473
-0.016272906 0.032581292 0.022832334
-0.0052521769 0.031692497 0.018637478
-0.010109583 0.033090487 0.018543005
-0.00058244262 0.030696619 0.014893353
-0.0044558132 0.030910969 0.014442682
0.00069105998 0.030543631 0.010068893
-0.017309152 0.033493374 0.020155847
-0.019229237 0.034436159 0.019893229
-0.013519942 0.03259493 0.015705764
-0.016615368 0.032817375 0.015400589
-0.019682119 0.033863857 0.014859855
-0.0063385088 0.030973678 0.011458933
-0.010876081 0.031654138 0.011915267
-0.014254823 0.031755459 0.011430085
-0.018735791 0.032302104 0.012311041
-0.016589178 0.031847179 0.0089208484
