# .PCD v0.7 - Point Cloud Data file format
VERSION 0.7
FIELDS x y z
SIZE 4 4 4
TYPE F F F
COUNT 1 1 1
WIDTH 927
HEIGHT 1
VIEWPOINT 0 0 0 1 0 0 0
POINTS 927
DATA ascii
-0.033265486 0.030984519 0.1883775
-0.023196734 0.032911677 0.18950197
-0.029505895 0.027345819 0.19199747
-0.035581447 0.019198753 0.18986747
-0.02808417 0.033491448 0.18734023
-0.036659148 0.021211762 0.18578735
-0.03455136 0.031505063 0.18284735
-0.036368437 0.022569969 0.18206689
-0.034846056 0.033083621 0.17919528
-0.030971656 0.03495048 0.17473215
-0.014887131 0.031249758 0.19156376
-0.021118641 0.026418958 0.19283324
-0.028839052 0.018458059 0.19217879
-0.03422429 0.011187422 0.19213748
-0.035821315 0.0084841261 0.19064036
-0.019990848 0.032162081 0.19030774
-0.033968825 0.017513718 0.19135529
-0.036385592 0.013763427 0.18844229
-0.03702943 0.009826147 0.18813935
-0.02132576 0.03435621 0.18506902
-0.036754567 0.014790188 0.18346727
-0.03563394 0.024184912 0.1788736
-0.036561016 0.016377535 0.17917779
-0.027166387 0.034614317 0.176177
-0.036467124 0.021603562 0.17493224
-0.033365805 0.032758471 0.17141861
-0.03301179 0.032813493 0.16651556
-0.034753334 0.032925315 0.16252151
-0.026676621 0.010206507 0.19217998
-0.030120932 0.0065919254 0.19266832
-0.032614026 0.0029915497 0.19131103
-0.01150126 0.030188123 0.19147524
-0.017274089 0.022748221 0.19225162
-0.023862343 0.015858028 0.19119546
-0.035343777 0.0051896907 0.19007936
-0.009907322 0.033303395 0.18677852
-0.012471176 0.033365544 0.1897161
-0.037002616 0.007078778 0.18566653
-0.036946762 0.01299818 0.18139175
-0.036566362 0.0081151146 0.18100071
-0.020086261 0.035044007 0.17730892
-0.036693826 0.013963233 0.17644107
-0.036143404 0.0094330171 0.17750651
-0.021200493 0.034820929 0.17374203
-0.03649348 0.015215478 0.17183512
-0.025815543 0.033937052 0.16885254
-0.035226204 0.020634975 0.16801503
-0.02709154 0.033973172 0.16511711
-0.035602629 0.022823859 0.16342947
-0.032935601 0.033740629 0.16000098
-0.036060244 0.023452708 0.16022354
-0.032713205 0.033538185 0.15535668
-0.0069868183 0.025467347 0.19180217
-0.013649515 0.019280069 0.19188881
-0.020097418 0.012238994 0.19182009
-0.022944365 0.0074438518 0.19197911
-0.026829023 0.0037080562 0.19290662
-0.030115813 0.00012514181 0.19238785
-0.033453107 -0.0027663223 0.18992049
-0.037001472 -0.0066575911 0.19034368
-0.0048321756 0.031597704 0.18897912
-0.005978452 0.028598735 0.19087657
-0.035921022 -0.00013463385 0.18758777
-0.039276898 -0.0044734608 0.18697318
-0.0059334859 0.032930039 0.18492115
-0.036810569 0.00097425468 0.18297949
-0.039624814 -0.003260931 0.182365
-0.041314393 -0.0062505715 0.18087974
-0.0084443549 0.033935983 0.18139836
-0.009887212 0.033743285 0.18054488
-0.036934845 0.0057383338 0.17884773
-0.036617398 0.0013058335 0.17805532
-0.039730333 -0.003101686 0.17815626
-0.010806023 0.034074638 0.17611125
-0.036685452 0.0076124035 0.17479193
-0.036926694 0.013566494 0.16937158
-0.037320245 0.0092041446 0.16995659
-0.019381639 0.03442353 0.16620126
-0.036540195 0.0148428 0.16548622
-0.037766818 0.010912037 0.1653448
-0.021094564 0.034849476 0.16283184
-0.036053646 0.016249752 0.16082862
-0.025403056 0.034951482 0.15830362
-0.026583109 0.034612343 0.15436095
-0.03574938 0.027930968 0.15297633
-0.031861462 0.032529227 0.14811879
-0.037005495 0.026160745 0.14794523
-0.037053701 0.027531456 0.14394218
-0.016873827 0.0026701721 0.19203246
-0.021283252 -0.0014792895 0.19255206
-0.024784198 -0.0045784079 0.1926893
-0.030992616 -0.010986094 0.1915673
0.0016130656 0.026517635 0.19076103
-0.0025975658 0.023578575 0.19145036
-0.0070571145 0.019492533 0.19156283
-0.012562106 0.012200431 0.19231915
-0.019389298 0.0043064188 0.19159907
-0.023667462 0.001660604 0.19250476
-0.02656091 -0.00098105799 0.19248152
-0.029936988 -0.0063981386 0.19047573
-0.032322168 -0.0095852045 0.19091168
0.0027172389 0.032034162 0.18706876
-0.00034590717 0.028979529 0.18948123
0.0008749906 0.03324309 0.18218732
-0.0026316671 0.033163734 0.18363369
-0.00055815652 0.033859801 0.17752081
-0.0038237786 0.03357219 0.17878455
-0.036624104 -1.0188669e-06 0.17505816
-0.038490526 -0.0032509547 0.17505506
-0.040899154 -0.0057532303 0.17601219
-0.0054612169 0.033752881 0.17427
-0.036160681 0.00079519674 0.17152202
-0.038241468 -0.0038073193 0.17114916
-0.006836798 0.03388641 0.16906992
-0.010345771 0.034064531 0.17032975
-0.037508994 0.0068310928 0.16758353
-0.036568344 0.0020510703 0.16697723
-0.011781749 0.034479469 0.1654031
-0.037807211 0.0088143712 0.16339678
-0.037071578 0.0035829376 0.16331062
-0.014026145 0.03481286 0.16014245
-0.036032207 0.013343837 0.15852746
-0.036816578 0.0091107571 0.15822768
-0.019293647 0.03489548 0.15602466
-0.020652004 0.034577817 0.15147263
-0.036564108 0.020024698 0.15120965
-0.025202652 0.033044375 0.14709854
-0.036787562 0.021604704 0.14644304
-0.026445987 0.033508409 0.14236155
-0.034734767 0.030242607 0.1412012
-0.037131749 0.021093447 0.14158612
-0.030983198 0.03272092 0.13763416
-0.036139145 0.026266512 0.13712236
-0.034129903 0.030800184 0.13278249
-0.024846833 -0.018684033 0.19666392
-0.017971564 -0.0063722441 0.19390923
-0.020007426 -0.0087984689 0.19363582
0.0088636912 0.024055522 0.19128764
0.0058607738 0.02247683 0.19179055
0.0024062837 0.017944982 0.1919283
-0.0014943155 0.014170233 0.191746
-0.0089328764 0.0081270719 0.19220701
-0.012252044 0.0047557261 0.19202444
-0.014157237 -5.0180126e-05 0.19246227
-0.018014535 -0.0032878341 0.19286218
-0.022837656 -0.0075830221 0.19302157
-0.025534023 -0.010946406 0.19121403
-0.028647613 -0.014553199 0.19176057
0.010450703 0.030015349 0.18842456
0.0071749892 0.02787794 0.19002503
0.0040624952 0.024180278 0.19145256
0.00021492969 0.020220097 0.19121787
-0.0039701923 0.016566871 0.19126073
0.0087558944 0.032586899 0.18598816
0.0061749825 0.031093206 0.18821743
0.0070020268 0.033750691 0.18138403
0.0039900364 0.033677094 0.18107331
0.0059642 0.034428492 0.17593008
0.0025899187 0.034269422 0.1763652
0.0012390949 0.034202646 0.17157581
-0.0028225649 0.034224093 0.17215019
-0.038143177 -0.0037998147 0.168311
3.8633123e-05 0.034048777 0.16800439
-0.0033463258 0.033983305 0.16757983
-0.037114985 -0.00019855797 0.16492182
-0.038165383 -0.0036342163 0.16465291
-0.0056116469 0.034576043 0.16386056
-0.0093169156 0.034501221 0.16297054
-0.036936466 0.0013182927 0.16025949
-0.037776135 -0.0024803374 0.15977433
-0.0070622759 0.034896173 0.15837663
-0.010684778 0.035208836 0.15903893
-0.036926173 0.0078991065 0.15565503
-0.036222979 0.0028785095 0.15605232
-0.01277788 0.035169974 0.15386099
-0.035637785 0.012389814 0.15164271
-0.036340095 0.0086106174 0.15164205
-0.03614942 0.0038712882 0.15234324
-0.013825122 0.034688681 0.14903134
-0.035995927 0.013528562 0.14716491
-0.036470264 0.0097150989 0.14687386
-0.022912033 0.03349242 0.14410582
-0.036244031 0.01351555 0.14106935
-0.023650913 0.0339012 0.14036924
-0.025147315 0.034615569 0.13591436
-0.036153421 0.020505683 0.13409987
-0.030996133 0.03388346 0.13144031
-0.035912462 0.025333313 0.13113791
-0.034840308 0.030782839 0.12604886
-0.031721845 0.034538817 0.12328655
-0.036310185 0.027977161 0.12268239
-0.018722348 -0.017329054 0.19484627
-0.023206748 -0.018088853 0.19628024
0.021598229 0.0294329 0.19412971
0.010236008 0.016142044 0.19271582
0.0074790413 0.013270269 0.1925312
0.004463953 0.009920029 0.19223529
0.00050113187 0.0056375675 0.19190058
-0.0061184051 -0.0012690728 0.1919156
-0.009843423 -0.0047634626 0.19211721
-0.012942305 -0.0075347777 0.19248462
-0.017442375 -0.011868959 0.19334406
-0.020508021 -0.015712801 0.1927689
-0.025077226 -0.018022515 0.19314101
0.022894524 0.032837465 0.19096971
0.020031977 0.029721364 0.19056347
0.015766753 0.02641768 0.19048545
0.012203368 0.023125891 0.1913662
0.0087070428 0.019791914 0.19219667
0.0050330204 0.015804909 0.192433
0.001042298 0.011724247 0.19210824
-0.0019065619 0.0079482133 0.19205502
-0.0088813994 0.0014466017 0.19193259
0.022798393 0.034225915 0.18838614
0.017589506 0.030448841 0.18693075
0.013573499 0.029291321 0.18866587
0.016168296 0.032022674 0.18358013
0.011856316 0.032619957 0.18471462
0.010848815 0.033438846 0.17946112
0.0079626385 0.034288567 0.17500883
0.0073531941 0.034507222 0.16992813
0.0041173529 0.034506321 0.16926327
0.0068459464 0.034488291 0.16523248
0.0025792643 0.034099452 0.1650278
0.0013263356 0.034113292 0.16117394
-0.0021907445 0.033841692 0.16008335
-0.037734948 -0.0055089612 0.15741783
-0.037104081 -0.009008483 0.15684384
-0.0026351493 0.033759747 0.15708041
-0.035985589 -0.00031906925 0.15350485
-0.03695555 -0.0032865368 0.15294537
-0.0054327147 0.033890039 0.15142921
-0.0085996343 0.034613527 0.15229335
-0.035913236 0.0012268238 0.14876848
-0.037210405 -0.0024846848 0.1490137
-0.0086460868 0.033939846 0.14720166
-0.036756195 0.0078310436 0.14509487
-0.035611305 0.0030934941 0.14454925
-0.012159453 0.033901654 0.14306918
-0.036216322 0.0093026143 0.14094272
-0.036307141 0.0069092251 0.13865775
-0.01340717 0.033498224 0.13960418
-0.036129117 0.015921146 0.13553932
-0.036265619 0.011531691 0.13579845
-0.036015239 0.017095523 0.13224044
-0.036434609 0.013626575 0.13110548
-0.035643164 0.023288921 0.1282441
-0.026378561 0.034758054 0.12527233
-0.036261912 0.020301351 0.12280786
-0.030730698 0.034210768 0.12014377
-0.036398321 0.025732204 0.11931807
-0.031067215 0.034367707 0.11570632
-0.036535576 0.027813472 0.11620247
-0.033801004 0.031708349 0.11171383
-0.011247173 -0.017680801 0.19359589
-0.015048794 -0.019005116 0.19496912
0.022387495 0.025656739 0.19211903
0.020262042 0.021831164 0.19332135
0.016928565 0.018703196 0.19211668
0.013488876 0.01678071 0.19232064
0.01051884 0.012079788 0.19217509
0.0064566052 0.0070823161 0.19249031
0.0031617936 0.0030364483 0.19245914
-0.00030514449 -0.00028255378 0.192357
-0.00366484 -0.0037061432 0.19235078
-0.0062400154 -0.007902707 0.19224617
-0.0088181151 -0.012102617 0.19214088
-0.012666557 -0.014518318 0.19323877
-0.016655143 -0.017882876 0.19378415
0.022839285 0.03146809 0.19083723
0.02006088 0.027468691 0.19139111
0.017597852 0.024639828 0.19172645
0.015297811 0.022419866 0.19165182
0.025822271 0.035733268 0.18534991
0.022145227 0.033644989 0.18599218
0.019919688 0.03160768 0.18650591
0.025363334 0.035775706 0.18150023
0.022050865 0.034370806 0.18222514
0.018598121 0.031994827 0.18087345
0.017008731 0.031855293 0.17659336
0.015700292 0.032370042 0.17173338
0.01283882 0.03269209 0.17310709
0.011712411 0.033400923 0.16826788
0.008329547 0.034025297 0.16309273
0.0055002058 0.033837974 0.1617181
0.0046655852 0.033196215 0.15758869
-0.037320301 -0.0098181283 0.15368977
0.0029318081 0.033052135 0.15342283
-0.00056309998 0.032856569 0.15315422
-0.03677658 -0.0068374779 0.15110296
-0.036031328 -0.0098497048 0.14927128
-0.00093939155 0.032596346 0.14920536
-0.037369974 -0.0045016687 0.14616191
-0.036773141 -0.0089638885 0.14621267
-0.0036748555 0.033271827 0.1450375
-0.0069006663 0.033606414 0.1443018
-0.035957396 0.00066290423 0.1429984
-0.037114739 -0.0033509787 0.14130682
-0.004336657 0.033698764 0.14025727
-0.0079776244 0.034000803 0.1407693
-0.035686605 0.0028745607 0.13821986
-0.0371214 -0.001832854 0.13803041
-0.040005717 -0.0052913781 0.13800013
-0.0095218495 0.033707835 0.13658014
-0.013162415 0.033478551 0.13658184
-0.035931602 0.0090224789 0.13378155
-0.036101807 0.005762659 0.13410544
-0.036581531 0.010767841 0.12996715
-0.036486506 0.0075100837 0.12937802
-0.036029018 0.016341982 0.1250599
-0.036961608 0.01273838 0.12522656
-0.036608495 0.0078004608 0.12569326
-0.021632599 0.033695254 0.12234616
-0.03718036 0.013946633 0.12044185
-0.036990959 0.019722853 0.11635435
-0.035859417 0.025104821 0.11240977
-0.026733052 0.03497263 0.10989058
-0.033343546 0.030034188 0.10801476
-0.030456437 0.033312421 0.10494953
-0.003470534 -0.018783746 0.19565111
0.022368087 0.015634451 0.19510585
0.010550611 0.00035722554 0.19299936
0.0086069237 -0.0022245643 0.19262233
0.0014599818 -0.0087986449 0.19327292
-0.0016884115 -0.012779269 0.19363678
-0.004868465 -0.016138446 0.19363469
-0.0087010842 -0.018398903 0.19444788
0.02389257 0.023193181 0.19227552
0.021641655 0.018511066 0.19480553
0.021061499 0.015293364 0.19248867
0.014770806 0.013096647 0.19139814
0.014278268 0.0074885772 0.19142497
0.010358974 0.0039278693 0.19232607
0.0068451408 -0.00049945386 0.19221514
-0.00095975818 -0.0063854055 0.19268629
-0.0038226699 -0.0091884676 0.1925734
-0.0076152515 -0.013313925 0.19224098
0.026959434 0.035928193 0.1799686
0.023584379 0.033344317 0.17829543
0.027697774 0.034275964 0.1751197
0.023891212 0.033413362 0.17442328
0.02017682 0.032329943 0.17548147
0.022994824 0.034292702 0.17007241
0.01892397 0.032803088 0.170562
0.021488268 0.034118071 0.1662876
0.017500158 0.033418007 0.16576931
0.013353399 0.032865364 0.16540238
0.016634816 0.033709172 0.16132855
0.01277368 0.032852013 0.16145983
0.011421343 0.033160094 0.15685523
0.0099586332 0.033233635 0.15226585
0.0058995103 0.033333901 0.1525099
-0.036223944 -0.011895263 0.14738485
0.0039893202 0.03342358 0.14784679
0.00072783045 0.032847181 0.14712504
-0.037552029 -0.0094593791 0.14401251
0.0037263269 0.033308268 0.14307979
-2.8001145e-05 0.033038307 0.14235848
-0.038375411 -0.0082097286 0.13962114
-0.0025416613 0.033839412 0.13803339
-0.036779426 -0.0020659305 0.13503927
-0.039413828 -0.006123716 0.13480598
-0.0034440011 0.033343621 0.1338273
-0.0068193628 0.033605449 0.13329908
-0.035936132 0.0022443645 0.13220403
-0.036846511 -0.001364259 0.13076705
-0.03945978 -0.0052859318 0.13022268
-0.0081369905 0.033027496 0.12935567
-0.011694626 0.032578614 0.12958205
-0.035857704 0.003535524 0.1269933
-0.036408737 -0.00010799058 0.12665671
-0.0096005294 0.033208273 0.12400347
-0.012988139 0.032982521 0.12553787
-0.03700633 0.006947523 0.12309033
-0.037403092 0.011197285 0.11907828
-0.037326083 0.0079305302 0.11866683
-0.021201814 0.033808503 0.11433679
-0.037257686 0.013240815 0.11494249
-0.036626291 0.0083363913 0.11420065
-0.022267874 0.034297664 0.1111939
-0.036652684 0.013913335 0.10998011
-0.035083223 0.024338186 0.10532802
-0.024256676 0.033103582 0.10161388
-0.03342136 0.030349519 0.10165572
-0.035955865 0.020849066 0.10185021
-0.033739656 0.031347554 0.097596228
-0.03107518 0.033491433 0.093394697
-0.03490169 0.028263286 0.092452228
0.01720825 -0.0027574715 0.1946381
0.015035065 -0.0051577426 0.19443169
0.0028002723 -0.017457861 0.19454861
-0.00021080952 -0.019372957 0.1953755
0.023972742 0.010663353 0.19290271
0.022740506 0.0063023055 0.19158641
0.019856619 0.0027256086 0.19226578
0.015715647 -0.00033480022 0.19230509
0.012588583 -0.0041914256 0.19268796
0.0050039152 -0.012259685 0.19288349
0.0021154489 -0.014000493 0.19371092
0.022405405 0.011498725 0.19139284
0.020237895 0.0091794869 0.19028443
0.017640214 0.0060280804 0.19084767
0.0145358 0.0033941953 0.19090521
0.029094052 0.034048323 0.17189711
0.0247053 0.034431774 0.1669606
0.02360416 0.033576101 0.16320458
0.022720952 0.034226954 0.1586265
0.019007167 0.033758223 0.15858823
0.021598462 0.035074994 0.15423584
0.017878328 0.034045685 0.15441871
0.013587698 0.033587299 0.15418071
0.017425612 0.034633324 0.14911559
0.013608957 0.033067141 0.14967254
0.012074783 0.032767955 0.14544168
0.0084731942 0.032417405 0.14529324
0.0077772522 0.031969454 0.14053243
0.0044459449 0.032424029 0.13646239
0.0014941078 0.032976367 0.13617828
0.0044289362 0.032731805 0.13271719
2.7853996e-05 0.032898344 0.13097054
-0.039136957 -0.0081035551 0.12640828
-0.00074882805 0.032700934 0.12652659
-0.0047403723 0.032896258 0.12638938
-0.036250547 -0.0021625962 0.12380642
-0.038026996 -0.0056829974 0.12419385
-0.0058816737 0.03316915 0.12216711
-0.0355829 0.0023868605 0.1203711
-0.035485867 -0.001529498 0.11923951
-0.0078717619 0.032933131 0.11748689
-0.011190391 0.032932553 0.1177429
-0.03629712 0.003920503 0.11512613
-0.035804816 0.00050149299 0.11553067
-0.012193623 0.032834973 0.11363614
-0.036943298 0.0073984778 0.11147642
-0.036463089 0.011584825 0.10662538
-0.036930967 0.0078536011 0.10614896
-0.018740624 0.03302902 0.10391766
-0.03586027 0.012981014 0.10267925
-0.035811484 0.01894309 0.099046052
-0.036108516 0.014558992 0.097823024
-0.026480993 0.033369046 0.095914304
-0.035638373 0.020051776 0.094474792
-0.02381045 0.03331783 0.091453969
-0.033222698 0.030745683 0.089448512
-0.035654411 0.021521922 0.090359986
-0.032486055 0.030812357 0.085551798
-0.030171802 0.033254482 0.082666099
0.024371747 0.0027952557 0.1942876
0.021851607 0.00012035388 0.19456485
0.019772951 -0.0035216967 0.19471762
0.01284093 -0.011941416 0.19231838
0.0057267481 -0.01936605 0.19511396
0.024314009 0.0051823715 0.19285452
0.019270051 -0.0012170263 0.19263712
0.011744985 -0.0097149257 0.19184059
0.030780731 0.032420151 0.16531855
0.027221367 0.033256706 0.1610069
0.025158178 0.03512118 0.15712482
0.023042316 0.035580579 0.15239266
0.021310555 0.035963241 0.1470542
0.01918057 0.035540879 0.1487748
0.01806321 0.034843888 0.14309925
0.014513002 0.032984272 0.14249235
0.012984056 0.032591775 0.13872054
0.0097403601 0.031790577 0.13855892
0.011578756 0.032663725 0.13423029
0.0087545905 0.031941254 0.13419989
0.0069109844 0.032069445 0.12884182
0.0056708539 0.032112263 0.12590307
0.0023296904 0.032368675 0.12434554
-0.00065515935 0.033020929 0.1211229
-0.035724465 -0.0043340791 0.11787355
-0.036885053 -0.0071315644 0.1176672
-0.0011272673 0.033043623 0.11630684
-0.0049611023 0.033141755 0.11576462
-0.035726883 -0.002111733 0.11335444
-0.037129521 -0.0065941261 0.11306357
-0.039732404 -0.0093312031 0.11222231
-0.0016491897 0.033278912 0.11220598
-0.0058498094 0.032785952 0.11170208
-0.010049315 0.032398965 0.10993862
-0.035878088 0.0031726547 0.10905522
-0.036336206 -0.001015624 0.10901803
-0.037208214 -0.0047725048 0.10842782
-0.0070115048 0.032538168 0.10698515
-0.011203399 0.032848317 0.1063711
-0.036379382 0.0039147791 0.10371751
-0.036505513 0.0010861903 0.10474312
-0.012928737 0.032988481 0.10211766
-0.035974853 0.010665103 0.099204421
-0.036882848 0.0072043622 0.10001576
-0.017586097 0.032791693 0.097572982
-0.036704704 0.012138775 0.09587723
-0.036902718 0.0088941334 0.095177174
-0.036224373 0.018209802 0.0914765
-0.036993127 0.014088769 0.091321051
-0.023735695 0.033436757 0.088445842
-0.036842324 0.015830446 0.08680737
-0.034443587 0.024639722 0.083659232
-0.027904011 0.033138786 0.079327583
-0.034784097 0.026853304 0.079675734
-0.032219455 0.031626191 0.07487148
0.016170479 -0.014076713 0.1929251
0.022756372 0.035182018 0.14112824
0.022906331 0.035553075 0.13535413
0.019612638 0.034039076 0.13610947
0.016230974 0.032692771 0.13601062
0.019111717 0.03402504 0.13120967
0.014749561 0.03283165 0.13156801
0.01387542 0.032485526 0.12694269
0.011166736 0.031413406 0.12688041
0.008948843 0.031610779 0.12208951
0.0074579483 0.031682014 0.11736798
0.0045316499 0.031533614 0.11821145
0.0032322817 0.032015033 0.11311656
-0.037746456 -0.0082096048 0.11051315
0.00033158995 0.032432396 0.10876471
-0.0028249631 0.032426827 0.10833061
-0.036762804 -0.0028045811 0.10626686
-0.037817977 -0.0070817107 0.10620046
-7.3553994e-05 0.032350097 0.10489911
-0.0033030882 0.032289922 0.10407513
-0.036526091 -0.0019520149 0.10219675
-0.036798283 -0.0055188276 0.10129732
-0.0055256644 0.032680534 0.10005772
-0.010066598 0.033092532 0.10030389
-0.036118142 -0.00045229495 0.097744823
-0.037048794 -0.0045217052 0.097428679
-0.0065501574 0.032320868 0.096048236
-0.0096935555 0.032197207 0.095168769
-0.035759263 0.0044863448 0.093649805
-0.012552762 0.032944169 0.090986073
-0.036786646 0.0082003959 0.089770854
-0.016847027 0.033116709 0.087140739
-0.036634699 0.012788469 0.084558249
-0.036457501 0.0089040566 0.084805191
-0.022878855 0.033102442 0.080667615
-0.036341898 0.01390448 0.080372691
-0.023866467 0.033145577 0.077131867
-0.034950349 0.019673398 0.076217592
-0.025253177 0.03287407 0.07259059
-0.03385666 0.024932291 0.071637511
-0.025532365 0.03300463 0.068691254
-0.033138037 0.028205859 0.067235768
-0.030744191 0.03152803 0.063468218
-0.032011345 0.031813227 0.060195386
0.020291904 0.035104662 0.12942761
0.019031018 0.035749823 0.12596065
0.015575286 0.032739162 0.1248135
0.019107224 0.034936987 0.12228078
0.01507564 0.032173179 0.12143981
0.011506679 0.031737331 0.11893326
0.014443032 0.031407051 0.11734498
0.010438942 0.031874571 0.11552262
0.0085045677 0.032103933 0.11157334
0.0051007271 0.031636886 0.10998636
0.0044652848 0.031397708 0.10614508
-0.038328711 -0.010485573 0.10289782
0.00070760865 0.031893324 0.10122681
-0.037417062 -0.0079953559 0.099354088
-0.038492519 -0.010217881 0.10010111
-0.0024127085 0.032854423 0.097261012
-0.036198009 -0.001749279 0.094470441
-0.038135245 -0.0059590712 0.094915807
-0.041398071 -0.0069675501 0.09425658
-0.005003918 0.032447346 0.092880905
-0.035132937 0.0031966753 0.090575457
-0.035490707 -0.0008597374 0.090789735
-0.036845971 -0.0044472646 0.089920759
-0.038553555 -0.0073701087 0.088499963
-0.0063112881 0.032671761 0.087970912
-0.0087496275 0.032622643 0.089220107
-0.03522335 0.0034552347 0.086691797
-0.035225041 0.00055628642 0.085576177
-0.010152592 0.032930672 0.084407628
-0.036225379 0.0070308642 0.082085133
-0.035274483 0.0037185214 0.081751227
-0.013072076 0.033721291 0.080255568
-0.036343221 0.0085093733 0.077863097
-0.013739906 0.033730425 0.076090097
-0.036235087 0.01362742 0.074582577
-0.036436401 0.011161302 0.073262095
-0.022030333 0.032906733 0.070835531
-0.034786794 0.015995774 0.069387257
-0.034389872 0.021647567 0.065564513
-0.028456459 0.032242924 0.062088311
-0.034764029 0.024072466 0.061273098
-0.033912089 0.028930549 0.056853592
-0.031753659 0.031927276 0.053847432
0.020268563 0.0327361 0.11824602
0.018025182 0.031771794 0.11848515
0.020931222 0.032429047 0.11475283
0.017057506 0.031810921 0.11403424
0.015574949 0.032602187 0.10966408
0.012266556 0.031789225 0.10955685
0.014412834 0.03303314 0.10460955
0.010498806 0.031802177 0.10513002
0.009654928 0.031914696 0.10045213
0.0054054493 0.031134915 0.10107958
0.0082938597 0.031980552 0.09641856
0.0041281553 0.031344056 0.096144497
0.0025864327 0.031440079 0.091365576
0.0004020175 0.030705515 0.090548158
-0.03671553 -0.0053036492 0.088017762
-0.038147248 -0.0077797668 0.088062465
-0.0018293895 0.031543493 0.087048471
-0.03539636 -0.00098859705 0.084286928
-0.037011858 -0.004416747 0.084671617
-0.039296176 -0.0064438004 0.084289253
-0.0042449962 0.032248691 0.08254391
-0.0084937401 0.032952458 0.081075072
-0.035571918 0.00029016472 0.080583215
-0.037388422 -0.0035014227 0.07980758
-0.0061897896 0.03327129 0.077964485
-0.0092934957 0.033200726 0.077519953
-0.035332747 0.0019551646 0.075888574
-0.037755173 -0.0029437281 0.075159431
-0.0099600619 0.033379458 0.073153913
-0.035903666 0.0079687601 0.071124077
-0.034818411 0.0037017036 0.071179986
-0.011898746 0.033368062 0.069075346
-0.034379348 0.013715685 0.066029489
-0.035476573 0.0092818663 0.06715709
-0.021282438 0.032680277 0.063018382
-0.035204731 0.010385179 0.062790394
-0.02260128 0.032685604 0.058883548
-0.033991449 0.015674144 0.057920814
-0.023819428 0.033027314 0.054782689
-0.034711432 0.022780918 0.053774595
-0.02411478 0.033428144 0.050801575
-0.033387192 0.029138584 0.049724162
-0.026110165 0.033784635 0.046459794
-0.033246271 0.029223954 0.045682669
-0.030270725 0.032280169 0.042653263
-0.034951121 0.026458606 0.041791677
0.022332521 0.032754675 0.11182338
0.021183493 0.032874014 0.10676861
0.018911177 0.032687377 0.10677123
0.020085152 0.034360621 0.10097945
0.017033119 0.033827707 0.10282147
0.0162185 0.033001453 0.098599732
0.01219931 0.032085285 0.097226024
0.010342618 0.032208651 0.093456984
0.0063027972 0.031806272 0.093246698
0.0091867493 0.032460149 0.08939302
0.0059331963 0.031583004 0.088797808
0.0035485458 0.031055937 0.084485531
0.00064145215 0.030934073 0.084387958
0.0033247331 0.031034259 0.079937041
-9.0911984e-05 0.031420849 0.079364121
-0.0013860147 0.031219628 0.075267315
-0.035676457 -0.00022437982 0.072496831
-0.037221543 -0.0033621136 0.071525753
-0.038990494 -0.0063214563 0.071815133
-0.0044209771 0.032157846 0.070142806
-0.034829251 0.0010447986 0.068612993
-0.036252592 -0.0030384269 0.068067372
-0.0083643151 0.033085085 0.066560924
-0.034922995 0.0065142708 0.063498139
-0.033756241 0.0021317191 0.063787282
-0.0113756 0.03332096 0.062494338
-0.034731761 0.0079312203 0.059197962
-0.011696195 0.033019502 0.057871163
-0.034289967 0.013334454 0.055643141
-0.034097154 0.0098540867 0.054935277
-0.034967061 0.015164341 0.051432192
-0.034642495 0.011560568 0.050560474
-0.022292726 0.033830691 0.048168123
-0.034721207 0.017226808 0.046917617
-0.034586277 0.02194622 0.042517364
-0.025308242 0.033373658 0.040427923
-0.031953864 0.028370416 0.038023055
-0.029380534 0.030699376 0.03474766
0.024915956 0.031860486 0.10542303
0.023385018 0.033002503 0.10167992
0.022653708 0.033481732 0.097177386
0.017484903 0.032658268 0.095559537
0.019988935 0.035352048 0.090272784
0.01701743 0.03361005 0.092631638
0.013317268 0.032311417 0.090970874
0.01621134 0.03439787 0.088578343
0.011706153 0.032430597 0.086706758
0.01118487 0.032170288 0.083105803
0.006587089 0.031227648 0.082482636
0.0099702533 0.03178883 0.078953922
0.006122876 0.031301148 0.078201592
0.0038395245 0.03155259 0.074237704
0.00044105202 0.031178661 0.073228359
0.0033250591 0.031855859 0.068933666
-6.7563727e-05 0.031795114 0.069258153
-0.034052014 -0.0015832614 0.064583302
-0.036177956 -0.0050332872 0.065832734
-0.036255725 -0.0089298105 0.064672887
-0.0020246524 0.032575127 0.064898551
-0.033755943 4.6338886e-05 0.061174691
-0.035833873 -0.0044361558 0.061797738
-0.003821413 0.032283176 0.060449421
-0.006827971 0.032278318 0.059997737
-0.034206517 0.00096165948 0.057484329
-0.034936965 -0.0028119609 0.058045447
-0.0086448845 0.032559473 0.05589813
-0.034430414 0.0072594788 0.053156078
-0.03426455 0.0029484238 0.053038001
-0.011368667 0.033145905 0.051419973
-0.035023302 0.0088371541 0.049141467
-0.011622841 0.033717051 0.04659301
-0.034906149 0.014510191 0.044006407
-0.035215214 0.010417013 0.044891119
-0.035268579 0.015839618 0.040409148
-0.035590429 0.012394602 0.04044342
-0.021768881 0.03321876 0.037548244
-0.034008093 0.021884024 0.036274374
-0.023434063 0.032936584 0.033056736
-0.031533409 0.028269427 0.03235805
-0.035510987 0.019301159 0.031256974
-0.03202638 0.028956736 0.028779328
-0.035677973 0.020871466 0.026947379
-0.032624144 0.02955805 0.023306131
0.028104443 0.031650759 0.1006788
0.02249719 0.032776546 0.093788326
0.022339059 0.033157393 0.090979159
0.02191288 0.034011804 0.085445464
0.017082078 0.032823667 0.0841555
0.018285185 0.03198139 0.080986083
0.014043477 0.031791259 0.079606056
0.012421921 0.031595785 0.075890899
0.0088317879 0.030868517 0.074861169
0.01085399 0.031585854 0.071054101
0.0076731108 0.031314284 0.071122169
0.006196483 0.032333426 0.066313267
-0.036456339 -0.011068085 0.062497675
0.0046291854 0.032691564 0.06204468
0.00077315792 0.032514788 0.061229825
-0.035723552 -0.0068328977 0.05823642
-0.036801413 -0.0098970542 0.059148908
-0.00054206699 0.032102097 0.057480514
-0.035658211 -0.0046621505 0.054980397
-0.037781358 -0.0079588359 0.05490309
-0.0019597756 0.031819403 0.053144753
-0.0052845692 0.031193864 0.051792562
-0.034427527 -2.1705404e-05 0.050412238
-0.035760429 -0.0037231725 0.050096989
-0.037965823 -0.0066593941 0.051104844
-0.0066601932 0.031240948 0.047620296
-0.034373958 0.0022068955 0.046124101
-0.035324521 -0.001941435 0.046044946
-0.0086399857 0.032283254 0.042955577
-0.034851365 0.0073936041 0.041782737
-0.033822186 0.0039566457 0.041252971
-0.013699354 0.033937793 0.038294792
-0.03496062 0.0088979788 0.037406385
-0.034784205 0.014936094 0.032420933
-0.03503003 0.01114488 0.033451676
-0.020207765 0.032914963 0.030705631
-0.034956504 0.012921304 0.028029561
-0.0257836 0.032433167 0.025072455
-0.022894476 0.032213286 0.021021485
-0.030567646 0.030356718 0.020127237
-0.035856124 0.020195477 0.020117879
-0.031789925 0.029379059 0.016975939
-0.03532178 0.021006133 0.017039955
0.021493653 0.032426622 0.081663489
0.026078565 0.033098962 0.078625858
0.020253854 0.031628106 0.077331364
0.019435743 0.032204546 0.073812842
0.014812688 0.031228967 0.072960019
0.01799438 0.033207364 0.069241226
0.013944907 0.031913117 0.069600224
0.016864711 0.03337843 0.065713644
0.012892302 0.032465715 0.065201819
0.011032168 0.032816097 0.060580373
0.0076571153 0.033108328 0.059933186
0.0060901595 0.031945899 0.056394935
0.0049542012 0.031594716 0.052017748
0.0019579399 0.031574778 0.050997674
-0.036527965 -0.0096525187 0.047112882
-0.00041939039 0.030995687 0.046526015
-0.003449386 0.030599365 0.046494186
-0.035494298 -0.004542158 0.044586182
-0.037087578 -0.0079942783 0.043113887
-0.039027005 -0.010087545 0.041113794
-0.0017093578 0.031542733 0.04285872
-0.0045459047 0.031393975 0.041692197
-0.033886775 0.00021930039 0.039674699
-0.035013467 -0.0031939447 0.038685024
-0.037230216 -0.0066629602 0.038121641
-0.039847676 -0.01035491 0.038191736
-0.0076336367 0.031937532 0.037437618
-0.033516124 0.0027003279 0.034939051
-0.034798738 -0.0015435219 0.034387708
-0.037442598 -0.0053905081 0.034430087
-0.0083235968 0.032716557 0.032260954
-0.034481138 0.007493333 0.030877411
-0.033761408 0.0037764311 0.029791772
-0.0093112951 0.032741059 0.028512418
-0.013294494 0.032261021 0.028382599
-0.034248762 0.008891914 0.026622117
-0.018366408 0.032350495 0.02383709
-0.034677804 0.012287022 0.022580445
-0.035124473 0.015960796 0.018076897
-0.034421146 0.012847219 0.0178684
-0.025093604 0.032376572 0.014810681
-0.034900438 0.018773574 0.013164997
-0.02691479 0.032067027 0.010238349
-0.033520035 0.024373299 0.0093302727
0.026793145 0.031753402 0.076039255
0.025958579 0.032219067 0.072233975
0.022981066 0.031945273 0.0711748
0.023290593 0.031941313 0.067838013
0.018959094 0.032899749 0.062196016
0.015336025 0.032778747 0.061949432
0.014926182 0.032342184 0.057661831
0.014632877 0.031750225 0.053916574
0.009189669 0.03068953 0.052711964
0.0079911314 0.030876614 0.048628509
0.0070432732 0.031013276 0.044070899
0.0026774658 0.031182893 0.044468045
0.001688716 0.031251609 0.039524257
-0.038568858 -0.0079327337 0.035692155
-0.039792493 -0.0099286651 0.035901964
-2.299808e-05 0.031274237 0.035255611
-0.0036084102 0.031463496 0.036344767
-0.035095863 -0.0016204733 0.031771123
-0.038353357 -0.0062189121 0.032826841
-0.04031983 -0.008427389 0.032071114
-0.00077799987 0.031475715 0.031466782
-0.0033346759 0.031590812 0.03083998
-0.034092121 0.0023459401 0.028561294
-0.034577228 -0.0020104386 0.027974963
-0.037639901 -0.0061750021 0.027828574
-0.040993489 -0.007604165 0.028626323
-0.0063683409 0.032456659 0.026064932
-0.01116475 0.032397978 0.025035024
-0.033337049 0.0037176209 0.023742974
-0.03422153 -0.0010131802 0.024386466
-0.0082958667 0.032808352 0.021952212
-0.011135108 0.031851895 0.021032035
-0.033919275 0.0098194601 0.020034134
-0.033272531 0.0059478115 0.019410312
-0.017856669 0.032362901 0.015886247
-0.03386277 0.010569874 0.015543282
-0.03337498 0.0070722578 0.014687657
-0.017930988 0.032630727 0.012803614
-0.034372982 0.011918758 0.01065588
0.02774385 0.032332458 0.069955349
0.025175009 0.030549657 0.063928187
0.023295114 0.032529987 0.060727119
0.021665659 0.032388318 0.055907667
0.020517319 0.031955883 0.051538646
0.016296856 0.03108382 0.050290108
0.014953662 0.030648384 0.046355128
0.011382133 0.030652763 0.046826422
0.014147087 0.03078961 0.042128444
0.010557509 0.030886363 0.041593015
0.0076122945 0.031368952 0.037469506
0.0061365133 0.031972528 0.032146215
0.0031812117 0.031389084 0.033051193
0.0016515208 0.031300645 0.028208852
-0.035020497 -0.003896731 0.025256813
-0.037307978 -0.006423438 0.02503264
-0.00036633201 0.031567574 0.024729788
-0.0027351873 0.03158465 0.02283901
-0.032675348 0.0012223516 0.020489395
-0.033613153 -0.0027133571 0.020422339
-0.035838708 -0.0061846897 0.021403551
-0.0043195896 0.032127567 0.019720197
-0.032320667 0.0022466611 0.016525626
-0.033336192 -0.0022326615 0.016528428
-0.006066164 0.031675577 0.01606822
-0.010013067 0.030810622 0.014574707
-0.032775011 0.0036219982 0.012372553
-0.011318871 0.031513788 0.010125875
-0.033333633 0.0064729704 0.0087649226
0.022983406 0.032059811 0.04881376
0.022347521 0.03116885 0.045395613
0.018176336 0.030804962 0.04423362
0.015367667 0.030962503 0.040465295
0.014237872 0.031199194 0.035796523
0.011697646 0.031181626 0.036132097
0.014201867 0.031555071 0.03166008
0.010504547 0.031727504 0.031246006
0.0078231972 0.031973422 0.026799917
0.0047767786 0.031349268 0.025987208
0.0077604763 0.031212918 0.021968484
0.0034594042 0.03090585 0.022083819
-0.035269856 -0.0083169453 0.018286526
0.0015333267 0.030907316 0.017146826
-0.0024644118 0.031719886 0.017261565
-0.033917062 -0.0038098805 0.01441586
-0.034144193 -0.0074889204 0.014275312
-0.0034648115 0.031099986 0.012601614
-0.032994427 0.0019802125 0.010136664
-0.033149503 -0.0020896327 0.010191619
0.023867073 0.030478898 0.041616797
0.022587605 0.030442424 0.037211001
0.019885553 0.029932937 0.03787142
0.019669704 0.02952279 0.033189654
0.015138652 0.031011235 0.027501523
0.011289794 0.031660207 0.024605334
0.010486147 0.031198032 0.019820392
0.0093561588 0.030168269 0.015961289
0.0059802635 0.030182667 0.01573503
-0.03335477 -0.010085153 0.01163739
0.0034026206 0.030465951 0.01032114
-0.0010660756 0.030953892 0.0092930794
0.023998333 0.029694222 0.030486166
0.022047803 0.029147774 0.030158818
0.020475984 0.029062219 0.027136624
0.018237144 0.029406054 0.021432936
0.017804822 0.029343951 0.017198145
0.014458369 0.030140111 0.016293943
0.012059154 0.030306038 0.012229741
0.0074788416 0.029812455 0.012395024
-0.031434204 -0.014541406 0.0099499226
0.0080252606 0.029580504 0.0085752606
0.026938304 0.029512122 0.028722703
0.026383754 0.02918854 0.024410427
0.0229792 0.028792765 0.023889542
0.026135305 0.028519209 0.020811975
0.021984983 0.02882769 0.020036578
0.019977883 0.02926738 0.015332878
0.017953217 0.030857651 0.011343122
0.026717912 0.028208302 0.01805824
0.024683561 0.027796693 0.016740739
0.024138261 0.028593346 0.013063729
0.021689661 0.031146651 0.009329915
0.028962927 0.026692808 0.011355698
