# .PCD v0.7 - Point Cloud Data file format
VERSION 0.7
FIELDS x y z
SIZE 4 4 4
TYPE F F F
COUNT 1 1 1
WIDTH 962
HEIGHT 1
VIEWPOINT 0 0 0 1 0 0 0
POINTS 962
DATA ascii
-0.035965532 -0.016642939 0.19008082
-0.031086911 -0.025416614 0.18993163
-0.029057682 -0.029115051 0.18905017
-0.035564963 -0.022112075 0.18556982
-0.035199605 -0.0012428742 0.19182155
-0.032087691 -0.0092118988 0.19255632
-0.027871778 -0.019554485 0.19177216
-0.023636485 -0.027628103 0.19209167
-0.021999098 -0.031495281 0.19164014
-0.01955802 -0.034871414 0.19051477
-0.036671016 -0.0060299765 0.19006789
-0.032909725 -0.015404442 0.19161928
-0.02746422 -0.029727459 0.18958831
-0.025199208 -0.032754388 0.18851507
-0.021703631 -0.035629123 0.18740237
-0.03837217 -0.0064984635 0.18481445
-0.038503777 -0.014931801 0.1839824
-0.029864704 -0.029660977 0.18374777
-0.026118029 -0.033247832 0.18291736
-0.023479762 -0.035361961 0.18294132
-0.038492154 -0.011565502 0.17981783
-0.035555501 -0.021866094 0.18004492
-0.030254008 -0.029621687 0.1784969
-0.027800355 -0.03235672 0.17805263
-0.038403586 -0.016986204 0.17522508
-0.033496723 -0.025813106 0.17506674
-0.039436791 -0.016438279 0.17206413
-0.020356048 -0.016808499 0.19179016
-0.019603297 -0.020725369 0.19215655
-0.017740775 -0.025009759 0.19240627
-0.015541049 -0.029113419 0.1915102
-0.013416921 -0.032427758 0.19095168
-0.034014426 0.00562598 0.19029447
-0.032783445 0.00090360921 0.19229019
-0.02786736 -0.0073663127 0.19241568
-0.024426324 -0.016464625 0.19150138
-0.021960698 -0.025078699 0.19261628
-0.018770758 -0.031273749 0.19202739
-0.016395144 -0.035853133 0.19002408
-0.013355634 -0.037613902 0.18834224
-0.036222454 0.0053692525 0.18739274
-0.036361184 0.00087283738 0.1902473
-0.017976888 -0.037257221 0.18589151
-0.015471381 -0.038887918 0.18437853
-0.037379678 0.0037508281 0.18319315
-0.020904768 -0.036415137 0.18109205
-0.0171002 -0.03887672 0.18107447
-0.03821389 -0.00584576 0.17793602
-0.026189491 -0.033904865 0.17657927
-0.023072623 -0.035924658 0.17600644
-0.038824026 -0.010167764 0.17360121
-0.030274661 -0.029640358 0.17247444
-0.027482772 -0.033269998 0.17207879
-0.02444993 -0.036188751 0.17084932
-0.038596585 -0.011425225 0.16917825
-0.035781156 -0.021237675 0.16831508
-0.030126614 -0.029177418 0.16818425
-0.028054431 -0.033352427 0.16782781
-0.025590099 -0.036550134 0.16793492
-0.036063012 -0.019290613 0.16456968
-0.028301381 0.0078668343 0.19135287
-0.026829325 0.0038259393 0.19210985
-0.022992775 -0.0052120239 0.19185966
-0.018504553 -0.013688806 0.19210178
-0.015571255 -0.018477703 0.19208598
-0.013742319 -0.02366023 0.19269124
-0.011532787 -0.027524965 0.19250312
-0.010075668 -0.031933207 0.19103351
-0.0079297405 -0.035195507 0.18831667
-0.038153157 0.023960121 0.19196674
-0.035328183 0.021297272 0.18976048
-0.034759305 0.017076537 0.18956909
-0.03403794 0.012198584 0.19015926
-0.031151069 0.0080736047 0.19088781
-0.0098468056 -0.038001619 0.18681437
-0.037080579 0.019704586 0.18579754
-0.036911689 0.016344517 0.18548504
-0.036534324 0.011291818 0.18632752
-0.012878775 -0.039472267 0.18203956
-0.010556557 -0.040178873 0.1798816
-0.038062587 0.015049129 0.18128949
-0.03783581 0.010989528 0.18165407
-0.037145831 0.0071774814 0.18168703
-0.015516053 -0.038734127 0.17849666
-0.01082642 -0.040238537 0.17821068
-0.038723756 0.014280817 0.17778683
-0.038029522 0.010828566 0.1773721
-0.037482493 0.0056433417 0.17722318
-0.037318461 0.0013000518 0.175439
-0.018900905 -0.036616385 0.1749267
-0.016149988 -0.038000509 0.1735507
-0.037289824 0.0057375208 0.17321029
-0.037548151 0.00063454825 0.17149493
-0.020457573 -0.037066124 0.16949898
-0.017096886 -0.038283199 0.17048323
-0.038145885 -0.0052070245 0.16664252
-0.031507961 -0.025433699 0.16542077
-0.02767574 -0.033090722 0.16474587
-0.023984568 -0.036305279 0.16464496
-0.0383115 -0.010399237 0.16256192
-0.034980752 -0.020625137 0.16209197
-0.029574374 -0.028687077 0.16121
-0.027366521 -0.032825932 0.16075742
-0.024584193 -0.035637837 0.16088748
-0.038256746 -0.015260447 0.15803206
-0.033115681 -0.024060592 0.15678009
-0.02634828 -0.03395731 0.15662241
-0.03620797 -0.019296084 0.15389776
-0.012783314 -0.0068217325 0.19268984
-0.0094129313 -0.013063177 0.19201019
-0.0068164514 -0.0205082 0.19201788
-0.0049812496 -0.024532558 0.19250906
-0.0034043305 -0.028443934 0.19165558
-0.00013812818 -0.033037525 0.19070381
-0.030228719 0.022555556 0.19129708
-0.027879598 0.020236742 0.19040528
-0.026022391 0.015424406 0.19077063
-0.024764244 0.010924439 0.19181398
-0.022095263 0.006529436 0.19214687
-0.019560682 0.0010025906 0.19180271
-0.016273368 -0.0070266635 0.19244942
-0.011391869 -0.0166046 0.19166404
-0.010408202 -0.02115044 0.19238287
-0.0053444682 -0.03046214 0.19088918
-0.0036091637 -0.034144863 0.18902957
-0.035047174 0.026688756 0.18681607
-0.033898816 0.023050535 0.18843663
-0.030037528 0.019253179 0.19002384
-0.028358813 0.014833136 0.18995291
-0.028191706 0.011411654 0.19055936
-0.0046254732 -0.036369048 0.18662846
-0.0037620729 -0.038295858 0.18320552
-0.035796292 0.026427928 0.18306184
-0.036552384 0.02233199 0.18374273
-0.0060283346 -0.039253689 0.17975616
-0.037252847 0.021837976 0.17897573
-0.037466869 0.017785154 0.17951065
-0.012280359 -0.039043088 0.17513114
-0.009641299 -0.039678216 0.17459893
-0.038055904 0.021178592 0.17464414
-0.0378373 0.016858837 0.17459697
-0.037888769 0.011851299 0.17455935
-0.013185542 -0.039310135 0.17202863
-0.010067782 -0.03972517 0.17021888
-0.037846103 0.015640438 0.16997132
-0.037660401 0.01180103 0.17023724
-0.037210185 0.0070484318 0.17047793
-0.015515603 -0.03864596 0.16719502
-0.037984911 0.011468338 0.16630229
-0.037569083 0.0069325482 0.16565225
-0.037377875 0.0017198008 0.16441596
-0.019817609 -0.036563892 0.16152692
-0.0168158 -0.037785072 0.16310886
-0.03768421 0.005972865 0.16155949
-0.037834428 0.00087197684 0.15985075
-0.022015609 -0.035627767 0.15754089
-0.038198769 -0.0048477501 0.15557572
-0.031505242 -0.025830742 0.15427816
-0.026645802 -0.032095794 0.1542626
-0.023457995 -0.035216864 0.1531803
-0.03831698 -0.010050524 0.15143579
-0.035940308 -0.019045284 0.15083396
-0.029586954 -0.028260622 0.149831
-0.027136059 -0.032328323 0.1492002
-0.024868418 -0.034806177 0.14926267
-0.037226614 -0.014840712 0.14656666
-0.033817995 -0.023902198 0.14586467
-0.027810901 -0.031629123 0.14567751
-0.03534995 -0.023266478 0.14155313
0.00096391933 -0.020779327 0.19314399
-0.022164391 0.024443135 0.19362924
-0.02033237 0.018409742 0.19194523
-0.018330362 0.014066317 0.19240886
-0.016326362 0.0088826194 0.19248548
-0.013732977 0.0039986614 0.19197929
-0.010001831 -0.0047619357 0.19252154
-0.0082576936 -0.0095783826 0.19202733
-0.0069814213 -0.014091891 0.19192585
-0.0036392929 -0.018351838 0.19206277
-0.00097067188 -0.023674268 0.19252113
0.0005538715 -0.027951846 0.19165212
0.0027098749 -0.03192332 0.19091868
0.0049994187 -0.035871729 0.18993783
0.0070089675 -0.038659461 0.18865252
-0.028002994 0.023581667 0.19163603
-0.024165934 0.021955606 0.19066885
-0.023491165 0.017334215 0.1914013
-0.021942697 0.013309613 0.19205925
-0.019904418 0.0081747631 0.19192308
-0.01758519 0.0031799832 0.19159642
-7.8058802e-05 -0.034659252 0.1891579
0.0018854951 -0.0372076 0.1866973
0.0056199543 -0.03995271 0.18509236
0.00029638596 -0.038403578 0.18306369
0.0034211902 -0.041546367 0.18114102
-0.035371698 0.029144565 0.18223503
-0.0017724494 -0.039406918 0.17781562
0.0024547037 -0.041843131 0.17805427
-0.034650482 0.031843949 0.17900142
-0.036473937 0.026685955 0.1774669
-0.004972768 -0.039522428 0.17361122
-0.038122747 0.026223797 0.17296523
-0.038375646 0.022917906 0.1725941
-0.038524691 0.026285969 0.16944906
-0.037810173 0.022104256 0.16828719
-0.037959777 0.018027365 0.16867137
-0.010157688 -0.039659511 0.16652119
-0.038127117 0.020727653 0.16384894
-0.037980217 0.017075377 0.1638681
-0.038145036 0.012345372 0.16366965
-0.014751609 -0.037881359 0.15958756
-0.037958194 0.015802648 0.16013134
-0.037741471 0.011860312 0.15962857
-0.037867963 0.0077569103 0.15938395
-0.03822355 0.0036664307 0.15740058
-0.018394828 -0.035819121 0.15575778
-0.014575549 -0.036843874 0.15546516
-0.037539326 0.007018948 0.15492994
-0.038122967 0.0017596716 0.15375617
-0.018464455 -0.03570009 0.1510413
-0.016422357 -0.036585987 0.15089142
-0.037368044 0.0013308236 0.14949107
-0.037784696 -0.0077306349 0.14840961
-0.022341382 -0.035894502 0.14666077
-0.036868874 -0.0086097624 0.14396915
-0.028983297 -0.029460516 0.14306965
-0.027044754 -0.032313563 0.14288771
-0.024267759 -0.035563346 0.14266205
-0.036773622 -0.013742249 0.13963997
-0.03512609 -0.024170466 0.13916802
-0.026928226 -0.031869236 0.13846803
-0.024363775 -0.035101343 0.13851309
-0.036313716 -0.018709505 0.13502586
-0.032276642 -0.026576996 0.13428918
-0.03418659 -0.024293877 0.13087922
0.0093003074 -0.02258889 0.19432953
0.011731196 -0.029325124 0.19427997
0.013243726 -0.032139201 0.19398043
-0.014712065 0.02088695 0.19378442
-0.0121025 0.01727616 0.1934818
-0.010093808 0.011650006 0.19299334
-0.0071561849 0.0068880441 0.19226936
-0.0051116077 0.0025757966 0.19196334
-0.0014307024 -0.0062360829 0.19162023
0.00020317035 -0.010729789 0.19158342
0.0017502774 -0.015707443 0.19215509
0.0048506577 -0.020612502 0.1927546
0.0067118495 -0.024943676 0.19274148
0.0088034458 -0.029564908 0.19228372
0.010714334 -0.033922292 0.19206238
0.013123992 -0.038080152 0.19151926
-0.019497581 0.023545066 0.19201928
-0.017510947 0.019654315 0.19285041
-0.015189311 0.01547205 0.19282225
-0.013151133 0.010269073 0.19315863
-0.010222422 0.0055247373 0.19243455
-0.0085477168 0.0010572113 0.19237024
-0.0049348371 -0.0077426122 0.19206452
-0.0031694691 -0.01215598 0.19193771
-0.001766393 -0.014996605 0.19170401
0.0083143692 -0.036502246 0.1902433
0.0098656705 -0.039737321 0.1884208
0.013189726 -0.041319668 0.18564144
0.0081283543 -0.041507374 0.18395612
0.011277355 -0.04197026 0.18222624
0.0070507182 -0.043530077 0.1803537
0.0020385031 -0.040263448 0.17610642
-0.033681113 0.030784301 0.17584211
-0.0032018824 -0.038729325 0.16957018
-0.036870703 0.026478946 0.16556206
-0.037535861 0.024405707 0.16549101
-0.037091129 0.026709095 0.16091603
-0.037385996 0.023499381 0.16154918
-0.037586726 0.019424744 0.16097075
-0.0084716389 -0.03705015 0.15735933
-0.037464865 0.026789453 0.15733069
-0.037517939 0.022661913 0.15703154
-0.037726175 0.018069599 0.15733683
-0.037149042 0.014058515 0.1568599
-0.01014774 -0.03752508 0.15092102
-0.037041206 0.017474139 0.15194425
-0.03706757 0.0132061 0.15256491
-0.037096586 0.0091266977 0.15225908
-0.012745523 -0.037215292 0.14916492
-0.037103057 0.01260443 0.14795136
-0.036793131 0.0083750868 0.14778334
-0.037074544 0.0027060835 0.14700586
-0.01628031 -0.037030622 0.14479965
-0.037080839 0.007635653 0.14335126
-0.036966983 0.0028076116 0.14307967
-0.020798152 -0.036262892 0.13932124
-0.017326405 -0.03731665 0.14056456
-0.03677262 0.0015532188 0.13902071
-0.036860123 -0.007924078 0.13764644
-0.026751902 -0.031691208 0.13542575
-0.023055144 -0.03533496 0.13546079
-0.0377202 -0.0086518656 0.13325411
-0.036210056 -0.016603976 0.13226992
-0.027896367 -0.030898832 0.1321393
-0.024631549 -0.034098819 0.13073617
-0.037286364 -0.013423018 0.12833345
-0.034012474 -0.022170134 0.12805277
-0.028603835 -0.030211829 0.12687761
-0.036122352 -0.017569413 0.12391514
-0.032291718 -0.026055265 0.12291539
-0.029554278 -0.029823691 0.12329304
0.010985105 -0.016735887 0.19409841
0.011405759 -0.020895181 0.1946705
0.014395924 -0.025695676 0.19393122
-0.0080793994 0.017515624 0.19316739
-0.0067335339 0.01366614 0.19328877
-0.0039460328 0.0087808091 0.19272926
-0.0017166579 0.0040260032 0.19253862
0.00017910408 -0.00037429889 0.19233432
0.0020910506 -0.0047643003 0.19211844
0.004055006 -0.0091306474 0.19186854
0.0067730998 -0.013202814 0.1920647
0.0082729785 -0.017461186 0.19316533
0.010295045 -0.023321019 0.19391429
0.011789241 -0.026720708 0.19373932
0.014982344 -0.034007289 0.19336948
0.015692908 -0.035435375 0.19324946
0.016155634 -0.040255707 0.1883789
0.015037968 -0.040654287 0.1872375
0.0061316164 -0.040335838 0.17369306
-0.035269108 0.029197961 0.16302225
-0.034810301 0.029726189 0.15881407
-0.0011741109 -0.035881154 0.15636489
-0.036886591 0.027839508 0.15482065
-0.03715077 0.024787627 0.15440899
-0.007638176 -0.036571953 0.15197811
-0.0053189211 -0.037316106 0.14973053
-0.03641998 0.027766526 0.15070915
-0.037244558 0.023858814 0.15021518
-0.036810834 0.020071063 0.15033537
-0.0090867979 -0.036951866 0.14532989
-0.0073102294 -0.038000409 0.14635608
-0.037851017 0.022837721 0.14546055
-0.037216723 0.018876007 0.14559424
-0.036893409 0.014431029 0.14566019
-0.010769518 -0.03709292 0.14211854
-0.037765034 0.018918984 0.14111832
-0.03718628 0.013892354 0.14096797
-0.036943261 0.0094152251 0.14110503
-0.014331586 -0.037955254 0.13837817
-0.036978018 0.013351246 0.13709176
-0.036472701 0.0090107685 0.13610587
-0.036591947 0.0044701137 0.13639385
-0.036572456 0.0004097363 0.13607532
-0.016929403 -0.037138868 0.13409033
-0.035960745 0.0039620874 0.1323801
-0.021399781 -0.035648547 0.13024569
-0.018820509 -0.036312684 0.12933028
-0.037808359 -0.0070472159 0.12661046
-0.027507065 -0.031606924 0.12429357
-0.024294619 -0.033552974 0.12478882
-0.020101696 -0.035575416 0.12611455
-0.037949827 -0.0083945254 0.12192011
-0.035744738 -0.018064559 0.12114644
-0.031106532 -0.027194846 0.12043792
-0.028315995 -0.030310193 0.12005544
-0.024753571 -0.033105828 0.12005526
-0.037016563 -0.013008861 0.11688286
-0.034467466 -0.022107774 0.1168884
-0.028703643 -0.029478839 0.11543888
-0.036567371 -0.017581573 0.11226356
-0.032649338 -0.025508229 0.1125657
-0.0014652568 0.020720886 0.19471881
0.00012682285 0.018873727 0.19325569
0.0095031159 -0.0020778393 0.19254893
0.011004612 -0.0063088108 0.19392872
0.0115747 -0.011281337 0.19364139
0.013465688 -0.014866108 0.19420943
-0.0051211268 0.020035947 0.19317454
-0.0022703088 0.01649549 0.19273078
0.00041398988 0.010822297 0.19217566
0.0034711577 0.0063160928 0.19196051
0.00664869 -0.0028240643 0.19196108
0.0078358212 -0.0075634657 0.19221973
0.008922345 -0.010585763 0.19219983
0.0064882408 -0.036571834 0.16513938
0.0085237268 -0.03579887 0.16564611
0.0035990691 -0.035816807 0.15912858
0.0015972015 -0.03572613 0.15231693
0.0036835885 -0.037315797 0.15175691
-0.0026506009 -0.037953813 0.14819109
-0.035654679 0.028968133 0.14737719
-0.0047010547 -0.037772156 0.14368105
-0.037550353 0.028484859 0.14317077
-0.037587851 0.025479296 0.14380354
-0.0058875037 -0.037232295 0.13851571
-0.04007522 0.027506836 0.14000511
-0.038733136 0.02389762 0.13959855
-0.038077943 0.018954046 0.1384106
-0.010844707 -0.037376173 0.13595951
-0.043135621 0.025602199 0.13626155
-0.039556965 0.024225082 0.13569051
-0.037200905 0.019608807 0.13476008
-0.036830179 0.014745801 0.13415927
-0.036524501 0.011135872 0.13344145
-0.036622711 0.013829207 0.12933689
-0.036373261 0.009660529 0.12979996
-0.036091156 0.0048549362 0.12961936
-0.017091066 -0.036105629 0.12617302
-0.036862031 0.0091365688 0.12503648
-0.036686927 0.0044777784 0.12542111
-0.036572915 0.00095988065 0.1262185
-0.017110158 -0.034834214 0.12195641
-0.037250221 0.0039077429 0.12071055
-0.037577204 -0.006109871 0.11887968
-0.022720221 -0.034076367 0.1183852
-0.018436752 -0.034658305 0.11789811
-0.037734948 -0.0077727046 0.11580479
-0.027879804 -0.030794278 0.11323559
-0.024255477 -0.03362878 0.11448985
-0.03802399 -0.012694199 0.11102527
-0.034387991 -0.021759473 0.10935163
-0.028901506 -0.029678226 0.10961384
-0.025529146 -0.033275992 0.10988522
-0.037999161 -0.01302858 0.10633671
-0.034250516 -0.021550434 0.10572827
-0.028816674 -0.030106217 0.10592592
-0.0365046 -0.017102163 0.10217029
0.014638294 0.0022333013 0.19400644
0.0041611837 0.019011399 0.19159895
0.0066118105 0.013613728 0.19127899
0.0079109445 0.0087701203 0.19167125
0.012220868 -0.00016509928 0.19318739
0.0031932709 0.014203535 0.1905776
0.015156349 -0.036698114 0.16567203
0.015572894 -0.038266949 0.16575527
0.011232071 -0.036302213 0.15840083
0.0060175215 -0.034758199 0.15454322
0.0085046375 -0.037254412 0.15452272
0.012433057 -0.039208036 0.15446258
0.005395893 -0.037505344 0.15121564
0.0021239985 -0.036112778 0.14861473
0.0058222208 -0.036353402 0.14635178
-0.032552734 0.031648111 0.14735568
0.00021305028 -0.03663503 0.14027679
0.0015300503 -0.037891764 0.14166671
0.00036934111 -0.036494311 0.13722825
-0.0051554451 -0.036191702 0.13196045
-0.036967821 0.024078358 0.13190064
-0.035955608 0.020456841 0.13080287
-0.008234052 -0.036132079 0.128102
-0.03541588 0.024518164 0.12749302
-0.034947257 0.020804252 0.12729949
-0.034802649 0.017262943 0.12639725
-0.010433854 -0.035185374 0.12541282
-0.035522889 0.020238452 0.12368572
-0.03561116 0.015544663 0.12250954
-0.035837367 0.011579664 0.12176955
-0.014692589 -0.034952063 0.11936659
-0.036221825 0.013966158 0.11879981
-0.036120575 0.010517851 0.11761647
-0.03656267 0.0061621098 0.1176995
-0.016147051 -0.034960419 0.11493045
-0.036363274 0.0097336015 0.11401534
-0.035871621 0.0052868715 0.11338919
-0.036142662 0.0013167132 0.11270154
-0.018360298 -0.034863599 0.11147493
-0.036308758 0.0037864335 0.10953003
-0.036325619 4.9635768e-05 0.10876286
-0.022920493 -0.034368213 0.10706866
-0.019662529 -0.034803208 0.10689557
-0.036848504 -0.0054658186 0.10408264
-0.029391559 -0.026387306 0.10256594
-0.027209884 -0.028953396 0.10169607
-0.024366762 -0.03306932 0.10276312
-0.020937517 -0.035154205 0.10189188
-0.036959384 -0.011697453 0.099806547
-0.033024233 -0.020783741 0.099664688
-0.027554633 -0.028958123 0.097936213
-0.025303103 -0.032226786 0.097600222
-0.035890315 -0.016501341 0.094552696
-0.0312283 -0.024815321 0.094005942
0.015262065 0.012024872 0.19242087
0.0075238291 0.019621111 0.19180113
0.0088055087 0.016355535 0.19140506
0.011111428 0.011872605 0.19176915
0.016029481 -0.035389569 0.16105264
0.018291708 -0.037976462 0.16024575
0.015732981 -0.038859654 0.15622097
0.0054789744 -0.037429146 0.13774785
-6.9144182e-05 -0.036595616 0.13460898
0.0047923969 -0.037134606 0.13394812
0.0010660589 -0.036055431 0.13080978
0.0026410744 -0.03714383 0.12906146
-0.0020160722 -0.03537659 0.1257863
-0.034634866 0.027307449 0.12601101
-0.035209224 0.022936914 0.12577152
-0.00747116 -0.033895124 0.12115306
-0.004467207 -0.035507593 0.12112224
-0.035633542 0.025526483 0.12186199
-0.036142312 0.021679666 0.12196869
-0.035105336 0.016227603 0.11945564
-0.0074963644 -0.033818386 0.11818194
-0.0055322684 -0.035671353 0.11831242
-0.035304587 0.025272626 0.11733341
-0.035924722 0.021168839 0.11703843
-0.035774272 0.01634793 0.11676347
-0.03561369 0.020012831 0.11288458
-0.036023885 0.016518641 0.11180615
-0.03639064 0.010769714 0.11144787
-0.035558514 0.0067543546 0.11023897
-0.015194932 -0.034801546 0.10777831
-0.035851903 0.014791989 0.10837966
-0.036084197 0.010812251 0.10716182
-0.03613288 0.0060404884 0.10657716
-0.036113542 0.0023055449 0.10578364
-0.016876247 -0.034901448 0.10347915
-0.036331784 0.009451055 0.10407728
-0.036255829 0.0051246155 0.10213894
-0.036366705 0.0011331867 0.10197216
-0.018673889 -0.035341509 0.099341929
-0.035990112 0.0045225183 0.099090219
-0.036512118 -0.004313862 0.097520709
-0.02328587 -0.033711337 0.09564954
-0.020755108 -0.034856457 0.094649076
-0.037022401 -0.009642154 0.093266189
-0.030513382 -0.02553542 0.091090322
-0.028415604 -0.029346392 0.092045546
-0.025251457 -0.032834776 0.091531813
-0.036393829 -0.016458584 0.088847816
-0.031835061 -0.025078252 0.087877929
-0.029029261 -0.029162949 0.086946249
-0.026237683 -0.03213238 0.08707732
-0.034026112 -0.020511141 0.083147705
0.01344693 0.021426957 0.19100013
0.014180596 0.018131364 0.19169676
0.0055554239 -0.037820399 0.13126272
0.0016572485 -0.035736524 0.12740046
0.0044673886 -0.037869036 0.12804335
0.0025634412 -0.035262581 0.12273991
0.005267269 -0.035979621 0.12311852
-0.033588108 0.029160783 0.11869156
-0.0054795723 -0.032891423 0.11361408
-0.0045042438 -0.035164144 0.11451453
-0.034716859 0.027308669 0.1137616
-0.035238124 0.023746211 0.11368209
-0.0071671326 -0.033476837 0.11091393
-0.0041989265 -0.034042161 0.11003536
-0.035222102 0.026590072 0.10934532
-0.035477728 0.022304062 0.10995811
-0.0094622904 -0.034256663 0.10668057
-0.0064636758 -0.034780141 0.10474926
-0.036341447 0.025570035 0.10595304
-0.036385585 0.021992693 0.10488892
-0.035511047 0.017173896 0.10527092
-0.034985751 0.013596352 0.10507482
-0.011976915 -0.035128109 0.10262686
-0.03926627 0.026298365 0.10175127
-0.037658796 0.021077629 0.10063499
-0.036282551 0.016924441 0.10007727
-0.035689391 0.011969102 0.10070282
-0.035236619 0.0083607398 0.10057181
-0.014102128 -0.035837095 0.098258197
-0.035408806 0.011800253 0.095946848
-0.03502737 0.0071844282 0.095426798
-0.035332009 0.0026167585 0.09575969
-0.017351877 -0.035249822 0.094347119
-0.035375673 0.0058260486 0.091553748
-0.03556405 0.0017982218 0.091159344
-0.02301934 -0.033792831 0.087898314
-0.018176854 -0.03469234 0.088302553
-0.036116436 0.00071324222 0.085994244
-0.03604747 -0.0082145985 0.086341619
-0.023913251 -0.032713182 0.084185898
-0.020381685 -0.034380183 0.084106088
-0.036315121 -0.0036575971 0.082223058
-0.036019038 -0.014533813 0.081125259
-0.030638013 -0.024304215 0.08068037
-0.028026469 -0.02853968 0.080950022
-0.024129052 -0.032225996 0.080123842
-0.036068354 -0.014612878 0.077224255
-0.030665968 -0.024369277 0.076364994
-0.027925367 -0.028095018 0.075883567
-0.025837228 -0.031041332 0.076955259
-0.034924686 -0.018863412 0.072537303
0.0077694748 -0.038549025 0.12407601
0.0065229619 -0.036616564 0.12112224
0.0025435258 -0.035165749 0.11875963
0.0057899207 -0.036335237 0.11728889
0.0025941245 -0.034960195 0.11168361
0.0037397984 -0.036294095 0.11224604
-0.033401009 0.030047018 0.1138494
-0.0028677303 -0.034779608 0.10781109
-0.03480595 0.029806651 0.10783792
-0.0047049923 -0.035118096 0.10362393
-0.036908939 0.02602892 0.1042133
-0.0069111027 -0.035253294 0.099638045
-0.037836608 0.025347644 0.09896785
-0.038255341 0.022750981 0.098593473
-0.0074664885 -0.035325322 0.094471693
-0.03627903 0.021812234 0.094734073
-0.035740927 0.016939975 0.094280779
-0.035713665 0.012641853 0.093197823
-0.012670834 -0.035061166 0.090967476
-0.010133029 -0.035725191 0.087296486
-0.034645878 0.012351856 0.088600039
-0.035702236 0.007613142 0.089271486
-0.014357664 -0.035586044 0.086201549
-0.036001019 0.0066325413 0.084590971
-0.036327094 0.0033467766 0.085430324
-0.017225266 -0.035287119 0.082571328
-0.014966805 -0.035629842 0.079482079
-0.036134303 0.0055092247 0.080596507
-0.036632329 0.0019580992 0.079624176
-0.022790805 -0.033365026 0.07740283
-0.019655013 -0.034341477 0.077930868
-0.036492985 0.0008274978 0.075283885
-0.036753945 -0.0076682968 0.075102627
-0.027123827 -0.029671403 0.073414266
-0.024697373 -0.031966817 0.074311078
-0.022033691 -0.032875076 0.071551859
-0.03636077 -0.013474548 0.070391953
-0.032659542 -0.02292626 0.069464743
-0.025620071 -0.030348688 0.069588125
-0.03594375 -0.013832131 0.066447914
-0.031946313 -0.022127416 0.065795183
0.012468676 -0.03748915 0.11775535
0.0072462992 -0.034976907 0.11359054
0.012524528 -0.038263358 0.1138956
0.005086056 -0.035172686 0.11173642
0.003254774 -0.035448667 0.10633087
0.0018349644 -0.035870258 0.10134125
-0.0033466639 -0.035100695 0.096610725
0.00039314013 -0.036130764 0.096716702
-0.0052165492 -0.035731118 0.092996657
-0.00160693 -0.036061402 0.091569126
-0.034690674 0.027373645 0.091115594
-0.034961455 0.024000954 0.091688931
-0.034688618 0.019134887 0.091251791
-0.0068917535 -0.035557471 0.08862406
-0.034989092 0.02743198 0.088234842
-0.035356574 0.023643404 0.08745265
-0.034788929 0.018660121 0.087793052
-0.034365781 0.014998822 0.087006092
-0.0096772704 -0.036342338 0.084064245
-0.037102714 0.026744543 0.083759367
-0.036602702 0.02276342 0.082754731
-0.035600685 0.01833884 0.082883298
-0.03470356 0.013480932 0.08329308
-0.03508281 0.0094729699 0.082858503
-0.010492187 -0.036536358 0.079565823
-0.037270553 0.021470625 0.07911557
-0.03643319 0.017744787 0.079006612
-0.035686441 0.013117372 0.078177333
-0.03557099 0.0079632243 0.078330815
-0.016985342 -0.034537297 0.075510383
-0.013612652 -0.0358673 0.075465262
-0.036633924 0.011879755 0.073415101
-0.036565229 0.0077438932 0.073841035
-0.036359031 0.0026521143 0.07329613
-0.017663615 -0.033803329 0.071672976
-0.037306085 0.0068357494 0.069366395
-0.036465243 0.0026161773 0.06897229
-0.035234835 -0.0066321213 0.067461967
-0.024595294 -0.030173022 0.066141963
-0.020512756 -0.033189345 0.066979408
-0.036991064 0.0018069269 0.064297736
-0.035824165 -0.0079063978 0.0637573
-0.033023573 -0.019225139 0.062450349
-0.027747547 -0.025990037 0.062817097
-0.024536282 -0.030289168 0.06275779
-0.021409215 -0.033205502 0.061821759
-0.036134426 -0.007587397 0.059107482
-0.034027372 -0.017691586 0.058593333
-0.027760832 -0.026043007 0.058050334
-0.025281895 -0.029582346 0.058141708
-0.02283518 -0.032779574 0.058596849
-0.0361198 -0.013007762 0.054639339
-0.031982422 -0.022248652 0.053890586
-0.03672301 -0.014874344 0.050389767
-0.03391815 -0.020919118 0.051051438
0.01421431 -0.037522096 0.10957158
0.0099287163 -0.035571862 0.10791647
0.00906232 -0.035772119 0.10247177
0.0067808381 -0.036542598 0.098120511
0.0044441605 -0.036876258 0.093181789
0.0026049158 -0.036863405 0.089234948
-0.0010838406 -0.036147524 0.085585058
-0.035689957 0.027277235 0.085691273
-0.0031791236 -0.036406212 0.081479907
-0.035694454 0.02763854 0.080431581
-0.036945704 0.024522755 0.081493795
-0.0086434241 -0.036608797 0.076177955
-0.037049409 0.023598421 0.076296031
-0.036269881 0.018851213 0.07578516
-0.0085111186 -0.035542145 0.071642041
-0.035729215 0.017644994 0.07124567
-0.036663607 0.014432592 0.071790516
-0.015487557 -0.033717383 0.06795752
-0.012267864 -0.034960248 0.068416059
-0.036154605 0.01320235 0.067269981
-0.036466956 0.0092328694 0.065974116
-0.016198533 -0.033890236 0.06436348
-0.014635867 -0.035064705 0.064571917
-0.036257088 0.0075960476 0.062229812
-0.037423585 0.0035574734 0.062031507
-0.016458351 -0.033808745 0.058249891
-0.036311973 0.002490689 0.057289481
-0.024185574 -0.030840859 0.055568635
-0.021445513 -0.033187494 0.05513221
-0.036754332 -0.0072723576 0.053144753
-0.025405169 -0.029997462 0.051343501
-0.022695646 -0.032447163 0.049968719
-0.03684444 -0.012515884 0.048423827
-0.032079432 -0.022038123 0.047570646
-0.02578472 -0.029108878 0.047145784
-0.036347866 -0.012951683 0.043374121
-0.032280117 -0.021340076 0.042689741
0.015133785 -0.036193043 0.10559374
0.014169228 -0.03646129 0.1012215
0.012128127 -0.037845585 0.096421301
0.010487394 -0.038547795 0.091985524
0.0068144561 -0.03807601 0.088247955
0.0034893798 -0.036870148 0.084086359
0.0026496165 -0.035906117 0.080290496
-0.0017187418 -0.03567091 0.075054646
-0.032754101 0.02934828 0.07575351
-0.005347426 -0.03513433 0.069211066
-0.0018518837 -0.035615195 0.070968568
-0.035629302 0.02494261 0.070115983
-0.035144046 0.020323474 0.069545925
-0.0068478808 -0.035159986 0.065093338
-0.035943054 0.023734294 0.065411031
-0.035541847 0.019760422 0.065207422
-0.035171382 0.01421832 0.063942969
-0.011612599 -0.034973592 0.061239541
-0.034667023 0.018296026 0.061357796
-0.034708504 0.014651058 0.060313821
-0.035386816 0.009757245 0.060115099
-0.013340578 -0.034790754 0.057229877
-0.035236377 0.012765357 0.057029068
-0.035338506 0.0090973442 0.056046426
-0.035552569 0.0053815134 0.05516994
-0.017040979 -0.033894442 0.053447366
-0.01470977 -0.03475561 0.05297631
-0.034922555 0.0086188214 0.05162853
-0.035913073 0.0038286177 0.05139792
-0.018348344 -0.033381179 0.049010217
-0.036879718 0.0020301426 0.047096431
-0.036268398 -0.0071613174 0.044559419
-0.024993137 -0.029599285 0.04455024
-0.021078106 -0.032694358 0.044117451
-0.037622046 0.0014618244 0.043046594
-0.037197493 -0.0068474612 0.042353034
-0.034322307 -0.01700104 0.039583087
-0.028815946 -0.025622405 0.0410344
-0.02546729 -0.029877245 0.040474772
-0.022568159 -0.03208271 0.040192664
-0.037541576 -0.0073978445 0.038158596
-0.034330942 -0.016865412 0.036337197
-0.029488176 -0.025720581 0.036248326
-0.026557043 -0.029327843 0.035730124
-0.032737624 -0.021667724 0.031428814
0.012957452 -0.03931912 0.088414669
0.011811541 -0.038782898 0.084939718
0.0065329485 -0.03618883 0.079682052
0.0095319077 -0.037573524 0.080416143
0.0048759924 -0.035551634 0.076532364
0.0038510012 -0.035151426 0.068796515
-0.0014493708 -0.035367075 0.06746763
-0.002539956 -0.035675436 0.063102186
-0.035105065 0.026431657 0.06149739
-0.0057863118 -0.035027355 0.059003174
-0.003469673 -0.035945401 0.059650183
-0.034715451 0.025394171 0.058852851
-0.034068618 0.020628713 0.058129668
-0.03342285 0.017321192 0.056467474
-0.0081444578 -0.033981223 0.05307126
-0.033526838 0.02111814 0.054397881
-0.033758391 0.015530315 0.052987993
-0.034626901 0.011454063 0.052703559
-0.010839332 -0.034347732 0.049911797
-0.034179449 0.013755723 0.048496068
-0.034878679 0.010007516 0.048452318
-0.016294327 -0.033353381 0.045289934
-0.013007435 -0.034596022 0.045677423
-0.034837782 0.0087624248 0.04441154
-0.035039172 0.0055150343 0.043671966
-0.016437262 -0.033283833 0.041105211
-0.014412115 -0.034286272 0.040899634
-0.034654193 0.0084344652 0.040790915
-0.035555992 0.0035325615 0.038661778
-0.020293843 -0.032425705 0.036899984
-0.036113255 0.0026155803 0.033991873
-0.036161739 -0.0065785176 0.033589303
-0.024394671 -0.03014183 0.03210789
-0.021354385 -0.031975806 0.033122599
-0.035805847 -0.006632003 0.030298769
-0.033939891 -0.016160673 0.029814899
-0.029422168 -0.026151894 0.029013097
-0.025590781 -0.029029761 0.028302968
-0.02146646 -0.031296995 0.029406726
-0.03384218 -0.016550768 0.025280893
-0.029922752 -0.025471065 0.024660051
-0.026083993 -0.028453339 0.024652064
-0.032581545 -0.020984931 0.021618783
0.013951885 -0.039321117 0.078034461
0.0079126153 -0.03550351 0.07330364
0.011071604 -0.037204616 0.074222445
0.01366742 -0.039631657 0.073437154
0.0057964604 -0.034439608 0.070346296
0.0091987895 -0.036425401 0.06948185
0.012560811 -0.040267512 0.069498122
0.0032588914 -0.035312198 0.066117585
0.0070887767 -0.036344338 0.065086663
0.0021448582 -0.035631705 0.061750352
6.6334382e-05 -0.035849079 0.056465507
-0.033257268 0.027701821 0.055506647
-0.0041944729 -0.034253214 0.053360224
-0.0023443522 -0.034402125 0.052012861
-0.033929825 0.025729928 0.052313268
-0.033279784 0.021778643 0.051676214
-0.0039682779 -0.034013357 0.047790527
-0.034140654 0.0250259 0.047328889
-0.033630826 0.021295991 0.047217309
-0.033378933 0.017150214 0.047534108
-0.0094311684 -0.034305323 0.046692193
-0.0072171986 -0.035152126 0.043103814
-0.034435201 0.020087637 0.042013645
-0.03432858 0.015901634 0.042625844
-0.034498107 0.011487035 0.042628407
-0.011730516 -0.035020206 0.040107131
-0.0080535067 -0.035350889 0.038431287
-0.035422325 0.015179742 0.037535906
-0.035007697 0.010521159 0.038023293
-0.034626354 0.0067505203 0.038043261
-0.015877172 -0.032883767 0.035179436
-0.013386878 -0.034613561 0.034820497
-0.035428487 0.0097654881 0.03308934
-0.035472844 0.0056936806 0.033632278
-0.017248258 -0.032826141 0.030305505
-0.014722975 -0.034068003 0.029220641
-0.036150578 0.0045287982 0.02829355
-0.035333704 -0.0041011889 0.027843773
-0.020432632 -0.031871803 0.026154399
-0.016504776 -0.032853093 0.025924146
-0.036631126 0.0029543573 0.023446679
-0.035410952 -0.0057909205 0.024079621
-0.03356126 -0.014139427 0.022999585
-0.02490712 -0.029410556 0.022184372
-0.021653051 -0.031573281 0.021494448
-0.036025744 -0.0060089165 0.018369615
-0.034137391 -0.015420486 0.018781245
-0.029512189 -0.025324939 0.018215775
-0.025860837 -0.028496008 0.017163813
-0.034559529 -0.015980855 0.013462424
-0.029902663 -0.024771322 0.013041317
-0.026910303 -0.02747101 0.013002574
0.011668397 -0.037535496 0.066947937
0.012297532 -0.039706036 0.0667274
0.010952261 -0.037093434 0.0620597
0.012537437 -0.038920656 0.062463582
0.0078251138 -0.035894569 0.058072388
0.0055393586 -0.035919566 0.05294764
0.00069050025 -0.035157628 0.049519956
0.0047963308 -0.036115661 0.049280047
-0.0010477072 -0.03499246 0.045215428
-0.033906795 0.026594218 0.044185579
-0.03368501 0.023570295 0.044180751
-0.0018211864 -0.035588533 0.04063195
-0.034839228 0.02628595 0.040395081
-0.034301348 0.022577403 0.040638328
-0.0051063551 -0.035979394 0.036698878
-0.035375722 0.025654014 0.036236107
-0.034695126 0.022013821 0.036167145
-0.034916185 0.017904159 0.036018193
-0.0081509473 -0.036133345 0.032256901
-0.036711294 0.024834666 0.03209722
-0.03450251 0.02163852 0.031861603
-0.034467615 0.016523104 0.031376958
-0.035099711 0.011617549 0.030461133
-0.012751736 -0.035077833 0.027964771
-0.0094825439 -0.035616096 0.02771765
-0.034754731 0.015667599 0.027869165
-0.034359358 0.010879809 0.026391208
-0.014721118 -0.03427045 0.023625672
-0.010067511 -0.035738979 0.023857415
-0.034625344 0.0094526047 0.023107171
-0.035242107 0.0066351499 0.021842718
-0.019744355 -0.032119982 0.019575775
-0.0156841 -0.033262353 0.019935429
-0.035272472 0.0043693325 0.016974986
-0.035120003 0.00077121053 0.017112315
-0.02084218 -0.031199094 0.015065253
-0.035758104 -0.0051138718 0.012572706
-0.025670934 -0.028111218 0.010717452
-0.022323744 -0.030103141 0.010061145
0.012214497 -0.0371501 0.059031367
0.013234135 -0.036670767 0.054953516
0.014298247 -0.038107425 0.055634856
0.010911484 -0.036286779 0.052634299
0.0052581951 -0.035875943 0.046720207
0.0044983979 -0.036078278 0.043042958
0.0043338649 -0.036012504 0.037746429
-0.0028195484 -0.034998104 0.033191383
-0.033610038 0.02818092 0.031927228
-0.0027970811 -0.035796694 0.029059112
-0.035865977 0.025501531 0.027956188
-0.035068177 0.022398125 0.029135883
-0.034218077 0.0186758 0.028714716
-0.0056705438 -0.035883293 0.024788678
-0.03470476 0.021857034 0.024487793
-0.034452036 0.017227199 0.024340272
-0.03395969 0.013407096 0.024645686
-0.0090088667 -0.035239648 0.020673931
-0.035286825 0.020601042 0.020210147
-0.034857754 0.017046627 0.019857943
-0.034334406 0.011889762 0.019652307
-0.013063431 -0.033496719 0.016252279
-0.007882582 -0.034711882 0.017415345
-0.035101112 0.015889537 0.016370356
-0.034624703 0.011416216 0.015020967
-0.035152864 0.0070514353 0.015047967
-0.014713509 -0.032655578 0.012366593
-0.035599183 0.010468841 0.010801733
-0.035792835 0.0058752773 0.010858655
-0.035493821 0.0013860092 0.0098209977
-0.02002633 -0.031894971 0.0087391734
0.013853216 -0.03565507 0.047415733
0.01556047 -0.037514098 0.050258517
0.011515891 -0.035994016 0.044648945
0.010426197 -0.036680367 0.040470243
0.0092100594 -0.036667552 0.035738826
0.0014879284 -0.035134148 0.032071769
0.0062894751 -0.035139222 0.032735527
0.0020816252 -0.034780174 0.027141631
-0.032209225 0.029074047 0.028373718
1.792796e-06 -0.035434708 0.021280527
-0.0032149777 -0.034726128 0.016999602
-0.034187663 0.022460725 0.018755913
-0.0053470414 -0.03359874 0.012832403
-0.034114253 0.021566093 0.013438165
-0.034226436 0.018403167 0.012664497
-0.034541547 0.013837576 0.012870073
-0.0094386134 -0.033255942 0.0093744397
0.013501203 -0.038004275 0.036785901
0.011033773 -0.03698884 0.03182292
0.0089920601 -0.034610186 0.028316915
0.01179181 -0.036636002 0.028949201
0.0046041785 -0.03374891 0.024871051
0.007250098 -0.034561183 0.024153411
0.0056196065 -0.035088129 0.020069003
-0.00033987593 -0.035490174 0.018260539
0.0024241153 -0.035291463 0.016010582
-0.0033687092 -0.034022294 0.011374295
-0.031072 0.025025193 0.011013806
0.011461416 -0.034854777 0.026486337
0.012398748 -0.036343437 0.02619952
0.010014543 -0.035334229 0.023337364
0.011452211 -0.036622792 0.022601902
0.0085987225 -0.035003036 0.017708838
0.0039115967 -0.035619192 0.014932692
0.013058513 -0.035879355 0.016701579
0.0093654282 -0.035334952 0.012759209
0.01679128 -0.034333397 0.011088848
0.016195517 -0.034521487 0.0093705654
0.022806652 -0.033898219 0.0096265674
