# .PCD v0.7 - Point Cloud Data file format
VERSION 0.7
FIELDS x y z
SIZE 4 4 4
TYPE F F F
COUNT 1 1 1
WIDTH 989
HEIGHT 1
VIEWPOINT 0 0 0 1 0 0 0
POINTS 989
DATA ascii
0.033095211 -0.040661037 0.19332415
0.031677172 -0.042235136 0.19025385
0.032138329 -0.043131351 0.18771917
0.016297139 -0.03589803 0.19269222
0.021668803 -0.035880446 0.19250363
0.028593563 -0.035993278 0.19324777
0.030863412 -0.037488997 0.19320798
-0.0083839484 -0.039466023 0.19009948
0.0018088464 -0.039753914 0.19045311
0.01162247 -0.039902747 0.19085273
0.021568745 -0.03973186 0.19041651
0.026916213 -0.039208412 0.18991092
0.030525073 -0.039700508 0.19160599
-0.0082726814 -0.041718483 0.18683362
0.0014873799 -0.042330027 0.1863918
0.011472583 -0.043311357 0.18669727
0.021600317 -0.042366505 0.1855987
0.026743803 -0.041829705 0.18525138
0.030815151 -0.041726172 0.18474978
0.0018089991 -0.043168068 0.18292347
0.011283815 -0.043955922 0.18167323
0.02103015 -0.043339372 0.18112576
0.02659183 -0.043055892 0.18059841
0.02968007 -0.041594803 0.18046272
0.017285537 -0.043816864 0.17774448
0.020353656 -0.043725193 0.17758676
0.027254898 -0.043201208 0.17702398
-0.016185939 -0.033044755 0.19197991
-0.0083892979 -0.03341192 0.1928601
0.0015888382 -0.033063829 0.19140422
0.011495519 -0.032792628 0.19294837
0.016315825 -0.031843662 0.19287577
0.020623557 -0.031714678 0.19247109
0.02641283 -0.031911373 0.1916779
0.030200932 -0.033161402 0.19413611
-0.016627502 -0.035568595 0.189491
-0.0083878525 -0.036321521 0.19151103
0.00088050589 -0.036572278 0.19181564
-0.016689431 -0.037843227 0.18556258
-0.0093850009 -0.04155755 0.18442944
0.032841042 -0.036204576 0.17961767
-0.0087984949 -0.041513979 0.18073159
0.00089624338 -0.042835414 0.18023667
0.023467466 -0.042494476 0.17851016
0.031627804 -0.039963186 0.17816809
0.034282967 -0.037771583 0.17692083
-0.0088291764 -0.042150795 0.17587861
0.001053296 -0.043337941 0.17611533
0.010862827 -0.043418288 0.17562661
0.021292794 -0.043165326 0.17474797
0.026199952 -0.043094397 0.17463279
0.030614655 -0.041227698 0.17405203
-0.00422398 -0.043608904 0.17204839
0.0054892395 -0.042881548 0.17153648
0.015933663 -0.043366849 0.17040968
0.019928068 -0.04353416 0.17036274
0.025265023 -0.043061078 0.1702643
0.02990412 -0.042050958 0.17006329
0.020000566 -0.044040263 0.16677654
0.0085140131 -0.025149345 0.19170898
0.011648107 -0.026175022 0.19223848
0.016642101 -0.026233137 0.19283709
0.020955496 -0.025878668 0.19174457
-0.022700127 -0.028665125 0.18945366
-0.018600747 -0.029114366 0.19122344
-0.013497233 -0.030034482 0.19319451
-0.0034755804 -0.028930664 0.19217575
0.0058525633 -0.028535247 0.19129491
0.022481091 -0.029163957 0.19191107
0.024793718 -0.028355837 0.1913324
-0.022800468 -0.030138373 0.18672055
-0.019715667 -0.032316923 0.18822286
-0.019737389 -0.033769608 0.18342471
-0.017914239 -0.036028981 0.17877942
0.035630219 -0.034991145 0.17507285
0.040472254 -0.033747733 0.17226377
-0.017039299 -0.036506772 0.1740526
-0.010690928 -0.041796327 0.17363384
0.03257164 -0.039136469 0.17143217
0.035698276 -0.037496805 0.17117652
0.040368874 -0.035469532 0.16969562
-0.0095630884 -0.04196614 0.16948658
-6.5207481e-05 -0.042269349 0.16853172
0.010461599 -0.041845441 0.16819724
0.021583557 -0.042407155 0.16748387
0.026216879 -0.042063415 0.16710925
0.03140118 -0.041004837 0.16747382
0.03535378 -0.037911117 0.16643763
0.038724702 -0.036366224 0.16663313
-0.0093995407 -0.041681528 0.16448259
-0.00028428994 -0.041439652 0.16380334
0.010580935 -0.041020155 0.1631833
0.0199138 -0.042693555 0.16378701
0.025132634 -0.04265523 0.1640006
0.030440554 -0.041876018 0.16295657
0.033914648 -0.038771868 0.16281006
-0.0058406033 -0.042674601 0.16108078
0.0089132264 -0.04202652 0.16018593
0.019787256 -0.041717649 0.15964088
0.024449639 -0.0419662 0.15966567
0.029104944 -0.041603684 0.15927613
-0.033673219 -0.022768736 0.19347775
-0.022824258 -0.022708952 0.19124624
-0.019680783 -0.022880435 0.19124731
-0.013772041 -0.023818016 0.19241437
-0.003732834 -0.023429513 0.19236195
0.0055779144 -0.022883654 0.19177902
0.011612114 -0.022004783 0.19149077
0.015929166 -0.020870984 0.19202045
0.02067408 -0.02167064 0.19171369
0.025612894 -0.022021294 0.19012043
-0.03226383 -0.024923623 0.18926579
-0.028221004 -0.024849057 0.18871835
-0.024541661 -0.025941074 0.18987405
-0.020361718 -0.025789618 0.19124174
-0.027701363 -0.027342439 0.18511623
-0.025273077 -0.028392017 0.18569934
-0.027909417 -0.028178275 0.18104258
-0.024675556 -0.030199945 0.18130371
-0.02146019 -0.032850921 0.18105429
0.035262667 -0.028421819 0.17637479
-0.023698814 -0.031457961 0.1769976
-0.021034267 -0.033267558 0.17725003
0.036745179 -0.029349685 0.17415309
0.040584918 -0.030269027 0.17277405
0.044474039 -0.02949971 0.17122236
-0.01934715 -0.034689724 0.17192444
0.045096651 -0.032779992 0.16870767
0.049642105 -0.031140208 0.16692871
0.054457549 -0.031045377 0.16541034
0.057581637 -0.030857921 0.1651879
-0.018449567 -0.036484003 0.16726872
-0.016598821 -0.038118184 0.16674682
0.036308303 -0.036541224 0.16310546
0.040436283 -0.035766184 0.16408825
0.044933505 -0.034753978 0.16350645
0.049455751 -0.033134699 0.16252151
0.054383356 -0.032109201 0.16331908
0.057500444 -0.032108665 0.16322047
-0.016425908 -0.039651155 0.1628347
0.035623886 -0.037549436 0.15983567
0.04015461 -0.035412073 0.15942687
0.044861585 -0.034891546 0.15986684
-0.0098711252 -0.042074502 0.15869051
-0.00069907121 -0.042272031 0.15854335
0.010570332 -0.041555285 0.15770864
0.019693125 -0.041472733 0.15667036
0.024362121 -0.041489422 0.15653813
0.029819451 -0.040789187 0.15636152
0.034409672 -0.038331509 0.15528321
-0.0053845793 -0.042997062 0.15401989
0.0041385852 -0.042339087 0.15345973
0.014867306 -0.041557252 0.15241268
0.019354094 -0.041527808 0.1522558
0.024222698 -0.041535437 0.15187734
0.028901711 -0.041184783 0.15149382
0.032577887 -0.039695323 0.15161335
0.013180673 -0.042387903 0.14902923
0.019428924 -0.042180479 0.14869663
0.024896275 -0.042143822 0.14850622
0.028019425 -0.042178154 0.14843592
0.0053214096 -0.013770461 0.19216216
0.0084649548 -0.013638377 0.19197553
0.016324565 -0.013346076 0.19153208
0.020256743 -0.01342845 0.1914492
-0.032186106 -0.021851361 0.19286311
-0.029742837 -0.01787281 0.19079217
-0.024242491 -0.018530428 0.19128883
-0.019600984 -0.018407345 0.19193238
-0.014557302 -0.017720878 0.19218388
-0.0088159814 -0.017077208 0.19190216
0.0006583333 -0.017298579 0.1926339
0.010814894 -0.017293751 0.19137338
0.016312286 -0.016202569 0.19143707
0.021393001 -0.016178787 0.19079372
0.025660794 -0.015695035 0.18897548
0.029532023 -0.016630352 0.18758142
-0.032458086 -0.020694911 0.1894027
-0.030000757 -0.021201611 0.18871492
-0.025321312 -0.02079314 0.19014499
-0.032772858 -0.023707211 0.18206263
-0.030237779 -0.025108218 0.18378985
-0.032967255 -0.024795771 0.17812109
-0.030156597 -0.02630055 0.1787264
0.03688854 -0.023540139 0.17412087
0.040031541 -0.022937834 0.17363298
0.045522753 -0.021988034 0.17191482
-0.033418566 -0.02777034 0.17492905
-0.029682711 -0.028087318 0.17454767
-0.025995955 -0.029728413 0.17511863
0.040705148 -0.026333153 0.17300519
0.045623615 -0.024895012 0.17059332
0.049853593 -0.024979889 0.16944838
0.054480519 -0.024199128 0.16820681
0.059490483 -0.02412653 0.16725159
-0.02924012 -0.029011011 0.17140391
-0.02512414 -0.030027986 0.17030147
-0.022092458 -0.032039344 0.17035723
0.050714623 -0.028233886 0.16834143
0.054612 -0.028056085 0.16717035
0.059065387 -0.027290106 0.1662178
-0.024769884 -0.029929936 0.16624856
-0.02121383 -0.033132553 0.16530949
0.051197294 -0.032510579 0.15994754
0.054052867 -0.031656504 0.16041163
0.058377586 -0.029667974 0.16157264
-0.019766927 -0.035200477 0.16067913
0.040100999 -0.035065949 0.15638185
0.04483515 -0.033764362 0.15629506
0.049591023 -0.032009661 0.15590391
0.054594927 -0.030189157 0.15587184
0.059080675 -0.029900908 0.15500072
-0.016616937 -0.038226485 0.15651149
0.036314875 -0.037364185 0.15304238
0.040020891 -0.035160899 0.15268135
0.04424338 -0.033477247 0.1520353
0.047960419 -0.03204757 0.15221021
0.060512677 -0.032020211 0.15180439
-0.01086583 -0.040934026 0.1517736
0.0053949971 -0.041202724 0.15033308
0.021032996 -0.040711224 0.14951938
0.03476071 -0.038823307 0.14945227
0.039363336 -0.036292136 0.14780447
0.043092798 -0.034482181 0.14834142
-0.010294385 -0.04055208 0.14679834
-0.0010171346 -0.041664243 0.14705718
0.0091751367 -0.042069614 0.14665523
0.019348074 -0.041360259 0.14599669
0.023811389 -0.041142106 0.14540511
0.028956302 -0.041028142 0.14517131
0.033262014 -0.039211035 0.14455342
0.037152521 -0.037927568 0.14457309
-0.0059370771 -0.041003227 0.14293686
0.0037192777 -0.042142212 0.14208737
0.014473476 -0.042178035 0.1412479
0.019176867 -0.041741908 0.14080095
0.023881618 -0.041208446 0.14028382
0.028402399 -0.040856659 0.14014018
0.032292429 -0.039717257 0.14025664
0.017487321 -0.042248428 0.13738829
0.023774464 -0.041984141 0.13701499
-0.024725474 -0.012596369 0.19246411
-0.019562352 -0.012543261 0.19271857
-0.014433708 -0.012012362 0.19268376
-0.0089532882 -0.011081457 0.19193286
0.00016486272 -0.010310173 0.19253922
0.0052972231 -0.010796249 0.19219798
0.010348216 -0.011865675 0.19193977
0.015561592 -0.010356903 0.19204512
0.021076888 -0.010323405 0.19168347
0.025765464 -0.0097076297 0.18992388
0.030092195 -0.0092979074 0.18906686
-0.029158849 -0.014490783 0.19118798
-0.025045324 -0.015364289 0.19185904
-0.021473799 -0.015297651 0.19215795
0.025700189 -0.012857676 0.18907806
0.030397061 -0.011868358 0.18739378
-0.03417623 -0.018404067 0.1889635
-0.033694074 -0.02087909 0.1821622
0.035358075 -0.017916024 0.17672703
0.039452855 -0.016905785 0.17539448
-0.037967987 -0.020002067 0.17802539
-0.035539418 -0.022525072 0.17675591
0.036201157 -0.020366311 0.1749036
0.039354641 -0.01963079 0.17433271
0.044521905 -0.018608868 0.17244965
0.049763493 -0.018578231 0.17122707
0.054691654 -0.017941892 0.16949031
-0.036255732 -0.025924683 0.17522761
-0.031599209 -0.026378334 0.17350447
0.050982423 -0.022116601 0.16995728
0.055324595 -0.021246493 0.16879022
0.059667215 -0.020606041 0.16777053
-0.029466607 -0.028318346 0.16815057
-0.02708336 -0.029199839 0.16771656
-0.029749122 -0.026975393 0.16445643
-0.025786825 -0.028640091 0.16323301
-0.024379954 -0.028933406 0.15992409
-0.022392612 -0.030856729 0.15878576
0.054312475 -0.030647695 0.15295574
0.058020983 -0.030026674 0.15430957
-0.020570099 -0.0334481 0.15432739
-0.018159688 -0.036258459 0.15332621
0.045795817 -0.032711804 0.14957374
0.049709622 -0.031478286 0.14963818
0.054288182 -0.03042233 0.15037042
0.058979642 -0.030701876 0.14906141
-0.02005513 -0.03393656 0.14893997
-0.017964944 -0.036691606 0.14934644
0.044249006 -0.033657908 0.14560178
0.048822515 -0.032096386 0.14486155
0.054001689 -0.030445874 0.14578158
0.058539961 -0.030944824 0.14591765
-0.016568411 -0.038304687 0.14494455
0.034980852 -0.038429558 0.1418162
0.038697127 -0.036729634 0.14178774
0.042944744 -0.034641504 0.1408394
0.04612679 -0.033355236 0.13984698
-0.010823898 -0.040086448 0.14028329
-0.0017715693 -0.040617704 0.13919437
0.030112866 -0.040315151 0.13755757
0.033823799 -0.03876549 0.13762659
0.037839923 -0.037328541 0.1376791
0.041248269 -0.035952151 0.13701952
-0.0062838867 -0.040328324 0.13576129
0.0033950489 -0.040880501 0.13514763
0.013389703 -0.042851806 0.13538289
0.019187126 -0.042204797 0.13515028
0.023707192 -0.04164499 0.13461727
0.028436527 -0.04070425 0.13404691
0.032231644 -0.039689958 0.13359663
0.013508335 -0.042489886 0.13016087
0.018372789 -0.04248631 0.13011825
0.023559552 -0.041747689 0.12971038
0.027541649 -0.040663779 0.13019329
0.031492081 -0.03989619 0.12952596
-0.013846133 -0.0045859814 0.19279784
-0.0090898871 -0.0042139888 0.19241214
-0.004311122 -0.003801167 0.19246462
0.0052093863 -0.0035746694 0.19154018
0.0099785216 -0.0034505725 0.1913029
0.014762886 -0.00422436 0.19160426
0.020007864 -0.0041911006 0.19219905
0.025868114 -0.0029642582 0.19046855
-0.029726811 -0.0084764957 0.19145399
-0.024594501 -0.0080905557 0.19231457
-0.020450242 -0.0079552531 0.19246238
-0.014545728 -0.0077989101 0.1929054
-0.0089945346 -0.0077397227 0.19268084
-0.0042442754 -0.0075687766 0.19241613
0.005257912 -0.0073220134 0.19194403
0.010007039 -0.0071796179 0.19169658
0.013167527 -0.0068559051 0.19139379
0.022664953 -0.0065138936 0.19086444
0.025827788 -0.0058558583 0.19036001
0.030876797 -0.0052899718 0.18910846
0.033707891 -0.004108429 0.18718445
0.031903312 -0.01055181 0.18375924
0.033605266 -0.0056152344 0.18438914
-0.036467433 -0.017119586 0.17895266
0.035921633 -0.010880113 0.17576125
0.039609976 -0.011403382 0.17565575
0.044117872 -0.011002481 0.1737847
0.049107108 -0.010541022 0.17292783
0.053578861 -0.0098896027 0.17293283
0.058258481 -0.011651635 0.17313907
-0.036518566 -0.017870367 0.17755991
0.044210806 -0.014523864 0.17279664
0.04935915 -0.013860106 0.17174038
0.054302845 -0.013385236 0.17010736
0.059217874 -0.013840079 0.16906524
-0.030102707 -0.024792194 0.16018534
-0.027668104 -0.026062489 0.16000637
-0.02954578 -0.025325596 0.1557723
-0.026453149 -0.026833296 0.15644917
-0.025991473 -0.027680695 0.15120992
-0.023145463 -0.029978752 0.15300009
-0.022073261 -0.031159341 0.14772981
0.05019724 -0.031136394 0.14201021
0.054195337 -0.03019309 0.14251179
0.058952156 -0.029927969 0.1428217
-0.021182727 -0.03294456 0.14350694
-0.018797774 -0.035895526 0.14165193
0.048526969 -0.032178819 0.13895395
0.053173028 -0.029817164 0.13884765
0.05839153 -0.029613674 0.13830948
-0.020564519 -0.033379257 0.13994306
-0.017170288 -0.036382139 0.13782433
0.038820382 -0.035828769 0.13412172
0.043291707 -0.034022033 0.13436037
0.047429528 -0.032862008 0.13393527
0.052489966 -0.030619621 0.13485977
0.058037609 -0.030569673 0.13417703
-0.011362784 -0.039104402 0.13383168
-0.0016943775 -0.039649427 0.13224933
0.03435801 -0.037056625 0.13078594
0.037952196 -0.035248935 0.12987244
0.042436123 -0.034140706 0.13011307
-0.011226345 -0.03911525 0.12850946
-0.0018457957 -0.040060878 0.128676
0.0073451623 -0.040966392 0.12790304
0.020345274 -0.041158676 0.12785971
0.023481425 -0.041209579 0.12683773
0.028488904 -0.039505303 0.1268419
0.032730564 -0.037277699 0.12605357
0.038659047 -0.035492122 0.1261487
-0.0020412654 -0.040452838 0.1241082
0.0074794292 -0.040897608 0.12318468
0.018070921 -0.042075992 0.12309378
0.023361538 -0.040732861 0.12260765
0.027673408 -0.039668143 0.12198621
0.012103051 -0.042103171 0.11905903
0.020075742 -0.041627884 0.11945957
0.018051978 0.0048075914 0.19352639
-0.028498139 -0.00068587065 0.19095585
-0.024425533 -0.0015807152 0.19135422
-0.020367075 -0.0024134517 0.19171578
-0.015539579 -0.0018799305 0.19246951
-0.0096850619 -0.00014579296 0.19309035
-0.0045785345 0.00030881166 0.19326365
0.00081365369 0.00052881241 0.19248185
0.0051893555 0.00049108267 0.1918909
0.0099681243 0.00099807978 0.19142419
0.015159879 9.4294548e-05 0.1913209
0.019595973 0.0020804405 0.19230482
0.024677385 0.00099337101 0.19166487
0.030348953 0.0014404058 0.19053444
0.033847891 -0.0002065897 0.18946922
-0.028309107 -0.0044913292 0.1913791
-0.026713524 -0.0044748187 0.19131485
0.034984633 -0.005261302 0.17552996
0.039767846 -0.0059131384 0.1759643
0.044552043 -0.0057123303 0.17567998
0.048898447 -0.0066814423 0.17567012
0.05245883 -0.0070538521 0.17531553
0.033302858 -0.0090712309 0.17533678
0.045247909 -0.0079303384 0.17422771
0.04921734 -0.0081607699 0.17424071
0.05435811 -0.0083104372 0.17275894
-0.032830745 -0.020873666 0.15767056
-0.034717478 -0.021683156 0.15253401
-0.032180708 -0.022529483 0.15398023
-0.031028979 -0.024021208 0.14984143
-0.02765787 -0.026082277 0.15113297
-0.030162483 -0.024797738 0.1458557
-0.026897073 -0.026947081 0.14530116
-0.023677498 -0.028622866 0.1444338
-0.026087265 -0.026946902 0.14077678
-0.023450654 -0.02957648 0.14075238
-0.022152957 -0.031297565 0.13659877
0.052451804 -0.030547261 0.13191342
0.056416549 -0.030738056 0.13193032
0.060423497 -0.029882371 0.13120741
-0.020981442 -0.031970024 0.13315791
-0.018281467 -0.034707785 0.13210985
0.043111041 -0.033611715 0.12709785
0.047553118 -0.032266855 0.12810981
0.052417256 -0.030039728 0.12791771
0.057181034 -0.030378103 0.12777448
0.060365506 -0.030149579 0.12654752
-0.017966047 -0.035301447 0.12766141
0.034072377 -0.036228478 0.12356985
0.037579931 -0.035716176 0.12383986
0.042425234 -0.034134209 0.12335616
0.047158059 -0.032004416 0.1230002
0.050761249 -0.03006953 0.12384957
0.055555902 -0.02997756 0.1236434
-0.016507246 -0.03620404 0.12436432
-0.006943129 -0.040679395 0.12148649
0.0026110392 -0.040422857 0.12102568
0.029682219 -0.038464069 0.11979419
0.032896563 -0.037175 0.11973703
0.037691083 -0.035775602 0.11857665
0.042153202 -0.033675313 0.11887777
-0.0068654791 -0.04077208 0.11819357
0.0024402067 -0.040204346 0.11694938
0.011993874 -0.041978121 0.11603218
0.02260299 -0.040744364 0.11660141
0.027961731 -0.040198505 0.11622411
0.032747354 -0.03826052 0.11465579
0.036516521 -0.03654176 0.11459237
-0.0025467761 -0.040686548 0.11252832
0.0070599392 -0.040770292 0.1123212
0.016636077 -0.041684031 0.11174816
0.021202732 -0.04070121 0.11145103
0.026506983 -0.040196836 0.11167747
0.031049754 -0.038516879 0.11095595
0.019699492 -0.041317284 0.1074397
-0.014142603 0.0077927709 0.19380978
-0.010351621 0.0056574941 0.19480386
-0.0048190393 0.0060292482 0.19406104
0.0054547228 0.0068852305 0.19406506
0.010279693 0.0065933466 0.19407022
0.014627323 0.0068750381 0.19375393
0.019989613 0.0063996315 0.1936354
0.024143156 0.0063601732 0.19314364
0.02926046 0.0068501234 0.19239858
-0.028630637 0.0024126768 0.19096881
-0.025450967 0.0029070973 0.19056427
-0.020232338 0.003443718 0.19053283
-0.015973508 0.0040313005 0.19197041
-0.010822821 0.0034316778 0.19347808
-0.002797354 0.0032898188 0.19328576
0.0051479451 0.0052340031 0.19185919
0.0099803917 0.00459373 0.19207236
0.01444741 0.0042412877 0.19138387
0.029196244 0.0047497153 0.19131801
-0.02695667 0.0001232028 0.19041738
0.03528833 0.00078040361 0.18230054
0.034549836 0.0013642311 0.1778402
0.038845755 0.0015209317 0.17690101
0.035073008 -0.0019592643 0.17601448
0.039896809 -0.0010953546 0.17578894
0.043908279 -0.00068938732 0.17540407
-0.035696469 -0.020041764 0.1535736
-0.034994654 -0.020603001 0.14893204
-0.032863088 -0.022702932 0.14707875
-0.031307016 -0.024307132 0.14323819
-0.031157911 -0.026368082 0.13884944
-0.027816381 -0.026809752 0.13879696
-0.031436455 -0.027443171 0.13611215
-0.027514994 -0.027642906 0.13418841
-0.02420425 -0.029569387 0.134473
-0.026122525 -0.02770859 0.13029128
-0.023042139 -0.030152559 0.12973624
0.052414253 -0.029188752 0.12512273
-0.022069704 -0.031416893 0.12537736
-0.019757047 -0.034055173 0.12486058
0.049101554 -0.030645549 0.12137878
0.052545577 -0.029519796 0.1212014
0.057366379 -0.028982341 0.12067354
0.060359333 -0.029219747 0.12100244
-0.021652602 -0.032269716 0.12067634
-0.018500563 -0.035127223 0.12143421
0.043601055 -0.033301413 0.11725515
0.047396895 -0.031643927 0.11724728
0.052058563 -0.029882491 0.11607766
0.05737647 -0.029006124 0.11569792
0.060293104 -0.029448211 0.11527807
-0.018342488 -0.035736322 0.11646026
-0.008090578 -0.039297402 0.11460978
0.037958063 -0.036103129 0.11291492
0.042434864 -0.033951819 0.11317229
0.047089372 -0.032132506 0.11194825
0.051370028 -0.030733168 0.11252779
-0.017104909 -0.036422253 0.11273122
-0.007889092 -0.040346205 0.11115265
0.0021641385 -0.040919721 0.1101017
0.010950591 -0.040766418 0.10924762
0.022147737 -0.040241718 0.10854226
0.02655948 -0.039569795 0.10840988
0.032113209 -0.037903011 0.10809541
0.037667554 -0.036085725 0.10871154
0.041786507 -0.034570932 0.10837704
-0.007442303 -0.040266395 0.10597944
0.0019645542 -0.040530324 0.10535061
0.011617441 -0.041107416 0.10552061
0.021224421 -0.040083289 0.10448205
0.026060484 -0.039215744 0.10468644
0.03087442 -0.038365662 0.10391194
0.036063228 -0.037139416 0.10463536
0.0018104501 -0.040785909 0.10156542
0.011422064 -0.041868627 0.10013109
0.02085904 -0.041056275 0.10039598
0.025633562 -0.039425135 0.10107511
0.016125344 -0.042625725 0.096587241
0.019340977 -0.042570949 0.096458256
-0.022328217 0.013348877 0.19550863
-0.02547133 0.011606574 0.19265777
-0.020766255 0.011123538 0.19301301
-0.016655389 0.0093160272 0.19299865
-0.0012811068 0.011421204 0.19403264
-0.028887037 0.0078135133 0.19056645
-0.02572491 0.0088003874 0.18987051
-0.021164771 0.0085509419 0.19004902
0.043215159 0.0031169057 0.1749641
-0.031043075 -0.024685204 0.13123518
-0.032272514 -0.02401942 0.1274665
-0.028233603 -0.025647044 0.12668341
-0.028018024 -0.026598334 0.12225646
-0.02451463 -0.028506279 0.12246919
-0.023770895 -0.029871523 0.1180073
0.053861108 -0.029091656 0.113231
0.056557868 -0.028833449 0.11362362
-0.022747524 -0.031030357 0.11327195
-0.020432569 -0.03346771 0.11262071
0.048901528 -0.030607283 0.10854417
0.052404005 -0.02960515 0.10912257
0.05704008 -0.02886641 0.10901219
0.060233664 -0.029949486 0.11170006
-0.018994339 -0.033930182 0.10894549
-0.015653882 -0.037069678 0.10920417
0.043104395 -0.033975601 0.10624278
0.046385132 -0.0319947 0.10566789
0.051483281 -0.030418932 0.10417104
0.056890707 -0.030960262 0.10460514
-0.017548688 -0.035184324 0.10485321
-0.011071909 -0.037622511 0.10351372
0.035689987 -0.035908401 0.10092753
0.040591571 -0.034040928 0.1013788
0.044932012 -0.032712281 0.10092592
0.049272873 -0.031770468 0.10076463
0.056453459 -0.032496631 0.10097659
-0.0090323091 -0.038241208 0.099740684
0.0016845819 -0.039696634 0.098737419
0.022645887 -0.03962177 0.098109305
0.026278038 -0.03871429 0.097816885
0.030750133 -0.037219584 0.098056376
0.035383653 -0.035581291 0.097255528
0.038890861 -0.034264207 0.097592235
-0.0033478513 -0.039462864 0.094675958
0.0063979179 -0.040483534 0.095199287
0.016040068 -0.041674495 0.093849301
0.021372825 -0.040246069 0.09432441
0.025553022 -0.038486481 0.093394816
0.029839933 -0.037127078 0.093995988
0.0013602916 -0.040911376 0.090627849
0.01105354 -0.041557908 0.089861572
0.020117231 -0.040561259 0.089653015
0.024021659 -0.039317429 0.089794695
-0.032248981 -0.024658322 0.12200356
-0.032370418 -0.024934173 0.11797673
-0.028775636 -0.026035488 0.11709708
-0.025328141 -0.028607965 0.11514735
-0.028600499 -0.026501179 0.11227739
-0.024955712 -0.02930814 0.1116702
-0.023077641 -0.031006694 0.10728359
-0.020808678 -0.032686532 0.10607207
-0.023481403 -0.031017482 0.1028915
-0.019613121 -0.033466399 0.10261589
0.046532281 -0.031880081 0.09825176
0.050882339 -0.031001329 0.098136783
0.054563046 -0.03058511 0.097586274
-0.018583365 -0.034600854 0.097814858
-0.015441928 -0.036458135 0.097734928
0.036373135 -0.034609139 0.093903124
0.040677007 -0.03344208 0.094655991
0.045352899 -0.03273654 0.094241858
0.050036475 -0.031135201 0.093470991
0.05519101 -0.029995918 0.093905509
-0.018163964 -0.035341024 0.092914045
-0.010457456 -0.038464069 0.093425989
0.027307253 -0.037878335 0.090611458
0.030814443 -0.036747456 0.091085851
0.035466567 -0.035256505 0.090387285
0.040133391 -0.033703029 0.089643657
0.045279447 -0.032888949 0.090324938
-0.010126285 -0.039278746 0.088650048
0.0012287572 -0.040754914 0.087474048
0.01420131 -0.040779412 0.087149322
0.021504954 -0.039501786 0.08697021
0.025776327 -0.038861334 0.087116659
0.030443437 -0.037472188 0.086162925
0.034954201 -0.0355708 0.086086929
0.0059412755 -0.040170193 0.083405793
0.015685763 -0.040786147 0.083052993
0.020544983 -0.039927363 0.082249582
0.025412969 -0.039334774 0.081655324
0.029919919 -0.038008809 0.082022607
-0.033449166 -0.020464003 0.1214152
-0.033265144 -0.022765636 0.113774
-0.033031516 -0.023384273 0.10994852
-0.029854372 -0.025829971 0.10924911
-0.032637365 -0.023410559 0.10553426
-0.028673455 -0.02454412 0.10505098
-0.025992528 -0.025850594 0.10513783
-0.02571331 -0.026784122 0.099778414
-0.023067765 -0.029303014 0.096542597
-0.021356896 -0.031059325 0.096813381
0.055245675 -0.028003514 0.090873301
-0.020815562 -0.031738102 0.091233075
0.041130122 -0.033452392 0.086818039
0.045262594 -0.032066345 0.087666929
0.050446443 -0.029517293 0.087341368
0.05474212 -0.027602673 0.086301923
-0.019585557 -0.033880711 0.087421834
-0.016783189 -0.037038803 0.087084234
0.03531481 -0.034971833 0.083407938
0.04026641 -0.032788813 0.083273947
0.045209866 -0.03122735 0.082948327
0.049617514 -0.029633045 0.082275629
-0.018694751 -0.03452462 0.083130896
-0.015623119 -0.036971688 0.082334518
-0.0055176429 -0.038437605 0.082782805
0.0058209188 -0.039595127 0.080334723
0.030270461 -0.037654698 0.079524696
0.035440717 -0.034476399 0.07935822
0.039943501 -0.03265059 0.07864815
0.044310693 -0.031662345 0.079222918
-0.010652542 -0.038534462 0.077875316
-1.4565885e-06 -0.039928138 0.077679932
0.010594998 -0.039433241 0.077010334
0.020371336 -0.038592398 0.076088965
0.025260452 -0.037789166 0.075323045
0.030184854 -0.036010087 0.074808717
0.035148758 -0.034440875 0.075493038
-0.0055042244 -0.039231181 0.073668659
0.0042130575 -0.039895356 0.072610676
0.015314192 -0.039248526 0.071600854
0.020015288 -0.038512647 0.071148634
0.024821918 -0.037605703 0.071278453
0.028443035 -0.036974013 0.07150501
0.01549555 -0.040150285 0.067366421
-0.032851472 -0.022339702 0.10272872
-0.030338973 -0.02355504 0.10254902
-0.029259056 -0.024538279 0.098189771
-0.026407428 -0.026354074 0.097448528
-0.028290559 -0.024834335 0.094321609
-0.025465414 -0.026501119 0.09317714
-0.023611758 -0.026471436 0.088292181
0.056857228 -0.026819766 0.084332645
-0.021471515 -0.031960249 0.083936274
0.051215835 -0.029876411 0.080376506
0.055102997 -0.028375804 0.080471218
0.058440927 -0.026793242 0.079152822
-0.019869439 -0.033667982 0.080027044
0.040933397 -0.033219278 0.076431811
0.045314994 -0.031735599 0.076615512
0.049819276 -0.030222476 0.076483727
0.055033941 -0.02855587 0.075480163
-0.019084487 -0.034283459 0.075753212
-0.016864464 -0.036482513 0.075034499
0.031769853 -0.036006808 0.072708547
0.035077762 -0.034621596 0.072550356
0.040033363 -0.033189833 0.072314739
0.044759136 -0.0317415 0.071632445
0.048348237 -0.029901683 0.071559429
-0.015519027 -0.036502659 0.071742833
-0.0063700676 -0.039167702 0.070853531
0.021786798 -0.038537264 0.06880039
0.025482517 -0.037777781 0.068611443
0.030226789 -0.036216497 0.068527758
0.034423646 -0.0351578 0.068518698
0.039951272 -0.033147097 0.068149269
-0.0061836988 -0.038927138 0.067756116
0.0036029741 -0.039087653 0.06555903
0.013112914 -0.040028632 0.064839721
0.019699715 -0.039421916 0.065218627
0.024946969 -0.038556337 0.064591289
0.029048465 -0.037390769 0.063541055
0.031542175 -0.035826564 0.063251555
0.014145184 -0.039214969 0.061238468
0.018232688 -0.039621055 0.060424864
0.023187812 -0.038808584 0.060680091
0.026471723 -0.037827075 0.059795916
-0.030651912 -0.023386538 0.092610955
-0.030391227 -0.023709118 0.087386608
-0.025688265 -0.025696456 0.087140322
-0.029489968 -0.024573505 0.083226264
-0.025779888 -0.026335537 0.082855284
-0.025008038 -0.027143061 0.077526569
-0.022399336 -0.029528916 0.078290761
0.050877821 -0.028777063 0.072671771
0.055009108 -0.028177142 0.072090685
-0.02513472 -0.028455138 0.074414313
-0.021482345 -0.031541169 0.073646128
0.045786694 -0.030981958 0.068343461
0.049439501 -0.029337704 0.069704771
0.053577546 -0.027817786 0.069182336
0.057645526 -0.027383864 0.068909705
-0.02078902 -0.032392502 0.069527686
-0.016143978 -0.03495276 0.068269789
0.035764709 -0.033854067 0.065711498
0.03868416 -0.0324018 0.065508783
0.043588925 -0.030873775 0.064989269
0.048602831 -0.029574335 0.065901935
0.052937239 -0.02831161 0.065199196
0.057409316 -0.027887464 0.06453687
-0.019672845 -0.033563614 0.064808547
-0.016538501 -0.034945428 0.064539194
-0.0064113922 -0.037206471 0.063245296
0.033441711 -0.035114646 0.061584771
0.038387287 -0.032365382 0.061058879
0.041926365 -0.031434178 0.061000049
-0.014879864 -0.035563946 0.060029745
-0.0065979213 -0.037219048 0.059077978
0.0033275895 -0.038330138 0.058693707
0.012975074 -0.038350582 0.057872713
0.018126179 -0.039138973 0.056898117
0.023094598 -0.038575768 0.057357788
0.028262381 -0.037739754 0.057327271
0.033040859 -0.035820067 0.056944549
0.036966227 -0.033605576 0.057481706
-0.0067756549 -0.038323581 0.054741919
0.0031530112 -0.039195955 0.054166496
0.013066284 -0.038962841 0.053730249
0.018027257 -0.039148092 0.053761542
0.022972226 -0.038459122 0.053069413
0.027925726 -0.03764683 0.052275836
0.032239761 -0.036803603 0.052103817
-0.0019544996 -0.039942026 0.050698698
0.007943783 -0.039957941 0.049415469
0.017406996 -0.039711952 0.049281895
0.023190457 -0.038726568 0.049284518
0.027491316 -0.038566709 0.049046636
0.011958446 -0.040825069 0.0458166
-0.030236982 -0.024159431 0.08017242
-0.030017003 -0.024530113 0.076031625
-0.027624547 -0.02556169 0.076359093
-0.029581558 -0.025611043 0.071247756
-0.02639173 -0.027947664 0.071373403
-0.029788338 -0.028146148 0.065948665
-0.026100229 -0.0291695 0.067268372
-0.022474438 -0.03030771 0.066093743
0.048251893 -0.028629005 0.062237084
0.053655557 -0.027971923 0.062093437
0.05735686 -0.028343439 0.061774433
-0.020692784 -0.031657219 0.062248409
0.044165101 -0.030213952 0.059015691
0.0481642 -0.029450357 0.058715284
0.053137332 -0.029276371 0.058448613
0.057269953 -0.029407024 0.058449924
-0.016958088 -0.034219682 0.057934046
0.038586333 -0.032800317 0.054683745
0.042827018 -0.030835152 0.054273427
0.048089042 -0.029163122 0.05322969
0.052750431 -0.028929114 0.053132415
0.057680633 -0.030100524 0.053542316
-0.016064521 -0.035738826 0.052834332
0.034576084 -0.035076141 0.051039755
0.037692808 -0.032783091 0.049672663
-0.015432879 -0.036653638 0.048285007
-0.0072389282 -0.03908819 0.048792541
0.0028788019 -0.039639294 0.047157407
0.019479472 -0.038837492 0.047142982
0.022361033 -0.038559079 0.04631114
0.028160874 -0.038380742 0.046021461
0.032762542 -0.036931634 0.04628557
0.036153316 -0.033685565 0.045617461
-0.0072697476 -0.038848519 0.043551207
0.0027374104 -0.039246142 0.043645799
0.012910344 -0.039988399 0.0423581
0.017461278 -0.039145768 0.042411208
0.022888131 -0.038180888 0.041809499
0.027621325 -0.038329482 0.04121238
0.032385603 -0.037460804 0.040975511
0.016694102 -0.039199173 0.037946999
-0.0297383 -0.025879741 0.068330348
-0.029794291 -0.02664274 0.066844523
-0.026168093 -0.027124882 0.061535537
-0.022845149 -0.028320909 0.060308397
-0.021669015 -0.028906226 0.055827618
-0.018607795 -0.031918764 0.053982556
0.043870486 -0.029529035 0.050467193
0.054741573 -0.028548002 0.051505864
-0.020488378 -0.029734552 0.051175416
-0.018732533 -0.032462001 0.051255047
0.038711265 -0.032161534 0.046410859
0.042969689 -0.030100405 0.047782898
0.048016809 -0.028758168 0.047611237
0.053038221 -0.028114676 0.046956778
0.058021635 -0.0285393 0.047182977
0.061359406 -0.028391123 0.046978831
-0.018084511 -0.033671975 0.04693073
0.038139809 -0.03233552 0.043168664
0.042659678 -0.030555427 0.043119252
0.047096781 -0.029486954 0.043987632
-0.01635715 -0.036440372 0.043234408
0.0033987537 -0.0380072 0.039386809
0.019234143 -0.037654281 0.038711607
0.021731224 -0.037445068 0.038475037
0.032559361 -0.037094116 0.037920415
0.03721565 -0.033512175 0.039363265
-0.012520634 -0.038886368 0.038369656
-0.0025175251 -0.038388014 0.037709177
0.0074719042 -0.038662732 0.036637366
0.017877441 -0.03825742 0.03551203
0.022470247 -0.037325323 0.035144567
0.027477387 -0.036915481 0.034677148
0.0325117 -0.036239088 0.035054147
0.035908569 -0.03497231 0.036043167
-0.016088821 -0.038697004 0.033999979
-0.0077358931 -0.03907901 0.033055782
0.0031656437 -0.038484931 0.033368409
0.012317456 -0.039527893 0.031898499
0.01684656 -0.038646519 0.031343877
0.023212217 -0.037174761 0.031777799
-0.026248459 -0.024513483 0.056615531
-0.026159886 -0.024035811 0.053394854
-0.023900099 -0.025962472 0.052424133
-0.022662241 -0.027573884 0.048389316
-0.02132215 -0.028991222 0.043647885
-0.019185159 -0.031406283 0.042931974
0.044517763 -0.029487312 0.039783657
0.048154462 -0.028439462 0.040347755
0.052785423 -0.026987851 0.03990382
0.057707343 -0.026690483 0.040552378
0.060557298 -0.026537657 0.040141284
-0.018768735 -0.032486677 0.039540827
0.039359566 -0.031527936 0.036265135
0.04275221 -0.030237854 0.036169469
0.047427543 -0.028551698 0.036251187
0.054676153 -0.025997639 0.036622465
-0.018660933 -0.033940852 0.035389364
0.033309124 -0.034152329 0.031110168
0.037570555 -0.032376051 0.032009482
0.041836534 -0.030058444 0.0317384
0.046109043 -0.028431356 0.032416642
-0.01712396 -0.036565661 0.031120181
-0.0079466328 -0.037846088 0.02876389
0.0019325335 -0.037293017 0.029601753
0.018935323 -0.037477374 0.028904557
0.02205072 -0.036609888 0.028548062
0.027333811 -0.036183834 0.028675556
0.032143399 -0.034420669 0.027666032
-0.016439468 -0.036587954 0.027874589
-0.0085185394 -0.037307203 0.025601327
0.0031160153 -0.037188292 0.0250507
0.012056634 -0.038671792 0.024145007
0.017128743 -0.037779629 0.024880171
0.022153623 -0.036848187 0.023957253
0.027193967 -0.036705196 0.023718059
0.031447913 -0.034894824 0.024222732
0.01152939 -0.038149953 0.020985663
0.017010693 -0.036929786 0.020885646
0.023743153 -0.03684485 0.020658612
0.02626675 -0.036687076 0.020463765
-0.031090479 -0.019865453 0.048704147
-0.028754584 -0.021391451 0.051491082
-0.03116269 -0.021907747 0.046084046
-0.02761469 -0.023852766 0.047590911
-0.0278561 -0.025275648 0.04233247
-0.023960352 -0.026776791 0.042945266
-0.027725596 -0.026231766 0.037953317
-0.023138233 -0.028042734 0.03779453
0.047860589 -0.027013242 0.03333509
0.051602442 -0.026077509 0.033320248
0.056590416 -0.024635911 0.033013344
0.059772953 -0.024605095 0.035335839
-0.02184156 -0.029564559 0.033373833
0.041811146 -0.029162586 0.02881825
0.046320476 -0.027726591 0.029036582
0.051180311 -0.026512384 0.02851063
0.05597445 -0.024970829 0.028392553
-0.021627977 -0.030156195 0.028990448
-0.019442629 -0.033083022 0.028726995
0.036804177 -0.031074822 0.025800824
0.040884126 -0.029298246 0.024617016
0.045431234 -0.027706265 0.02387327
0.049425494 -0.026623428 0.024305701
-0.017705686 -0.034738243 0.023694575
-0.0073710904 -0.036465168 0.0232144
0.0007914789 -0.035946965 0.02330339
0.032593679 -0.033902109 0.021816254
0.036125809 -0.032192409 0.020377576
0.040427916 -0.030406952 0.02035588
-0.016881712 -0.035569012 0.019374907
-0.0083878003 -0.036893308 0.019245684
0.0017631538 -0.03716588 0.019255579
0.012267772 -0.037714243 0.017861903
0.016905349 -0.036782861 0.01748693
0.021767434 -0.035862923 0.017389894
0.027037308 -0.035786211 0.017113149
0.030897051 -0.034358382 0.015827715
0.034406032 -0.032823682 0.016180098
-0.0085772425 -0.03791815 0.0146752
0.0015311204 -0.037841916 0.01328373
0.011690393 -0.038208902 0.013382912
0.016743656 -0.037393451 0.012550235
0.021327324 -0.036371529 0.011858165
0.025194548 -0.036233723 0.011703253
0.028621916 -0.035268545 0.012606919
0.016613532 -0.037890851 0.0085945725
-0.027441066 -0.025803864 0.034125626
-0.028095037 -0.024454117 0.030830443
-0.024471894 -0.026402354 0.030939698
0.056267921 -0.025101364 0.025022984
-0.023503896 -0.027394652 0.027224362
0.047680128 -0.027419388 0.022850037
0.051470779 -0.025516093 0.022003531
0.055165835 -0.023408532 0.020697892
-0.022046722 -0.029067099 0.021513999
-0.020219829 -0.03158915 0.022555828
0.04072126 -0.030268133 0.017825603
0.046134826 -0.027009368 0.017890513
0.04995152 -0.025356948 0.018113017
-0.019759275 -0.0327546 0.017640591
0.036661509 -0.031189084 0.013970196
0.040876791 -0.029546142 0.013628721
0.044119116 -0.027721763 0.013341129
-0.017903849 -0.034186721 0.013131499
-0.014933351 -0.035926998 0.0126912
0.030621331 -0.034455895 0.010525346
0.034862619 -0.032040775 0.010356486
0.040580172 -0.029860198 0.0097824931
-0.029804617 -0.023680091 0.028763473
-0.028523561 -0.023789823 0.02503258
-0.024945561 -0.024783492 0.023021579
0.056373257 -0.020950139 0.017105758
-0.024523564 -0.025384486 0.019864261
0.051655296 -0.02422446 0.014901459
0.055188622 -0.021333337 0.014528692
-0.023101959 -0.027760923 0.015128911
0.04611427 -0.026438951 0.011076391
0.050678439 -0.02438575 0.010509193
0.054554712 -0.021895826 0.01135242
-0.02262925 -0.029696822 0.0099490881
-0.020233698 -0.032054722 0.010864437
-0.028775416 -0.021522939 0.017743468
-0.025881 -0.023612738 0.016899228
0.056346368 -0.020337462 0.012173593
0.058237441 -0.016360641 0.010917723
-0.027893871 -0.021453381 0.012863755
-0.025699046 -0.023857951 0.012123585
0.052734658 -0.023539186 0.008397758
0.055566352 -0.021428645 0.0082674623
-0.025238276 -0.025933385 0.0082576871
-0.029580127 -0.020451486 0.014257371
-0.030388996 -0.019651651 0.010618031
