# .PCD v0.7 - Point Cloud Data file format
VERSION 0.7
FIELDS x y z
SIZE 4 4 4
TYPE F F F
COUNT 1 1 1
WIDTH 1076
HEIGHT 1
VIEWPOINT 0 0 0 1 0 0 0
POINTS 1076
DATA ascii
0.02232394 0.058842935 0.81932008
0.02702661 0.058771074 0.81892395
0.022199852 0.062284719 0.81898344
0.02713052 0.062295817 0.8184486
0.02292655 0.066743553 0.81901348
0.026581563 0.067019016 0.81865203
0.023560422 0.070162572 0.81979984
0.025850642 0.070916608 0.81969988
0.019092413 0.053722013 0.82493347
0.022157526 0.053693071 0.82448906
0.02754309 0.053700313 0.8246001
0.033694468 0.053700306 0.82460022
0.037548482 0.053713329 0.82480013
0.014080876 0.058662966 0.82428342
0.017502638 0.05739224 0.82257771
0.021863054 0.05612893 0.82167596
0.027690737 0.056036573 0.82138515
0.032807212 0.057326522 0.82162756
0.037357204 0.057259366 0.82364845
0.01446635 0.062117178 0.82433343
0.017494334 0.062722012 0.82220721
0.020510877 0.064088687 0.82013321
0.029683409 0.064078264 0.81999999
0.032828003 0.062716015 0.82212579
0.035973839 0.062089588 0.82396668
0.018441018 0.067098141 0.82336009
0.020907499 0.06756787 0.82069975
0.029715573 0.067201905 0.8208887
0.031969178 0.067127638 0.82371998
0.019092413 0.070601925 0.82493347
0.022279579 0.072257303 0.82194167
0.027765697 0.072888412 0.82083017
0.03139453 0.072122701 0.82477641
0.022922248 0.075917751 0.82433355
0.028027287 0.076631092 0.82375568
0.0099151377 0.053243227 0.82943356
0.013182944 0.052590068 0.8282668
0.017411785 0.052143417 0.82730848
0.021933587 0.051742636 0.82765341
0.027615568 0.052814309 0.82675558
0.033027701 0.052325267 0.82713336
0.037644934 0.051873017 0.82692373
0.042350736 0.052408919 0.8284446
0.0099080997 0.057060197 0.82884473
0.012521619 0.056678522 0.82649523
0.039108861 0.059884354 0.82526678
0.041887067 0.056782208 0.82800007
0.0099091614 0.06015043 0.8289336
0.012535707 0.062680289 0.82742852
0.038060777 0.06325835 0.82636195
0.040820379 0.060909435 0.82876682
0.01392563 0.067539364 0.8287735
0.016424723 0.068020031 0.8261832
0.034132957 0.067996822 0.82590008
0.037487485 0.067565337 0.82767504
0.017420581 0.07257998 0.8278001
0.02064593 0.073724575 0.82553321
0.033805583 0.072344266 0.82729989
0.036702245 0.07145071 0.82884473
0.018656807 0.076033585 0.82837796
0.021714205 0.077460356 0.82715559
0.027135864 0.079013728 0.82623994
0.032614317 0.076788805 0.82781112
0.0227957 0.082266234 0.82906693
0.027182059 0.082679629 0.82852137
0.030028505 0.081797242 0.82953358
0.013850614 0.049632449 0.83356673
0.017729444 0.049607974 0.83315563
0.022394145 0.049615908 0.83328891
0.027065853 0.049633112 0.83357781
0.032515295 0.049647339 0.83381665
0.03820711 0.048944723 0.8324399
0.042561729 0.048798781 0.83258885
0.047334347 0.049693983 0.83459979
0.008147792 0.052725121 0.83342218
0.011480931 0.05101319 0.83079988
0.023863133 0.05098452 0.83033347
0.026970813 0.051003631 0.83064443
0.031631596 0.051026836 0.83102226
0.047057461 0.052510925 0.83311665
0.007631876 0.057389405 0.83362216
0.04402826 0.057980105 0.83096671
0.046339571 0.057071738 0.8335067
0.0091808867 0.062002126 0.83309984
0.011479088 0.06491179 0.83066666
0.042995892 0.062170696 0.83238095
0.0099697281 0.065172262 0.83399975
0.0120106 0.068089314 0.83173341
0.039361596 0.069541812 0.83060002
0.041574657 0.06694784 0.83355546
0.013822434 0.072747052 0.83191109
0.038176935 0.073044278 0.8317734
0.014110945 0.076517135 0.83364433
0.017184628 0.077907987 0.83193332
0.034768689 0.078162596 0.8319
0.036783941 0.07716018 0.83361197
0.018239042 0.0816103 0.8328777
0.020775145 0.082685456 0.83069998
0.032218676 0.081860416 0.83278888
0.019309968 0.086151227 0.8343333
0.0223727 0.087771736 0.83252591
0.027012691 0.088225596 0.83193332
0.03015158 0.086006984 0.83293325
0.0037726136 0.049983755 0.83946675
0.00767344 0.04938798 0.83820003
0.01227276 0.047809202 0.83787405
0.017827084 0.047544926 0.83778888
0.022494515 0.047502901 0.83704442
0.027183441 0.046927489 0.83721662
0.03206208 0.047316574 0.83719999
0.037612524 0.046756949 0.83763331
0.042797189 0.045954634 0.83721095
0.047479849 0.04673031 0.83717036
0.052009899 0.048798639 0.83827627
0.055429146 0.049975816 0.83933347
0.0029837128 0.053013697 0.838
0.0057054064 0.052495338 0.83594984
0.048921637 0.054386269 0.83513314
0.052042201 0.052840922 0.83834177
0.055459965 0.051565789 0.83979994
0.0033794632 0.057378497 0.83913344
0.0053214147 0.057609737 0.83682221
0.048570357 0.057927225 0.83578324
0.051075887 0.057337753 0.8385334
0.0064400774 0.062555313 0.83753335
0.047488842 0.062315866 0.83729625
0.0084467409 0.066680811 0.83736002
0.010774772 0.06922958 0.83616662
0.043680988 0.06783092 0.83617324
0.046526849 0.066064239 0.83875567
0.0084714787 0.070300922 0.83966672
0.010690848 0.072862253 0.83832389
0.03960485 0.074635468 0.83573335
0.042622328 0.072656848 0.83756655
0.01312493 0.078244023 0.83693331
0.039067011 0.078226842 0.83756006
0.041827302 0.076974086 0.83862227
0.014075895 0.082296349 0.83774662
0.016749458 0.083471857 0.83599997
0.034170505 0.083235987 0.8362332
0.037630539 0.082115233 0.83802229
0.014730756 0.08589305 0.83940005
0.017369939 0.087461248 0.83732378
0.03211344 0.087183982 0.8368001
0.035590127 0.086379677 0.83906668
0.018877879 0.090967797 0.83820009
0.02226617 0.092304833 0.8368476
0.026869338 0.092513978 0.83713329
0.030889245 0.091042876 0.83888882
0.024139028 0.095322222 0.83993316
0.06131912 0.039310206 0.84499991
0.0037974806 0.044025782 0.84499991
0.0069424505 0.043987583 0.84426665
0.012450974 0.043450907 0.84402227
0.0179778 0.044017676 0.84484434
0.022698743 0.044007257 0.84464431
0.027754411 0.043512337 0.84268343
0.03207254 0.043899585 0.84257799
0.037133407 0.043624677 0.84333342
0.043408297 0.043293484 0.84300005
0.047581494 0.042796593 0.84293336
0.05219204 0.043577582 0.84393346
0.05735828 0.043223705 0.84468889
0.061476715 0.042768292 0.84499991
-0.00092951802 0.048699055 0.84426665
0.0022152562 0.047062002 0.84309638
0.0066945725 0.046516113 0.84132373
0.012416005 0.045416869 0.84164989
0.017923227 0.045452535 0.84231132
0.022617618 0.045416564 0.84164453
0.027276332 0.04533143 0.84006655
0.032786213 0.045367401 0.84073317
0.036717698 0.045381796 0.84099984
0.052750655 0.046036743 0.84154671
0.057214685 0.047031995 0.84256309
0.062090039 0.047156043 0.84476286
-0.0062787808 0.053687155 0.84367388
-0.0025004589 0.05252343 0.84265381
0.00095623796 0.051945813 0.84091985
0.053927932 0.054724913 0.84033316
0.057365615 0.052585676 0.84221482
0.061761238 0.050916284 0.84457332
0.067874268 0.052924115 0.84485918
-0.0064413426 0.058130436 0.84438831
-0.0025039362 0.058092374 0.84382957
0.0012704653 0.058261979 0.84174663
0.053414028 0.058287729 0.84210664
0.056797147 0.057328641 0.84414452
-0.001560195 0.062543429 0.84458655
0.002213412 0.062707648 0.84256303
0.052067239 0.06250076 0.84279984
0.05580334 0.061316259 0.84499991
0.0031624015 0.067198418 0.84385335
0.0059765647 0.067615271 0.84122658
0.048264701 0.06786707 0.84176666
0.050993625 0.067495801 0.84364468
0.0037971812 0.070741877 0.84493327
0.0067327279 0.072323687 0.84275836
0.044542208 0.073512249 0.84066653
0.047805455 0.072139449 0.84288895
0.051055416 0.070719555 0.84466684
0.0078798449 0.076579653 0.84344006
0.010686989 0.078596748 0.84151995
0.043548901 0.078036465 0.84166664
0.047639403 0.076489396 0.8439334
0.0085246135 0.080172315 0.84493321
0.011384077 0.08310774 0.84282231
0.039314255 0.083933175 0.84062213
0.042603765 0.082405113 0.8436597
0.013487265 0.087860852 0.84330004
0.033553921 0.089114927 0.84033316
0.037692431 0.08802712 0.84274292
0.040802788 0.087190248 0.84439993
0.014810313 0.091066577 0.84393328
0.017377956 0.092867218 0.84127778
0.028865958 0.093849145 0.84073329
0.032396503 0.092830583 0.84284008
0.035802286 0.091604613 0.84406668
0.01839748 0.097071946 0.84349531
0.022428589 0.097305812 0.84187514
0.027169924 0.09702269 0.84281671
0.030540116 0.095745906 0.84366679
0.019025398 0.10110506 0.84473324
0.022694936 0.10133777 0.8444888
0.025847327 0.10134707 0.84456652
0.052806329 0.034696955 0.84750009
0.044131171 0.03944201 0.84783351
0.048391324 0.03880303 0.84767342
0.052772615 0.037824646 0.84694636
0.057225563 0.038234849 0.84605819
0.062553003 0.038162395 0.84569216
0.065291494 0.039329786 0.84542125
-0.0025182685 0.044227224 0.84886688
0.0022289478 0.042853218 0.84774464
0.0069601536 0.041735616 0.84638888
0.012486368 0.041474421 0.84641105
0.01804086 0.041803867 0.8477779
0.022797875 0.041830268 0.84831125
0.027182663 0.04160339 0.84690678
0.032222647 0.041742276 0.84653336
0.037270922 0.041581236 0.84645337
0.041939005 0.041462082 0.84615558
0.048717447 0.040886901 0.84509993
0.053001624 0.041537974 0.8455599
0.057400275 0.040897116 0.84531093
0.062915102 0.042074136 0.84526646
0.066694528 0.042686392 0.84571016
-0.0060752165 0.047742527 0.84821779
-0.0027093515 0.047062568 0.84662914
0.06688872 0.047207501 0.84567404
0.070097208 0.048030492 0.84633344
-0.0067154225 0.050887626 0.84584713
0.062525854 0.053085063 0.84533334
0.066873595 0.051241457 0.84549206
-0.0064466354 0.058178201 0.84507996
0.05862955 0.058634304 0.84598339
0.062109068 0.057307098 0.84697586
0.066808529 0.05654946 0.847166
-0.0060664401 0.062655918 0.8471393
-0.0036950053 0.063393258 0.84648973
0.054263785 0.063717246 0.84556663
0.057741027 0.063264593 0.84740019
0.062399879 0.06186844 0.84897798
0.06558919 0.060046729 0.84927601
-0.0025158019 0.067823134 0.84773278
0.0010402916 0.068057425 0.84574991
0.05354761 0.067740612 0.84670001
0.056671835 0.067573436 0.84856033
-0.0021227289 0.07147067 0.84892023
0.0020285314 0.07270319 0.84717512
0.052535702 0.072519563 0.84734446
0.056102719 0.071127012 0.8495335
0.0032837477 0.076266937 0.84811133
0.0057767336 0.077560529 0.84643334
0.048816279 0.078774214 0.84679997
0.051768988 0.076232545 0.84773332
0.0075984066 0.082277961 0.84718674
0.010107602 0.084947787 0.84553319
0.044289973 0.083403379 0.84582216
0.046881437 0.081600785 0.84751683
0.0085548861 0.085188933 0.84793353
0.010916902 0.088268593 0.84721678
0.042043507 0.088577092 0.84715337
0.045022119 0.086949497 0.84972435
0.012895369 0.092637688 0.84754181
0.033742927 0.094332829 0.84506649
0.037257012 0.093191728 0.84611988
0.040148247 0.091419078 0.84720004
0.014264891 0.097610585 0.84896022
0.016443145 0.098483995 0.84696674
0.029017024 0.099056609 0.84513319
0.032254942 0.097743891 0.84737158
0.03546387 0.09708868 0.84853351
0.01772053 0.10282391 0.84768009
0.022752775 0.10395851 0.84664464
0.027765512 0.10243061 0.84702229
0.030735593 0.10109702 0.84906697
0.019646328 0.10660069 0.84886682
0.022799635 0.10654069 0.84838915
0.02596871 0.10576887 0.84853357
0.048355862 0.034908164 0.85265893
-0.0057050041 0.039635841 0.852
-0.0027945803 0.038632687 0.85318184
0.0022444695 0.039718028 0.85376668
0.0070065986 0.039636362 0.85201114
0.013099655 0.039107736 0.85203338
0.018157095 0.038901564 0.85330009
0.022933709 0.038904812 0.85336119
0.027679443 0.038865361 0.85250002
0.032431874 0.038844377 0.85203886
0.037177719 0.038821146 0.85153896
0.04165826 0.038693476 0.85222006
0.047366429 0.037098769 0.85198992
-0.0067618466 0.043310847 0.8515361
-0.0025241037 0.041961741 0.85096246
0.0014432062 0.041161053 0.85076666
-0.0082536452 0.047275662 0.85259998
0.062565871 0.06440749 0.8512333
0.066661723 0.062679939 0.85285002
-0.0056961998 0.068058878 0.85068518
0.059022054 0.06853196 0.8516416
0.062515236 0.067387342 0.8536334
-0.0028404046 0.073745534 0.85057104
0.054611407 0.073623307 0.85098332
0.057653904 0.072999604 0.85293895
-0.005718396 0.077855393 0.85400003
-0.0022107956 0.07677605 0.85259044
0.0017100358 0.078220226 0.85218889
0.053515375 0.077713922 0.85245836
0.056402106 0.076272726 0.85406673
0.0038373787 0.082610764 0.85387784
0.0054149628 0.082384549 0.85153335
0.049059749 0.082334504 0.85103333
0.05084005 0.08264859 0.85428333
0.0072725923 0.087213993 0.85231113
0.046457447 0.08662881 0.85277921
0.0086101498 0.092091054 0.85341114
0.010703687 0.093429089 0.85115546
0.038695686 0.094883531 0.85000014
0.041989494 0.091983832 0.85245562
0.011252895 0.097573273 0.85278893
0.033945221 0.099642634 0.85013354
0.037196502 0.097875789 0.85195827
0.040492609 0.095382132 0.8544668
0.013774025 0.10155717 0.85293335
0.015770551 0.10478596 0.85338342
0.029279107 0.10471024 0.85276675
0.032762945 0.10243769 0.85233337
0.036504466 0.10093338 0.85436678
0.018142527 0.10786512 0.85261995
0.02290033 0.10938501 0.8521111
0.026886823 0.10785699 0.85255009
0.019242045 0.11179242 0.85435563
0.022638926 0.11188396 0.85424674
0.038599219 0.033060919 0.85962224
0.042533953 0.032424323 0.85891438
0.046642579 0.032823473 0.85620248
-0.00094296719 0.036656093 0.85648257
0.0018553352 0.037910476 0.85780382
0.0070610992 0.038340494 0.85848325
0.011851972 0.037504803 0.85765004
0.017801963 0.036042206 0.85810483
0.023055844 0.035919309 0.85790014
0.028180655 0.03608473 0.85804015
0.032659478 0.035923772 0.85801125
0.037430432 0.03589638 0.85734457
0.042210449 0.035882026 0.85698915
0.045347553 0.035835214 0.85586691
0.069301397 0.0637068 0.85600007
0.064507 0.068478458 0.85593361
0.067612499 0.066799015 0.85735005
0.059722684 0.074057475 0.85600019
0.062996604 0.071759753 0.85708588
0.066345342 0.071126722 0.85906667
-0.0017418393 0.079645559 0.85616678
0.054131508 0.079623833 0.85593355
0.057948619 0.078157239 0.8573001
0.061524495 0.075103745 0.85886669
-0.001345388 0.082630664 0.8582167
0.0014532707 0.082896538 0.85683346
0.052610315 0.082925588 0.85715014
0.055914048 0.081488043 0.85879993
0.0022539732 0.087789871 0.85793334
0.0054410342 0.088350326 0.85563362
0.04803437 0.088687874 0.85633349
0.050653778 0.087384194 0.85786664
0.0033280998 0.091681808 0.8595112
0.00624975 0.092506789 0.85726672
0.043339904 0.093675353 0.85824442
0.046699528 0.091462374 0.85870004
0.0078518726 0.097329535 0.85761118
0.038938474 0.098661028 0.85533345
0.041468006 0.097389646 0.85815001
0.0086732591 0.10076002 0.85966682
0.011311824 0.10260127 0.85723335
0.037973586 0.10263764 0.85753345
0.040751681 0.10079129 0.85993356
0.013060909 0.10658424 0.85826671
0.015826913 0.10834231 0.85640013
0.029461093 0.10775662 0.85806674
0.032323904 0.10593939 0.85757333
0.016844116 0.1128555 0.8574084
0.023423789 0.11435898 0.85671675
0.026782183 0.1116967 0.85768896
0.018274819 0.11610421 0.85882229
0.022683017 0.11705162 0.85893345
0.037990313 0.028261911 0.86280966
0.040849619 0.028876647 0.86200005
0.0025909371 0.033072412 0.86271715
0.0071082041 0.033775091 0.86425155
0.011934961 0.033110049 0.86369354
0.017551223 0.03242778 0.86265677
0.022261584 0.032333367 0.8626048
0.027989214 0.033687979 0.86202216
0.033075966 0.03257516 0.86291915
0.037075091 0.031528801 0.86146671
0.041575987 0.030423637 0.86040235
0.0025854737 0.035897098 0.86117315
0.007091444 0.036101241 0.86223012
0.011497134 0.035653379 0.86108339
0.015094604 0.035214167 0.86013335
0.026319636 0.035208706 0.86000019
0.069787152 0.068963803 0.86200011
0.06482856 0.073620193 0.86020011
0.068642221 0.07240361 0.86203176
0.062919155 0.077137068 0.86150002
0.066950627 0.077108629 0.8634252
-0.0025526991 0.084066182 0.86065698
0.053590283 0.084808014 0.86006671
0.056844085 0.083540261 0.86074454
0.061879106 0.081964172 0.86380756
0.065542497 0.081610717 0.86432761
-0.00094849145 0.088155091 0.86149997
0.052915543 0.08821813 0.86212504
0.056996021 0.086974762 0.86304456
-0.0009508261 0.0923879 0.86362082
0.0017289364 0.093493283 0.86146665
0.047544338 0.093863606 0.86094677
0.051156245 0.09272711 0.86228675
0.0027265274 0.09766119 0.86256188
0.0054709222 0.097637944 0.86033344
0.043611459 0.098112591 0.86098349
0.046990264 0.096927688 0.86256009
0.050647758 0.096513286 0.86460018
0.0038850158 0.10293245 0.86447793
0.0068850759 0.10280988 0.8617667
0.042247888 0.10277756 0.86317778
0.008306846 0.10720626 0.86328351
0.010931716 0.10761859 0.86079997
0.033171766 0.10851169 0.8609001
0.037306894 0.10646626 0.86184013
0.0087220268 0.11097533 0.86450016
0.01190583 0.1122171 0.86168152
0.028772617 0.11218015 0.86140001
0.032535005 0.11144787 0.86317337
0.012896185 0.11693229 0.86336011
0.016710745 0.11759077 0.86079055
0.023932446 0.11848831 0.86066669
0.02680536 0.11676474 0.86270911
0.017961143 0.12142147 0.86301672
0.022581846 0.12178572 0.86274999
0.0079609416 0.029126033 0.86944461
0.010393702 0.029126776 0.86946678
0.021671304 0.029028514 0.86653352
0.029838763 0.029113378 0.86906666
0.033036131 0.028267108 0.86792761
0.036247607 0.027440397 0.86728579
0.0038968502 0.03066086 0.86711115
0.0071310513 0.031464979 0.8670693
0.01197461 0.031043127 0.86654341
0.015194049 0.030614495 0.86580014
0.024383338 0.031200664 0.86719996
0.028155198 0.031467389 0.86715001
0.032191575 0.030655753 0.86696684
0.068495892 0.078949384 0.866
0.070191957 0.07581497 0.86700004
-0.0025755572 0.088049486 0.86836374
0.058886759 0.088737741 0.86719996
0.062166139 0.087189592 0.8678298
0.065196127 0.086106598 0.8650769
-0.0025783475 0.090570129 0.86930448
0.054023921 0.091947265 0.86702603
0.056217331 0.090931714 0.86760014
-0.0014937647 0.097880043 0.86720842
0.00066097593 0.098179623 0.86511117
0.047493838 0.099072292 0.86588335
0.05192722 0.096896671 0.86802226
-0.0013622951 0.10148995 0.86933839
0.0014705127 0.1024555 0.86724949
0.044262569 0.10309742 0.86586666
0.046778746 0.10088533 0.86761671
-0.0025774445 0.10832001 0.86900002
0.0026884214 0.10668846 0.86888146
0.0061560208 0.10833243 0.8665067
0.037821911 0.1090581 0.86630011
0.04274334 0.10574394 0.86776674
0.003909233 0.11004614 0.86986673
0.0074090045 0.11306924 0.86822778
0.029718598 0.11433253 0.86556685
0.033052664 0.11415824 0.86832237
0.03631926 0.111553 0.86900008
0.0087717986 0.11726941 0.8694334
0.010772374 0.11819564 0.86732507
0.029001061 0.11791544 0.86823487
0.01253888 0.12224343 0.86838341
0.015754124 0.12366601 0.86703342
0.024069868 0.12399803 0.86560011
0.026563108 0.12272209 0.86795551
0.017064774 0.12745839 0.86860412
0.022519747 0.12758228 0.86807233
0.026620919 0.1278422 0.86984438
0.018500112 0.13182035 0.86940002
0.022546707 0.13177986 0.86913341
0.012022638 0.029144643 0.87000006
0.023415498 0.029188192 0.87130004
0.027147213 0.028279712 0.87187147
0.057566606 0.092848763 0.8717072
0.061368078 0.091373779 0.8718223
-0.00096022553 0.095734581 0.87215805
0.053768117 0.097298443 0.87162226
0.05600293 0.095790416 0.87266666
-0.0025833766 0.10370862 0.87100005
0.047778521 0.10210091 0.87110001
0.051174987 0.10076806 0.87360013
-0.00095968466 0.1070326 0.87166673
0.0012063653 0.10798326 0.87062675
0.04298592 0.10716192 0.87273329
0.0022944568 0.1117934 0.87297612
0.0055400236 0.11345606 0.87120026
0.038090818 0.1124025 0.87244999
0.0039317044 0.11556099 0.87486672
0.0071687591 0.11759108 0.87183332
0.029895985 0.11987422 0.87073356
0.032905988 0.11726195 0.87299329
0.0079911137 0.12178002 0.87278324
0.01095745 0.12427921 0.87133342
0.029096201 0.1231631 0.87107784
0.031609207 0.12183889 0.87319976
0.0088185417 0.12521091 0.87406653
0.01225407 0.12797984 0.87215841
0.01528063 0.12959257 0.8707335
0.029114654 0.12810452 0.87163335
0.03165748 0.12690438 0.87453336
0.013691729 0.13236094 0.87296641
0.016456444 0.13319679 0.87160009
0.02178365 0.13449636 0.87102246
0.027376333 0.13275328 0.87173337
0.030819722 0.13168931 0.87389994
0.013721524 0.13509002 0.87486666
0.017423434 0.13790376 0.87354273
0.021814859 0.13793486 0.87226653
0.026088174 0.1371865 0.87370664
0.018592324 0.14141628 0.8737334
0.020772388 0.1420089 0.87404448
0.059510894 0.093754351 0.87639129
0.054603834 0.099453196 0.87633342
0.057946783 0.096858799 0.87744302
0.049245909 0.10398865 0.87792224
0.052561324 0.10243801 0.87862223
0.043208178 0.10880075 0.8772223
0.046467293 0.10605443 0.87699991
-0.001620949 0.11291511 0.87705839
0.001484636 0.11397313 0.87517059
0.039911188 0.11335839 0.8767001
0.042472184 0.11119319 0.87893343
-0.0015145192 0.11720186 0.87903279
0.0021033483 0.11783547 0.87816405
0.0055703372 0.11815105 0.87596679
0.036890522 0.1177797 0.87775016
0.040053837 0.11703534 0.87983316
0.0034054478 0.12162504 0.87948871
0.0059909308 0.12290525 0.87792498
0.033310052 0.12210328 0.87510008
0.036523618 0.12241068 0.87876672
0.0082989363 0.12722191 0.8767333
0.032945722 0.12715377 0.87625009
0.035745792 0.12719437 0.87878668
0.0088595757 0.13069396 0.87813354
0.011132787 0.13243157 0.87665337
0.032754354 0.13258748 0.8776868
0.035099179 0.13164636 0.87903333
0.012786713 0.13752873 0.8779667
0.015355499 0.13836595 0.87500006
0.027911037 0.13804078 0.87637782
0.030149668 0.13722762 0.87812209
0.013782523 0.1422302 0.87875557
0.016467189 0.14237814 0.87631679
0.022303047 0.14332543 0.87546682
0.027085295 0.14235738 0.87828332
0.017254889 0.14685038 0.87828338
0.022157457 0.14717488 0.87778354
0.026364429 0.14667916 0.87929988
0.018166779 0.15106593 0.8794443
0.021757228 0.15166874 0.87932366
0.025290508 0.15061539 0.87999976
0.061397158 0.094958417 0.88000005
0.058197629 0.098917551 0.88124424
0.061586611 0.09771584 0.8827154
0.053259652 0.10382258 0.88113326
0.056686144 0.10189207 0.88333333
0.047109701 0.1082213 0.88135827
0.051746178 0.10682031 0.88333338
0.042598899 0.11398558 0.8815583
0.046004586 0.11180978 0.88380837
-0.0026123151 0.11961943 0.88078398
0.04209974 0.11821993 0.88257223
-0.0016291334 0.12309027 0.88216031
0.0017679642 0.12346611 0.88094991
0.038431846 0.12446162 0.88026637
0.041283131 0.12233996 0.88268882
0.0034223821 0.12715845 0.88383335
0.0062642163 0.12828079 0.88175327
0.038047493 0.12823348 0.88086641
0.040190414 0.12810957 0.8828333
0.0075359195 0.13308246 0.88314444
0.037159145 0.13298535 0.88249999
0.0089177536 0.13648482 0.88390011
0.010526526 0.13761061 0.88057762
0.032738131 0.13777846 0.88164997
0.035297506 0.1373232 0.88400006
0.01153222 0.14246604 0.88224649
0.031734996 0.14259578 0.88229167
0.013178694 0.14739884 0.88230002
0.015444427 0.14898971 0.88006645
0.028040975 0.1485116 0.88046646
0.030966509 0.14746659 0.88270676
0.013874187 0.1514027 0.8846001
0.016562747 0.15304191 0.88139993
0.022835685 0.15393597 0.88026649
0.02718595 0.15272558 0.88154578
0.030353209 0.15213151 0.88405001
0.017694343 0.15718782 0.88320011
0.022043886 0.15741754 0.88141483
0.026473144 0.15713719 0.88291669
0.022120113 0.16125159 0.88446671
0.057751711 0.10314276 0.88702494
0.061502375 0.10222685 0.88828123
0.05191372 0.10881545 0.88619989
0.056326278 0.10672618 0.88801318
0.061230414 0.1059114 0.88950008
0.048206139 0.11255279 0.88641649
0.052029528 0.11236392 0.88817763
0.055440877 0.11090853 0.88976657
0.063670345 0.11244275 0.88882238
0.065143965 0.11212587 0.88631827
0.046980433 0.11711788 0.88665175
0.051288422 0.11669297 0.88970011
0.06341894 0.11529391 0.88531262
0.043634444 0.12278682 0.88589996
0.04685124 0.12206265 0.88812488
-0.00097578135 0.12778628 0.88628697
0.0012276424 0.12802516 0.88604003
0.042846154 0.12701556 0.88666099
0.04545705 0.12655661 0.88923329
-0.00097722677 0.13045175 0.88760006
0.0023306697 0.13199984 0.8869037
0.0056320201 0.13346268 0.88566673
0.041787222 0.13209878 0.88757211
0.0023338909 0.13712686 0.88805431
0.0067364438 0.13738792 0.88618875
0.037583888 0.13764377 0.88606662
0.040874232 0.13681936 0.88874161
0.0039947703 0.14139104 0.88889992
0.0073028123 0.14209001 0.88809615
0.033686887 0.14488603 0.88500017
0.037300374 0.1422002 0.88749981
0.040479217 0.14226228 0.8891778
0.0081415791 0.14639539 0.88916665
0.011014244 0.14765932 0.88682485
0.033145979 0.14821953 0.88524455
0.036914974 0.14685149 0.88817489
0.012271088 0.15241353 0.88810003
0.032641046 0.15254669 0.8864665
0.036150023 0.15177986 0.88873327
0.013507511 0.15646766 0.88766646
0.016373724 0.15905252 0.88596654
0.02819551 0.15921174 0.88532215
0.032342508 0.15709524 0.88770813
0.035508677 0.15716812 0.8892889
0.013939537 0.16120905 0.88876665
0.016990328 0.16225517 0.88738078
0.022579161 0.16364694 0.88629973
0.026913583 0.16300234 0.88615406
0.032155577 0.16194332 0.88825917
0.035522435 0.16136613 0.88963342
0.01780938 0.16647142 0.88891107
0.022185406 0.16723165 0.88709599
0.02731036 0.16797711 0.88696635
0.032175422 0.1670046 0.88881487
0.018934207 0.17049988 0.88980013
0.022008775 0.17208163 0.88834989
0.027163649 0.17254664 0.8875553
0.031708557 0.17224063 0.88901907
0.023234559 0.17668143 0.88925332
0.027200336 0.17691614 0.88877028
0.031356987 0.17698807 0.88913327
0.023912666 0.18043104 0.88980001
0.027212899 0.18196225 0.88919258
0.031196807 0.18165173 0.88929337
0.028326435 0.18587415 0.88944435
0.030549491 0.18621746 0.88976669
0.063823789 0.10359994 0.89096427
0.058000587 0.108558 0.89085019
0.062398322 0.10821468 0.89094782
0.065488078 0.10608999 0.89100003
0.057308067 0.11269715 0.89300579
0.061378375 0.11280433 0.89166135
0.05291035 0.11846872 0.89185351
0.055760719 0.11654247 0.89490014
0.06301862 0.11690709 0.89134181
0.048870806 0.12432172 0.89100009
0.051772445 0.12242224 0.89326137
0.047725465 0.12798201 0.89175254
0.05073671 0.12648816 0.89460015
0.043914363 0.13352585 0.89158344
0.046518747 0.13217875 0.89369184
0.04328423 0.13811067 0.89228022
0.0023429822 0.14257379 0.89111787
0.042947419 0.14241201 0.89219362
0.0035992758 0.14756049 0.89371687
0.0066635357 0.14822043 0.89118683
0.038862608 0.14903812 0.89013332
0.041447621 0.14771907 0.89216137
0.0040214355 0.15148965 0.89483362
0.007820609 0.15262912 0.89314789
0.010645933 0.15325253 0.89056683
0.038515046 0.15303029 0.89168352
0.041254837 0.15190323 0.89400035
0.0084685534 0.15697987 0.89450026
0.01132365 0.15792397 0.89168692
0.038145166 0.15777782 0.89273912
0.01233436 0.16233313 0.89268345
0.037575353 0.16269179 0.89237255
0.01401116 0.16619159 0.89333355
0.016190095 0.16852421 0.89102238
0.037291959 0.16764262 0.89221126
0.018158138 0.17266986 0.89245856
0.033883564 0.17139804 0.89016688
0.036830742 0.17293166 0.89258593
0.019032454 0.1772081 0.89441693
0.021043763 0.17783597 0.89130855
0.033892445 0.17724042 0.89039999
0.037311699 0.17770001 0.89270771
0.022109123 0.1828316 0.8924253
0.033478655 0.18262985 0.89043331
0.037116565 0.182539 0.89302939
0.023461962 0.18676388 0.8937003
0.026727021 0.18795121 0.89144462
0.032748427 0.18765305 0.89152873
0.036526792 0.18791558 0.89390588
0.02788277 0.19214396 0.89294463
0.032128498 0.19256289 0.89328361
0.035712771 0.19134641 0.89440042
0.032381456 0.196367 0.89453351
0.058298789 0.11494629 0.89543337
0.057909258 0.11783548 0.8971402
0.061481345 0.11795493 0.89719868
0.053291194 0.12411186 0.89546657
0.056355342 0.12150186 0.89771682
0.052724157 0.12763286 0.89596194
0.056015491 0.12710895 0.8989892
0.047865529 0.13369486 0.89550012
0.052772243 0.132084 0.89728349
0.05604526 0.13052265 0.89946681
0.047494654 0.13757606 0.89636683
0.052052978 0.13645166 0.89811134
0.00068650628 0.14375766 0.89852637
0.044095796 0.14490153 0.89526683
0.047745109 0.14207664 0.89714593
0.051020276 0.14058258 0.89960021
0.0023542249 0.14826533 0.89546674
0.04412042 0.1474821 0.89576668
0.047090858 0.14673904 0.89777631
0.0026340056 0.15282004 0.89612776
0.0056934906 0.15407267 0.89533341
0.043126088 0.15267313 0.8959201
0.046591081 0.15174246 0.89830029
0.0030276505 0.15723161 0.89720011
0.0069497041 0.15833041 0.89586663
0.042705391 0.15702264 0.89672506
0.045929056 0.15711881 0.89846689
0.0040403856 0.16140255 0.89905024
0.0073821275 0.16199017 0.8976717
0.011539686 0.1640957 0.89550006
0.039092563 0.16491047 0.89540011
0.042501085 0.16183604 0.89682227
0.045981869 0.16064587 0.89950019
0.012063394 0.16725783 0.89727342
0.042530172 0.16695353 0.8974297
0.013520726 0.17089646 0.89767796
0.016286848 0.17342125 0.89634448
0.039086744 0.17238021 0.89526665
0.042342439 0.17221317 0.89700001
0.017412361 0.1777138 0.89698344
0.04271362 0.17707279 0.89689595
0.018531 0.18191397 0.89712232
0.03908674 0.18487041 0.89526683
0.042507559 0.1818832 0.89695942
0.019108705 0.1862703 0.89800024
0.021991717 0.18836921 0.89606667
0.039102748 0.1874454 0.89563334
0.042525824 0.18696864 0.89734459
0.022236386 0.1922296 0.89755023
0.026575919 0.19411652 0.89566672
0.034077689 0.19486251 0.89526671
0.038001802 0.19222771 0.89592218
0.042552046 0.19209856 0.89791501
0.024153193 0.19645733 0.89875031
0.027203528 0.19732477 0.89672387
0.032424919 0.19763041 0.89573336
0.037461288 0.19675723 0.8963111
0.042085681 0.19692789 0.89817649
0.027966617 0.20194831 0.89820975
0.032449301 0.20178321 0.89641488
0.037475597 0.20183629 0.89665192
0.041320495 0.20182267 0.8984502
0.029219082 0.20591497 0.89990032
0.033005834 0.2070403 0.89855272
0.037538093 0.20718899 0.89816314
0.04094914 0.20582342 0.89950031
0.035932366 0.21093701 0.89990014
0.058848094 0.122739 0.90128022
0.061702956 0.12214678 0.90247363
0.058789153 0.12766962 0.90295005
0.06140602 0.12617752 0.90429997
0.057666611 0.13270472 0.90293336
0.053904701 0.1385773 0.90106678
0.056239478 0.13685188 0.90258348
0.052860748 0.14269042 0.90234774
0.049383655 0.14823675 0.90035033
0.051647559 0.14744994 0.90322506
0.049039338 0.15307778 0.90173352
0.05128213 0.15223768 0.90421665
0.00069061207 0.15975027 0.90390009
0.048640624 0.15775804 0.90212232
0.002372286 0.1623376 0.90191668
0.0057339761 0.16439342 0.90170008
0.048021775 0.16304107 0.90233761
0.0085450569 0.1668123 0.90268892
0.010775832 0.16937532 0.90143341
0.046964701 0.16785175 0.90225571
0.0091296285 0.17002672 0.90490001
0.012131061 0.17322913 0.90229338
0.046993311 0.17299259 0.90280563
0.014169924 0.17815936 0.9034555
0.01582114 0.17861807 0.9015336
0.046962705 0.17791347 0.90221685
0.016690437 0.18313149 0.9031167
0.047310211 0.18313536 0.90195262
0.018361472 0.18804005 0.90250003
0.047776721 0.18787219 0.90168166
0.019206587 0.1922611 0.90259999
0.047577366 0.19273926 0.90189189
0.019249147 0.19521126 0.90460008
0.022276117 0.1979955 0.90195006
0.04433877 0.1984483 0.90020025
0.047617752 0.19751908 0.90265417
0.023006547 0.20161766 0.90315002
0.025905535 0.20374416 0.90140009
0.043558937 0.20291032 0.90142518
0.046745639 0.20224734 0.9034555
0.02796502 0.20792158 0.90280008
0.030922582 0.20859613 0.90063357
0.042420875 0.20745289 0.90222675
0.028509447 0.21190387 0.90402502
0.032637339 0.21218131 0.90162796
0.03801167 0.21230805 0.9014535
0.041962348 0.21088186 0.90324992
0.033573098 0.21530086 0.9041667
0.036956877 0.21536437 0.90443331
0.063812412 0.12424093 0.90653354
0.065044135 0.12331565 0.90799999
0.062574126 0.12851539 0.90655345
0.06606143 0.12703392 0.90801603
0.059828445 0.13399166 0.90595007
0.062455781 0.13250223 0.90729201
0.065923072 0.13182573 0.90844423
0.058559377 0.13805936 0.90721351
0.062384062 0.13659954 0.9087202
0.065134212 0.13617253 0.90925753
0.054750554 0.14492141 0.90580004
0.057142943 0.14189608 0.90801126
0.060091507 0.14050476 0.90993321
0.053919278 0.14832635 0.90601671
0.056599136 0.14702003 0.90835589
0.054131411 0.15215597 0.90674007
0.056628209 0.15216766 0.9088226
0.00069262396 0.15852934 0.90653354
0.053129632 0.15691371 0.906941
0.056664206 0.15564734 0.90940034
0.00069331168 0.16375071 0.90743345
0.053136695 0.1619954 0.90705574
0.0026707433 0.1672979 0.90835571
0.0063303821 0.16816334 0.9069559
0.049660657 0.16759415 0.9054001
0.053137165 0.16705967 0.90707058
0.056697432 0.16927981 0.90993345
0.0077490029 0.17231579 0.90809464
0.049680769 0.17187475 0.90576679
0.053147476 0.17215656 0.90725207
0.05663928 0.17248811 0.90900034
0.0087465262 0.17713338 0.90897512
0.011508649 0.17735799 0.90623349
0.049693573 0.17697476 0.90600008
0.053165298 0.17727984 0.90756333
0.056660742 0.17762816 0.90934473
0.012818451 0.18228306 0.90725583
0.049655166 0.18188967 0.90529996
0.053146996 0.18228063 0.90724468
0.056684971 0.18108858 0.90973365
0.013823958 0.18716538 0.90842527
0.016331613 0.18762398 0.90655851
0.053113353 0.18722355 0.90666324
0.014270476 0.19127031 0.90986657
0.016764782 0.19238795 0.90715575
0.053157832 0.1924434 0.90741497
0.018285792 0.1977696 0.90707362
0.049644209 0.19868647 0.90510005
0.052186988 0.19734286 0.90821362
0.018767161 0.20169352 0.90853351
0.021826725 0.20322405 0.90656686
0.049259726 0.20262747 0.90578341
0.051586028 0.20305367 0.90957528
0.024363561 0.20744431 0.90657789
0.026038703 0.20900382 0.90603346
0.044594899 0.20801589 0.90540004
0.04807255 0.20760065 0.9072631
0.024412535 0.2120847 0.90840024
0.026492028 0.21304864 0.90710855
0.043527987 0.21307276 0.90661138
0.046872467 0.21255991 0.90862525
0.028272305 0.21766858 0.9080289
0.032559223 0.21793689 0.90613347
0.038125716 0.21800923 0.90643346
0.042587813 0.21787412 0.90888602
0.06688457 0.12358728 0.91000003
0.063518174 0.13888329 0.91039985
0.066143438 0.13820469 0.91150004
0.05840838 0.14307781 0.91015005
0.062165048 0.14278398 0.9123292
0.065499984 0.14288954 0.91436386
0.058436546 0.14738166 0.91058892
0.061996136 0.14776801 0.91297412
0.065943375 0.1484561 0.91459823
0.058497865 0.15262403 0.91154438
0.061587233 0.15281475 0.91413826
0.057866346 0.15817794 0.91228688
0.060386494 0.15735367 0.91440028
0.057259556 0.16247225 0.91210842
0.00069677527 0.16796166 0.91196686
0.057919502 0.16681407 0.91312015
0.003250774 0.17237327 0.91286677
0.0057930108 0.17371176 0.91098332
0.058612667 0.17245969 0.91333342
0.060410708 0.17273134 0.91476691
0.0036811586 0.17641392 0.9140085
0.0064737774 0.1783274 0.91118658
0.058557048 0.17823756 0.9124667
0.060799245 0.17729992 0.9141919
0.0075080111 0.18260776 0.91309458
0.010889998 0.18387967 0.91098332
0.057630703 0.18308637 0.91125846
0.061217606 0.18195252 0.91407245
0.0092175696 0.18611073 0.9136169
0.011473284 0.1878448 0.91241121
0.057647407 0.1873786 0.91152233
0.061241612 0.18712728 0.91443366
0.012894873 0.1924379 0.91273904
0.057909675 0.1922631 0.9129734
0.061272696 0.19062643 0.91490042
0.013774224 0.1973453 0.91448921
0.015977331 0.19731703 0.91043329
0.05332486 0.19982806 0.9102999
0.056012444 0.19693653 0.9125917
0.016593939 0.20217319 0.91324455
0.02106121 0.20484053 0.91000003
0.053464465 0.20289834 0.91268343
0.055262346 0.20154968 0.91426694
0.019014191 0.20692626 0.91360021
0.021939345 0.20767023 0.91127503
0.052792303 0.20751473 0.91282672
0.022157436 0.21202493 0.91323346
0.049166445 0.21290196 0.91190004
0.051847704 0.21215661 0.91417527
0.026155563 0.21840672 0.91009992
0.067362316 0.14322357 0.91650003
0.067472562 0.14858094 0.91800004
0.063855365 0.15324068 0.91523373
0.066532359 0.1526558 0.91683108
0.063259661 0.15720153 0.91648674
0.067522436 0.15723319 0.91866612
0.071025439 0.15911523 0.91966671
0.058762413 0.16353311 0.915667
0.062274117 0.16207689 0.917063
0.067558199 0.16244671 0.91915542
0.071028896 0.16254482 0.91971111
0.062284186 0.16722119 0.917211
0.06706205 0.16731516 0.91906649
0.071603656 0.16654395 0.91975099
0.076189056 0.16941997 0.91988456
0.0006992711 0.17026581 0.91523343
0.062795058 0.17215872 0.91754276
0.066684984 0.17266352 0.91893315
0.076192163 0.17284936 0.91992217
0.0024087781 0.17811897 0.91621679
0.063284084 0.17704551 0.91684008
0.066665567 0.17773966 0.91866642
0.0036930097 0.18211883 0.91705
0.063908078 0.18233407 0.9159891
0.066629902 0.18276948 0.91817766
0.0070464564 0.18773426 0.91620475
0.063901879 0.18742681 0.91590023
0.067292742 0.18816194 0.91844583
0.0078957081 0.19206449 0.91851979
0.010958135 0.19355687 0.91668344
0.062511019 0.19324854 0.91695708
0.066492766 0.19277403 0.91864651
0.0092792772 0.19505526 0.91973323
0.011834676 0.19732124 0.91833317
0.058399044 0.19824071 0.91665846
0.062038343 0.19721904 0.91865319
0.065865561 0.19670911 0.91946656
0.014394116 0.20231819 0.91775
0.016085548 0.20462106 0.91660011
0.057133969 0.20255628 0.91690862
0.060743112 0.20020241 0.91980004
0.0169503 0.20816499 0.91719174
0.056550812 0.20711079 0.91856641
0.017811824 0.21195185 0.91758341
0.021176932 0.21447644 0.91500038
0.053037215 0.2139325 0.91510034
0.05548799 0.21176429 0.9179998
0.072766997 0.16430706 0.92000002
0.069335371 0.16858552 0.92000002
0.073119894 0.16877873 0.92012006
0.069337882 0.17287028 0.9200334
0.072801866 0.17294547 0.92043334
0.069383107 0.1781209 0.92063338
0.072906822 0.17748076 0.92175561
0.076290458 0.17735648 0.92110878
0.069370545 0.18322445 0.92046672
0.072996169 0.18199068 0.92288905
0.07638628 0.18186712 0.92226571
0.0041358848 0.18661578 0.92029989
0.069345422 0.18658198 0.92013335
0.072998956 0.18714914 0.92292619
0.076381542 0.18614592 0.92220843
0.0058520432 0.19345647 0.92026657
0.069335371 0.19254473 0.92000002
0.072877258 0.19233042 0.92410839
0.0075853001 0.19703883 0.92233896
0.011023283 0.19899496 0.92213345
0.064187974 0.19853453 0.92000002
0.068021305 0.19715989 0.92156678
0.071385853 0.19603081 0.92433333
0.012060541 0.20219007 0.92262012
0.059051212 0.20370562 0.92016667
0.062810443 0.20256935 0.92180425
0.066767544 0.20169716 0.92403322
0.013604599 0.20762251 0.92235547
0.059194535 0.20763302 0.9224
0.061471388 0.20763005 0.92429996
0.074946985 0.19460569 0.92573321
0.076830894 0.19241652 0.92763388
0.072483815 0.19753295 0.92734993
0.075257309 0.19714074 0.92956668
0.0083170515 0.20218213 0.92730665
0.011065921 0.2049306 0.92569983
0.069461577 0.20228998 0.92740822
0.07179904 0.20148927 0.92968357
0.0093662711 0.20724563 0.92835552
0.011074287 0.20767078 0.92639983
0.073581688 0.19902682 0.93030018
0.076430097 0.19793828 0.93331665
0.0059286701 0.2020601 0.93231666
0.0072277216 0.20714575 0.93180013
