# .PCD v0.7 - Point Cloud Data file format
VERSION 0.7
FIELDS x y z
SIZE 4 4 4
TYPE F F F
COUNT 1 1 1
WIDTH 1073
HEIGHT 1
VIEWPOINT 0 0 0 1 0 0 0
POINTS 1073
DATA ascii
0.038302723 0.058921803 0.81900018
0.042313717 0.058194488 0.81878012
0.034257397 0.061765425 0.81966668
0.037472941 0.062282473 0.81895018
0.042579312 0.062401984 0.81801671
0.038824514 0.066307187 0.81926674
0.042467229 0.06651932 0.81953329
0.038493875 0.054112464 0.82311106
0.04105781 0.054116759 0.82317775
0.028853672 0.057657886 0.82362515
0.032815374 0.057341214 0.82184434
0.036815185 0.056922629 0.82131648
0.043016583 0.055536062 0.82151097
0.046808742 0.057290118 0.82231838
0.029413445 0.062411554 0.82316673
0.032353904 0.062866695 0.82124728
0.035835583 0.064140782 0.82079977
0.047386304 0.062704034 0.82198882
0.033301916 0.067161478 0.82305712
0.036948316 0.067448974 0.82123786
0.041179627 0.068699002 0.82053316
0.046374947 0.067307062 0.82217783
0.034441307 0.070527755 0.82406682
0.037695445 0.071550988 0.82322854
0.042021547 0.071883939 0.82202953
0.045550849 0.071625799 0.82346684
0.042882174 0.07510522 0.82383353
0.045239788 0.075193338 0.82480007
0.013776241 0.05399121 0.82906699
0.01763854 0.053211216 0.82893354
0.022261839 0.052844729 0.82838112
0.027320577 0.053251524 0.82785708
0.032857575 0.052748304 0.8277418
0.037453853 0.051911555 0.82755244
0.042536967 0.051927682 0.82780963
0.046732061 0.052811418 0.82786673
0.05015276 0.054034609 0.82973343
0.01377659 0.057077225 0.82908934
0.017621286 0.057012398 0.82814831
0.022222843 0.056928251 0.82692569
0.026226938 0.057408579 0.82554173
0.04919105 0.056904472 0.82656676
0.050047994 0.056231789 0.82800007
0.014554094 0.060179453 0.8293336
0.017865736 0.061273299 0.8292194
0.02239445 0.062191989 0.82810313
0.026629787 0.063211821 0.82611656
0.050052021 0.060087521 0.82806665
0.023314826 0.066853672 0.82920027
0.027649907 0.067771815 0.82784444
0.031417005 0.068336315 0.82536674
0.048378788 0.068377376 0.82586664
0.027683439 0.072091535 0.82882535
0.032261912 0.072656855 0.82735348
0.036860883 0.073822781 0.82663321
0.047830202 0.072625622 0.82701331
0.032649193 0.076214738 0.82875264
0.037690893 0.077021278 0.82794076
0.042067498 0.077394538 0.82722849
0.04670554 0.077031575 0.82805562
0.039330006 0.080292858 0.82993358
0.042380154 0.080206871 0.82904482
0.045477465 0.080215469 0.82913369
0.013874894 0.049717795 0.83499974
0.017768111 0.049717795 0.83499974
0.022424825 0.049684715 0.83444428
0.027100446 0.049696624 0.83464432
0.032535754 0.049679093 0.83434987
0.037930936 0.049222313 0.8332001
0.042618033 0.048863862 0.83369994
0.047302425 0.049660895 0.83404422
0.0032334467 0.053859834 0.83499974
0.0079430956 0.053054355 0.83373988
0.012815264 0.05214398 0.83123809
0.01767244 0.05099681 0.83053333
0.022324631 0.051004995 0.83066666
0.02699106 0.051041845 0.83126658
0.03164136 0.051041853 0.83126664
0.047937222 0.051060263 0.83156681
0.052085936 0.052490387 0.83280009
0.0033632205 0.057095796 0.83499974
0.0076279636 0.057373866 0.83339995
0.011476631 0.057173431 0.83048892
0.052577686 0.057234004 0.8313666
0.0087269684 0.061156701 0.83423984
0.013046345 0.061909679 0.83183813
0.01768299 0.063907303 0.83099991
0.020767642 0.064890951 0.83039993
0.05187152 0.061954852 0.83245713
0.014128204 0.065740377 0.83464426
0.017742943 0.06748829 0.83385336
0.021829486 0.068590656 0.83155555
0.050449606 0.066774994 0.8346445
0.019324623 0.072237253 0.83496642
0.022577025 0.0726422 0.83292496
0.025432114 0.073439851 0.83099991
0.050454978 0.074546166 0.83473331
0.023189873 0.076032087 0.83399993
0.027230307 0.077270001 0.83269167
0.031940289 0.078541219 0.83100003
0.048753694 0.078197323 0.83226669
0.050414685 0.076038152 0.83406663
0.033042803 0.081207253 0.83403325
0.037700336 0.082274906 0.83240002
0.042515386 0.082783841 0.83168882
0.046973925 0.082119875 0.83279997
0.038395874 0.085817471 0.83486646
0.042655975 0.086938426 0.83443689
0.046307374 0.085940093 0.83479983
-0.011876938 0.049955979 0.83900005
-0.00092415966 0.049979787 0.83939999
0.0022059411 0.0499692 0.83922225
0.0071181688 0.048804026 0.83838093
0.012050241 0.048028618 0.83807337
0.017837623 0.047572151 0.83826667
0.022525365 0.047567189 0.83817786
0.027205594 0.047551621 0.83789998
0.032332849 0.04765198 0.83770478
0.037608344 0.047274064 0.83758885
0.043215748 0.046373446 0.83773333
0.047280736 0.046921548 0.8371166
0.051974978 0.048764952 0.83771431
-0.0056206337 0.053102389 0.83939999
-0.0024858222 0.052684832 0.83774006
0.00167772 0.052353982 0.83576655
0.0060900771 0.051285401 0.83523321
0.056050491 0.052944049 0.8369112
-0.0056192959 0.056992918 0.83920014
-0.0024868441 0.057693098 0.83802968
0.0012622654 0.057866316 0.83602649
0.055986077 0.057549804 0.83595538
-0.001314749 0.062030755 0.83871675
0.0022008559 0.062313378 0.83726656
0.0068771937 0.062908672 0.83631408
0.011539893 0.063702218 0.8350665
0.053722583 0.063859887 0.83713329
0.056099262 0.062343318 0.8376556
0.0022064385 0.065580353 0.83922243
0.0074178032 0.066572592 0.8386001
0.011744928 0.06734477 0.83742964
0.016231535 0.069999494 0.83606642
0.052599248 0.067406498 0.83698088
0.014399782 0.072064437 0.83836001
0.017367279 0.073427118 0.83714288
0.020891009 0.074599728 0.83533323
0.051670909 0.072466239 0.83760005
0.018226938 0.076806717 0.83821672
0.022279674 0.078344002 0.83738095
0.025585145 0.079324655 0.83599991
0.051157698 0.077930652 0.83773333
0.024116039 0.08118289 0.83913338
0.0275128 0.081671804 0.83773339
0.032085437 0.083485104 0.83613324
0.048945069 0.083166257 0.83553326
0.050668553 0.082658567 0.83826667
0.033197533 0.086266093 0.83796674
0.037326321 0.088254802 0.83711106
0.047961269 0.087668441 0.83647776
0.050684672 0.087364085 0.8385334
0.039080624 0.091659799 0.8378666
0.042771243 0.091842771 0.83669615
0.047512144 0.091956869 0.83773333
0.050761253 0.091401696 0.83979988
0.03976281 0.095223866 0.8390668
0.042859055 0.095540494 0.83841676
0.046029609 0.095238999 0.8392002
0.0030092141 0.044022311 0.84493327
0.0069461544 0.044008415 0.84466666
0.012454284 0.043985836 0.84423333
0.017977716 0.044017676 0.84484434
0.022705518 0.044019993 0.84488875
0.027401678 0.043184381 0.84393334
0.03180204 0.043332435 0.84376013
0.03714272 0.043635692 0.84354687
0.043102678 0.043930847 0.84317797
0.047512196 0.043308593 0.84329349
0.051007051 0.043966737 0.84386659
-0.011149621 0.048631772 0.84310007
-0.0072167302 0.047059711 0.84304994
-0.0025014391 0.047055975 0.84299266
0.0022138103 0.047007721 0.84212601
0.0066100387 0.046057843 0.84193337
0.012426225 0.045453735 0.84233344
0.017931931 0.04547292 0.84268904
0.022640558 0.045462132 0.84248906
0.027313447 0.045393776 0.84122211
0.032026265 0.045400977 0.8413555
0.03752929 0.045415964 0.84163332
0.042170543 0.045342222 0.84026659
0.049237955 0.04535662 0.84053332
0.052871238 0.046141841 0.84346676
0.056342095 0.047405042 0.84362662
-0.011774615 0.053005118 0.84279585
-0.0077230716 0.052163124 0.84104431
-0.0040644831 0.050094906 0.84133327
0.057994783 0.051730763 0.84246653
-0.011724823 0.057886191 0.84409446
-0.0076548853 0.058167655 0.84167612
0.058814138 0.058034319 0.84297776
0.060526375 0.059739672 0.84493327
-0.0070246868 0.062571786 0.84337515
-0.0034367281 0.062915757 0.84116
0.058811039 0.061950628 0.84293342
0.062062994 0.061272729 0.84439975
-0.0061765648 0.066479146 0.84402227
-0.0025008626 0.067416616 0.84264451
0.0022116757 0.068099596 0.84141093
0.0058683218 0.068296351 0.84062213
0.056350362 0.067316674 0.84139985
-0.0015603766 0.07198038 0.84470665
0.0022180381 0.072221436 0.84384453
0.0069291666 0.072114125 0.84259278
0.011429625 0.072200373 0.84131652
0.054029185 0.072055943 0.84191114
0.05579013 0.070730716 0.84479988
0.0022215459 0.075463049 0.84499997
0.0071658576 0.076502636 0.84407622
0.012428793 0.077211417 0.84262794
0.017588843 0.079206385 0.84134656
0.053338826 0.07688792 0.84340012
0.012798659 0.081277609 0.84475225
0.018475182 0.082660131 0.84357786
0.022445127 0.083273813 0.84250838
0.026916558 0.084111139 0.84109992
0.052542806 0.082365617 0.84325576
0.023224145 0.087478749 0.84465551
0.027366083 0.087816089 0.84285933
0.03171625 0.088612318 0.84149325
0.052485328 0.087759614 0.84233332
0.027748089 0.091798887 0.84489316
0.032316878 0.092432253 0.84385008
0.036305726 0.0926333 0.84185714
0.052009169 0.092542745 0.84308892
0.033740267 0.09589722 0.84499991
0.037999641 0.097086847 0.84338337
0.043002605 0.097973593 0.84122658
0.047980029 0.097380266 0.84251678
0.051015116 0.095783733 0.84399992
0.042833813 0.10081927 0.84409332
0.046835106 0.10105478 0.84431118
0.04420732 0.039510243 0.84930021
0.047325864 0.039468374 0.84840035
0.05134755 0.039519545 0.84950006
-0.0060597481 0.042903621 0.84613979
-0.0025137817 0.042568669 0.84732139
0.0020025887 0.042127661 0.84750456
0.0069671446 0.041778598 0.84726673
0.012489617 0.041747846 0.84664172
0.018028397 0.041776553 0.84722048
0.022767039 0.041773867 0.84716678
0.027497346 0.040973436 0.84688896
0.032641403 0.041379873 0.84716678
0.037280891 0.0415923 0.84668005
0.042487618 0.041746307 0.8466084
0.048396479 0.041341387 0.8463667
0.052990675 0.0423695 0.84726679
0.057605207 0.043408651 0.84831136
0.06084637 0.044255011 0.84940028
-0.010385939 0.04716951 0.84500003
0.0586561 0.046851493 0.84636664
0.061591972 0.047379065 0.84875584
0.062119294 0.052255664 0.84784186
0.067213766 0.053364724 0.84978908
-0.015113746 0.058958478 0.84500003
-0.012750387 0.05896119 0.84503841
0.062445082 0.057349063 0.84763056
0.065607831 0.055322997 0.84951746
-0.015131631 0.062962562 0.84600002
-0.011984337 0.06300278 0.84652603
-0.0088100024 0.064460017 0.84499997
0.059097085 0.06461513 0.84703314
0.061637353 0.062737167 0.84719372
-0.011808108 0.067851715 0.84808218
-0.0077677197 0.068197317 0.84585553
0.059299421 0.066417351 0.84993327
-0.0070661437 0.072409064 0.84835023
-0.0036946526 0.072834693 0.84641671
0.056862019 0.072778702 0.84667999
-0.0056858091 0.075832143 0.84913367
-0.0021995245 0.076362506 0.84800023
0.0025437537 0.077884093 0.84738672
0.0061694132 0.078721493 0.84623337
0.054300148 0.077925965 0.84613329
0.056847841 0.07738369 0.84882253
0.0038178542 0.080608763 0.84953362
0.0072895871 0.081094816 0.84800017
0.011314509 0.083165161 0.84740007
0.017194938 0.084118202 0.84509981
0.054364312 0.081957132 0.84713346
0.056058694 0.08212474 0.84886694
0.013698827 0.085615493 0.84825021
0.018256646 0.087387562 0.84740013
0.021697521 0.089249708 0.84655553
0.054389991 0.087512918 0.84753358
0.056043282 0.0876268 0.84863365
0.023310417 0.092537068 0.84781122
0.02708764 0.094091825 0.84643334
0.030593215 0.094340272 0.84513319
0.053576238 0.092983983 0.8471334
0.02793015 0.096638039 0.84805024
0.032053899 0.097932905 0.84730005
0.035880923 0.098626353 0.84593326
0.052139759 0.098006263 0.84692001
0.03390529 0.10110496 0.84913367
0.037342943 0.10161276 0.84809363
0.042507142 0.10281888 0.84698337
0.048584115 0.1029966 0.8473556
0.052106466 0.10187315 0.84895027
0.052711993 0.034453657 0.85450023
0.057220794 0.034979451 0.85440004
-0.001730494 0.039589319 0.85100001
0.0026410965 0.039300408 0.85333461
0.007014649 0.039685503 0.85306746
0.013101834 0.039115626 0.85220003
0.018368544 0.03852677 0.85254759
0.022909967 0.038863841 0.85247213
0.02765405 0.038828839 0.85170555
0.032445367 0.038859431 0.85237771
0.037202459 0.038847435 0.85211664
0.041662082 0.038697194 0.85229999
0.047533423 0.037659671 0.8521542
0.052664947 0.037454274 0.85289347
0.057999041 0.038145807 0.85412598
0.062781118 0.038346127 0.85416675
0.067056589 0.038692977 0.85451722
0.057822302 0.041196536 0.85150003
0.062814005 0.042601336 0.85191256
0.067479938 0.042862576 0.85314822
0.064122647 0.047495421 0.85083336
0.067450203 0.047603086 0.85276294
0.070773304 0.047698904 0.85449636
0.064142741 0.05067645 0.85109991
0.067345925 0.051331021 0.85145903
0.070603833 0.051549636 0.85244995
0.066591926 0.056275729 0.85197544
-0.013633938 0.068083756 0.85100007
0.05936221 0.068862081 0.85083336
-0.012049381 0.072846875 0.85115904
-0.0088659544 0.07436046 0.85036665
0.059490904 0.072978482 0.85267782
0.061192576 0.07152053 0.85423344
-0.011870472 0.077536494 0.85266274
-0.0072951368 0.077688806 0.85215235
-0.0029253876 0.078874007 0.85212499
0.00064993999 0.079133905 0.85066658
0.059608739 0.077888794 0.85436678
-0.0017365166 0.081015199 0.85381675
0.0022416806 0.082238249 0.85276109
0.0066067204 0.083594702 0.85177499
0.058276013 0.082858413 0.85233617
0.0080822771 0.086300403 0.85372227
0.011971276 0.087779604 0.85202074
0.016518865 0.088649184 0.85086662
0.057940781 0.086675569 0.85324192
0.014190782 0.090566009 0.85401666
0.018461339 0.091690756 0.85264671
0.021320345 0.093576781 0.8525002
0.054619946 0.094215944 0.85111678
0.056328729 0.092042238 0.85295576
0.023669075 0.095809162 0.85120004
0.027637074 0.098711945 0.85119992
0.054576818 0.098097511 0.85044461
0.056298636 0.09754128 0.85250026
0.028519265 0.10086881 0.85381669
0.032437447 0.10279097 0.85218889
0.036796853 0.10421132 0.85192496
0.041901182 0.1044592 0.85072213
0.053505413 0.10346431 0.85230833
0.05645933 0.10020522 0.8549335
0.038099647 0.10650223 0.85441673
0.042376298 0.10707359 0.85390007
0.047205694 0.10692661 0.85236186
0.051594354 0.10719326 0.85358346
0.038581219 0.033045575 0.85922235
0.042506594 0.032168452 0.85893667
0.047000285 0.032690663 0.85690236
0.052060287 0.032815993 0.85602683
0.058100779 0.033437863 0.85562247
0.061414659 0.033504728 0.85733336
0.0070610507 0.037706684 0.85861576
0.011529606 0.037338842 0.85750663
0.017115222 0.035811357 0.85804784
0.023047948 0.035906568 0.85760021
0.027844483 0.036703859 0.85755563
0.03297741 0.036081258 0.85794675
0.03741191 0.035878319 0.85691124
0.04217888 0.035854891 0.85634452
0.046953425 0.035046771 0.85604477
0.053295337 0.035017658 0.85533357
0.05965757 0.035006743 0.8550669
0.062878072 0.035421476 0.85548353
0.07084953 0.044568505 0.85541672
0.070874184 0.047767602 0.85571432
0.0613239 0.073266469 0.85606682
-0.0089246901 0.07963004 0.85600007
0.061540414 0.076720588 0.85908908
-0.010536504 0.08213947 0.85725009
-0.0071159201 0.082537465 0.8578307
-0.0027711585 0.083377659 0.8570953
0.0014516187 0.084407032 0.85600019
0.059740126 0.082042821 0.85625017
0.061534047 0.084702842 0.85900009
0.0025748103 0.086842038 0.85802668
0.0065188031 0.088289149 0.85761118
0.059802085 0.08850576 0.85713816
0.061462406 0.086200275 0.85800004
0.0086624976 0.091052033 0.8585999
0.011526727 0.091867015 0.85725337
0.016322844 0.093468577 0.85732013
0.058983784 0.092460215 0.85685039
0.018265374 0.095826171 0.85844451
0.022609232 0.097167447 0.85619181
0.057846803 0.096948475 0.8577584
0.024700403 0.1007366 0.85946661
0.027416896 0.10200667 0.85670012
0.057386577 0.10202428 0.85685837
0.032608815 0.10599166 0.85671681
0.037397109 0.10836492 0.85657346
0.041759014 0.10947765 0.85593361
0.046936322 0.10985001 0.85573357
0.053062156 0.10747826 0.85585576
0.056684788 0.1069937 0.85835004
0.037523728 0.11032925 0.85946673
0.042293984 0.1118296 0.85871118
0.047486641 0.11219753 0.85846663
0.051264696 0.11151201 0.85872
0.029664809 0.028140232 0.86400014
0.032806996 0.028071456 0.86188889
0.037602607 0.028051583 0.86128896
0.041289482 0.028276393 0.86000013
0.0072935601 0.032300331 0.86243123
0.011693641 0.032572456 0.86282855
0.016952325 0.032716922 0.86287081
0.022656307 0.032923993 0.86303896
0.028218901 0.032317255 0.86291265
0.032794189 0.032066226 0.86155552
0.037027489 0.031488556 0.86035568
0.04075484 0.030409407 0.86000019
0.0038693866 0.036050152 0.86100006
0.0070862044 0.035677388 0.8616668
0.011892159 0.03523327 0.86060023
0.027923556 0.035208706 0.86000019
0.031131383 0.035208706 0.86000019
0.063268378 0.068066791 0.86079997
0.065172747 0.067576513 0.86476678
0.06330923 0.072117478 0.86135554
0.06553451 0.072758429 0.86421692
0.06335824 0.076982997 0.86202216
0.065123342 0.077170014 0.86411124
-0.011381478 0.084075525 0.86075002
-0.0081710937 0.084869251 0.86068773
0.062647805 0.082222037 0.86171806
-0.010594887 0.087403893 0.86200005
-0.0073854444 0.087475054 0.86269403
-0.0025558372 0.087357372 0.8615334
0.0022635523 0.089169018 0.86097807
0.062488504 0.087314069 0.86111426
0.0022706077 0.091068886 0.86381119
0.0070885597 0.09302219 0.86204773
0.011893769 0.094482958 0.86075568
0.0087220268 0.096502133 0.86450011
0.01232846 0.09674032 0.86303335
0.017547451 0.098281495 0.86246675
0.022337103 0.099322379 0.86106682
0.023202473 0.10173056 0.86337787
0.027156346 0.10413569 0.86113334
0.029071668 0.1064218 0.86234456
0.032765236 0.10809826 0.86080015
0.056930572 0.10905968 0.86206895
0.037639815 0.11174008 0.8621223
0.042495612 0.11396852 0.86281115
0.046418041 0.11372049 0.86093342
0.05318746 0.11335173 0.86218888
0.056243848 0.11089443 0.86386979
0.044192713 0.11579981 0.86450011
0.047740448 0.11600961 0.86306673
0.05136947 0.11642744 0.86318338
0.023333475 0.029086208 0.86825544
0.027318321 0.029019583 0.86626673
0.017626731 0.030633945 0.86635005
0.022625307 0.030941498 0.86594689
0.026487958 0.030603888 0.86550021
0.067021757 0.064585 0.8678
0.070391454 0.064708866 0.86946434
0.067121126 0.067710191 0.86648339
0.070338979 0.067892201 0.86881608
0.067790888 0.072120853 0.86524689
0.070190519 0.072588451 0.86698222
0.067598157 0.077097476 0.86690885
0.065348595 0.080662623 0.86710006
-0.0074314889 0.092063658 0.86812329
-0.0025747609 0.092049591 0.86799264
0.0018726616 0.093124561 0.86674178
-0.0017683428 0.095450148 0.86956668
0.0026886312 0.095764719 0.86874998
0.0065980605 0.097426116 0.86795002
0.011973749 0.098871 0.86646676
0.015194052 0.099868365 0.86580008
0.0079598827 0.1002759 0.86933327
0.012000142 0.10097443 0.86838341
0.016843451 0.10250003 0.8676222
0.02220664 0.10343016 0.86640018
0.017683195 0.10509911 0.86909997
0.022889981 0.10670141 0.86898088
0.027855631 0.10850475 0.86788672
0.032149911 0.10953802 0.86585009
0.028240357 0.1108423 0.86976677
0.033460163 0.11188237 0.86841667
0.037905168 0.11414477 0.86822224
0.056147736 0.11338744 0.86654186
0.039584942 0.116474 0.8695333
0.04309297 0.11760601 0.86833334
0.047225174 0.11870302 0.86690682
0.053027608 0.11833739 0.86659336
0.055813454 0.11730711 0.86971438
0.048209053 0.12234247 0.86908889
0.052526224 0.12286791 0.86899269
0.051759504 0.12620798 0.86973321
-0.0058292523 0.096368819 0.87055564
-0.0028154205 0.097696148 0.87104625
0.0019642427 0.098184913 0.87086678
-0.0025843021 0.1009539 0.87169951
0.0026214048 0.10138428 0.87329996
0.0067708055 0.10189233 0.8727833
0.01163161 0.10332545 0.8711834
0.012063126 0.10558145 0.8730889
0.016939213 0.10713975 0.87254667
0.020710349 0.10808463 0.87144452
0.022225969 0.11078327 0.87248331
0.026911069 0.11263695 0.87269169
0.032341719 0.11343002 0.87100023
0.03325193 0.11620423 0.87357777
0.037822239 0.11768271 0.87163824
0.041788619 0.11928878 0.87040013
0.057211202 0.11767587 0.872464
0.038472824 0.1215897 0.87374669
0.043139014 0.12305395 0.87174177
0.046686113 0.12421889 0.8709113
0.056784194 0.12250296 0.87215561
0.043348163 0.12707855 0.87349331
0.047806781 0.12810318 0.87161493
0.052889846 0.1285003 0.87117153
0.056839813 0.1274973 0.87302202
0.044668104 0.13004901 0.87379998
0.048239019 0.13228835 0.87355995
0.052734289 0.13228117 0.87243885
0.056916714 0.13092142 0.87419999
0.052049864 0.13505141 0.87461674
0.064030357 0.098073959 0.87858886
0.067594104 0.09752056 0.87948751
-0.00096439087 0.10266753 0.87594128
0.0018992457 0.10413457 0.87800097
0.0072039277 0.10432378 0.87616676
0.062890321 0.10208434 0.87793332
0.0072295852 0.10632449 0.87923318
0.012556842 0.10834472 0.87903333
0.016209424 0.10932966 0.87710011
0.062950812 0.1095388 0.87877774
0.017459098 0.11152086 0.87829161
0.021617282 0.11362686 0.87752008
0.05974067 0.1137545 0.87977511
0.022801686 0.11610256 0.87896657
0.027424404 0.11709955 0.87825555
0.031771332 0.11838634 0.87771124
0.059650969 0.11766702 0.87845415
0.032371201 0.12231199 0.87919247
0.036335282 0.12338033 0.87723339
0.059454899 0.12216762 0.87556672
0.033496562 0.1260609 0.87999976
0.037512232 0.12740998 0.87801123
0.041518603 0.12795004 0.87611675
0.059427738 0.12699653 0.87516671
0.061381102 0.12766463 0.87976986
0.037572384 0.13142644 0.87938875
0.042425338 0.13263814 0.87801999
0.046361331 0.13348293 0.87500006
0.058218587 0.13242194 0.87659997
0.044153079 0.13748531 0.87977761
0.048129875 0.13713123 0.87751132
0.053221244 0.13745917 0.87662858
0.056422174 0.13739534 0.8791998
0.044985052 0.14079358 0.87999976
0.048226885 0.14231445 0.87928134
0.05309958 0.1421839 0.87847412
0.049360346 0.14624646 0.87997752
0.052368514 0.14651746 0.87996644
0.066333376 0.09497641 0.88016671
0.0647531 0.099982806 0.88099974
0.068321228 0.098277085 0.88040143
0.064892747 0.10184082 0.8829
0.06788031 0.10253396 0.88320571
0.0023152472 0.10653289 0.88095665
0.0072670481 0.10852212 0.88381124
0.011368144 0.10996124 0.88216668
0.01330775 0.11232606 0.88355565
0.017105356 0.11392696 0.88110816
0.062057048 0.11371664 0.88159734
0.017150521 0.11614887 0.88346672
0.022067634 0.11847153 0.88240004
0.025851203 0.11903066 0.88046646
0.062529169 0.11777047 0.8827216
0.022437844 0.12203236 0.88402015
0.026976489 0.12299493 0.88148516
0.030221011 0.1244522 0.88019979
0.062301055 0.12294915 0.88116282
0.022953961 0.12510729 0.88483346
0.02738348 0.12729393 0.88401347
0.031689215 0.12806498 0.88111663
0.063264586 0.12815632 0.88315791
0.027905721 0.13005006 0.88486677
0.032518428 0.1325395 0.88316679
0.036438733 0.13409755 0.88171667
0.059805717 0.13435754 0.88073337
0.062408622 0.13301431 0.88268572
0.038004849 0.13690385 0.88306671
0.040944651 0.13773294 0.88136101
0.05905417 0.13779515 0.88176113
0.062116046 0.13861711 0.88439178
0.043442614 0.14242992 0.88202
0.045056622 0.14429668 0.88139993
0.057424143 0.14275312 0.88198894
0.060615379 0.14207098 0.88455564
0.043582719 0.14733054 0.88485014
0.046904795 0.14801419 0.88183695
0.053890295 0.14811292 0.88069326
0.057371777 0.14796408 0.88371342
0.047928106 0.15182009 0.88383341
0.051950753 0.15227152 0.88281435
0.05507116 0.15209436 0.88383329
0.06504707 0.10372929 0.88500005
-0.00097730034 0.10899556 0.8876667
0.0023299998 0.10885765 0.88654357
0.066571377 0.10694569 0.8860662
-0.00097945635 0.1108909 0.88962501
0.0028886239 0.11186647 0.88860375
0.007294605 0.11222969 0.88711834
0.01113868 0.11315509 0.88575554
0.065893456 0.11194619 0.88749522
0.0078613972 0.1168462 0.88876659
0.012261557 0.11721478 0.88737768
0.01677192 0.11815652 0.88516682
0.065928034 0.11762091 0.88795865
0.0089732427 0.12078954 0.88939995
0.012514414 0.12185146 0.8885237
0.017213374 0.1220683 0.88666642
0.020488773 0.12269865 0.88526678
0.066106088 0.12226789 0.88812375
0.013945287 0.12571527 0.88913333
0.017249139 0.12728302 0.88852578
0.021938782 0.12749009 0.88668537
0.025443794 0.12847176 0.88533336
0.06592042 0.1262985 0.8893556
0.018261455 0.13203613 0.8893733
0.022198357 0.13210815 0.88762933
0.026890805 0.13239452 0.88639033
0.030427035 0.13354304 0.88619983
0.022231987 0.13561189 0.88895559
0.027396303 0.13697678 0.88841665
0.031907249 0.13719536 0.88715822
0.036608826 0.1384308 0.88583326
0.063482523 0.13766375 0.88619995
0.02886516 0.14057976 0.889
0.032387864 0.14202729 0.889
0.036873695 0.1421589 0.88724142
0.040951684 0.14357777 0.88505346
0.062225223 0.14339048 0.8859334
0.033850577 0.14641739 0.88930011
0.037109502 0.14701957 0.88794059
0.041629851 0.14792292 0.88544005
0.058451552 0.14819533 0.88510013
0.061264902 0.14729115 0.88758659
0.038235243 0.15095553 0.88842219
0.041847847 0.15209599 0.88744146
0.046603911 0.15358979 0.88582659
0.051017523 0.1547637 0.88500017
0.057213891 0.15302582 0.88637334
0.060934346 0.15158871 0.88760674
0.042579327 0.1567968 0.88852388
0.046762224 0.15724 0.88702834
0.051922798 0.15747651 0.88636643
0.056685664 0.15668902 0.8884533
0.043374211 0.16167061 0.88903332
0.047070704 0.16196828 0.88839251
0.05200645 0.16185914 0.88779235
0.055420093 0.16132993 0.8894335
0.043787125 0.16538544 0.889
0.047313422 0.1668435 0.88905829
0.051870842 0.16683561 0.88901663
0.048761126 0.17034659 0.889
0.051273357 0.17042962 0.88943338
0.068857871 0.10947851 0.89160025
-0.0009828175 0.11376278 0.8926779
0.0012343535 0.11382157 0.89097279
0.068396173 0.11405247 0.89278889
-0.0016513681 0.11774372 0.89390546
0.0023453184 0.11787477 0.89237064
0.0062217503 0.11883716 0.8913002
0.068551026 0.1175423 0.89300001
0.003463066 0.12201127 0.89431143
0.0071335426 0.12312874 0.89285862
0.011479897 0.12430544 0.89088351
0.069029175 0.12305195 0.8938182
0.0090236915 0.1264599 0.89440042
0.012336843 0.12789872 0.89282405
0.0678671 0.1284963 0.89313561
0.014029195 0.13229574 0.89448369
0.016192276 0.13262558 0.89111137
0.066781119 0.13281678 0.89240485
0.018443294 0.13675778 0.89283365
0.022295224 0.13849241 0.89152807
0.025583651 0.13911359 0.89020026
0.066965036 0.13688801 0.89296055
0.022912474 0.14247285 0.89395577
0.02709835 0.14296576 0.8922711
0.030595267 0.14422706 0.89110023
0.027918711 0.14748608 0.89410573
0.031802781 0.14788041 0.89170498
0.063835889 0.14671937 0.89113355
0.033346441 0.1526072 0.89357358
0.036701694 0.15312491 0.89142805
0.062325086 0.15455343 0.89330018
0.037544612 0.1576819 0.89337105
0.040562935 0.15830228 0.8910169
0.05833957 0.15871598 0.89178914
0.061294653 0.15746249 0.89283359
0.038485751 0.16192517 0.89424473
0.041295625 0.16305074 0.89251363
0.057283025 0.16273461 0.89260036
0.060715668 0.16135065 0.89413375
0.042922396 0.1678814 0.8917135
0.045516688 0.16895853 0.89040011
0.053835861 0.16900915 0.89066678
0.056020893 0.16725919 0.89238358
0.04362737 0.17259565 0.89422524
0.047007069 0.17262077 0.89113361
0.052442443 0.17289357 0.89116681
0.055660333 0.17283158 0.89328903
0.043371074 0.17764418 0.89410037
0.047255427 0.17754069 0.89190769
0.052051637 0.17736855 0.8920877
0.043203358 0.18296166 0.8940782
0.047256634 0.18252179 0.89192611
0.051809199 0.18264475 0.89252406
0.044033404 0.18627171 0.89400035
0.047569662 0.1877009 0.89387542
0.051382862 0.18798257 0.89422691
0.048205294 0.19127509 0.89406699
0.050714027 0.1913036 0.89420038
-0.0026545604 0.11322576 0.89500004
-0.0032160368 0.11672217 0.89629406
0.071361907 0.11722619 0.89694178
-0.0028974239 0.12219298 0.89622498
0.0011018228 0.12330463 0.89565003
0.071787722 0.12182615 0.89703482
-0.0018240344 0.12681827 0.89692736
0.0025658938 0.12697919 0.89659172
0.0070325686 0.12765574 0.89578676
0.071345329 0.12637229 0.89673501
-0.00098915573 0.13037291 0.89843494
0.0029211503 0.13152216 0.89867091
0.0073782769 0.13187282 0.89726311
0.011380431 0.13203564 0.8961066
0.01570824 0.13488418 0.89510018
0.06913732 0.13323645 0.89521873
0.070947826 0.13183372 0.89700001
0.0085055372 0.13593875 0.89840025
0.012606977 0.13666396 0.8972168
0.016972946 0.13832209 0.89580011
0.014094283 0.14210431 0.89863366
0.017204309 0.14205493 0.89700848
0.02157028 0.1441707 0.89589995
0.017911803 0.14677906 0.89801925
0.022172889 0.14718845 0.89615244
0.02574268 0.14830947 0.89573324
0.018699324 0.15168774 0.89847523
0.022449186 0.15196848 0.89765954
0.027221423 0.15194818 0.89630836
0.031299338 0.15325113 0.89539999
0.023738557 0.15678024 0.89891696
0.027471602 0.15697916 0.89766693
0.032192945 0.15715016 0.89592373
0.035744715 0.15987794 0.89519995
0.027963242 0.16182424 0.89808124
0.032439128 0.16171174 0.89613342
0.037004109 0.16324173 0.89538336
0.059118517 0.16320838 0.89520019
0.061686769 0.16170698 0.89611685
0.028338877 0.16717465 0.89861697
0.032478921 0.16692096 0.89725208
0.037237465 0.16689152 0.89597499
0.040771596 0.1674466 0.89559996
0.058563091 0.16785672 0.89690673
0.060991786 0.16542619 0.89820027
0.029183367 0.17138864 0.89880013
0.032508589 0.17208129 0.8980521
0.03748152 0.17184758 0.89682984
0.041451104 0.17265919 0.8958534
0.058162283 0.17199601 0.8976112
0.03252231 0.17717025 0.89844471
0.037476812 0.17683117 0.89672595
0.041202042 0.17749803 0.89588332
0.054101802 0.17983408 0.89506668
0.056423899 0.17680025 0.89657801
0.033525571 0.18183666 0.89838016
0.037498001 0.18193798 0.89722973
0.040789805 0.18168831 0.89599997
0.054121949 0.1832329 0.89539993
0.055922031 0.18199158 0.89748907
0.034235016 0.18739712 0.89940006
0.037526812 0.18708459 0.89790028
0.041900754 0.18723254 0.89594442
0.045772281 0.18989472 0.89540011
0.05358696 0.1877483 0.89575553
0.056039028 0.18655376 0.89936697
0.038383361 0.19135599 0.89835024
0.042507425 0.19190466 0.89700752
0.047053538 0.19292803 0.89594996
0.053061292 0.19230421 0.8962779
0.042769916 0.19694552 0.89812106
0.047476731 0.19670035 0.89605182
0.052569639 0.19699185 0.89737785
0.0438172 0.20174775 0.89811695
0.047533114 0.20194197 0.89711869
0.051371291 0.20181271 0.89840019
0.044250127 0.20557168 0.89840025
0.047283027 0.20631397 0.89872026
-0.00099157949 0.13320602 0.90063643
0.0012483625 0.13351612 0.90084577
-0.00099483703 0.13784635 0.90359503
0.002582984 0.1374944 0.90266669
0.006850902 0.13803503 0.90117246
0.010769457 0.13910989 0.90090024
0.0040666773 0.14141081 0.90490001
0.0077658794 0.1418343 0.9033066
0.011619881 0.1425935 0.90172797
0.012470661 0.14775744 0.90253711
0.015810901 0.14833534 0.90095031
0.013322406 0.15290117 0.90316659
0.016483095 0.15286431 0.90097362
0.014178985 0.15809308 0.90403336
0.017522123 0.15783919 0.90258151
0.021529939 0.15793346 0.90120709
0.018657984 0.16186689 0.90319991
0.022553921 0.16274825 0.90187424
0.025868177 0.16326448 0.90010023
0.062835559 0.16335857 0.90061694
0.022581702 0.16798717 0.90298516
0.025893087 0.16761164 0.90096694
0.061769128 0.16769008 0.90138912
0.022794014 0.17303628 0.90303749
0.027092502 0.17287466 0.90094316
0.059533473 0.17357756 0.9014836
0.061283804 0.17209503 0.90250015
0.022797437 0.17789127 0.90316665
0.027580861 0.17771788 0.90122235
0.058729574 0.17787519 0.9020251
0.022590738 0.18233311 0.90332496
0.027585866 0.18278216 0.9013927
0.031338535 0.18302491 0.90052527
0.057933487 0.18221894 0.90275013
0.023466684 0.18595609 0.90460002
0.027621405 0.18805608 0.9025631
0.031779185 0.18775488 0.90111703
0.056101348 0.18927325 0.90036684
0.028491398 0.19244224 0.90345001
0.032890607 0.19248834 0.90197629
0.036984876 0.19343242 0.90101355
0.056130435 0.19188522 0.90083349
0.033868361 0.19687988 0.90453339
0.037908539 0.19780082 0.90202093
0.04097645 0.19926324 0.90010011
0.03830022 0.20241982 0.90297771
0.041684669 0.2031275 0.90090036
0.053728715 0.20321842 0.90280014
0.038620591 0.20598939 0.90389991
0.042754982 0.20784765 0.90223354
0.048189871 0.20923358 0.90157533
0.052531611 0.20684385 0.90249336
0.043682955 0.21105717 0.90399998
0.047866281 0.21175736 0.9034
0.052098926 0.21015821 0.90374994
0.00069221662 0.13989736 0.90600008
-0.0018434974 0.14249603 0.90644592
0.0020437797 0.14262268 0.9061802
0.0070277504 0.14451104 0.90586674
-0.00099937257 0.14522769 0.90771466
0.0025980324 0.14672899 0.90785867
0.0074526407 0.14752124 0.90624458
-0.0010004843 0.15046044 0.90872443
0.0032343427 0.15205567 0.90815592
0.0074559059 0.15181169 0.90669656
0.010825049 0.15246198 0.90555006
-0.001000843 0.15812418 0.90905023
0.0028723788 0.15744635 0.90862411
0.0074599963 0.15696202 0.90722251
0.011504927 0.1570704 0.90590012
0.002872657 0.16204931 0.90870965
0.0074620554 0.16206771 0.90745956
0.01230836 0.16201305 0.9059751
0.016452262 0.16282851 0.90543342
0.0079582464 0.16715126 0.90887636
0.012535568 0.16707897 0.90717059
0.017591631 0.16688745 0.90613341
0.0091723381 0.17251366 0.90913343
0.012544872 0.17226321 0.90781522
0.017592967 0.17195687 0.90620011
0.020961691 0.17354655 0.90570003
0.063384429 0.17323607 0.90848351
0.009179512 0.17772591 0.90984434
0.012549089 0.1773873 0.90811145
0.017597862 0.17706895 0.90648162
0.062025264 0.17720516 0.90717512
0.0091810813 0.18114167 0.90999991
0.012554034 0.18253499 0.90850765
0.017605903 0.18221547 0.90691882
0.059842758 0.18122202 0.90616685
0.061155599 0.18262066 0.90893346
0.013830714 0.18725617 0.90886676
0.017615713 0.18738052 0.90742248
0.022090686 0.18761389 0.90583342
0.060060691 0.18611087 0.90946668
0.014268386 0.19124228 0.90973324
0.017633388 0.19263807 0.90833354
0.022660812 0.19216734 0.906115
0.026026249 0.19290006 0.90560007
0.018666167 0.19753446 0.9090935
0.022709204 0.19764958 0.90806699
0.027727995 0.19720373 0.90602231
0.031770635 0.19746193 0.90566003
0.023999471 0.20246099 0.90881693
0.027766788 0.20254792 0.90731132
0.032802533 0.20229401 0.90617412
0.036153991 0.20297444 0.90545005
0.028154802 0.2069618 0.90890694
0.033084001 0.20758083 0.90810037
0.037308283 0.20790856 0.90615565
0.054738469 0.20806193 0.90560007
0.034627087 0.21238825 0.90969992
0.03794774 0.21283334 0.90798545
0.042390276 0.21302557 0.90641123
0.047984436 0.21396554 0.90563345
0.053346276 0.21297026 0.90651923
0.039729964 0.21668996 0.90999991
0.043240525 0.21769187 0.90800035
0.04806206 0.21768883 0.90710396
0.052990515 0.21773793 0.90819198
-0.0010041668 0.14762099 0.91206926
0.00069552736 0.14903349 0.91033334
0.068870634 0.14960645 0.9138335
0.071330525 0.14840017 0.91478032
-0.0010039809 0.15437888 0.91190028
0.00069545099 0.15240349 0.91023326
0.068915844 0.15310633 0.91443348
0.07063029 0.15312591 0.91455019
0.00069557829 0.15666519 0.91039991
0.068881512 0.15813027 0.91397786
-0.0010026104 0.16263872 0.9106555
0.00069564203 0.16345447 0.91048324
-0.0010051915 0.16815208 0.91300011
0.0023964669 0.16795653 0.91193336
0.0057927989 0.16862231 0.91094995
-0.0010062557 0.17258111 0.91396689
0.0027433336 0.17237572 0.91378021
0.0068191043 0.17271586 0.91198671
0.065390363 0.17321539 0.91283339
-0.0010071732 0.17529035 0.91480041
0.0035419625 0.17583628 0.91468924
0.0064901887 0.17708927 0.91354686
0.063544914 0.17790866 0.91078329
0.06543573 0.17673303 0.91346675
0.0072929906 0.18236656 0.91296262
0.06308461 0.18329547 0.91230011
0.065471545 0.18023105 0.91396695
0.0075112428 0.18693511 0.91349542
0.011738738 0.1881091 0.91094995
0.062337995 0.18717167 0.91299355
0.008652267 0.19099176 0.91393358
0.012364014 0.1927743 0.9124096
0.061200406 0.1904007 0.91381693
0.013477551 0.19631089 0.91363358
0.016020037 0.19784454 0.91286677
0.018018691 0.2022409 0.9135502
0.021661183 0.20291018 0.9114666
0.019464772 0.20590596 0.91473371
0.023187703 0.20700736 0.9135868
0.0261958 0.2085693 0.91149998
0.031247605 0.20994191 0.91009992
0.056713015 0.20911454 0.91018337
0.028162632 0.21216862 0.91330433
0.032127462 0.21269205 0.91099995
0.056748331 0.21263316 0.91074997
0.073250353 0.14729558 0.91531688
0.07306765 0.15232874 0.91657782
0.076044343 0.15201931 0.91813713
0.072528668 0.15693994 0.91695827
0.076134212 0.15561849 0.91922212
0.069016337 0.16269925 0.91576684
0.071275309 0.16170779 0.91737348
0.068567149 0.16724981 0.9173668
0.070984267 0.16586205 0.91913319
0.00069909293 0.17362647 0.91500038
0.067403965 0.17231424 0.91706675
-0.0015767505 0.17823686 0.91536695
0.0018367758 0.17760456 0.91503376
0.067518301 0.17773092 0.91862202
-0.0016941974 0.1829558 0.9174
0.002406443 0.18229233 0.91577792
0.066301957 0.1826518 0.91758871
-0.0018645398 0.18767981 0.91713327
0.0024078649 0.18755051 0.91649997
0.0058185509 0.18894526 0.91500038
0.063890249 0.18909667 0.91573346
0.065775611 0.18790019 0.91821098
-0.0010108681 0.19301289 0.91815537
0.0024118726 0.19291823 0.91770351
0.0069577559 0.19296606 0.91523367
0.062309112 0.1931745 0.91757208
0.0029857128 0.19765599 0.91856652
0.0075403103 0.19788359 0.91697776
0.012077694 0.1980591 0.91516703
0.058888625 0.19973084 0.91763312
0.061514102 0.19650231 0.91849995
0.0041303416 0.20175247 0.91906667
0.0078933183 0.2022368 0.91815984
0.012917777 0.20254673 0.9171285
0.01607151 0.20359138 0.91580009
0.058929272 0.20157692 0.91826648
0.0092792772 0.20532055 0.91973335
0.013042999 0.20653239 0.91903335
0.017799374 0.20781137 0.91688329
0.021750391 0.20884858 0.91520023
0.018173596 0.21152747 0.91845322
0.022926018 0.21233284 0.91676664
0.026296381 0.21447644 0.91500038
0.069373056 0.16953331 0.92050004
0.072069548 0.16810055 0.92203331
0.069531336 0.17249453 0.92260009
0.0713704 0.17192228 0.9241333
0.069677852 0.17715679 0.92454439
0.068761274 0.18216825 0.92379999
0.06786865 0.187241 0.92338878
0.066601776 0.19204946 0.92173338
0.063235953 0.19774906 0.92112005
0.066091225 0.19652531 0.92261684
0.0029920314 0.20203578 0.92035556
0.0058505586 0.20367609 0.92003334
0.062077571 0.20196168 0.92262238
0.0041522132 0.20625821 0.92393327
0.0075924154 0.20753318 0.92322779
0.01159192 0.20864035 0.92180008
0.061068915 0.20643678 0.9247334
0.012996408 0.21238698 0.92282379
0.073307484 0.17242415 0.92683315
0.07578788 0.17290714 0.92757815
0.072444715 0.17759711 0.92683882
0.075853325 0.17754599 0.9283725
0.069865428 0.18367112 0.92703319
0.072547637 0.18303074 0.92816108
0.075204551 0.18404296 0.92891502
0.069983505 0.18657149 0.92860007
0.071766846 0.18670541 0.92926675
0.06905739 0.19244634 0.92778325
0.06763307 0.19853882 0.92802215
0.063760996 0.20419009 0.92624992
0.066529363 0.20214687 0.92873329
0.003013368 0.2070062 0.92728883
0.075292408 0.18166281 0.93000007
0.071856424 0.18809132 0.93042237
0.075362183 0.18702598 0.93086225
0.071949631 0.19064696 0.93163341
0.070415594 0.19815163 0.93433338
0.068086818 0.20334721 0.93225849
0.001289873 0.20793407 0.93144464
