# .PCD v0.7 - Point Cloud Data file format
VERSION 0.7
FIELDS x y z
SIZE 4 4 4
TYPE F F F
COUNT 1 1 1
WIDTH 1324
HEIGHT 1
VIEWPOINT 0 0 0 1 0 0 0
POINTS 1324
DATA ascii
0.0023228778 -0.029977441 0.1192466
-0.0022206204 -0.028003702 0.11967951
0.014152361 -0.028574077 0.1190955
-0.017424017 -0.027202163 0.11943036
0.015086801 -0.027892005 0.11945063
0.017165516 -0.02585924 0.1192196
-0.026943125 -0.018671855 0.11957639
0.018564146 -0.018186636 0.11927348
-0.028431641 -0.014963549 0.11907113
0.019124653 -0.014131602 0.11945802
0.020041699 -0.011242727 0.11954898
-0.030492699 -0.010718601 0.11941129
0.019704392 -0.010303826 0.11932451
-0.03181335 -0.007033634 0.11966771
-0.031123536 -0.002318023 0.11923552
0.021720493 -0.0027032965 0.11950785
0.020203574 -0.00041211417 0.1190477
-0.032075234 0.005855626 0.11942613
0.020586113 0.0076141809 0.11983973
-0.031499915 0.0099680247 0.11912626
-0.03025328 0.010213099 0.1191324
-0.030049969 0.013920712 0.11980373
-0.03082926 0.014732567 0.1197468
-0.02836889 0.023318186 0.11964089
-0.028736906 0.026458727 0.11917228
0.017869094 0.026954656 0.11985499
-0.027912065 0.028330103 0.11995381
-0.026402894 0.028891072 0.11937976
-0.01503797 0.029866049 0.11974955
0.014274345 0.029814068 0.11906135
-0.024652453 0.030817572 0.11964858
-0.010888623 0.031822778 0.11906451
-0.0032975916 0.031612977 0.11951613
0.0099518932 0.031845842 0.1194157
0.010195006 0.031143568 0.11900681
0.014073535 0.03120094 0.11905885
-0.0070459587 0.032269381 0.11979043
0.0017674692 0.032234278 0.11937851
0.0058406033 0.032457437 0.11974651
-0.0071947062 -0.028836966 0.1206578
0.017466092 -0.027099077 0.12055069
0.017916879 -0.018419029 0.12065274
0.019081417 0.00053782854 0.12097445
0.01996718 0.013603724 0.1201939
0.020377239 0.014045296 0.1206916
0.022339012 0.016268894 0.12034822
-0.030768249 0.0173478 0.12086391
-0.029439311 0.024241997 0.12010014
-0.011420627 0.029326029 0.12088063
-0.019960541 0.031433668 0.12082544
-0.015489016 0.033175144 0.12069207
-0.010261773 -0.030073561 0.12138659
-0.001286828 -0.030828752 0.12191391
-0.01088927 -0.027890529 0.12142098
-0.02102912 -0.023874253 0.12142211
-0.021422174 -0.021577366 0.12181708
-0.029032689 -0.011159145 0.12152275
-0.032472365 -0.0024535693 0.12180367
-0.029982984 0.00014734641 0.12180334
0.018420929 0.0068611116 0.12139714
-0.030832227 0.010834056 0.12177676
-0.030354066 0.015847411 0.12197366
0.01962525 0.0166668 0.12139818
-0.030065442 0.020326389 0.12120637
-0.031050654 0.023469843 0.12141436
0.017853078 0.028072964 0.12193838
0.0168925 0.029879231 0.12152946
-0.025035802 0.030693825 0.12187815
0.00040981546 0.030888781 0.12114748
0.01018086 0.030961521 0.12183124
-0.021142291 0.031168258 0.12168342
-0.015585251 0.0313976 0.12149224
-0.011637224 0.031758226 0.12183169
-0.0078225248 0.032784767 0.1213493
-0.010990922 0.033143673 0.12150857
0.0020985268 -0.031033399 0.12214392
0.006256572 -0.031350322 0.12292379
0.014676288 -0.031164255 0.12258616
0.0022533557 -0.030268805 0.12280861
-0.013890913 -0.029535636 0.1226894
-0.0016361779 -0.029565096 0.12294963
7.2783791e-05 -0.029052638 0.12252122
0.014500721 -0.028623441 0.12285769
-0.01792104 -0.027131028 0.12256226
0.017654788 -0.027368248 0.12274602
0.017871825 -0.025992928 0.12240872
-0.023930598 -0.021589365 0.12282339
0.019037165 -0.01989818 0.12242749
-0.026724432 -0.018113829 0.12236702
0.019397968 -0.016320763 0.12231499
0.019067217 -0.015663248 0.12215471
-0.029214058 -0.014532058 0.12218022
0.021854248 -0.006369615 0.12285835
-0.032131791 -0.0051610209 0.12285161
-0.031417456 -0.0021061637 0.12287521
0.021928005 -0.0019887709 0.1229704
0.022760464 -0.0019792696 0.12274653
-0.030872978 0.0086777629 0.12267241
0.02283838 0.01730084 0.12296087
-0.03091762 0.018583175 0.12215063
0.021909883 0.020880941 0.12244684
0.01745248 0.023490144 0.12221441
-0.02822439 0.028305134 0.12258548
0.018368235 0.029455552 0.12221107
0.01439236 0.030440113 0.12247729
0.017318122 0.03042323 0.12255621
-0.019352928 0.031253278 0.12265232
0.011133975 0.031401135 0.12202704
-0.0023524063 0.032721493 0.12202683
-0.0056405477 -0.030737109 0.12340713
-0.0098136989 -0.029641652 0.12353277
-0.0055586882 -0.029161794 0.12303314
0.0027100695 -0.029783946 0.12372676
-0.0094546527 -0.028579883 0.12393445
0.01439211 -0.028230781 0.1237902
-0.020831253 -0.023815483 0.1230019
-0.019736512 -0.023198642 0.12345999
-0.023367474 -0.021088662 0.12353778
-0.026412273 -0.018381853 0.12391758
-0.028323755 -0.014492551 0.1239031
-0.029251274 -0.013295399 0.12301686
-0.030772142 -0.011987281 0.12334454
-0.029880056 -0.010632989 0.12354374
0.02039298 -0.01021864 0.12314391
0.0214449 -0.010585241 0.12344724
0.02121474 -0.0057777809 0.12304252
-0.030359793 -0.0024479693 0.12345999
-0.032416396 0.0017475309 0.12302834
-0.031341281 0.0016143175 0.12345988
-0.03151447 0.0064765066 0.12300581
-0.030019641 0.014559727 0.12390354
0.019897131 0.019539243 0.12343252
0.019479176 0.02202143 0.12358171
-0.031101782 0.023397408 0.12348697
-0.029071447 0.025878243 0.12308034
-0.028213149 0.027677484 0.12311944
-0.026809918 0.029073335 0.12356701
-0.024670526 0.029595522 0.1236071
0.014561263 0.02998439 0.12387386
-0.023579586 0.031043092 0.12325361
-0.020864114 0.03162057 0.12363011
-0.0022650086 0.031355981 0.12333404
0.0012851027 0.03158927 0.12316903
0.0056856591 0.031692982 0.12374061
0.0016767923 0.032966614 0.12301451
0.011322674 -0.032069106 0.12445033
0.0064769071 -0.030483469 0.12402451
0.010328208 -0.029534874 0.12410462
-0.013416177 -0.028231354 0.12407815
-0.017140051 -0.026583588 0.12441954
-0.029066805 -0.011386291 0.12457436
0.021866415 -0.011800081 0.12490577
-0.031929579 -0.0099663325 0.12439477
-0.032100577 -0.0067582028 0.1249198
-0.031250782 -0.0066342144 0.12442836
-0.031325597 0.0058331098 0.124358
-0.031240582 0.0097342217 0.12470272
-0.031531181 0.020605713 0.12458512
-0.030316679 0.022055071 0.12403002
0.018787403 0.0234037 0.12456223
-0.013980715 0.029694017 0.12446517
-0.01122561 0.029572055 0.12415245
0.00070474017 0.030998943 0.12438068
-0.0063999337 0.031684428 0.12417376
0.0097315116 0.031305976 0.12475628
0.013020144 0.031903028 0.12410808
0.0069591254 -0.031642504 0.12573397
0.015436471 -0.031100392 0.12538749
-0.015379412 -0.02920403 0.12535101
-0.018242821 -0.027568612 0.12516961
0.020012546 -0.020244751 0.12583819
-0.027382724 -0.018479597 0.1251502
0.020615906 -0.017601896 0.12593222
-0.029151291 -0.015005051 0.12557572
0.020718347 -0.014402543 0.12564492
0.021650147 -0.0082959607 0.12523812
0.022850938 -0.0066704517 0.12587941
-0.031819839 -0.002819296 0.12577677
0.02306168 -0.0026668152 0.12583023
0.023736119 0.0023953891 0.12546358
-0.032445505 0.0060446993 0.12547293
0.024156179 0.0065095243 0.12562191
-0.031141406 0.010334006 0.12563339
-0.031286214 0.012333029 0.12526613
-0.030875679 0.01580205 0.12525678
0.020495968 0.01640184 0.12593889
-0.031019676 0.017418811 0.12592819
-0.02914897 0.026532702 0.1254048
0.019822495 0.02953195 0.12584698
0.018035674 0.03074055 0.12594014
0.0017904276 0.031816211 0.12597999
0.015360998 0.031068766 0.12509134
-0.016065603 0.032991376 0.125002
-0.011331697 0.032872643 0.12511516
0.0064515835 0.03280618 0.12524766
-0.0065983967 0.033044204 0.1254684
0.0030910242 0.03301217 0.12548056
0.0032409339 -0.031335201 0.12612689
-0.0090135299 -0.030234383 0.12616569
-0.012468043 -0.029570695 0.12632579
0.011991709 -0.029313825 0.12655589
0.014784196 -0.029009575 0.1261256
-0.013316334 -0.028198225 0.12618449
0.011757578 -0.028372556 0.12628335
0.017068921 -0.028783118 0.12657914
0.018554589 -0.028185355 0.12632734
0.019173918 -0.027039958 0.12666941
-0.020804653 -0.024807077 0.12613422
-0.023051715 -0.022640605 0.12651947
-0.023361795 -0.021241803 0.1265077
-0.025596822 -0.020717032 0.12605327
-0.026236491 -0.018361472 0.12668639
-0.030108131 -0.010843734 0.12637961
0.021685001 -0.010492347 0.12663209
-0.031151904 -0.0083625652 0.12699294
0.022161024 -0.0056250514 0.12671983
0.02301928 -0.0012372684 0.12644568
-0.031461187 0.0015012688 0.12644309
-0.032705061 0.0034331409 0.12601441
-0.031651802 0.0042074625 0.12672156
0.021878079 0.0044495771 0.12645856
0.023296459 0.0076460205 0.12647983
0.020846881 0.013547045 0.1265223
-0.030617034 0.014133311 0.1261234
0.020693729 0.025270084 0.12613109
-0.028243545 0.027780874 0.12655571
-0.017824054 0.030824414 0.12601936
-0.014434422 0.031711489 0.12622637
-0.011361355 0.031385146 0.12607929
-0.0078480169 0.031745881 0.12635422
0.005577263 0.031805277 0.1264289
0.014295096 0.031045942 0.12650263
-0.002832192 0.032336865 0.12620431
0.010538178 0.032120619 0.12619957
-0.00071429182 -0.031275265 0.12705538
0.0012410949 -0.030049937 0.12707895
-0.0057291538 -0.029027428 0.12792349
-0.0018105006 -0.029604333 0.12732983
-0.0098262476 -0.028651562 0.1277979
0.008796352 -0.028657291 0.12709072
-0.017836019 -0.024993621 0.12733462
0.020748205 -0.024754927 0.12709302
0.021704135 -0.017588673 0.12783629
-0.028673019 -0.014111498 0.12776327
0.022350892 -0.013774037 0.12798268
-0.030327901 -0.005081018 0.12737331
0.021072768 0.0018978883 0.12709168
-0.030272841 0.006220242 0.1275968
-0.029997723 0.0096284691 0.12752303
-0.030139599 0.014379329 0.12785274
0.021398781 0.015479518 0.12791526
-0.030574733 0.021189954 0.12746623
0.020953527 0.022741942 0.12777549
-0.029865962 0.025739918 0.12750709
-0.027184758 0.029226512 0.12770012
-0.026159253 0.030665064 0.12706289
-0.020839529 0.032148905 0.12715074
0.0067117494 -0.032274026 0.12866455
-0.011420697 -0.030521512 0.12812713
0.0020024022 -0.029544378 0.12808901
0.0060027791 -0.029416662 0.12829074
0.020698795 -0.028958598 0.12867248
-0.013871261 -0.027693527 0.12870857
-0.019921504 -0.023011638 0.12852842
-0.023757353 -0.019870976 0.12826759
0.021877456 -0.01974741 0.12878275
-0.029944029 -0.014185658 0.12833112
-0.029568871 -0.0099083213 0.12847897
-0.030586913 -0.0020933626 0.1284402
-0.030774739 0.0028400738 0.12844753
0.024882011 0.0040374072 0.12849793
0.025279539 0.0081367698 0.12863648
0.024429789 0.0093215518 0.12877217
0.024816923 0.010175417 0.12816817
-0.030870868 0.013055589 0.12868047
-0.030695628 0.018825263 0.12834507
-0.030441597 0.023025129 0.12872714
-0.026345812 0.028557662 0.1283378
-0.025759425 0.029782023 0.12833816
0.020357415 0.029813688 0.12875783
-0.010012345 0.030185342 0.12891299
0.010963227 0.030508673 0.12800348
0.013674844 0.030605335 0.12820458
-0.022896456 0.03117617 0.12815124
-0.016393546 0.031741198 0.12802219
-0.0019591777 0.03100636 0.12832874
0.0023751203 0.031398416 0.12826744
0.017753836 0.03102801 0.1284624
-0.017521761 0.03295638 0.12874186
-0.0017445972 0.032853119 0.12811869
0.011756556 -0.032196574 0.12919402
-0.0020028222 -0.031354032 0.12929904
0.0024263614 -0.03176742 0.12997091
-0.0055340319 -0.030992361 0.12932596
0.015786093 -0.030616062 0.1294474
-0.013848265 -0.029970037 0.12958273
-0.0022520348 -0.029650524 0.12908778
0.014482072 -0.02974146 0.12948954
-0.018793944 -0.028313905 0.12951669
0.0099917771 -0.028842162 0.12945658
0.019455744 -0.027143883 0.12976623
-0.016583325 -0.026257494 0.12998605
0.020771939 -0.024128277 0.12932804
-0.024498463 -0.022305075 0.12985069
-0.027680293 -0.018740725 0.12905183
-0.029586524 -0.015151965 0.12955236
0.021948101 -0.015044667 0.12922448
-0.031474318 -0.011823912 0.12945217
0.02263312 -0.011070508 0.12938461
0.022566319 -0.010754868 0.12985653
0.022186214 -0.00769046 0.12902957
-0.033011861 -0.0067259716 0.12927133
0.022774203 -0.0055237981 0.12914643
-0.032606825 -0.0024201672 0.12989539
0.023641298 -0.0020728756 0.12969315
0.023860807 -0.001992214 0.12987751
-0.032963578 0.0012196619 0.12925291
0.023805883 0.0017837742 0.12970561
-0.033029228 0.006401591 0.12923259
-0.031957682 0.010330106 0.12983623
-0.030977938 0.015804589 0.1291489
-0.028352639 0.026406331 0.12906915
0.018297652 0.030635243 0.12901959
-0.025262997 0.031834602 0.1296393
-0.019234706 0.031358782 0.12968767
0.010787137 0.031847097 0.12942323
0.012955758 0.031578191 0.12916532
0.015887054 0.031198323 0.12934285
-0.02328882 0.032893881 0.12992424
-0.002670292 0.032913107 0.12937176
-0.011456439 0.033561792 0.12951201
0.0011018179 0.033274565 0.12944129
0.0058774492 0.033538923 0.12942463
-0.0095911864 -0.030225595 0.13019928
-0.0010732557 -0.030512657 0.13063198
0.010695057 -0.029385077 0.1300922
0.015617983 -0.029408148 0.13057709
-0.013239028 -0.028403496 0.13014632
-0.021598164 -0.024799593 0.13057756
0.021780595 -0.023359764 0.13063651
-0.023495477 -0.021595316 0.13061783
0.022013314 -0.020072818 0.13067308
-0.025959378 -0.018287729 0.13031259
-0.028635291 -0.015518036 0.13097858
-0.030473063 -0.010953046 0.1304583
-0.030796694 -0.0070721726 0.13043857
-0.031643119 0.0013513652 0.13042048
-0.030769842 0.0052295695 0.13042736
-0.030504994 0.0094836298 0.13081279
-0.031278849 0.012958752 0.13026851
-0.029724617 0.026311452 0.13035473
-0.027339092 0.029244717 0.13024577
-0.026733857 0.029391915 0.13066989
-0.025176588 0.03086851 0.13045648
-0.010682737 0.031656835 0.13057655
0.005412213 0.03161221 0.13057774
-0.019262146 0.032390464 0.13095635
0.0015485354 0.032149725 0.13029858
0.0068170065 -0.032803006 0.13196078
-0.016406359 -0.029859032 0.13176727
-0.0087986896 -0.029756324 0.13112828
-0.0047204643 -0.029988579 0.13113445
0.0071837353 -0.029662473 0.13126904
0.022721142 -0.022613231 0.13119054
0.022794629 -0.018225772 0.13161063
0.022909172 -0.017089318 0.13126171
0.023317525 -0.013603328 0.1317665
-0.029776882 -0.012547896 0.13142091
-0.030772861 -0.0039660768 0.13125414
0.022932258 -0.00084495079 0.13164502
0.025250521 0.0027842554 0.13173687
0.023457961 0.0034598047 0.13126537
0.025361283 0.0068704602 0.13164139
0.022882326 0.0094185378 0.13195053
0.025684167 0.0092328396 0.13195419
0.025334153 0.010952811 0.1314345
-0.030544383 0.014228122 0.13105834
-0.031275332 0.015925355 0.13177162
0.022943333 0.022049055 0.13148513
0.024536304 0.026793046 0.13199091
-0.028262533 0.027117271 0.13121939
0.023056868 0.027409308 0.13163555
-0.025312288 0.028011065 0.13119811
-0.015103837 0.030379426 0.13126907
-0.01310586 0.030338097 0.13110936
-0.003759467 0.031461198 0.13109085
0.0092895729 0.031710096 0.13107157
0.014398996 0.031841245 0.13180763
0.015606687 0.031716254 0.13172281
-0.01606597 0.03341772 0.1313324
0.0037571192 0.033930395 0.13182506
0.0036808976 -0.032798715 0.13241613
0.011145332 -0.032475319 0.13207024
0.0027784221 -0.030831374 0.13297006
0.015673926 -0.030071847 0.13252482
-0.0099531664 -0.029273968 0.1323024
0.0009757122 -0.029649852 0.13293532
0.020117113 -0.029442852 0.13287526
-0.0185709 -0.028219763 0.13219205
-0.020773975 -0.025988439 0.13263425
0.021762006 -0.025449377 0.13285923
-0.020334754 -0.022052675 0.13244879
-0.027942071 -0.018958621 0.13217908
-0.0298882 -0.015397834 0.13271633
0.023353172 -0.015837071 0.13261542
0.023796802 -0.010886162 0.13215569
-0.032705221 -0.0099718943 0.13205665
0.023173351 -0.0095218597 0.13258711
-0.033306293 -0.0068264366 0.13237154
0.024340643 -0.006860151 0.13233605
-0.032899976 -0.0031268448 0.13268268
0.024329463 -0.0035731802 0.13269666
-0.030376032 -0.00087440293 0.13202885
-0.033580448 0.0035853386 0.13245931
-0.033009999 0.0062922202 0.1320442
-0.031765226 0.010146978 0.13249156
-0.030978119 0.014379936 0.13269648
-0.031126257 0.019595116 0.13250703
0.025997365 0.023713507 0.13253826
-0.021548383 0.030959267 0.13230842
0.01434037 0.031325139 0.13270128
0.019769002 0.031290799 0.13238657
0.010518532 0.032636125 0.13231385
-0.012220996 0.033970661 0.13267338
-0.0027899921 0.033599801 0.13279337
0.0067329155 0.033569567 0.13220549
-0.00059118681 -0.03079699 0.1333645
0.012601031 -0.030151052 0.1331141
0.017601475 -0.029539753 0.13339886
0.019954164 -0.027448829 0.13309109
-0.023071099 -0.022725306 0.13378853
-0.023721306 -0.020010771 0.1332106
-0.029536333 -0.01367448 0.13375765
-0.030556746 -0.012044269 0.13327628
0.02434562 -0.009158073 0.13365912
0.02492043 -0.0050608711 0.13355255
0.025252001 -0.0010502147 0.13341784
-0.032391701 -0.00011730101 0.13354635
-0.031019766 0.0028713066 0.13319165
-0.030570213 0.011724439 0.13359749
-0.030127913 0.01820224 0.13318703
-0.030043244 0.022015925 0.13384581
-0.028242694 0.028087305 0.13386625
0.021061715 0.028588571 0.13344428
-0.02469385 0.029082498 0.1339843
0.018186484 0.030083509 0.13314843
-0.026167532 0.031337667 0.13392738
-0.018894324 0.031099834 0.13378829
-0.012315718 0.031820923 0.13305587
0.012665737 0.031945162 0.13348597
-0.015892508 0.032243535 0.13308841
-0.00048743561 0.032730319 0.13325536
0.00057038007 0.032698274 0.13316086
-0.0221432 0.033434991 0.13398364
-0.0051622284 -0.031045171 0.13441956
-0.0015393565 -0.031248042 0.13440517
-0.0090629859 -0.03054525 0.13470301
-0.0052743675 -0.030246887 0.13423675
0.0032306723 -0.030063676 0.13471758
0.0097889742 -0.030305142 0.13437849
-0.013274159 -0.029469715 0.1343537
-0.0094940718 -0.029781513 0.13476455
0.0061992374 -0.029917087 0.13438439
0.01149326 -0.029305419 0.13477087
0.014130916 -0.029217813 0.13480985
-0.01258876 -0.028971944 0.13486993
0.022697808 -0.022482434 0.13442153
-0.023442633 -0.021283142 0.13471189
-0.025737936 -0.018329266 0.13497686
0.022983335 -0.018938065 0.13433272
0.02403501 -0.016154584 0.13417283
-0.030991629 -0.0061710114 0.13456613
0.023466634 -0.0022815028 0.13436499
-0.031980619 0.0025453728 0.1345703
-0.030784709 0.0055311616 0.1344949
0.025954019 0.0057744361 0.13474572
0.025665266 0.0069717905 0.13475618
-0.030493651 0.0093222344 0.13462058
0.023121048 0.010770074 0.13410151
0.025654282 0.011045239 0.13456246
0.025746958 0.013760681 0.1345138
0.026484095 0.013876969 0.13421184
0.026338445 0.017403588 0.13401675
-0.03121485 0.022009034 0.13403594
0.024037052 0.024245027 0.1343067
-0.030116674 0.025714055 0.1349448
-0.027465066 0.026902221 0.13406888
-0.023930337 0.030747974 0.13471159
-0.0063758828 0.031435039 0.13496187
0.021986712 0.031214271 0.1344946
0.0059166374 0.032057609 0.134785
0.0092932899 0.032024503 0.13491037
0.002908645 -0.031587586 0.13590735
0.012070257 -0.031947408 0.13559437
-0.014895996 -0.029167164 0.13523462
-0.016783014 -0.026322762 0.13505372
0.022632346 -0.024556747 0.13563365
-0.019319579 -0.023467284 0.13503873
-0.024484279 -0.021334838 0.13587284
-0.022495516 -0.021122819 0.13571802
0.023783678 -0.02011092 0.13514957
-0.028559692 -0.015153185 0.13537323
0.024553433 -0.015816525 0.13587439
0.024519585 -0.012724452 0.1352331
0.025081744 -0.012401132 0.13506126
-0.031512685 -0.01166828 0.13545069
-0.030227717 -0.01154484 0.13521323
0.024912886 -0.0071448945 0.13596377
0.026046855 -0.0066030803 0.13567919
-0.030867551 -0.0028891908 0.1350981
-0.030953936 0.00069900881 0.13523838
-0.03255653 0.0021511046 0.13577095
0.025944829 0.0029037797 0.13516563
0.026920499 0.010248507 0.13524404
-0.031178253 0.014022215 0.13538802
-0.030742247 0.02414071 0.13575274
-0.030266926 0.025392909 0.13584566
0.024244279 0.028301451 0.13538516
-0.027446851 0.029079948 0.13535157
-0.012026742 0.030903868 0.13564473
-0.0028105788 0.031544067 0.13511842
0.00077772141 0.031905886 0.13530779
0.013855757 0.031086126 0.13588065
0.014224959 0.032408237 0.13544494
-0.019114356 0.033398125 0.13549507
0.0013938304 0.033287544 0.1355949
-0.00084036321 -0.031065039 0.13679525
0.0074553275 -0.031995893 0.13620508
-0.0095631853 -0.030157397 0.13649666
-0.0058977669 -0.030767376 0.13692188
0.015515912 -0.030691337 0.13669372
-0.017597865 -0.027834535 0.13633743
-0.020815115 -0.024956144 0.13653636
-0.026970671 -0.019008189 0.13639125
0.024297325 -0.0085453521 0.13643631
-0.032685347 -0.0076456531 0.13658333
-0.032543574 -0.0029323862 0.1366812
0.024994908 -0.0024476657 0.13610411
-0.031863675 0.00095034618 0.13654241
0.02533967 0.0013774224 0.13640696
0.025031285 0.0032317592 0.13623953
-0.032181762 0.0057965694 0.13601795
-0.031350564 0.0098064858 0.13682151
-0.030713247 0.014380004 0.13613936
0.026668822 0.015702702 0.13698584
0.024931761 0.022405265 0.13670123
-0.028678928 0.024076488 0.13658082
0.026786529 0.024442058 0.13638201
0.023933593 0.027824106 0.13600233
-0.025419731 0.03283795 0.136778
-0.011797441 0.032246623 0.13688701
0.010777464 0.032109797 0.13623753
-0.023606142 0.033679247 0.13693595
-0.016379494 0.033012886 0.13621593
-0.012521095 0.033542071 0.13681966
-0.0023308061 0.03378994 0.13623753
0.0055935271 0.03301793 0.13673082
-0.007828691 -0.03101022 0.13782769
-0.0051330552 -0.030929651 0.1376406
0.00045482349 -0.030218067 0.1379289
0.0080316961 -0.0304885 0.13721853
0.011655589 -0.03055671 0.13721144
-0.013246119 -0.029135318 0.13736114
-0.010509401 -0.029293653 0.13798535
0.01687352 -0.029302713 0.13756958
0.022391925 -0.024163848 0.13741136
-0.023182772 -0.022034172 0.13752788
0.023551429 -0.021243786 0.13793588
-0.025757866 -0.018518791 0.13794559
-0.02930424 -0.015323607 0.13700008
-0.02795402 -0.015929518 0.13787448
-0.030921055 -0.011626139 0.13724542
0.025437713 -0.0095883915 0.13771397
-0.031219605 -0.0078448066 0.1370936
-0.032655291 -0.001397022 0.13763893
-0.031102538 0.0048081293 0.13729027
-0.031050427 0.0091765141 0.13792121
0.024273356 0.010027507 0.13783827
-0.030065617 0.013635283 0.13722906
-0.029701259 0.017351609 0.13763824
-0.029676249 0.020734232 0.13755026
-0.02643274 0.027413808 0.13752615
0.017947381 0.029983802 0.13773957
-0.017387174 0.030950829 0.13794208
0.01377947 0.030897589 0.13765082
-0.008075159 0.031721361 0.13753912
-0.0046343305 0.031645618 0.13782769
0.0095868567 0.031758357 0.13736041
0.019985594 0.031522453 0.13793647
0.0010978045 0.032827582 0.13709205
0.0049507581 0.032074675 0.13719961
0.013813664 0.032359447 0.13792163
-0.0074700573 0.033513155 0.13708931
-0.002947717 0.033142909 0.13716537
-0.0036462625 -0.030740596 0.13801318
-0.010535475 -0.029128227 0.13833538
-0.016195731 -0.027515948 0.13816559
-0.021577721 -0.023536537 0.13851959
0.024218014 -0.022881754 0.13810831
0.024265317 -0.0181104 0.13833189
0.025355997 -0.015163153 0.13837771
0.025803166 -0.011339673 0.13838798
0.025729422 -0.0076697278 0.13883263
0.025205646 0.00071694143 0.13800105
0.026977096 0.0030305381 0.1388464
0.026642306 0.0070842933 0.13839424
0.027330715 0.0098103341 0.13829643
0.026615636 0.011821365 0.13815725
-0.031191383 0.013893881 0.13824862
0.027080549 0.013008536 0.13848093
0.024401903 0.015231934 0.13821524
-0.031457879 0.019657627 0.1384117
0.025711996 0.020448411 0.13895762
-0.030436376 0.024317436 0.13893336
-0.028368872 0.027795374 0.13859195
0.021428369 0.027888846 0.13837823
-0.026368214 0.029700074 0.13891622
0.02379977 0.029239077 0.13894692
-0.027477056 0.030648425 0.13847134
-0.013793589 0.030566733 0.13829872
-0.01781809 0.032981258 0.13877255
-0.0018709907 -0.030022182 0.13975748
0.0020583523 -0.030296825 0.13915667
0.016400466 -0.030971942 0.13970074
0.010185205 -0.029329777 0.13989803
-0.013969114 -0.028179798 0.13942114
-0.020903289 -0.023063343 0.13942665
-0.022869743 -0.022136454 0.1399807
-0.023755593 -0.020878535 0.13958025
-0.029993126 -0.012500467 0.13988018
0.026047301 -0.012150316 0.13951418
-0.030311856 -0.0097294049 0.13976631
0.027441042 -0.005076908 0.13958639
0.026047541 -0.003068421 0.13949323
-0.031067727 -0.0015173219 0.1394076
0.027225086 -0.001022896 0.13922888
-0.031868283 -0.00014918298 0.13963819
-0.0313043 0.0021575177 0.13935331
0.027118336 0.0062115425 0.13924176
0.024834376 0.013819437 0.13962191
-0.030373637 0.022559199 0.13941419
0.027806176 0.024959415 0.13985422
0.025979146 0.025046188 0.13971049
0.026044536 0.027136002 0.13956311
-0.024399925 0.028698832 0.13933212
-0.023126755 0.030471606 0.13926914
0.017015349 0.030787416 0.1392855
-0.0018778415 0.031929426 0.13920903
0.001939645 0.032231059 0.13994381
-0.016440894 0.03388565 0.13904977
-0.011084656 0.034282465 0.13961273
-0.0097486675 0.034559164 0.13989657
0.012509248 -0.031084862 0.14075363
-0.0050188303 -0.030280776 0.1402916
-0.0018908614 -0.030303052 0.14087754
0.0030909602 -0.030790739 0.14094761
0.0077992156 -0.030764835 0.14071271
-0.012888145 -0.029154208 0.14018753
-0.0089365654 -0.029654985 0.14096808
-0.025839226 -0.01934775 0.14094144
0.024342038 -0.019599445 0.14078152
0.026581611 -0.0084588239 0.14000589
-0.031680677 0.0046739834 0.14094612
-0.030265879 0.012583304 0.14012501
0.026610129 0.014541672 0.14066207
0.028328329 0.022287961 0.14001116
-0.029450737 0.026621077 0.14030042
0.02405487 0.027502218 0.14091226
-0.019444207 0.030905643 0.14091831
0.013185713 0.030878961 0.14081326
-0.02610356 0.031701162 0.14011958
0.009842596 0.031818971 0.14096212
0.015437409 0.031248039 0.14061835
-0.0030759666 0.032895073 0.14074656
4.5804307e-05 0.032782014 0.14012912
-0.022776648 0.033134837 0.1400564
-0.012727777 0.033271223 0.14028633
-0.0071046413 0.033011861 0.14065763
0.010916395 -0.031116828 0.14162269
-0.0088708363 -0.030321479 0.14135152
-0.0049879858 -0.030763404 0.14129221
-0.00094645575 -0.030811276 0.14114732
0.0016940618 -0.030578585 0.14172533
0.0036497591 -0.030661177 0.14156133
0.0073903264 -0.030824507 0.14172563
-0.012991405 -0.028967371 0.14188394
-0.016612731 -0.027656561 0.14114237
-0.020234197 -0.024638325 0.14169729
-0.019642916 -0.024827316 0.1414814
0.023732802 -0.023169054 0.14108482
-0.023160284 -0.021867434 0.14196816
0.025387842 -0.020267406 0.14183187
0.025322337 -0.016484253 0.14108211
0.026147317 -0.016426906 0.14158469
-0.029012658 -0.015377925 0.14152354
-0.028450564 -0.015710274 0.1418457
-0.029869411 -0.012799649 0.14161408
0.026316052 -0.012899557 0.1412015
-0.031081125 -0.011855678 0.14121601
0.026437903 -0.010113673 0.14192617
-0.031682916 -0.0078151114 0.14144593
-0.03158199 -0.003438693 0.14159386
0.025921242 -0.00058718771 0.14163163
-0.031480908 0.00092523725 0.14168182
-0.031195521 0.0049715731 0.14163738
0.027244909 0.0071895667 0.1417186
-0.03134894 0.0093454104 0.14120248
-0.030894654 0.0090235677 0.14158028
0.027259378 0.010551152 0.14100048
0.027571525 0.011917976 0.14176223
-0.030421626 0.012899559 0.14101717
-0.030914221 0.013738485 0.14181045
0.025896732 0.018231884 0.14166462
0.026642935 0.018341025 0.1411854
-0.031131182 0.019228399 0.14123362
-0.029420195 0.025465118 0.14101431
-0.027535211 0.028629677 0.14101672
0.020463148 0.029390711 0.1410282
-0.025545897 0.030467071 0.14173636
0.018363543 0.031437159 0.14178252
-0.0037067998 0.032047786 0.14191473
0.0045795022 0.032824188 0.14132017
0.00094535283 0.033110056 0.14110196
0.02181375 -0.030526133 0.14250106
-0.012391372 -0.02924175 0.14230737
-0.0092688799 -0.029019272 0.14221975
0.012940616 -0.029458728 0.14286461
0.016425934 -0.029747266 0.14237529
-0.016721847 -0.027432624 0.14207515
0.023630286 -0.02443656 0.14218804
-0.022638468 -0.022273883 0.14230737
-0.025950341 -0.018949348 0.14207938
0.027163727 -0.013883273 0.14299494
-0.031706005 -0.0073620826 0.14211619
0.026456852 -0.0072411192 0.14262262
0.028082933 -0.0049384213 0.14293841
0.027773075 -0.0005431844 0.14296454
-0.031779282 0.00024764612 0.14232624
0.027413402 0.0031422793 0.14203733
0.027266823 0.0049599265 0.14282262
0.025794044 0.024757553 0.14236084
0.024343995 0.028762696 0.1426127
-0.024982836 0.030030433 0.14212731
-0.021912334 0.030718504 0.14276457
-0.012965864 0.031408481 0.14215031
0.01368745 0.03187798 0.14258003
-0.016616456 0.032835145 0.1424059
-0.0068430607 0.032087877 0.14206591
0.00013585854 0.032015443 0.14253384
0.0049432511 0.032921538 0.1420759
0.009151388 0.032013364 0.14224622
-0.016546328 0.033918295 0.14283925
0.016988557 -0.031126948 0.1438112
-0.0027177064 -0.030451702 0.14383787
-0.027643055 -0.017812118 0.14395884
0.027464747 -0.0093349041 0.14312106
0.026859026 -0.0034851548 0.14328912
0.026912829 0.0017675422 0.14308196
0.025490414 0.011492576 0.14352769
-0.030875163 0.018634833 0.14303112
0.02800546 0.021709703 0.14375436
-0.030709784 0.02259876 0.14386544
0.026519261 0.024930697 0.1433633
-0.029153502 0.025394332 0.14337048
0.027576845 0.025001079 0.14392453
-0.028372746 0.028851923 0.1439102
0.025252409 0.02837071 0.14305496
0.018660868 0.030901587 0.14306009
0.0068034474 0.03293068 0.143848
-0.012534837 0.033916816 0.1430206
-0.0080879843 0.033453993 0.14348072
-0.0031815944 0.033107657 0.14374077
0.012624253 -0.03146933 0.14422625
0.00092234556 -0.030372789 0.14427507
0.012622233 -0.030967865 0.144429
-0.011328389 -0.028695539 0.14448303
0.021656819 -0.028748237 0.14466351
0.024250561 -0.025802912 0.14407182
-0.021651303 -0.022671221 0.14449486
0.025226891 -0.021964408 0.14430311
-0.029161951 -0.015553648 0.14451042
0.026240259 -0.014862962 0.14474255
-0.031356785 -0.012097337 0.14431608
-0.029582875 -0.012843429 0.1446645
0.026905701 -0.011836622 0.14451569
-0.032094814 -0.0094911866 0.14418635
-0.031453457 -0.00067551341 0.14459118
0.02718004 0.0017622868 0.14426944
0.026235968 0.0089732436 0.14491618
-0.031810954 0.010073033 0.14433509
0.027623024 0.012289017 0.14448553
-0.031875357 0.014272575 0.14496925
0.027022852 0.021610303 0.14461389
-0.02846898 0.026958123 0.1442475
0.023577331 0.029232623 0.14465493
0.022049712 0.030186962 0.14498454
0.018442379 0.031866748 0.14400363
-0.017911483 0.03252684 0.14496642
-0.00051411241 0.032321651 0.14472911
0.0075145666 0.032850318 0.14496413
0.0099661192 0.03241796 0.14426473
0.014213415 0.032203175 0.14464778
-0.012825377 0.033617061 0.14420608
-0.0094203539 0.033281345 0.14450014
0.00082692533 0.033480559 0.1442216
-0.0038220794 -0.030028678 0.14512703
-0.00057399913 -0.030385086 0.14591366
0.0064672539 -0.030535743 0.14567024
0.0077866092 -0.030171838 0.14572862
-0.0084043201 -0.029275399 0.14593601
0.0032634884 -0.029637184 0.14568305
0.018550545 -0.029767085 0.14540601
-0.015111666 -0.028562274 0.14512998
-0.012763352 -0.028386099 0.14566287
-0.01182035 -0.028867926 0.14580676
-0.017692577 -0.026626408 0.14560628
-0.020383054 -0.024016147 0.14522755
-0.023333371 -0.021276003 0.14578629
-0.02288883 -0.021786446 0.14553553
-0.024707556 -0.020293694 0.14522415
-0.025817353 -0.019027784 0.1458146
0.026696857 -0.015305795 0.14545819
0.026680144 -0.011897744 0.14552391
0.026451116 -0.0077920486 0.14536133
0.028286014 -0.0048171217 0.14592773
-0.031347461 -0.0025677718 0.14518979
0.027516315 -0.0022975635 0.14570063
0.02802413 -0.0010462647 0.14573699
-0.031510897 0.00078168639 0.14547265
-0.031707726 0.0013769595 0.14592963
-0.031663567 0.0034981361 0.14505413
0.027695622 0.0032497945 0.14509189
-0.031278901 0.0047983662 0.14594209
0.027337937 0.0065611675 0.14518487
0.027806129 0.0076827132 0.14511067
-0.03135528 0.0088430289 0.14571711
0.027235979 0.010431676 0.14548659
-0.030049589 0.011905912 0.14503428
0.026668258 0.014593804 0.14548919
0.026535291 0.017828938 0.14560631
-0.031825308 0.018166754 0.14521745
-0.030670896 0.020411879 0.14596444
-0.030080676 0.024344318 0.14502531
0.025462436 0.028462585 0.14532897
-0.028023452 0.029134033 0.14510205
-0.026565593 0.031402554 0.14536932
-0.018820234 0.031825926 0.14525932
0.01169052 0.031015102 0.14518088
-0.022801051 0.032731503 0.14537889
-0.016120898 0.032395929 0.14536735
0.0048171519 0.03326067 0.1451686
0.018595776 -0.031092953 0.14676806
0.022298262 -0.031419318 0.14612076
-0.0049818344 -0.030577898 0.14626789
-0.0010058116 -0.030619271 0.14617357
0.0031117201 -0.030631708 0.14612147
-0.0088389423 -0.029675553 0.14626798
0.011679787 -0.029607747 0.14606369
-0.019904673 -0.024565656 0.14654374
-0.028708318 -0.015760966 0.14627284
0.028268032 -0.013477892 0.14644501
-0.030198781 -0.011330143 0.14622906
0.028411083 -0.0085769501 0.1463874
-0.031812947 -0.006536507 0.14602062
-0.031697877 -0.0033732448 0.14645082
0.027923599 0.0015435517 0.146974
-0.031554937 0.013534912 0.14609
-0.029608738 0.025781712 0.1464316
0.026472926 0.02588097 0.14609641
-0.025730047 0.028859269 0.14648581
-0.024270659 0.030983137 0.14606589
0.020626215 0.030893033 0.14621046
-0.020808093 0.031304702 0.14627844
-0.010780327 0.031811997 0.14689493
0.018361937 0.031973008 0.14686561
-0.0028983057 0.032113034 0.14679918
0.0013186019 0.032274254 0.14619705
-0.014014764 0.033416711 0.14669168
0.012707323 -0.030954788 0.14723372
-0.016881108 -0.027729433 0.14722615
-0.026338015 -0.019060478 0.14733213
-0.031969428 -0.0081823561 0.14713377
-0.032087684 0.0050935796 0.14766151
-0.029842176 0.016610274 0.1479452
-0.031351767 0.018802533 0.14750752
0.027818106 0.020167062 0.14721203
-0.030472584 0.022068795 0.14707363
-0.028868828 0.023983285 0.14748389
0.024290202 0.028603412 0.1473949
0.014172795 0.030997403 0.14748639
0.00051590055 0.032764636 0.14781773
0.0045589595 0.032969784 0.14729309
-0.016877906 0.033597708 0.14766115
-0.012691494 0.033230577 0.14786267
-0.0013235632 -0.031082205 0.14891577
0.0083728805 -0.031291798 0.14861295
0.012085551 -0.03132854 0.14874876
-0.0040098834 -0.030924082 0.14891428
0.0011645807 -0.030621441 0.14853722
0.010058434 -0.030956831 0.14829496
0.015015435 -0.030993538 0.14856046
0.017239874 -0.030059943 0.14899528
-0.0099786092 -0.029375928 0.14866474
-0.013205385 -0.028940285 0.14821482
-0.016402677 -0.027731169 0.14806426
-0.01990347 -0.025344836 0.14822626
-0.021266235 -0.023622617 0.14884418
-0.023032978 -0.022094879 0.14860055
0.026113603 -0.021053992 0.14861056
0.0276158 -0.02065493 0.14897993
-0.025798695 -0.019173533 0.14869779
0.026657069 -0.017504206 0.14804664
0.027731031 -0.017039541 0.1486744
-0.028792152 -0.015835105 0.14824772
-0.029393997 -0.014119295 0.148754
-0.031049052 -0.01215272 0.14879107
-0.030753851 -0.012064592 0.14804298
0.027122792 -0.0096047195 0.14897043
-0.032051288 -0.0083975457 0.14879662
-0.032126326 -0.0038505383 0.14832973
0.027184393 -0.002927145 0.14863902
-0.031770669 -0.0016542729 0.14886943
-0.031949911 0.00066202629 0.14863184
0.027797509 0.0014839224 0.1484888
-0.031754393 0.0046787555 0.14884877
-0.031769503 0.0092440527 0.14842808
-0.030293301 0.010331544 0.14822972
0.02829051 0.012797455 0.14888626
-0.031667363 0.013484268 0.1482299
-0.030090503 0.013969476 0.14838982
0.027916281 0.016413163 0.14880589
0.027256008 0.020273644 0.14882955
-0.029959004 0.02712623 0.14866608
-0.028928502 0.029839039 0.14880893
0.024552163 0.029626036 0.14826313
0.0172798 0.030705109 0.14842305
0.02204654 0.030526595 0.14804074
-0.017952364 0.03209085 0.14897281
-0.0050859484 0.032435909 0.14845675
0.0086949077 0.032909837 0.14882082
0.0092021953 0.032265343 0.14875114
0.013076241 0.032173533 0.14860678
-0.011698557 0.0334545 0.14860645
-0.0086902352 0.033009358 0.14810523
-0.004015062 0.033061881 0.1483604
0.00065517612 0.033309717 0.14877051
0.004672586 0.033107094 0.14879328
0.022139847 -0.031721335 0.14977175
0.014102044 -0.030178087 0.14955652
-0.010586862 -0.029332153 0.14912871
-0.0093597854 -0.029475026 0.14989638
-0.002861592 -0.02984157 0.14936557
0.00072009169 -0.0298419 0.14972138
0.0033953844 -0.029571176 0.14938584
-0.018809306 -0.026227271 0.14946491
0.025719391 -0.024944499 0.14910862
-0.028426087 -0.016504884 0.14903408
-0.03011404 -0.014031408 0.14948165
0.027316578 -0.013648209 0.14924848
0.026849128 -0.007252235 0.14945829
-0.031990808 -0.0045739561 0.1493991
0.027951734 -0.00044935182 0.14993376
0.027718561 0.0034174148 0.14980805
0.027445009 0.0061418023 0.14994338
0.027763316 0.0079318965 0.14946491
-0.03203094 0.0086938925 0.14906389
0.027157201 0.010203067 0.14960298
-0.032418609 0.013363615 0.149584
0.027124088 0.01671711 0.14912796
0.027256809 0.025049727 0.14931226
-0.028241217 0.027323794 0.14982191
0.025342848 0.027654266 0.14980394
-0.026672829 0.030274989 0.14987266
-0.026640227 0.031271853 0.14937446
-0.02305864 0.031464472 0.1494427
-0.02286599 0.032575421 0.14901057
-0.017754199 0.032744609 0.1499972
-0.01507775 0.03267682 0.14967266
-0.0085456744 0.032798678 0.14916074
0.013373098 0.033033729 0.14913282
-0.0017640945 -0.030306434 0.15043801
0.0025294982 -0.030500047 0.15057555
0.01767353 -0.030977486 0.15036216
0.0094659664 -0.029685806 0.15059856
0.022976052 -0.029443957 0.15068099
-0.013581819 -0.027875867 0.15054366
0.026153596 -0.026991462 0.15028456
-0.019983916 -0.023806425 0.15002701
-0.023628972 -0.020674504 0.15052196
0.028950844 -0.013376131 0.15060771
0.027184507 -0.01046556 0.15009192
0.029035041 -0.00866812 0.15045732
0.028930716 -0.0046418454 0.15019056
-0.031735826 -0.0023244144 0.15050256
-0.031538166 0.0018445943 0.15097022
0.027873725 0.0026122723 0.15021652
0.026768984 0.0097078104 0.15089953
-0.031514809 0.013966976 0.15081105
0.026897091 0.01366489 0.15021175
-0.031348638 0.017930832 0.15093842
-0.030305605 0.019843675 0.15010488
0.028026201 0.021442946 0.15035021
-0.030476503 0.022539156 0.15023962
0.027045561 0.02599415 0.15069816
0.023787241 0.029525872 0.15016675
0.01956681 0.030520121 0.15052035
0.01433191 0.031925321 0.15073109
-0.010615847 0.032333475 0.15087456
-0.016089298 0.033637352 0.15013179
-0.013231233 0.033016235 0.15077797
-0.012759629 0.033736825 0.15036288
0.012842369 -0.031083379 0.1517731
0.013761524 -0.031203805 0.15119478
0.024090014 -0.031842299 0.15156868
-0.0040747481 -0.030142283 0.15167812
0.008340016 -0.030413032 0.15151954
-0.012178723 -0.029119726 0.15182331
0.01972837 -0.029944412 0.15143985
-0.015535552 -0.028036581 0.15197775
0.026844626 -0.023848856 0.1515817
-0.02264829 -0.022814207 0.15153259
-0.025014108 -0.019927692 0.15191948
-0.030237896 -0.012682867 0.15158632
-0.030760463 -0.010285023 0.15102845
0.028532712 -0.0023796689 0.15121859
-0.032087818 -0.00014090352 0.1514827
-0.030307341 0.012370968 0.15153992
-0.031114906 0.021914147 0.15161526
0.027355907 0.022175835 0.15150917
-0.030115183 0.025595181 0.15127635
-0.025418814 0.031583704 0.15172207
-0.019880215 0.031743724 0.15118656
0.012796399 0.031196818 0.15178543
0.021974955 0.031280827 0.15175489
-0.022989511 0.032632478 0.15187421
-0.0085540432 0.032067265 0.1518558
-0.00027124863 0.032906815 0.15139186
0.002063429 0.032183345 0.15104324
0.018213909 0.032112241 0.15158138
-0.004527403 -0.031007972 0.15274704
0.00084681809 -0.031633347 0.15217
-0.00068127312 -0.030732803 0.15258819
0.0037924999 -0.030364905 0.15227592
0.0040372643 -0.030709695 0.1528042
-0.0083196787 -0.029869428 0.15249737
-0.01939795 -0.025307814 0.15281889
0.027908148 -0.024384275 0.15257794
0.028280767 -0.022396233 0.1521588
-0.025963336 -0.01957101 0.15274549
-0.027640937 -0.016493943 0.15228331
0.027323991 -0.015436683 0.1521717
0.028441571 -0.015718792 0.15246794
-0.030836416 -0.012230718 0.15285674
0.028259529 -0.012507746 0.1524843
-0.031250544 -0.008845686 0.15232217
-0.031657323 -0.0043800944 0.15222362
0.02780408 -0.0021071481 0.1529873
0.028895156 -0.001849441 0.15284508
-0.031759962 0.00052665774 0.152219
0.028552661 0.0021845875 0.15236562
-0.031956248 0.0036669346 0.15206879
-0.031988945 0.0047024642 0.15298983
-0.031665009 0.0074007143 0.15251869
0.028965304 0.01021081 0.15234339
0.029586758 0.012892926 0.15270376
-0.029583648 0.015178402 0.15257299
0.028477589 0.015807258 0.15218285
0.027542535 0.019257586 0.15257645
-0.0276211 0.028445037 0.15228039
0.026025875 0.029766902 0.15237162
-0.025406653 0.031493183 0.15279698
0.0077326661 0.031980075 0.15235776
-0.016432332 0.032291353 0.15202668
-0.0043645189 0.032034311 0.15297145
0.00030620326 0.032253385 0.15299484
0.003827556 0.032360639 0.15240899
0.0045159175 0.032301001 0.15282613
-0.020476669 0.033412267 0.15273076
0.010863211 -0.031004703 0.15309507
0.0078885779 -0.030828923 0.1531322
0.013708657 -0.030301107 0.15353993
-0.012620484 -0.02918737 0.15317678
-0.011199941 -0.029700484 0.15390384
0.016576465 -0.029874831 0.15316743
-0.016250312 -0.027457066 0.15319848
-0.019406084 -0.02503673 0.15310517
-0.022173524 -0.023033228 0.15335286
-0.022909228 -0.022220943 0.15326798
-0.028645383 -0.016628064 0.15371585
-0.030588001 -0.013510916 0.15385455
0.028396597 -0.0093850046 0.15338403
-0.031651206 -0.0080330651 0.15324575
0.027657447 -0.0086624194 0.15369833
0.029684136 -0.0085206823 0.15376756
-0.031974874 -0.0041972273 0.15326619
0.029627988 -0.0045037996 0.1535385
-0.032459814 -0.001319902 0.15358764
-0.032039575 0.0084958784 0.15373683
0.028344451 0.0083053652 0.15327236
0.028293226 0.011481727 0.15329853
-0.032279033 0.01317763 0.15376681
0.027542915 0.015947789 0.15318525
-0.029229097 0.017620089 0.15381968
-0.028972274 0.028972466 0.15312439
0.026950806 0.028144322 0.15317315
0.028805327 0.030207286 0.15387923
-0.012865097 0.032972831 0.15348336
-0.011846796 0.032221273 0.15369627
-0.0073504373 0.032098193 0.15346774
-0.0041574817 0.032308806 0.15326935
-0.0005209865 0.032668188 0.15334985
0.0085054254 0.032334618 0.15343529
0.013192149 0.032490596 0.15337372
0.012912487 -0.031850033 0.15446603
0.012640807 -0.03066843 0.15449953
-0.014147829 -0.02749816 0.15494654
-0.028716061 -0.015409227 0.15489644
0.029712746 -0.013210504 0.15400615
0.028366107 0.0022307225 0.15435952
-0.031466525 0.0096601658 0.15439311
0.028577143 0.021277277 0.15467066
-0.03141908 0.022091769 0.15490317
-0.029252676 0.024825754 0.15417665
0.027567826 0.025334321 0.15427113
-0.029738914 0.027147185 0.15483004
0.024991328 0.028362058 0.15406868
0.014360745 0.030738216 0.15455848
0.017726015 0.03029567 0.15443665
0.0093076704 0.0318042 0.1546874
0.022811733 0.031384915 0.15450835
-0.016467137 0.032751448 0.15490666
-0.0092918165 0.032084994 0.15458195
-0.016859341 0.03394701 0.15406081
0.016586419 -0.031192429 0.15510514
0.0049598147 -0.030853629 0.1559186
0.0086371917 -0.030535085 0.15596601
-0.011107347 -0.029491704 0.15574449
-0.0026512779 -0.029883195 0.15514806
0.026147265 -0.02981085 0.15589368
0.028230404 -0.025254 0.15558684
-0.022201557 -0.02324215 0.15535599
0.027048104 -0.021350302 0.15517813
0.028675091 -0.020788215 0.15537542
-0.025999598 -0.019774482 0.15566766
-0.024135487 -0.019997178 0.15576506
0.0289212 -0.017239617 0.15518898
0.027405651 -0.013570117 0.15572771
0.029164735 -0.013961707 0.1554828
-0.030415261 -0.012145006 0.15503639
-0.029797249 -0.012980085 0.15565848
-0.030821953 -0.010293612 0.15564749
-0.031358097 -0.0089470828 0.15565857
-0.032128472 -0.0035894075 0.15511307
0.028534357 -0.002470023 0.15581995
-0.032274198 -0.00067870505 0.15547347
-0.032247815 0.00040620103 0.15539038
-0.031138912 0.0026719607 0.15552075
-0.032347288 0.0037358808 0.15562147
0.029292636 0.0084734792 0.15570819
-0.03050527 0.011777678 0.15553898
0.029980864 0.012980874 0.15580064
-0.031628583 0.013544389 0.15521389
0.028688418 0.016967472 0.15511924
0.030690858 0.016291788 0.15526846
0.027939385 0.017947191 0.15585253
-0.029477246 0.020629842 0.15571138
0.027502084 0.021282433 0.15547013
-0.026491433 0.03036561 0.15571964
0.011279226 0.031526752 0.15596116
-0.01599578 0.032574225 0.15568757
-0.012859829 0.032531757 0.15543744
-0.0022575383 0.032168269 0.15520549
-0.00041324925 0.032915033 0.15582421
0.0010721353 0.03226769 0.15543658
0.0044018137 0.032367162 0.15566766
0.0083974143 0.032486506 0.15594497
0.013520297 0.032008622 0.15524176
0.016724555 0.032440212 0.1559481
-0.00036133028 -0.03142757 0.15660989
0.0008596573 -0.031901665 0.15608209
-0.0068311584 -0.030354816 0.15621591
-0.0046313065 -0.030595217 0.15690559
-0.0028119134 -0.03072476 0.15627331
0.022450572 -0.030930977 0.1560235
-0.0083982553 -0.029789023 0.15664136
0.018730275 -0.029935174 0.15618637
0.021735393 -0.029779445 0.15611312
-0.014463539 -0.027801998 0.15620181
-0.017693207 -0.026605925 0.15622169
0.026727544 -0.026878769 0.15676239
0.027591666 -0.02432576 0.15689445
0.028093407 -0.010931058 0.15616754
0.029964413 -0.0083901184 0.15677702
0.028989434 -0.0072297822 0.15652686
0.028832853 -0.0030573248 0.1563901
0.02976542 -0.00018342667 0.1569396
0.029925508 0.0017203819 0.15628111
0.029458217 0.0041493229 0.15690318
0.029082399 0.0071001337 0.15670517
0.029240508 0.010260281 0.15629485
-0.032566056 0.011061159 0.15612984
-0.029978979 0.023792934 0.15650535
-0.028730609 0.027848987 0.15673989
-0.026125299 0.028979754 0.1566132
0.023329416 0.030150672 0.15625587
-0.018525492 0.031758465 0.15606368
-0.022985358 0.032244287 0.15621108
0.0026931446 0.032292355 0.1563198
0.012393023 0.032605853 0.15622225
0.01505676 0.032685399 0.15640712
-0.01877266 0.033002041 0.15686384
0.013021847 -0.031577773 0.15796041
0.019072033 -0.031649072 0.15735143
0.00341646 -0.030580245 0.15716815
0.0064731953 -0.030494463 0.15718251
0.012545412 -0.030046554 0.15754709
0.02373611 -0.029209388 0.15713024
0.026101787 -0.028083041 0.15768045
0.026651539 -0.027066009 0.15701729
-0.016242994 -0.026960801 0.15703946
-0.019327834 -0.024772573 0.15702334
0.026531383 -0.023074249 0.15775666
-0.022816237 -0.022365093 0.15787089
-0.029366221 -0.015675869 0.15736809
0.030058827 -0.013041507 0.15762249
-0.030549407 -0.011332324 0.15726465
0.030098371 -0.0045491913 0.15710121
-0.0316456 -0.0037621967 0.15715364
-0.032105636 0.00029779132 0.15784413
0.02934196 0.0034684604 0.15790638
-0.031761851 0.0083506601 0.1572386
0.028100425 0.012481356 0.15778047
0.027754121 0.014794931 0.15746456
0.028915541 0.023120642 0.15747899
0.028416164 0.02578518 0.15779155
0.026798485 0.026947925 0.15708253
-0.028971404 0.028256962 0.1573835
0.027272256 0.028173808 0.15755838
0.025575716 0.030110357 0.15788728
-0.024833627 0.031285599 0.15789616
-0.021313906 0.031757161 0.15766948
-0.011321625 0.031984475 0.15726447
0.021935334 0.03137112 0.15790147
-0.0039199172 0.032168761 0.15729862
0.00098828319 0.032456011 0.15728754
0.018534213 0.032557499 0.15783939
0.0041731596 -0.031547479 0.15896598
-0.00025856029 -0.030846924 0.15806535
0.009324301 -0.030939767 0.15875292
-0.012362707 -0.029238787 0.15812808
-0.016020622 -0.027579619 0.15884548
-0.022682482 -0.02353722 0.15856922
-0.025015414 -0.019812524 0.15886879
0.028075032 -0.01906294 0.15870088
-0.028311882 -0.016702881 0.1584852
0.028023276 -0.016639858 0.15865895
-0.030522618 -0.013070369 0.15899962
0.029926378 -0.012506751 0.15899944
-0.031416792 -0.008870637 0.15826079
-0.032676458 -0.0045989626 0.15858373
-0.033672389 -0.003077656 0.15842119
-0.032815542 -0.00055032037 0.15867993
-0.031812478 0.0039622169 0.15839478
-0.031944592 0.0081962831 0.15880716
0.030062659 0.0097356634 0.1588003
-0.03040218 0.012412037 0.15836108
0.030106308 0.016781583 0.15895855
-0.032273855 0.018330663 0.15869287
-0.031637624 0.022197373 0.15840968
0.027800137 0.023659864 0.15873197
-0.030806754 0.025850557 0.15816915
-0.029022004 0.028447147 0.15893337
0.029054696 0.029566543 0.1581412
0.016423333 0.030337054 0.15888852
0.013329079 0.031218601 0.15818262
-0.0088369111 0.032409057 0.15826854
-0.0045722863 0.03259211 0.15896779
0.0041398983 0.032490395 0.15880191
0.010008781 0.032253064 0.15838435
0.015325149 0.032788277 0.15849155
-0.014821737 0.033066414 0.15841937
-0.012737207 0.033371434 0.15825284
-0.00015869364 0.033744872 0.15899301
-0.016964436 0.034620013 0.1582863
-0.00023488168 -0.03212091 0.15992135
-0.0086172344 -0.031016996 0.15936837
-0.0039070845 -0.031238489 0.15987504
0.0086929053 -0.031110242 0.15938789
0.012436986 -0.031592634 0.1590386
-0.0044312156 -0.030924264 0.15904954
0.0053082635 -0.030879004 0.15995574
-0.012684158 -0.029948732 0.15930539
0.01767277 -0.029919092 0.15995309
-0.019812616 -0.026025331 0.15900567
0.029404564 -0.025359999 0.15953526
-0.023567395 -0.023474414 0.15934181
0.029924026 -0.022734817 0.15900546
-0.026380565 -0.020145075 0.15955761
-0.028426774 -0.016998906 0.1595898
0.029986298 -0.016715122 0.15958998
0.027811565 -0.013038702 0.15971714
-0.031085055 -0.01259235 0.15916732
0.030138465 -0.009386342 0.15955895
-0.031918548 -0.0084405784 0.15941936
0.030484352 -0.0035821893 0.15974301
0.029138902 -0.0017011324 0.15998769
0.030496512 -0.001582103 0.15965962
-0.033154044 6.8702473e-05 0.15925747
-0.033072557 0.0042280997 0.15991497
-0.032059856 0.0082496228 0.1595507
-0.032107841 0.012868232 0.1590274
-0.031848192 0.01226603 0.15934163
0.030117596 0.012386098 0.15956202
0.031258006 0.013074672 0.15956551
-0.031506658 0.016562024 0.15969014
0.027992534 0.017769335 0.15996572
0.027629625 0.019742083 0.15938175
-0.029059485 0.028912857 0.15988538
-0.027267136 0.030222148 0.15950197
-0.026371373 0.030426515 0.15983212
0.016245423 0.031824946 0.15997195
-0.023131687 0.032282494 0.15996462
-0.011859767 0.032770921 0.15929493
-0.009959247 0.032066695 0.15971145
