# .PCD v0.7 - Point Cloud Data file format
VERSION 0.7
FIELDS x y z
SIZE 4 4 4
TYPE F F F
COUNT 1 1 1
WIDTH 1325
HEIGHT 1
VIEWPOINT 0 0 0 1 0 0 0
POINTS 1325
DATA ascii
-0.034195125 -0.016812906 0.10531104
-0.037176102 -0.0027938038 0.10551506
-0.035967946 -0.0010480997 0.10505188
-0.036358435 0.002315863 0.10551971
-0.035908341 0.0026775631 0.10547543
-0.036022365 0.0079044364 0.10526288
-0.035697293 0.011472872 0.10515016
0.018144194 0.014888676 0.10503441
-0.036306322 0.022014128 0.1059944
0.017604003 0.028130637 0.10570699
0.018319581 0.028869549 0.10592574
-0.034097336 0.030820021 0.10528475
-0.030926347 0.03469874 0.10542554
-0.027694192 0.036466297 0.10526854
-0.0060880296 0.036350261 0.10568881
0.0083079012 0.036507726 0.10514438
0.010707301 0.03660655 0.1053071
0.012493514 0.036272075 0.10552192
-0.023045981 0.03710366 0.10577351
-0.00228668 0.037826166 0.10536903
-0.002615137 -0.035188735 0.10691088
0.0014497302 -0.035058502 0.10684943
0.0061938828 -0.035517387 0.10612035
0.012582239 -0.035675228 0.10620666
0.013953175 -0.031886075 0.10697514
-0.020326149 -0.029587744 0.10638118
-0.019456374 -0.029932147 0.10683078
-0.024307586 -0.02577363 0.10694301
-0.031256162 -0.020508889 0.10669732
0.016982906 -0.019548297 0.10695344
-0.034493446 -0.015022419 0.10672086
-0.036519468 -0.011586342 0.106619
0.019261658 -0.011641995 0.10618204
0.019981802 -0.0091525922 0.10697132
-0.03645812 -0.0065075224 0.10662416
0.01909906 -0.0066846889 0.10607761
0.019745052 -0.0042769043 0.10661572
0.019286573 -0.00022135218 0.10613179
0.019079767 0.0015875744 0.10615021
-0.035441026 0.0070958054 0.10694414
-0.035828076 0.017483391 0.10669869
0.018546676 0.01713286 0.10698396
0.0172949 0.020107055 0.10669082
0.018572874 0.020955998 0.10634315
-0.036676031 0.023438215 0.10614079
-0.035222948 0.025772478 0.10612762
-0.035455402 0.02764545 0.10666138
0.015458842 0.03330835 0.10680389
-0.0072265859 0.036274374 0.10691774
-0.00049716607 0.036219575 0.10677797
-0.019032801 0.037578758 0.10616547
-0.016331408 0.037891567 0.10664481
-0.011786763 0.037306428 0.10694468
0.0037091533 0.037234981 0.10628039
0.015012506 -0.03733182 0.10782307
-0.0074269101 -0.035088003 0.10701722
0.010989013 -0.03429053 0.10792685
-0.012587816 -0.033246636 0.10704082
-0.011840704 -0.033326786 0.10733306
-0.017339312 -0.031798352 0.10708612
-0.015595578 -0.031944886 0.10760081
-0.023770109 -0.026438421 0.10716879
-0.028787153 -0.023001261 0.10756415
-0.02751058 -0.023867017 0.10774708
0.019044064 -0.018878933 0.10785496
-0.033834033 -0.016409071 0.10747427
-0.033322733 -0.014732846 0.10718447
-0.035479944 -0.011895961 0.10750145
-0.036289304 -0.0077365176 0.10782266
-0.036088228 -0.0027338457 0.10704273
-0.035888657 -0.001014011 0.10707045
-0.035189249 0.012191091 0.10720855
-0.035056472 0.013040565 0.10720468
-0.035633542 0.01437833 0.10735869
0.018417463 0.017021544 0.10735077
-0.032968335 0.030850381 0.10707277
0.016555667 0.033777699 0.10789341
0.012483619 0.035949748 0.10780674
0.014149461 0.035400819 0.1071195
-0.026829446 0.036121592 0.10709089
-0.011911533 0.036868256 0.10781711
-0.0024294532 0.036239386 0.10707158
0.0078568486 0.037260678 0.10721648
0.0080396775 -0.035869405 0.10813028
-0.0049015544 -0.034517478 0.10839075
-0.014241418 -0.033307731 0.10810518
0.0030795112 -0.033933043 0.10872394
-0.018983282 -0.030791715 0.10839558
-0.025903661 -0.025322387 0.10810518
-0.031060381 -0.021404941 0.10814387
-0.036790609 -0.0010857666 0.10800999
-0.035654016 0.0019078851 0.10820037
-0.035870552 0.0025488152 0.10839105
-0.036313534 0.0070479154 0.1080994
-0.035532057 0.016184704 0.10821104
-0.033883579 0.031875197 0.10827315
-0.031126818 0.034709424 0.1084612
-0.018097945 0.034837317 0.10831708
-0.0078920862 0.03689589 0.10815066
0.0025517424 0.037062705 0.10828465
0.0071157669 0.037603915 0.10843223
0.012675285 0.038092673 0.1084398
0.0048788078 -0.035096053 0.109438
-0.0089232493 -0.034291565 0.109438
-0.0041221548 -0.034148157 0.10915238
-0.023541298 -0.028306941 0.10917079
-0.021366822 -0.028266497 0.109438
0.018544881 -0.015196453 0.10998023
0.019421576 -0.010766544 0.10953563
0.018724967 -0.0084890835 0.10928631
0.020221451 -0.0058368891 0.10918665
0.020437459 -0.00061317394 0.10968894
0.020159662 0.0023667263 0.10963231
0.01949938 0.0038130465 0.10962981
0.020664573 0.006820512 0.10933
0.018975398 0.0095276497 0.10940444
-0.034482777 0.015324738 0.10981876
0.019223377 0.01577251 0.10975111
-0.03574859 0.018520502 0.10997456
-0.035985157 0.02059471 0.10935885
0.020347867 0.023178987 0.10967082
0.01813088 0.026716147 0.10961044
0.017686589 0.02780872 0.10994452
-0.031848561 0.032364555 0.10971224
-0.017753487 0.036851842 0.10990232
-0.019828785 0.03853792 0.10950607
-0.017445005 0.0390172 0.10994709
0.0032495614 -0.035517991 0.1101715
-0.0013282998 -0.034490161 0.1101945
0.0071679167 -0.03443253 0.11089259
-0.0064299735 -0.03371587 0.11054713
0.018693982 -0.027861679 0.11030853
-0.027151363 -0.023985934 0.11084151
-0.034312546 -0.016306806 0.11073989
-0.034166958 -0.012529553 0.11071396
0.020006776 -0.0092219925 0.11038905
0.020151138 -0.0035021817 0.11065865
-0.036995213 -0.002837291 0.11053538
-0.03566049 0.0020578168 0.11077136
-0.036042687 0.012977724 0.11099476
-0.035446867 0.016335931 0.11029088
0.017798224 0.022294639 0.11055857
-0.035284884 0.024971705 0.11077291
-0.029316556 0.033812523 0.11013979
-0.013884707 0.037153896 0.11045998
-0.011929262 0.037389398 0.11091548
-0.0021070596 0.037515182 0.11040586
0.015683435 -0.036698163 0.11157072
0.011970039 -0.035082579 0.11118412
-0.011554204 -0.034761563 0.1112799
-0.007010797 -0.034470379 0.1117003
-0.0022221338 -0.034170687 0.11130148
-0.00027000252 -0.034620654 0.11134541
0.011740287 -0.034613207 0.11176139
-0.011232136 -0.033367962 0.11157793
0.0021504723 -0.033778787 0.11116642
-0.016133912 -0.032784756 0.1110788
-0.013647649 -0.032513559 0.11175478
0.013393466 -0.032712571 0.11146927
-0.020067612 -0.030236593 0.11171973
0.016073506 -0.028350171 0.11145431
-0.023889516 -0.027656607 0.11121058
-0.023363259 -0.026757859 0.11180639
-0.025664357 -0.024922412 0.111853
0.01980284 -0.021307904 0.11173636
0.018138442 -0.019292593 0.11132032
0.019300476 -0.016405798 0.11146533
-0.03623718 -0.012493405 0.11135483
-0.035525918 -0.012106608 0.1115033
0.019532882 -0.011486017 0.11176169
-0.037174642 -0.0067669419 0.1114412
0.021157065 -0.0061088149 0.11184996
0.020746376 -0.00064131524 0.11163807
-0.035468511 8.1833452e-05 0.1116724
-0.035231195 0.0068183085 0.11142093
0.022148848 0.0081210332 0.11182249
-0.034729511 0.011214193 0.11181808
-0.036666598 0.022744369 0.11128652
-0.035167605 0.028054595 0.11156321
0.018005667 0.028777754 0.11185253
-0.033729613 0.030417891 0.11128575
-0.031947255 0.031365275 0.1111154
0.016647033 0.033583663 0.11150092
-0.030654537 0.034034044 0.11174518
-0.024908323 0.035970017 0.11112702
-0.020923447 0.035583843 0.11168128
-0.02886463 0.036697544 0.1110841
-0.0069952118 0.036249578 0.11197811
0.0001699198 0.036360733 0.11103761
0.010823179 0.03651914 0.11157423
0.013038791 0.036467738 0.11119986
-0.022574907 0.037134465 0.1110124
0.0024773525 0.037274051 0.1114046
0.0072625694 0.037431195 0.11176822
0.015683372 0.040377796 0.11153901
0.0071533285 -0.036022805 0.11226392
-0.00023396965 -0.034192678 0.11259562
-0.011191592 -0.033069789 0.11255586
-0.015843455 -0.032018855 0.11213487
0.014995681 -0.032376401 0.11238509
-0.020158466 -0.030492935 0.11272782
0.018543866 -0.029263809 0.11246276
-0.023536034 -0.026589407 0.11293429
-0.027233319 -0.023885664 0.11249983
-0.031236805 -0.021088168 0.1121316
-0.030824367 -0.020775048 0.11209315
-0.03311877 -0.017018335 0.11221755
-0.03337305 -0.016183972 0.11250091
0.019943651 -0.011294511 0.11217421
-0.03654214 -0.0067909304 0.1122061
-0.035676736 -0.002643307 0.11230049
0.021197738 -0.0025684466 0.11275685
-0.035481155 0.0023895442 0.11201644
0.020499289 0.0024978938 0.11283261
0.02046521 0.005894938 0.11250651
-0.036331832 0.007147552 0.11281496
-0.035872221 0.012529653 0.11286104
0.021555912 0.022021599 0.11217827
0.017530423 0.034001742 0.11202008
-0.0022212777 0.036125638 0.11241546
0.0023861327 0.036870062 0.11205226
-0.024866704 0.037178323 0.11285836
-0.0062903306 0.037022199 0.1125766
0.011400145 0.037781775 0.11273175
0.016719889 0.038335979 0.1126861
0.016262341 -0.037269294 0.11326361
0.0021762941 -0.034425098 0.11322057
0.015309246 -0.032189742 0.11361092
-0.036967993 -0.010981105 0.11389416
0.020837605 -0.0088340929 0.11350662
0.020595849 -0.0007398157 0.11302513
0.022382677 0.0073922398 0.11398464
-0.035060465 0.018343046 0.11329144
-0.034948446 0.026998401 0.11390096
-0.032614663 0.03088975 0.11332685
-0.026645767 0.035901673 0.11337554
0.012434925 0.035974883 0.11391395
-0.012035266 0.037415862 0.11385494
-0.031787444 -0.019334819 0.1145969
0.020763353 -0.017603427 0.11481869
-0.034113225 -0.015972884 0.11440021
-0.035731178 -0.012341399 0.11462671
-0.037272036 -0.00758718 0.11411327
0.021985158 -0.0063387793 0.11442184
0.020973295 -0.0020113736 0.11459279
-0.036050372 0.0014637392 0.11497033
0.022117853 0.0021768967 0.11497676
-0.035002567 0.012938185 0.11448789
-0.035229597 0.017048072 0.11462528
0.02308484 0.017543411 0.11475265
0.021659212 0.018435167 0.11468929
-0.035735007 0.019006247 0.1140725
0.019233434 0.022337774 0.11409461
-0.03561303 0.023145072 0.11407071
-0.036755364 0.024565782 0.11411059
-0.036552787 0.02676877 0.11402363
-0.011138198 0.03479765 0.11429715
0.016444018 0.03433349 0.11440355
-0.012848895 0.036956176 0.11461622
-0.0088791577 0.036671937 0.11440772
0.0078500286 0.036930598 0.11432427
-0.0089412881 0.037536126 0.11445361
0.0070406166 0.037867486 0.11490375
0.012085248 0.038124919 0.11495668
0.0084855258 -0.036755495 0.11536556
-0.01101746 -0.035005383 0.11566436
0.012140024 -0.035182077 0.11517513
-0.0012490479 -0.034797631 0.11558133
0.0070266575 -0.034224987 0.11543423
-0.01485605 -0.033504762 0.11505067
-0.01108342 -0.033431754 0.11547732
-0.0061283978 -0.033987239 0.11527067
0.0025588349 -0.033797085 0.11548978
-0.015079834 -0.031459808 0.11545348
0.017453725 -0.031273469 0.11573702
-0.019820103 -0.030197671 0.11546892
-0.023345757 -0.028027348 0.11548489
-0.021761479 -0.027618611 0.11526448
-0.02629154 -0.024607141 0.11536551
0.020624146 -0.023409754 0.11512798
-0.031599149 -0.021662496 0.11524051
0.019585552 -0.021638194 0.1152311
-0.030117501 -0.020423438 0.11566573
0.02053727 -0.018801074 0.11536509
-0.033978641 -0.017559424 0.11524683
0.021580905 -0.011071355 0.11513901
0.021522552 -0.010480052 0.11539793
-0.037174623 -0.0089377556 0.11511344
-0.037421077 -0.0030657686 0.11506671
-0.035546899 -0.0025643301 0.11577922
0.02310143 -0.0010390203 0.11596435
-0.035278022 0.00063042488 0.11570621
-0.034835875 0.0018927958 0.11545348
0.021059269 0.0059327902 0.11547172
-0.03514491 0.0066221328 0.1152063
-0.03440439 0.0097523509 0.11569762
-0.036675729 0.021911155 0.11516321
0.018747661 0.029135879 0.11535341
0.018323276 0.030041041 0.11551863
0.019283855 0.032375131 0.11539727
-0.030721869 0.033006877 0.11588389
-0.019995954 0.035557553 0.11510932
-0.0073433402 0.035640836 0.11566579
-0.0041455436 0.035080731 0.11538261
-0.017905263 0.036597103 0.11560243
-0.0028886069 0.037856005 0.11540502
0.0011614366 0.037281901 0.11554933
0.002240228 0.037386119 0.11534613
0.016061794 0.038187981 0.11515301
0.0054220483 -0.035493869 0.1166842
-0.007202588 -0.034478188 0.11676848
-0.0022063516 -0.034522116 0.11619365
-0.0018488839 -0.033821952 0.11624146
-0.021454811 -0.029319011 0.11602253
-0.033993769 -0.014320762 0.11670429
0.021666944 -0.0077768518 0.11667508
-0.035951965 -0.0055837985 0.11606187
0.021680951 -0.0025271391 0.11661494
0.021410929 0.00072595617 0.11683989
-0.035542548 0.014970675 0.11644089
-0.035564899 0.018160298 0.11657798
-0.03492156 0.024831796 0.11682707
-0.033746876 0.029823635 0.11623126
-0.032408446 0.032278642 0.11616939
-0.030917969 0.033987924 0.11669421
-0.028754797 0.036487881 0.11641544
-0.023039706 0.036996197 0.1168856
-0.0010364046 0.036385953 0.11696637
0.0017498024 -0.034422919 0.11751002
-0.012249354 -0.032912195 0.11717021
0.014267603 -0.032882579 0.11722136
-0.024233826 -0.025872953 0.1172986
-0.035100698 -0.016191486 0.11785418
-0.035213396 -0.0012366762 0.11752409
-0.036216754 0.013570474 0.11735338
0.024760626 0.01718729 0.11769974
0.024602005 0.018260937 0.1172505
0.021376912 0.020600423 0.11753106
-0.036648542 0.022860069 0.11793363
-0.036202386 0.027315816 0.11793077
-0.014219903 0.034786765 0.11724281
0.016932027 0.034449361 0.11767018
-0.026354268 0.036399271 0.11756229
0.013651277 0.03650659 0.1171478
-0.0034132292 -0.036085695 0.11870849
0.012201373 -0.036694884 0.11817992
0.016171835 -0.036925435 0.11819667
-0.016948894 -0.033470877 0.1180976
-0.015943427 -0.03301692 0.11865944
-0.020501435 -0.031027555 0.11841744
-0.024024326 -0.027530542 0.11861944
-0.027333638 -0.02436908 0.11862689
-0.028537933 -0.023916312 0.11866742
-0.030820547 -0.020823214 0.11842257
0.021801051 -0.017409172 0.11843532
-0.033306949 -0.01670452 0.1188795
-0.036560953 -0.012200836 0.11808407
-0.036718369 -0.0074389209 0.11837828
-0.037782472 -0.0019042529 0.11816186
-0.037198044 0.0025912374 0.11868936
-0.036272168 0.0022936235 0.11867064
-0.036281105 0.0069463798 0.11895871
0.024987936 0.0075557092 0.11876196
0.020928573 0.0087491293 0.11819041
0.024450421 0.012368512 0.1181972
0.024486089 0.013087817 0.1188705
-0.035625931 0.017033353 0.11814773
-0.033789095 0.031423572 0.11873507
-0.028119929 0.032844022 0.11878633
-0.022579391 0.036715996 0.11893231
-0.0072104554 0.036599219 0.11830157
-0.0024857852 0.036697209 0.11879385
-0.012415029 0.037305593 0.11805856
0.0029920479 0.037764724 0.11837238
0.007292456 0.03706149 0.11860305
-0.017936107 0.038064241 0.11822414
-0.0017289184 0.038213644 0.11849517
0.0081559885 -0.036395289 0.11920208
-0.0061781644 -0.035185728 0.11951181
-0.0020622388 -0.035006821 0.11945206
0.0078752898 -0.035852849 0.11919516
0.012493727 -0.035549887 0.11939156
-0.011296688 -0.034322377 0.11903626
0.0027100239 -0.034973681 0.1192466
0.016511088 -0.033336427 0.1190955
-0.0025907233 -0.032670982 0.11967951
0.017601267 -0.032540672 0.11945063
-0.020328019 -0.031735852 0.11943036
0.020026434 -0.030169114 0.1192196
-0.031433646 -0.021783831 0.11957639
0.021658171 -0.021217741 0.11927348
-0.033170246 -0.01745747 0.11907113
0.022312095 -0.01648687 0.11945802
0.02338198 -0.013116514 0.11954898
-0.035574816 -0.012505034 0.11941129
0.022988457 -0.01202113 0.11932451
-0.037115578 -0.0082059056 0.11966771
0.025340578 -0.0031538466 0.11950785
-0.036310792 -0.0027043601 0.11923552
0.023570836 -0.00048079985 0.1190477
-0.037421107 0.0068315635 0.11942613
0.024017131 0.0088832108 0.11983973
-0.036749899 0.011629362 0.11912626
-0.03529549 0.011915282 0.1191324
-0.035058293 0.016240831 0.11980373
-0.035967469 0.017187994 0.1197468
-0.033097036 0.027204553 0.11964089
-0.033526391 0.030868514 0.11917228
0.020847278 0.031447098 0.11985499
-0.032564074 0.033051781 0.11995381
-0.030803377 0.033706248 0.11937976
-0.017544299 0.034843724 0.11974955
0.016653402 0.03478308 0.11906135
-0.028761195 0.035953835 0.11964858
-0.0038471902 0.036881804 0.11951613
0.011894173 0.036334161 0.11900681
0.016419124 0.036401093 0.11905885
-0.012703393 0.037126571 0.11906451
-0.0082202852 0.037647612 0.11979043
0.0020620474 0.037606657 0.11937851
0.006814037 0.03786701 0.11974651
0.011610542 0.037153482 0.1194157
-0.0083938241 -0.033643126 0.1206578
0.020377107 -0.031615585 0.12055069
0.020903023 -0.021488866 0.12065274
0.022261653 0.00062746601 0.12097445
0.023295045 0.015871011 0.1201939
0.023773447 0.016386177 0.1206916
0.026062181 0.018980376 0.12034822
-0.03589629 0.020239098 0.12086391
-0.034345862 0.028282329 0.12010014
-0.013324064 0.034213699 0.12088063
-0.023287298 0.036672607 0.12082544
-0.018070519 0.038704336 0.12069207
-0.011972068 -0.03508582 0.12138659
-0.0015012976 -0.035966877 0.12191391
-0.012704149 -0.03253895 0.12142098
-0.024533972 -0.027853295 0.12142211
-0.024992537 -0.025173593 0.12181708
-0.033871468 -0.013019003 0.12152275
-0.037884422 -0.0028624982 0.12180367
-0.034980148 0.00017190352 0.12180334
0.021491084 0.0080046291 0.12139714
-0.03597093 0.012639729 0.12177676
-0.035413079 0.018488646 0.12197366
0.022896124 0.019444598 0.12139818
-0.03507635 0.023714121 0.12120637
-0.036225766 0.027381483 0.12141436
0.020828588 0.032751791 0.12193838
0.019707914 0.034859102 0.12152946
-0.029208435 0.035809465 0.12187815
-0.024666006 0.036362968 0.12168342
-0.018182792 0.03663053 0.12149224
0.00047811773 0.036036912 0.12114748
0.011877668 0.036121774 0.12183124
-0.013576761 0.037051264 0.12183169
-0.012822744 0.038667619 0.12150857
-0.0091262795 0.038248897 0.1213493
0.0024482822 -0.036205631 0.12214392
0.0072993338 -0.036575377 0.12292379
0.017122336 -0.036358297 0.12258616
0.002628915 -0.035313606 0.12280861
-0.016206063 -0.034458242 0.1226894
-0.0019088741 -0.034492612 0.12294963
8.4915198e-05 -0.033894744 0.12252122
0.016917508 -0.033394013 0.12285769
-0.020907879 -0.031652868 0.12256226
0.020597253 -0.03192962 0.12274602
0.020850463 -0.030325083 0.12240872
-0.027919032 -0.025187589 0.12282339
0.022210026 -0.023214543 0.12242749
-0.031178502 -0.021132801 0.12236702
0.022630963 -0.01904089 0.12231499
0.022245087 -0.018273788 0.12215471
-0.034083068 -0.016954068 0.12218022
0.025496623 -0.0074312175 0.12285835
-0.03748709 -0.0060211909 0.12285161
-0.036653697 -0.0024571908 0.12287521
0.025582671 -0.0023202326 0.1229704
0.026553875 -0.0023091477 0.12274653
0.024730528 0.0072760228 0.122536
-0.036018472 0.010124058 0.12267241
0.026644778 0.020184314 0.12296087
-0.036070555 0.021680372 0.12215063
0.02556153 0.024361096 0.12244684
0.020361226 0.027405167 0.12221441
-0.032928459 0.033022657 0.12258548
0.021429606 0.034364812 0.12221107
0.016791087 0.035513461 0.12247729
0.020204475 0.035493772 0.12255621
-0.022578415 0.036462154 0.12265232
0.012989637 0.036634658 0.12202704
-0.0027444726 0.038175076 0.12202683
-0.0065806392 -0.035859957 0.12340713
-0.011449315 -0.034581926 0.12353277
-0.0064851362 -0.034022093 0.12303314
0.0031617489 -0.034747936 0.12372676
-0.011030428 -0.033343196 0.12393445
0.016790796 -0.03293591 0.1237902
-0.024303129 -0.027784728 0.1230019
-0.02302593 -0.027065083 0.12345999
-0.027262053 -0.024603438 0.12353778
-0.03081432 -0.021445494 0.12391758
-0.033044383 -0.016907977 0.1239031
-0.034126483 -0.015511299 0.12301686
-0.035900831 -0.013985161 0.12334454
-0.034860063 -0.012405153 0.12354374
0.02501905 -0.012349448 0.12344724
0.02379181 -0.011921746 0.12314391
0.024750531 -0.0067407442 0.12304252
-0.035419755 -0.0028559631 0.12345999
-0.036564827 0.0018833703 0.12345988
-0.037819132 0.0020387853 0.12302834
-0.036766879 0.0075559239 0.12300581
-0.035022914 0.016986348 0.12390354
0.023213319 0.022795781 0.12343252
0.022725703 0.025691668 0.12358171
-0.036285415 0.027296975 0.12348697
-0.033916686 0.030191286 0.12308034
-0.032915339 0.032290399 0.12311944
-0.031278238 0.033918891 0.12356701
-0.028782282 0.034528106 0.1236071
0.01698814 0.034981787 0.12387386
-0.027509514 0.036216941 0.12325361
-0.024341466 0.036890663 0.12363011
-0.0026425107 0.036581978 0.12333404
0.0014992864 0.036854148 0.12316903
0.0066332691 0.036975145 0.12374061
0.001956257 0.038461052 0.12301451
0.013209786 -0.037413955 0.12445033
0.0075563923 -0.035564046 0.12402451
0.012049575 -0.034457356 0.12410462
-0.015652206 -0.032936584 0.12407815
-0.019996727 -0.031014182 0.12441954
-0.033911273 -0.013284007 0.12457436
0.025510816 -0.01376676 0.12490577
-0.037251174 -0.011627387 0.12439477
-0.037450671 -0.0078845695 0.1249198
-0.036459249 -0.0077399174 0.12442836
-0.036546528 0.0068052947 0.124358
-0.036447346 0.011356592 0.12470272
0.027493954 0.01278804 0.12462842
-0.036786377 0.024039999 0.12458512
-0.035369456 0.025730915 0.12403002
0.021918636 0.02730432 0.12456223
-0.016310833 0.03464302 0.12446517
-0.013096545 0.034500733 0.12415245
-0.00746659 0.036965169 0.12417376
0.00082219765 0.036165435 0.12438068
0.01135343 0.03652364 0.12475628
0.015190166 0.037220199 0.12410808
0.0081189796 -0.036916256 0.12573397
0.018009216 -0.036283791 0.12538749
-0.017942648 -0.034071367 0.12535101
-0.021283291 -0.032163382 0.12516961
0.023347972 -0.023618875 0.12583819
-0.03194651 -0.021559529 0.1251502
0.02405189 -0.020535545 0.12593222
-0.034009837 -0.017505893 0.12557572
0.024171406 -0.016802967 0.12564492
0.025258504 -0.0096786208 0.12523812
0.026659425 -0.0077821929 0.12587941
-0.037123144 -0.0032891785 0.12577677
0.026905291 -0.0031112833 0.12583023
0.027692139 0.0027946208 0.12546358
-0.037853088 0.0070521501 0.12547293
0.028182209 0.0075944453 0.12562191
-0.036331635 0.012056339 0.12563339
-0.036500584 0.014388533 0.12526613
-0.036021627 0.018435728 0.12525678
0.023911962 0.019135481 0.12593889
-0.036189623 0.020321947 0.12592819
-0.034007132 0.030954817 0.1254048
0.023126241 0.03445394 0.12584698
0.021041621 0.035863977 0.12594014
0.017921165 0.036246892 0.12509134
0.0020888322 0.037118912 0.12597999
-0.018743202 0.038489938 0.125002
-0.013220314 0.038351417 0.12511516
-0.0076981294 0.038551569 0.1254684
0.0036061946 0.038514197 0.12548056
0.0075268466 0.038273878 0.12524766
0.0037810896 -0.036557734 0.12612689
-0.010515785 -0.035273448 0.12616569
-0.014546049 -0.034499146 0.12632579
0.013990329 -0.034199461 0.12655589
0.013717173 -0.033101313 0.12628335
0.017248228 -0.033844505 0.1261256
0.01991374 -0.033580303 0.12657914
-0.015535723 -0.032897927 0.12618449
0.021647019 -0.03288291 0.12632734
0.022369569 -0.031546615 0.12666941
-0.024272095 -0.02894159 0.12613422
-0.026893666 -0.02641404 0.12651947
-0.029862957 -0.024169872 0.12605327
-0.027255427 -0.024782106 0.1265077
-0.030609239 -0.021421717 0.12668639
-0.035126153 -0.012651023 0.12637961
0.025299169 -0.012241071 0.12663209
-0.036343887 -0.0097563267 0.12699294
0.025854528 -0.0065625599 0.12671983
0.026855826 -0.0014434799 0.12644568
-0.036704719 0.0017514802 0.12644309
-0.038155906 0.0040053315 0.12601441
-0.036927104 0.0049087065 0.12672156
0.025524424 0.0051911734 0.12645856
0.027179204 0.0089203566 0.12647983
0.024321359 0.015804887 0.1265223
-0.035719875 0.016488861 0.1261234
0.024142683 0.029481765 0.12613109
-0.032950804 0.032411017 0.12655571
-0.020794731 0.035961814 0.12601936
-0.016840158 0.036996733 0.12622637
-0.013254913 0.036615998 0.12607929
0.016677611 0.036220264 0.12650263
-0.0091560194 0.037036862 0.12635422
-0.003304224 0.037726343 0.12620431
0.0065068067 0.037106156 0.1264289
0.01229454 0.037474055 0.12619957
-0.00083334092 -0.03648781 0.12705538
0.001447944 -0.03505826 0.12707895
-0.0021122508 -0.034538388 0.12732983
-0.011463955 -0.033426821 0.1277979
-0.0066840127 -0.033865333 0.12792349
0.010262411 -0.033433508 0.12709072
-0.020808689 -0.029159224 0.12733462
0.02420624 -0.028880749 0.12709302
0.025321491 -0.020520117 0.12783629
-0.033451855 -0.016463414 0.12776327
0.026076041 -0.01606971 0.12798268
-0.03538255 -0.0059278542 0.12737331
0.024584897 0.0022142031 0.12709168
-0.035318315 0.0072569489 0.1275968
-0.034997344 0.011233214 0.12752303
-0.035162866 0.016775884 0.12785274
0.024965243 0.018059438 0.12791526
-0.035670523 0.024721613 0.12746623
0.02444578 0.026532266 0.12777549
-0.03484362 0.030029902 0.12750709
-0.03171555 0.034097597 0.12770012
-0.030519128 0.035775911 0.12706289
-0.024312783 0.037507057 0.12715074
0.0078303739 -0.037653029 0.12866455
-0.013324147 -0.035608433 0.12812713
0.0023361361 -0.034468438 0.12808901
0.0070032421 -0.034319438 0.12829074
0.024148591 -0.03378503 0.12867248
-0.016183138 -0.032309115 0.12870857
-0.023241755 -0.026846912 0.12852842
-0.027716912 -0.023182804 0.12826759
0.025523696 -0.023038644 0.12878275
-0.0349347 -0.016549934 0.12833112
-0.034497015 -0.011559707 0.12847897
-0.035684731 -0.0024422565 0.1284402
-0.03590386 0.0033134185 0.12844753
0.029029012 0.0047103087 0.12849793
0.029492795 0.0094928974 0.12863648
0.028501421 0.010875143 0.12877217
0.028953075 0.01187132 0.12816817
-0.036016013 0.015231521 0.12868047
-0.035811566 0.021962807 0.12834507
-0.035515197 0.026862647 0.12872714
-0.030736782 0.033317275 0.1283378
-0.030052658 0.034745693 0.12833816
0.023750318 0.034782633 0.12875783
-0.01168107 0.035216231 0.12891299
0.012790431 0.03559345 0.12800348
0.015953984 0.035706222 0.12820458
-0.026712529 0.036372196 0.12815124
-0.0022857077 0.036174085 0.12832874
0.0027709734 0.036631484 0.12826744
0.020712808 0.036199346 0.1284624
-0.019125804 0.037031401 0.12802219
-0.020442054 0.038449109 0.12874186
-0.0020353626 0.03832864 0.12811869
0.002830755 -0.037061989 0.12997091
0.013715982 -0.037562668 0.12919402
-0.0064563714 -0.036157753 0.12932596
-0.0023366259 -0.036579702 0.12929904
0.018417109 -0.035718739 0.1294474
-0.016156308 -0.034965038 0.12958273
-0.0026273746 -0.034592278 0.12908778
0.016895751 -0.034698371 0.12948954
-0.021926267 -0.03303289 0.12951669
0.011657073 -0.033649188 0.12945658
0.022698369 -0.031667862 0.12976623
-0.019347213 -0.030633742 0.12998605
0.02423393 -0.028149657 0.12932804
-0.028581539 -0.026022587 0.12985069
-0.03229367 -0.021864178 0.12905183
-0.034517612 -0.017677292 0.12955236
0.025606118 -0.017552111 0.12922448
-0.036720037 -0.013794564 0.12945217
0.02636634 -0.01273147 0.12962057
0.025883915 -0.0089722034 0.12902957
-0.038513839 -0.0078469664 0.12927133
0.026569903 -0.0064444309 0.12914643
-0.038041294 -0.0028235284 0.12989539
0.02770956 -0.0023713028 0.12978533
-0.038457509 0.0014229389 0.12925291
0.027773529 0.002081071 0.12970561
-0.038534097 0.0074685225 0.12923259
-0.037283964 0.012051791 0.12983623
-0.036140926 0.018438688 0.1291489
-0.033078078 0.030807385 0.12906915
0.021347258 0.035741117 0.12901959
-0.022440488 0.036585245 0.12968767
0.015115051 0.036841221 0.12916532
0.018534895 0.036398042 0.12934285
-0.029473495 0.037140373 0.1296393
0.012584993 0.037154946 0.12942323
-0.027170289 0.038376193 0.12992424
-0.0031153406 0.038398623 0.12937176
0.0012854552 0.038820323 0.12944129
-0.013365846 0.039155424 0.12951201
0.0068570236 0.039128739 0.12942463
-0.011189718 -0.035263192 0.13019928
-0.0012521315 -0.035598099 0.13063198
0.012477566 -0.034282591 0.1300922
0.018220978 -0.034309506 0.13057709
-0.015445532 -0.033137411 0.13014632
-0.025197856 -0.028932856 0.13057756
0.025410695 -0.027253056 0.13063651
-0.02741139 -0.025194535 0.13061783
0.0256822 -0.023418289 0.13067308
-0.030285941 -0.021335686 0.13031259
-0.033407837 -0.018104373 0.13097858
-0.035551906 -0.012778553 0.1304583
-0.035929475 -0.0082508689 0.13043857
-0.036916971 0.0015765927 0.13042048
-0.035898149 0.0061011645 0.13042736
-0.035589159 0.011064235 0.13081279
-0.036491994 0.015118544 0.13026851
-0.034678716 0.030696694 0.13035473
-0.031542551 0.034204699 0.13045783
-0.029372683 0.03601326 0.13045648
-0.012463194 0.036932975 0.13057655
0.0063142483 0.03688091 0.13057774
-0.022472503 0.037788879 0.13095635
0.0018066247 0.037508011 0.13029858
0.0079531744 -0.038270175 0.13196078
-0.019140752 -0.03483554 0.13176727
-0.010265138 -0.034715712 0.13112828
-0.0055072084 -0.034986675 0.13113445
0.008381024 -0.034606222 0.13126904
0.026507998 -0.0263821 0.13119054
0.026593734 -0.021263402 0.13161063
0.026727367 -0.019937538 0.13126171
0.02720378 -0.015870553 0.1317665
-0.034739695 -0.014639212 0.13142091
-0.035901673 -0.0046270881 0.13125414
0.026754301 -0.00098577607 0.13164502
0.02945894 0.0032482981 0.13173687
0.027367622 0.0040364387 0.13126537
0.029588163 0.0080155367 0.13164139
0.026696045 0.010988294 0.13195053
0.029964861 0.010771645 0.13195419
0.029556513 0.012778279 0.1314345
-0.035635114 0.016599476 0.13105834
-0.036487889 0.018579584 0.13177162
0.026767222 0.025723895 0.13148513
-0.032972954 0.031636819 0.13121939
0.02689968 0.031977527 0.13163555
0.028625686 0.031258553 0.13199091
-0.029531 0.032679573 0.13119811
-0.017621143 0.035442665 0.13126907
-0.015290171 0.035394445 0.13110936
-0.004386046 0.036704734 0.13109085
0.010837835 0.036995113 0.13107157
0.016798828 0.037148118 0.13180763
0.018207802 0.037002295 0.13172281
-0.01874363 0.038987339 0.1313324
0.0043833051 0.039585456 0.13182506
0.0042943805 -0.038265169 0.13241613
0.013002887 -0.037887871 0.13207024
0.0032414924 -0.035969935 0.13297006
0.018286245 -0.035083819 0.13252482
-0.011612029 -0.034152962 0.1323024
0.0011383295 -0.034591492 0.13293532
0.023469966 -0.034349997 0.13287526
-0.021666048 -0.032923058 0.13219205
-0.024236301 -0.030319843 0.13263425
0.025389006 -0.029690938 0.13285923
-0.023723878 -0.025728121 0.13244879
-0.03259908 -0.02211839 0.13217908
0.027245365 -0.018476583 0.13261542
-0.034869567 -0.017964138 0.13271633
0.027762936 -0.012700523 0.13215569
-0.038156092 -0.011633877 0.13205665
0.027035577 -0.011108836 0.13258711
0.028397417 -0.0080035096 0.13233605
-0.038857341 -0.0079641752 0.13237154
0.028384373 -0.0041687102 0.13269666
-0.038383305 -0.0036479854 0.13268268
-0.035438705 -0.0010201372 0.13202885
-0.039177187 0.0041828938 0.13245931
-0.038511664 0.0073409234 0.1320442
-0.03705943 0.011838141 0.13249156
-0.036141139 0.016776593 0.13269648
-0.036313966 0.022860967 0.13250703
0.030330256 0.027665757 0.13253826
-0.025139779 0.036119144 0.13230842
0.016730431 0.036545996 0.13270128
0.023063835 0.03650593 0.13238657
0.01227162 0.038075477 0.13231385
-0.01425783 0.03963244 0.13267338
-0.0032549908 0.039199769 0.13279337
0.0078550689 0.039164495 0.13220549
-0.00068971794 -0.035929821 0.1333645
0.014701202 -0.035176225 0.1331141
0.020535054 -0.034463044 0.13339886
0.023279859 -0.032023631 0.13309109
-0.02691628 -0.026512858 0.13378853
-0.027674856 -0.023345899 0.1332106
-0.034459054 -0.015953559 0.13375765
-0.035649538 -0.014051646 0.13327628
0.028403223 -0.010684418 0.13365912
0.029073834 -0.005904349 0.13355255
0.029460669 -0.0012252504 0.13341784
-0.037790317 -0.0001368504 0.13354635
-0.036189727 0.0033498583 0.13319165
-0.035665248 0.013678513 0.13359749
-0.035149232 0.021235947 0.13318703
-0.035050452 0.025685245 0.13384581
-0.032949813 0.032768521 0.13386625
-0.028809492 0.033929579 0.1339843
0.024572 0.033353329 0.13344428
0.021217564 0.035097428 0.13314843
-0.030528788 0.03656061 0.13392738
-0.022043377 0.036283139 0.13378829
-0.018541258 0.03761746 0.13308841
-0.014368338 0.03712441 0.13305587
0.014776693 0.037269354 0.13348597
-0.00056867395 0.038185373 0.13325536
0.00066544343 0.038147986 0.13316086
-0.025833732 0.039007492 0.13398364
-0.0060226005 -0.036219366 0.13441956
-0.0017959159 -0.036456048 0.13440517
-0.010573482 -0.035636123 0.13470301
-0.0061534289 -0.035288036 0.13423675
0.0037691174 -0.03507429 0.13471758
0.011420469 -0.035355996 0.13437849
-0.015415706 -0.034852926 0.13421792
-0.011076417 -0.034745097 0.13476455
0.007232443 -0.034903266 0.13438439
0.013408804 -0.034189656 0.13477087
0.016486069 -0.034087449 0.13480985
-0.015557333 -0.033909742 0.13448948
-0.014686886 -0.033800602 0.13486993
0.026480775 -0.026229504 0.13442153
-0.027349738 -0.024830334 0.13471189
0.026813889 -0.022094408 0.13433272
-0.030027591 -0.021384144 0.13497686
0.028040849 -0.018847015 0.13417283
-0.0361569 -0.0071995133 0.13456613
0.02737774 -0.0026617534 0.13436499
-0.037310719 0.0029696017 0.1345703
-0.035915494 0.0064530219 0.1344949
0.03027969 0.0067368429 0.13474572
0.029942811 0.0081337551 0.13475618
-0.035575926 0.01087594 0.13462058
0.026974555 0.012565087 0.13410151
0.029929996 0.012886112 0.13456246
0.030468114 0.016121963 0.13436282
0.030728186 0.020304186 0.13401675
-0.036417324 0.025677208 0.13403594
0.028043227 0.028285867 0.1343067
-0.035136119 0.029999729 0.1349448
-0.032042578 0.031385925 0.13406888
-0.027918726 0.035872635 0.13471159
-0.0074385297 0.036674213 0.13496187
0.0069027436 0.037400544 0.134785
0.010842171 0.03736192 0.13491037
0.014081966 -0.037271976 0.13559437
0.0033934191 -0.036852181 0.13590735
-0.01737866 -0.034028359 0.13523462
-0.019580182 -0.030709887 0.13505372
0.026404403 -0.028649539 0.13563365
-0.022539511 -0.0273785 0.13503873
-0.028564991 -0.024890646 0.13587284
-0.026244767 -0.024643289 0.13571802
0.027747624 -0.023462739 0.13514957
0.028645672 -0.018452609 0.13587439
-0.033319641 -0.017678715 0.13537323
0.028606182 -0.014845194 0.1352331
0.029262036 -0.014467987 0.13506126
-0.036764801 -0.013612993 0.13545069
-0.035265669 -0.013468982 0.13521323
0.029065035 -0.0083357096 0.13596377
0.030387998 -0.0077035935 0.13567919
-0.036012143 -0.0033707228 0.1350981
-0.036112927 0.00081550982 0.13523838
-0.037982617 0.002509621 0.13577095
0.030268967 0.0033877431 0.13516563
0.031407252 0.011956592 0.13524404
-0.036374629 0.016359251 0.13538802
-0.035865955 0.02816416 0.13575274
-0.035311416 0.02962506 0.13584566
-0.032021325 0.033926606 0.13535157
0.028284989 0.033018358 0.13538516
-0.014031199 0.036054511 0.13564473
-0.003279008 0.036801413 0.13511842
0.016165048 0.036267146 0.13588065
0.00090734195 0.037223533 0.13530779
0.016595785 0.03780961 0.13544494
-0.022300079 0.03896448 0.13549507
0.0016261358 0.038835466 0.1355949
0.0086978823 -0.037328541 0.13620508
-0.00098042376 -0.036242545 0.13679525
-0.01115705 -0.035183631 0.13649666
-0.0068807276 -0.035895269 0.13692188
0.018101897 -0.035806563 0.13669372
-0.020530842 -0.032473624 0.13633743
-0.024284303 -0.029115502 0.13653636
-0.03146578 -0.022176221 0.13639125
0.028346879 -0.0099695791 0.13643631
-0.038132906 -0.0089199282 0.13658333
-0.037967503 -0.0034211171 0.1366812
0.029160725 -0.0028556101 0.13610411
-0.037174284 0.0011087372 0.13654241
0.02956295 0.0016069915 0.13640696
0.029203165 0.0037703854 0.13623953
-0.03754539 0.0067626643 0.13601795
-0.036575656 0.011440901 0.13682151
-0.035832122 0.016776672 0.13613936
0.031113626 0.018319817 0.13698584
0.029087054 0.026139477 0.13670123
-0.033458747 0.028089233 0.13658082
0.03125095 0.028515734 0.13638201
0.02792253 0.032461457 0.13600233
-0.013763681 0.037621059 0.13688701
0.01257371 0.03746143 0.13623753
-0.029656351 0.038310945 0.136778
-0.019109409 0.038515031 0.13621593
0.0065257819 0.038520917 0.13673082
-0.027540501 0.039292455 0.13693595
-0.014607944 0.039132416 0.13681966
-0.0027192729 0.039421596 0.13623753
-0.009133473 -0.036178589 0.13782769
-0.0059885643 -0.036084592 0.1376406
0.00053062662 -0.035254411 0.1379289
0.0093703121 -0.035569914 0.13721853
0.013598187 -0.035649497 0.13721144
-0.012260966 -0.034175929 0.13798535
0.019685773 -0.034186497 0.13756958
-0.015453806 -0.033991206 0.13736114
0.026123909 -0.028191155 0.13741136
-0.027046567 -0.025706535 0.13752788
0.027476665 -0.024784416 0.13793588
-0.030050846 -0.021605257 0.13794559
-0.03261302 -0.018584438 0.13787448
-0.034188282 -0.017877541 0.13700008
-0.036074564 -0.013563829 0.13724542
0.029677331 -0.011186457 0.13771397
-0.036422871 -0.0091522746 0.1370936
-0.03809784 -0.0016298601 0.13763893
-0.036286294 0.0056094839 0.13729027
-0.036225498 0.010705933 0.13792121
0.028318914 0.011698758 0.13783827
-0.035076551 0.01590783 0.13722906
-0.034622286 0.024189938 0.13755026
-0.030838199 0.031982776 0.13752615
0.020938613 0.034981102 0.13773957
-0.020285035 0.036109298 0.13794208
-0.0054067178 0.036919884 0.13782769
0.010718931 0.036983252 0.13749585
0.016076047 0.036047187 0.13765082
0.023316525 0.036776196 0.13793647
-0.0094210189 0.037008256 0.13753912
0.0057758843 0.037420452 0.13719961
0.0116504 0.037119579 0.13722497
0.016115941 0.037752688 0.13792163
-0.0034390034 0.038666725 0.13716537
0.0012807719 0.038298845 0.13709205
-0.0087150671 0.03909868 0.13708931
-0.0042539723 -0.035864029 0.13801318
-0.012291387 -0.033982933 0.13833538
-0.018895021 -0.03210194 0.13816559
-0.025174009 -0.027459292 0.13851959
0.028254349 -0.026695378 0.13810831
0.028309535 -0.0211288 0.13833189
0.029581998 -0.017690346 0.13837771
0.030103693 -0.013229618 0.13838798
0.030017657 -0.008948015 0.13883263
0.029406587 0.00083643105 0.13800105
0.031473279 0.0035356279 0.1388464
0.03108269 0.0082650082 0.13839424
0.031885833 0.01144539 0.13829643
0.031051576 0.013791592 0.13815725
0.031593971 0.015176626 0.13848093
-0.036389947 0.016209528 0.13824862
0.028468886 0.01777059 0.13821524
-0.03670086 0.022933897 0.1384117
0.02999733 0.02385648 0.13895762
-0.035509109 0.028370341 0.13893336
-0.033097014 0.032427937 0.13859195
0.024999764 0.032536991 0.13837823
-0.030762916 0.034650084 0.13891622
0.027766395 0.034112256 0.13894692
-0.032056563 0.035756495 0.13847134
-0.016092522 0.035661191 0.13829872
-0.020787772 0.038478136 0.13877255
0.019133875 -0.036133934 0.13970074
-0.0021828227 -0.035025876 0.13975748
0.0024014115 -0.035346296 0.13915667
0.011882741 -0.034218073 0.13989803
-0.016297299 -0.032876432 0.13942114
-0.024387173 -0.026907232 0.13942665
-0.026681364 -0.025825864 0.1399807
-0.027714858 -0.024358291 0.13958025
-0.03499198 -0.014583878 0.13988018
0.030388517 -0.014175368 0.13951418
-0.035363831 -0.011350974 0.13976631
0.032014549 -0.0059230593 0.13958639
0.030388799 -0.0035798247 0.13949323
-0.036245681 -0.0017702095 0.1394076
0.0317626 -0.0011933786 0.13922888
-0.037179664 -0.00017404743 0.13963819
-0.036521688 0.0025171041 0.13935331
0.03163806 0.0072467998 0.13924176
0.028973438 0.016122676 0.13962191
-0.035435908 0.026319068 0.13941419
0.030309005 0.029220553 0.13971049
0.032440536 0.02911932 0.13985422
0.030385293 0.031658668 0.13956311
-0.028466579 0.03348197 0.13933212
-0.026981214 0.035550207 0.13926914
0.019851239 0.035918653 0.1392855
-0.0021908153 0.037250996 0.13920903
0.0022629192 0.037602901 0.13994381
-0.019181043 0.039533257 0.13904977
-0.012932099 0.039996207 0.13961273
-0.011373445 0.040319026 0.13989657
0.014594123 -0.036265671 0.14075363
-0.0058553033 -0.035327576 0.1402916
-0.0022060042 -0.03535356 0.14087754
0.0036061201 -0.035922527 0.14094761
0.0090990849 -0.035892308 0.14071271
-0.015036168 -0.034013242 0.14018753
-0.010425993 -0.034597483 0.14096808
-0.030145762 -0.022572374 0.14094144
0.028399045 -0.02286602 0.14078152
0.031011879 -0.0098686283 0.14000589
-0.036960792 0.0054529812 0.14094612
-0.035310194 0.014680522 0.14012501
0.031045148 0.016965283 0.14066207
-0.034359194 0.031057922 0.14030042
0.028064016 0.032085922 0.14091226
-0.030454151 0.036984682 0.14011958
-0.022684909 0.036056586 0.14091831
0.015383331 0.036025457 0.14081326
0.018010309 0.036456041 0.14061835
0.01148303 0.037122134 0.14096212
-0.026572756 0.038657311 0.1400564
-0.014849073 0.038816426 0.14028633
-0.0082887486 0.038513839 0.14065763
-0.0035886276 0.038377583 0.14074656
5.3438358e-05 0.038245685 0.14012912
0.012735794 -0.036302965 0.14162269
-0.010349309 -0.035375059 0.14135152
-0.005819317 -0.035890639 0.14129221
-0.0011041984 -0.035946488 0.14114732
0.0019764062 -0.035675015 0.14172533
0.0042580524 -0.03577137 0.14156133
0.0086220466 -0.035961922 0.14172563
-0.015156639 -0.033795264 0.14188394
-0.019381519 -0.032265987 0.14114237
-0.023606563 -0.028744712 0.14169729
-0.022916732 -0.028965201 0.1414814
0.027688269 -0.027030561 0.14108482
-0.027020331 -0.025512004 0.14196816
0.029619148 -0.023645304 0.14183187
0.029542726 -0.019231629 0.14108211
0.030505203 -0.019164724 0.14158469
-0.033192322 -0.018328656 0.1418457
-0.033848099 -0.017940911 0.14152354
0.03070206 -0.015049484 0.1412015
-0.034847643 -0.014932923 0.14161408
-0.036261313 -0.013831625 0.14121601
0.030844219 -0.011799286 0.14192617
-0.036963403 -0.0091176294 0.14144593
-0.036944088 -0.0043974174 0.14167604
-0.036747217 -0.0036261999 0.14151168
0.030241448 -0.00068505201 0.14163163
-0.036727726 0.0010794434 0.14168182
-0.036394775 0.0058001685 0.14163738
0.031785727 0.0083878273 0.1417186
-0.036308765 0.010715237 0.14139138
0.031802606 0.012309677 0.14100048
0.032166779 0.013904305 0.14176223
-0.035491895 0.015049485 0.14101717
-0.036066592 0.016028233 0.14181045
0.030212853 0.021270532 0.14166462
0.031083422 0.021397863 0.1411854
-0.036319714 0.02243313 0.14123362
-0.034323562 0.029709302 0.14101431
-0.032124411 0.033401292 0.14101672
0.023873674 0.034289163 0.1410282
-0.029803548 0.035544917 0.14173636
0.021424133 0.036676686 0.14178252
-0.0043246001 0.037389081 0.14191473
0.0011029117 0.038628399 0.14110196
0.0053427536 0.038294889 0.14132017
0.025449377 -0.035613824 0.14250106
-0.0144566 -0.034115374 0.14230737
0.015097386 -0.034368515 0.14286461
0.019163586 -0.034705143 0.14237529
-0.010813694 -0.033855814 0.14221975
-0.01950882 -0.032004725 0.14207515
0.027568666 -0.028509321 0.14218804
-0.026411545 -0.025986195 0.14230737
-0.030275393 -0.022107573 0.14207938
0.031691015 -0.016197151 0.14299494
-0.036990337 -0.0085890945 0.14211619
0.030866325 -0.0084479712 0.14262262
0.032763422 -0.0057614916 0.14293841
0.032401919 -0.00063371519 0.14296454
-0.037075829 0.00028892141 0.14232624
0.031982303 0.0036659925 0.14203733
0.031811293 0.00578658 0.14282262
0.03009305 0.028883811 0.14236084
0.028401326 0.03355648 0.1426127
-0.02914664 0.035035506 0.14212731
-0.025564391 0.035838254 0.14276457
-0.01512684 0.036643226 0.14215031
-0.0079835709 0.037435859 0.14206591
0.00015850179 0.037351348 0.14253384
0.010676619 0.037348926 0.14224622
0.015968692 0.037190974 0.14258003
-0.019385865 0.038307667 0.1424059
0.0057671261 0.038408458 0.1420759
-0.019304048 0.039571345 0.14283925
0.019819982 -0.036314767 0.1438112
-0.0031706579 -0.035526987 0.14383787
-0.032250233 -0.020780805 0.14395884
0.032042205 -0.01089072 0.14312106
0.031335533 -0.0040660137 0.14328912
0.0313983 0.0020621335 0.14308196
0.029738817 0.013408005 0.14352769
-0.036021028 0.02174064 0.14303112
0.032673035 0.025327988 0.14375436
-0.035828076 0.026365219 0.14386544
-0.034012418 0.02962672 0.14337048
0.030939138 0.029085813 0.1433633
0.032172985 0.029167926 0.14392453
-0.033101536 0.033660572 0.1439102
0.029461142 0.03309916 0.14305496
0.021771012 0.036051851 0.14306009
-0.0037118604 0.038625598 0.14374077
0.007937355 0.038419127 0.143848
-0.014623977 0.039569616 0.1430206
-0.0094359815 0.039029658 0.14348072
0.014726724 -0.036324188 0.14436142
0.0010760706 -0.03543492 0.14427507
-0.013216454 -0.033478126 0.14448303
0.025266288 -0.033539608 0.14466351
0.028292323 -0.030103398 0.14407182
-0.025259852 -0.026449757 0.14449486
0.029431371 -0.025625141 0.14430311
-0.034022275 -0.018145923 0.14451042
0.030613633 -0.017340122 0.14474255
-0.036582913 -0.01411356 0.14431608
-0.034513354 -0.014984 0.1446645
0.031389985 -0.013809391 0.14451569
-0.037443954 -0.011073051 0.14418635
-0.036695696 -0.0007880982 0.14459118
0.031710047 0.0020560017 0.14426944
0.030608628 0.010468784 0.14491618
-0.037112776 0.011751872 0.14433509
0.032226861 0.014337188 0.14448553
-0.037187915 0.016651338 0.14496925
0.031526659 0.02521202 0.14461389
-0.033213809 0.031451143 0.1442475
0.027506884 0.034104727 0.14465493
0.025724664 0.03521812 0.14498454
-0.020896729 0.037947975 0.14496642
-0.00059979875 0.037708592 0.14472911
0.011627139 0.037820954 0.14426473
0.016582318 0.037570372 0.14464778
0.021516109 0.037177876 0.14400363
-0.010990413 0.038828235 0.14450014
0.0087669939 0.038325369 0.14496413
-0.01496294 0.039219905 0.14420608
0.00096474617 0.039060652 0.1442216
-0.0044590924 -0.035033461 0.14512703
-0.00066966563 -0.035449266 0.14591366
0.0075451299 -0.035625033 0.14567024
0.0090843774 -0.035200477 0.14572862
-0.0098050395 -0.034154631 0.14593601
0.0038074031 -0.034576714 0.14568305
0.021642301 -0.034728266 0.14540601
-0.017630275 -0.033322651 0.14512998
-0.014890578 -0.033117115 0.14566287
-0.013790407 -0.033679247 0.14580676
-0.02064134 -0.031064142 0.14560628
-0.023780229 -0.028018838 0.14522755
-0.026703633 -0.02541752 0.14553553
-0.027222266 -0.024822004 0.14578629
-0.028825482 -0.023675978 0.14522415
-0.030120246 -0.022199081 0.1458146
0.029708346 -0.022148544 0.14516345
0.031146334 -0.01785676 0.14545819
0.031126834 -0.013880701 0.14552391
0.030859636 -0.0090907235 0.14536133
0.03300035 -0.0056199753 0.14592773
-0.036572039 -0.0029957336 0.14518979
0.032102365 -0.0026804917 0.14570063
0.032694817 -0.0012206421 0.14573699
-0.036762714 0.00091196736 0.14547265
-0.036992349 0.0016064532 0.14592963
0.032311559 0.0037914268 0.14509189
-0.036940828 0.004081158 0.14505413
-0.03649205 0.0055980938 0.14594209
0.031894263 0.0076546962 0.14518487
0.032440484 0.0089631658 0.14511067
-0.036581159 0.010316867 0.14571711
0.031775311 0.012170289 0.14548659
-0.035057854 0.013890233 0.14503428
0.031437051 0.016775647 0.14516962
0.030788884 0.017276563 0.14580876
0.03095784 0.020800427 0.14560631
-0.037129525 0.021194547 0.14521745
-0.03578271 0.02381386 0.14596444
-0.035094123 0.028401703 0.14502531
-0.032694027 0.033989705 0.14510205
0.029706173 0.033206347 0.14532897
-0.030993192 0.036636312 0.14536932
0.013638938 0.036184281 0.14518088
-0.021956937 0.037130244 0.14525932
-0.018807711 0.037795253 0.14536735
-0.026601225 0.038186751 0.14537889
0.0056200107 0.038804114 0.1451686
0.02169507 -0.036275111 0.14676806
0.026014637 -0.036655869 0.14612076
-0.0058121402 -0.035674214 0.14626789
-0.0011734469 -0.035722479 0.14617357
0.0036303401 -0.035736993 0.14612147
-0.010312099 -0.034621477 0.14626798
0.013626418 -0.034542371 0.14606369
-0.023222119 -0.028659932 0.14654374
-0.033493035 -0.018387791 0.14627284
0.032979369 -0.015724206 0.14644501
-0.035231911 -0.0132185 0.14622906
0.033146262 -0.010006441 0.1463874
-0.037115104 -0.0076259244 0.14602062
-0.03698086 -0.0039354535 0.14645082
0.03257753 0.0018008118 0.146974
-0.036814094 0.015790731 0.14609
-0.034543529 0.030078664 0.1464316
0.030885084 0.030194467 0.14609641
-0.030018387 0.033669148 0.14648581
-0.02831577 0.036146991 0.14606589
-0.024276109 0.03652215 0.14627844
0.024063917 0.036041871 0.14621046
-0.012577048 0.037114002 0.14689493
-0.0033813575 0.037465207 0.14679918
0.0015383698 0.037653297 0.14619705
0.02142226 0.037301846 0.14686561
-0.016350558 0.038986165 0.14669168
0.01482521 -0.036113918 0.14723372
-0.019694623 -0.032351002 0.14722615
-0.030727679 -0.022237223 0.14733213
-0.037297666 -0.0095460825 0.14713377
-0.037435628 0.0059425086 0.14766151
-0.03481587 0.019378655 0.1479452
-0.036577061 0.02193629 0.14750752
0.032454457 0.023528237 0.14721203
-0.035551347 0.025746927 0.14707363
-0.033680297 0.027980499 0.14748389
0.028338566 0.033370644 0.1473949
0.016534928 0.036163636 0.14748639
-0.014806744 0.038769007 0.14786267
0.00060188398 0.038225412 0.14781773
0.0053187869 0.038464751 0.14729309
-0.01969089 0.039197326 0.14766115
-0.0046781972 -0.036078095 0.14891428
-0.001544157 -0.036262572 0.14891577
0.0097683594 -0.036507096 0.14861295
0.01173484 -0.036116302 0.14829496
0.01409981 -0.036549963 0.14874876
0.017518006 -0.036159128 0.14856046
0.0013586776 -0.035725012 0.14853722
0.020113187 -0.035069935 0.14899528
-0.011641711 -0.034271915 0.14866474
-0.015406282 -0.033763666 0.14821482
-0.019136455 -0.032353029 0.14806426
-0.023220714 -0.029568974 0.14822626
-0.024810607 -0.02755972 0.14884418
-0.02687181 -0.025777359 0.14860055
0.030465871 -0.024562992 0.14861056
0.032218434 -0.024097418 0.14897993
-0.030098476 -0.022369122 0.14869779
0.031099916 -0.020421572 0.14804664
0.032352872 -0.019879466 0.1486744
-0.033590846 -0.01847429 0.14824772
-0.034292996 -0.016472511 0.148754
-0.0362239 -0.014178174 0.14879107
-0.035879493 -0.014075357 0.14804298
0.031643257 -0.011205507 0.14897043
-0.037393171 -0.0097971354 0.14879662
-0.037480712 -0.0044922945 0.14832973
0.031715125 -0.0034150025 0.14863902
-0.037065778 -0.0019299844 0.14886943
-0.037274897 0.00077236397 0.14863184
0.032430425 0.0017312421 0.1484888
-0.03704679 0.0054585482 0.14884877
-0.037064418 0.010784728 0.14842808
-0.035342183 0.012053466 0.14822972
0.033005595 0.014930366 0.14888626
-0.036945257 0.015731644 0.1482299
-0.035105586 0.016297722 0.14838982
0.032568991 0.019148689 0.14880589
0.031798676 0.023652583 0.14882955
-0.034952167 0.031647269 0.14866608
-0.033749923 0.034812208 0.14880893
0.028644193 0.034563713 0.14826313
0.020159766 0.035822626 0.14842305
0.025720961 0.03561436 0.14804074
-0.020944424 0.037439324 0.14897281
-0.0059336051 0.03784189 0.14845675
0.010735894 0.037642896 0.14875114
0.015255614 0.037535783 0.14860678
-0.010138609 0.038510919 0.14810523
-0.0046842392 0.038572192 0.1483604
0.00076437218 0.038861334 0.14877051
