# .PCD v0.7 - Point Cloud Data file format
VERSION 0.7
FIELDS x y z
SIZE 4 4 4
TYPE F F F
COUNT 1 1 1
WIDTH 366
HEIGHT 1
VIEWPOINT 0 0 0 1 0 0 0
POINTS 366
DATA ascii
0.01120116 -0.028974039 0.1835241
0.013833659 -0.029349754 0.1836718
0.0063690809 -0.030502848 0.18125871
0.0097681452 -0.031180654 0.18069047
0.013718397 -0.032385655 0.1813885
0.010945125 -0.031691499 0.176485
0.013986622 -0.032804694 0.17595837
-0.01395995 -0.02636678 0.18282783
-0.01107926 -0.026072297 0.18377247
-0.0072702458 -0.026209679 0.18420845
-0.0034759035 -0.026263475 0.18383986
0.0010072349 -0.026466558 0.18296441
0.0057909051 -0.026186228 0.18336684
0.0097577069 -0.026784692 0.18403757
0.01389711 -0.026566591 0.18435836
-0.014061123 -0.027615666 0.18011206
-0.0113662 -0.028587852 0.18069708
-0.0073853415 -0.028949466 0.18077287
-0.0034230959 -0.028982112 0.1806089
0.0013190578 -0.029651949 0.18015042
0.0054115402 -0.030424528 0.17969537
-0.014162296 -0.028864453 0.17739624
-0.011264889 -0.02978795 0.17591745
-0.0075986469 -0.03026906 0.17539224
-0.0036273701 -0.030400617 0.17530286
0.00083723717 -0.030947685 0.1748704
0.0056041838 -0.031154446 0.17451924
0.0093957307 -0.03158319 0.17443213
0.012612567 -0.032336611 0.17385834
-0.0077531519 -0.031164663 0.17150581
-0.0033797671 -0.031433243 0.17028251
-2.9686307e-05 -0.031454906 0.16976029
0.0047624856 -0.031635046 0.16944209
0.0093996646 -0.032256551 0.16969311
0.013361884 -0.032384582 0.16960421
0.0057350849 -0.03250163 0.16577506
0.0095280623 -0.032689486 0.16561899
0.013404042 -0.032771129 0.16492286
-0.0073230118 -0.021240287 0.18425402
-0.0033420788 -0.02094228 0.18384913
0.00063299335 -0.020368032 0.18324608
0.0057060309 -0.02049458 0.18345809
0.010181088 -0.020428061 0.18413135
-0.011931934 -0.023914423 0.18458343
-0.0020075953 -0.023252249 0.18363085
0.00063660316 -0.022913115 0.18325976
0.0039548054 -0.022952199 0.18312913
-0.012376945 -0.028942466 0.17280379
-0.011884638 -0.029066972 0.16889712
-0.0078898389 -0.030310495 0.16851071
-0.0048031388 -0.030765705 0.16801149
0.0013765608 -0.031222701 0.16745615
-0.011328949 -0.029311487 0.163279
-0.0081114732 -0.03007298 0.1633392
-0.0040699951 -0.031356711 0.16413188
-6.1933482e-05 -0.032080956 0.1644986
0.0041957526 -0.032017913 0.1638422
0.0088354778 -0.031647 0.16236997
0.012478029 -0.032426629 0.16233754
-0.0082445582 -0.030599663 0.16004816
-0.0039070845 -0.031238489 0.15987504
-0.00023488168 -0.03212091 0.15992135
0.0041731596 -0.031547479 0.15896598
0.009324301 -0.030939767 0.15875292
0.013021847 -0.031577773 0.15796041
0.012912487 -0.031850033 0.15446603
-0.0073746094 -0.017366104 0.1840328
-0.0030531092 -0.017001476 0.18329075
0.00083645806 -0.016643438 0.18369615
0.00482265 -0.016960144 0.18404913
-0.013403193 -0.02756938 0.16538021
-0.014054699 -0.027726991 0.1620577
-0.012362707 -0.029238787 0.15812808
-0.0083982553 -0.029789023 0.15664136
-0.0046313065 -0.030595217 0.15690559
-0.00036133028 -0.03142757 0.15660989
0.0049598147 -0.030853629 0.1559186
0.0086371917 -0.030535085 0.15596601
-0.011199941 -0.029700484 0.15390384
-0.0083729355 -0.029977851 0.15265372
-0.004527403 -0.031007972 0.15274704
-0.00068127312 -0.030732803 0.15258819
0.0037924999 -0.030364905 0.15227592
0.008340016 -0.030413032 0.15151954
0.012842369 -0.031083379 0.1517731
-0.0040098834 -0.030924082 0.14891428
-0.0013235632 -0.031082205 0.14891577
0.010058434 -0.030956831 0.14829496
0.012707323 -0.030954788 0.14723372
0.00064139761 -0.010882871 0.18379515
0.0050326623 -0.010789122 0.18397588
-0.0036963171 -0.01300575 0.182944
-2.7428781e-05 -0.013422489 0.18379399
0.0060205441 -0.01385384 0.18380833
-0.014147829 -0.02749816 0.15494654
-0.013581819 -0.027875867 0.15054366
-0.0093597854 -0.029475026 0.14989638
0.00072009169 -0.0298419 0.14972138
0.0033953844 -0.029571176 0.14938584
-0.012763352 -0.028386099 0.14566287
-0.0088389423 -0.029675553 0.14626798
-0.0049818344 -0.030577898 0.14626789
-0.00057399913 -0.030385086 0.14591366
0.0032634884 -0.029637184 0.14568305
0.0077866092 -0.030171838 0.14572862
0.012622233 -0.030967865 0.144429
-0.012391372 -0.02924175 0.14230737
-0.0088708363 -0.030321479 0.14135152
-0.0049879858 -0.030763404 0.14129221
-0.00094645575 -0.030811276 0.14114732
0.0030909602 -0.030790739 0.14094761
0.0077992156 -0.030764835 0.14071271
0.012509248 -0.031084862 0.14075363
-0.007828691 -0.03101022 0.13782769
-0.0051330552 -0.030929651 0.1376406
-0.00084036321 -0.031065039 0.13679525
0.002908645 -0.031587586 0.13590735
0.0074553275 -0.031995893 0.13620508
0.012070257 -0.031947408 0.13559437
0.0036808976 -0.032798715 0.13241613
0.0068170065 -0.032803006 0.13196078
0.011145332 -0.032475319 0.13207024
-0.003450606 -0.0082924198 0.18308461
0.00063592463 -0.0069448268 0.18377796
-0.013969114 -0.028179798 0.13942114
-0.010535475 -0.029128227 0.13833538
-0.01258876 -0.028971944 0.13486993
-0.0094940718 -0.029781513 0.13476455
-0.0052743675 -0.030246887 0.13423675
-0.0015393565 -0.031248042 0.13440517
-0.0087986896 -0.029756324 0.13112828
-0.0047204643 -0.029988579 0.13113445
-0.0010732557 -0.030512657 0.13063198
0.0024263614 -0.03176742 0.12997091
0.0067117494 -0.032274026 0.12866455
0.011756556 -0.032196574 0.12919402
0.015786093 -0.030616062 0.1294474
0.0032409339 -0.031335201 0.12612689
0.0069591254 -0.031642504 0.12573397
0.011322674 -0.032069106 0.12445033
0.015436471 -0.031100392 0.12538749
0.00064142316 -0.0020876271 0.18406707
-0.013871261 -0.027693527 0.12870857
-0.0098262476 -0.028651562 0.1277979
-0.0057291538 -0.029027428 0.12792349
-0.0018105006 -0.029604333 0.12732983
0.0012410949 -0.030049937 0.12707895
-0.0094546527 -0.028579883 0.12393445
-0.0055586882 -0.029161794 0.12303314
-0.0016361779 -0.029565096 0.12294963
0.0022533557 -0.030268805 0.12280861
0.006256572 -0.031350322 0.12292379
0.014676288 -0.031164255 0.12258616
-0.0051718419 -0.030169947 0.11974055
-0.0017676332 -0.030005846 0.11945206
0.0023228778 -0.029977441 0.1192466
0.0067502484 -0.030731015 0.11919516
0.010458319 -0.03145276 0.11817992
0.013861573 -0.031650372 0.11819667
0.01393915 -0.031945109 0.11326361
0.00063239463 0.0033595052 0.18399251
-0.01088927 -0.027890529 0.12142098
-0.0071947062 -0.028836966 0.1206578
-0.010499447 -0.028210454 0.11717021
-0.006173647 -0.029552732 0.11676848
-0.0018911585 -0.029590385 0.11619365
0.002193287 -0.02896893 0.11548978
0.0060228491 -0.029335704 0.11543423
-0.009592793 -0.028345535 0.11255586
-0.0060092546 -0.029546039 0.1117003
-0.0019046861 -0.02928916 0.11130148
0.001843262 -0.028953247 0.11116642
0.0061439285 -0.029513597 0.11089259
0.010260034 -0.030070782 0.11118412
0.013442945 -0.031455569 0.11157072
0.010784776 -0.030578766 0.10620666
0.012867862 -0.031998701 0.10782307
-0.0043265899 0.0081917727 0.18444204
-0.012925572 -0.026965551 0.11545348
-0.011697985 -0.027868764 0.11175478
-0.0076484997 -0.029392771 0.109438
-0.0035332756 -0.029269848 0.10915238
0.002639581 -0.029085467 0.10872394
-0.010789556 -0.028497117 0.10704082
-0.0063659232 -0.030075431 0.10701722
-0.0022415461 -0.030161772 0.10691088
0.0018431453 -0.030200141 0.1057809
0.0059621483 -0.03019074 0.10559297
0.0095192809 -0.030245814 0.10509133
-0.0098996628 -0.029075606 0.10177147
-0.0065493798 -0.030411448 0.10238516
-0.0025665995 -0.030566096 0.10195041
0.0018434376 -0.03129673 0.10105705
0.0057836571 -0.031093495 0.10046214
0.009909045 -0.031145148 0.10032862
-0.0063733296 -0.030635118 0.098115087
-0.0023237718 -0.030824814 0.097410202
0.001188027 -0.031023655 0.097133934
0.005647487 -0.030878766 0.096318066
0.0097968448 -0.031928454 0.097057283
-0.013450643 -0.025969148 0.10380769
-0.012655761 -0.026643941 0.099107087
-0.011719899 -0.027585831 0.095185876
-0.0081000179 -0.028703213 0.094258606
-0.0027813199 -0.028602567 0.092693269
0.0013987736 -0.02937213 0.093188941
0.005549002 -0.029294474 0.092941582
0.0097035747 -0.02959064 0.093022525
0.01246391 -0.029103398 0.092475295
-0.0065836417 -0.029295497 0.090131223
-0.0028949943 -0.029404216 0.089651048
0.0012572823 -0.029386844 0.089206517
0.0054190364 -0.029447386 0.089080811
0.0095803849 -0.029646482 0.089077473
0.012897782 -0.030167904 0.088997245
0.0053030946 -0.030279994 0.085811436
0.0096257366 -0.030773265 0.084630728
0.01357238 -0.030957699 0.084052861
0.010687981 -0.03183404 0.08093375
0.01316759 -0.032613058 0.08072418
0.010550802 -0.035583563 0.07828635
-0.0131023 -0.026512895 0.092506111
-0.012755258 -0.026830265 0.087544382
-0.0089838514 -0.028586933 0.088268876
-0.0029932512 -0.029028909 0.087063611
-0.011975623 -0.027820894 0.083683372
-0.0086980173 -0.029536638 0.083729386
-0.0038032255 -0.030104604 0.084030032
0.0010650286 -0.030165043 0.083876371
0.0052042934 -0.030350599 0.082858264
0.0086546838 -0.030896392 0.082193315
-0.0085255913 -0.029736552 0.079351068
-0.0038213064 -0.030559966 0.07855767
0.00068580732 -0.030709045 0.078896105
0.0050461004 -0.030811939 0.078224719
0.0090466859 -0.031225869 0.078177512
0.011946307 -0.030809335 0.075905085
-0.013951396 -0.026211211 0.081654131
-0.01320538 -0.026547842 0.077179253
-0.0089885714 -0.029487951 0.07660675
-0.0062105786 -0.030025976 0.075960636
0.00076515763 -0.029725978 0.07539326
-0.012552908 -0.027601361 0.07238853
-0.0093680397 -0.028805392 0.072359383
-0.0049424157 -0.029739516 0.072587729
-0.00074092194 -0.029774003 0.072442591
-0.012124063 -0.028750062 0.068912923
-0.0091789924 -0.02945745 0.067643523
-0.0051213684 -0.030205915 0.067906439
-0.00090801559 -0.030363731 0.067876279
0.001809878 -0.029838579 0.065224349
-0.0052669328 -0.030528853 0.064101577
-0.0010515472 -0.030539582 0.063935935
0.002453126 -0.030298335 0.063565791
-0.013448781 -0.027515786 0.065774739
-0.010834343 -0.02989723 0.065806568
-0.012439569 -0.027670333 0.061744332
-0.0092913797 -0.029307809 0.062306941
-0.0054254895 -0.029526217 0.060075581
-0.0011682585 -0.03040261 0.060718119
0.0023481639 -0.030344827 0.060518384
-0.0013194489 -0.029188361 0.05647999
-0.0097318459 -0.028174741 0.058646977
0.0043747118 -0.028156757 0.057353437
0.012839878 -0.027358942 0.056255937
-0.013978632 -0.02680283 0.055022478
-0.010076606 -0.028070211 0.055196047
-0.0056489334 -0.028910534 0.054315329
-0.0014458767 -0.028778059 0.052975893
0.0026610675 -0.02848649 0.053833544
0.0072565731 -0.02839458 0.053557336
0.011125579 -0.027910404 0.053277016
-0.012903878 -0.028059687 0.050677359
-0.0098984558 -0.028469376 0.05015707
-0.0058524525 -0.028848717 0.04904294
-0.0015929831 -0.028917484 0.048933566
0.0028774035 -0.028817551 0.049103439
0.006721389 -0.028586524 0.048726261
0.011361473 -0.028425438 0.048719108
0.01407425 -0.026738558 0.049364209
-0.005951073 -0.029417191 0.046443164
-0.0017169554 -0.029550688 0.045557797
0.0025409812 -0.029753311 0.045368314
0.0067738392 -0.029800517 0.044452846
0.011240145 -0.029557381 0.0443753
-0.011610925 -0.028119819 0.047535956
-0.013586998 -0.027338607 0.043182313
-0.010335455 -0.028649621 0.043780029
-0.0060778875 -0.029286198 0.043166339
-0.0018198676 -0.029544048 0.042714536
0.0024334979 -0.029753106 0.042216539
0.0066962945 -0.029670851 0.041964114
0.01024693 -0.02954226 0.041696012
-0.0098006511 -0.028494205 0.039384544
-0.0062650223 -0.028683595 0.038364768
-0.0019680564 -0.029113309 0.03860718
0.0023067493 -0.029015677 0.038339376
0.0067382935 -0.029111011 0.037457466
0.010826603 -0.029029574 0.03694874
0.013725786 -0.027476702 0.037447274
-0.014334737 -0.026849372 0.037551165
-0.010959484 -0.028022034 0.037383437
-0.0049613845 -0.028571758 0.035019636
-0.0021050631 -0.028456602 0.034792304
0.0021821847 -0.028373327 0.034538448
0.0050371503 -0.028183375 0.034238279
-0.013663658 -0.028055498 0.032735288
-0.010756134 -0.028885245 0.033429086
-0.0066397064 -0.02914381 0.033251226
-0.0021965122 -0.029185142 0.032314181
0.0020879721 -0.028922899 0.031885087
0.0063812532 -0.029025998 0.0318138
0.010671386 -0.029106924 0.031720817
-0.013833378 -0.029125061 0.028447568
-0.01094219 -0.029541442 0.028743029
-0.0066409195 -0.029517226 0.028547287
-0.0023480123 -0.029284768 0.028146505
0.0019409087 -0.028855102 0.027550876
0.0064403862 -0.02924696 0.027298927
0.010522386 -0.029811502 0.027081728
0.014837444 -0.028145926 0.026336133
0.010859204 -0.030289905 0.022540569
-0.011126691 -0.028432336 0.024433792
-0.0068013989 -0.028615544 0.024443448
-0.0025178455 -0.027699403 0.023364246
0.0017825547 -0.027028186 0.022527277
0.0054079527 -0.028157882 0.0235039
0.014747603 -0.027785897 0.022763431
-0.011238169 -0.02794683 0.021800697
-0.0069592022 -0.027805977 0.020409763
-0.0026020845 -0.027525544 0.021038651
0.0019737771 -0.0272328 0.019701123
0.0061858222 -0.028552704 0.019824982
0.010068731 -0.029546347 0.019676208
0.014639322 -0.028097186 0.019035339
0.0063467389 -0.028813107 0.01548332
0.0098865936 -0.029424498 0.015092552
-0.011372356 -0.02699697 0.018696129
-0.0027104889 -0.026649151 0.018005967
0.00017022926 -0.02629602 0.017539144
-0.011549171 -0.027013574 0.014374971
-0.0071885516 -0.027302589 0.014494956
-0.0028596339 -0.026901893 0.013921142
0.0014966615 -0.027351379 0.014203012
0.0050942432 -0.028083904 0.013712883
0.011569651 -0.028530071 0.012822688
0.014184058 -0.027208023 0.012254953
-0.010290467 -0.02759007 0.0094559789
-0.0073851594 -0.027628796 0.0093817115
-0.0028401976 -0.027672172 0.0087795854
0.0013049203 -0.028453231 0.00878793
0.0056614983 -0.02895299 0.0091257691
0.010002156 -0.028919272 0.0089219213
0.014331599 -0.027361188 0.0071678758
0.0018948625 -0.028911455 0.0048561692
0.005969895 -0.029425571 0.003762424
0.01003933 -0.02928257 0.0033531785
0.013230047 -0.028182659 0.0029379129
-0.012534678 -0.026284218 0.0082176924
-0.011788216 -0.026465178 0.003508389
-0.0076181632 -0.027118156 0.0033856034
-0.0034371151 -0.027221868 0.0030555725
0.00073042937 -0.02821219 0.0025364757
0.0039981613 -0.028825982 0.002491653
0.014155758 -0.027816756 0.0010609627
-0.012860164 -0.026108725 0.00035017729
