# .PCD v0.7 - Point Cloud Data file format
VERSION 0.7
FIELDS x y z
SIZE 4 4 4
TYPE F F F
COUNT 1 1 1
WIDTH 376
HEIGHT 1
VIEWPOINT 0 0 0 1 0 0 0
POINTS 376
DATA ascii
0.033185828 0.027164895 0.18149939
0.031390317 0.030796107 0.18200523
0.035596024 0.023637317 0.17892215
0.035081122 0.02691751 0.17861289
0.033784948 0.0319454 0.17864349
0.036092333 0.028610744 0.17483985
0.034485426 0.031854834 0.17431149
0.027677987 0.02504761 0.18378991
0.026577458 0.027356714 0.18360254
0.032816064 0.016587358 0.18099841
0.032463666 0.020837784 0.18187949
0.031056073 0.024622899 0.18225887
0.027737655 0.029991899 0.18302029
0.035094753 0.017965794 0.17699489
0.035618544 0.021452382 0.17732215
0.035122886 0.024980806 0.17620403
0.028803265 0.034827597 0.17622444
0.035732504 0.022239191 0.17263311
0.035812192 0.026305299 0.17301896
0.035202798 0.030612327 0.17199844
0.03114376 0.034503005 0.17214239
0.035983812 0.02337506 0.16912651
0.035778064 0.026811179 0.16842651
0.035108116 0.031262532 0.16844034
0.032407016 0.033881597 0.16778231
0.034778241 0.031815942 0.16470447
0.033086315 0.033600911 0.16403246
0.033018634 0.00021976978 0.18256319
0.031191498 0.0036743814 0.18308353
0.029571638 0.0080442317 0.18339157
0.028099861 0.012911983 0.18297952
0.0256976 0.017924525 0.18314818
0.023588702 0.022060769 0.18370122
0.034392834 0.0006602034 0.17983526
0.033535961 0.0045155324 0.18010664
0.032583911 0.0091661923 0.18048248
0.032258973 0.013417444 0.18047261
0.035280246 0.0017246278 0.17694259
0.034508523 0.0049429499 0.17583653
0.033954274 0.0096319225 0.17528367
0.034255933 0.014405523 0.17506838
0.03481023 0.010722911 0.17060828
0.034524996 0.015328291 0.17018005
0.035202462 0.01979957 0.17062443
0.035681933 0.015607146 0.16591308
0.03522994 0.020427741 0.16583562
0.034444351 0.02506326 0.16487467
0.029112365 0.034728833 0.16509902
0.03556671 0.020755915 0.16202182
0.034510411 0.025777718 0.16139412
0.033452023 0.030092448 0.16114059
0.030733686 0.03394201 0.16079599
0.033734798 0.026974082 0.15747899
0.033152189 0.030082708 0.15779155
0.03181763 0.032869443 0.15755838
0.024751831 0.00093522575 0.18329954
0.023271067 0.0053851358 0.18331343
0.021203768 0.0095662717 0.18293136
0.019204255 0.014626217 0.18276262
0.01770144 0.019917015 0.18338525
0.030856967 -0.0017645247 0.18322593
0.028910076 0.0027637351 0.18427914
0.026903478 0.0069487812 0.18393314
0.024534037 0.010970307 0.18334159
0.022630287 0.015204078 0.18306553
0.034267854 -0.0019617407 0.17922893
0.034691721 -0.00036634319 0.17433083
0.034359474 0.0044701211 0.17269078
0.034016255 0.0076538897 0.17192364
0.033751372 8.9008361e-05 0.16957399
0.033687327 0.003940464 0.16819221
0.034333996 0.0087111425 0.16805944
0.034299321 0.005640056 0.16339323
0.034769509 0.0094505902 0.16380355
0.035487246 0.012911451 0.16383693
0.035195325 0.01008526 0.16027674
0.035137191 0.014450445 0.15956202
0.035124026 0.019578513 0.15895855
0.033469822 0.019795384 0.15511924
0.03334 0.024823491 0.15467066
0.032162465 0.029556707 0.15427113
0.029156551 0.033089068 0.15406868
0.032697234 0.02501677 0.15035021
0.031799611 0.029224683 0.14931226
0.029566653 0.032263309 0.14980394
0.021164607 -0.00057864236 0.18364856
0.019313753 0.0037229031 0.18341649
0.017611193 0.0080893096 0.18328303
0.015712336 0.012847534 0.18298212
0.033556741 -0.0027273735 0.17132378
0.033241838 -0.0029261094 0.16699296
0.033683788 0.0020726239 0.16503006
0.033546165 -0.00018297788 0.16224203
0.033911295 0.0031882348 0.16143826
0.034432881 0.0072676628 0.16104752
0.034232285 0.0040465361 0.15790638
0.033929467 0.0082834885 0.15670517
0.034113925 0.011970327 0.15629485
0.033068527 0.0096895928 0.15327236
0.033008762 0.013395348 0.15329853
0.033223856 0.018441802 0.15218285
0.032568991 0.019148689 0.14880589
0.032454457 0.023528237 0.14721203
0.028338566 0.033370644 0.1473949
0.032673035 0.025327988 0.14375436
0.032172985 0.029167926 0.14392453
0.029461142 0.03309916 0.14305496
0.033049714 0.026002619 0.14001116
0.032440536 0.02911932 0.13985422
0.030385293 0.031658668 0.13956311
0.01231786 0.00077232602 0.18337369
0.010776144 0.0052963374 0.18427998
0.0091789057 0.0093911849 0.18396989
0.014898036 0.0018521638 0.18323603
0.013959029 0.0065872134 0.18361461
0.011927176 0.010827312 0.18326581
0.033290084 -0.0028816937 0.15581995
0.033093791 0.0026025102 0.15435952
0.033288162 -0.002776281 0.15121859
0.032519348 0.0030476507 0.15021652
0.032019179 0.0071654366 0.14994338
0.031683404 0.011903577 0.14960298
0.031894263 0.0076546962 0.14518487
0.031775311 0.012170289 0.14548659
0.031437051 0.016775647 0.14516962
0.031802606 0.012309677 0.14100048
0.031045148 0.016965283 0.14066207
0.031083422 0.021397863 0.1411854
0.031113626 0.018319817 0.13698584
0.031188635 0.022996716 0.13644561
0.03125095 0.028515734 0.13638201
0.02792253 0.032461457 0.13600233
0.030330256 0.027665757 0.13253826
0.028625686 0.031258553 0.13199091
0.0094728721 -0.00038046367 0.18427667
0.0073956903 0.0039173597 0.18483135
0.032494187 0.0015047416 0.14829296
0.032102365 -0.0026804917 0.14570063
0.031710047 0.0020560017 0.14426944
0.031811293 0.00578658 0.14282262
0.03163806 0.0072467998 0.13924176
0.031885833 0.01144539 0.13829643
0.031593971 0.015176626 0.13848093
0.031407252 0.011956592 0.13524404
0.030898111 0.016189797 0.13421184
0.030728186 0.020304186 0.13401675
0.030116966 0.017626608 0.13044661
0.029763542 0.021232963 0.13028443
0.02907401 0.026539963 0.12943792
0.026371237 0.031954348 0.12874573
0.0025442941 0.0018829347 0.18444565
0.030241448 -0.00068505201 0.14163163
0.029406587 0.00083643105 0.13800105
0.029203165 0.0037703854 0.13623953
0.03027969 0.0067368429 0.13474572
0.029964861 0.010771645 0.13195419
0.028501421 0.010875143 0.12877217
0.029055428 0.015352281 0.12761247
0.028120825 0.019629993 0.12622714
0.027096938 0.024778981 0.12627149
0.026644778 0.020184314 0.12296087
0.02556153 0.024361096 0.12244684
0.024738085 0.029332239 0.1230129
-0.0031316711 -0.00051814847 0.18355465
0.02737774 -0.0026617534 0.13436499
0.026754301 -0.00098577607 0.13164502
0.027367622 0.0040364387 0.13126537
0.025524424 0.0051911734 0.12645856
0.027179204 0.0089203566 0.12647983
0.026838189 0.014220329 0.1226548
0.026062181 0.018980376 0.12034822
0.025286011 0.023361243 0.1194104
0.023493128 0.02820644 0.11886925
0.024602005 0.018260937 0.1172505
0.023925172 0.023114711 0.11600155
-0.0070613455 -0.0079147024 0.18461263
-0.0095120734 -0.002889659 0.18487611
-0.0057771038 -0.0016102148 0.18371704
0.024584897 0.0022142031 0.12709168
0.023484141 0.002457316 0.12383309
0.024730528 0.0072760228 0.122536
0.024017131 0.0088832108 0.11983973
0.024486089 0.013087817 0.1188705
0.02308484 0.017543411 0.11475265
0.021555912 0.022021599 0.11217827
0.020347867 0.023178987 0.10967082
0.022261653 0.00062746601 0.12097445
0.021410929 0.00072595617 0.11683989
0.021059269 0.0059327902 0.11547172
0.021382624 0.01078142 0.11526465
0.02046521 0.005894938 0.11250651
0.01986829 0.011321324 0.11191571
0.019223377 0.01577251 0.10975111
0.018546676 0.01713286 0.10698396
0.018572874 0.020955998 0.10634315
0.020973295 -0.0020113736 0.11459279
0.020746376 -0.00064131524 0.11163807
0.01949938 0.0038130465 0.10962981
0.018975398 0.0095276497 0.10940444
0.017810043 0.009761611 0.10569561
0.018144194 0.014888676 0.10503441
0.018226806 0.019212812 0.10396695
0.017968105 0.015232645 0.10056406
0.018308409 0.020470243 0.099940479
0.018649213 0.020567663 0.09556061
0.019205628 0.022082608 0.092722476
0.016889798 0.0027747683 0.10305351
0.016122447 0.007130289 0.1019184
0.016472969 0.007673691 0.097729504
0.016885819 0.012196768 0.097474694
0.017063146 0.0089308154 0.093982041
0.017604847 0.013553077 0.093490779
0.017710786 0.018012781 0.093668222
0.018299509 0.013658467 0.089302778
0.017944958 0.018783033 0.088591397
0.01803026 0.020380268 0.08339417
0.019005822 0.0215328 0.080327213
0.016651586 0.00076713972 0.10040683
0.017171251 0.0019736304 0.09637028
0.017519781 0.0056372462 0.095498919
0.016938813 0.0019902717 0.091371775
0.017821288 0.0071442695 0.091799438
0.017291557 0.0025360999 0.088512659
0.017874409 0.0077560125 0.086846113
0.018122373 0.012113325 0.085923374
0.017676504 0.01342447 0.082724512
0.018199723 0.016882068 0.082621992
0.018773248 0.019584142 0.078027904
0.019446395 0.021565203 0.076579928
0.018682081 0.019328404 0.072373569
0.020020107 0.023619203 0.072991252
0.01721745 -0.0001155166 0.089829147
0.01755636 0.0013630386 0.085792065
0.016777836 0.004823315 0.084660411
0.017809447 0.0017049373 0.080774307
0.017059401 0.0063309739 0.080905855
0.016742762 0.011304202 0.080161929
0.018370764 0.0033402857 0.077240229
0.017581619 0.0067579783 0.07575649
0.01719928 0.011542182 0.07620126
0.017905034 0.016308531 0.075738668
0.018725172 0.0086118951 0.071662843
0.018740861 0.012192971 0.071578443
0.019280901 0.017408144 0.0716905
0.019673571 0.013603773 0.067819357
0.019486867 0.017438442 0.067061841
0.019494386 0.022611115 0.066223562
0.020449473 0.018368836 0.062370121
0.020123113 0.022820704 0.062434852
0.021918604 0.019604016 0.05779177
0.021047816 0.023260869 0.057611585
0.023451697 0.02053307 0.054511845
0.022619652 0.023933005 0.052991211
0.023653394 0.025783032 0.04984802
0.018100867 -0.00032533053 0.078161657
0.017576227 0.00081198849 0.073705971
0.017642206 0.004632541 0.072938323
0.017824465 0.0015057595 0.068814218
0.018316224 0.006028974 0.069365323
0.018334633 0.0073981602 0.064232886
0.018896099 0.011359026 0.064586699
0.019065769 0.01203673 0.059610367
0.019976966 0.015786571 0.059991896
0.019901711 0.013172307 0.055407226
0.020631995 0.016564559 0.055063367
0.022779623 0.019057956 0.051089406
0.023245119 0.02208516 0.050604522
0.022625653 0.019412689 0.045715332
0.023705229 0.023690555 0.046946347
0.025106981 0.019961897 0.041343749
0.02520898 0.024332367 0.042235374
0.027591841 0.020591047 0.036681831
0.027440835 0.025050711 0.037840545
0.025158381 0.028981842 0.037180841
0.02880693 0.021858264 0.033754528
0.028103029 0.025334004 0.032344878
0.026390307 0.028710516 0.03170526
0.029303193 0.026358295 0.029069841
0.028183248 0.028594822 0.028833091
0.017796025 -0.00098587014 0.067453086
0.01837589 0.0006668428 0.063890755
0.018014681 0.0049207797 0.062928557
0.0194655 0.0011001392 0.058807075
0.01899231 0.006098533 0.059195936
0.019342786 0.010009152 0.056923509
0.021121208 0.0020918786 0.0543167
0.020782899 0.0069048181 0.055066049
0.02019915 0.011573901 0.053800523
0.022956081 0.0030044816 0.049331188
0.022229275 0.0072653894 0.049950659
0.021280775 0.012087995 0.050294638
0.020381821 0.015531553 0.049772441
0.024365982 0.0043152096 0.045484304
0.023910461 0.0077330279 0.045028746
0.022738539 0.012699875 0.045514107
0.02225402 0.016810093 0.045022964
0.025889058 0.0083335359 0.040362239
0.025070917 0.01346055 0.041174948
0.024514996 0.017275421 0.040762842
0.027634541 0.0099505475 0.036224008
0.026966358 0.014027407 0.036439955
0.026481451 0.017464306 0.037042677
0.029043514 0.011010104 0.030806065
0.028744375 0.014542412 0.031591117
0.028571608 0.019303501 0.032120883
0.028619271 0.023426201 0.029802859
0.02996365 0.015769146 0.027567506
0.029587766 0.020123612 0.027470946
0.029026985 0.024820883 0.026797235
0.026026085 0.030072827 0.02683574
0.030871039 0.020664411 0.022493005
0.030474672 0.025715332 0.023402512
0.027469609 0.029880963 0.022220016
0.032611821 0.022317845 0.018204212
0.031969897 0.026115753 0.018281996
0.029324071 0.029095115 0.017565429
0.033934869 0.023158384 0.014678121
0.032774322 0.025903657 0.013693988
0.021027362 -0.0003879508 0.052223504
0.022290854 -6.8696216e-05 0.047986567
0.02419278 0.001797853 0.043292224
0.026450653 -0.0022440292 0.038084209
0.025956158 0.0028386661 0.038867235
0.028413335 -0.0018476015 0.034110785
0.028103432 0.0035137073 0.034327447
0.027364606 0.0073014786 0.034298837
0.028677862 -0.0010169987 0.030268967
0.029539686 0.0038597709 0.029131055
0.028848551 0.0081613455 0.029829443
0.030458739 0.0049462477 0.024800122
0.029847389 0.0095288521 0.025191367
0.029360661 0.013766519 0.02456975
0.029400175 0.010067429 0.020063996
0.030154195 0.014852619 0.02019465
0.031081224 0.018602237 0.019627988
0.03131862 0.015510404 0.015654206
0.031899795 0.01949908 0.015806973
0.025503665 0.029741932 0.014118791
0.032066319 0.015964057 0.012058377
0.032533605 0.020643696 0.010960221
0.031455863 0.026048237 0.0097268224
0.027872464 0.029298086 0.011141658
0.032200579 0.021271229 0.0072484016
0.031279724 0.025414042 0.006665647
0.028548069 0.028899506 0.0076580048
0.029010819 -0.0025063055 0.028310955
0.030608164 -0.0014340943 0.024135113
0.029969309 0.0019358611 0.023532331
0.031513248 -0.0013487265 0.01838702
0.030879132 0.0039475248 0.019443154
0.029628018 0.0078059458 0.019146144
0.032560728 0.00023527816 0.013721049
0.032251723 0.0042608525 0.014128923
0.030977549 0.0092490222 0.014588296
0.030486722 0.012679651 0.014130712
0.032818552 0.0046381038 0.0094689131
0.031719528 0.0095281694 0.0090104938
0.031680342 0.014174856 0.0093856454
0.025054686 0.030281346 0.0084772706
0.031987939 0.011012759 0.0039336085
0.032188948 0.014764624 0.0041507483
0.031705439 0.019446827 0.0044580102
0.030456215 0.024977848 0.0036640763
0.027109785 0.029371696 0.003805697
0.03160147 0.016167972 -0.00029820204
0.032202031 0.020284126 -0.00044858456
0.030937711 0.025020488 -0.0003105998
0.028079461 0.029093347 -0.0011579394
0.031619225 -0.0028543491 0.012218416
0.031161094 -0.0016897647 0.0075230598
0.032289211 0.0020841779 0.006950438
0.031950582 0.0074252733 0.0061002374
0.031676687 0.0036995308 0.0028158426
0.032117218 0.0082777403 0.0032032132
0.031148726 -0.002384942 0.0013540387
0.032136675 0.0016792584 9.6976757e-05
