# .PCD v0.7 - Point Cloud Data file format
VERSION 0.7
FIELDS x y z
SIZE 4 4 4
TYPE F F F
COUNT 1 1 1
WIDTH 456
HEIGHT 1
VIEWPOINT 0 0 0 1 0 0 0
POINTS 456
DATA ascii
-0.034857284 0.028487753 0.17940062
-0.036239848 0.025982145 0.17881244
-0.036992542 0.02639959 0.17665473
-0.034438111 0.0051048482 0.18369186
-0.035527702 0.002234634 0.18350929
-0.028306769 0.030654574 0.18082625
-0.030896869 0.026770858 0.18207297
-0.032635082 0.022709481 0.1821515
-0.033993028 0.018317467 0.18169659
-0.034718569 0.012783665 0.18084213
-0.036191881 0.0076354458 0.18086636
-0.037566472 0.0032309666 0.18041694
-0.03839092 -0.00096179079 0.18062109
-0.031192806 0.032242812 0.17857862
-0.032906145 0.029501699 0.18059707
-0.035516281 0.023568163 0.17887664
-0.036704168 0.019598231 0.17818263
-0.037124746 0.014030638 0.1768555
-0.036865178 0.0080950372 0.17685029
-0.032790579 0.032900617 0.17447481
-0.035699483 0.029277708 0.1749098
-0.036906272 0.024647383 0.17406738
-0.037689067 0.020235257 0.17349359
-0.037709717 0.015848424 0.17286488
-0.033715263 0.032509252 0.16966933
-0.035519127 0.029513601 0.16941434
-0.03680696 0.025061425 0.16941577
-0.037259169 0.021378564 0.16932094
-0.034566786 0.032635756 0.16609567
-0.035700932 0.030594232 0.16617924
-0.037239492 0.025438156 0.16560236
-0.029849192 -0.00025157817 0.18508628
-0.023096463 0.023431525 0.18285558
-0.025400586 0.019730773 0.18357676
-0.027095282 0.015426807 0.18333709
-0.028976798 0.010730856 0.18296441
-0.030925866 0.0057154396 0.18370494
-0.033624034 0.0013652267 0.18491393
-0.035333574 -0.0028837603 0.18379554
-0.025626838 0.025307562 0.18207586
-0.02831012 0.020938314 0.18282658
-0.030177003 0.016713491 0.18270576
-0.031782996 0.011844427 0.18225959
-0.039021075 -0.0017594881 0.17858365
-0.037194952 0.0083248569 0.17476773
-0.037902046 0.0036232425 0.1743682
-0.0387851 -0.00099883229 0.17357334
-0.037473258 0.013075865 0.17072332
-0.037615299 0.0087040421 0.17016998
-0.03808539 0.0041173156 0.16936702
-0.038744096 -0.00085935276 0.1694802
-0.030834626 0.033747528 0.16750455
-0.036539651 0.025087338 0.16691685
-0.037470438 0.019910159 0.16719544
-0.038039796 0.014888943 0.16669753
-0.038151503 0.0093489904 0.16540152
-0.038184784 0.0057705501 0.16600204
-0.032639619 0.033424087 0.16334075
-0.03516132 0.029484801 0.16317654
-0.03668179 0.025343213 0.16317713
-0.037654355 0.020768104 0.16265982
-0.038281236 0.01627478 0.16225645
-0.038349576 0.011874838 0.16233891
-0.033859003 0.033188339 0.15893337
-0.035941213 0.030158984 0.15816915
-0.036910556 0.025896933 0.15840968
-0.037652828 0.021385774 0.15869287
-0.018715223 0.015387549 0.18320709
-0.020370482 0.011027569 0.18292978
-0.021775153 0.0082363598 0.18294305
-0.025512395 0.0038593905 0.18381256
-0.026569046 -0.0016341014 0.18471077
-0.019787636 0.02284795 0.18330055
-0.02216544 0.018403146 0.18412733
-0.023297841 0.013871106 0.18351239
-0.024644345 0.0094160652 0.18303755
-0.026717091 0.0060669086 0.1832695
-0.037952229 0.0022778623 0.16670352
-0.03840391 -0.00090344064 0.16679385
-0.037843708 0.0074523492 0.16260436
-0.037359938 0.0036565308 0.16283748
-0.038170785 -0.0008292282 0.16225719
-0.03745915 0.015012936 0.1590274
-0.037268691 0.0095623285 0.15880716
-0.037114561 0.0046225879 0.15839478
-0.038284797 -0.00064204074 0.15867993
-0.039284457 -0.0035905987 0.15842119
-0.030479515 0.033809714 0.1566132
-0.034695402 0.031671714 0.15483004
-0.036655594 0.025773728 0.15490317
-0.037243642 0.020615943 0.15572149
-0.03690001 0.015801787 0.15521389
-0.036710948 0.011270193 0.15439311
-0.032224614 0.033185877 0.15228039
-0.03501207 0.030130465 0.15107948
-0.036300719 0.025566503 0.15161526
-0.03657341 0.020919304 0.15093842
-0.036767278 0.016294805 0.15081105
-0.034543529 0.030078664 0.1464316
-0.035551347 0.025746927 0.14707363
-0.036577061 0.02193629 0.14750752
-0.016074302 0.015993841 0.18343633
-0.017076083 0.011560336 0.18331194
-0.018312782 0.0065293172 0.18369594
-0.020961076 0.0023250524 0.18348521
-0.036396142 0.0028995611 0.15579447
-0.03765323 -0.00079182256 0.15547347
-0.036942508 0.0086341668 0.15251869
-0.037282288 0.0042780908 0.15206879
-0.037435789 -0.00016438682 0.1514827
-0.036945257 0.015731644 0.1482299
-0.037064418 0.010784728 0.14842808
-0.037435628 0.0059425086 0.14766151
-0.030018387 0.033669148 0.14648581
-0.033213809 0.031451143 0.1442475
-0.035828076 0.026365219 0.14386544
-0.037129525 0.021194547 0.14521745
-0.037187915 0.016651338 0.14496925
-0.037112776 0.011751872 0.14433509
-0.029803548 0.035544917 0.14173636
-0.034359194 0.031057922 0.14030042
-0.035435908 0.026319068 0.13941419
-0.036319714 0.02243313 0.14123362
-0.035311416 0.02962506 0.13584566
-0.035865955 0.02816416 0.13575274
-0.0097252941 0.0066595487 0.18322259
-0.012055332 0.0038111308 0.18445417
-0.013108997 -0.00050450349 0.18404579
-0.011559034 0.0091176331 0.18305132
-0.014508676 0.006042602 0.18382862
-0.01646241 0.00092324754 0.18350857
-0.037065778 -0.0019299844 0.14886943
-0.036940828 0.004081158 0.14505413
-0.036695696 -0.0007880982 0.14459118
-0.035491895 0.015049485 0.14101717
-0.036573764 0.010902978 0.14120248
-0.036960792 0.0054529812 0.14094612
-0.037179664 -0.00017404743 0.13963819
-0.028466579 0.03348197 0.13933212
-0.030838199 0.031982776 0.13752615
-0.034622286 0.024189938 0.13755026
-0.034651466 0.02024354 0.13763824
-0.035076551 0.01590783 0.13722906
-0.036575656 0.011440901 0.13682151
-0.03754539 0.0067626643 0.13601795
-0.037982617 0.002509621 0.13577095
-0.028809492 0.033929579 0.1339843
-0.032042578 0.031385925 0.13406888
-0.035050452 0.025685245 0.13384581
-0.035149232 0.021235947 0.13318703
-0.036141139 0.016776593 0.13269648
-0.03705943 0.011838141 0.13249156
-0.038511664 0.0073409234 0.1320442
-0.039177187 0.0041828938 0.13245931
-0.033078078 0.030807385 0.12906915
-0.035515197 0.026862647 0.12872714
-0.035811566 0.021962807 0.12834507
-0.036140926 0.018438688 0.1291489
-0.034007132 0.030954817 0.1254048
-0.036285415 0.027296975 0.12348697
-0.036786377 0.024039999 0.12458512
-0.0061256872 0.0070983637 0.18345958
-0.0083511844 0.0030368376 0.18471745
-0.03809784 -0.0016298601 0.13763893
-0.037790317 -0.0001368504 0.13354635
-0.029531 0.032679573 0.13119811
-0.036491994 0.015118544 0.13026851
-0.037283964 0.012051791 0.12983623
-0.038534097 0.0074685225 0.12923259
-0.038457509 0.0014229389 0.12925291
-0.030052658 0.034745693 0.12833816
-0.030736782 0.033317275 0.1283378
-0.036189623 0.020321947 0.12592819
-0.035719875 0.016488861 0.1261234
-0.036331635 0.012056339 0.12563339
-0.037853088 0.0070521501 0.12547293
-0.038155906 0.0040053315 0.12601441
-0.028782282 0.034528106 0.1236071
-0.032915339 0.032290399 0.12311944
-0.036225766 0.027381483 0.12141436
-0.036070555 0.021680372 0.12215063
-0.035413079 0.018488646 0.12197366
-0.033789095 0.031423572 0.11873507
-0.036202386 0.027315816 0.11793077
-0.036648542 0.022860069 0.11793363
-0.036552787 0.02676877 0.11402363
-0.036755364 0.024565782 0.11411059
-0.0033536421 0.00055357086 0.18458775
-0.036018472 0.010124058 0.12267241
-0.036766879 0.0075559239 0.12300581
-0.037819132 0.0020387853 0.12302834
-0.037884422 -0.0028624982 0.12180367
-0.028119929 0.032844022 0.11878633
-0.035058293 0.016240831 0.11980373
-0.03529549 0.011915282 0.1191324
-0.036281105 0.0069463798 0.11895871
-0.037198044 0.0025912374 0.11868936
-0.037782472 -0.0019042529 0.11816186
-0.030721869 0.033006877 0.11588389
-0.036675729 0.021911155 0.11516321
-0.035229597 0.017048072 0.11462528
-0.035002567 0.012938185 0.11448789
-0.031947255 0.031365275 0.1111154
-0.035167605 0.028054595 0.11156321
-0.036666598 0.022744369 0.11128652
-0.03574859 0.018520502 0.10997456
-0.032968335 0.030850381 0.10707277
-0.035455402 0.02764545 0.10666138
-0.036676031 0.023438215 0.10614079
0.0064128833 -0.0017749001 0.18525472
0.0026404306 -0.0019146879 0.18443355
-0.03440439 0.0097523509 0.11569762
-0.03514491 0.0066221328 0.1152063
-0.036050372 0.0014637392 0.11497033
-0.037421077 -0.0030657686 0.11506671
-0.034729511 0.011214193 0.11181808
-0.035231195 0.0068183085 0.11142093
-0.03566049 0.0020578168 0.11077136
-0.036995213 -0.002837291 0.11053538
-0.029316556 0.033812523 0.11013979
-0.035532057 0.016184704 0.10821104
-0.035189249 0.012191091 0.10720855
-0.035441026 0.0070958054 0.10694414
-0.030393258 0.032831732 0.10466188
-0.033485834 0.029803356 0.10381567
-0.036697902 0.021647513 0.1033752
-0.036679573 0.018144304 0.10420692
-0.035895418 0.01353545 0.10319328
-0.03045447 0.031378891 0.10029548
-0.033966228 0.028132081 0.10005623
-0.035972565 0.023474168 0.099773586
-0.036309004 0.018190386 0.10003203
0.0095693665 9.5691998e-05 0.18647528
0.0081043057 -0.004449944 0.18575156
-0.035654016 0.0019078851 0.10820037
-0.036790609 -0.0010857666 0.10800999
-0.03580486 0.0073492969 0.10461205
-0.036358435 0.002315863 0.10551971
-0.037176102 -0.0027938038 0.10551506
-0.035954073 0.012095168 0.10099757
-0.036494661 0.0078030149 0.10077959
-0.036844887 0.0024638223 0.100725
-0.037489623 -0.0022445479 0.10022217
-0.028349379 0.032167189 0.097135484
-0.032350484 0.029717699 0.097093105
-0.035476029 0.021485096 0.096569479
-0.035072122 0.017866859 0.09611553
-0.03534922 0.013068836 0.096939981
-0.036358353 0.0079143476 0.096763372
-0.036508754 0.0038894583 0.09689647
-0.029634913 0.032380737 0.092113078
-0.033588849 0.028670739 0.093632162
-0.035326574 0.023332115 0.093092859
-0.035145596 0.018669169 0.092116475
-0.034196563 0.014149037 0.0933218
-0.031357124 0.032887641 0.087475836
-0.034373865 0.029265905 0.088390291
-0.035457842 0.024214514 0.088154614
-0.035045326 0.019998714 0.087820232
-0.03482816 0.028785152 0.084545255
-0.035668425 0.025667539 0.08410567
-0.033981092 0.010529591 0.093998969
-0.03406956 0.0071042003 0.092955112
-0.035425939 0.0018024696 0.093499601
-0.036196105 -0.0025550192 0.09328723
-0.033245727 0.015695225 0.089174569
-0.033406693 0.012006811 0.089837611
-0.034103915 0.0072840182 0.089035571
-0.035603493 0.0026592594 0.088565826
-0.036366798 -0.0011522546 0.089190662
-0.028127575 0.034211613 0.087667823
-0.034715541 0.022598218 0.085436881
-0.034398716 0.01755875 0.086284459
-0.034259379 0.012804463 0.084918201
-0.034899879 0.0089472383 0.085442066
-0.029690009 0.03295454 0.082309067
-0.032726694 0.030255001 0.082043946
-0.034644049 0.023621541 0.081845939
-0.035000227 0.018545533 0.081281245
-0.035692804 0.014640609 0.080881655
-0.032686766 0.029446002 0.077876925
-0.034512267 0.024918769 0.077174067
-0.035512466 0.02011059 0.077447891
-0.035383131 0.026074227 0.073943615
-0.036426257 -0.0028027324 0.086689055
-0.035040088 0.0073477523 0.083002269
-0.036208294 0.0031343838 0.083106279
-0.037410334 -0.0016266741 0.082381785
-0.035646442 0.012323084 0.079173684
-0.035984274 0.0085190302 0.078658462
-0.036670484 0.0037806183 0.078154206
-0.03729533 -0.0010696128 0.077934086
-0.028746918 0.032103181 0.075285316
-0.031160731 0.030731237 0.075192928
-0.035489243 0.019054102 0.074858904
-0.035605479 0.013854131 0.074074686
-0.035410579 0.0093374178 0.074467778
-0.028691856 0.032307763 0.071240842
-0.032048158 0.030152734 0.070883751
-0.034920204 0.026022116 0.071305215
-0.035249788 0.020587597 0.070170462
-0.035244167 0.016143788 0.068978906
-0.032333922 0.028743092 0.066526592
-0.034458835 0.02615222 0.065139592
-0.03459597 0.022635339 0.066097021
-0.035950981 0.0033472013 0.074895144
-0.036842059 -0.0025164504 0.075615883
-0.034486745 0.0081900563 0.071391165
-0.035014823 0.0028250562 0.07143718
-0.03604703 -0.0018125894 0.07120961
-0.035507847 0.014103707 0.067628741
-0.034887176 0.0085160965 0.067694604
-0.035278603 0.0039845444 0.06645304
-0.03634128 -0.0010848856 0.067054093
-0.026849836 0.032581508 0.063851893
-0.030415304 0.029901724 0.06347239
-0.034665305 0.02081711 0.063219905
-0.034914896 0.01610855 0.062647343
-0.035469711 0.011242511 0.063163996
-0.03549704 0.0062880297 0.063273609
-0.028223731 0.032708682 0.060768783
-0.030639935 0.030217938 0.059275806
-0.033934955 0.026245076 0.059203446
-0.034553763 0.021227822 0.058382452
-0.035012823 0.016047038 0.059358895
-0.03558268 0.012729186 0.059332788
-0.031889174 0.029123552 0.056025565
-0.033524491 0.026719227 0.055369794
-0.034115728 0.022961617 0.055550396
-0.037051857 0.037084274 0.044986069
-0.036210995 0.0020854045 0.064429343
-0.036351025 -0.0014300477 0.064376354
-0.034858055 0.008804759 0.060567915
-0.035230335 0.0051558474 0.060042381
-0.035451677 0.00047544856 0.060449719
-0.029288385 0.031570688 0.057021618
-0.034712225 0.015700536 0.05639869
-0.03461362 0.01156937 0.056155324
-0.027506957 0.033419088 0.053572297
-0.030974545 0.03087919 0.053617656
-0.033960097 0.026135471 0.052897453
-0.033591241 0.021121006 0.052449346
-0.033726115 0.017014766 0.052521586
-0.028923368 0.033636436 0.049137414
-0.031937081 0.031318817 0.048496068
-0.03399995 0.026822072 0.048476636
-0.032993171 0.022304453 0.047545969
-0.033253774 0.02764054 0.044016242
-0.035012845 0.036551431 0.040094674
-0.034215927 -0.0007160278 0.056352437
-0.033699878 0.0090341698 0.054100335
-0.033877224 0.0053107203 0.053736508
-0.03462407 2.7348287e-05 0.053260744
-0.027439607 0.033006635 0.049902976
-0.03276246 0.01915947 0.049071252
-0.033196837 0.015150211 0.04940027
-0.034010239 0.010721207 0.049171269
-0.034086064 0.0051172739 0.048790157
-0.034550715 0.00050162431 0.049400449
-0.029085461 0.033807535 0.047226012
-0.033173129 0.020713678 0.045031667
-0.033768896 0.016430357 0.045285285
-0.034744244 0.011225821 0.044654071
-0.034871235 0.0064708903 0.0448488
-0.030919716 0.031063434 0.041611373
-0.033615701 0.026781563 0.041285872
-0.033874247 0.022048583 0.041021764
-0.034389712 0.016419344 0.040678263
-0.035191469 0.011922355 0.041237056
-0.032616585 0.035838753 0.035891593
-0.031376109 0.03196273 0.037189662
-0.034322429 0.027780671 0.036717892
-0.034414668 0.022226984 0.036671937
-0.034772769 0.018731453 0.037824988
-0.032974578 0.036698215 0.033650219
-0.032413997 0.032764185 0.033580482
-0.034769185 0.027728995 0.031935513
-0.035478838 0.022820126 0.033462405
-0.032873157 0.036276594 0.029882133
-0.034489974 -0.00022084452 0.046276748
-0.034739301 0.004722246 0.042038023
-0.034417074 0.00037132576 0.041688979
-0.034748949 0.011073974 0.037754834
-0.034682684 0.0065811058 0.038016438
-0.03479784 0.020704139 0.034308136
-0.034334842 0.016684048 0.034384072
-0.034342781 0.01186686 0.034227371
-0.034449417 0.0079496587 0.033777416
-0.03222432 0.032009397 0.031253755
-0.034450941 0.022594064 0.02939868
-0.03435364 0.017560413 0.03019166
-0.031714875 0.031950124 0.026891649
-0.033924676 0.02768632 0.026087821
-0.034542389 0.023719009 0.025602102
-0.033156388 0.0036943117 0.035550952
-0.033923924 0.00037006289 0.036028028
-0.033732504 0.0095458655 0.031665981
-0.034296397 0.0055324831 0.032098472
-0.035061345 0.0010223379 0.031799316
-0.033379916 0.015933694 0.027259588
-0.033322893 0.011354646 0.027721107
-0.034360226 0.0063381456 0.027806699
-0.035772286 0.0015045935 0.027174711
-0.036618937 -0.0017972654 0.027722597
-0.029299084 0.032514744 0.023604572
-0.032096416 0.028307825 0.022128344
-0.033906199 0.02205991 0.023437619
-0.033453446 0.017044423 0.023426354
-0.032851305 0.012252523 0.023390353
-0.029522646 0.031184258 0.019855976
-0.032302272 0.027659606 0.018826365
-0.033729728 0.022792168 0.019262969
-0.033434313 0.019018853 0.019821465
-0.030394834 0.030697832 0.015182793
-0.032993823 0.028124519 0.015223622
-0.033764735 0.024234045 0.014776289
-0.033211999 0.0060163033 0.023590267
-0.034562528 0.0011397349 0.022893131
-0.032456916 0.011065692 0.019887984
-0.033192787 0.006413911 0.020023346
-0.034353405 0.0011756271 0.019509614
-0.027068861 0.031710859 0.016533017
-0.03243205 0.020634679 0.015297472
-0.032924768 0.016927231 0.016233683
-0.032507949 0.011544786 0.015311241
-0.032910202 0.0052521513 0.016606033
-0.034524642 0.0013648346 0.016467094
-0.028977543 0.031460743 0.012889326
-0.032171264 0.027994413 0.011268854
-0.033148728 0.022328109 0.011420906
-0.032850545 0.017704828 0.011522949
-0.032757491 0.012680239 0.012663126
-0.032550093 0.028294574 0.0084174275
-0.034007419 0.023810286 0.008153677
-0.033257883 0.019502107 0.0079308152
-0.032655314 0.027658954 0.0038987398
-0.033759929 0.024478335 0.0036133528
-0.032840103 0.0062576379 0.01365906
-0.034039326 0.0012610182 0.013607919
-0.032013237 0.01529162 0.0086686015
-0.032836672 0.011670748 0.0095584393
-0.033382528 0.0066853892 0.008795917
-0.034075748 0.001724924 0.0078104138
-0.033823017 -0.0023207366 0.0080523491
-0.027642872 0.030070256 0.0062251687
-0.033073347 0.021381337 0.0051977038
-0.03290287 0.017120896 0.0053656101
-0.033062644 0.012481208 0.0043734908
-0.033963401 0.0074843136 0.0043001771
-0.031423502 0.028642733 0.0016208887
-0.033268601 0.02277839 0.00060969591
-0.032754641 0.01816391 0.00067985058
-0.0338188 0.0052980403 0.0020636916
-0.033335365 0.0017565442 0.0021334887
-0.033120502 -0.0026355069 0.00079154968
-0.02618126 0.029843193 -0.00052887201
