# .PCD v0.7 - Point Cloud Data file format
VERSION 0.7
FIELDS x y z
SIZE 4 4 4
TYPE F F F
COUNT 1 1 1
WIDTH 396
HEIGHT 1
VIEWPOINT 0 0 0 1 0 0 0
POINTS 396
DATA ascii
0.026259303 0.023372874 0.18142861
0.024091866 0.025890443 0.1823549
0.020700358 0.028963108 0.18197221
0.018943436 0.0308633 0.18102443
0.027050084 0.024063254 0.17950356
0.025362033 0.026989337 0.17910004
0.021965176 0.030054487 0.17870957
0.019416682 0.032307472 0.17839381
0.026529342 0.028198604 0.17510396
0.023357511 0.031233951 0.17466086
0.020965768 0.0325641 0.17487609
0.027314631 0.029668367 0.17091584
0.024802683 0.03156906 0.17112154
0.022356281 0.018652143 0.18420005
0.020194601 0.021156371 0.18421882
0.016229149 0.024624441 0.18371248
0.013179759 0.029034404 0.18416053
0.011370963 0.029067107 0.18318522
0.026680917 0.018153168 0.18092126
0.025425568 0.020715479 0.18237591
0.021725584 0.023584496 0.18352717
0.018427694 0.026777329 0.18325442
0.0159385 0.029957974 0.18186712
0.012840273 0.031301931 0.18056053
0.028036723 0.01934539 0.17773151
0.02761687 0.022132792 0.17770723
0.017910924 0.032447457 0.17761916
0.014819665 0.032589689 0.17641038
0.028172921 0.022975098 0.1732569
0.027645346 0.026151277 0.17273387
0.019137427 0.033042636 0.17291498
0.02862566 0.024322364 0.16909474
0.028086299 0.028230028 0.16858274
0.023887869 0.031706233 0.16819823
0.020368639 0.03293176 0.16897172
0.028592067 0.024826391 0.16531068
0.027523061 0.029008871 0.16470161
0.024167836 0.030898321 0.16403359
0.025602695 0.010852642 0.18283656
0.023702778 0.013669796 0.18383941
0.021223878 0.016191034 0.18420967
0.018517692 0.020069577 0.1836842
0.01383771 0.021938317 0.18352968
0.011661191 0.02545106 0.18364629
0.027335083 0.012151217 0.18017843
0.02648323 0.015606155 0.18115708
0.024235524 0.017666366 0.18295038
0.010095315 0.031329639 0.17905504
0.028439913 0.013229472 0.17622113
0.027990425 0.016577048 0.17565948
0.012116086 0.032340698 0.17395547
0.028078169 0.017622143 0.17078686
0.013494704 0.032394689 0.16965243
0.028438602 0.019111715 0.16689846
0.028475372 0.021500653 0.1667541
0.017547041 0.031831533 0.16496745
0.01414341 0.031951752 0.1661377
0.028034436 0.022506883 0.16196176
0.027155614 0.027302692 0.16171497
0.022950459 0.030568428 0.16168991
0.019462278 0.030939376 0.16178685
0.027800137 0.023659864 0.15873197
0.026798485 0.026947925 0.15708253
0.023329416 0.030150672 0.15625587
0.026950806 0.028144322 0.15317315
0.018324211 0.0097731911 0.18320709
0.016384421 0.011600486 0.18302223
0.013597842 0.014471162 0.18287316
0.010288143 0.017800732 0.18356901
0.0073019937 0.021412654 0.1836628
0.024664888 0.0079685505 0.18276143
0.022271421 0.011002023 0.18411493
0.018875655 0.014167159 0.18377531
0.015808193 0.016710797 0.18331826
0.01348371 0.019079067 0.18318176
0.027725868 0.0096268347 0.17916989
0.028467415 0.011294594 0.17339697
0.02793063 0.012188954 0.16809079
0.02799592 0.014940111 0.16821778
0.027996896 0.012789642 0.16437262
0.028039094 0.016082514 0.16395181
0.012863909 0.031763393 0.16294557
0.027992534 0.017769335 0.15996572
0.027629625 0.019742083 0.15938175
0.016423333 0.030337054 0.15888852
0.013329079 0.031218601 0.15818262
0.010008781 0.032253064 0.15838435
0.027939385 0.017947191 0.15585253
0.027502084 0.021282433 0.15547013
0.017726015 0.03029567 0.15443665
0.014360745 0.030738216 0.15455848
0.027355907 0.022175835 0.15150917
0.027045561 0.02599415 0.15069816
0.023787241 0.029525872 0.15016675
0.01956681 0.030520121 0.15052035
0.026472926 0.02588097 0.14609641
0.023577331 0.029232623 0.14465493
0.020626215 0.030893033 0.14621046
0.01831948 0.0074753305 0.18321231
0.014526345 0.0097148363 0.18294981
0.011177483 0.012359967 0.18369621
0.0076348782 0.014801454 0.18424034
0.027743857 0.011246436 0.16233724
0.028100425 0.012481356 0.15778047
0.027754121 0.014794931 0.15746456
0.011279226 0.031526752 0.15596116
0.027542915 0.015947789 0.15318525
0.027542535 0.019257586 0.15257645
0.012796399 0.031196818 0.15178543
0.027124088 0.01671711 0.14912796
0.027256008 0.020273644 0.14882955
0.0172798 0.030705109 0.14842305
0.014172795 0.030997403 0.14748639
0.027022852 0.021610303 0.14461389
0.026519261 0.024930697 0.1433633
0.024343995 0.028762696 0.1426127
0.018660868 0.030901587 0.14306009
0.025979146 0.025046188 0.13971049
0.02379977 0.029239077 0.13894692
0.019985594 0.031522453 0.13793647
0.024244279 0.028301451 0.13538516
0.021986712 0.031214271 0.1344946
0.010426758 0.0036678221 0.18340966
0.0068327966 0.0082320534 0.18407467
0.0053417091 0.012003478 0.18457484
0.011788106 0.0069413525 0.18291694
0.0095274244 0.0094895232 0.18381131
0.026768984 0.0097078104 0.15089953
0.026897091 0.01366489 0.15021175
0.026390472 0.014808482 0.14580876
0.026535291 0.017828938 0.14560631
0.01169052 0.031015102 0.14518088
0.025896732 0.018231884 0.14166462
0.013185713 0.030878961 0.14081326
0.025711996 0.020448411 0.13895762
0.024931761 0.022405265 0.13670123
0.017015349 0.030787416 0.1392855
0.013855757 0.031086126 0.13588065
0.010777464 0.032109797 0.13623753
0.024037052 0.024245027 0.1343067
0.023056868 0.027409308 0.13163555
0.019769002 0.031290799 0.13238657
0.015606687 0.031716254 0.13172281
0.020357415 0.029813688 0.12875783
0.017753836 0.03102801 0.1284624
0.007552085 0.0029333043 0.18360814
0.0046029608 0.0051279762 0.18392956
0.026235968 0.0089732436 0.14491618
0.025490414 0.011492576 0.14352769
0.024834376 0.013819437 0.13962191
0.024401903 0.015231934 0.13821524
0.023264665 0.01676771 0.13454437
0.012665737 0.031945162 0.13348597
0.022943333 0.022049055 0.13148513
0.020953527 0.022741942 0.12777549
0.012955758 0.031578191 0.12916532
0.010787137 0.031847097 0.12942323
0.020693729 0.025270084 0.12613109
0.019822495 0.02953195 0.12584698
0.015360998 0.031068766 0.12509134
0.013020144 0.031903028 0.12410808
0.018368235 0.029455552 0.12221107
0.0168925 0.029879231 0.12152946
0.00051541335 0.0013942 0.18355441
0.024273356 0.010027507 0.13783827
0.023121048 0.010770074 0.13410151
0.022553403 0.01494684 0.13217205
0.021398781 0.015479518 0.12791526
0.021410665 0.019373564 0.12812603
0.019897131 0.019539243 0.12343252
0.019479176 0.02202143 0.12358171
0.01018086 0.030961521 0.12183124
0.017869094 0.026954656 0.11985499
0.014513168 0.029528026 0.11767018
0.011701095 0.031291362 0.1171478
-0.0024014467 -0.0020074986 0.18371248
0.022882326 0.0094185378 0.13195053
0.021678541 0.011990339 0.1300438
0.020846881 0.013547045 0.1265223
0.020495968 0.01640184 0.12593889
0.020377239 0.014045296 0.1206916
0.01962525 0.0166668 0.12139818
0.017809298 0.021150574 0.12013084
0.018323068 0.017657503 0.11753106
0.016856972 0.02006533 0.11731362
0.016069423 0.024973612 0.11535341
0.015433429 0.024666646 0.11185253
0.014268884 0.028785998 0.11150092
0.011176106 0.031258062 0.11119986
0.013250435 0.028550012 0.10680389
0.01212811 0.030343559 0.1071195
-0.0062061748 -0.0049885097 0.18496153
-0.004546172 -0.0026995935 0.18366945
0.020147678 0.0063014454 0.12668762
0.019511219 0.010081937 0.12381852
0.01996718 0.013603724 0.1201939
0.021223392 0.014731962 0.11769974
0.01856504 0.015801575 0.11468929
0.016485799 0.019146662 0.11409461
0.015255622 0.019109691 0.11055857
0.015540755 0.022899553 0.10961044
0.015089147 0.024111975 0.10570699
0.014132775 0.028370541 0.10496819
0.010708726 0.031090349 0.10552192
0.014799926 0.02503188 0.10182202
0.013727431 0.027779244 0.10041767
0.010643417 0.030784285 0.10026425
0.018420929 0.0068611116 0.12139714
0.017938778 0.0074992543 0.11819041
0.018745191 0.013865341 0.11175489
0.015786398 0.014589895 0.10735077
0.014824201 0.01723462 0.10669082
0.014348151 0.01880976 0.10290337
0.014161368 0.020521706 0.1017831
0.014403163 0.022532361 0.098133564
0.013289486 0.025273364 0.097023606
0.013637313 0.02354813 0.09424597
0.012443431 0.026518319 0.093788207
0.0101625 0.029818505 0.093676269
0.01270693 0.028203307 0.088383257
0.010807958 0.029990796 0.088452458
0.015328995 0.013942932 0.1037237
0.014552223 0.016105853 0.10077477
0.014969988 0.017698059 0.096260607
0.014386862 0.020414924 0.094896495
0.015301956 0.018196771 0.091183901
0.014012266 0.021838829 0.091483772
0.01259227 0.025278188 0.090583563
0.01419662 0.022460446 0.086949229
0.013316022 0.025843481 0.087377548
0.0095941061 0.030892011 0.085933626
0.014384422 0.023711823 0.081764519
0.013864701 0.027134985 0.082470536
0.011241236 0.030420709 0.082711458
0.014263699 0.027321296 0.07779038
0.011808315 0.030401153 0.078226149
0.01362538 0.0094906259 0.09861207
0.014098638 0.012418329 0.098084867
0.013808254 0.0099505745 0.09447366
0.013961107 0.012849925 0.093833268
0.014404359 0.01376385 0.089514554
0.014221055 0.016528202 0.085800946
0.014530985 0.019684477 0.084912479
0.014728714 0.020267501 0.080260515
0.015238577 0.021845782 0.076383173
0.011069568 0.029956272 0.075227797
0.013505561 0.025590288 0.071314991
0.010246073 0.029234447 0.070916176
0.01336178 0.027121881 0.066240132
0.011817592 0.028860282 0.06637156
0.011245106 0.0056490852 0.099442244
0.012911566 0.0057937596 0.095882833
0.013630134 0.0079272566 0.091174901
0.014267365 0.0095064212 0.086933196
0.014447529 0.012191832 0.087104619
0.014277924 0.013792312 0.082867444
0.013925403 0.015153248 0.077331722
0.01526533 0.019271001 0.073560059
0.014748691 0.020741003 0.069394827
0.014315316 0.023019543 0.068043053
0.014594456 0.021128105 0.063971102
0.014934486 0.024904689 0.065227211
0.010380683 0.02954758 0.06530726
0.014970247 0.025844689 0.06024009
0.012595801 0.028229682 0.060499966
0.015458941 0.025568921 0.055963337
0.013419587 0.0052832104 0.089509368
0.014278674 0.0064669689 0.086179435
0.014197775 0.0073451651 0.080780149
0.013803547 0.011230668 0.081037343
0.014259479 0.0089313788 0.07638669
0.013876828 0.01189226 0.0769822
0.014736697 0.0097072944 0.072542965
0.014254095 0.012954177 0.071868062
0.014223312 0.017101429 0.070513189
0.014405522 0.014325598 0.067289531
0.014168829 0.01688822 0.067256689
0.015305728 0.015763603 0.062159359
0.014653765 0.018576834 0.062871277
0.016090062 0.016380087 0.058923602
0.015898719 0.020158872 0.058389246
0.015533686 0.023755006 0.057980239
0.010556154 0.028076343 0.056927562
0.016617734 0.020641189 0.053638458
0.015321014 0.025318641 0.053366721
0.011890948 0.027625985 0.053307474
0.017306957 0.022627302 0.049638748
0.016331291 0.02584978 0.048673749
0.011795688 0.027615685 0.04845947
0.018895723 0.02393771 0.044263184
0.016771717 0.026623039 0.044431508
0.013843186 0.027503736 0.045633197
0.019579619 0.024940602 0.040668666
0.0182827 0.026338533 0.041012287
0.014507131 0.0063277418 0.074067414
0.014907954 0.0076859593 0.069372058
0.014444193 0.0089928992 0.064674795
0.014456206 0.011528988 0.064679086
0.015393877 0.01274319 0.060346544
0.016641803 0.014506281 0.055783153
0.017457085 0.015912307 0.051216364
0.017260017 0.019153198 0.051046669
0.018266298 0.017120581 0.046669304
0.0178158 0.020334637 0.047578931
0.010442957 0.028176464 0.045773745
0.019376421 0.018783478 0.041778147
0.019072231 0.02138643 0.043676674
0.012000558 0.027804371 0.042158425
0.020904958 0.020079624 0.037363887
0.020359751 0.023042373 0.038620889
0.016730607 0.026678238 0.038014889
0.013041953 0.027057039 0.037744701
0.022068959 0.021042932 0.033528507
0.020849187 0.023849212 0.033449948
0.017722309 0.026521694 0.033235729
0.021227721 0.02403966 0.029595673
0.01829608 0.026137078 0.028870702
0.014835669 0.0066149342 0.063483953
0.015381167 0.0073305178 0.058813393
0.016524915 0.0087506957 0.054452419
0.018264756 0.010010459 0.05013603
0.017277341 0.013151264 0.051440179
0.021559145 0.0088689532 0.043253362
0.019766837 0.011276846 0.045659423
0.018450761 0.014532811 0.045770943
0.021081932 0.012341145 0.040918887
0.019696984 0.016049564 0.04128617
0.022638202 0.013665263 0.03651315
0.021191824 0.017133389 0.037330687
0.011703067 0.027378548 0.035161495
0.024262115 0.015062411 0.032204866
0.022468792 0.018807685 0.032788634
0.012396568 0.027786022 0.031490088
0.0091147786 0.028305553 0.031148136
0.025601286 0.01640024 0.027383626
0.023599036 0.020030826 0.028362989
0.020944992 0.023636138 0.026982248
0.017018473 0.026624901 0.027413547
0.013315617 0.027945112 0.026728749
0.02644168 0.017992055 0.023331583
0.024485013 0.020913718 0.023447275
0.021946048 0.024480896 0.024002612
0.018376041 0.026957445 0.023060381
0.01444182 0.027762299 0.022152245
0.0271044 0.019230571 0.018850386
0.025829826 0.022011951 0.018734336
0.023216093 0.025503257 0.019191444
0.019549124 0.027305771 0.018016279
0.026218336 0.023250189 0.015560389
0.023894707 0.026174231 0.013955414
0.021416245 0.027508227 0.013836861
0.016241845 0.0060683354 0.052582085
0.022299968 0.0075756949 0.038957894
0.023607809 0.008153405 0.034020543
0.025226645 0.0097332969 0.029365361
0.026336249 0.010847968 0.024731994
0.02523911 0.01376057 0.027764738
0.010651848 0.027429875 0.022026777
0.02690663 0.013010217 0.02094245
0.026722264 0.015379619 0.020795226
0.012840427 0.027825598 0.019153357
0.0084767705 0.0272731 0.020334303
0.026990056 0.012909235 0.017690659
0.027273878 0.01687916 0.016283095
0.016931353 0.027184332 0.014599264
0.014420885 0.027791686 0.015320778
0.026945248 0.018008485 0.011752546
0.025991561 0.021505864 0.011394024
0.024530238 0.024373641 0.010741889
0.018853877 0.027208198 0.010625899
0.014847939 0.027055684 0.011877
0.026105568 0.022108234 0.0072981119
0.023666842 0.025390936 0.0075372458
0.020829614 0.026638769 0.0073601007
0.026935954 0.0096469829 0.019335628
0.026967144 0.011059741 0.014675915
0.010974774 0.027404336 0.013589799
0.0084812362 0.026975004 0.012542129
0.027558589 0.013016688 0.0094820261
0.027079778 0.015143057 0.010049582
0.013114814 0.027255122 0.0085434318
0.027841343 0.013067374 0.0053507686
0.027399983 0.016750887 0.005397737
0.026279824 0.019682979 0.0044171214
0.018133014 0.026572749 0.0045496821
0.015397253 0.027243195 0.0036834478
0.027840607 0.018168148 0.00058358908
0.026060127 0.021333981 0.0010266304
0.023105148 0.024526671 0.0010347366
0.019004337 0.02625531 -0.00086611509
0.026209133 0.008417299 0.0074899793
0.02726409 0.011350563 0.0037232637
0.011839673 0.026453242 0.0026483536
0.0089720543 0.026496759 0.001075983
0.0284102 0.015393646 -0.00028312206
0.026751179 0.0086130835 0.0014260411
