# .PCD v0.7 - Point Cloud Data file format
VERSION 0.7
FIELDS x y z
SIZE 4 4 4
TYPE F F F
COUNT 1 1 1
WIDTH 377
HEIGHT 1
VIEWPOINT 0 0 0 1 0 0 0
POINTS 377
DATA ascii
-0.017641736 -0.026815077 0.18079007
-0.015152303 -0.028083632 0.18147814
-0.010943524 -0.029259156 0.18095163
-0.015507353 -0.029093757 0.17753193
-0.012313212 -0.029944062 0.17705294
0.0008492237 -0.025782041 0.18501124
-0.022987442 -0.019017488 0.18282783
-0.020514037 -0.020074686 0.18362877
-0.016723815 -0.021821715 0.18422812
-0.013505105 -0.023583794 0.18434179
-0.0091542052 -0.025530823 0.18353182
-0.0043975883 -0.026566414 0.18335584
-0.00096959341 -0.028239053 0.18356806
0.0028504161 -0.0293533 0.18306652
-0.021527492 -0.022646636 0.18074843
-0.018726073 -0.024819767 0.18103075
-0.015630079 -0.025596131 0.18295038
-0.0082102884 -0.028308958 0.18233156
-0.0060289796 -0.029703485 0.17982757
-0.001991991 -0.030328738 0.17983586
0.0020012381 -0.031008307 0.17898744
-0.024224788 -0.021389585 0.17660981
-0.02207789 -0.02355212 0.17598197
-0.018998094 -0.026023045 0.17525801
-0.015944541 -0.028289337 0.17468303
-0.010912102 -0.030213362 0.17472818
-0.0066405372 -0.030662492 0.17430741
-0.0025867354 -0.031263191 0.17428738
0.0013856441 -0.031625278 0.17466056
-0.019090671 -0.026219554 0.17046583
-0.01595697 -0.028574837 0.17050064
-0.011720829 -0.030445304 0.17036432
-0.0070517124 -0.03119348 0.16932252
-0.0032872437 -0.031843379 0.16961396
-0.015719131 -0.02962533 0.16600811
-0.012796155 -0.030832805 0.16549093
-0.0091762533 -0.032003794 0.16560757
-0.017673679 -0.01473061 0.18379238
-0.014854781 -0.016714174 0.18417257
-0.011085234 -0.018023405 0.18381426
-0.00692971 -0.019307265 0.18377182
-0.0027169473 -0.021490993 0.18374503
0.00076350383 -0.023434423 0.18488532
-0.019525647 -0.017678935 0.18447325
-0.01713562 -0.018864399 0.18447614
-0.010873202 -0.021033347 0.18387628
-0.0084009785 -0.021989249 0.18370408
-0.005349773 -0.023286665 0.18356776
-0.022648625 -0.022389729 0.17310941
0.0016360544 -0.031247787 0.17106402
-0.022217251 -0.02262393 0.16915077
-0.019761031 -0.025280282 0.16769132
-0.0026138192 -0.031545993 0.16671193
0.0018196376 -0.03081093 0.16648495
-0.021518961 -0.022889558 0.16341549
-0.019282639 -0.025446922 0.16396093
-0.01703338 -0.027933879 0.16445696
-0.0069351108 -0.03175728 0.16342479
-0.0030395621 -0.031356871 0.16257846
0.00084711891 -0.031388443 0.16156307
-0.019420486 -0.025370467 0.16025662
-0.015971351 -0.028236924 0.16033959
-0.012684158 -0.029948732 0.15930539
-0.0086172344 -0.031016996 0.15936837
-0.0044312156 -0.030924264 0.15904954
-0.013794763 -0.013130349 0.18380645
-0.009318796 -0.01451586 0.1832732
-0.0061503467 -0.015841216 0.18375561
-0.0020216508 -0.018068865 0.18382016
-0.023046045 -0.02065954 0.16563451
-0.023543619 -0.021029435 0.16212147
0.002372372 -0.032090396 0.16034445
-0.022816237 -0.022365093 0.15787089
-0.019327834 -0.024772573 0.15702334
-0.016242994 -0.026960801 0.15703946
-0.0068311584 -0.030354816 0.15621591
-0.0028119134 -0.03072476 0.15627331
0.0008596573 -0.031901665 0.15608209
-0.022173524 -0.023033228 0.15335286
-0.019406084 -0.02503673 0.15310517
-0.016250312 -0.027457066 0.15319848
-0.012620484 -0.02918737 0.15317678
-0.0082131652 -0.029652584 0.15218467
-0.0040747481 -0.030142283 0.15167812
0.00084681809 -0.031633347 0.15217
-0.018809306 -0.026227271 0.14946491
-0.016402677 -0.027731169 0.14806426
-0.013205385 -0.028940285 0.14821482
-0.0099786092 -0.029375928 0.14866474
-0.0034617328 -0.010009919 0.18357655
0.00064350804 -0.011419159 0.18391171
-0.0083819563 -0.010573662 0.18292308
-0.0044911299 -0.012513882 0.18366075
-0.00076780934 -0.014049772 0.18346238
-0.023628972 -0.020674504 0.15052196
-0.019983916 -0.023806425 0.15002701
-0.002861592 -0.02984157 0.14936557
0.0011645807 -0.030621441 0.14853722
-0.023333371 -0.021276003 0.14578629
-0.019904673 -0.024565656 0.14654374
-0.017692577 -0.026626408 0.14560628
-0.01182035 -0.028867926 0.14580676
-0.0084043201 -0.029275399 0.14593601
-0.0038220794 -0.030028678 0.14512703
0.00092234556 -0.030372789 0.14427507
-0.022638468 -0.022273883 0.14230737
-0.019642916 -0.024827316 0.1414814
-0.016721847 -0.027432624 0.14207515
-0.012991405 -0.028967371 0.14188394
-0.0089365654 -0.029654985 0.14096808
-0.0050188303 -0.030280776 0.1402916
-0.0018908614 -0.030303052 0.14087754
-0.016195731 -0.027515948 0.13816559
-0.013246119 -0.029135318 0.13736114
-0.0095631853 -0.030157397 0.13649666
-0.0058977669 -0.030767376 0.13692188
-0.0063354103 -0.0062717521 0.18303296
-0.0019913781 -0.0064531676 0.18362334
0.0016940618 -0.030578585 0.14172533
-0.023755593 -0.020878535 0.13958025
-0.020903289 -0.023063343 0.13942665
-0.0036462625 -0.030740596 0.13801318
0.00045482349 -0.030218067 0.1379289
-0.022495516 -0.021122819 0.13571802
-0.019319579 -0.023467284 0.13503873
-0.016783014 -0.026322762 0.13505372
-0.013334856 -0.029065493 0.13448948
-0.0090629859 -0.03054525 0.13470301
-0.0051622284 -0.031045171 0.13441956
-0.00059118681 -0.03079699 0.1333645
0.0027784221 -0.030831374 0.13297006
-0.016583325 -0.026257494 0.12998605
-0.013239028 -0.028403496 0.13014632
-0.0095911864 -0.030225595 0.13019928
-0.0055340319 -0.030992361 0.12932596
-0.0020028222 -0.031354032 0.12929904
-0.013316334 -0.028198225 0.12618449
-0.0090135299 -0.030234383 0.12616569
-2.5129935e-05 -0.0016995494 0.18371391
-0.023721306 -0.020010771 0.1332106
-0.020334754 -0.022052675 0.13244879
-0.023757353 -0.019870976 0.12826759
-0.019921504 -0.023011638 0.12852842
-0.017836019 -0.024993621 0.12733462
-0.00071429182 -0.031275265 0.12705538
-0.019736512 -0.023198642 0.12345999
-0.017140051 -0.026583588 0.12441954
-0.013416177 -0.028231354 0.12407815
-0.0098136989 -0.029641652 0.12353277
-0.0056405477 -0.030737109 0.12340713
-0.001286828 -0.030828752 0.12191391
0.0020985268 -0.031033399 0.12214392
-0.017424017 -0.027202163 0.11943036
-0.013665794 -0.028300218 0.11865944
-0.0096828751 -0.02941918 0.11903626
-0.0055430252 -0.030137694 0.11905432
-0.0029256251 -0.030930597 0.11870849
0.0016333876 0.0030316198 0.18377456
-0.021422174 -0.021577366 0.12181708
-0.020771852 -0.022176819 0.1172986
-0.018389838 -0.025130579 0.11602253
-0.0095000751 -0.02865579 0.11547732
-0.0052529117 -0.029131917 0.11527067
-0.0010706121 -0.02982654 0.11558133
-0.020173743 -0.02279092 0.11293429
-0.017278684 -0.026136803 0.11272782
-0.013580104 -0.027444731 0.11213487
-0.0096275462 -0.02860111 0.11157793
-0.0055114059 -0.028899318 0.11054713
-0.00020054542 -0.02930801 0.11259562
-0.016271384 -0.026392898 0.10839558
-0.013367638 -0.027381331 0.10760081
-0.010149175 -0.028565817 0.10733306
-0.00065060752 0.0086841313 0.18520498
0.0039717983 0.0072091515 0.184194
0.0038085282 0.0039903005 0.18362185
-0.021998022 -0.021362066 0.111853
-0.018314419 -0.024228428 0.109438
-0.0042013316 -0.029586408 0.10839075
-0.0011385418 -0.029562995 0.1101945
0.002785339 -0.030443994 0.1101715
-0.020835076 -0.022091679 0.10694301
-0.017422413 -0.025360923 0.10638118
-0.014176961 -0.027496066 0.10533369
-0.0098440535 -0.029230595 0.10508198
-0.0060858843 -0.029830439 0.10558683
-0.0014783246 -0.03000444 0.10574651
0.0026727999 -0.030744325 0.10479093
-0.019512439 -0.022787351 0.10284972
-0.017809024 -0.025389021 0.10202497
-0.01434085 -0.02820486 0.10121334
-0.010609066 -0.029991273 0.10122639
-0.0060710106 -0.030368965 0.10124707
-0.0021832958 -0.030834287 0.10097903
0.0025213566 -0.030816689 0.10095304
-0.01758834 -0.025798846 0.098054528
-0.014564573 -0.028375357 0.097471476
-0.010624437 -0.029640118 0.096996009
-0.0065620886 -0.029945351 0.096907079
-0.0035704216 -0.030699179 0.09717834
-0.022446573 -0.019075679 0.10401618
-0.021484986 -0.019854164 0.099304259
-0.019485116 -0.022349585 0.099522412
-0.00025263615 -0.029998798 0.097375572
0.002854838 -0.02980228 0.097483575
-0.02107 -0.020851064 0.095283031
-0.01821116 -0.023385527 0.094314873
-0.013834347 -0.026212592 0.093490481
-0.0099227913 -0.027607026 0.093128145
-0.0054734354 -0.028619474 0.09275794
-0.001549134 -0.029633362 0.093337238
0.0027041202 -0.029836345 0.093153775
-0.016787877 -0.024587672 0.090641499
-0.014054743 -0.026370756 0.089698315
-0.010100564 -0.027674237 0.089247227
-0.0062621185 -0.028786222 0.08925873
-0.0021105427 -0.030177439 0.089232326
-0.011073151 -0.028457709 0.085561812
-0.022180103 -0.019576412 0.092689097
-0.019562632 -0.021712724 0.092066705
0.0026815133 -0.029662967 0.090022802
-0.022022258 -0.019824777 0.087467432
-0.018820293 -0.022715487 0.088321328
-0.016471932 -0.024687573 0.087256432
-0.0053730067 -0.028728591 0.086293936
-0.0020939028 -0.029883118 0.085977852
0.0022126306 -0.030511413 0.086860776
-0.021302551 -0.021318622 0.08335048
-0.018738329 -0.022959573 0.083266795
-0.014920175 -0.026048614 0.083735287
-0.010403745 -0.028451025 0.083287001
-0.0065308427 -0.02941769 0.083262742
-0.0025693998 -0.030741543 0.082822323
0.0018516565 -0.030938772 0.081293046
-0.014876328 -0.026249319 0.078971326
-0.011324764 -0.028875731 0.078392208
-0.0071052783 -0.029842013 0.078340232
-0.0030062543 -0.030678989 0.078085661
-0.012375679 -0.028112838 0.074313462
-0.022807239 -0.019301215 0.082291603
-0.022387054 -0.019552901 0.077254951
-0.018950388 -0.021864297 0.077567995
-0.01559392 -0.025080953 0.076114655
-0.0066855429 -0.029072361 0.07493633
-0.0010066126 -0.030083591 0.075609207
0.0019742176 -0.030250357 0.075613916
-0.022419484 -0.020103794 0.073126197
-0.019170795 -0.022284906 0.072131455
-0.015806913 -0.024786077 0.072639167
-0.012054257 -0.028121719 0.071573496
-0.0068444596 -0.028137621 0.071603835
-0.0025693113 -0.028622963 0.070928872
0.0015894417 -0.02961535 0.070818841
-0.018264804 -0.023417169 0.068620682
-0.015968833 -0.025608661 0.067754924
-0.012712487 -0.028271111 0.067424715
-0.0083893379 -0.028837996 0.067229986
-0.0047998256 -0.028764721 0.067133605
-0.015283712 -0.02681583 0.064130723
-0.012703842 -0.028642431 0.063829243
-0.0097675454 -0.029356517 0.063411057
-0.023085918 -0.019736562 0.070314407
0.0018840684 -0.029962953 0.068773031
-0.022656634 -0.019733824 0.066442668
-0.019714329 -0.022501327 0.066108763
-0.017432872 -0.024757095 0.065303981
-0.0034604939 -0.029021431 0.064767182
0.00045726541 -0.028930608 0.064099491
-0.018946636 -0.022504888 0.061942279
-0.016246345 -0.025140237 0.061031044
-0.01319935 -0.027878664 0.060595632
-0.0081888698 -0.028973954 0.060400128
-0.0042230785 -0.028539548 0.060396433
-0.01505507 -0.025530327 0.056746721
-0.012824287 -0.027614191 0.057635248
-0.009481689 -0.028737672 0.057263255
0.0021546986 -0.02878271 0.060988069
-0.01934405 -0.021285167 0.058996379
-0.017295828 -0.023677574 0.058137119
-0.003500592 -0.028196899 0.057023287
0.00069339946 -0.028387282 0.058120906
-0.022741443 -0.019140396 0.055054545
-0.019881459 -0.021719906 0.055158317
-0.016461819 -0.024494402 0.054080665
-0.012517792 -0.026482482 0.05342716
-0.0082503827 -0.027810032 0.053306401
-0.0042475369 -0.028223393 0.053254843
0.00046675093 -0.0285402 0.053137243
-0.019702125 -0.022501685 0.050447285
-0.016637199 -0.024929127 0.049564183
-0.012840621 -0.026909938 0.049748957
-0.0088363681 -0.028333476 0.049368322
-0.0043464606 -0.028613307 0.048852563
-0.0013115471 -0.028829902 0.049916506
-0.016979074 -0.025389999 0.045908451
-0.013208078 -0.027347554 0.045036197
-0.0092114117 -0.028811304 0.044692934
-0.0064128959 -0.029537993 0.045243442
-0.013652104 -0.028094258 0.041661143
-0.0096056322 -0.029438181 0.041191995
-0.022637675 -0.019143838 0.048452437
-0.020795573 -0.021093583 0.047574461
-0.0027526044 -0.028262582 0.045811594
0.00053339265 -0.02787618 0.046257198
-0.02224819 -0.019165099 0.043681085
-0.020183604 -0.022156537 0.043599606
-0.017089136 -0.025336614 0.042750418
-0.0042380444 -0.028878581 0.042435288
-0.001116653 -0.027739836 0.041536629
-0.019852296 -0.022278726 0.039081156
-0.017277122 -0.025376314 0.038635194
-0.013553355 -0.027552696 0.038427055
-0.0093728285 -0.028609015 0.037988126
-0.0056919008 -0.028463064 0.038033962
-0.016168438 -0.026024612 0.034514129
-0.013500247 -0.027037462 0.034316063
-0.010101345 -0.028136268 0.033893645
0.0023013661 -0.027138814 0.042804539
0.00075120572 -0.027633224 0.040053546
-0.022844702 -0.019039618 0.037987053
-0.020854782 -0.021166936 0.037664592
-0.0034924294 -0.028008062 0.036029577
0.00024675857 -0.028214831 0.035835266
-0.023165248 -0.020276269 0.03335458
-0.020877007 -0.022251712 0.033098817
-0.017605824 -0.024828071 0.032764852
-0.013404901 -0.026564002 0.03172642
-0.0089704599 -0.02802765 0.031734407
-0.0048711291 -0.028482802 0.032048523
-0.00082423631 -0.028844675 0.031011224
0.002823282 -0.028702859 0.031218231
-0.020943776 -0.022667058 0.028369427
-0.017748103 -0.025471326 0.028273582
-0.013680598 -0.026859295 0.027830601
-0.0093873832 -0.027763102 0.027932405
-0.0054369527 -0.02852498 0.027513266
-0.017214447 -0.025621811 0.023899257
0.0012841402 -0.028436216 0.028405845
-0.021357872 -0.021559319 0.024647593
-0.0090279765 -0.026520649 0.023447514
-0.0045163073 -0.027694555 0.023487151
-0.00066817645 -0.028560048 0.024225414
-0.020790022 -0.021718109 0.02132082
-0.017638857 -0.024455719 0.020865262
-0.013520453 -0.025766781 0.020329475
-0.0090786573 -0.026345761 0.020076215
-0.0051265168 -0.027164752 0.019705534
-0.0011677137 -0.027985616 0.019335449
-0.017512605 -0.023788739 0.017322719
-0.0099186227 -0.026211677 0.017062128
-0.021352351 -0.019882891 0.018269658
-0.0038851625 -0.026823791 0.017254531
0.0002378393 -0.027902512 0.017807126
-0.021091305 -0.020769354 0.014623106
-0.017781919 -0.023375528 0.014309525
-0.013455476 -0.025033113 0.01421982
-0.0091089429 -0.026427334 0.014128327
-0.0051062377 -0.027584575 0.01412046
-0.00089862384 -0.028741587 0.013404608
-0.0212011 -0.021553747 0.0091601014
-0.017909469 -0.023979371 0.0096897483
-0.01395218 -0.025797371 0.0096878409
-0.0099400608 -0.027459743 0.009519279
-0.0056338827 -0.028366102 0.0085262656
-0.0017196853 -0.029032953 0.0082072616
-0.02106495 -0.023551917 0.0051698685
-0.018439475 -0.024815995 0.0052246451
-0.014318909 -0.026646439 0.004344523
-0.010525844 -0.027847957 0.0041925311
-0.0062888726 -0.028786754 0.0039426088
-0.022832083 -0.020404041 0.0073825717
0.00044205692 -0.028779648 0.0063252449
-0.02233712 -0.020638645 0.0029956102
-0.0044282381 -0.028700152 0.0017464757
-0.0017139576 -0.028310135 0.0019767284
0.002148496 -0.028127614 0.00087052584
-0.018404277 -0.024102949 -0.00096058846
