# .PCD v0.7 - Point Cloud Data file format
VERSION 0.7
FIELDS x y z
SIZE 4 4 4
TYPE F F F
COUNT 1 1 1
WIDTH 342
HEIGHT 1
VIEWPOINT 0 0 0 1 0 0 0
POINTS 342
DATA ascii
0.024455149 -0.02634307 0.1809755
0.0262549 -0.02287161 0.1824851
0.027228868 -0.019152226 0.18246156
0.02856986 -0.015450317 0.18214321
0.028243717 -0.01255781 0.1800805
0.026242588 -0.026767068 0.17796022
0.028670292 -0.024149004 0.17872763
0.029389691 -0.020225834 0.17791983
0.029532231 -0.016257619 0.17722929
0.026964545 -0.026546452 0.17383367
0.028632708 -0.02434922 0.17423588
0.029254355 -0.020652834 0.17361388
0.020044062 -0.020503189 0.18360552
0.021753073 -0.016698617 0.18417564
0.023513574 -0.013516026 0.18400854
0.024290286 -0.0093869278 0.18279755
0.025774214 -0.004285532 0.18225253
0.027338525 -0.00061081722 0.18286762
0.022179198 -0.022097405 0.18279907
0.027433725 -0.0097473487 0.18027931
0.028326452 -0.0054573901 0.17964044
0.029592277 -0.0016987845 0.17925394
0.03018827 0.0023344485 0.17833859
0.029535539 -0.015455817 0.1746332
0.029085789 -0.010900675 0.1753512
0.029171333 -0.0063793119 0.17413414
0.029819315 -0.0022265688 0.17521241
0.025347425 -0.027092239 0.17154816
0.028117284 -0.024294442 0.17113596
0.02909077 -0.020072909 0.17084998
0.029524006 -0.016309248 0.17126197
0.029711498 -0.012147737 0.17000791
0.029892426 -0.0090136277 0.16954851
0.025873598 -0.027175538 0.16690201
0.028080838 -0.024453986 0.16750678
0.029335445 -0.020698031 0.1671102
0.030070288 -0.016746655 0.16629004
0.030548301 -0.013395696 0.16549608
0.026734978 -0.027951224 0.16285396
0.028776441 -0.024962243 0.16264766
0.029701397 -0.021469194 0.16237289
0.030410269 -0.017403085 0.16260982
0.031383678 -0.014568854 0.16278908
0.029404564 -0.025359999 0.15953526
0.029924026 -0.022734817 0.15900546
0.015919806 -0.014564263 0.18356729
0.017414132 -0.010857314 0.18334836
0.019196507 -0.0072617196 0.18335086
0.020736206 -0.0024225852 0.18316421
0.023264471 0.0011723787 0.18419307
0.017158827 -0.019339051 0.18407649
0.018406287 -0.016968902 0.1841259
0.020638602 -0.011432229 0.18379951
0.021230405 -0.0081106741 0.18311936
0.02276955 -0.0047506373 0.18231499
0.029398881 -0.0047930414 0.17102408
0.029664768 -0.0019930406 0.17180535
0.029697334 0.0023551648 0.17253363
0.02974811 -0.0063185524 0.16786778
0.029264472 -0.0019936748 0.16694686
0.02938283 0.0023200093 0.1673522
0.030295264 -0.011174691 0.16457701
0.030158218 -0.0075646476 0.16327211
0.029659308 -0.003278242 0.1627261
0.025641471 -0.029492183 0.16153789
0.029330451 -0.019575311 0.16028705
0.029986298 -0.016715122 0.15958998
0.029926378 -0.012506751 0.15899944
0.030138465 -0.009386342 0.15955895
0.026101787 -0.028083041 0.15768045
0.028389908 -0.025130305 0.15596426
0.028675091 -0.020788215 0.15537542
0.0289212 -0.017239617 0.15518898
0.029164735 -0.013961707 0.1554828
0.027908148 -0.024384275 0.15257794
0.028280767 -0.022396233 0.1521588
0.012689343 -0.013264604 0.18362954
0.01409974 -0.0095011443 0.18352085
0.016166514 -0.0057756631 0.18405402
0.017352663 -0.0019717771 0.18392545
0.029400606 -0.00070018228 0.16415206
0.029897716 0.0020138798 0.16481835
0.029138902 -0.0017011324 0.15998769
0.029767241 0.0019275779 0.16049457
0.028989434 -0.0072297822 0.15652686
0.028832853 -0.0030573248 0.1563901
0.029925508 0.0017203819 0.15628111
0.024477739 -0.026615221 0.1527766
0.028441571 -0.015718792 0.15246794
0.028259529 -0.012507746 0.1524843
0.028396597 -0.0093850046 0.15338403
0.025719391 -0.024944499 0.14910862
0.0276158 -0.02065493 0.14897993
0.027731031 -0.017039541 0.1486744
0.010177716 -0.0035258988 0.18370315
0.012190023 2.59066e-05 0.18386054
0.009174183 -0.0075409417 0.18249747
0.012367324 -0.0051532113 0.18377662
0.015057762 0.00027845474 0.18377373
0.02780408 -0.0021071481 0.1529873
0.028552661 0.0021845875 0.15236562
0.027184507 -0.01046556 0.15009192
0.026849128 -0.007252235 0.14945829
0.027184393 -0.002927145 0.14863902
0.027742855 0.0016780654 0.14868465
0.022718057 -0.026226746 0.1467014
0.026696857 -0.015305795 0.14545819
0.026680144 -0.011897744 0.14552391
0.026451116 -0.0077920486 0.14536133
0.023630286 -0.02443656 0.14218804
0.025387842 -0.020267406 0.14183187
0.026147317 -0.016426906 0.14158469
0.026316052 -0.012899557 0.1412015
0.024218014 -0.022881754 0.13810831
0.0054529873 -0.0060291658 0.18241802
0.0066674869 -0.0017906372 0.18351123
0.027923599 0.0015435517 0.146974
0.026456852 -0.0072411192 0.14262262
0.026859026 -0.0034851548 0.14328912
0.026912829 0.0017675422 0.14308196
0.025282275 -0.015285443 0.13812262
0.025803166 -0.011339673 0.13838798
0.025729422 -0.0076697278 0.13883263
0.026047541 -0.003068421 0.13949323
0.022632346 -0.024556747 0.13563365
0.023783678 -0.02011092 0.13514957
0.024553433 -0.015816525 0.13587439
0.025081744 -0.012401132 0.13506126
0.022721142 -0.022613231 0.13119054
0.0019144255 -9.0851972e-05 0.18426505
0.0042349352 -0.0025577499 0.18332395
0.024912886 -0.0071448945 0.13596377
0.024994908 -0.0024476657 0.13610411
0.02533967 0.0013774224 0.13640696
0.022794629 -0.018225772 0.13161063
0.023353172 -0.015837071 0.13261542
0.023796802 -0.010886162 0.13215569
0.024340643 -0.006860151 0.13233605
0.024329463 -0.0035731802 0.13269666
0.020771939 -0.024128277 0.12932804
0.021877456 -0.01974741 0.12878275
0.021948101 -0.015044667 0.12922448
-0.00484055 0.0027397666 0.18528336
-0.001861786 0.0014951664 0.18491158
0.023860807 -0.001992214 0.12987751
0.023805883 0.0017837742 0.12970561
0.020615906 -0.017601896 0.12593222
0.020718347 -0.014402543 0.12564492
0.021518225 -0.010542605 0.12657869
0.022850938 -0.0066704517 0.12587941
0.02306168 -0.0026668152 0.12583023
0.019037165 -0.01989818 0.12242749
0.019067217 -0.015663248 0.12215471
-0.008261757 0.0012163115 0.18643904
0.02039298 -0.01021864 0.12314391
0.021854248 -0.006369615 0.12285835
0.022760464 -0.0019792696 0.12274653
0.018564146 -0.018186636 0.11927348
0.019124653 -0.014131602 0.11945802
0.019704392 -0.010303826 0.11932451
0.02108565 -0.0061844354 0.1193009
0.021720493 -0.0027032965 0.11950785
0.01767784 -0.020065501 0.11512798
0.017603375 -0.016115207 0.11536509
0.018447898 -0.0089829015 0.11539793
0.018844422 -0.005433239 0.11442184
0.019801226 -0.00089058885 0.11596435
0.016973862 -0.018263917 0.11173636
0.016543265 -0.014062114 0.11146533
0.017094558 -0.0096810106 0.11217421
0.018134627 -0.0052361274 0.11184996
0.018169492 -0.0022015255 0.11275685
0.016323483 -0.016181942 0.10785496
0.016647063 -0.009228467 0.10953563
0.017332671 -0.0050030476 0.10918665
0.017517822 -0.00052557793 0.10968894
0.015732976 -0.018082693 0.10479385
0.016361581 -0.014804192 0.10540092
0.016509995 -0.0099788532 0.10618204
0.016370624 -0.0057297335 0.10607761
0.016953599 -0.01571859 0.10145825
0.016761651 -0.012010135 0.10177004
0.016552255 -0.016098104 0.097723186
0.016798649 -0.012802075 0.097698629
0.016354086 0.0013607773 0.10615021
0.015624781 -0.0051276893 0.10316867
0.015189292 -0.00082875555 0.10207248
0.015621257 -0.0096103102 0.099112451
0.015221131 -0.0060718828 0.09800601
0.015695482 -0.00216584 0.097226262
0.015972879 0.001232272 0.097916722
0.015428129 -0.015053448 0.09395349
0.015268795 -0.011074012 0.093861818
0.015321634 -0.006266471 0.094139278
0.014934542 -0.015630025 0.089823484
0.015374336 -0.011778703 0.090176523
0.016253725 -0.00049304077 0.095752478
0.014712156 -0.0091591645 0.091711283
0.01506182 -0.0062681185 0.091344178
0.016207369 -0.0021648107 0.091294527
0.016019527 0.0014852067 0.091147065
0.015408987 -0.014954949 0.087347567
0.014743929 -0.010685835 0.086669385
0.014682547 -0.006257649 0.087575912
0.014976018 -0.0033492718 0.08672303
0.014363619 -0.015497223 0.082658648
0.01440195 -0.011948806 0.082710922
0.013984084 -0.006071364 0.084925175
0.014936205 -0.0015608477 0.084804177
0.014348324 -0.010603716 0.08080256
0.014450342 -0.0064063813 0.081342936
0.015046769 -0.0020849337 0.080191553
0.014046732 -0.01531131 0.077026486
0.014671248 -0.011090796 0.076898992
0.015075645 -0.006881434 0.075881898
0.015857104 -0.00310548 0.075762391
0.016683497 0.00017404696 0.076551318
0.01463123 -0.016037602 0.072851419
0.015277068 -0.011746654 0.071733057
0.016108217 -0.007472395 0.071802497
0.015526542 -0.016630309 0.067629278
0.016105138 -0.01262239 0.068106771
0.016661389 -0.017729186 0.063081205
0.017430009 -0.019278988 0.059879839
0.015835024 -0.0016484573 0.073135138
0.016082203 -0.0075824549 0.068729341
0.01637808 -0.0030491361 0.069296122
0.016316498 0.0011353265 0.067938864
0.01607714 -0.012045028 0.065066636
0.015976878 -0.0077026938 0.064545214
0.016155072 -0.0035153013 0.064633071
0.016556708 -0.00020827726 0.064206541
0.016875852 -0.015922446 0.061219275
0.016051628 -0.012542507 0.060251653
0.015916701 -0.0086042741 0.060688317
0.017475046 -0.017697711 0.056950927
0.017077617 -0.013359759 0.055430055
0.01781356 -0.010408333 0.054625452
0.018365283 -0.018468084 0.051998198
0.018447595 -0.014705477 0.050572157
0.019272598 -0.019247554 0.047047615
0.019774921 -0.023146031 0.042884409
0.020776518 -0.020306095 0.04248625
0.015676595 -0.0030306161 0.061798871
0.015787264 -0.0074706497 0.058574319
0.016352627 -0.0032356728 0.058699131
0.016925018 0.00096820435 0.057798922
0.017567897 -0.011924597 0.052920878
0.016961932 -0.008488331 0.055015504
0.017832072 -0.004217261 0.054300725
0.018583357 0.00010023126 0.053234994
0.017964866 -0.013363423 0.050152957
0.018829042 -0.009247194 0.050567508
0.019721664 -0.0051753605 0.049973607
0.020289827 -0.00078650936 0.048715532
0.019574311 -0.017751373 0.044334352
0.019289268 -0.014234563 0.046294153
0.020303635 -0.010228342 0.046163738
0.02095836 -0.0058828336 0.044986904
0.02188763 -0.0018141097 0.044421613
0.02080464 -0.01842295 0.040387154
0.020715958 -0.015213342 0.042186379
0.021521131 -0.010931965 0.041156352
0.022554126 -0.0067283064 0.04035598
0.023618812 -0.0029573278 0.040060639
0.021555755 -0.020632468 0.037248313
0.022383247 -0.016087739 0.037638605
0.022905609 -0.011700255 0.036308825
0.024080647 -0.0077289455 0.035988152
0.024145603 -0.0044209049 0.036560714
0.02100689 -0.024543252 0.033808291
0.022999454 -0.02096688 0.033535004
0.023930123 -0.016918011 0.032961965
0.024633205 -0.012597136 0.03180927
0.02550064 -0.0090930313 0.031137407
0.022878757 -0.025009589 0.029389322
0.024626428 -0.022006562 0.029283941
0.025408531 -0.017723609 0.028208315
0.025895 -0.014221125 0.02761972
0.024154529 -0.025516447 0.024429858
0.025862033 -0.022728013 0.024273634
0.026655657 -0.018625105 0.023545384
0.02507362 -0.025725469 0.019435704
0.026447125 -0.023170236 0.019616067
0.02706477 -0.019819807 0.019127488
0.021862872 -0.00014994852 0.041350901
0.023125254 -0.00082624424 0.037404597
0.022167407 0.0019124248 0.036530018
0.023777787 -0.0059686685 0.032604933
0.023992265 -0.0027079047 0.033330441
0.023630945 0.0011219336 0.031719625
0.024787404 -0.0065114414 0.029442728
0.02497901 -0.0034970716 0.028372645
0.024671242 0.00053440873 0.027516663
0.025404558 -0.012004679 0.025293589
0.025359919 -0.0086875446 0.024681807
0.025526857 -0.0041972995 0.023992538
0.026606627 -0.016986296 0.020392179
0.025940372 -0.013584918 0.020515025
0.025709609 -0.0091202818 0.02016598
0.025615655 -0.0055905776 0.021200418
0.02330952 -0.026168844 0.016925156
0.02570902 -0.023046019 0.015644133
0.026344234 -0.01830771 0.015954077
0.025709191 -0.014071745 0.015642047
0.023866169 -0.026306333 0.013158083
0.0258862 -0.023249868 0.012639761
0.02581967 -0.019093642 0.011896849
0.025455458 -0.023236562 0.0089690089
0.025408734 -0.0023346678 0.021820068
0.025542017 0.00079242047 0.022801697
0.02514343 -0.0070707998 0.018146932
0.025844509 -0.0040190439 0.018318474
0.026880067 5.1423907e-05 0.017825425
0.025832824 -0.01302551 0.013685107
0.026070409 -0.0091706803 0.014448583
0.026927784 -0.0048487112 0.013410568
0.027740186 -0.00049874838 0.012320459
0.027958691 0.0026045842 0.01339215
0.025360197 -0.017689031 0.009783864
0.025783688 -0.013946632 0.009672761
0.026915628 -0.0097317249 0.0089275837
0.027522311 -0.0054893852 0.0079578757
0.027671639 -0.0021725679 0.0086012483
0.022798721 -0.026791114 0.0060998797
0.025589304 -0.023426756 0.0058980584
0.025819419 -0.018849675 0.0052416921
0.026035285 -0.014782799 0.0044292808
0.026838586 -0.010638107 0.0048665404
0.027632017 -0.0070556663 0.0040727854
0.023735642 -0.026443897 0.00051695108
0.025889359 -0.023771323 0.000844419
0.026347324 -0.020221114 0.00018054247
0.027607394 -0.0011521634 0.0066490769
0.025934733 -0.012706458 0.0027136207
0.026282918 -0.0093198139 0.002135098
0.026893135 -0.0049116728 0.0020249486
0.027082276 -0.0018919092 0.0013490319
0.027053528 0.0010673618 0.0022628903
0.025805183 -0.017523769 -0.00083774328
0.027232714 -0.000714208 -0.0012198091
0.027626812 0.0025306866 -0.00031048059
