# .PCD v0.7 - Point Cloud Data file format
VERSION 0.7
FIELDS x y z
SIZE 4 4 4
TYPE F F F
COUNT 1 1 1
WIDTH 396
HEIGHT 1
VIEWPOINT 0 0 0 1 0 0 0
POINTS 396
DATA ascii
-0.029841287 -0.0066122906 0.18437353
-0.029590335 -0.010237325 0.18446919
-0.029036675 -0.013175055 0.18347555
-0.032151002 0.014645535 0.17984864
-0.031791687 0.011075339 0.18013903
-0.03173646 0.0073447023 0.18100828
-0.031888146 0.0033923106 0.18093219
-0.031398654 -0.0014018473 0.18086126
-0.032183647 -0.0058450545 0.18161428
-0.032721266 -0.009789696 0.18182224
-0.031046953 -0.013275214 0.18052593
-0.032864213 0.015349612 0.17859742
-0.032557573 0.010755486 0.17815277
-0.032805767 0.0078007542 0.17774397
-0.032288585 0.0041813687 0.17764261
-0.032511286 -0.0020610339 0.17705947
-0.033496551 -0.0056519769 0.1762619
-0.03335207 -0.0095932083 0.17596808
-0.031942658 -0.012263667 0.17660913
-0.026302354 0.011018027 0.18336651
-0.026457055 0.0071043074 0.18415335
-0.026573692 0.0034649014 0.18406424
-0.026709745 -0.0010137493 0.18314075
-0.026261535 -0.0055778185 0.18389034
-0.026789496 -0.0096870344 0.18490148
-0.026852028 -0.014075808 0.18416971
-0.029193623 0.011501925 0.18166649
-0.029060381 0.0073049082 0.18266165
-0.029476404 0.0033331488 0.18277651
-0.029297182 4.5394441e-05 0.18248916
-0.029622827 -0.015007576 0.17899457
-0.031979032 0.01635804 0.17632067
-0.032371402 0.011715596 0.17572236
-0.032668233 0.0073174681 0.17516553
-0.03237227 0.00342523 0.17533258
-0.032583732 -0.00050560158 0.17514348
-0.030856797 -0.013675083 0.17368889
-0.032211442 0.016140155 0.17146635
-0.032288637 0.011576072 0.17092904
-0.032715697 0.0077640018 0.1708436
-0.03267232 0.0038006913 0.17062527
-0.032693371 -0.00082445558 0.17042497
-0.033188887 -0.0054562157 0.17058119
-0.033172388 -0.0094134333 0.17038342
-0.031434059 -0.013197436 0.16912368
-0.032893796 0.0079112072 0.16732278
-0.033382878 0.0038199776 0.16589767
-0.033451233 -0.00025061454 0.16571406
-0.033600826 -0.0047873827 0.16526583
-0.032981157 -0.0092621148 0.16566974
-0.032445535 -0.011929575 0.16605559
-0.034454379 0.00079139177 0.16266954
-0.03444396 -0.0038414474 0.1624465
-0.019956402 0.0073763011 0.18333444
-0.020292163 0.0033652333 0.18338329
-0.020595636 -0.00063879706 0.18340924
-0.020670328 -0.0057093874 0.18358412
-0.021118181 -0.009987426 0.18424556
-0.023354786 0.011647915 0.18371254
-0.02349891 0.0086334404 0.1841259
-0.023300989 0.0020059953 0.18366593
-0.0232218 -0.00064498378 0.18348196
-0.02312284 -0.0039586984 0.18325198
-0.031609807 0.013193442 0.16843092
-0.030682683 -0.014618959 0.1664277
-0.031600203 0.012031853 0.16468805
-0.032591447 0.0080410931 0.16433936
-0.03281711 0.0054157292 0.16346899
-0.032157645 -0.0091607273 0.16228557
-0.031013949 -0.013344779 0.16282719
-0.031506658 0.016562024 0.15969014
-0.031848192 0.01226603 0.15934163
-0.032059856 0.0082496228 0.1595507
-0.033072557 0.0042280997 0.15991497
-0.033154044 6.8702473e-05 0.15925747
-0.032676458 -0.0045989626 0.15858373
-0.031416792 -0.008870637 0.15826079
-0.030522618 -0.013070369 0.15899962
-0.032566056 0.011061159 0.15612984
-0.032347288 0.0037358808 0.15562147
-0.032247815 0.00040620103 0.15539038
-0.032128472 -0.0035894075 0.15511307
-0.017153468 0.0077307429 0.18362379
-0.016977055 0.0030543366 0.18327311
-0.016925352 -0.0006380211 0.18351519
-0.017160008 -0.0050401054 0.18360117
-0.031761851 0.0083506601 0.1572386
-0.030821953 -0.010293612 0.15564749
-0.029797249 -0.012980085 0.15565848
-0.032279033 0.01317763 0.15376681
-0.032039575 0.0084958784 0.15373683
-0.031988945 0.0047024642 0.15298983
-0.031759962 0.00052665774 0.152219
-0.031657323 -0.0043800944 0.15222362
-0.031250544 -0.008845686 0.15232217
-0.030237896 -0.012682867 0.15158632
-0.032418609 0.013363615 0.149584
-0.03203094 0.0086938925 0.14906389
-0.031754393 0.0046787555 0.14884877
-0.031949911 0.00066202629 0.14863184
-0.032126326 -0.0038505383 0.14832973
-0.031969428 -0.0081823561 0.14713377
-0.030753851 -0.012064592 0.14804298
-0.0099059856 0.0027575502 0.18326935
-0.010627883 -0.00098921324 0.18405733
-0.010637641 -0.004354897 0.18390164
-0.01308402 0.0036937848 0.18299949
-0.013361641 -0.00064205716 0.18371856
-0.013290473 -0.004667569 0.18347394
-0.029393997 -0.014119295 0.148754
-0.031554937 0.013534912 0.14609
-0.03135528 0.0088430289 0.14571711
-0.031278901 0.0047983662 0.14594209
-0.031510897 0.00078168639 0.14547265
-0.031347461 -0.0025677718 0.14518979
-0.029582875 -0.012843429 0.1446645
-0.030914221 0.013738485 0.14181045
-0.030894654 0.0090235677 0.14158028
-0.031195521 0.0049715731 0.14163738
-0.031480908 0.00092523725 0.14168182
-0.031497616 -0.0031081715 0.14151168
-0.031682916 -0.0078151114 0.14144593
-0.029993126 -0.012500467 0.13988018
-0.031191383 0.013893881 0.13824862
-0.031050427 0.0091765141 0.13792121
-0.031102538 0.0048081293 0.13729027
-0.031863675 0.00095034618 0.13654241
-0.032543574 -0.0029323862 0.1366812
-0.032685347 -0.0076456531 0.13658333
-0.031512685 -0.01166828 0.13545069
-0.032899976 -0.0031268448 0.13268268
-0.033306293 -0.0068264366 0.13237154
-0.032705221 -0.0099718943 0.13205665
-0.0071300268 0.0036256553 0.18372095
-0.0073224818 -0.00038381622 0.18423897
-0.031178253 0.014022215 0.13538802
-0.030493651 0.0093222344 0.13462058
-0.030784709 0.0055311616 0.1344949
-0.031980619 0.0025453728 0.1345703
-0.029536333 -0.01367448 0.13375765
-0.030544383 0.014228122 0.13105834
-0.030504994 0.0094836298 0.13081279
-0.030769842 0.0052295695 0.13042736
-0.031643119 0.0013513652 0.13042048
-0.032606825 -0.0024201672 0.12989539
-0.033011861 -0.0067259716 0.12927133
-0.031474318 -0.011823912 0.12945217
-0.029944029 -0.014185658 0.12833112
-0.031651802 0.0042074625 0.12672156
-0.031461187 0.0015012688 0.12644309
-0.031819839 -0.002819296 0.12577677
-0.032100577 -0.0067582028 0.1249198
-0.031929579 -0.0099663325 0.12439477
-0.0022514206 -0.00064625754 0.18418097
-0.030139599 0.014379329 0.12785274
-0.029997723 0.0096284691 0.12752303
-0.030272841 0.006220242 0.1275968
-0.030019641 0.014559727 0.12390354
-0.031240582 0.0097342217 0.12470272
-0.031325597 0.0058331098 0.124358
-0.031341281 0.0016143175 0.12345988
-0.031417456 -0.0021061637 0.12287521
-0.032131791 -0.0051610209 0.12285161
-0.030772142 -0.011987281 0.12334454
-0.029214058 -0.014532058 0.12218022
-0.03082926 0.014732567 0.1197468
-0.031499915 0.0099680247 0.11912626
-0.032075234 0.005855626 0.11942613
-0.031090431 0.001965963 0.11867064
-0.031123536 -0.002318023 0.11923552
-0.031472888 -0.0063762181 0.11837828
-0.031337962 -0.010457859 0.11808407
-0.030086312 -0.013878417 0.11785418
-0.03194746 -0.0065032975 0.11411327
-0.03168685 -0.0094123762 0.11389416
0.0030063221 -0.00064250396 0.18423545
-0.0304842 0.01556597 0.11657798
-0.03046504 0.012832007 0.11644089
-0.030238304 0.00054036418 0.11570621
-0.030468771 -0.0021979974 0.11577922
-0.029124551 -0.015050935 0.11524683
-0.030051827 0.015722612 0.11329144
-0.030747619 0.010739703 0.11286104
-0.031141572 0.0061264732 0.11281496
-0.030412419 0.0020481807 0.11201644
-0.030751297 -0.0020666793 0.11212325
-0.03186398 -0.005800236 0.1114412
-0.03106044 -0.010708634 0.11135483
-0.029410753 -0.013977263 0.11073989
-0.031125886 0.0060410704 0.1080994
-0.030746188 0.0021846988 0.10839105
-0.030932767 -0.0023432965 0.10704273
-0.031546049 -0.0059885592 0.10675502
-0.0313024 -0.0099311508 0.106619
-0.029565811 -0.01287636 0.10672086
-0.032018218 -0.006553343 0.10320526
-0.032029256 -0.0092970096 0.10309529
0.007837466 0.0034424046 0.18575874
0.00820194 -0.00067659188 0.1853075
-0.029556666 0.01313549 0.10981876
-0.030048404 0.011177627 0.10720468
-0.030876312 0.0067752306 0.10526288
-0.030778579 0.002295054 0.10547543
-0.030829668 -0.00089837116 0.10505188
-0.030762486 -0.011398501 0.10387909
-0.029310107 -0.014411062 0.10531104
-0.030166779 0.011382414 0.10238343
-0.031442184 0.0065866429 0.10130334
-0.031762309 0.0024479337 0.10140085
-0.031835165 -0.0016773166 0.10128462
-0.031909756 -0.0055852411 0.10061556
-0.031516466 -0.010093095 0.10007793
-0.029483454 -0.014078164 0.10068351
-0.030377218 0.010159812 0.098550737
-0.031804409 0.0067305942 0.097663701
-0.03231357 0.0025785365 0.097929657
-0.032221198 -0.0015474977 0.097670376
-0.031794038 -0.0056498311 0.096621811
-0.031619821 -0.009793547 0.096787274
-0.029790554 -0.012587358 0.097052932
-0.028864913 0.01257614 0.095092714
-0.029732211 0.0079860734 0.094308734
-0.030019896 0.0027325512 0.093936384
-0.030242903 -0.0014219767 0.093952954
-0.029968807 -0.0055636107 0.093533397
-0.029301576 -0.0096996054 0.092768729
-0.027860131 -0.013896681 0.093318403
-0.029432314 0.012398498 0.090406239
-0.030074921 0.0077349092 0.090201318
-0.030441539 0.002868718 0.090315998
-0.030197076 -0.0012796647 0.089921474
-0.029842257 -0.0054277317 0.089429319
-0.02947196 -0.0095780538 0.088923573
-0.028812699 -0.012909906 0.088598967
-0.031102743 0.006912868 0.086263716
-0.031198382 0.0028495258 0.085543633
-0.031067031 -0.0011107414 0.085256994
-0.030682275 -0.0050075157 0.085378706
-0.030575395 -0.0094381794 0.084892809
-0.029316954 0.013409165 0.087765992
-0.02780051 -0.014750924 0.086720467
-0.030130658 0.012845942 0.084438801
-0.030593378 0.0091411667 0.084023416
-0.030884538 0.0045472253 0.082744598
-0.031216213 -0.0010231896 0.082805514
-0.030630419 -0.0055411919 0.082591116
-0.030362351 -0.0093415622 0.081684291
-0.029392974 -0.013561626 0.082652032
-0.030079417 0.012777961 0.079536021
-0.030488491 0.0088606216 0.079536617
-0.030412624 0.0036812262 0.07939291
-0.030987382 -0.00087250699 0.07856071
-0.031336121 -0.0050574811 0.078700006
-0.031185968 -0.009228182 0.078387439
-0.030108538 -0.013210911 0.077823341
-0.030468004 -0.0056021484 0.073829114
-0.030567629 -0.008395385 0.073802292
-0.029754128 0.013541787 0.076532006
-0.030027203 0.0097043756 0.076109409
-0.029036727 0.0048107696 0.076020241
-0.029740691 0.0020288862 0.075524688
-0.029373663 -0.013328283 0.074542105
-0.029167566 0.013375921 0.072421372
-0.028930459 0.0089614522 0.072456479
-0.028614113 0.0051304861 0.072334647
-0.029326456 0.0003512525 0.072163224
-0.029382348 -0.0039860667 0.071272612
-0.029939175 -0.0093863495 0.071657181
-0.028908031 -0.013450818 0.071492255
-0.030016933 0.013551986 0.068084657
-0.029956954 0.0093416069 0.067853391
-0.029537559 0.0051469258 0.067291498
-0.030161211 0.00091486285 0.067689717
-0.030260069 -0.0039949529 0.067575991
-0.030128922 -0.0088971686 0.067249775
-0.02917196 -0.012700177 0.066500425
-0.030654686 0.0094778603 0.064393818
-0.030507956 0.0045651067 0.06405288
-0.030615244 0.0007166827 0.063477337
-0.030858994 -0.0031344204 0.063028514
-0.030548777 -0.0080530932 0.062878668
-0.027932167 -0.014487636 0.064989805
-0.029510584 0.013791108 0.062682688
-0.029626353 0.009359655 0.06170994
-0.029989805 0.0055916007 0.060958326
-0.030623317 0.0014500881 0.060729682
-0.031330757 -0.0030410443 0.060379565
-0.031095028 -0.0069168685 0.06051445
-0.029202053 -0.011507807 0.060103595
-0.027620673 -0.014370491 0.060581565
-0.030070219 0.0055245613 0.057482243
-0.030578358 0.0012752112 0.057784021
-0.030204382 -0.0025725567 0.056754112
-0.03020571 -0.0071370234 0.056047797
-0.029176252 -0.0099740913 0.056001723
-0.028288824 0.013975976 0.05875659
-0.028576765 0.010448398 0.058360934
-0.027540667 -0.012841417 0.056425869
-0.02840725 0.014126332 0.055234134
-0.028861694 0.0097105736 0.054697454
-0.029236691 0.005676582 0.053582847
-0.029230611 0.001431517 0.053402126
-0.029322114 -0.0030900538 0.053094327
-0.029288189 -0.0070219217 0.05206722
-0.027698994 -0.011615603 0.053296208
-0.029024158 0.014317891 0.050603151
-0.028997643 0.01028889 0.049814761
-0.029014349 0.005846085 0.049200118
-0.029233728 0.0015827983 0.049233675
-0.029422862 -0.0026748222 0.049239337
-0.029258303 -0.0069224341 0.04890883
-0.027702315 -0.010999627 0.048907518
-0.029716475 0.01446113 0.047076941
-0.029799649 0.010195514 0.046982348
-0.029627528 0.005942659 0.046644032
-0.03000927 0.0015228366 0.045329154
-0.030073235 -0.002513398 0.04462558
-0.030026283 -0.0067699375 0.04440707
-0.028830783 -0.0096539026 0.045245051
-0.030878305 -0.0052319332 0.041081786
-0.027735779 -0.011833306 0.046210349
-0.02951467 0.014608124 0.04373306
-0.029627118 0.010332157 0.043667555
-0.029612355 0.0060648462 0.043479562
-0.029721584 0.0025442808 0.04238838
-0.028692381 -0.011179926 0.042683244
-0.02676722 -0.014210609 0.041502357
-0.028886165 0.014529182 0.039107978
-0.029680405 0.010545507 0.038444102
-0.029754791 0.006262437 0.038342834
-0.029819267 0.0019832873 0.038232386
-0.029404981 -0.0022810388 0.037657499
-0.02993284 -0.0067361579 0.037726164
-0.029071877 -0.010827848 0.036989927
-0.028049674 -0.013700127 0.036943018
-0.030312896 0.0099736862 0.034794986
-0.030303393 0.0064034513 0.03464216
-0.029728021 0.0021397413 0.033908069
-0.029980812 -0.0071470337 0.033782065
-0.028675471 0.01494167 0.036231458
-0.029405339 0.015255108 0.033510685
-0.029822025 0.011133984 0.032764077
-0.029904077 0.0065018912 0.032126188
-0.029612098 0.002220907 0.031668007
-0.029206293 -0.0020955398 0.032162666
-0.029365744 -0.006013772 0.031629026
-0.02903969 -0.010670932 0.031655073
-0.027595589 -0.014741628 0.031143725
-0.030290008 0.015020357 0.029185593
-0.030522058 0.010938958 0.028639615
-0.0305006 0.0066418196 0.028446734
-0.029932482 0.0023260384 0.028784037
-0.029286096 -0.0021420252 0.027508676
-0.02997458 -0.0062300442 0.027413785
-0.029784169 -0.010522779 0.027054727
-0.028418899 -0.013893118 0.027000964
-0.030141694 -0.007532231 0.023241639
-0.03031867 -0.0099037569 0.022606671
-0.028546112 0.0024892765 0.024203181
-0.028420432 -0.001100846 0.023935616
-0.028991411 0.011231603 0.021761417
-0.028955035 0.0069120219 0.021554232
-0.028614879 0.0026043113 0.021044314
-0.028726153 -0.0018708667 0.020168781
-0.029345104 -0.0058251708 0.020091176
-0.029428177 -0.010546785 0.019539118
-0.027946983 -0.013566083 0.01919806
-0.028101427 0.010684405 0.017607391
-0.027970178 0.0085226763 0.01739049
-0.028561387 -0.0022518409 0.015391588
-0.029367737 -0.0062200688 0.015505135
-0.029420001 -0.0098873917 0.015088201
-0.028061578 0.011729552 0.014817119
-0.027901206 0.0069937352 0.01481849
-0.027491007 0.002839399 0.014513612
-0.02797447 -0.00090633793 0.013984203
-0.028557761 -0.0050695767 0.01310575
-0.027931247 -0.011563354 0.012218177
-0.028699789 0.011732528 0.0095480084
-0.028314829 0.007398311 0.0089865327
-0.027964864 0.0030499843 0.0087336898
-0.028541923 -0.0013072724 0.0088775158
-0.029034121 -0.005662926 0.0092081428
-0.028884837 -0.010002092 0.0088869333
-0.027234487 -0.013258887 0.0076285005
-0.029944489 0.011705936 0.0048754811
-0.029490761 0.0090118553 0.0047755241
-0.028757062 -0.0018906735 0.0046980977
-0.029639227 -0.0056942152 0.0038879514
-0.029490199 -0.0096276645 0.0035825968
-0.028056979 -0.012765473 0.0035588145
-0.027693834 0.0031485397 0.0059995055
-0.028384311 0.0068795495 0.0035573244
-0.027366452 0.0032795591 0.0023729205
-0.027567439 -0.00071230246 0.0018745065
-0.027130775 -0.013833375 0.0020185709
