# .PCD v0.7 - Point Cloud Data file format
VERSION 0.7
FIELDS x y z
SIZE 4 4 4
TYPE F F F
COUNT 1 1 1
WIDTH 480
HEIGHT 1
VIEWPOINT 0 0 0 1 0 0 0
POINTS 480
DATA ascii
-0.02536672 0.024542902 0.1814495
-0.022022044 0.030607857 0.1786851
-0.024674643 0.028824737 0.17922291
-0.027203854 0.025310591 0.17934138
-0.029149566 0.022166438 0.17873704
-0.022965983 0.031682126 0.17614564
-0.026896846 0.030704118 0.17613789
-0.029739942 0.027536687 0.17562568
-0.030330034 0.024301533 0.17474344
-0.026500896 0.031547882 0.17105472
-0.030355211 0.028968019 0.17045066
-0.031216316 0.025369799 0.17126757
-0.03025654 0.029285109 0.1666683
-0.025456887 0.015203502 0.18355048
-0.028756168 0.012907657 0.18387771
-0.01530958 0.030089512 0.18021822
-0.01794106 0.028323898 0.18082452
-0.020675153 0.025224138 0.18111771
-0.024085479 0.022008823 0.18182364
-0.02724628 0.018965069 0.18197751
-0.029810309 0.015972005 0.18156794
-0.031093629 0.012783986 0.18003958
-0.016547872 0.031763252 0.17753166
-0.019723373 0.030713469 0.17876986
-0.02218009 0.027929598 0.17997104
-0.03000975 0.020582508 0.17746112
-0.031614654 0.018013764 0.17726544
-0.032244328 0.014480943 0.17605025
-0.017601443 0.032101829 0.17370486
-0.020911481 0.032146003 0.1742163
-0.030817507 0.022050394 0.17371184
-0.031964425 0.018598935 0.1723294
-0.021356115 0.032109015 0.16944876
-0.025111903 0.031812713 0.16792309
-0.031172572 0.023364851 0.1685054
-0.031731375 0.019787947 0.16864008
-0.022507053 0.031823512 0.16598931
-0.02575024 0.030816371 0.16401953
-0.02947188 0.028656378 0.1637069
-0.030337855 0.024238799 0.1637865
-0.026371373 0.030426515 0.15983212
-0.029059485 0.028912857 0.15988538
-0.011422236 0.025560899 0.18248203
-0.013105183 0.023462288 0.18304825
-0.016194696 0.020915894 0.1831373
-0.019315794 0.017897248 0.18285346
-0.022345806 0.014272748 0.18305755
-0.025599247 0.011806202 0.18379563
-0.028433144 0.008819568 0.18329439
-0.010094117 0.029984353 0.17973536
-0.012456531 0.028753329 0.18065768
-0.015490429 0.025863357 0.18189153
-0.017742131 0.022981264 0.18184528
-0.021251291 0.019473113 0.18206146
-0.031076334 0.010192488 0.17952797
-0.011769993 0.03182815 0.17611995
-0.013874427 0.032004125 0.17634627
-0.031914309 0.011694821 0.17350778
-0.01222191 0.032572359 0.17128572
-0.015314366 0.032384425 0.17154896
-0.031559944 0.01319235 0.16932487
-0.016491078 0.032363739 0.1669004
-0.01916565 0.032227878 0.16634822
-0.031031951 0.017590148 0.16544202
-0.030897122 0.014035659 0.16554379
-0.016842104 0.032638781 0.16294783
-0.020298142 0.031688645 0.16294318
-0.023955038 0.030729193 0.1615147
-0.029852828 0.021993358 0.16131735
-0.030046463 0.01899441 0.16244155
-0.021313906 0.031757161 0.15766948
-0.024833627 0.031285599 0.15789616
-0.028971404 0.028256962 0.1573835
-0.029978979 0.023792934 0.15650535
-0.025406653 0.031493183 0.15279698
-0.028972274 0.028972466 0.15312439
-0.030220024 0.02536425 0.15147322
-0.026640227 0.031271853 0.14937446
-0.028928502 0.029839039 0.14880893
-0.029959004 0.02712623 0.14866608
-0.012514116 0.015414505 0.18292978
-0.014365109 0.01349704 0.18276823
-0.017995806 0.010520367 0.18287641
-0.022077186 0.0075875004 0.1839492
-0.0084964633 0.024582114 0.18236294
-0.01089385 0.021272119 0.18352005
-0.013828323 0.01855989 0.18344226
-0.016167719 0.015294302 0.18278024
-0.019273948 0.012775192 0.18243584
-0.0095448755 0.02754093 0.18084827
-0.031367399 0.010662234 0.16661608
-0.011090111 0.031954437 0.16392624
-0.013537735 0.032368928 0.1654059
-0.029701695 0.014882542 0.16173989
-0.030685961 0.011823568 0.16209799
-0.014767113 0.032406699 0.16014868
-0.018221706 0.031687841 0.16003156
-0.029191684 0.016182695 0.15829879
-0.03040218 0.012412037 0.15836108
-0.01599578 0.032574225 0.15568757
-0.018525492 0.031758465 0.15606368
-0.029477246 0.020629842 0.15571138
-0.029229097 0.017620089 0.15381968
-0.016432332 0.032291353 0.15202668
-0.019880215 0.031743724 0.15118656
-0.02305864 0.031464472 0.1494427
-0.030476503 0.022539156 0.15023962
-0.030305605 0.019843675 0.15010488
-0.020808093 0.031304702 0.14627844
-0.024270659 0.030983137 0.14606589
-0.028023452 0.029134033 0.14510205
-0.030080676 0.024344318 0.14502531
-0.030670896 0.020411879 0.14596444
-0.024982836 0.030030433 0.14212731
-0.027535211 0.028629677 0.14101672
-0.029420195 0.025465118 0.14101431
-0.0074689821 0.017961966 0.1828334
-0.010075188 0.014877238 0.18300745
-0.012206328 0.011315153 0.18330622
-0.015110353 0.0083134463 0.18356431
-0.009959247 0.032066695 0.15971145
-0.011321625 0.031984475 0.15726447
-0.03050527 0.011777678 0.15553898
-0.011846796 0.032221273 0.15369627
-0.029583648 0.015178402 0.15257299
-0.030307341 0.012370968 0.15153992
-0.01507775 0.03267682 0.14967266
-0.017952364 0.03209085 0.14897281
-0.029842176 0.016610274 0.1479452
-0.030090503 0.013969476 0.14838982
-0.016120898 0.032395929 0.14536735
-0.018820234 0.031825926 0.14525932
-0.021912334 0.030718504 0.14276457
-0.030875163 0.018634833 0.14303112
-0.019444207 0.030905643 0.14091831
-0.023126755 0.030471606 0.13926914
-0.026368214 0.029700074 0.13891622
-0.030436376 0.024317436 0.13893336
-0.031457879 0.019657627 0.1384117
-0.023930337 0.030747974 0.13471159
-0.027446851 0.029079948 0.13535157
-0.030116674 0.025714055 0.1349448
-0.03121485 0.022009034 0.13403594
-0.025176588 0.03086851 0.13045648
-0.027339092 0.029244717 0.13024577
-0.029724617 0.026311452 0.13035473
-0.0081606833 0.0072530699 0.18380669
-0.011157124 0.0041215178 0.18426421
-0.0066400212 0.011863648 0.18299946
-0.0099611627 0.0090504382 0.18377632
-0.014053272 0.0055389432 0.18380827
-0.010615847 0.032333475 0.15087456
-0.030293301 0.010331544 0.14822972
-0.010780327 0.031811997 0.14689493
-0.030049589 0.011905912 0.14503428
-0.012965864 0.031408481 0.14215031
-0.030265879 0.012583304 0.14012501
-0.013793589 0.030566733 0.13829872
-0.017387174 0.030950829 0.13794208
-0.030713247 0.014380004 0.13613936
-0.018894324 0.031099834 0.13378829
-0.021548383 0.030959267 0.13230842
-0.031126257 0.019595116 0.13250703
-0.031275332 0.015925355 0.13177162
-0.019234706 0.031358782 0.12968767
-0.022896456 0.03117617 0.12815124
-0.027184758 0.029226512 0.12770012
-0.029865962 0.025739918 0.12750709
-0.030574733 0.021189954 0.12746623
-0.023579586 0.031043092 0.12325361
-0.026809918 0.029073335 0.12356701
-0.029071447 0.025878243 0.12308034
-0.030316679 0.022055071 0.12403002
-0.024542347 0.030843453 0.11955363
-0.026402894 0.028891072 0.11937976
-0.028736906 0.026458727 0.11917228
-0.0031139727 0.0082578734 0.18331137
-0.0054554879 0.0045510889 0.18386951
-0.012026742 0.030903868 0.13564473
-0.030570213 0.011724439 0.13359749
-0.01310586 0.030338097 0.13110936
-0.015103837 0.030379426 0.13126907
-0.030870868 0.013055589 0.12868047
-0.017824054 0.030824414 0.12601936
-0.030875679 0.01580205 0.12525678
-0.031286214 0.012333029 0.12526613
-0.019352928 0.031253278 0.12265232
-0.021142291 0.031168258 0.12168342
-0.029439311 0.024241997 0.12010014
-0.030065442 0.020326389 0.12120637
-0.030768249 0.0173478 0.12086391
-0.019353764 0.031470854 0.11893231
-0.022589371 0.031199373 0.11756229
-0.026501115 0.029132508 0.11669421
-0.028925894 0.025563115 0.11623126
-0.029932769 0.021284398 0.11682707
-0.022839228 0.030772863 0.11337554
-0.026275318 0.029172042 0.11174518
-0.028911097 0.02607248 0.11128575
-0.029955812 0.023141488 0.11390096
-0.026680131 0.029750938 0.1084612
-0.029043067 0.027321598 0.10827315
-0.0014654876 0.00058335508 0.18362257
-0.010012345 0.030185342 0.12891299
-0.01122561 0.029572055 0.12415245
-0.013980715 0.029694017 0.12446517
-0.030832227 0.010834056 0.12177676
-0.01503797 0.029866049 0.11974955
-0.030536514 0.014600018 0.11814773
-0.031042933 0.011631836 0.11735338
-0.01713939 0.030477904 0.11510932
-0.030525457 0.019838633 0.11407071
-0.030630006 0.016291071 0.1140725
-0.017934382 0.030500436 0.11168128
-0.021349991 0.030831441 0.11112702
-0.030244188 0.021404319 0.11077291
-0.030844422 0.017652608 0.10935885
-0.022996666 0.030961365 0.10709089
-0.026508298 0.029741775 0.10542554
-0.029226288 0.026417162 0.10528475
-0.030191097 0.0220907 0.10612762
-0.031119701 0.018869253 0.1059944
-0.023228893 0.030458989 0.10298401
-0.025685396 0.029175855 0.10064906
-0.027869433 0.026847385 0.10074961
-0.029703453 0.023450634 0.10224128
-0.027784174 0.02755459 0.097878814
0.0022442031 -0.0031217167 0.18369249
-0.011420627 0.029326029 0.12088063
-0.01218849 0.029817227 0.11724281
-0.0095470259 0.029826555 0.11429715
-0.013191502 0.029963739 0.1125375
-0.030383032 0.014002229 0.11029088
-0.030893732 0.011123763 0.11099476
-0.015512523 0.029860558 0.10831708
-0.030709777 0.014985763 0.10669869
-0.030543037 0.012324282 0.10735869
-0.016705999 0.029763792 0.10363519
-0.018825822 0.029902266 0.10397369
-0.029802356 0.02061845 0.10242873
-0.03070472 0.01696402 0.10256183
-0.02100477 0.029978875 0.099786282
-0.028439013 0.024914492 0.099168003
-0.02920728 0.02117509 0.098496974
-0.030212857 0.018251011 0.09916383
-0.022185722 0.029863348 0.095067739
-0.02513705 0.028919242 0.095217824
-0.027939532 0.025696257 0.094524145
-0.028688185 0.022758881 0.09526962
-0.025594968 0.028664134 0.090362608
-0.027816318 0.026413094 0.090407908
0.0078596342 -0.002451123 0.18475538
0.0049110632 -0.0062108641 0.18440965
-0.011954734 0.029283378 0.10649163
-0.030597679 0.0098338909 0.10515016
-0.014106978 0.029255046 0.10179633
-0.030023905 0.014066204 0.10029644
-0.029863037 0.010707182 0.10080957
-0.014962571 0.029383957 0.097423017
-0.018258676 0.029161297 0.095912516
-0.029514916 0.019660123 0.095712662
-0.029934781 0.015890308 0.095980763
-0.019642865 0.029442005 0.092279732
-0.029121168 0.021139238 0.092229128
-0.030211128 0.016887328 0.091077507
-0.021572577 0.029615687 0.088564098
-0.024562269 0.029482463 0.088488162
-0.028331652 0.026182286 0.087876797
-0.029592423 0.022091847 0.087412238
-0.030293144 0.018899307 0.086713612
-0.025460986 0.029285314 0.083990633
-0.028168192 0.026719216 0.083637118
-0.029465556 0.023656309 0.082874179
-0.02584034 0.029175604 0.079175532
-0.02818661 0.026981495 0.07880348
-0.0094962092 0.028512973 0.10359627
-0.0099999998 0.028479757 0.099500418
-0.011266609 0.028829204 0.09488833
-0.029434409 0.0097818151 0.093204319
-0.012961541 0.028781394 0.090858459
-0.015320892 0.02867312 0.090688705
-0.029865313 0.014415466 0.088495076
-0.030036438 0.011163167 0.088748455
-0.016801082 0.02892733 0.086230755
-0.030110111 0.015613973 0.085022748
-0.030419748 0.013187934 0.084002018
-0.019339504 0.028765418 0.081622541
-0.022684332 0.029137436 0.081904411
-0.029130362 0.020620234 0.080797374
-0.029952656 0.017401209 0.080771387
-0.02016028 0.028794896 0.078106582
-0.023277167 0.028537082 0.0768224
-0.028110523 0.02705751 0.075781763
-0.028759819 0.022331771 0.076438725
-0.024747502 0.028430719 0.072596967
-0.027708475 0.026826417 0.07233417
-0.028991055 0.023538921 0.071901977
-0.0093322946 0.029009823 0.092865765
-0.010207736 0.028774172 0.087923229
-0.011932765 0.029190972 0.083469212
-0.014721472 0.029017419 0.083020389
-0.030733809 0.010573596 0.082457185
-0.01299719 0.029503088 0.079261899
-0.015728686 0.029221648 0.079724967
-0.030099455 0.015111638 0.078027546
-0.030693421 0.011987418 0.077561021
-0.017471243 0.028764447 0.074906588
-0.020146176 0.028332213 0.074405253
-0.028683797 0.019809186 0.074246585
-0.02939911 0.017127689 0.074176967
-0.030401079 0.013586937 0.074144304
-0.021240426 0.027930997 0.070469975
-0.028898567 0.021033963 0.069722354
-0.029171389 0.01806579 0.068780363
-0.026650811 0.026451688 0.066524446
-0.028953992 0.022732375 0.065461695
-0.027118511 0.02614598 0.060938239
-0.028613107 0.024344528 0.060980439
-0.0088602286 0.029177492 0.082622111
-0.0099307643 0.029244777 0.077223539
-0.010537655 0.029056516 0.072772682
-0.014465433 0.02868598 0.073169827
-0.028982829 0.014279706 0.070680797
-0.030007452 0.011007695 0.07099551
-0.011756354 0.028902372 0.068912923
-0.015057536 0.028228698 0.068453193
-0.019306429 0.027545936 0.067565978
-0.028983673 0.015472534 0.066379666
-0.02956653 0.012040284 0.066449344
-0.016239004 0.027632613 0.064675868
-0.019439586 0.026934113 0.063122272
-0.023186749 0.026701342 0.063275218
-0.02828081 0.020020347 0.060849011
-0.028511561 0.016575189 0.062319577
-0.029417511 0.013045418 0.06293267
-0.020197531 0.027586157 0.05889827
-0.024490895 0.026939629 0.058438718
-0.028411366 0.021946365 0.058149278
-0.028491054 0.018369477 0.057771325
-0.021608917 0.027513886 0.055612504
-0.025026159 0.026823061 0.053443968
-0.027784979 0.024124643 0.053326964
-0.028463542 0.020521332 0.054081559
-0.025348712 0.027102366 0.049435556
-0.027854171 0.024563313 0.048851192
-0.010204475 0.029112032 0.066447556
-0.013546949 0.028862871 0.06589061
-0.029870523 0.010370879 0.065500915
-0.01412457 0.027970735 0.061256349
-0.028767196 0.012492306 0.060079873
-0.029352326 0.0090333614 0.06013763
-0.015352433 0.028011831 0.056520045
-0.018171851 0.028000407 0.056859076
-0.0284665 0.016391356 0.056379259
-0.02755346 0.013451355 0.055831373
-0.016237432 0.028304825 0.052714884
-0.02003341 0.02833255 0.052836359
-0.028370928 0.018526085 0.051583171
-0.021611325 0.028691636 0.04854089
-0.024265686 0.027922036 0.047920585
-0.028442485 0.022824388 0.047373176
-0.028516974 0.020388711 0.047256231
-0.021821121 0.02835446 0.043836415
-0.025029769 0.027342411 0.043389499
-0.027859477 0.024995059 0.043612182
-0.028240126 0.011075007 0.056697786
-0.0090972232 0.028863695 0.055059731
-0.012884949 0.02839355 0.054276764
-0.027943322 0.011928945 0.053288639
-0.010783879 0.029026177 0.050763011
-0.014459467 0.028711017 0.049767494
-0.027642533 0.015907206 0.048225403
-0.027627513 0.012138113 0.048706353
-0.01480736 0.028897354 0.045511365
-0.018608522 0.028561095 0.045547068
-0.028185884 0.017642964 0.044569075
-0.028033076 0.013929725 0.044462144
-0.016214654 0.028908508 0.04159826
-0.019922523 0.02861562 0.041020572
-0.02326115 0.027979281 0.040316641
-0.027984686 0.022676209 0.040682733
-0.028012427 0.018962258 0.040292025
-0.020180009 0.028683987 0.037091076
-0.024317909 0.026936825 0.036652267
-0.027271597 0.024424378 0.03646487
-0.02827955 0.020162929 0.035904586
-0.021364445 0.028473793 0.033070385
-0.02384739 0.026960175 0.032574415
-0.026929142 0.024083259 0.031135142
-0.028534053 0.021579178 0.032865942
-0.027789395 0.010020448 0.046277285
-0.0096817678 0.028901165 0.04312861
-0.012454811 0.029096369 0.043488681
-0.028206037 0.011455038 0.04187566
-0.028168457 0.0085625965 0.041282833
-0.013753699 0.02896861 0.038967431
-0.028223088 0.016967485 0.037795186
-0.027923577 0.013172926 0.037297785
-0.01556595 0.028602043 0.035662889
-0.017838355 0.028298497 0.033414721
-0.028163858 0.017609932 0.033451557
-0.028149987 0.014371968 0.033053815
-0.01889067 0.027826726 0.029234469
-0.023088291 0.026870823 0.029341161
-0.027544318 0.022790577 0.028833687
-0.028113561 0.01962772 0.029036462
-0.020188347 0.027714053 0.02532655
-0.023625478 0.026437823 0.025295079
-0.026481446 0.023941167 0.024686754
-0.027526069 0.020949792 0.024266899
-0.02584368 0.024521634 0.020394385
-0.009009283 0.028728016 0.037802517
-0.028113034 0.010805657 0.035427749
-0.0096481266 0.028902799 0.034089983
-0.01262061 0.028534122 0.032949984
-0.028479315 0.012588358 0.031419396
-0.029132433 0.0091497181 0.031080663
-0.01360942 0.028418044 0.028542042
-0.016762614 0.02822002 0.0276618
-0.02757901 0.016802706 0.026614964
-0.028704084 0.013577851 0.026893437
-0.029378094 0.010423585 0.026391625
-0.014788743 0.028470468 0.02436924
-0.017964831 0.027933015 0.023978591
-0.021907609 0.02654939 0.02242291
-0.028048521 0.018811645 0.023049295
-0.029028613 0.014957959 0.022262871
-0.01939287 0.028068431 0.019028664
-0.022783078 0.026859574 0.019412696
-0.026560821 0.02380117 0.018738925
-0.028177056 0.019831838 0.018516302
-0.02889503 0.016449509 0.018658519
-0.023392804 0.026749833 0.014614761
-0.026748389 0.02469774 0.014684796
-0.028192101 0.021304747 0.013578475
-0.024794726 0.026999293 0.010724187
-0.027049512 0.025184378 0.010932684
-0.011360738 0.028432705 0.024896562
-0.012666208 0.028187742 0.021002471
-0.015767096 0.027650636 0.020124495
-0.029264806 0.012666634 0.01935482
-0.028548578 0.009142193 0.019521534
-0.013819551 0.027995635 0.015802383
-0.016525185 0.027924662 0.016522467
-0.028169692 0.017928798 0.014938235
-0.028918618 0.014892234 0.015360713
-0.017544653 0.027298171 0.012421191
-0.021436913 0.026996968 0.011274099
-0.028155074 0.018767014 0.011218727
-0.028526448 0.015725791 0.010648429
-0.01912077 0.027559994 0.0082683563
-0.022585319 0.026990501 0.0073558092
-0.026090903 0.024430618 0.0064273477
-0.027817275 0.020380633 0.0074100494
-0.02822542 0.016256796 0.0072057843
-0.02296867 0.026541473 0.0036451221
-0.025823707 0.024330994 0.0028871894
-0.027077068 0.021444099 0.0037649274
-0.009942132 0.028078321 0.018641174
-0.010689069 0.027802104 0.015037239
-0.028323028 0.011961726 0.012777865
-0.027947841 0.0089517729 0.013008893
-0.013147712 0.027677916 0.0096613169
-0.015300261 0.027108619 0.0092714429
-0.028348859 0.012689264 0.0084370971
-0.027719233 0.0094274813 0.0082992315
-0.013197917 0.027960138 0.0055311322
-0.016483843 0.02773227 0.0051490664
-0.027677614 0.01787545 0.0047647953
-0.02808716 0.014532408 0.0036235452
-0.018063912 0.027964778 0.00016361475
-0.021313936 0.026736071 0.00079613924
-0.025329817 0.023966748 6.6816807e-05
-0.027187701 0.019408599 -0.00017309189
-0.0085685663 0.026566226 0.0074210167
-0.010064512 0.027051494 0.0032169223
-0.028031819 0.012115875 0.0017612576
-0.027725866 0.0086699389 0.0011518598
-0.014833599 0.027898606 -0.0010679364
-0.0087753469 0.026959207 0.00059229136
