# .PCD v0.7 - Point Cloud Data file format
VERSION 0.7
FIELDS x y z
SIZE 4 4 4
TYPE F F F
COUNT 1 1 1
WIDTH 396
HEIGHT 1
VIEWPOINT 0 0 0 1 0 0 0
POINTS 396
DATA ascii
0.030635854 0.027268352 0.18142861
0.028107177 0.030205514 0.1823549
0.024150414 0.03379029 0.18197221
0.022100678 0.036007181 0.18102443
0.031558432 0.028073797 0.17950356
0.02958904 0.031487562 0.17910004
0.025626037 0.035063569 0.17870957
0.022652796 0.037692048 0.17839381
0.0309509 0.03289837 0.17510396
0.027250431 0.036439613 0.17466086
0.024460062 0.037991449 0.17487609
0.031867068 0.034613091 0.17091584
0.028936464 0.036830571 0.17112154
0.026082328 0.021760834 0.18420005
0.023560369 0.024682431 0.18421882
0.018934008 0.028728515 0.18371248
0.015376385 0.033873472 0.18416053
0.013266123 0.033911623 0.18318522
0.031127734 0.021178694 0.18092126
0.029663162 0.024168057 0.18237591
0.025346512 0.027515246 0.18352717
0.021498976 0.031240216 0.18325442
0.018594917 0.034950968 0.18186712
0.014980317 0.036518916 0.18056053
0.032709509 0.022569621 0.17773151
0.032219678 0.025821587 0.17770723
0.020896075 0.037855364 0.17761916
0.017289609 0.0380213 0.17641038
0.032868408 0.02680428 0.1732569
0.0322529 0.03050982 0.17273387
0.022326998 0.03854974 0.17291498
0.033396605 0.028376093 0.16909474
0.032767352 0.032935034 0.16858274
0.02786918 0.036990605 0.16819823
0.023763413 0.038420387 0.16897172
0.033357412 0.028964123 0.16531068
0.032110237 0.033843681 0.16470161
0.02819581 0.036048044 0.16403359
0.02986981 0.012661415 0.18283656
0.02765324 0.015948094 0.18383941
0.024761193 0.018889539 0.18420967
0.021603975 0.023414508 0.1836842
0.016143994 0.025594702 0.18352968
0.013604724 0.029692903 0.18364629
0.031890929 0.014176418 0.18017843
0.030897101 0.018207179 0.18115708
0.028274778 0.020610761 0.18295038
0.011777868 0.036551248 0.17905504
0.033179898 0.015434384 0.17622113
0.032655496 0.019339889 0.17565948
0.014135433 0.037730813 0.17395547
0.032757863 0.020559164 0.17078686
0.01574382 0.0377938 0.16965243
0.033178367 0.022297001 0.16689846
0.033221267 0.025084095 0.1667541
0.020471551 0.037136786 0.16496745
0.016500646 0.037277043 0.1661377
0.032706842 0.026258033 0.16196176
0.031681549 0.031853136 0.16171497
0.026775535 0.035663165 0.16168991
0.022705993 0.03609594 0.16178685
0.032433491 0.027603174 0.15873197
0.031264894 0.031439245 0.15708253
0.027217653 0.035175782 0.15625587
0.031442609 0.03283504 0.15317315
0.021378245 0.011402056 0.18320709
0.019115156 0.0135339 0.18302223
0.015864149 0.016883023 0.18287316
0.012002833 0.020767521 0.18356901
0.008518992 0.02498143 0.1836628
0.028775703 0.0092966417 0.18276143
0.025983324 0.012835694 0.18411493
0.022021599 0.016528353 0.18377531
0.018442893 0.019495929 0.18331826
0.015730994 0.022258909 0.18318176
0.032346848 0.011231308 0.17916989
0.033211984 0.013177028 0.17339697
0.032585736 0.014220447 0.16809079
0.032661904 0.017430129 0.16821778
0.032663044 0.014921251 0.16437262
0.032712273 0.018762933 0.16395181
0.015007893 0.037057288 0.16294557
0.032657955 0.02073089 0.15996572
0.032234561 0.023032431 0.15938175
0.019160554 0.035393231 0.15888852
0.01555059 0.036421698 0.15818262
0.011676914 0.037628576 0.15838435
0.032595947 0.020938389 0.15585253
0.032085765 0.024829507 0.15547013
0.020680353 0.035344947 0.15443665
0.016754201 0.035861246 0.15455848
0.031915229 0.02587181 0.15150917
0.031553153 0.03032651 0.15069816
0.027751781 0.03444685 0.15016675
0.022827946 0.035606805 0.15052035
0.030885084 0.030194467 0.14609641
0.027506884 0.034104727 0.14465493
0.024063917 0.036041871 0.14621046
0.021372728 0.0087212184 0.18321231
0.016947402 0.011333976 0.18294981
0.013040396 0.014419961 0.18369621
0.0089073582 0.017268363 0.18424034
0.032367829 0.01312084 0.16233724
0.032783829 0.01456158 0.15778047
0.032379806 0.017260753 0.15746456
0.013159097 0.03678121 0.15596116
0.032133404 0.018605756 0.15318525
0.032132957 0.022467187 0.15257645
0.014929132 0.036396287 0.15178543
0.031644769 0.019503295 0.14912796
0.031798676 0.023652583 0.14882955
0.020159766 0.035822626 0.14842305
0.016534928 0.036163636 0.14748639
0.031526659 0.02521202 0.14461389
0.030939138 0.029085813 0.1433633
0.028401326 0.03355648 0.1426127
0.021771012 0.036051851 0.14306009
0.030309005 0.029220553 0.13971049
0.027766395 0.034112256 0.13894692
0.023316525 0.036776196 0.13793647
0.028284989 0.033018358 0.13538516
0.025651161 0.036416646 0.1344946
0.012164552 0.0042791259 0.18340966
0.007971596 0.009604061 0.18407467
0.0062319939 0.014004057 0.18457484
0.013752789 0.0080982437 0.18291694
0.011115327 0.01107111 0.18381131
0.031230483 0.01132578 0.15089953
0.031379938 0.015942371 0.15021175
0.030788884 0.017276563 0.14580876
0.03095784 0.020800427 0.14560631
0.013638938 0.036184281 0.14518088
0.030212853 0.021270532 0.14166462
0.015383331 0.036025457 0.14081326
0.02999733 0.02385648 0.13895762
0.029087054 0.026139477 0.13670123
0.019851239 0.035918653 0.1392855
0.016165048 0.036267146 0.13588065
0.01257371 0.03746143 0.13623753
0.028043227 0.028285867 0.1343067
0.02689968 0.031977527 0.13163555
0.023063835 0.03650593 0.13238657
0.018207802 0.037002295 0.13172281
0.023750318 0.034782633 0.12875783
0.020712808 0.036199346 0.1284624
0.0088107651 0.0034221883 0.18360814
0.0053701205 0.0059826383 0.18392956
0.030608628 0.010468784 0.14491618
0.029738817 0.013408005 0.14352769
0.028973438 0.016122676 0.13962191
0.028468886 0.01777059 0.13821524
0.027142109 0.019562328 0.13454437
0.014776693 0.037269354 0.13348597
0.026767222 0.025723895 0.13148513
0.02444578 0.026532266 0.12777549
0.015115051 0.036841221 0.12916532
0.012584993 0.037154946 0.12942323
0.024142683 0.029481765 0.12613109
0.023126241 0.03445394 0.12584698
0.017921165 0.036246892 0.12509134
0.015190166 0.037220199 0.12410808
0.021429606 0.034364812 0.12221107
0.019707914 0.034859102 0.12152946
0.0006013157 0.0016265668 0.18355441
0.028318914 0.011698758 0.13783827
0.026974555 0.012565087 0.13410151
0.026312303 0.01743798 0.13217205
0.024965243 0.018059438 0.12791526
0.024979107 0.022602491 0.12812603
0.023213319 0.022795781 0.12343252
0.022725703 0.025691668 0.12358171
0.011877668 0.036121774 0.12183124
0.020847278 0.031447098 0.11985499
0.016932027 0.034449361 0.11767018
0.013651277 0.03650659 0.1171478
-0.0028016882 -0.0023420819 0.18371248
0.026696045 0.010988294 0.13195053
0.025291629 0.013988726 0.1300438
0.024321359 0.015804887 0.1265223
0.023911962 0.019135481 0.12593889
0.023773447 0.016386177 0.1206916
0.022896124 0.019444598 0.12139818
0.020777514 0.024675669 0.12013084
0.021376912 0.020600423 0.11753106
0.019666465 0.023409551 0.11731362
0.018747661 0.029135879 0.11535341
0.018005667 0.028777754 0.11185253
0.016647033 0.033583663 0.11150092
0.013038791 0.036467738 0.11119986
0.015458842 0.03330835 0.10680389
0.014149461 0.035400819 0.1071195
-0.0072405376 -0.0058199279 0.18496153
-0.0053038672 -0.003149526 0.18366945
0.023505624 0.0073516853 0.12668762
0.02276309 0.01176226 0.12381852
0.023295045 0.015871011 0.1201939
0.024760626 0.01718729 0.11769974
0.021659212 0.018435167 0.11468929
0.019233434 0.022337774 0.11409461
0.017798224 0.022294639 0.11055857
0.01813088 0.026716147 0.10961044
0.017604003 0.028130637 0.10570699
0.016488235 0.033098962 0.10496819
0.012493514 0.036272075 0.10552192
0.017266581 0.02920386 0.10182202
0.016015336 0.032409117 0.10041767
0.01241732 0.035914999 0.10026425
0.021491084 0.0080046291 0.12139714
0.020928573 0.0087491293 0.11819041
0.021869391 0.016176231 0.11175489
0.018417463 0.017021544 0.10735077
0.0172949 0.020107055 0.10669082
0.01673951 0.02194472 0.10290337
0.016521595 0.02394199 0.1017831
0.016803689 0.026287753 0.098133564
0.015504399 0.029485589 0.097023606
0.015910197 0.027472816 0.09424597
0.014517336 0.030938037 0.093788207
0.01185625 0.034788255 0.093676269
0.014824752 0.032903858 0.088383257
0.012609283 0.03498926 0.088452458
0.017883826 0.016266752 0.1037237
0.016977593 0.018790159 0.10077477
0.017464984 0.020647734 0.096260607
0.016784672 0.023817409 0.094896495
0.01785228 0.021229565 0.091183901
0.016347645 0.025478633 0.091483772
0.014690982 0.029491222 0.090583563
0.016562723 0.026203852 0.086949229
0.01553536 0.030150728 0.087377548
0.011193126 0.036040679 0.085933626
0.016781827 0.027663795 0.081764519
0.016175482 0.03165748 0.082470536
0.013114774 0.035490826 0.082711458
0.016640982 0.031874843 0.07779038
0.013776367 0.035468012 0.078226149
0.015896276 0.011072397 0.09861207
0.01644841 0.014488051 0.098084867
0.01610963 0.011609003 0.09447366
0.016287958 0.01499158 0.093833268
0.016805084 0.016057825 0.089514554
0.01659123 0.019282902 0.085800946
0.016952815 0.022965224 0.084912479
0.017183499 0.023645418 0.080260515
0.017778343 0.025486747 0.076383173
0.012914494 0.034948982 0.075227797
0.015756488 0.029855337 0.071314991
0.011953752 0.034106851 0.070916176
0.015588744 0.031642191 0.066240132
0.01378719 0.033670329 0.06637156
0.01311929 0.0065905987 0.099442244
0.015063493 0.0067593865 0.095882833
0.015901823 0.0092484653 0.091174901
0.016645258 0.011090824 0.086933196
0.01685545 0.014223805 0.087104619
0.016657578 0.016091028 0.082867444
0.016246304 0.01767879 0.077331722
0.017809551 0.022482835 0.073560059
0.017206807 0.024197835 0.069394827
0.016701203 0.026856132 0.068043053
0.017026866 0.024649454 0.063971102
0.017423568 0.029055471 0.065227211
0.012110796 0.034472175 0.06530726
0.017465288 0.030152136 0.06024009
0.014695102 0.032934628 0.060499966
0.018035432 0.029830405 0.055963337
0.015656184 0.0061637447 0.089509368
0.016658451 0.0075447964 0.086179435
0.016564071 0.0085693588 0.080780149
0.016104139 0.013102446 0.081037343
0.016636059 0.010419942 0.07638669
0.016189633 0.013874304 0.0769822
0.017192813 0.011325177 0.072542965
0.016629776 0.015113207 0.071868062
0.016593864 0.019951666 0.070513189
0.016806442 0.016713198 0.067289531
0.016530301 0.019702923 0.067256689
0.017856684 0.018390872 0.062159359
0.017096058 0.021672972 0.062871277
0.018771738 0.019110102 0.058923602
0.018548505 0.023518683 0.058389246
0.01812263 0.027714172 0.057980239
0.012315514 0.032755733 0.056927562
0.019387353 0.024081387 0.053638458
0.017874515 0.029538414 0.053366721
0.013872771 0.032230318 0.053307474
0.02019145 0.026398517 0.049638748
0.019053172 0.030158076 0.048673749
0.013761636 0.0322183 0.04845947
0.022045009 0.027927328 0.044263184
0.019567005 0.031060211 0.044431508
0.016150385 0.032087695 0.045633197
0.022842888 0.029097371 0.040668666
0.021329813 0.030728288 0.041012287
0.016924987 0.0073823654 0.074067414
0.017392613 0.0089669526 0.069372058
0.016851559 0.010491715 0.064674795
0.016865574 0.013450486 0.064679086
0.017959524 0.014867053 0.060346544
0.019415438 0.016923994 0.055783153
0.0203666 0.01856436 0.051216364
0.020136688 0.022345398 0.051046669
0.02131068 0.019974012 0.046669304
0.020785099 0.023723742 0.047578931
0.01218345 0.032872543 0.045773745
0.022605825 0.021914057 0.041778147
0.022250935 0.024950836 0.043676674
0.01400065 0.032438431 0.042158425
0.024389118 0.023426227 0.037363887
0.023753043 0.026882771 0.038620889
0.01951904 0.031124612 0.038014889
0.015215613 0.031566545 0.037744701
0.025747119 0.024550086 0.033528507
0.02432405 0.027824076 0.033449948
0.020676026 0.030941976 0.033235729
0.024765672 0.028046267 0.029595673
0.021345427 0.030493258 0.028870702
0.01730828 0.0077174227 0.063483953
0.017944695 0.00855227 0.058813393
0.019279066 0.010209145 0.054452419
0.02130888 0.011678866 0.05013603
0.020156898 0.015343141 0.051440179
0.025152335 0.010347111 0.043253362
0.023061309 0.013156321 0.045659423
0.021525886 0.016954944 0.045770943
0.024595587 0.014398003 0.040918887
0.022979815 0.01872449 0.04128617
0.026411235 0.015942805 0.03651315
0.024723796 0.019988952 0.037330687
0.013653579 0.031941637 0.035161495
0.028305801 0.017572815 0.032204866
0.026213594 0.021942299 0.032788634
0.014462662 0.032417025 0.031490088
0.010633907 0.033023145 0.031148136
0.029868167 0.019133613 0.027383626
0.027532209 0.023369297 0.028362989
0.024435824 0.027575495 0.026982248
0.019854885 0.031062383 0.027413547
0.015534885 0.032602631 0.026728749
0.030848628 0.020990731 0.023331583
0.028565846 0.02439934 0.023447275
0.025603723 0.028561044 0.024002612
0.021438716 0.031450354 0.023060381
0.01684879 0.03238935 0.022152245
0.031621799 0.022435665 0.018850386
0.030134797 0.025680609 0.018734336
0.027085442 0.029753797 0.019191444
0.022807309 0.031856731 0.018016279
0.030588059 0.027125223 0.015560389
0.027877159 0.030536603 0.013955414
0.024985617 0.032092929 0.013836861
0.018948819 0.0070797242 0.052582085
0.026016627 0.0088383099 0.038957894
0.027542444 0.0095123071 0.034020543
0.029431086 0.011355516 0.029365361
0.030725621 0.012655961 0.024731994
0.02944563 0.016054001 0.027764738
0.012427155 0.032001521 0.022026777
0.031391066 0.015178586 0.02094245
0.031175975 0.017942891 0.020795226
0.0149805 0.032463197 0.019153357
0.0098895654 0.031818617 0.020334303
0.031488396 0.015060773 0.017690659
0.031819522 0.019692354 0.016283095
0.019753246 0.031715054 0.014599264
0.016824367 0.032423638 0.015320778
0.031436123 0.021009898 0.011752546
0.030323489 0.025090175 0.011394024
0.02861861 0.028435914 0.010741889
0.021996189 0.031742897 0.010625899
0.017322596 0.031564966 0.011877
0.030456495 0.025792941 0.0072981119
0.027611315 0.029622756 0.0075372458
0.024301216 0.031078562 0.0073601007
0.031425275 0.011254812 0.019335628
0.031461667 0.01290303 0.014675915
0.012803905 0.031971727 0.013589799
0.0098947752 0.031470835 0.012542129
0.032151684 0.015186137 0.0094820261
0.031593073 0.017666901 0.010049582
0.015300618 0.03179764 0.0085434318
0.032481566 0.01524527 0.0053507686
0.031966649 0.0195427 0.005397737
0.030659793 0.022963474 0.0044171214
0.021155184 0.03100154 0.0045496821
0.01796346 0.031783726 0.0036834478
0.032480706 0.021196172 0.00058358908
0.03040348 0.024889644 0.0010266304
0.026956003 0.028614447 0.0010347366
0.022171726 0.030631194 -0.00086611509
0.030577321 0.0098201819 0.0074899793
0.031808104 0.013242323 0.0037232637
0.013812952 0.030862115 0.0026483536
0.010467397 0.030912885 0.001075983
0.033145234 0.017959254 -0.00028312206
0.031209711 0.010048599 0.0014260411
