# .PCD v0.7 - Point Cloud Data file format
VERSION 0.7
FIELDS x y z
SIZE 4 4 4
TYPE F F F
COUNT 1 1 1
WIDTH 400
HEIGHT 1
VIEWPOINT 0 0 0 1 0 0 0
POINTS 400
DATA ascii
-0.018710054 -0.029602373 0.18396714
-0.015818678 -0.032130949 0.18365064
-0.034379762 -0.017847683 0.18016884
-0.032440405 -0.020339837 0.18119377
-0.028941892 -0.023333265 0.18078151
-0.024671225 -0.026979653 0.18079236
-0.021757293 -0.031402864 0.18164119
-0.018235909 -0.034370188 0.18120766
-0.014890405 -0.03537932 0.18094561
-0.032931242 -0.020610593 0.17791858
-0.029475959 -0.023658572 0.17754918
-0.025078539 -0.029195137 0.17632595
-0.02297933 -0.032304861 0.1762701
-0.019662783 -0.034792464 0.1763351
-0.0098540578 -0.028514918 0.18480769
-0.031010401 -0.012408773 0.18357021
-0.027782734 -0.01606996 0.18424153
-0.024625661 -0.01889745 0.18392378
-0.020865582 -0.023008611 0.18317056
-0.016676595 -0.026197709 0.18394068
-0.013809288 -0.030193202 0.18423572
-0.010076311 -0.032956891 0.18310577
-0.034659185 -0.011490685 0.18037295
-0.033789121 -0.014850783 0.18115607
-0.030344818 -0.018323239 0.18297985
-0.027040653 -0.021539574 0.18275291
-0.024206264 -0.024131618 0.18248913
-0.012233664 -0.034851786 0.17906675
-0.035981692 -0.01259676 0.17691335
-0.035137951 -0.016093478 0.17585707
-0.032898046 -0.020375988 0.17507666
-0.029577738 -0.023580985 0.17483845
-0.026784742 -0.026745716 0.17548636
-0.018043693 -0.035230767 0.17392647
-0.013061244 -0.035151549 0.17372528
-0.034887251 -0.016974274 0.17124313
-0.03306045 -0.02021982 0.17052567
-0.030127019 -0.023858793 0.17066175
-0.02646766 -0.027837962 0.17059165
-0.022843251 -0.031844474 0.17054898
-0.018964175 -0.034477357 0.16979373
-0.015017763 -0.034946315 0.16991192
-0.032909155 -0.021266568 0.16662633
-0.030728828 -0.024429172 0.16593429
-0.027458694 -0.027875902 0.1657798
-0.023827463 -0.031434812 0.16535959
-0.01969425 -0.033921685 0.16624844
-0.030571532 -0.02597799 0.16262329
-0.029248757 -0.027953956 0.16283524
-0.026343806 -0.0304983 0.16251376
-0.025588017 -0.0079448558 0.18375751
-0.022959527 -0.010824878 0.18370694
-0.019697744 -0.01415806 0.18354636
-0.016167328 -0.017799493 0.18384174
-0.012544894 -0.021332489 0.18404973
-0.0093425829 -0.025391649 0.18439195
-0.028798897 -0.010183307 0.18434489
-0.027045745 -0.012850456 0.18461621
-0.020954901 -0.017650431 0.18373603
-0.018924119 -0.020006081 0.18375081
-0.016882671 -0.022345845 0.18375412
-0.035174295 -0.013644732 0.17240322
-0.01082211 -0.035274576 0.17168877
-0.035223305 -0.010693746 0.16979334
-0.035248853 -0.014929327 0.16870809
-0.012453594 -0.034953352 0.16704053
-0.035108361 -0.016318545 0.16432965
-0.033821151 -0.019840974 0.16461509
-0.032034662 -0.02313927 0.16394582
-0.021483742 -0.032232165 0.16271463
-0.017913736 -0.033385891 0.1627751
-0.013781559 -0.034462422 0.16266596
-0.035310764 -0.016597038 0.16023684
-0.033164568 -0.019832056 0.1595898
-0.030777326 -0.023502586 0.15955761
-0.027495293 -0.027386814 0.15934181
-0.02311472 -0.030362885 0.15900567
-0.018690726 -0.032176223 0.15884548
-0.030332861 -0.023070227 0.15566766
-0.019962486 -0.0077553866 0.18362957
-0.016661314 -0.011631442 0.18339512
-0.01333894 -0.014427067 0.18405417
-0.0091698961 -0.017262753 0.1841853
-0.035105862 -0.011555078 0.16278854
-0.011920391 -0.034481943 0.16009593
-0.035640974 -0.013221045 0.15726465
-0.034260593 -0.018288516 0.15736809
-0.020642074 -0.031040248 0.15622169
-0.016874129 -0.032435663 0.15620181
-0.012958569 -0.03440699 0.15574449
-0.035686001 -0.015762735 0.15385455
-0.033419613 -0.019399405 0.15371585
-0.030290559 -0.022832846 0.15274549
-0.026727432 -0.025924433 0.15326798
-0.022630941 -0.029525785 0.15281889
-0.018124811 -0.032709345 0.15197775
-0.01420851 -0.033973012 0.15182331
-0.035133049 -0.016369976 0.14948165
-0.033163767 -0.019255698 0.14903408
-0.030098476 -0.022369122 0.14869779
-0.02687181 -0.025777359 0.14860055
-0.023220714 -0.029568974 0.14822626
-0.019694623 -0.032351002 0.14722615
-0.0098743299 -0.0064365007 0.18322259
-0.0085929465 -0.0096593359 0.18392184
-0.0054801563 -0.013219727 0.18391815
-0.013919076 -0.0078299614 0.18306875
-0.011134862 -0.011091952 0.18382862
-0.0063038599 -0.016231051 0.18366975
-0.035887208 -0.011999194 0.15102845
-0.01235134 -0.034220845 0.14912871
-0.035231911 -0.0132185 0.14622906
-0.033493035 -0.018387791 0.14627284
-0.030120246 -0.022199081 0.1458146
-0.026703633 -0.02541752 0.14553553
-0.023780229 -0.028018838 0.14522755
-0.017630275 -0.033322651 0.14512998
-0.013216454 -0.033478126 0.14448303
-0.034847643 -0.014932923 0.14161408
-0.033192322 -0.018328656 0.1418457
-0.030275393 -0.022107573 0.14207938
-0.027020331 -0.025512004 0.14196816
-0.023606563 -0.028744712 0.14169729
-0.019381519 -0.032265987 0.14114237
-0.015036168 -0.034013242 0.14018753
-0.03261302 -0.018584438 0.13787448
-0.030050846 -0.021605257 0.13794559
-0.027046567 -0.025706535 0.13752788
-0.024284303 -0.029115502 0.13653636
-0.020530842 -0.032473624 0.13633743
-0.01737866 -0.034028359 0.13523462
-0.024236301 -0.030319843 0.13263425
-0.021666048 -0.032923058 0.13219205
-0.019140752 -0.03483554 0.13176727
-0.0089311628 -0.002974394 0.18348566
-0.0051914523 -0.0062399535 0.18376645
-0.010813694 -0.033855814 0.14221975
-0.035363831 -0.011350974 0.13976631
-0.012260966 -0.034175929 0.13798535
-0.035265669 -0.013468982 0.13521323
-0.033319641 -0.017678715 0.13537323
-0.030027591 -0.021384144 0.13497686
-0.027349738 -0.024830334 0.13471189
-0.015415706 -0.034852926 0.13421792
-0.011612029 -0.034152962 0.1323024
-0.034739695 -0.014639212 0.13142091
-0.033407837 -0.018104373 0.13097858
-0.030285941 -0.021335686 0.13031259
-0.02741139 -0.025194535 0.13061783
-0.025197856 -0.028932856 0.13057756
-0.021926267 -0.03303289 0.12951669
-0.016156308 -0.034965038 0.12958273
-0.013324147 -0.035608433 0.12812713
-0.030609239 -0.021421717 0.12668639
-0.027255427 -0.024782106 0.1265077
-0.024272095 -0.02894159 0.12613422
-0.021283291 -0.032163382 0.12516961
-0.017942648 -0.034071367 0.12535101
-0.00063113094 -0.0016576117 0.18357998
-0.034497015 -0.011559707 0.12847897
-0.033451855 -0.016463414 0.12776327
-0.014546049 -0.034499146 0.12632579
-0.033911273 -0.013284007 0.12457436
-0.033044383 -0.016907977 0.1239031
-0.03081432 -0.021445494 0.12391758
-0.027262053 -0.024603438 0.12353778
-0.024303129 -0.027784728 0.1230019
-0.020907879 -0.031652868 0.12256226
-0.016206063 -0.034458242 0.1226894
-0.011972068 -0.03508582 0.12138659
-0.033170246 -0.01745747 0.11907113
-0.031433646 -0.021783831 0.11957639
-0.027333638 -0.02436908 0.11862689
-0.024024326 -0.027530542 0.11861944
-0.020501435 -0.031027555 0.11841744
-0.016948894 -0.033470877 0.1180976
-0.031599149 -0.021662496 0.11524051
0.0033458858 0.0023053319 0.18394718
-0.033871468 -0.013019003 0.12152275
-0.033993769 -0.014320762 0.11670429
-0.021761479 -0.027618611 0.11526448
-0.019820103 -0.030197671 0.11546892
-0.01485605 -0.033504762 0.11505067
-0.01101746 -0.035005383 0.11566436
-0.03337305 -0.016183972 0.11250091
-0.031236805 -0.021088168 0.1121316
-0.027233319 -0.023885664 0.11249983
-0.023363259 -0.026757859 0.11180639
-0.020067612 -0.030236593 0.11171973
-0.016133912 -0.032784756 0.1110788
-0.011554204 -0.034761563 0.1112799
-0.031060381 -0.021404941 0.10814387
-0.02751058 -0.023867017 0.10774708
-0.023770109 -0.026438421 0.10716879
-0.019456374 -0.029932147 0.10683078
-0.017339312 -0.031798352 0.10708612
0.0034236622 0.0091521153 0.18497699
0.007083761 0.0060142986 0.18455845
-0.034166958 -0.012529553 0.11071396
-0.014241418 -0.033307731 0.10810518
-0.033322733 -0.014732846 0.10718447
-0.031697281 -0.019600321 0.10563642
-0.027554579 -0.023723552 0.10475117
-0.023584802 -0.027129741 0.10475385
-0.020600708 -0.02993446 0.10480243
-0.016187429 -0.032825395 0.10532492
-0.011033445 -0.034523591 0.10498768
-0.033184085 -0.016191702 0.10241145
-0.031743407 -0.020907022 0.10170949
-0.028443243 -0.024420453 0.10164243
-0.024742272 -0.027502455 0.10113722
-0.020626683 -0.030462379 0.10058987
-0.016256172 -0.032949939 0.10090297
-0.012469615 -0.033499029 0.10131931
-0.03301955 -0.017410077 0.098684192
-0.032107659 -0.02058981 0.097130299
-0.028728517 -0.023947706 0.096809626
-0.024982214 -0.027518176 0.097319722
-0.021111708 -0.029890278 0.09685725
-0.017658785 -0.03233825 0.096997678
-0.031010313 -0.021941636 0.093887508
-0.029728914 -0.022926658 0.093669951
-0.032828756 -0.010594717 0.10311836
-0.032968551 -0.011380889 0.099216402
-0.033055045 -0.013356641 0.095337927
-0.032421261 -0.017663354 0.094499648
-0.026583305 -0.024404181 0.094651401
-0.023144729 -0.02545674 0.093263328
-0.019588958 -0.028744457 0.092941582
-0.015149289 -0.031965576 0.093422294
-0.010997161 -0.033182263 0.093056619
-0.032942247 -0.014494535 0.091184378
-0.031428549 -0.018687086 0.090465963
-0.027393226 -0.022933733 0.090112627
-0.023456495 -0.025545623 0.089482248
-0.019747632 -0.028685674 0.088999391
-0.016144317 -0.031940099 0.088633895
-0.012836244 -0.033286151 0.089466691
-0.030989943 -0.020255143 0.086006224
-0.027883999 -0.023168053 0.085314751
-0.02469747 -0.025437975 0.086114168
-0.020381982 -0.02912177 0.085565448
-0.018416144 -0.031694017 0.084769785
-0.033536933 -0.011327371 0.092582822
-0.033140175 -0.011824777 0.087674558
-0.032243401 -0.015841937 0.087463856
-0.011254658 -0.03416945 0.08676976
-0.033471934 -0.013548942 0.08334887
-0.032349251 -0.017367588 0.083991885
-0.02942414 -0.021936767 0.082964242
-0.024045553 -0.026107678 0.083501101
-0.020763256 -0.029350527 0.082878888
-0.016597215 -0.032742754 0.082983315
-0.012589225 -0.034681421 0.08224684
-0.031879202 -0.017983887 0.078938663
-0.028904496 -0.022303417 0.078812182
-0.024620738 -0.026047951 0.078309834
-0.021288408 -0.029615546 0.078262031
-0.017795714 -0.032734312 0.078141034
-0.013866777 -0.034484088 0.07790029
-0.033316873 -0.011261589 0.077356458
-0.032643758 -0.016264452 0.076447845
-0.015272632 -0.032648843 0.074361503
-0.011661156 -0.034307487 0.075188875
-0.033589032 -0.012296068 0.072866976
-0.031584539 -0.01645199 0.07219559
-0.028846489 -0.020711206 0.072858751
-0.025087871 -0.02454805 0.072854102
-0.020699047 -0.028032236 0.071860254
-0.01643689 -0.031350475 0.071290016
-0.011916268 -0.033790305 0.070983768
-0.033719435 -0.013715742 0.068912923
-0.031994715 -0.016861403 0.067784786
-0.02915949 -0.020710934 0.067925334
-0.025965894 -0.024478234 0.068069875
-0.021650625 -0.028241379 0.067556679
-0.017010555 -0.031675886 0.066677392
-0.013531591 -0.033646498 0.067065418
-0.03191511 -0.018593334 0.064296424
-0.02962645 -0.020943698 0.064214051
-0.026635459 -0.024874058 0.063538551
-0.02317813 -0.028595142 0.062934041
-0.019212674 -0.031325612 0.062641442
-0.034247793 -0.01042533 0.07021296
-0.034036797 -0.011463924 0.065841436
-0.03367335 -0.015804769 0.06589061
-0.012558366 -0.034123909 0.064868927
-0.033569735 -0.013096433 0.062313139
-0.032147191 -0.016789511 0.061808884
-0.02971261 -0.020831743 0.061109781
-0.02659147 -0.024635326 0.060290277
-0.022181539 -0.02951722 0.060324609
-0.018562894 -0.031970084 0.06074959
-0.014425254 -0.032958344 0.060078919
-0.029812679 -0.02073513 0.058013499
-0.026386462 -0.024289811 0.057911694
-0.022810493 -0.027682528 0.057632744
-0.019008568 -0.03083986 0.057091296
-0.032011889 -0.014395833 0.058641613
-0.012243351 -0.032306209 0.056987822
-0.033601351 -0.010532378 0.054972172
-0.031821959 -0.015548228 0.05534333
-0.028975017 -0.019623669 0.0537889
-0.025300814 -0.022939708 0.053409278
-0.021764936 -0.026403435 0.05319339
-0.018043777 -0.029673116 0.052760184
-0.012745495 -0.031796984 0.053292632
-0.033600569 -0.012366464 0.051534116
-0.031950023 -0.015646495 0.050515354
-0.029014859 -0.01939054 0.049507082
-0.025530286 -0.022926282 0.049362481
-0.022241371 -0.026663894 0.049447119
-0.01824292 -0.029657986 0.048694193
-0.014008692 -0.030961238 0.049312294
-0.031386845 -0.016867667 0.046396196
-0.029263172 -0.020172214 0.045546591
-0.026330434 -0.023456289 0.044896901
-0.022981303 -0.027140826 0.044918358
-0.019367691 -0.030544717 0.044623256
-0.02367535 -0.028062098 0.040806472
-0.021746369 -0.030346377 0.040700912
-0.032793913 -0.013638675 0.047557414
-0.01211841 -0.031295966 0.046264231
-0.032943122 -0.011096874 0.043077409
-0.032391001 -0.015033726 0.043615043
-0.030472873 -0.01890064 0.043467879
-0.013883856 -0.032036066 0.042126954
-0.032167573 -0.015252096 0.038793445
-0.030036779 -0.019730302 0.038739264
-0.026955321 -0.023732586 0.03910768
-0.024191931 -0.027358469 0.037875056
-0.019528853 -0.031042056 0.038377047
-0.01551443 -0.032200612 0.036871493
-0.030157086 -0.020015616 0.033884585
-0.027059147 -0.023041738 0.033692777
-0.023609135 -0.02713255 0.033676565
-0.020406913 -0.030535562 0.033847511
-0.016855629 -0.032172032 0.033436596
-0.03329378 -0.010263803 0.037527978
-0.032212324 -0.014617373 0.035774767
-0.012140756 -0.032374665 0.035965204
-0.034078613 -0.011497302 0.032312751
-0.033079248 -0.014972792 0.033062994
-0.031153094 -0.018059924 0.032108545
-0.025582667 -0.024310771 0.032226264
-0.018233009 -0.031090859 0.03154403
-0.014496261 -0.032900147 0.031683862
-0.010493546 -0.033452384 0.030772269
-0.033230066 -0.015482664 0.028259099
-0.030690147 -0.019735435 0.028508127
-0.027040092 -0.023165822 0.028205276
-0.023445999 -0.026654549 0.027971208
-0.019834589 -0.030124176 0.027715147
-0.015785281 -0.032859012 0.02703172
-0.011364563 -0.033516016 0.026533902
-0.029031551 -0.020123726 0.023406923
-0.023264006 -0.027430898 0.024021685
-0.020452501 -0.030009164 0.022891402
-0.017053826 -0.031835254 0.022676766
-0.033382073 -0.013852235 0.024656415
-0.012991575 -0.032577347 0.02271229
-0.033447355 -0.010163501 0.022568107
-0.032865524 -0.014301178 0.021359384
-0.030099941 -0.018340357 0.020617008
-0.026149336 -0.021830635 0.020699322
-0.023182772 -0.025621001 0.020151317
-0.019669078 -0.030126497 0.019560218
-0.015270889 -0.03230026 0.019671738
-0.010473909 -0.032411948 0.021042109
-0.032258637 -0.014655944 0.01794076
-0.029539259 -0.017772177 0.015875161
-0.025731379 -0.021232011 0.017657161
-0.022845658 -0.02656031 0.015700459
-0.020103369 -0.029771863 0.01584518
-0.016455002 -0.031658411 0.0149979
-0.022983935 -0.02768155 0.012108803
-0.020842919 -0.029154118 0.012699246
-0.032446198 -0.013431066 0.014810026
-0.029463829 -0.017546173 0.01352191
-0.02554691 -0.020832997 0.014052331
-0.023207182 -0.023268146 0.01399678
-0.013525401 -0.03208036 0.013568163
-0.032001033 -0.015020686 0.0092876554
-0.029959235 -0.017795417 0.0096250772
-0.026575629 -0.021597797 0.0097129345
-0.023772636 -0.02528503 0.0097942352
-0.019724155 -0.029401455 0.0093315244
-0.015150495 -0.03164313 0.0083544254
-0.032550924 -0.015321486 0.0054409504
-0.030890856 -0.018446073 0.0051419139
-0.027446538 -0.022164093 0.0046738982
-0.024062676 -0.025932252 0.0041179061
-0.020447945 -0.029490508 0.003914535
-0.016548451 -0.031208649 0.003888309
-0.032208264 -0.010518776 0.0111323
-0.031647559 -0.010925305 0.0077306032
-0.032085747 -0.011861864 0.0030744672
-0.013808174 -0.031208623 0.0017536879
-0.010144571 -0.031569183 0.00070756674
-0.032715999 -0.010288114 0.00033301115
