# .PCD v0.7 - Point Cloud Data file format
VERSION 0.7
FIELDS x y z
SIZE 4 4 4
TYPE F F F
COUNT 1 1 1
WIDTH 450
HEIGHT 1
VIEWPOINT 0 0 0 1 0 0 0
POINTS 450
DATA ascii
-0.015760608 0.031415269 0.18118235
-0.018963905 0.030577041 0.18136081
-0.022419281 0.028615016 0.18171233
-0.025746536 0.02710145 0.18126699
-0.016307868 0.032970045 0.17880249
-0.019653544 0.032464191 0.1792534
-0.023616903 0.031765863 0.17971814
-0.027295606 0.029220998 0.17864493
-0.020009711 0.033743713 0.17483425
-0.024193376 0.033247933 0.17514551
-0.027377617 0.031403914 0.17460856
-0.021144882 0.034524985 0.17144984
-0.024129527 0.033819076 0.17077458
-0.027367864 0.032083984 0.17038724
-0.021627625 0.022929486 0.18387768
-0.023169838 0.021515831 0.18326336
-0.0092962114 0.030377971 0.18046221
-0.013464968 0.029239489 0.18182153
-0.017759241 0.027515374 0.1825411
-0.021239385 0.025577322 0.18291658
-0.025098741 0.024151592 0.18245226
-0.0098776342 0.032125305 0.17691085
-0.013277974 0.032609779 0.17781568
-0.028348226 0.026059076 0.17863521
-0.011324788 0.033579458 0.17258498
-0.015061762 0.033885516 0.17372125
-0.028974678 0.02796267 0.17471319
-0.029263094 0.027118176 0.17191511
-0.015173798 0.034634974 0.16883069
-0.019805111 0.034609836 0.16834897
-0.023608673 0.033536855 0.1672281
-0.027759962 0.031435713 0.16722742
-0.029129481 0.028873693 0.16814041
-0.015823886 0.034808144 0.16546664
-0.019962849 0.033799842 0.16348571
-0.023502877 0.032915816 0.16327709
-0.026909418 0.031364597 0.16261068
-0.029208189 0.029333252 0.16484466
0.00023396499 0.028134048 0.18280256
-0.0032245312 0.02689747 0.1832127
-0.0069879745 0.025587723 0.18319041
-0.01101336 0.023964869 0.18288398
-0.015412315 0.021730782 0.18289101
-0.019036345 0.020480167 0.18361947
0.0030366285 0.031528808 0.17968094
-0.00061515067 0.030862324 0.18044719
-0.0045283139 0.030251589 0.18040574
-0.0074987831 0.028343599 0.18141228
-0.010970535 0.026641168 0.18213513
0.0025678016 0.032936685 0.17677224
-0.00091437809 0.032735564 0.17557785
-0.0051668766 0.032263141 0.17560959
-0.0079679955 0.032129563 0.17528385
-0.0019708592 0.033136729 0.17119497
-0.0052396613 0.032968305 0.17065498
-0.0088825077 0.032986142 0.17156199
-0.028823011 0.024319403 0.17025971
-0.0061608762 0.03328355 0.16683322
-0.0097065726 0.033731651 0.16681471
-0.029432151 0.025356222 0.16521299
-0.010437837 0.034092836 0.16358954
-0.014452526 0.033567015 0.16191876
-0.019271903 0.033215415 0.16089255
-0.023131687 0.032282494 0.15996462
-0.027267136 0.030222148 0.15950197
-0.029514179 0.026777992 0.16122243
-0.014821737 0.033066414 0.15841937
-0.01877266 0.033002041 0.15686384
-0.022985358 0.032244287 0.15621108
-0.026491433 0.03036561 0.15571964
-0.028730609 0.027848987 0.15673989
-0.020476669 0.033412267 0.15273076
-0.022989511 0.032632478 0.15187421
-0.025418814 0.031583704 0.15172207
-0.0081064701 0.017966956 0.18276823
-0.012487905 0.016349083 0.18267518
-0.017412279 0.01526994 0.18380269
0.0018256893 0.025902655 0.18334973
-0.0021024207 0.02420502 0.18382367
-0.0056392169 0.022365211 0.18338388
-0.0091569386 0.020480497 0.18290892
-0.012903419 0.01914515 0.18240941
-0.00028113928 0.032853916 0.16874427
-0.0012456672 0.032814667 0.16404319
-0.00457054 0.033189666 0.16452962
-0.0011673048 0.03303 0.16048139
-0.0049232901 0.032651812 0.16040966
-0.0085978564 0.032347057 0.15947577
-0.011859767 0.032770921 0.15929493
-0.0093465336 0.03205337 0.1547856
-0.012859829 0.032531757 0.15543744
-0.016467137 0.032751448 0.15490666
-0.029252676 0.024825754 0.15417665
-0.013231233 0.033016235 0.15077797
-0.017754199 0.032744609 0.1499972
-0.02286599 0.032575421 0.14901057
-0.026672829 0.030274989 0.14987266
-0.028241217 0.027323794 0.14982191
-0.014014764 0.033416711 0.14669168
-0.017911483 0.03252684 0.14496642
-0.022801051 0.032731503 0.14537889
-0.026565593 0.031402554 0.14536932
-0.028372746 0.028851923 0.1439102
-0.022776648 0.033134837 0.1400564
-0.02610356 0.031701162 0.14011958
-0.023606142 0.033679247 0.13693595
-0.025419731 0.03283795 0.136778
-0.00013309019 0.01968178 0.18301356
-0.0038293686 0.017633408 0.18286157
-0.0069304933 0.015087729 0.18327713
-0.011039821 0.013531746 0.18303204
0.0016542375 0.032187715 0.16240421
0.00098828319 0.032456011 0.15728754
-0.0039199172 0.032168761 0.15729862
-0.0005209865 0.032668188 0.15334985
-0.0041574817 0.032308806 0.15326935
-0.0073504373 0.032098193 0.15346774
-0.0050859484 0.032435909 0.14845675
-0.0085456744 0.032798678 0.14916074
-0.011698557 0.0334545 0.14860645
-0.028868828 0.023983285 0.14748389
-0.0094203539 0.033281345 0.14450014
-0.012825377 0.033617061 0.14420608
-0.016616456 0.032835145 0.1424059
-0.029153502 0.025394332 0.14337048
-0.012727777 0.033271223 0.14028633
-0.01781809 0.032981258 0.13877255
-0.027477056 0.030648425 0.13847134
-0.028368872 0.027795374 0.13859195
-0.019114356 0.033398125 0.13549507
-0.0221432 0.033434991 0.13398364
-0.026167532 0.031337667 0.13392738
-0.028242694 0.028087305 0.13386625
-0.02328882 0.032893881 0.12992424
-0.025262997 0.031834602 0.1296393
-0.0012836508 0.010296464 0.18333837
-0.0049960245 0.009473986 0.18408322
-0.0087634819 0.0080083478 0.18394998
-0.0016593582 0.013644094 0.18311039
-0.005766049 0.012233091 0.18382251
-0.0094772642 0.010671689 0.18361256
0.002063429 0.032183345 0.15104324
0.0013186019 0.032274254 0.14619705
-0.0028983057 0.032113034 0.14679918
0.00013585854 0.032015443 0.14253384
-0.0037067998 0.032047786 0.14191473
-0.0068430607 0.032087877 0.14206591
-0.0046343305 0.031645618 0.13782769
-0.008075159 0.031721361 0.13753912
-0.011797441 0.032246623 0.13688701
-0.028678928 0.024076488 0.13658082
-0.012315718 0.031820923 0.13305587
-0.015892508 0.032243535 0.13308841
-0.019262146 0.032390464 0.13095635
-0.026733857 0.029391915 0.13066989
-0.028262533 0.027117271 0.13121939
-0.016393546 0.031741198 0.12802219
-0.020839529 0.032148905 0.12715074
-0.026159253 0.030665064 0.12706289
-0.028243545 0.027780874 0.12655571
-0.020864114 0.03162057 0.12363011
-0.025035802 0.030693825 0.12187815
-0.02822439 0.028305134 0.12258548
0.00059496961 0.0080322241 0.18376514
-0.0031164431 0.006528805 0.18417001
0.001939645 0.032231059 0.13994381
-0.0018778415 0.031929426 0.13920903
0.00077772141 0.031905886 0.13530779
-0.0028105788 0.031544067 0.13511842
-0.0063758828 0.031435039 0.13496187
-0.003759467 0.031461198 0.13109085
-0.0070963996 0.031277493 0.13057795
-0.010682737 0.031656835 0.13057655
-0.0078480169 0.031745881 0.12635422
-0.011361355 0.031385146 0.12607929
-0.014434422 0.031711489 0.12622637
-0.011637224 0.031758226 0.12183169
-0.015585251 0.0313976 0.12149224
-0.019960541 0.031433668 0.12082544
-0.02476256 0.030791689 0.11974353
-0.027912065 0.028330103 0.11995381
-0.019748321 0.031711023 0.1168856
-0.024646968 0.031275325 0.11641544
-0.027778668 0.027667405 0.11616939
-0.021314319 0.031867135 0.11285836
-0.024741111 0.03145504 0.1110841
-0.0013898083 0.0016794747 0.18406415
0.0023751203 0.031398416 0.12826744
-0.0019591777 0.03100636 0.12832874
0.00070474017 0.030998943 0.12438068
-0.0024158955 0.031000994 0.1235494
-0.0063999337 0.031684428 0.12417376
-0.0032975916 0.031612977 0.11951613
-0.0070459587 0.032269381 0.11979043
-0.010888623 0.031822778 0.11906451
-0.02836889 0.023318186 0.11964089
-0.007663962 0.032173824 0.11445361
-0.011013338 0.031676725 0.11461622
-0.015347369 0.031368949 0.11560243
-0.027955428 0.026476929 0.11332685
-0.011901177 0.031846199 0.11045998
-0.015217275 0.031587292 0.10990232
-0.01934992 0.03182954 0.1110124
-0.027298767 0.027741048 0.10971224
-0.016313829 0.032210365 0.10616547
-0.019753698 0.031803135 0.10577351
-0.023737879 0.031256825 0.10526854
-0.026520114 0.028715719 0.10458726
-0.020788196 0.031532459 0.10168779
-0.023453314 0.030824915 0.10189009
-0.026477151 0.02922833 0.10146457
0.00073808909 -0.0034281232 0.18393007
0.00040981546 0.030888781 0.12114748
-0.00088834763 0.031187961 0.11696637
-0.0017365376 0.031027963 0.1125803
-0.0053917114 0.031733312 0.1125766
-0.0067646462 0.031625047 0.10815066
-0.010209886 0.031601362 0.10781711
-0.0075021633 0.031473123 0.10365295
-0.010731741 0.031690564 0.10304672
-0.014672026 0.032050207 0.10359186
-0.017933525 0.03165476 0.10291398
-0.027724752 0.026632695 0.10362434
-0.028338976 0.024558662 0.10210592
-0.011893149 0.031724717 0.0992226
-0.015323858 0.031882018 0.099870563
-0.01890173 0.030788986 0.098542929
-0.023055371 0.030133111 0.098245919
-0.026956465 0.028295644 0.098302364
-0.029025629 0.025699906 0.09782362
-0.020202339 0.030669423 0.094875395
-0.023192814 0.030386515 0.093799531
-0.02669006 0.028984638 0.093676031
-0.028885225 0.026638424 0.093117416
-0.023081953 0.030891526 0.089969873
-0.02558489 0.029766191 0.089779556
0.0061596399 -0.0057706088 0.18474558
0.0022499289 -0.0076783937 0.18493542
0.00014564581 0.031166341 0.11103761
-0.00042614248 0.031045351 0.10677797
-0.0052183112 0.031157365 0.10568881
-0.0018426534 0.030967973 0.102386
-0.005750448 0.031506915 0.10168982
-0.009133202 0.032105181 0.10070032
-0.0056729508 0.031354096 0.097081363
-0.010241792 0.031589311 0.096640348
-0.014370107 0.031490441 0.096594691
-0.017241322 0.030584058 0.095903099
-0.010389067 0.031444743 0.092588007
-0.014532099 0.031596206 0.091962397
-0.018581547 0.031000357 0.092431843
-0.021594498 0.030751327 0.091391385
-0.027834937 0.027894937 0.090874374
-0.02933757 0.025147274 0.0905146
-0.015519238 0.031956978 0.087909281
-0.018849853 0.031658765 0.087336361
-0.023133192 0.03118684 0.087992907
-0.026933782 0.029156974 0.087431848
-0.029232893 0.026531911 0.086159527
-0.020204496 0.03164544 0.083737195
-0.023314279 0.031516068 0.083150923
-0.026843853 0.029767618 0.082743943
-0.029416217 0.027539503 0.082398355
0.00095322821 0.030171573 0.099562883
0.00071454234 0.030234843 0.09484458
-0.0029273275 0.030113287 0.094448328
-0.0052631241 0.030070703 0.090193689
-0.0082592899 0.029946469 0.089365363
-0.0063198498 0.030399494 0.086485803
-0.0094255265 0.030177753 0.085801601
-0.013744056 0.031201193 0.085395396
-0.029337417 0.024630507 0.084582567
-0.010645456 0.03040134 0.081758916
-0.013688717 0.030551957 0.081138074
-0.017757064 0.030289304 0.080618978
-0.022311363 0.029887909 0.078861892
-0.02633955 0.028766401 0.079147816
-0.029965771 0.02656135 0.080392599
-0.018322881 0.029398976 0.0772053
-0.021723814 0.029230457 0.075514913
-0.026085176 0.028389167 0.075715661
-0.028809959 0.026193753 0.076087296
-0.02269233 0.030381478 0.071600735
-0.026049113 0.029102255 0.071509123
-0.028514771 0.027239241 0.072442591
-0.023871711 0.030950552 0.068112135
0.0018945448 0.03008762 0.091801465
0.0012897495 0.03014623 0.088010073
-0.0022633653 0.029892389 0.088459849
0.00028921384 0.03055647 0.083949804
-0.0031647133 0.03039691 0.083512604
-0.0072806668 0.030325893 0.083190501
-0.0044407533 0.03031816 0.078775227
-0.0080411173 0.030375548 0.078731179
-0.012703449 0.03025556 0.078224897
-0.0093993414 0.029887827 0.074857891
-0.013378946 0.030417599 0.074516356
-0.017363699 0.029648911 0.074515939
-0.013866054 0.030839218 0.06960398
-0.017959986 0.03096655 0.070326209
-0.020692535 0.03035716 0.06964004
-0.027326144 0.028281869 0.068909705
-0.028386414 0.027147412 0.069272459
-0.018300168 0.0314513 0.065958619
-0.022144403 0.031071452 0.065369129
-0.026024969 0.029067799 0.065100968
-0.028101698 0.02675477 0.064754248
-0.023331655 0.0301635 0.061106265
-0.025133461 0.029055234 0.060704887
0.0020096023 0.030050505 0.081653118
0.0021344302 0.029815597 0.077095926
-0.0023632003 0.029886648 0.077161014
0.0015618363 0.030421786 0.07314527
-0.0023650983 0.029628169 0.072793126
-0.0064858696 0.029341314 0.072259665
-0.0098348856 0.029432138 0.071543097
-0.0068687778 0.029423147 0.068121612
-0.011056765 0.029910896 0.066818178
-0.012072278 0.029763214 0.063311875
-0.016399026 0.030114129 0.061710775
-0.027630169 0.025845211 0.060723364
-0.016279398 0.029390937 0.058144987
-0.020675894 0.029409867 0.058204949
-0.025575269 0.027529567 0.057947695
-0.027147705 0.024911087 0.056645095
-0.020736881 0.028985677 0.053795338
-0.024325334 0.027464122 0.054900348
-0.021460865 0.030158136 0.050154507
0.0026658541 0.029851187 0.069544256
-0.0014695078 0.02960109 0.070104003
0.0022302177 0.029437266 0.066235781
-0.0019975891 0.029469669 0.066042483
-0.0058385781 0.029586205 0.065297306
-0.0028717793 0.028402394 0.061260879
-0.0067280773 0.02903262 0.061656296
-0.0098885437 0.029366836 0.060892522
-0.011096742 0.029186621 0.056585431
-0.01447059 0.029813571 0.056556284
-0.011856993 0.028808398 0.052041709
-0.015684042 0.029629411 0.052238405
-0.019830035 0.02972595 0.051827371
-0.025014583 0.026975073 0.052020848
-0.026924049 0.024742331 0.051237106
-0.016656211 0.029793153 0.047194242
-0.019906797 0.030274132 0.047661901
-0.024134057 0.028693132 0.047838211
-0.026789747 0.02634766 0.045967102
-0.020773958 0.030298827 0.043093622
-0.02413287 0.029423017 0.042280912
-0.02688184 0.027680824 0.041766763
-0.0009822119 0.028483277 0.059486806
-0.0047463509 0.028292608 0.058305323
0.0026177568 0.029464852 0.05489862
-0.0013105189 0.028998103 0.055051982
-0.0059732925 0.028614487 0.054724693
-0.0086459368 0.028290972 0.053664148
-0.0021192925 0.029550206 0.050581098
-0.0055213519 0.029001921 0.049888909
-0.010137893 0.028587962 0.04954356
-0.013111643 0.028422141 0.04897362
-0.0061359047 0.029473223 0.046057999
-0.010032853 0.029207909 0.045264065
-0.014498088 0.029079976 0.044788003
-0.017951705 0.029488854 0.044208884
-0.011298354 0.02968563 0.04147172
-0.01476275 0.029476447 0.04068172
-0.018947365 0.029808154 0.039930761
-0.022395944 0.029578703 0.039478481
-0.027712211 0.024686111 0.039939642
-0.01548111 0.029667348 0.037229061
-0.019360904 0.029940898 0.035621345
-0.023701331 0.029355686 0.035497308
-0.027130315 0.026483975 0.035065114
-0.020000067 0.029881136 0.032608092
-0.023795214 0.029234072 0.030334175
-0.02697739 0.027197635 0.030801833
0.0027255872 0.029009171 0.047892511
-0.00050818827 0.029308982 0.04795295
-0.0011506947 0.029418992 0.043049753
-0.0053716754 0.029603861 0.043082476
-0.005593372 0.029330321 0.038439453
-0.0096407263 0.02965435 0.038777649
-0.013122852 0.029429693 0.038331449
-0.0102086 0.029453801 0.034406066
-0.014090237 0.029016988 0.033434093
-0.015363691 0.028171593 0.02943778
-0.019078985 0.029037734 0.028956532
-0.021903317 0.02924414 0.028417051
-0.02788534 0.02630998 0.028443217
-0.020060925 0.028820287 0.024180293
-0.023176182 0.028926875 0.024289548
-0.026810186 0.027028555 0.024375975
-0.0004427759 0.029300354 0.037604272
-0.0050278492 0.028840922 0.035075247
-0.00070952903 0.02940044 0.032613873
-0.0049684532 0.029451419 0.032877743
-0.0095220478 0.028835587 0.031263709
-0.0050284336 0.029528214 0.028239548
-0.0092687802 0.029013656 0.027869165
-0.013398658 0.028079016 0.027397215
-0.016567424 0.027536012 0.027122736
-0.0090602431 0.028473884 0.023274064
-0.014059223 0.028054249 0.023171961
-0.017728502 0.028239863 0.022826314
-0.018309364 0.028803643 0.018184304
-0.022765003 0.028367687 0.018255472
-0.025748003 0.024939531 0.017124951
-0.019993942 0.029501395 0.014043391
-0.022466853 0.028549908 0.013544619
-0.024795085 0.026062975 0.013537645
0.00069315359 0.028852908 0.028886497
-0.00016866997 0.028865328 0.025507927
-0.0044909073 0.028662855 0.024031579
-0.0045901062 0.028466485 0.020863891
-0.0088880323 0.027787507 0.020415366
-0.012193769 0.027576908 0.019925416
-0.0067525944 0.027265612 0.017023265
-0.013609033 0.02758117 0.016099811
-0.016356356 0.028096747 0.014666617
-0.026604485 0.022728983 0.014248431
-0.013791538 0.027728043 0.012327731
-0.017584883 0.028261086 0.010918438
-0.023040064 0.027752796 0.010197699
-0.025745925 0.024773834 0.010472119
-0.019180119 0.028054265 0.0069336295
-0.022101149 0.02763246 0.0064810514
-0.025162416 0.025627801 0.0056413412
0.00087614544 0.028053377 0.019187212
-0.0023660557 0.027907252 0.01827389
-0.00024687964 0.028004717 0.01382637
-0.0037054815 0.027758557 0.01425451
-0.0080039902 0.026815288 0.013776779
-0.011095958 0.026730062 0.013691366
-0.0044666003 0.027565174 0.00924927
-0.0080952067 0.026937373 0.0090972185
-0.012081981 0.027003199 0.0092169642
-0.01273067 0.027292252 0.0041642785
-0.016714219 0.027280446 0.0045752525
-0.026355486 0.022805469 0.0044359565
-0.017587442 0.027477324 -0.00045770407
-0.021575343 0.026818704 2.9325485e-05
-0.025077473 0.024399955 -0.00078469515
0.0023034094 0.027403213 0.012551963
0.0015047733 0.026589096 0.0073885322
-0.002217493 0.027386377 0.007555902
-0.0076341089 0.02666999 0.0058643818
-0.0032615843 0.026581405 0.0027603507
-0.0072261477 0.026524819 0.0027543902
0.001807509 0.026754363 0.0010173321
-0.0017938707 0.027086826 0.00051760674
