# .PCD v0.7 - Point Cloud Data file format
VERSION 0.7
FIELDS x y z
SIZE 4 4 4
TYPE F F F
COUNT 1 1 1
WIDTH 415
HEIGHT 1
VIEWPOINT 0 0 0 1 0 0 0
POINTS 415
DATA ascii
0.017871119 0.037221909 0.17969823
0.012841161 0.037442446 0.18008715
0.0086061256 0.037196517 0.18021247
0.0039941524 0.036848724 0.18019316
-0.0021482273 0.036881328 0.18002826
-0.0068035549 0.036740243 0.18110782
-0.011408052 0.037239671 0.18123597
-0.016006086 0.037905157 0.18146724
0.012302667 0.038415253 0.17781246
0.0085067898 0.039021015 0.17735374
0.0043630698 0.038412988 0.17679882
-0.0015187502 0.038602769 0.17616355
-0.0066114808 0.039937735 0.17681015
-0.011218105 0.040835023 0.17719722
-0.015805233 0.04094243 0.17708102
-0.021154262 0.040216446 0.17640123
-0.0072298604 0.039815307 0.17307681
-0.011257302 0.0413692 0.17261773
-0.015620902 0.041982174 0.17231831
-0.020524763 0.041250467 0.17183092
-0.012420367 0.041603565 0.16856036
-0.017022599 0.041241527 0.16814017
-0.019324955 0.041116595 0.16796663
0.013163005 0.030493917 0.18344077
0.0085172812 0.030809581 0.1834476
0.0038872706 0.030832231 0.18327257
-0.0009890747 0.031072855 0.18292093
-0.0074255234 0.030496299 0.18290326
-0.011554546 0.030288635 0.18320909
-0.016178599 0.030541835 0.18317759
0.013379169 0.034608603 0.18171886
0.0085563874 0.03413403 0.18190336
0.0039427085 0.033814251 0.18169576
-0.00066488911 0.034495413 0.18130159
0.018834069 0.037338436 0.176177
0.013953041 0.038030982 0.17581651
0.0096157752 0.038891017 0.17498058
0.0034698437 0.038820148 0.1746873
0.00034050498 0.038003445 0.17585596
0.018892959 0.037728429 0.17112106
0.01368802 0.038131475 0.17100576
0.0090450421 0.03848052 0.17104492
0.0044108988 0.038754463 0.17103663
-0.00097453746 0.03859657 0.17071861
-0.0061406768 0.039483666 0.17056298
-0.010171209 0.040554464 0.16979292
0.012310427 0.038580358 0.16757923
0.0092568584 0.038796425 0.16668004
0.0044169729 0.038895786 0.16615793
-0.00055157178 0.039285719 0.165856
-0.0058449986 0.039584219 0.16548893
-0.010594275 0.040235877 0.16568026
-0.01521755 0.040658772 0.16577229
-0.021097519 0.040709436 0.16543454
-0.0029246898 0.039690137 0.16218218
-0.011423595 0.039884031 0.16197205
-0.015657138 0.040583134 0.16180432
-0.019870352 0.040846825 0.1609557
0.0086080767 0.023225605 0.18329954
0.0039465427 0.023086369 0.18302223
-0.00071661564 0.023004055 0.18277988
-0.0061612055 0.023225844 0.18269268
-0.011942273 0.023549138 0.18338284
0.013172762 0.027356209 0.1842165
0.0085259387 0.027369201 0.1840339
0.0039028763 0.026737928 0.18345398
-0.0011021146 0.026466966 0.18262765
-0.0050452431 0.026663303 0.18231499
0.019469477 0.036825061 0.16487771
0.014200788 0.037702739 0.16501185
0.0094133466 0.038322985 0.16361627
0.005547334 0.038207531 0.16338629
0.018952992 0.037129104 0.15997195
0.014295183 0.037466466 0.15954617
0.0096162017 0.03784883 0.15961307
0.0049579297 0.03788358 0.15945101
0.00028642491 0.038427174 0.15962601
-0.005334334 0.038024127 0.15896779
-0.01030973 0.037810564 0.15826854
-0.014860075 0.038933337 0.15825284
-0.019791842 0.040390015 0.1582863
0.017566219 0.038132966 0.15640712
0.014458526 0.038040161 0.15622225
0.0097969826 0.037900925 0.15594497
0.0051354491 0.037761688 0.15566766
0.0012508244 0.037645638 0.15543658
-0.0026337947 0.037529647 0.15520549
-0.010776617 0.037469387 0.15437829
-0.01500928 0.038468301 0.15348336
-0.019669231 0.039604843 0.15406081
-0.014886234 0.039359629 0.15036288
-0.018770847 0.039243579 0.15013179
0.0086411387 0.020795703 0.1831761
0.0035616646 0.019863665 0.18330786
-0.00073566084 0.019413769 0.18331197
-0.0058642253 0.019815505 0.18321609
0.015390839 0.037905693 0.15337372
0.0099229962 0.03772372 0.15343529
0.0052685705 0.0376845 0.15282613
0.00035723715 0.037628949 0.15299484
-0.0050919387 0.037373364 0.15297145
-0.0099797174 0.037411809 0.1518558
0.015601948 0.03853935 0.14913282
0.010144059 0.038394809 0.14882082
0.00545135 0.038624942 0.14879328
0.00076437218 0.038861334 0.14877051
-0.0046842392 0.038572192 0.1483604
-0.010138609 0.038510919 0.14810523
-0.014806744 0.038769007 0.14786267
-0.01969089 0.039197326 0.14766115
0.0087669939 0.038325369 0.14496413
0.0056200107 0.038804114 0.1451686
0.00096474617 0.039060652 0.1442216
-0.0037118604 0.038625598 0.14374077
-0.0094359815 0.039029658 0.14348072
-0.014623977 0.039569616 0.1430206
-0.019304048 0.039571345 0.14283925
-0.011373445 0.040319026 0.13989657
-0.012932099 0.039996207 0.13961273
-0.019181043 0.039533257 0.13904977
0.0040033767 0.011580408 0.18331608
-0.0011562958 0.012470722 0.18410057
-0.0054664789 0.012937008 0.18374532
0.0043093418 0.01526469 0.18299946
-0.0007430496 0.01537931 0.18359154
-0.0054485588 0.015638709 0.1835548
0.015968692 0.037190974 0.14258003
0.010676619 0.037348926 0.14224622
0.0057671261 0.038408458 0.1420759
0.0011029117 0.038628399 0.14110196
-0.0035886276 0.038377583 0.14074656
-0.0082887486 0.038513839 0.14065763
0.016115941 0.037752688 0.13792163
0.010718931 0.036983252 0.13749585
0.0057758843 0.037420452 0.13719961
0.0012807719 0.038298845 0.13709205
-0.0034390034 0.038666725 0.13716537
-0.0087150671 0.03909868 0.13708931
-0.014607944 0.039132416 0.13681966
-0.019109409 0.038515031 0.13621593
0.00066544343 0.038147986 0.13316086
-0.0032549908 0.039199769 0.13279337
-0.0085225999 0.039848268 0.1322656
-0.01425783 0.03963244 0.13267338
-0.01874363 0.038987339 0.1313324
0.0039950525 0.0080721378 0.18395597
-0.0004603852 0.0089895129 0.1845068
0.016595785 0.03780961 0.13544494
0.010842171 0.03736192 0.13491037
0.0069027436 0.037400544 0.134785
0.016798828 0.037148118 0.13180763
0.010837835 0.036995113 0.13107157
0.0063142483 0.03688091 0.13057774
0.0018066247 0.037508011 0.13029858
-0.0031153406 0.038398623 0.12937176
-0.013365846 0.039155424 0.12951201
-0.020442054 0.038449109 0.12874186
0.0065068067 0.037106156 0.1264289
0.0020888322 0.037118912 0.12597999
-0.003304224 0.037726343 0.12620431
-0.0076981294 0.038551569 0.1254684
-0.013220314 0.038351417 0.12511516
-0.018743202 0.038489938 0.125002
-0.0091262795 0.038248897 0.1213493
-0.012822744 0.038667619 0.12150857
-0.018070519 0.038704336 0.12069207
-0.00075558224 0.0026792288 0.18421224
0.015953984 0.035706222 0.12820458
0.012790431 0.03559345 0.12800348
0.01698814 0.034981787 0.12387386
0.01135343 0.03652364 0.12475628
0.0066332691 0.036975145 0.12374061
0.0014992864 0.036854148 0.12316903
-0.0024664751 0.036996126 0.12311867
0.016419124 0.036401093 0.11905885
0.011610542 0.037153482 0.1194157
0.006814037 0.03786701 0.11974651
0.0020620474 0.037606657 0.11937851
-0.0024857852 0.036697209 0.11879385
-0.0072104554 0.036599219 0.11830157
-0.012415029 0.037305593 0.11805856
-0.017936107 0.038064241 0.11822414
0.016061794 0.038187981 0.11515301
0.012085248 0.038124919 0.11495668
0.0070406166 0.037867486 0.11490375
0.002240228 0.037386119 0.11534613
-0.0088791577 0.036671937 0.11440772
-0.012035266 0.037415862 0.11385494
-0.017102465 0.038769722 0.1138674
0.015683372 0.040377796 0.11153901
-0.017445005 0.0390172 0.10994709
-0.019828785 0.03853792 0.10950607
-0.0004301329 -0.003192246 0.18424946
-0.0041455436 0.035080731 0.11538261
-0.0073433402 0.035640836 0.11566579
0.016719889 0.038335979 0.1126861
0.011400145 0.037781775 0.11273175
0.0071894662 0.037561059 0.11176109
0.0023861327 0.036870062 0.11205226
-0.0024165954 0.036051989 0.11225063
-0.0069952118 0.036249578 0.11197811
-0.011929262 0.037389398 0.11091548
0.016872127 0.040215313 0.10918331
0.012675285 0.038092673 0.1084398
0.0071157669 0.037603915 0.10843223
0.0025517424 0.037062705 0.10828465
-0.0024294532 0.036239386 0.10707158
-0.0072265859 0.036274374 0.10691774
-0.011786763 0.037306428 0.10694468
-0.016331408 0.037891567 0.10664481
-0.003636138 0.036986291 0.10308176
-0.0084368875 0.036842883 0.1027962
-0.011641297 0.037000239 0.10279328
-0.019639868 0.037213147 0.10265261
0.0043386398 -0.0094137788 0.18580031
-0.00080256455 -0.0090630054 0.18560281
-0.002323532 -0.0060013533 0.18362185
0.010707301 0.03660655 0.1053071
0.0083079012 0.036507726 0.10514438
0.0027054478 0.036367595 0.1048311
-0.0012954803 0.036248088 0.1045931
-0.0060965749 0.036104679 0.10430753
0.012680669 0.036609888 0.10192972
0.0076731895 0.036965132 0.10151309
0.0028399699 0.037518859 0.10174507
-0.0017500571 0.037268519 0.1011405
-0.0065541225 0.037077725 0.10081929
-0.011533878 0.037006497 0.099840224
-0.016373094 0.036788642 0.10048532
0.013084215 0.03597939 0.098006845
0.0078336019 0.037555039 0.098000467
0.002638903 0.03736192 0.097165763
-0.0018045171 0.037555397 0.097643375
-0.0065672207 0.03684634 0.095940709
-0.011388875 0.036882281 0.095789373
-0.016207743 0.036891162 0.09561789
-0.012891105 0.036947131 0.092800379
-0.016603295 0.037395298 0.091673851
-0.019680794 0.037386537 0.091388106
0.014736773 0.034144163 0.095031261
0.0088358158 0.035097539 0.094201267
0.0039754924 0.035559595 0.094369411
-0.0016734184 0.035768747 0.094317973
0.0083770631 0.035005271 0.090560138
0.0033480793 0.035485446 0.090293169
-0.0014960723 0.035334587 0.090000629
-0.0063389349 0.035148025 0.089680791
-0.010981335 0.03569591 0.089675903
-0.01491491 0.036023319 0.088697016
0.0067709615 0.035319507 0.086281061
0.0030214419 0.036127746 0.085421145
-0.001279361 0.036503911 0.084881604
-0.0059346664 0.036184788 0.084717691
-0.010980464 0.036077142 0.084199011
-0.015837137 0.036558688 0.084390342
-0.015708975 0.03743577 0.081044793
-0.019753288 0.037216723 0.080728233
0.014330865 0.032686234 0.088861227
0.011018981 0.034124672 0.088206232
0.014523883 0.033618152 0.083244562
0.010131122 0.034816682 0.08400315
0.0056048878 0.035721421 0.083323181
-0.0076615917 0.03576988 0.082069695
0.014714089 0.034504294 0.079209268
0.010763829 0.034610152 0.079316378
0.0042890836 0.035649359 0.079523265
-0.00069061801 0.036388516 0.078553796
-0.0059027816 0.036665738 0.078783035
-0.01076956 0.036627233 0.078576744
-0.015605538 0.03716445 0.077807546
-0.0016582453 0.035932004 0.074307203
-0.0057335529 0.036121786 0.074308276
-0.011009521 0.036471903 0.073882222
-0.015647616 0.037199318 0.073011994
0.015204796 0.032877564 0.080676079
0.014832583 0.033506393 0.077086568
0.010484421 0.034098744 0.076709092
0.007187658 0.034154475 0.077311099
0.014710908 0.033532977 0.074044943
0.010474809 0.033616006 0.072678745
0.0057650348 0.033507645 0.072679222
0.0012157976 0.034241974 0.071864069
-0.0048076618 0.034744263 0.071223855
-0.010498988 0.035678446 0.070730805
-0.013735115 0.036704779 0.070401728
0.01054546 0.034219801 0.068496764
0.0057941889 0.034313381 0.067424715
0.0010582252 0.035474241 0.067916214
-0.0046626027 0.035381019 0.067637265
-0.010129462 0.035427153 0.066891849
-0.015251062 0.035442889 0.06628114
0.0053259549 0.035592616 0.06405288
0.00082844927 0.035969734 0.063677788
-0.0036661508 0.036382258 0.063331127
-0.0097861765 0.035868943 0.062446296
-0.014792181 0.035385251 0.062345684
-0.018419255 0.034936488 0.062682629
0.011419793 0.034137726 0.065688193
0.0077283555 0.034680307 0.065472245
0.011138604 0.034004688 0.062995732
0.0059674839 0.034580767 0.06079036
0.0016924484 0.035700798 0.060708463
-0.0035470123 0.036517262 0.060351312
-0.0084779216 0.036212444 0.060447633
-0.015031761 0.035369098 0.059711039
0.0048346883 0.034080982 0.056619167
0.001515989 0.034775853 0.057061136
-0.0034172342 0.034575582 0.056725025
-0.0086597791 0.035057366 0.056096435
-0.013256951 0.034986973 0.05566901
0.014699225 0.029597225 0.058572769
0.010939297 0.032031059 0.058825195
0.0080419639 0.032801211 0.058819652
0.016083432 0.031011226 0.054247379
0.011726935 0.032399654 0.055248618
0.006600461 0.033467472 0.054104745
0.0016888034 0.033512831 0.052926242
-0.00326229 0.033364952 0.052631736
-0.0077921478 0.033793807 0.052297413
-0.013139489 0.034074545 0.051815689
-0.017795011 0.033582509 0.052502453
0.015012079 0.032556355 0.051576793
0.011554089 0.033082545 0.050050199
0.0068026232 0.03309077 0.049627841
0.0018644881 0.033552527 0.048783481
-0.0031071559 0.033799767 0.048810065
-0.0080721891 0.033941627 0.048751175
-0.013030014 0.033934116 0.04857105
0.00035303528 0.034530699 0.045334935
-0.0031881176 0.034907579 0.045071006
-0.0078976406 0.03501302 0.044392884
-0.012860036 0.034818113 0.044058979
-0.017625201 0.03456223 0.043945014
0.013533187 0.033069611 0.047750533
0.0077407593 0.032738566 0.047276795
0.016085308 0.032310545 0.04342705
0.012052578 0.03353256 0.043868601
0.0070908898 0.032987177 0.043246269
0.0025592491 0.033975244 0.043602049
-0.0020097636 0.034710467 0.042244256
0.012282603 0.03291887 0.039145052
0.0069807349 0.033098757 0.038262188
0.002299099 0.03388685 0.038542271
-0.0028857414 0.034537375 0.038107514
-0.0076741716 0.034397602 0.038165808
-0.012670438 0.034082532 0.038184524
-0.017652258 0.03359282 0.037605226
0.01238664 0.032850325 0.036970317
0.0090468517 0.032907724 0.036902428
0.0024532201 0.033286452 0.034864962
-0.00089061365 0.033553004 0.034972072
-0.0075503727 0.033196986 0.03444469
-0.012546613 0.032838285 0.033972621
-0.016713828 0.032870829 0.033855855
0.016775984 0.032778502 0.03280282
0.012548205 0.033711016 0.033438861
0.0075296545 0.033903778 0.033428371
0.0025589063 0.034162581 0.032409132
-0.002444546 0.034065306 0.032155335
-0.007445137 0.033863664 0.031814039
-0.012447099 0.033705533 0.031509221
-0.017700613 0.03321594 0.031374097
0.016110096 0.034525752 0.028908908
0.012765885 0.034465015 0.028743029
0.0077467086 0.034462869 0.028569341
0.0027356863 0.03427428 0.028238118
-0.0022608854 0.033525467 0.027433336
-0.0072879558 0.033922672 0.027597725
-0.012269671 0.034270644 0.026650369
-0.017282456 0.033941269 0.026200354
-0.012123979 0.034363747 0.022444069
0.012965635 0.033491671 0.024705827
0.0079322634 0.033454001 0.024502277
0.002944001 0.032116711 0.023194969
-0.0029193638 0.031481802 0.022455215
-0.0071430905 0.032622039 0.023280859
0.013142114 0.033018947 0.021075249
0.0081061693 0.03275162 0.020675838
0.0034937272 0.031701148 0.020161808
-0.0020029629 0.030779839 0.020449817
-0.007361087 0.032275379 0.019959629
-0.012032545 0.033783913 0.01952672
-0.017076001 0.033703864 0.019556463
-0.0085847965 0.032467604 0.016622782
-0.012732334 0.033537984 0.01523751
-0.016933519 0.032915831 0.01455915
0.0023270836 0.030844986 0.017767251
-0.0014818151 0.030539334 0.01791805
-0.0052645793 0.03091687 0.01757139
0.013459274 0.031808794 0.014627516
0.0083934469 0.03169781 0.014360905
0.0033415454 0.03122437 0.013782382
-0.0017308323 0.03134346 0.013714254
-0.0065887449 0.031926274 0.013781965
-0.011400024 0.032508671 0.012764752
-0.016862147 0.032407999 0.011950254
0.013966304 0.032144904 0.0090149045
0.0085980156 0.032081246 0.0097951293
0.0031032069 0.031878173 0.0094347596
-0.0015045954 0.032542169 0.008218348
-0.006585422 0.032797337 0.008271873
-0.011654689 0.032634676 0.0079600215
-0.016519807 0.032239079 0.00772506
-0.0064296043 0.033105969 0.0041678548
-0.0098131588 0.032859027 0.0038383603
0.0086882794 0.0316872 0.0078149438
0.0044586277 0.031444728 0.0074620247
0.013784704 0.031709552 0.0033370256
0.0089264242 0.030713797 0.0025764704
0.0038270925 0.030598819 0.0023056865
-0.001271219 0.031968296 0.0022396445
-0.0063299676 0.032216549 0.0011905432
-0.011456831 0.032011867 0.0019391179
-0.015181544 0.031843901 0.0014480948
0.014201787 0.031546772 -0.00092726946
