# .PCD v0.7 - Point Cloud Data file format
VERSION 0.7
FIELDS x y z
SIZE 4 4 4
TYPE F F F
COUNT 1 1 1
WIDTH 366
HEIGHT 1
VIEWPOINT 0 0 0 1 0 0 0
POINTS 366
DATA ascii
0.01306802 -0.033803046 0.1835241
0.016139269 -0.034241378 0.1836718
0.0074305944 -0.035586655 0.18125871
0.01139617 -0.03637743 0.18069047
0.016004797 -0.037783265 0.1813885
0.012769312 -0.036973417 0.176485
0.016317725 -0.038272142 0.17595837
-0.016286608 -0.030761242 0.18282783
-0.012925804 -0.030417681 0.18377247
-0.0084819533 -0.030577958 0.18420845
-0.0040552206 -0.030640721 0.18383986
0.0011751074 -0.03087765 0.18296441
0.0067560561 -0.030550599 0.18336684
0.011383992 -0.031248808 0.18403757
0.016213294 -0.030994356 0.18435836
-0.016404644 -0.032218277 0.18011206
-0.013260566 -0.033352494 0.18069708
-0.0086162314 -0.033774376 0.18077287
-0.0039936118 -0.033812463 0.1806089
0.0015389007 -0.03459394 0.18015042
0.0063134637 -0.035495281 0.17969537
-0.016522679 -0.033675194 0.17739624
-0.01314237 -0.034752607 0.17591745
-0.0088650882 -0.035313904 0.17539224
-0.0042319316 -0.035467386 0.17530286
0.0009767767 -0.036105633 0.1748704
0.0065382142 -0.036346853 0.17451924
0.010961685 -0.036847055 0.17443213
0.014714662 -0.037726045 0.17385834
-0.0090453438 -0.036358774 0.17150581
-0.0039430615 -0.036672115 0.17028251
-3.4634024e-05 -0.036697388 0.16976029
0.0055562332 -0.036907554 0.16944209
0.010966275 -0.037632644 0.16969311
0.015588865 -0.037782013 0.16960421
0.0066909324 -0.037918568 0.16577506
0.011116073 -0.038137734 0.16561899
0.01563805 -0.038232982 0.16492286
-0.0085435137 -0.024780333 0.18425402
-0.0038990919 -0.024432659 0.18384913
0.00073849224 -0.023762703 0.18324608
0.006657036 -0.023910344 0.18345809
0.011877935 -0.023832738 0.18413135
-0.01392059 -0.027900159 0.18458343
-0.0023421943 -0.027127624 0.18363085
0.00074270368 -0.026731968 0.18325976
0.0046139397 -0.026777565 0.18312913
-0.014439769 -0.03376621 0.17280379
-0.013865411 -0.033911467 0.16889712
-0.0092048123 -0.035362244 0.16851071
-0.0056036618 -0.035893321 0.16801149
0.0016059875 -0.036426485 0.16745615
-0.013217106 -0.034196734 0.163279
-0.0094633847 -0.035085142 0.1633392
-0.0047483277 -0.036582828 0.16413188
-7.2255731e-05 -0.037427783 0.1644986
0.0048950445 -0.037354231 0.1638422
0.010308057 -0.036921501 0.16236997
0.014557701 -0.037831068 0.16233754
-0.0096186511 -0.035699606 0.16004816
-0.0045582652 -0.036444902 0.15987504
-0.00027402863 -0.037474394 0.15992135
0.0048686862 -0.036805391 0.15896598
0.010878351 -0.036096394 0.15875292
0.015192155 -0.036840737 0.15796041
0.015064567 -0.03715837 0.15446603
-0.0086037107 -0.020260453 0.1840328
-0.0035619605 -0.019835055 0.18329075
0.00097586773 -0.019417346 0.18369615
0.0056264251 -0.019786835 0.18404913
-0.015637059 -0.032164276 0.16538021
-0.016397148 -0.032348156 0.1620577
-0.014423158 -0.034111917 0.15812808
-0.0097979642 -0.034753859 0.15664136
-0.0054031909 -0.03569442 0.15690559
-0.00042155199 -0.036665499 0.15660989
0.0057864506 -0.035995901 0.1559186
0.010076724 -0.035624266 0.15596601
-0.013066597 -0.034650564 0.15390384
-0.0097684246 -0.034974158 0.15265372
-0.0052819699 -0.036175966 0.15274704
-0.00079481862 -0.035854936 0.15258819
0.0044245832 -0.035425723 0.15227592
0.0097300187 -0.03548187 0.15151954
0.014982764 -0.036263943 0.1517731
-0.0046781972 -0.036078095 0.14891428
-0.001544157 -0.036262572 0.14891577
0.01173484 -0.036116302 0.14829496
0.01482521 -0.036113918 0.14723372
0.0007482972 -0.012696683 0.18379515
0.0058714394 -0.012587309 0.18397588
-0.00431237 -0.015173376 0.182944
-3.2000244e-05 -0.015659571 0.18379399
0.0070239678 -0.016162813 0.18380833
-0.0165058 -0.032081187 0.15494654
-0.015845455 -0.032521844 0.15054366
-0.01091975 -0.034387529 0.14989638
0.00084010698 -0.03481555 0.14972138
0.0039612819 -0.034499705 0.14938584
-0.014890578 -0.033117115 0.14566287
-0.010312099 -0.034621477 0.14626798
-0.0058121402 -0.035674214 0.14626789
-0.00066966563 -0.035449266 0.14591366
0.0038074031 -0.034576714 0.14568305
0.0090843774 -0.035200477 0.14572862
0.014725938 -0.036129177 0.144429
-0.0144566 -0.034115374 0.14230737
-0.010349309 -0.035375059 0.14135152
-0.005819317 -0.035890639 0.14129221
-0.0011041984 -0.035946488 0.14114732
0.0036061201 -0.035922527 0.14094761
0.0090990849 -0.035892308 0.14071271
0.014594123 -0.036265671 0.14075363
-0.009133473 -0.036178589 0.13782769
-0.0059885643 -0.036084592 0.1376406
-0.00098042376 -0.036242545 0.13679525
0.0033934191 -0.036852181 0.13590735
0.0086978823 -0.037328541 0.13620508
0.014081966 -0.037271976 0.13559437
0.0042943805 -0.038265169 0.13241613
0.0079531744 -0.038270175 0.13196078
0.013002887 -0.037887871 0.13207024
-0.004025707 -0.0096744895 0.18308461
0.00074191205 -0.0081022978 0.18377796
-0.016297299 -0.032876432 0.13942114
-0.012291387 -0.033982933 0.13833538
-0.014686886 -0.033800602 0.13486993
-0.011076417 -0.034745097 0.13476455
-0.0061534289 -0.035288036 0.13423675
-0.0017959159 -0.036456048 0.13440517
-0.010265138 -0.034715712 0.13112828
-0.0055072084 -0.034986675 0.13113445
-0.0012521315 -0.035598099 0.13063198
0.002830755 -0.037061989 0.12997091
0.0078303739 -0.037653029 0.12866455
0.013715982 -0.037562668 0.12919402
0.018417109 -0.035718739 0.1294474
0.0037810896 -0.036557734 0.12612689
0.0081189796 -0.036916256 0.12573397
0.013209786 -0.037413955 0.12445033
0.018009216 -0.036283791 0.12538749
0.000748327 -0.002435565 0.18406707
-0.016183138 -0.032309115 0.12870857
-0.011463955 -0.033426821 0.1277979
-0.0066840127 -0.033865333 0.12792349
-0.0021122508 -0.034538388 0.12732983
0.001447944 -0.03505826 0.12707895
-0.011030428 -0.033343196 0.12393445
-0.0064851362 -0.034022093 0.12303314
-0.0019088741 -0.034492612 0.12294963
0.002628915 -0.035313606 0.12280861
0.0072993338 -0.036575377 0.12292379
0.017122336 -0.036358297 0.12258616
-0.0060338154 -0.035198271 0.11974055
-0.0020622388 -0.035006821 0.11945206
0.0027100239 -0.034973681 0.1192466
0.0078752898 -0.035852849 0.11919516
0.012201373 -0.036694884 0.11817992
0.016171835 -0.036925435 0.11819667
0.016262341 -0.037269294 0.11326361
0.00073779374 0.0039194226 0.18399251
-0.012704149 -0.03253895 0.12142098
-0.0083938241 -0.033643126 0.1206578
-0.012249354 -0.032912195 0.11717021
-0.007202588 -0.034478188 0.11676848
-0.0022063516 -0.034522116 0.11619365
0.0025588349 -0.033797085 0.11548978
0.0070266575 -0.034224987 0.11543423
-0.011191592 -0.033069789 0.11255586
-0.007010797 -0.034470379 0.1117003
-0.0022221338 -0.034170687 0.11130148
0.0021504723 -0.033778787 0.11116642
0.0071679167 -0.03443253 0.11089259
0.011970039 -0.035082579 0.11118412
0.015683435 -0.036698163 0.11157072
0.012582239 -0.035675228 0.10620666
0.015012506 -0.03733182 0.10782307
-0.0050476883 0.0095570683 0.18444204
-0.015079834 -0.031459808 0.11545348
-0.013647649 -0.032513559 0.11175478
-0.0089232493 -0.034291565 0.109438
-0.0041221548 -0.034148157 0.10915238
0.0030795112 -0.033933043 0.10872394
-0.012587816 -0.033246636 0.10704082
-0.0074269101 -0.035088003 0.10701722
-0.002615137 -0.035188735 0.10691088
0.0021503363 -0.035233498 0.1057809
0.0069558397 -0.03522253 0.10559297
0.011105828 -0.035286784 0.10509133
-0.011549607 -0.03392154 0.10177147
-0.0076409429 -0.035480022 0.10238516
-0.002994366 -0.035660446 0.10195041
0.0021506771 -0.036512852 0.10105705
0.0067475997 -0.036275744 0.10046214
0.011560552 -0.036336005 0.10032862
-0.0074355509 -0.035740972 0.098115087
-0.002711067 -0.035962284 0.097410202
0.0013860315 -0.036194265 0.097133934
0.0065887347 -0.036025226 0.096318066
0.011429653 -0.037249863 0.097057283
-0.015692417 -0.030297339 0.10380769
-0.014765054 -0.031084597 0.099107087
-0.013673216 -0.032183468 0.095185876
-0.0094500203 -0.033487082 0.094258606
-0.0032448731 -0.03336966 0.092693269
0.0016319025 -0.034267485 0.093188941
0.0064738356 -0.034176886 0.092941582
0.011320837 -0.034522414 0.093022525
0.014541227 -0.033953965 0.092475295
-0.0076809153 -0.034178078 0.090131223
-0.0033774935 -0.034304917 0.089651048
0.0014668293 -0.034284651 0.089206517
0.0063222088 -0.034355283 0.089080811
0.011177115 -0.034587562 0.089077473
0.015047412 -0.035195887 0.088997245
0.0061869435 -0.03532666 0.085811436
0.011230025 -0.035902143 0.084630728
0.015834443 -0.036117315 0.084052861
0.01246931 -0.037139714 0.08093375
0.015362188 -0.038048565 0.08072418
0.012309268 -0.041514158 0.07828635
-0.015286017 -0.030931711 0.092506111
-0.014881134 -0.031301975 0.087544382
-0.01048116 -0.033351421 0.088268876
-0.0034921262 -0.033867061 0.087063611
-0.01397156 -0.032457709 0.083683372
-0.010147687 -0.034459412 0.083729386
-0.0044370964 -0.035122037 0.084030032
0.0012425333 -0.035192549 0.083876371
0.0060716756 -0.035409033 0.082858264
0.010097131 -0.03604579 0.082193315
-0.0099465232 -0.034692645 0.079351068
-0.0044581909 -0.035653293 0.07855767
0.00080010854 -0.035827219 0.078896105
0.0058871172 -0.035947263 0.078224719
0.010554466 -0.03643018 0.078177512
0.013937358 -0.035944223 0.075905085
-0.016276628 -0.030579746 0.081654131
-0.015406277 -0.030972481 0.077179253
-0.010486666 -0.034402609 0.07660675
-0.0072456747 -0.035030305 0.075960636
0.00089268386 -0.034680307 0.07539326
-0.014645059 -0.032201588 0.07238853
-0.01092938 -0.033606291 0.072359383
-0.0057661515 -0.034696102 0.072587729
-0.00086440891 -0.034736335 0.072442591
-0.014144741 -0.033541739 0.068912923
-0.010708824 -0.034367025 0.067643523
-0.0059749298 -0.035240233 0.067906439
-0.0010593515 -0.035424352 0.067876279
0.0021115243 -0.034811676 0.065224349
-0.0061447546 -0.035616994 0.064101577
-0.0012268052 -0.035629511 0.063935935
0.0028619803 -0.035348058 0.063565791
-0.015690245 -0.03210175 0.065774739
-0.012640066 -0.034880102 0.065806568
-0.014512829 -0.032282054 0.061744332
-0.010839943 -0.034192443 0.062306941
-0.0063297376 -0.034447253 0.060075581
-0.0013629682 -0.035469711 0.060718119
0.0027395245 -0.035402298 0.060518384
-0.001539357 -0.034053087 0.05647999
-0.011353821 -0.032870531 0.058646977
0.0051038302 -0.03284955 0.057353437
0.014979858 -0.031918764 0.056255937
-0.016308405 -0.031269968 0.055022478
-0.01175604 -0.03274858 0.055196047
-0.0065904222 -0.033728957 0.054315329
-0.0016868562 -0.033574402 0.052975893
0.0031045787 -0.033234239 0.053833544
0.0084660016 -0.03312701 0.053557336
0.012979843 -0.032562137 0.053277016
-0.015054524 -0.032736301 0.050677359
-0.011548199 -0.033214271 0.05015707
-0.0068278611 -0.033656836 0.04904294
-0.0018584803 -0.033737063 0.048933566
0.0033569708 -0.033620477 0.049103439
0.0078416206 -0.033350945 0.048726261
0.013255052 -0.033163011 0.048719108
0.016419958 -0.031194985 0.049364209
-0.0069429185 -0.034320056 0.046443164
-0.0020031147 -0.034475803 0.045557797
0.002964478 -0.034712195 0.045368314
0.0079028122 -0.03476727 0.044452846
0.013113502 -0.034483612 0.0443753
-0.013546079 -0.032806456 0.047535956
-0.015851498 -0.031895041 0.043182313
-0.012058031 -0.033424556 0.043780029
-0.0070908684 -0.03416723 0.043166339
-0.0021231789 -0.034468055 0.042714536
0.002839081 -0.034711957 0.042216539
0.0078123435 -0.034615993 0.041964114
0.011954751 -0.034465969 0.041696012
-0.011434093 -0.033243239 0.039384544
-0.0073091928 -0.033464193 0.038364768
-0.0022960659 -0.033965528 0.03860718
0.0026912075 -0.033851624 0.038339376
0.0078613423 -0.033962846 0.037457466
0.012631036 -0.033867836 0.03694874
0.016013417 -0.032056153 0.037447274
-0.01672386 -0.031324267 0.037551165
-0.012786064 -0.032692373 0.037383437
-0.0057882816 -0.033333719 0.035019636
-0.0024559069 -0.03319937 0.034792304
0.002545882 -0.033102214 0.034538448
0.0058766752 -0.032880604 0.034238279
-0.015940934 -0.032731414 0.032735288
-0.012548823 -0.033699453 0.033429086
-0.0077463239 -0.034001112 0.033251226
-0.0025625974 -0.034049332 0.032314181
0.0024359673 -0.033743382 0.031885087
0.0074447952 -0.033863664 0.0318138
0.01244995 -0.033958077 0.031720817
-0.016138941 -0.033979237 0.028447568
-0.012765888 -0.034465015 0.028743029
-0.0077477396 -0.034436762 0.028547287
-0.0027393475 -0.034165561 0.028146505
0.0022643935 -0.033664286 0.027550876
0.0075137839 -0.034121454 0.027298927
0.012276117 -0.034780085 0.027081728
0.017310351 -0.032836914 0.026336133
0.012669072 -0.035338223 0.022540569
-0.012981139 -0.033171058 0.024433792
-0.0079349652 -0.0333848 0.024443448
-0.0029374864 -0.032315969 0.023364246
0.002079647 -0.031532884 0.022527277
0.0063092783 -0.032850862 0.0235039
0.017205536 -0.03241688 0.022763431
-0.013111196 -0.032604635 0.021800697
-0.008119069 -0.032440305 0.020409763
-0.0030357651 -0.032113135 0.021038651
0.0023027398 -0.0317716 0.019701123
0.0072167926 -0.033311486 0.019824982
0.011746854 -0.034470737 0.019676208
0.017079208 -0.032780051 0.019035339
0.0074045286 -0.033615291 0.01548332
0.011534359 -0.03432858 0.015092552
-0.013267748 -0.031496465 0.018696129
-0.0031622369 -0.031090677 0.018005967
0.00019860081 -0.030678689 0.017539144
-0.013474032 -0.031515837 0.014374971
-0.0083866436 -0.03185302 0.014494956
-0.0033362396 -0.031385541 0.013921142
0.001746105 -0.031909943 0.014203012
0.0059432834 -0.032764554 0.013712883
0.013497926 -0.033285081 0.012822688
0.016548067 -0.031742692 0.012254953
-0.012005545 -0.032188416 0.0094559789
-0.008616019 -0.032233596 0.0093817115
-0.0033135638 -0.0322842 0.0087795854
0.0015224069 -0.033195436 0.00878793
0.0066050813 -0.033778489 0.0091257691
0.011669181 -0.03373915 0.0089219213
0.016720198 -0.031921387 0.0071678758
0.0022106729 -0.03373003 0.0048561692
0.0069648772 -0.034329832 0.003762424
0.011712551 -0.034162998 0.0033531785
0.015435055 -0.03287977 0.0029379129
-0.014623791 -0.030664921 0.0082176924
-0.013752919 -0.03087604 0.003508389
-0.0088878572 -0.031637847 0.0033856034
-0.0040099677 -0.031758845 0.0030555725
0.00085216761 -0.032914221 0.0025364757
0.0046645217 -0.033630311 0.002491653
0.01651505 -0.032452881 0.0010609627
-0.015003525 -0.030460179 0.00035017729
