# .PCD v0.7 - Point Cloud Data file format
VERSION 0.7
FIELDS x y z
SIZE 4 4 4
TYPE F F F
COUNT 1 1 1
WIDTH 400
HEIGHT 1
VIEWPOINT 0 0 0 1 0 0 0
POINTS 400
DATA ascii
0.022820568 -0.027136454 0.18236682
0.025785178 -0.024383757 0.18233722
0.023844173 -0.028447663 0.17950183
0.027043018 -0.025648154 0.17945087
0.025426732 -0.029360102 0.17551833
0.027848458 -0.027350066 0.17522877
0.026252553 -0.029629614 0.17210031
0.027851254 -0.02848668 0.17134741
0.016395606 -0.024751831 0.18442836
0.018438157 -0.023056526 0.18448088
0.02153676 -0.019648898 0.18410262
0.025145667 -0.015817674 0.18373746
0.027296906 -0.013321215 0.18340319
0.015123885 -0.029728044 0.18068069
0.017763825 -0.028058155 0.18239862
0.020500738 -0.025403176 0.18367621
0.02406035 -0.021890745 0.18354839
0.027264126 -0.018981904 0.18199486
0.028770477 -0.01511487 0.18083367
0.016230581 -0.030532045 0.17759269
0.019371364 -0.029898617 0.17788017
0.022676256 -0.029481914 0.17747295
0.028130496 -0.023832669 0.17700031
0.028412053 -0.020387495 0.17701361
0.029049439 -0.017312044 0.17651287
0.020424789 -0.030085897 0.17342845
0.023503309 -0.030027935 0.17411938
0.02846753 -0.024334187 0.17383
0.028165411 -0.021489166 0.17243031
0.020837089 -0.029976403 0.16956472
0.024838261 -0.030002616 0.1693247
0.028852982 -0.027337989 0.16896597
0.028543785 -0.022863831 0.16756925
0.024822753 -0.029536996 0.1649386
0.028333049 -0.026867785 0.16427922
0.010741422 -0.026412012 0.18420845
0.013648078 -0.024120074 0.18480137
0.016000014 -0.021006964 0.18472371
0.020124465 -0.018249664 0.18386492
0.022956913 -0.014538271 0.1837967
0.025665615 -0.011627626 0.18401942
0.0096687386 -0.029545676 0.18019488
0.012433289 -0.028976856 0.18148062
0.029571597 -0.01402561 0.17765728
0.028836083 -0.0099657746 0.17893872
0.010432102 -0.030456964 0.17743194
0.013491823 -0.030358192 0.17575607
0.029223742 -0.015174011 0.17423353
0.028861631 -0.011523408 0.17500725
0.014823485 -0.030322652 0.17076248
0.017884307 -0.030212663 0.17140889
0.028427918 -0.019318346 0.17051139
0.029276405 -0.016206283 0.16985759
0.018751923 -0.030193716 0.16657421
0.022230245 -0.029674899 0.16644084
0.028586382 -0.020166563 0.16604441
0.029175071 -0.017311918 0.16593292
0.020058408 -0.030203223 0.16318804
0.022920391 -0.029353021 0.16232499
0.02702895 -0.026915861 0.16106594
0.028767142 -0.022027995 0.16196111
0.02373611 -0.029209388 0.15713024
0.026727544 -0.026878769 0.15676239
0.027591666 -0.02432576 0.15689445
0.00735095 -0.022425508 0.18428105
0.009853187 -0.020208091 0.18426564
0.012516472 -0.017238528 0.18391913
0.015098103 -0.014189501 0.18349084
0.018163599 -0.010680235 0.18304253
0.022098389 -0.0076075532 0.18397078
0.0078921989 -0.0257149 0.18450689
0.015413547 -0.018227873 0.1840165
0.017065607 -0.016142521 0.183669
0.019591972 -0.013057578 0.18319425
0.011623693 -0.030084636 0.17233121
0.028421409 -0.0087482119 0.17206812
0.012166983 -0.030202664 0.16900009
0.029238153 -0.014185432 0.16663057
0.028178839 -0.01052353 0.16739362
0.014354798 -0.030426826 0.1647076
0.028799623 -0.015419453 0.16306508
0.014533681 -0.030545697 0.16055572
0.01767277 -0.029919092 0.15995309
0.028075032 -0.01906294 0.15870088
0.028023276 -0.016639858 0.15865895
0.018730275 -0.029935174 0.15618637
0.021735393 -0.029779445 0.15611312
0.027048104 -0.021350302 0.15517813
0.01972837 -0.029944412 0.15143985
0.022976052 -0.029443957 0.15068099
0.026153596 -0.026991462 0.15028456
0.026844626 -0.023848856 0.1515817
0.006741547 -0.017187506 0.18389785
0.0098907668 -0.014640506 0.18400788
0.012392703 -0.01145579 0.18415526
0.015366787 -0.0085460823 0.1835309
0.0092292484 -0.029104276 0.16598478
0.00891311 -0.029200114 0.1617766
0.027811565 -0.013038702 0.15971714
0.028022252 -0.0096285632 0.1604183
0.012545412 -0.030046554 0.15754709
0.027405651 -0.013570117 0.15572771
0.028093407 -0.010931058 0.15616754
0.013708657 -0.030301107 0.15353993
0.016576465 -0.029874831 0.15316743
0.026602997 -0.018834895 0.15223145
0.027323991 -0.015436683 0.1521717
0.014102044 -0.030178087 0.14955652
0.017239874 -0.030059943 0.14899528
0.026113603 -0.021053992 0.14861056
0.026657069 -0.017504206 0.14804664
0.018550545 -0.029767085 0.14540601
0.021656819 -0.028748237 0.14466351
0.024250561 -0.025802912 0.14407182
0.025226891 -0.021964408 0.14430311
0.021800656 -0.02696985 0.14044452
0.0047832592 -0.0096238814 0.18350023
0.0087305652 -0.0073043359 0.184558
0.01142561 -0.004787608 0.1840103
0.0068067405 -0.011613479 0.18367463
0.010411937 -0.0094761495 0.18421507
0.013276143 -0.0057216566 0.18354291
0.027657447 -0.0086624194 0.15369833
0.0094659664 -0.029685806 0.15059856
0.027316578 -0.013648209 0.14924848
0.027122792 -0.0096047195 0.14897043
0.011679787 -0.029607747 0.14606369
0.025464298 -0.018984469 0.14516345
0.026240259 -0.014862962 0.14474255
0.026905701 -0.011836622 0.14451569
0.012940616 -0.029458728 0.14286461
0.016425934 -0.029747266 0.14237529
0.023732802 -0.023169054 0.14108482
0.024342038 -0.019599445 0.14078152
0.025322337 -0.016484253 0.14108211
0.01687352 -0.029302713 0.13756958
0.020218404 -0.027676189 0.13788623
0.022391925 -0.024163848 0.13741136
0.023551429 -0.021243786 0.13793588
0.017601475 -0.029539753 0.13339886
0.019954164 -0.027448829 0.13309109
0.021762006 -0.025449377 0.13285923
0.0021901752 -0.0070511838 0.18368703
0.0054990463 -0.0049536852 0.18428695
0.026437903 -0.010113673 0.14192617
0.010185205 -0.029329777 0.13989803
0.024265317 -0.0181104 0.13833189
0.025429718 -0.015040863 0.1386328
0.026047301 -0.012150316 0.13951418
0.01149326 -0.029305419 0.13477087
0.014130916 -0.029217813 0.13480985
0.022697808 -0.022482434 0.13442153
0.022983335 -0.018938065 0.13433272
0.02403501 -0.016154584 0.13417283
0.015617983 -0.029408148 0.13057709
0.019455744 -0.027143883 0.12976623
0.021780595 -0.023359764 0.13063651
0.022013314 -0.020072818 0.13067308
0.017068921 -0.028783118 0.12657914
0.019173918 -0.027039958 0.12666941
0.020748205 -0.024754927 0.12709302
0.0018998437 -0.0009946333 0.18403837
0.024519585 -0.012724452 0.1352331
0.024297325 -0.0085453521 0.13643631
0.022909172 -0.017089318 0.13126171
0.023317525 -0.013603328 0.1317665
0.023173351 -0.0095218597 0.13258711
0.0099917771 -0.028842162 0.12945658
0.011757578 -0.028372556 0.12628335
0.020012546 -0.020244751 0.12583819
0.021704135 -0.017588673 0.12783629
0.022350892 -0.013774037 0.12798268
0.01439211 -0.028230781 0.1237902
0.017871825 -0.025992928 0.12240872
0.019559802 -0.022817215 0.12331122
0.015086801 -0.027892005 0.11945063
0.017165516 -0.02585924 0.1192196
-0.0016778321 0.0029537212 0.18385208
0.02263312 -0.011070508 0.12938461
0.022186214 -0.00769046 0.12902957
0.021866415 -0.011800081 0.12490577
0.021650147 -0.0082959607 0.12523812
0.011016554 -0.027926844 0.12172994
0.017916879 -0.018419029 0.12065274
0.019397968 -0.016320763 0.12231499
0.012229375 -0.02818507 0.11722136
0.016877269 -0.024899049 0.11583215
0.017596034 -0.021496275 0.11751992
0.013122212 -0.02759121 0.11361092
0.015894743 -0.025083264 0.11246276
-0.0087247808 0.0027151979 0.18536028
-0.0046777697 0.0055712843 0.18410149
-0.0041111005 0.0030477466 0.18381226
0.018686617 -0.014922148 0.11843532
0.020041699 -0.011242727 0.11954898
0.016787617 -0.018547026 0.1152311
0.017797161 -0.015088652 0.11481869
0.011480113 -0.028039346 0.11146927
0.016023412 -0.023881439 0.11030853
0.016097788 -0.020535432 0.1106953
0.011959864 -0.027330922 0.10697514
0.014917826 -0.024699466 0.10650557
0.018497918 -0.0094897337 0.11513901
0.015547237 -0.016536508 0.11132032
0.015895613 -0.013025532 0.10998023
0.016742472 -0.0098451572 0.11176169
0.014556776 -0.016755683 0.10695344
0.0089790085 -0.027387895 0.10324097
0.014757526 -0.023029558 0.10312897
0.014549565 -0.019901797 0.102997
0.0098555665 -0.026958501 0.099085212
0.013389939 -0.023865802 0.098902404
0.014860104 -0.020504234 0.097596824
0.011394248 -0.027015861 0.094784796
0.013908843 -0.024616653 0.094705641
0.016049974 -0.0072763585 0.10928631
0.014180995 -0.015552764 0.10400057
0.013978771 -0.011737428 0.10505956
0.014382005 -0.016896352 0.10099012
0.014305236 -0.013858275 0.10100919
0.015378184 -0.018136004 0.096376657
0.014910565 -0.014727966 0.095918834
0.0093104448 -0.027612505 0.092659593
0.013105249 -0.024986302 0.091470659
0.015524825 -0.020607403 0.092339337
0.016037088 -0.017048065 0.092053056
0.010015229 -0.0274939 0.087544024
0.013323147 -0.025407832 0.087856054
0.014817097 -0.02179322 0.087584198
0.011517177 -0.027757566 0.084291995
0.012775799 -0.026427345 0.083494484
0.013756537 -0.0070328889 0.10213041
0.014295594 -0.011928755 0.099781871
0.014183603 -0.008185463 0.097596347
0.014758903 -0.013142695 0.094815552
0.014974665 -0.010140548 0.093420804
0.015262069 -0.014223939 0.089366674
0.015626932 -0.01179766 0.08942306
0.014597378 -0.019584127 0.085467756
0.014708163 -0.017064324 0.085230708
0.0090592355 -0.028084591 0.082356393
0.013214071 -0.025168944 0.081575572
0.014168671 -0.020479795 0.080819786
0.0095834434 -0.027992953 0.077446878
0.012828438 -0.025290424 0.077105224
0.014306737 -0.021757139 0.076578975
0.010569651 -0.028148178 0.07313484
0.012903113 -0.026158996 0.072447717
0.014315684 -0.023293659 0.072847605
0.014992805 -0.0068804701 0.094971955
0.015419686 -0.0079866983 0.091391325
0.015529482 -0.0056282841 0.09044832
0.015222916 -0.0091923214 0.086491644
0.014372113 -0.013855196 0.082933187
0.014421877 -0.01094289 0.082077086
0.014687451 -0.015649537 0.07844907
0.015111286 -0.020695664 0.074317396
0.015282908 -0.017427767 0.074010491
0.0090400968 -0.028779065 0.070570529
0.013598002 -0.0257167 0.069943964
0.015106702 -0.02199175 0.070149958
0.015389215 -0.01858066 0.069307566
0.0097745284 -0.028455604 0.066006243
0.01339869 -0.026712151 0.066385269
0.015072288 -0.023114348 0.06566304
0.012722484 -0.026322428 0.061569571
0.014676331 -0.0085828044 0.080687344
0.014873657 -0.0049382034 0.079960167
0.014900083 -0.013785809 0.075042903
0.014896559 -0.0094516277 0.076018095
0.015826814 -0.0066503417 0.074985683
0.015321314 -0.015032003 0.072024822
0.015511676 -0.010793089 0.071627796
0.015471063 -0.016073614 0.067669928
0.016043182 -0.012515184 0.067070961
0.015265234 -0.021478605 0.062602937
0.015789008 -0.017045362 0.06309855
0.016769784 -0.01430403 0.062103152
0.012583119 -0.025859576 0.05857116
0.015039044 -0.023033505 0.058950007
0.016642662 -0.01838628 0.058581531
0.017687166 -0.015422193 0.058243752
0.0090478556 -0.028396249 0.055139303
0.012844005 -0.026815411 0.055063665
0.016120369 -0.02391916 0.054163992
0.017671034 -0.019662019 0.053862333
0.010263796 -0.028497096 0.051107228
0.013305809 -0.027798351 0.050213873
0.016902843 -0.025129823 0.049872041
0.018659137 -0.021471143 0.049183428
0.014723266 -0.028006053 0.04566592
0.017385453 -0.025850713 0.045450985
0.019637333 -0.023102315 0.044970274
0.015797799 -0.028470336 0.042066872
0.01848121 -0.027193159 0.04080832
0.020679718 -0.024565334 0.040797889
0.020021139 -0.027584305 0.037179172
0.021233028 -0.026144532 0.036593378
0.016119683 -0.0092757223 0.068665922
0.016139716 -0.006241417 0.068720281
0.016087554 -0.0099511789 0.064442277
0.016085252 -0.0067352438 0.064182639
0.016521445 -0.011122144 0.059787452
0.01768787 -0.013181614 0.055666625
0.018915715 -0.014971292 0.051399767
0.0088726683 -0.028320216 0.047992408
0.019062905 -0.019280659 0.049256563
0.019824423 -0.016707864 0.046593726
0.009469782 -0.028199241 0.043023527
0.012576798 -0.028698163 0.043812931
0.020473262 -0.020966651 0.044001877
0.021292239 -0.017823189 0.042309105
0.01388335 -0.029021395 0.038825631
0.021629695 -0.022875786 0.039265156
0.022268668 -0.019281287 0.037908494
0.014989045 -0.028757144 0.034683228
0.01849555 -0.028221196 0.034504592
0.02190212 -0.024336537 0.034370184
0.022840599 -0.020873653 0.032796979
0.019426633 -0.028047603 0.030038714
0.021835668 -0.025363142 0.02925843
0.022985425 -0.022194743 0.029591739
0.022276577 -0.025756817 0.025305986
0.016738951 -0.0060512712 0.058307469
0.017445777 -0.011406584 0.052199304
0.017830519 -0.0076196496 0.054035425
0.018849805 -0.008881134 0.049241841
0.01948349 -0.013789086 0.045684874
0.020367183 -0.010841306 0.044823647
0.021922624 -0.012166398 0.040571392
0.0088803964 -0.028612696 0.037637413
0.022769857 -0.017654918 0.034686506
0.023031436 -0.013751779 0.036317945
0.0098680109 -0.029161438 0.033354342
0.013207645 -0.028984193 0.032244205
0.023249062 -0.018258335 0.032245815
0.024161948 -0.015121466 0.031657755
0.013526059 -0.029283386 0.028132796
0.017636074 -0.028108308 0.027099371
0.022460328 -0.023867412 0.026185334
0.023697793 -0.02027953 0.027964294
0.025203841 -0.016407164 0.026870847
0.015082875 -0.028796906 0.023732007
0.018249296 -0.02818083 0.023739994
0.021954466 -0.025519695 0.023626745
0.024352038 -0.021823252 0.02382499
0.026052764 -0.018061405 0.022523105
0.01907135 -0.02839219 0.018924773
0.022675177 -0.026448419 0.019648015
0.025503695 -0.023215655 0.019191504
0.026736606 -0.019915834 0.018129706
0.019891696 -0.027992928 0.014562666
0.023173245 -0.026657911 0.013980627
0.026092218 -0.024076356 0.013763845
0.026976202 -0.02085929 0.014135063
0.025151843 -0.025366286 0.0097420812
0.021620858 -0.0071144528 0.03707695
0.023348473 -0.0086466223 0.032582462
0.025022145 -0.0099579589 0.028511107
0.0088946372 -0.028650258 0.025910437
0.026066655 -0.011483224 0.024138391
0.012572735 -0.028839 0.020984411
0.026627589 -0.016114809 0.020098984
0.026916007 -0.012555627 0.019568682
0.013274188 -0.028903991 0.017187297
0.016526375 -0.028633345 0.015965641
0.02664984 -0.01736787 0.015640199
0.027194245 -0.014160773 0.015080154
0.018040374 -0.027942296 0.011506617
0.021180976 -0.027394447 0.011755824
0.026723104 -0.019081106 0.011330903
0.018713301 -0.028222082 0.0073916912
0.022566756 -0.026937967 0.0080295205
0.025852032 -0.023717359 0.0076809525
0.026776414 -0.019915406 0.0078576207
0.022497639 -0.026048813 0.0040332675
0.024348455 -0.023827417 0.0036512017
0.027025767 -0.010429465 0.017270386
0.011068071 -0.028424222 0.014236152
0.027449803 -0.011546338 0.013501585
0.026777569 -0.008329696 0.011205196
0.01366058 -0.028144926 0.010364234
0.015362313 -0.027857089 0.0091475844
0.026348121 -0.016311545 0.009213984
0.027223215 -0.01308372 0.0084971189
0.013877432 -0.02863773 0.0054183602
0.016083224 -0.028288087 0.0050534606
0.02636617 -0.017934334 0.0042548776
0.027051965 -0.014683673 0.0035609603
0.017821658 -0.028148152 0.00044697523
0.021481665 -0.026510829 0.00084751844
0.024596453 -0.022916004 0.00031232834
0.025788698 -0.01886642 -0.00098675489
0.0090983678 -0.027681308 0.01124388
0.0096354512 -0.027371455 0.0081005096
0.0097992206 -0.027602326 0.0033321381
0.026631696 -0.011720179 0.001583755
0.026719062 -0.0086796675 0.0010110736
0.015600147 -0.028657367 -0.0010512471
0.0088675711 -0.028086593 0.00040084124
