# .PCD v0.7 - Point Cloud Data file format
VERSION 0.7
FIELDS x y z
SIZE 4 4 4
TYPE F F F
COUNT 1 1 1
WIDTH 396
HEIGHT 1
VIEWPOINT 0 0 0 1 0 0 0
POINTS 396
DATA ascii
-0.034814835 -0.0077143391 0.18437353
-0.034522057 -0.011943545 0.18446919
-0.033876121 -0.015370898 0.18347555
-0.037509501 0.017086457 0.17984864
-0.037090302 0.012921229 0.18013903
-0.037025869 0.0085688196 0.18100828
-0.037202835 0.0039576958 0.18093219
-0.036631763 -0.0016354886 0.18086126
-0.037547588 -0.00681923 0.18161428
-0.038174808 -0.011421312 0.18182224
-0.036221445 -0.015487749 0.18052593
-0.038341582 0.01790788 0.17859742
-0.037983835 0.012548067 0.17815277
-0.038273394 0.0091008805 0.17774397
-0.037670016 0.0048782635 0.17764261
-0.037929833 -0.0024045394 0.17705947
-0.039079309 -0.0065939729 0.1762619
-0.038910747 -0.011192076 0.17596808
-0.037266433 -0.014307611 0.17660913
-0.03068608 0.012854364 0.18336651
-0.030866563 0.0082883593 0.18415335
-0.031002641 0.0040423847 0.18406424
-0.031161368 -0.0011827074 0.18314075
-0.030638456 -0.0065074549 0.18389034
-0.031254411 -0.01130154 0.18490148
-0.031327367 -0.016421776 0.18416971
-0.034059227 0.013418913 0.18166649
-0.033903778 0.0085223932 0.18266165
-0.034389138 0.0038886736 0.18277651
-0.034180045 5.2960182e-05 0.18248916
-0.034559965 -0.017508838 0.17899457
-0.037308872 0.019084379 0.17632067
-0.037766635 0.013668194 0.17572236
-0.038112938 0.0085370466 0.17516553
-0.037767649 0.0039961017 0.17533258
-0.038014352 -0.00058986852 0.17514348
-0.035999596 -0.015954264 0.17368889
-0.037580013 0.01883018 0.17146635
-0.037670076 0.013505418 0.17092904
-0.038168311 0.0090580024 0.1708436
-0.038117707 0.0044341399 0.17062527
-0.038142264 -0.00096186483 0.17042497
-0.038720369 -0.0063655847 0.17058119
-0.038701117 -0.010982338 0.17038342
-0.036673069 -0.015397009 0.16912368
-0.038376093 0.009229742 0.16732278
-0.038946688 0.0044566407 0.16589767
-0.039026439 -0.0002923836 0.16571406
-0.039200962 -0.0055852798 0.16526583
-0.038478017 -0.010805801 0.16566974
-0.037853122 -0.013917837 0.16605559
-0.040196776 0.00092329038 0.16266954
-0.040184617 -0.0044816886 0.1624465
-0.023282468 0.0086056851 0.18333444
-0.02367419 0.0039261053 0.18338329
-0.024028242 -0.00074526324 0.18340924
-0.024115384 -0.0066609518 0.18358412
-0.024637878 -0.011651997 0.18424556
-0.02724725 0.013589233 0.18371254
-0.027415395 0.010072347 0.1841259
-0.027184486 0.0023403277 0.18366593
-0.027092099 -0.00075248105 0.18348196
-0.026976645 -0.0046184813 0.18325198
-0.036878109 0.015392348 0.16843092
-0.035796463 -0.017055452 0.1664277
-0.036866903 0.014037162 0.16468805
-0.038023353 0.0093812756 0.16433936
-0.038286626 0.0063183508 0.16346899
-0.03751725 -0.010687515 0.16228557
-0.03618294 -0.015568908 0.16282719
-0.036757767 0.019322362 0.15969014
-0.037156224 0.014310367 0.15934163
-0.037403166 0.0096245594 0.1595507
-0.03858465 0.0049327831 0.15991497
-0.038679719 8.0152888e-05 0.15925747
-0.038122535 -0.005365456 0.15858373
-0.036652923 -0.010349076 0.15826079
-0.035609722 -0.015248764 0.15899962
-0.037993729 0.012904685 0.15612984
-0.037738502 0.0043585277 0.15562147
-0.037622452 0.00047390119 0.15539038
-0.037483215 -0.0041876421 0.15511307
-0.020012379 0.0090191998 0.18362379
-0.019806564 0.0035633927 0.18327311
-0.019746244 -0.00074435794 0.18351519
-0.020020008 -0.0058801235 0.18360117
-0.037055492 0.0097424369 0.1572386
-0.035958946 -0.012009215 0.15564749
-0.034763455 -0.015143432 0.15565848
-0.03765887 0.015373901 0.15376681
-0.037379503 0.0099118575 0.15373683
-0.037320435 0.0054862085 0.15298983
-0.037053287 0.00061443402 0.152219
-0.036933541 -0.0051101097 0.15222362
-0.036458969 -0.010319967 0.15232217
-0.035277545 -0.014796678 0.15158632
-0.03782171 0.015590884 0.149584
-0.03736943 0.010142874 0.14906389
-0.03704679 0.0054585482 0.14884877
-0.037274897 0.00077236397 0.14863184
-0.037480712 -0.0044922945 0.14832973
-0.037297666 -0.0095460825 0.14713377
-0.035879493 -0.014075357 0.14804298
-0.011556983 0.0032171418 0.18326935
-0.012399197 -0.001154082 0.18405733
-0.012410581 -0.005080713 0.18390164
-0.01526469 0.0043094158 0.18299949
-0.015588582 -0.00074906665 0.18371856
-0.015505552 -0.0054454971 0.18347394
-0.034292996 -0.016472511 0.148754
-0.036814094 0.015790731 0.14609
-0.036581159 0.010316867 0.14571711
-0.03649205 0.0055980938 0.14594209
-0.036762714 0.00091196736 0.14547265
-0.036572039 -0.0029957336 0.14518979
-0.034513354 -0.014984 0.1446645
-0.036066592 0.016028233 0.14181045
-0.036043763 0.010527495 0.14158028
-0.036394775 0.0058001685 0.14163738
-0.036727726 0.0010794434 0.14168182
-0.036747217 -0.0036261999 0.14151168
-0.036963403 -0.0091176294 0.14144593
-0.03499198 -0.014583878 0.13988018
-0.036389947 0.016209528 0.13824862
-0.036225498 0.010705933 0.13792121
-0.036286294 0.0056094839 0.13729027
-0.037174284 0.0011087372 0.13654241
-0.037967503 -0.0034211171 0.1366812
-0.038132906 -0.0089199282 0.13658333
-0.036764801 -0.013612993 0.13545069
-0.038383305 -0.0036479854 0.13268268
-0.038857341 -0.0079641752 0.13237154
-0.038156092 -0.011633877 0.13205665
-0.0083183646 0.0042299312 0.18372095
-0.0085428953 -0.0004477856 0.18423897
-0.036374629 0.016359251 0.13538802
-0.035575926 0.01087594 0.13462058
-0.035915494 0.0064530219 0.1344949
-0.037310719 0.0029696017 0.1345703
-0.034459054 -0.015953559 0.13375765
-0.035635114 0.016599476 0.13105834
-0.035589159 0.011064235 0.13081279
-0.035898149 0.0061011645 0.13042736
-0.036916971 0.0015765927 0.13042048
-0.038041294 -0.0028235284 0.12989539
-0.038513839 -0.0078469664 0.12927133
-0.036720037 -0.013794564 0.12945217
-0.0349347 -0.016549934 0.12833112
-0.036927104 0.0049087065 0.12672156
-0.036704719 0.0017514802 0.12644309
-0.037123144 -0.0032891785 0.12577677
-0.037450671 -0.0078845695 0.1249198
-0.037251174 -0.011627387 0.12439477
-0.0026266575 -0.00075396715 0.18418097
-0.035162866 0.016775884 0.12785274
-0.034997344 0.011233214 0.12752303
-0.035318315 0.0072569489 0.1275968
-0.035022914 0.016986348 0.12390354
-0.036447346 0.011356592 0.12470272
-0.036546528 0.0068052947 0.124358
-0.036564827 0.0018833703 0.12345988
-0.036653697 -0.0024571908 0.12287521
-0.03748709 -0.0060211909 0.12285161
-0.035900831 -0.013985161 0.12334454
-0.034083068 -0.016954068 0.12218022
-0.035967469 0.017187994 0.1197468
-0.036749899 0.011629362 0.11912626
-0.037421107 0.0068315635 0.11942613
-0.036272168 0.0022936235 0.11867064
-0.036310792 -0.0027043601 0.11923552
-0.036718369 -0.0074389209 0.11837828
-0.036560953 -0.012200836 0.11808407
-0.035100698 -0.016191486 0.11785418
-0.037272036 -0.00758718 0.11411327
-0.036967993 -0.010981105 0.11389416
0.0035073757 -0.00074958795 0.18423545
-0.035564899 0.018160298 0.11657798
-0.035542548 0.014970675 0.11644089
-0.035278022 0.00063042488 0.11570621
-0.035546899 -0.0025643301 0.11577922
-0.033978641 -0.017559424 0.11524683
-0.035060465 0.018343046 0.11329144
-0.035872221 0.012529653 0.11286104
-0.036331832 0.007147552 0.11281496
-0.035481155 0.0023895442 0.11201644
-0.035876513 -0.0024111257 0.11212325
-0.037174642 -0.0067669419 0.1114412
-0.03623718 -0.012493405 0.11135483
-0.034312546 -0.016306806 0.11073989
-0.036313534 0.0070479154 0.1080994
-0.035870552 0.0025488152 0.10839105
-0.036088228 -0.0027338457 0.10704273
-0.036803722 -0.006986652 0.10675502
-0.036519468 -0.011586342 0.106619
-0.034493446 -0.015022419 0.10672086
-0.037354589 -0.0076455665 0.10320526
-0.037367463 -0.010846511 0.10309529
0.0091437101 0.0040161386 0.18575874
0.0095689297 -0.00078935723 0.1853075
-0.034482777 0.015324738 0.10981876
-0.035056472 0.013040565 0.10720468
-0.036022365 0.0079044364 0.10526288
-0.035908341 0.0026775631 0.10547543
-0.035967946 -0.0010480997 0.10505188
-0.035889566 -0.013298251 0.10387909
-0.034195125 -0.016812906 0.10531104
-0.035194576 0.013279483 0.10238343
-0.036682546 0.0076844166 0.10130334
-0.037056029 0.0028559226 0.10140085
-0.037141025 -0.0019568694 0.10128462
-0.037228048 -0.0065161143 0.10061556
-0.036769211 -0.011775278 0.10007793
-0.034397364 -0.016424526 0.10068351
-0.035440087 0.011853114 0.098550737
-0.037105143 0.0078523606 0.097663701
-0.037699163 0.0030082925 0.097929657
-0.037591398 -0.001805414 0.097670376
-0.037093043 -0.0065914695 0.096621811
-0.036889791 -0.011425804 0.096787274
-0.034755647 -0.014685251 0.097052932
-0.03367573 0.014672164 0.095092714
-0.034687579 0.0093170851 0.094308734
-0.035023212 0.0031879763 0.093936384
-0.035283387 -0.0016589728 0.093952954
-0.034963608 -0.0064908792 0.093533397
-0.034185171 -0.011316206 0.092768729
-0.032503486 -0.016212795 0.093318403
-0.034337699 0.014464915 0.090406239
-0.035087407 0.0090240613 0.090201318
-0.03551513 0.0033468376 0.090315998
-0.035229921 -0.0014929422 0.089921474
-0.034815967 -0.0063323532 0.089429319
-0.034383953 -0.011174396 0.088923573
-0.033614814 -0.015061557 0.088598967
-0.036286533 0.0080650132 0.086263716
-0.036398113 0.0033244467 0.085543633
-0.036244869 -0.001295865 0.085256994
-0.035795987 -0.0058421013 0.085378706
-0.035671294 -0.011011209 0.084892809
-0.034203112 0.015644025 0.087765992
-0.032433927 -0.017209411 0.086720467
-0.035152435 0.014986932 0.084438801
-0.035692275 0.010664694 0.084023416
-0.036031961 0.005305096 0.082744598
-0.036418915 -0.0011937213 0.082805514
-0.035735488 -0.006464724 0.082591116
-0.035422742 -0.01089849 0.081684291
-0.034291804 -0.015821896 0.082652032
-0.035092652 0.014907621 0.079536021
-0.035569906 0.010337392 0.079536617
-0.035481393 0.0042947638 0.07939291
-0.036151946 -0.0010179249 0.07856071
-0.036558807 -0.0059003946 0.078700006
-0.036383629 -0.010766212 0.078387439
-0.035126626 -0.015412729 0.077823341
-0.035546005 -0.0065358398 0.073829114
-0.035662234 -0.0097946152 0.073802292
-0.034713149 0.015798751 0.076532006
-0.035031736 0.011321772 0.076109409
-0.033876181 0.0056125647 0.076020241
-0.034697473 0.0023670341 0.075524688
-0.034269273 -0.015549663 0.074542105
-0.034028828 0.015605241 0.072421372
-0.033752203 0.010455027 0.072456479
-0.033383131 0.0059855669 0.072334647
-0.034214199 0.00040979456 0.072163224
-0.034279406 -0.0046504107 0.071272612
-0.034929037 -0.01095074 0.071657181
-0.033726037 -0.015692621 0.071492255
-0.035019755 0.01581065 0.068084657
-0.03494978 0.010898542 0.067853391
-0.034460485 0.0060047465 0.067291498
-0.035188079 0.0010673399 0.067689717
-0.035303414 -0.0046607782 0.067575991
-0.035150409 -0.01038003 0.067249775
-0.034033954 -0.014816873 0.066500425
-0.0357638 0.011057504 0.064393818
-0.035592616 0.0053259577 0.06405288
-0.035717785 0.00083612982 0.063477337
-0.036002159 -0.0036568237 0.063028514
-0.03564024 -0.0093952753 0.062878668
-0.032587528 -0.016902242 0.064989805
-0.034429014 0.016089626 0.062682688
-0.034564078 0.010919597 0.06170994
-0.034988105 0.0065235342 0.060958326
-0.035727203 0.0016917693 0.060729682
-0.036552548 -0.003547885 0.060379565
-0.036277533 -0.0080696791 0.06051445
-0.034069061 -0.013425775 0.060103595
-0.032224119 -0.016765572 0.060581565
-0.035081923 0.0064453217 0.057482243
-0.035674751 0.0014877464 0.057784021
-0.035238445 -0.003001316 0.056754112
-0.035239995 -0.0083265267 0.056047797
-0.034038961 -0.01163644 0.056001723
-0.033003628 0.016305305 0.05875659
-0.03333956 0.012189798 0.058360934
-0.032130778 -0.014981654 0.056425869
-0.033141792 0.016480722 0.055234134
-0.033671975 0.011329003 0.054697454
-0.034109473 0.0066226791 0.053582847
-0.03410238 0.0016701032 0.053402126
-0.034209132 -0.0036050626 0.053094327
-0.034169555 -0.0081922412 0.05206722
-0.032315493 -0.013551537 0.053296208
-0.033861518 0.016704205 0.050603151
-0.033830583 0.012003705 0.049814761
-0.033850074 0.0068204324 0.049200118
-0.034106016 0.0018465981 0.049233675
-0.034326673 -0.0031206259 0.049239337
-0.034134686 -0.0080761723 0.04890883
-0.032319367 -0.012832899 0.048907518
-0.03466922 0.016871318 0.047076941
-0.034766257 0.011894766 0.046982348
-0.034565449 0.0069331019 0.046644032
-0.035010815 0.0017766426 0.045329154
-0.03508544 -0.0029322975 0.04462558
-0.035030663 -0.0078982599 0.04440707
-0.033635914 -0.011262886 0.045245051
-0.03602469 -0.0061039221 0.041081786
-0.032358408 -0.013805524 0.046210349
-0.034433782 0.017042812 0.04373306
-0.034564972 0.012054183 0.043667555
-0.034547746 0.0070756539 0.043479562
-0.034675181 0.0029683276 0.04238838
-0.033474445 -0.013043247 0.042683244
-0.031228423 -0.016579043 0.041502357
-0.033700526 0.016950712 0.039107978
-0.03462714 0.012303092 0.038444102
-0.034713924 0.0073061767 0.038342834
-0.034789145 0.0023138351 0.038232386
-0.034305811 -0.0026612119 0.037657499
-0.034921646 -0.0078588501 0.037726164
-0.033917189 -0.012632489 0.036989927
-0.032724619 -0.015983481 0.036943018
-0.035365045 0.011635967 0.034794986
-0.035353959 0.007470693 0.03464216
-0.034682691 0.002496365 0.033908069
-0.034977615 -0.0083382055 0.033782065
-0.033454716 0.017431948 0.036231458
-0.034306228 0.017797627 0.033510685
-0.034792364 0.012989648 0.032764077
-0.034888089 0.0075855399 0.032126188
-0.034547448 0.0025910581 0.031668007
-0.034074008 -0.0024447967 0.032162666
-0.034260035 -0.0070160669 0.031629026
-0.033879638 -0.012449421 0.031655073
-0.032194853 -0.017198566 0.031143725
-0.035338342 0.017523751 0.029185593
-0.035609066 0.012762118 0.028639615
-0.035584033 0.0077487896 0.028446734
-0.034921229 0.0027137115 0.028784037
-0.034167111 -0.0024990295 0.027508676
-0.034970343 -0.0072683846 0.027413785
-0.034748197 -0.012276575 0.027054727
-0.033155382 -0.016208638 0.027000964
-0.03516531 -0.0087876022 0.023241639
-0.03537178 -0.011554383 0.022606671
-0.033303797 0.0029041558 0.024203181
-0.03315717 -0.0012843203 0.023935616
-0.033823311 0.013103537 0.021761417
-0.033780873 0.008064026 0.021554232
-0.033384025 0.0030383631 0.021044314
-0.033513844 -0.0021826779 0.020168781
-0.034235954 -0.0067960327 0.020091176
-0.034332871 -0.012304582 0.019539118
-0.032604814 -0.015827097 0.01919806
-0.032784998 0.012465138 0.017607391
-0.032631874 0.009943122 0.01739049
-0.033321619 -0.0026271478 0.015391588
-0.034262359 -0.0072567468 0.015505135
-0.034323335 -0.011535291 0.015088201
-0.032738507 0.013684478 0.014817119
-0.032551408 0.0081593581 0.01481849
-0.032072842 0.003312632 0.014513612
-0.032636881 -0.0010573942 0.013984203
-0.033317387 -0.005914506 0.01310575
-0.032586455 -0.01349058 0.012218177
-0.033483088 0.01368795 0.0095480084
-0.033033967 0.0086313635 0.0089865327
-0.032625675 0.0035583149 0.0087336898
-0.03329891 -0.001525151 0.0088775158
-0.033873141 -0.0066067469 0.0092081428
-0.033698976 -0.011669107 0.0088869333
-0.031773567 -0.015468702 0.0076285005
-0.034935236 0.013656925 0.0048754811
-0.034405887 0.010513831 0.0047755241
-0.033549905 -0.0022057858 0.0046980977
-0.034579098 -0.0066432511 0.0038879514
-0.034405231 -0.011232276 0.0035825968
-0.032733142 -0.014893051 0.0035588145
-0.032309473 0.003673296 0.0059995055
-0.033115029 0.0080261417 0.0035573244
-0.031927526 0.0038261521 0.0023729205
-0.032162011 -0.00083101954 0.0018745065
-0.03165257 -0.016138937 0.0020185709
