# .PCD v0.7 - Point Cloud Data file format
VERSION 0.7
FIELDS x y z
SIZE 4 4 4
TYPE F F F
COUNT 1 1 1
WIDTH 377
HEIGHT 1
VIEWPOINT 0 0 0 1 0 0 0
POINTS 377
DATA ascii
-0.020582026 -0.031284258 0.18079007
-0.017677687 -0.032764241 0.18147814
-0.012767445 -0.034135681 0.18095163
-0.018091911 -0.033942714 0.17753193
-0.014365414 -0.034934737 0.17705294
0.00099076144 -0.030079048 0.18501124
-0.026818682 -0.022187067 0.18282783
-0.023933042 -0.023420466 0.18362877
-0.019511117 -0.025458667 0.18422812
-0.015755955 -0.027514426 0.18434179
-0.010679906 -0.029785959 0.18353182
-0.0051305192 -0.030994149 0.18335584
-0.0011311918 -0.032945558 0.18356806
0.0033254856 -0.034245517 0.18306652
-0.025115408 -0.026421076 0.18074843
-0.021847086 -0.028956398 0.18103075
-0.018235093 -0.029862151 0.18295038
-0.0095786694 -0.033027116 0.18233156
-0.0070338096 -0.034654066 0.17982757
-0.0023239888 -0.03538353 0.17983586
0.0023347782 -0.036176361 0.17898744
-0.02826225 -0.024954516 0.17660981
-0.025757536 -0.027477473 0.17598197
-0.022164444 -0.030360222 0.17525801
-0.018601965 -0.033004224 0.17468303
-0.012730786 -0.03524892 0.17472818
-0.007747293 -0.035772908 0.17430741
-0.0030178577 -0.036473721 0.17428738
0.0016165851 -0.036896154 0.17466056
-0.022272449 -0.03058948 0.17046583
-0.018616468 -0.03333731 0.17050064
-0.013674299 -0.035519518 0.17036432
-0.0082269972 -0.036392391 0.16932252
-0.0038351184 -0.03715061 0.16961396
-0.018338988 -0.034562886 0.16600811
-0.014928847 -0.035971604 0.16549093
-0.010705628 -0.037337761 0.16560757
-0.020619292 -0.01718571 0.18379238
-0.017330579 -0.019499868 0.18417257
-0.012932773 -0.021027308 0.18381426
-0.0080846632 -0.022525141 0.18377182
-0.0031697713 -0.025072822 0.18374503
0.00089075509 -0.027340163 0.18488532
-0.022779923 -0.020625422 0.18447325
-0.019991554 -0.022008464 0.18447614
-0.012685403 -0.024538904 0.18387628
-0.0098011419 -0.02565412 0.18370408
-0.0062414017 -0.027167775 0.18356776
-0.026423395 -0.02612135 0.17310941
0.0019087307 -0.03645575 0.17106402
-0.025920127 -0.026394585 0.16915077
-0.023054536 -0.029493663 0.16769132
-0.0030494565 -0.036803659 0.16671193
0.0021229098 -0.035946086 0.16648495
-0.025105454 -0.026704485 0.16341549
-0.022496412 -0.029688071 0.16396093
-0.019872278 -0.032589525 0.16445696
-0.0080909608 -0.037050158 0.16342479
-0.0035461551 -0.036583021 0.16257846
0.00098830648 -0.03661985 0.16156307
-0.022657232 -0.029598881 0.16025662
-0.018633245 -0.032943077 0.16033959
-0.014798184 -0.034940187 0.15930539
-0.010053441 -0.036186494 0.15936837
-0.0051697511 -0.036078308 0.15904954
-0.016093889 -0.01531874 0.18380645
-0.010871929 -0.01693517 0.1832732
-0.0071754046 -0.018481417 0.18375561
-0.0023585916 -0.021080343 0.18382016
-0.026887052 -0.024102796 0.16563451
-0.027467556 -0.024534339 0.16212147
0.0027677678 -0.037438795 0.16034445
-0.026618944 -0.026092608 0.15787089
-0.022549137 -0.028901337 0.15702334
-0.018950159 -0.031454265 0.15703946
-0.0079696849 -0.035413951 0.15621591
-0.0032805651 -0.035845552 0.15627331
0.0010029329 -0.037218615 0.15608209
-0.025869111 -0.026872102 0.15335286
-0.022640433 -0.029209517 0.15310517
-0.018958695 -0.032033246 0.15319848
-0.014723897 -0.034051932 0.15317678
-0.009582025 -0.034594681 0.15218467
-0.0047538737 -0.035165995 0.15167812
0.00098795444 -0.036905572 0.15217
-0.021944191 -0.030598484 0.14946491
-0.019136455 -0.032353029 0.14806426
-0.015406282 -0.033763666 0.14821482
-0.011641711 -0.034271915 0.14866474
-0.0040386878 -0.011678237 0.18357655
0.00075075915 -0.013322353 0.18391171
-0.0097789485 -0.012335938 0.18292308
-0.0052396515 -0.014599529 0.18366075
-0.00089577772 -0.0163914 0.18346238
-0.027567133 -0.024120256 0.15052196
-0.023314569 -0.027774164 0.15002701
-0.0033385232 -0.034815166 0.14936557
0.0013586776 -0.035725012 0.14853722
-0.027222266 -0.024822004 0.14578629
-0.023222119 -0.028659932 0.14654374
-0.02064134 -0.031064142 0.14560628
-0.013790407 -0.033679247 0.14580676
-0.0098050395 -0.034154631 0.14593601
-0.0044590924 -0.035033461 0.14512703
0.0010760706 -0.03543492 0.14427507
-0.026411545 -0.025986195 0.14230737
-0.022916732 -0.028965201 0.1414814
-0.01950882 -0.032004725 0.14207515
-0.015156639 -0.033795264 0.14188394
-0.010425993 -0.034597483 0.14096808
-0.0058553033 -0.035327576 0.1402916
-0.0022060042 -0.03535356 0.14087754
-0.018895021 -0.03210194 0.13816559
-0.015453806 -0.033991206 0.13736114
-0.01115705 -0.035183631 0.13649666
-0.0068807276 -0.035895269 0.13692188
-0.0073913112 -0.0073170438 0.18303296
-0.0023232745 -0.0075286962 0.18362334
0.0019764062 -0.035675015 0.14172533
-0.027714858 -0.024358291 0.13958025
-0.024387173 -0.026907232 0.13942665
-0.0042539723 -0.035864029 0.13801318
0.00053062662 -0.035254411 0.1379289
-0.026244767 -0.024643289 0.13571802
-0.022539511 -0.0273785 0.13503873
-0.019580182 -0.030709887 0.13505372
-0.015557333 -0.033909742 0.13448948
-0.010573482 -0.035636123 0.13470301
-0.0060226005 -0.036219366 0.13441956
-0.00068971794 -0.035929821 0.1333645
0.0032414924 -0.035969935 0.13297006
-0.019347213 -0.030633742 0.12998605
-0.015445532 -0.033137411 0.13014632
-0.011189718 -0.035263192 0.13019928
-0.0064563714 -0.036157753 0.12932596
-0.0023366259 -0.036579702 0.12929904
-0.015535723 -0.032897927 0.12618449
-0.010515785 -0.035273448 0.12616569
-2.9318209e-05 -0.0019828074 0.18371391
-0.027674856 -0.023345899 0.1332106
-0.023723878 -0.025728121 0.13244879
-0.027716912 -0.023182804 0.12826759
-0.023241755 -0.026846912 0.12852842
-0.020808689 -0.029159224 0.12733462
-0.00083334092 -0.03648781 0.12705538
-0.02302593 -0.027065083 0.12345999
-0.019996727 -0.031014182 0.12441954
-0.015652206 -0.032936584 0.12407815
-0.011449315 -0.034581926 0.12353277
-0.0065806392 -0.035859957 0.12340713
-0.0015012976 -0.035966877 0.12191391
0.0024482822 -0.036205631 0.12214392
-0.020328019 -0.031735852 0.11943036
-0.015943427 -0.03301692 0.11865944
-0.011296688 -0.034322377 0.11903626
-0.0064668627 -0.035160642 0.11905432
-0.0034132292 -0.036085695 0.11870849
0.0019056187 0.0035368898 0.18377456
-0.024992537 -0.025173593 0.12181708
-0.024233826 -0.025872953 0.1172986
-0.021454811 -0.029319011 0.11602253
-0.01108342 -0.033431754 0.11547732
-0.0061283978 -0.033987239 0.11527067
-0.0012490479 -0.034797631 0.11558133
-0.023536034 -0.026589407 0.11293429
-0.020158466 -0.030492935 0.11272782
-0.015843455 -0.032018855 0.11213487
-0.011232136 -0.033367962 0.11157793
-0.0064299735 -0.03371587 0.11054713
-0.00023396965 -0.034192678 0.11259562
-0.018983282 -0.030791715 0.10839558
-0.015595578 -0.031944886 0.10760081
-0.011840704 -0.033326786 0.10733306
-0.00075904187 0.010131488 0.18520498
0.0046337647 0.0084106773 0.184194
0.0044432823 0.00465535 0.18362185
-0.025664357 -0.024922412 0.111853
-0.021366822 -0.028266497 0.109438
-0.0049015544 -0.034517478 0.10839075
-0.0013282998 -0.034490161 0.1101945
0.0032495614 -0.035517991 0.1101715
-0.024307586 -0.02577363 0.10694301
-0.020326149 -0.029587744 0.10638118
-0.016539786 -0.032078743 0.10533369
-0.011484729 -0.034102362 0.10508198
-0.007100198 -0.034802176 0.10558683
-0.0017247116 -0.035005182 0.10574651
0.0031182654 -0.03586838 0.10479093
-0.022764511 -0.026585242 0.10284972
-0.020777194 -0.029620524 0.10202497
-0.01673099 -0.032905668 0.10121334
-0.012377243 -0.034989819 0.10122639
-0.0070828451 -0.035430461 0.10124707
-0.0025471775 -0.035973333 0.10097903
0.0029415824 -0.035952806 0.10095304
-0.020519728 -0.030098651 0.098054528
-0.016992001 -0.03310458 0.097471476
-0.012395175 -0.034580138 0.096996009
-0.0076557696 -0.034936242 0.096907079
-0.0041654911 -0.035815712 0.09717834
-0.026187668 -0.022254959 0.10401618
-0.025065817 -0.023163192 0.099304259
-0.022732634 -0.026074514 0.099522412
-0.00029474217 -0.034998596 0.097375572
0.0033306442 -0.034769326 0.097483575
-0.024581665 -0.024326241 0.095283031
-0.021246353 -0.027283113 0.094314873
-0.016140072 -0.030581359 0.093490481
-0.01157659 -0.032208193 0.093128145
-0.0063856738 -0.033389382 0.09275794
-0.0018073218 -0.034572259 0.093337238
0.0031548068 -0.034809072 0.093153775
-0.019585857 -0.028685618 0.090641499
-0.016397201 -0.030765884 0.089698315
-0.011783991 -0.032286607 0.089247227
-0.0073058056 -0.033583924 0.08925873
-0.0024622995 -0.035207011 0.089232326
-0.012918675 -0.033200659 0.085561812
-0.025876787 -0.022839146 0.092689097
-0.022823071 -0.025331512 0.092066705
0.0031284327 -0.034606792 0.090022802
-0.025692634 -0.023128906 0.087467432
-0.02195701 -0.0265014 0.088321328
-0.019217253 -0.028802169 0.087256432
-0.0062685069 -0.03351669 0.086293936
-0.0024428871 -0.03486364 0.085977852
0.0025814017 -0.035596646 0.086860776
-0.024852974 -0.024871727 0.08335048
-0.021861384 -0.026786169 0.083266795
-0.017406872 -0.030390047 0.083735287
-0.012137702 -0.033192862 0.083287001
-0.0076193167 -0.034320638 0.083262742
-0.0029976349 -0.035865135 0.082822323
0.002160266 -0.036095235 0.081293046
-0.017355716 -0.030624203 0.078971326
-0.013212224 -0.033688352 0.078392208
-0.0082894918 -0.034815684 0.078340232
-0.0035072956 -0.035792157 0.078085661
-0.014438291 -0.032798309 0.074313462
-0.026608445 -0.022518083 0.082291603
-0.02611823 -0.022811718 0.077254951
-0.022108786 -0.025508348 0.077567995
-0.018192906 -0.029261112 0.076114655
-0.0077998 -0.033917755 0.07493633
-0.0011743819 -0.035097525 0.075609207
0.0023032548 -0.035292082 0.075613916
-0.026156064 -0.023454428 0.073126197
-0.022365926 -0.025999056 0.072131455
-0.018441398 -0.028917091 0.072639167
-0.0140633 -0.032808669 0.071573496
-0.0079852026 -0.032827225 0.071603835
-0.0029975288 -0.033393458 0.070928872
0.0018543489 -0.034551241 0.070818841
-0.021308936 -0.027320029 0.068620682
-0.018630305 -0.029876769 0.067754924
-0.014831235 -0.032982964 0.067424715
-0.0097875614 -0.03364433 0.067229986
-0.0055997963 -0.033558842 0.067133605
-0.017830998 -0.031285133 0.064130723
-0.014821148 -0.033416171 0.063829243
-0.011395469 -0.034249265 0.063411057
-0.026933571 -0.023025988 0.070314407
0.0021980796 -0.034956776 0.068773031
-0.026432741 -0.023022795 0.066442668
-0.02300005 -0.026251551 0.066108763
-0.020338351 -0.028883275 0.065303981
-0.0040372424 -0.033858333 0.064767182
0.00053347647 -0.033752378 0.064099491
-0.022104409 -0.026255701 0.061942279
-0.01895407 -0.029330276 0.061031044
-0.015399241 -0.032525107 0.060595632
-0.0095536821 -0.033802945 0.060400128
-0.0049269251 -0.033296138 0.060396433
-0.017564248 -0.029785382 0.056746721
-0.014961667 -0.032216556 0.057635248
-0.01106197 -0.033527285 0.057263255
0.0025138147 -0.03357983 0.060988069
-0.022568058 -0.024832692 0.058996379
-0.020178467 -0.027623836 0.058137119
-0.0040840236 -0.032896381 0.057023287
0.00080896635 -0.033118494 0.058120906
-0.026531681 -0.022330463 0.055054545
-0.023195034 -0.025339888 0.055158317
-0.019205457 -0.028576801 0.054080665
-0.014604092 -0.030896228 0.05342716
-0.0096254461 -0.032445036 0.053306401
-0.0049554603 -0.03292729 0.053254843
0.00054454245 -0.033296902 0.053137243
-0.022985812 -0.026251964 0.050447285
-0.019410063 -0.029083978 0.049564183
-0.014980724 -0.031394929 0.049748957
-0.010309095 -0.033055723 0.049368322
-0.0050708703 -0.033382192 0.048852563
-0.0015301378 -0.033634886 0.049916506
-0.01980892 -0.029621666 0.045908451
-0.015409425 -0.031905476 0.045036197
-0.010746646 -0.033613186 0.044692934
-0.0074817115 -0.034460992 0.045243442
-0.015927454 -0.032776635 0.041661143
-0.011206571 -0.034344543 0.041191995
-0.026410621 -0.022334479 0.048452437
-0.024261501 -0.024609178 0.047574461
-0.0032113725 -0.03297301 0.045811594
0.00062229112 -0.032522209 0.046257198
-0.025956219 -0.02235928 0.043681085
-0.023547538 -0.025849292 0.043599606
-0.019937325 -0.029559383 0.042750418
-0.004944385 -0.033691678 0.042435288
-0.001302762 -0.032363143 0.041536629
-0.023161009 -0.025991848 0.039081156
-0.020156642 -0.029605696 0.038635194
-0.015812248 -0.032144811 0.038427055
-0.010934967 -0.033377182 0.037988126
-0.0066405507 -0.03320691 0.038033962
-0.018863179 -0.030362045 0.034514129
-0.015750289 -0.031543706 0.034316063
-0.011784902 -0.032825645 0.033893645
0.0026849266 -0.03166195 0.042804539
0.00087640714 -0.032238759 0.040053546
-0.026652152 -0.022212887 0.037987053
-0.024330579 -0.024694758 0.037664592
-0.0040744999 -0.032676071 0.036029577
0.00028788578 -0.032917302 0.035835266
-0.027026122 -0.023655646 0.03335458
-0.02435651 -0.02596033 0.033098817
-0.020540129 -0.02896608 0.032764852
-0.01563905 -0.030991338 0.03172642
-0.010465536 -0.032698926 0.031734407
-0.0056829834 -0.033229936 0.032048523
-0.00096160825 -0.033652119 0.031011224
0.00329383 -0.033486668 0.031218231
-0.024434403 -0.026444901 0.028369427
-0.020706119 -0.029716546 0.028273582
-0.015960697 -0.031335846 0.027830601
-0.010951946 -0.032390285 0.027932405
-0.0063431114 -0.033279143 0.027513266
-0.020083522 -0.029892111 0.023899257
0.0014981637 -0.033175584 0.028405845
-0.024917517 -0.025152538 0.024647593
-0.010532639 -0.030940758 0.023447514
-0.0052690245 -0.032310314 0.023487151
-0.00077953842 -0.033320054 0.024225414
-0.024255022 -0.025337791 0.02132082
-0.020578666 -0.028531672 0.020865262
-0.015773863 -0.030061245 0.020329475
-0.010591767 -0.03073672 0.020076215
-0.0059809359 -0.031692207 0.019705534
-0.0013623331 -0.032649886 0.019335449
-0.020431373 -0.027753528 0.017322719
-0.011571726 -0.030580288 0.017062128
-0.024911076 -0.023196705 0.018269658
-0.0045326902 -0.03129442 0.017254531
0.00027747918 -0.032552931 0.017807126
-0.024606522 -0.024230914 0.014623106
-0.020745572 -0.02727145 0.014309525
-0.015698055 -0.029205298 0.01421982
-0.0106271 -0.030831888 0.014128327
-0.005957278 -0.032182004 0.01412046
-0.0010483945 -0.033531852 0.013404608
-0.024734616 -0.025146041 0.0091601014
-0.020894382 -0.027975932 0.0096897483
-0.016277542 -0.030096935 0.0096878409
-0.011596737 -0.032036368 0.009519279
-0.0065728631 -0.033093784 0.0085262656
-0.0020062998 -0.033871777 0.0082072616
-0.024575774 -0.027477235 0.0051698685
-0.021512721 -0.028951991 0.0052246451
-0.016705394 -0.03108751 0.004344523
-0.012280151 -0.032489285 0.0041925311
-0.0073370175 -0.033584546 0.0039426088
-0.026637428 -0.023804713 0.0073825717
0.00051573198 -0.033576254 0.0063252449
-0.026059972 -0.024078421 0.0029956102
-0.0051662773 -0.033483509 0.0017464757
-0.0019996157 -0.033028491 0.0019767284
0.0025065793 -0.03281555 0.00087052584
-0.021471657 -0.028120106 -0.00096058846
