# .PCD v0.7 - Point Cloud Data file format
VERSION 0.7
FIELDS x y z
SIZE 4 4 4
TYPE F F F
COUNT 1 1 1
WIDTH 307
HEIGHT 1
VIEWPOINT 0 0 0 1 0 0 0
POINTS 307
DATA ascii
0.02863327 0.011197358 0.18327653
0.030116508 0.010770351 0.18076602
0.030127389 0.014016682 0.18041906
0.025952697 -0.011273905 0.18369526
0.025658114 -0.0072932113 0.18381003
0.026087217 -0.0033437395 0.18302554
0.025725501 0.0006136091 0.18257406
0.025549445 0.0055226646 0.18275625
0.026279621 0.0097506065 0.18367177
0.026482191 0.013869422 0.1833967
0.028938277 -0.011348362 0.18095303
0.028841615 -0.0073898579 0.1806941
0.028707147 -0.0034328001 0.18040764
0.02844383 0.0011808103 0.17999533
0.028474638 0.0058023427 0.17979822
0.029664721 0.0093671177 0.17946681
0.030745983 0.01276609 0.17811719
0.030522721 -0.016043829 0.17616215
0.030234627 -0.011568558 0.17555332
0.029948168 -0.0077213887 0.17570624
0.029624972 -0.0036183305 0.1756376
0.029269543 0.00043401943 0.17451957
0.029413309 0.0049383971 0.17416504
0.030433211 0.0094313826 0.17416531
0.031138711 0.013518169 0.17413378
0.030687639 -0.014400958 0.17145959
0.030339973 0.0061227502 0.17023456
0.031191077 0.0098454067 0.16947961
0.031768493 0.013357408 0.16913927
0.032101393 0.01324947 0.1657322
0.020250831 -0.010696342 0.18370509
0.020541532 -0.0073518301 0.18375352
0.020064712 -0.0033730159 0.18322027
0.020107985 0.00062549842 0.18305963
0.020371351 0.0052900738 0.18302512
0.020790491 0.010244041 0.18381661
0.023845963 -0.011272222 0.18450245
0.023502946 -0.0033251625 0.18387473
0.022945609 0.0006372396 0.18328312
0.022757242 0.0039504385 0.1829887
0.029265914 -0.0070937709 0.17188141
0.029456684 -0.0037709179 0.17186782
0.029570613 -0.0011154976 0.17182815
0.029757552 -0.011877185 0.1688045
0.029611843 -0.0078972401 0.16850823
0.029460721 -0.003917336 0.16820794
0.02932569 6.4249769e-05 0.16791946
0.029600706 0.0044391882 0.16755483
0.030514393 0.0084516453 0.16720098
0.029589262 -0.012131791 0.16315812
0.029496636 -0.0081360443 0.1629011
0.029617462 -0.0041329633 0.16280675
0.029620988 -0.0001355221 0.16262308
0.029580729 0.0045229532 0.16237468
0.030427082 0.0091938982 0.16280216
0.031646032 0.013162137 0.16262856
0.03196156 0.01679696 0.16224074
0.030679209 -0.010908297 0.16023302
0.030599663 -0.0082445573 0.16004816
0.030484352 -0.0035821893 0.15974301
0.030496512 -0.001582103 0.15965962
0.030062659 0.0097356634 0.1588003
0.031258006 0.013074672 0.15956551
0.016779337 -0.0070760543 0.18332523
0.01641798 -0.0033905159 0.18334705
0.016692333 0.00083762908 0.18373087
0.01691498 0.0050251437 0.1831665
0.030058827 -0.013041507 0.15762249
0.029964413 -0.0083901184 0.15677702
0.030098371 -0.0045491913 0.15710121
0.02976542 -0.00018342667 0.1569396
0.029458217 0.0041493229 0.15690318
0.029292636 0.0084734792 0.15570819
0.029980864 0.012980874 0.15580064
0.030690858 0.016291788 0.15526846
0.029712746 -0.013210504 0.15400615
0.029684136 -0.0085206823 0.15376756
0.029627988 -0.0045037996 0.1535385
0.028895156 -0.001849441 0.15284508
0.028965304 0.01021081 0.15234339
0.029586758 0.012892926 0.15270376
0.009885856 -0.0020836368 0.18322259
0.010591201 0.00098806247 0.18403146
0.011105163 0.0046858662 0.18375686
0.012079035 -0.0034308403 0.18300515
0.013349124 -2.9642615e-05 0.18374202
0.013355715 0.0046692155 0.18352017
0.028950844 -0.013376131 0.15060771
0.029035041 -0.00866812 0.15045732
0.028930716 -0.0046418454 0.15019056
0.027951734 -0.00044935182 0.14993376
0.027718561 0.0034174148 0.14980805
0.027763316 0.0079318965 0.14946491
0.02829051 0.012797455 0.14888626
0.028268032 -0.013477892 0.14644501
0.028411083 -0.0085769501 0.1463874
0.028286014 -0.0048171217 0.14592773
0.02802413 -0.0010462647 0.14573699
0.027695622 0.0032497945 0.14509189
0.027806129 0.0076827132 0.14511067
0.027623024 0.012289017 0.14448553
0.0072650057 -0.0036085767 0.18351996
0.0066944361 0.00036592863 0.18379891
0.027163727 -0.013883273 0.14299494
0.027464747 -0.0093349041 0.14312106
0.028082933 -0.0049384213 0.14293841
0.027773075 -0.0005431844 0.14296454
0.027413402 0.0031422793 0.14203733
0.027244909 0.0071895667 0.1417186
0.027571525 0.011917976 0.14176223
0.026581611 -0.0084588239 0.14000589
0.027441042 -0.005076908 0.13958639
0.027225086 -0.001022896 0.13922888
0.026977096 0.0030305381 0.1388464
0.026642306 0.0070842933 0.13839424
0.026615636 0.011821365 0.13815725
0.0020588636 0.00064096507 0.1840474
0.025437713 -0.0095883915 0.13771397
0.026046855 -0.0066030803 0.13567919
0.025944829 0.0029037797 0.13516563
0.025665266 0.0069717905 0.13475618
0.025654282 0.011045239 0.13456246
0.025746958 0.013760681 0.1345138
0.02434562 -0.009158073 0.13365912
0.02492043 -0.0050608711 0.13355255
0.025252001 -0.0010502147 0.13341784
0.025250521 0.0027842554 0.13173687
0.025361283 0.0068704602 0.13164139
0.025334153 0.010952811 0.1314345
0.024882011 0.0040374072 0.12849793
0.025279539 0.0081367698 0.12863648
0.024816923 0.010175417 0.12816817
-0.0030883721 0.00064021128 0.18417889
0.022566319 -0.010754868 0.12985653
0.022774203 -0.0055237981 0.12914643
0.023641298 -0.0020728756 0.12969315
0.021851778 -0.010442088 0.1266855
0.022161024 -0.0056250514 0.12671983
0.02301928 -0.0012372684 0.12644568
0.023736119 0.0023953891 0.12546358
0.024156179 0.0065095243 0.12562191
0.023566246 0.010961177 0.12462842
-0.0078715943 -0.0039410531 0.18482926
-0.0077998126 0.00086395995 0.18504125
0.0214449 -0.010585241 0.12344724
0.02121474 -0.0057777809 0.12304252
0.021928005 -0.0019887709 0.1229704
0.020203574 -0.00041211417 0.1190477
0.021592243 0.0027101114 0.11956227
0.021418231 0.0064763222 0.11876196
0.020957503 0.010601582 0.1181972
0.018571667 -0.0066658729 0.11667508
0.018583672 -0.0021661194 0.11661494
0.018958161 0.0018659114 0.11497676
0.019185152 0.0063362056 0.11398464
0.017860804 -0.0075720795 0.11350662
0.017653584 -0.00063412776 0.11302513
0.01757082 0.0021410517 0.11283261
0.018984728 0.0069608856 0.11182249
0.017148666 -0.007904565 0.11038905
0.017272405 -0.0030018701 0.11065865
0.017279711 0.0020286224 0.10963231
0.017712491 0.0058461535 0.10933
0.017127259 -0.0078450786 0.10697132
0.016924331 -0.003665918 0.10661572
0.016531348 -0.00018973043 0.10613179
0.016370058 0.0067833681 0.10568726
0.015785389 -0.0080232499 0.102862
0.01551216 -0.0038307591 0.10244578
0.015157547 0.00091213372 0.10268521
0.014859693 0.0051902826 0.10182971
0.016137447 -0.0080264807 0.098407507
0.015357001 -0.004322357 0.098834693
0.015082036 0.00058283511 0.098385036
0.01533258 0.0048791366 0.097349524
0.016315904 0.0056862747 0.093689799
0.015253749 -0.0037978222 0.096012473
0.01525661 -0.00014292276 0.095854402
0.01569036 0.0029315418 0.095286191
0.015682034 -0.0042502279 0.09156096
0.015989747 -1.6597067e-05 0.091641724
0.016632609 0.0040360996 0.091766596
0.016560368 0.0084028859 0.09075737
0.016255924 -0.0043855323 0.088016868
0.016274163 0.0001800919 0.087326705
0.016372154 0.0040493766 0.086938977
0.016167793 0.0082680481 0.086375356
0.015632017 -0.0044860612 0.085447729
0.015310407 -0.0009629539 0.085014522
0.015417593 0.0039865645 0.084893405
0.0155539 -0.004645959 0.081308424
0.015622361 -0.00039494503 0.081185043
0.015649693 0.0038532654 0.081025839
0.015769653 0.0081004445 0.080947816
0.01572551 -0.0051722149 0.076876581
0.015891194 -0.00011114654 0.07595104
0.016132133 0.0036554141 0.075318754
0.016625252 0.0079194279 0.075573385
0.016973274 0.0006950713 0.072083056
0.017087767 0.0035381441 0.072064221
0.01760694 0.0079256762 0.070539653
0.015436394 -0.0046501695 0.07382232
0.015666911 -0.0016134391 0.073760331
0.01569123 -0.0051161889 0.069114327
0.01620836 -0.0010114922 0.069146156
0.017155614 0.0034343649 0.069035232
0.017914603 0.0062592104 0.068567216
0.01607573 -5.0843126e-05 0.064409554
0.016546778 0.0032866423 0.064556301
0.016967449 0.0075509208 0.064103842
0.015413301 -0.005326102 0.063685596
0.015804188 -0.0017763545 0.062849402
0.016219292 0.0024865298 0.062006056
0.016917178 -0.0054695774 0.059850872
0.016873548 -0.001188906 0.059369862
0.016677363 0.0032758529 0.05900234
0.016738568 0.0071732751 0.058559
0.018143024 -0.0056647318 0.054708838
0.018156307 -0.0013664251 0.054542005
0.017962167 0.0029243093 0.054183722
0.018152986 0.0072213253 0.054180324
0.01973881 -0.010147396 0.050076067
0.019605365 -0.0058505498 0.049773097
0.019502265 -0.0015527364 0.049498498
0.019404123 0.0027450279 0.049228489
0.019240482 0.0070409817 0.048897266
0.021356259 -0.01033076 0.0452739
0.021146946 -0.0062155714 0.045511067
0.021045737 -0.0019028859 0.044897199
0.021068983 0.0025716359 0.044471204
0.020993369 0.0068715299 0.044222832
0.022392921 -0.011173118 0.042058468
0.022523148 -0.0076197847 0.040976405
0.021628261 -0.0025857347 0.040978074
0.022843633 0.0024002634 0.039812386
0.022978051 0.0067064529 0.039765656
0.022319147 0.010999277 0.038960159
0.023624999 0.002994234 0.036287665
0.024521215 0.0071332622 0.035707057
0.024648838 0.010830631 0.034563482
0.025894353 0.010711671 0.031245768
0.020900693 -0.0054066973 0.042522669
0.020716719 -0.00038299299 0.042141795
0.022164907 -0.010371603 0.039076447
0.021881614 -0.0058508711 0.038924694
0.021991048 -0.0017492145 0.038558364
0.021797214 0.01099358 0.038460732
0.023740616 -0.010738884 0.034824431
0.023641808 -0.0064258887 0.034554183
0.023283415 -0.0021216553 0.034033
0.023652844 0.0019782004 0.033614278
0.023797784 0.0057663545 0.033144057
0.023152981 0.010883744 0.035512269
0.025578005 -0.010913403 0.030202091
0.025474191 -0.006599009 0.029926956
0.024584362 -0.0023110828 0.02888447
0.024724143 0.0020138053 0.02884692
0.025234427 0.0063425153 0.02917254
0.025962608 0.010627517 0.028428257
0.026428649 -0.01109146 0.025677681
0.02629602 -0.0067724446 0.025374293
0.025590369 -0.0024717343 0.024506152
0.025275197 0.0021414002 0.024226129
0.026137335 0.0061639375 0.023893416
0.026874304 0.010486691 0.024179995
0.026056359 -0.011241351 0.022081137
0.025915861 -0.0069123856 0.021769643
0.026488781 0.0067475033 0.019634962
0.027942386 0.010497429 0.019045472
0.028823886 0.010193146 0.015343368
0.028047476 0.014573066 0.016556859
0.024851561 0.00035352103 0.022585571
0.026196394 -0.011366917 0.018979847
0.025967309 -0.0070174178 0.019043386
0.02553698 -0.0026699863 0.01906091
0.02540987 0.0016658334 0.018762469
0.026125073 0.0050093937 0.017899036
0.026678171 -0.011565154 0.014038622
0.026676485 -0.0072148121 0.013866127
0.02630496 -0.0028800257 0.013322175
0.026589427 0.0014761135 0.013436854
0.027382188 0.0058371015 0.014063418
0.027848635 0.0099184169 0.013648331
0.027595537 0.014494327 0.013316691
0.027047651 -0.01127015 0.0093086958
0.026851058 -0.0073752161 0.009686172
0.027142677 -0.0015579663 0.0097541809
0.027687652 0.0017093794 0.0083051324
0.028294036 0.0056480565 0.0084564686
0.028459566 0.0099960798 0.0084545016
0.028054528 0.014336137 0.0078729987
0.028858833 0.0062461607 0.0046333671
0.028481994 0.0098676309 0.0041068196
0.028300116 0.013493275 0.0037797093
0.026435392 -0.012299173 0.0079970956
0.026232004 -0.0074855671 0.0068719983
0.025977628 -0.0033882195 0.0073296428
0.026943684 -0.0001890275 0.0073112249
0.02648633 -0.01202044 0.0029096603
0.025859509 -0.0076600383 0.002374649
0.025709612 -0.0028695746 0.0020745397
0.026768906 0.00088028301 0.0020700097
0.028153591 0.0050902977 0.0023076534
0.028336542 0.0098009044 0.0017638803
0.028158188 0.013431887 0.0014400482
0.025956171 -0.0077520143 -4.3511391e-06
0.025524361 -0.0048051542 0.00054246187
