# .PCD v0.7 - Point Cloud Data file format
VERSION 0.7
FIELDS x y z
SIZE 4 4 4
TYPE F F F
COUNT 1 1 1
WIDTH 388
HEIGHT 1
VIEWPOINT 0 0 0 1 0 0 0
POINTS 388
DATA ascii
0.025180824 0.035743188 0.17980516
0.026585296 0.03037722 0.18172604
0.022720039 0.032664642 0.18217123
0.018021004 0.033684928 0.18209666
0.012887323 0.035308596 0.18165144
0.0078985095 0.036765359 0.1803613
0.0031259293 0.037662107 0.17990029
-0.0004652217 0.038568776 0.17905053
0.029957687 0.029464841 0.17784902
0.028060663 0.033129558 0.17851242
0.023731597 0.036094319 0.17869589
0.01970543 0.036991891 0.17837846
0.014520612 0.038407262 0.17773041
0.0088028871 0.038476221 0.17615825
0.0043855533 0.038919564 0.17653072
0.028385751 0.033805285 0.17378041
0.024887463 0.037038822 0.17443967
0.020514384 0.038438343 0.17400995
0.014928009 0.038813021 0.17263788
0.0098690027 0.038691908 0.1729508
0.02756601 0.034768764 0.16932708
0.025255293 0.037262201 0.16921818
0.020920875 0.038801126 0.16887981
0.017009957 0.039292835 0.16804624
0.026184756 0.037045788 0.16570318
0.023676554 0.023591481 0.18347222
0.019828573 0.025667364 0.18375272
0.015648788 0.027689328 0.1837303
0.010776991 0.029098073 0.18304506
0.0052816002 0.030296799 0.18278214
0.00080820266 0.032134965 0.18302909
0.028801704 0.025430605 0.18006745
0.025312888 0.025640247 0.18208432
0.020957872 0.028363436 0.18286192
0.018215407 0.029809076 0.18291506
0.013907259 0.031444538 0.18264103
0.006651307 0.033976898 0.18205443
0.0029275231 0.035006505 0.18160146
-0.0017221645 0.038024589 0.17947915
0.031249957 0.026648682 0.17591584
0.0039057164 0.03933109 0.17417949
-0.00065233558 0.039639242 0.17416197
0.031305291 0.028987871 0.17184174
0.029685695 0.031993549 0.17104575
0.008963611 0.038827255 0.1704281
0.0045299213 0.039621048 0.17014953
-0.00030385517 0.039985474 0.1689859
0.031159747 0.030962657 0.16720277
0.029172603 0.033212651 0.1676963
0.01366862 0.039152551 0.16700292
0.0096924622 0.039539412 0.16608846
0.0047622919 0.039736409 0.16570625
0.00075889099 0.04020752 0.16575381
0.033249445 0.031910095 0.16262558
0.029350594 0.034209885 0.16309452
0.025110945 0.036642514 0.16279107
0.020960875 0.038172435 0.16302422
0.015959417 0.039022118 0.16248888
0.011462959 0.039353266 0.16220275
0.033897147 0.034494299 0.1581412
0.029838335 0.03512875 0.15788728
0.025591224 0.03659964 0.15790147
0.021623248 0.037983749 0.15783939
0.017879341 0.038252987 0.15849155
0.033606216 0.035241835 0.15387923
0.019805565 0.017220445 0.18358901
0.016906016 0.018341672 0.18341592
0.012660449 0.020298501 0.18333668
0.00837084 0.022130024 0.1831761
0.0031793225 0.023776297 0.18266636
-0.0014752252 0.026781555 0.1830551
0.023101402 0.020307422 0.18393153
0.018533658 0.022521183 0.1843608
0.01417707 0.024114517 0.18404999
0.0095166536 0.024910353 0.18321291
0.0051202518 0.026417276 0.18284321
0.031865958 0.027061325 0.16464508
0.0045586601 0.038942311 0.16242033
-0.00040787365 0.039749525 0.16278267
0.034367822 0.029721506 0.16094953
0.015943646 0.037732724 0.15946227
0.0096315062 0.038156994 0.15903467
0.0048298808 0.037905458 0.15880191
-0.0001851432 0.039369013 0.15899301
0.026613686 0.036615729 0.15450835
0.019511979 0.037846919 0.1559481
0.015773678 0.03734339 0.15524176
0.010858947 0.037104897 0.1546874
0.033699423 0.035055615 0.15100393
0.030363519 0.03472805 0.15237162
0.025637448 0.0364943 0.15175489
0.021249559 0.037464283 0.15158138
0.016720561 0.037246209 0.15073109
0.028644193 0.034563713 0.14826313
0.025720961 0.03561436 0.14804074
0.02142226 0.037301846 0.14686561
0.015226495 0.015221061 0.18351662
0.011041461 0.016333919 0.18344548
0.0065577705 0.018388931 0.18374595
0.0021025492 0.020392083 0.18311155
0.003142003 0.037674416 0.1563198
-0.00048212428 0.038400877 0.15582421
0.0090214442 0.037310086 0.15235776
0.0044654822 0.037754077 0.15240899
-0.00031645689 0.038391285 0.15139186
0.015255614 0.037535783 0.14860678
0.010735894 0.037642896 0.14875114
0.0053187869 0.038464751 0.14729309
0.00060188398 0.038225412 0.14781773
0.029706173 0.033206347 0.14532897
0.025724664 0.03521812 0.14498454
0.021516109 0.037177876 0.14400363
0.016582318 0.037570372 0.14464778
0.011627139 0.037820954 0.14426473
0.007937355 0.038419127 0.143848
0.023873674 0.034289163 0.1410282
0.021424133 0.036676686 0.14178252
0.018010309 0.036456041 0.14061835
0.0041743377 0.012034304 0.18380669
-9.9568628e-05 0.014044096 0.18374532
0.009151157 0.011648115 0.18310905
0.0059814556 0.01434852 0.18372464
0.0008607246 0.016302824 0.18340448
-0.00059979875 0.037708592 0.14472911
0.03009305 0.028883811 0.14236084
0.01148303 0.037122134 0.14096212
0.0053427536 0.038294889 0.14132017
5.3438358e-05 0.038245685 0.14012912
0.028064016 0.032085922 0.14091226
0.024999764 0.032536991 0.13837823
0.020938613 0.034981102 0.13773957
0.016076047 0.036047187 0.13765082
0.0116504 0.037119579 0.13722497
0.0065257819 0.038520917 0.13673082
0.0016261358 0.038835466 0.1355949
-0.0027192729 0.039421596 0.13623753
0.024572 0.033353329 0.13344428
0.021217564 0.035097428 0.13314843
0.016730431 0.036545996 0.13270128
0.01227162 0.038075477 0.13231385
0.0078550689 0.039164495 0.13220549
0.0043833051 0.039585456 0.13182506
0.021347258 0.035741117 0.12901959
0.018534895 0.036398042 0.12934285
0.0070557948 0.0065435097 0.18344492
0.0024388251 0.0078319274 0.18381804
0.024943668 0.027466457 0.13327366
-0.00056867395 0.038185373 0.13325536
0.0068570236 0.039128739 0.12942463
0.0012854552 0.038820323 0.12944129
-0.0020353626 0.03832864 0.12811869
0.021041621 0.035863977 0.12594014
0.016677611 0.036220264 0.12650263
0.01229454 0.037474055 0.12619957
0.0075268466 0.038273878 0.12524766
0.0036061946 0.038514197 0.12548056
0.020204475 0.035493772 0.12255621
0.016791087 0.035513461 0.12247729
0.012989637 0.036634658 0.12202704
0.00011745462 0.0022152658 0.18386191
0.021918636 0.02730432 0.12456223
0.020361226 0.027405167 0.12221441
0.001956257 0.038461052 0.12301451
-0.0027444726 0.038175076 0.12202683
0.020828588 0.032751791 0.12193838
0.016653402 0.03478308 0.11906135
0.011894173 0.036334161 0.11900681
0.007292456 0.03706149 0.11860305
0.0029920479 0.037764724 0.11837238
-0.0017289184 0.038213644 0.11849517
0.019283855 0.032375131 0.11539727
0.016444018 0.03433349 0.11440355
0.012434925 0.035974883 0.11391395
0.0078500286 0.036930598 0.11432427
-0.0020550094 -0.0030072718 0.18420148
0.018323276 0.030041041 0.11551863
0.0011614366 0.037281901 0.11554933
-0.0028886069 0.037856005 0.11540502
0.017530423 0.034001742 0.11202008
0.010823179 0.03651914 0.11157423
0.0073356726 0.037301332 0.11177534
0.0024773525 0.037274051 0.1114046
-0.0021070596 0.037515182 0.11040586
0.016555667 0.033777699 0.10789341
0.012483619 0.035949748 0.10780674
0.0078568486 0.037260678 0.10721648
0.0037091533 0.037234981 0.10628039
0.015533822 0.03451683 0.10388887
0.012406023 0.036096081 0.10316455
0.0084289145 0.037154749 0.10290438
-0.00024349149 -0.010471572 0.18591383
-0.0043506329 -0.0084338896 0.18537295
0.017686589 0.02780872 0.10994452
0.018319581 0.028869549 0.10592574
0.017822769 0.03175183 0.10473448
0.0015076697 0.037460033 0.10484928
-0.00228668 0.037826166 0.10536903
0.016799325 0.03313252 0.10171717
0.013000676 0.035325643 0.10017115
0.0077519724 0.037116442 0.099997163
0.0033417707 0.037726767 0.10075051
-0.0020644767 0.037933089 0.10057765
0.016877146 0.031980034 0.097465932
0.012348679 0.035264552 0.096650839
0.0084236469 0.036691256 0.096358001
0.0030595735 0.03729108 0.096829712
0.017435776 0.025959529 0.099745572
0.015820215 0.029725982 0.092804313
0.013485292 0.032685831 0.094069004
0.0060986648 0.035923086 0.093894243
0.0021853829 0.035943322 0.093144894
-0.0024534194 0.03644653 0.093489587
0.015624523 0.030647937 0.090169191
0.012115952 0.033152837 0.089948535
0.0076155611 0.034954187 0.08972609
0.0027895551 0.035931837 0.088833094
-0.0018204907 0.036716938 0.08908093
0.012078811 0.033667121 0.085778296
0.0080098342 0.035430029 0.085167825
0.0043358076 0.03644006 0.085002601
0.016291365 0.028857799 0.087683618
-0.0024381606 0.036891498 0.086290598
0.014888536 0.029235903 0.083457291
0.013100659 0.032597862 0.082515121
0.008189912 0.035570472 0.082303524
0.0027680639 0.036683314 0.082644224
-0.0016807551 0.037277829 0.082271874
0.012726022 0.033946712 0.078870237
0.0085388925 0.036034044 0.078700006
0.0038152058 0.036804281 0.07793349
-0.0011983495 0.036979109 0.077670097
0.012164585 0.034372553 0.073993862
0.0085509922 0.035632905 0.074363768
0.016465902 0.026049912 0.084463239
0.01508279 0.026493011 0.080267191
0.015082181 0.026107719 0.076946795
0.014071222 0.029238062 0.075752437
-0.0028497456 0.036024444 0.074930847
0.013708517 0.030721644 0.071433604
0.0087448107 0.034734886 0.071242929
0.0028193165 0.035000745 0.071425259
-0.0019854335 0.035621207 0.070850432
0.013896985 0.031987373 0.067715168
0.0093123242 0.034908392 0.067749381
0.0043331636 0.035130195 0.066757977
-7.4502081e-05 0.035609148 0.067382693
0.013237102 0.033029214 0.063838542
0.010908275 0.035094548 0.063720047
0.0071311868 0.035404049 0.063491225
0.014821101 0.021227837 0.077544451
0.01557686 0.023717413 0.073904753
0.015978474 0.025253497 0.069480002
0.016147489 0.027414953 0.065930426
0.015297524 0.029574167 0.065133393
0.0024452014 0.035704609 0.064872205
-0.0013629273 0.035879802 0.065089166
0.014375811 0.031156976 0.060805321
0.010193294 0.034983352 0.060614824
0.0053058751 0.035565086 0.060668349
0.0005106926 0.035349272 0.060698688
0.013921824 0.0317907 0.056969702
0.01065254 0.03355049 0.056621194
0.0060457531 0.034243148 0.056076109
0.012530127 0.011758746 0.081545651
0.014567763 0.015925139 0.074811399
0.01603283 0.019356901 0.073568404
0.016575599 0.020013168 0.068031847
0.016657632 0.023128584 0.063245952
0.016635535 0.025176879 0.058900774
0.015278632 0.028634325 0.057207286
-0.00061316788 0.034279123 0.056744695
0.016783215 0.026563311 0.054648697
0.014665411 0.030442445 0.053562343
0.0098570213 0.033235818 0.053312421
0.00506886 0.033763792 0.052963495
-9.7487122e-05 0.034313265 0.052990258
0.017923094 0.028111849 0.049800754
0.015008879 0.031961385 0.049393952
0.010781908 0.033622578 0.049166501
0.0052478532 0.033797331 0.048871517
1.4853664e-05 0.034304149 0.049889326
0.019192569 0.030206576 0.045081019
0.015913514 0.03250099 0.045055747
0.01080851 0.034366846 0.04467696
0.0071601551 0.034721084 0.044800937
0.02007512 0.032317508 0.041079402
0.01642618 0.033850886 0.040537119
0.011858184 0.035025205 0.041089296
0.020079143 0.033646151 0.037442565
0.018475749 0.03408714 0.037212908
0.012523061 0.010789551 0.073690176
0.015745306 0.013770109 0.069575906
0.016680617 0.015625445 0.066007793
0.01734267 0.021001039 0.060706019
0.017546181 0.021002226 0.056609452
0.01973835 0.021027029 0.048989475
0.018165119 0.023725506 0.052107036
0.020863017 0.023546057 0.047022045
0.019628949 0.026148174 0.047994673
0.0035407878 0.033805586 0.046542645
3.9195642e-05 0.034074519 0.046583533
0.02261569 0.025556698 0.042794883
0.021110866 0.028222647 0.044264853
0.0045542056 0.034110133 0.042491615
0.00032866094 0.033775266 0.041459024
0.023770014 0.027383512 0.038224041
0.021911204 0.030707048 0.039556026
0.0110032 0.03456581 0.037591159
0.0069825496 0.034284979 0.037977338
0.023897808 0.029307529 0.033360481
0.02173668 0.032440744 0.034724593
0.016663119 0.033719193 0.034171522
0.011694958 0.033893924 0.033824623
0.024628541 0.030743157 0.030460835
0.021952378 0.032972425 0.030157685
0.017757058 0.033755999 0.030334771
0.016405907 0.014165891 0.059680343
0.017639346 0.016550768 0.054476321
0.019284261 0.017761277 0.049604595
0.021700464 0.020099845 0.045609891
0.023470439 0.021514874 0.041663706
-0.0016048495 0.033769835 0.038404644
0.024784096 0.023113303 0.037481785
0.0042843223 0.033137802 0.035743594
0.0002593128 0.033648379 0.035781324
0.02553338 0.026619099 0.032952189
0.014636549 0.032806382 0.030628562
0.0094330171 0.033440478 0.031402886
0.005706083 0.033880491 0.031943917
0.00061834604 0.034052949 0.030889511
0.028240608 0.025982628 0.028081715
0.026317731 0.02877561 0.028834999
0.021805622 0.03215722 0.026272118
0.016068384 0.032617938 0.027253747
0.01143146 0.032923143 0.028052926
0.0064279665 0.033693668 0.027540863
0.029332671 0.028121423 0.023690104
0.026467023 0.030033309 0.024148524
0.021994177 0.032357376 0.024082661
0.017225888 0.032432739 0.023414075
0.029741731 0.028643204 0.019938886
0.0266669 0.030856702 0.019701004
0.022672864 0.032599926 0.019625425
0.0098869735 0.03159865 0.023725331
0.0052214959 0.032386839 0.023206651
0.00067455508 0.033654958 0.024791241
0.015266571 0.031720005 0.020002782
0.011152972 0.03152496 0.02008003
0.0059717791 0.031869743 0.019516289
0.0012521977 0.032476604 0.020241857
0.029791821 0.026096672 0.016878605
0.027259503 0.029864857 0.016218841
0.021632612 0.031572692 0.015522897
0.016544573 0.031468119 0.016303241
0.011456296 0.031215386 0.015349269
0.029508322 0.027179316 0.013287067
0.027154591 0.030281277 0.012714744
0.022621058 0.031607714 0.012330651
0.017772287 0.031065453 0.012452483
0.026167721 0.030292185 0.0083706975
0.023605106 0.031457786 0.008361876
0.0037587453 0.031629775 0.017237663
6.2392093e-05 0.032356281 0.017920434
0.0099278959 0.031385053 0.013482034
0.0058919834 0.03201602 0.013966262
0.00094176177 0.033264536 0.013156235
0.020156002 0.030580081 0.0093071461
0.016119692 0.031192698 0.0097730756
0.011587214 0.032012507 0.0094967484
0.00639119 0.032629363 0.0080912113
0.0015913341 0.033296958 0.0085124373
0.029929634 0.026049651 0.0054467916
0.027693111 0.029245257 0.0059071183
0.021908324 0.031436749 0.0055357218
0.017086331 0.031471197 0.0045178533
0.012194254 0.032070868 0.0045159459
0.0083711985 0.032597531 0.0044116378
0.030251255 0.027342934 0.00056302547
0.027714863 0.030150369 0.00079375505
0.023147848 0.03184706 0.00074851513
0.018992919 0.03120462 0.00061458349
0.0021011038 0.033175029 0.0058660507
0.0097657507 0.031269509 0.0016641617
0.005967963 0.031896546 0.0016493201
0.0017505391 0.032401405 0.0013843179
-0.002344273 0.03250058 0.0011383891
0.011772132 0.030473407 -0.0013233423
-0.0030632326 0.032799866 -0.0010924935
