# .PCD v0.7 - Point Cloud Data file format
VERSION 0.7
FIELDS x y z
SIZE 4 4 4
TYPE F F F
COUNT 1 1 1
WIDTH 388
HEIGHT 1
VIEWPOINT 0 0 0 1 0 0 0
POINTS 388
DATA ascii
0.021583563 0.030637022 0.17980516
0.022787396 0.026037619 0.18172604
0.019474318 0.027998267 0.18217123
0.015446575 0.028872792 0.18209666
0.011046277 0.030264512 0.18165144
0.0067701517 0.031513166 0.1803613
0.0026793675 0.032281805 0.17990029
-0.00039876159 0.033058953 0.17905053
0.025678018 0.02525558 0.17784902
0.024051998 0.028396763 0.17851242
0.02034137 0.03093799 0.17869589
0.016890369 0.031707335 0.17837846
0.012446238 0.032920513 0.17773041
0.007545331 0.032979619 0.17615825
0.0037590461 0.033359628 0.17653072
0.024330644 0.028975956 0.17378041
0.021332113 0.031747561 0.17443967
0.017583758 0.032947153 0.17400995
0.012795438 0.033268306 0.17263788
0.0084591452 0.03316449 0.1729508
0.023628009 0.029801793 0.16932708
0.021647394 0.03193903 0.16921818
0.017932178 0.03325811 0.16887981
0.014579963 0.033679575 0.16804624
0.022444079 0.031753529 0.16570318
0.020294189 0.020221269 0.18347222
0.016995918 0.022000596 0.18375272
0.013413247 0.023733711 0.1837303
0.0092374198 0.024941206 0.18304506
0.0045270859 0.025968686 0.18278214
0.00069274474 0.027544258 0.18302909
0.024687175 0.021797663 0.18006745
0.021696761 0.021977356 0.18208432
0.01796389 0.024311516 0.18286192
0.015613206 0.025550637 0.18291506
0.011920508 0.026952462 0.18264103
0.0057011195 0.029123055 0.18205443
0.0025093062 0.030005576 0.18160146
-0.0014761407 0.032592505 0.17947915
0.026785677 0.022841727 0.17591584
0.0033477573 0.033712368 0.17417949
-0.00055914558 0.033976492 0.17416197
0.026833106 0.024846746 0.17184174
0.025444882 0.027423043 0.17104575
0.0076830955 0.033280507 0.1704281
0.0038827891 0.033960897 0.17014953
-0.00026044622 0.034273263 0.1689859
0.026708355 0.026539423 0.16720277
0.025005089 0.028467985 0.1676963
0.01171596 0.03355933 0.16700292
0.0083078258 0.033890925 0.16608846
0.0040819636 0.034059778 0.16570625
0.00065047853 0.034463592 0.16575381
0.028499525 0.027351508 0.16262558
0.025157653 0.029322762 0.16309452
0.021523666 0.031407874 0.16279107
0.017966464 0.032719232 0.16302422
0.013679502 0.03344753 0.16248888
0.0098253936 0.033731371 0.16220275
0.029054696 0.029566543 0.1581412
0.025575716 0.030110357 0.15788728
0.021935334 0.03137112 0.15790147
0.018534213 0.032557499 0.15783939
0.015325149 0.032788277 0.15849155
0.028805327 0.030207286 0.15387923
0.0169762 0.014760382 0.18358901
0.014490871 0.015721433 0.18341592
0.010851814 0.017398715 0.18333668
0.007175006 0.018968591 0.1831761
0.0027251341 0.020379683 0.18266636
-0.001264479 0.022955617 0.1830551
0.019801203 0.017406363 0.18393153
0.015885994 0.019303869 0.1843608
0.012151774 0.020669585 0.18404999
0.0081571322 0.02135173 0.18321291
0.0043887878 0.02264338 0.18284321
0.027313679 0.023195423 0.16464508
0.0039074235 0.033379126 0.16242033
-0.00034960546 0.034071021 0.16278267
0.029458132 0.025475577 0.16094953
0.013665983 0.032342333 0.15946227
0.0082555767 0.032705996 0.15903467
0.0041398983 0.032490395 0.15880191
-0.00015869364 0.033744872 0.15899301
0.022811733 0.031384915 0.15450835
0.016724555 0.032440212 0.1559481
0.013520297 0.032008622 0.15524176
0.0093076704 0.0318042 0.1546874
0.028885219 0.030047672 0.15100393
0.026025875 0.029766902 0.15237162
0.021974955 0.031280827 0.15175489
0.018213909 0.032112241 0.15158138
0.01433191 0.031925321 0.15073109
0.024552163 0.029626036 0.14826313
0.02204654 0.030526595 0.14804074
0.018361937 0.031973008 0.14686561
0.013051281 0.013046624 0.18351662
0.0094641093 0.014000501 0.18344548
0.0056209457 0.01576194 0.18374595
0.0018021851 0.01747893 0.18311155
0.0026931446 0.032292355 0.1563198
-0.00041324925 0.032915033 0.15582421
0.0077326661 0.031980075 0.15235776
0.003827556 0.032360639 0.15240899
-0.00027124863 0.032906815 0.15139186
0.013076241 0.032173533 0.14860678
0.0092021953 0.032265343 0.14875114
0.0045589595 0.032969784 0.14729309
0.00051590055 0.032764636 0.14781773
0.025462436 0.028462585 0.14532897
0.022049712 0.030186962 0.14498454
0.018442379 0.031866748 0.14400363
0.014213415 0.032203175 0.14464778
0.0099661192 0.03241796 0.14426473
0.0068034474 0.03293068 0.143848
0.020463148 0.029390711 0.1410282
0.018363543 0.031437159 0.14178252
0.015437409 0.031248039 0.14061835
0.0035780042 0.010315118 0.18380669
-8.5344538e-05 0.012037797 0.18374532
0.0078438492 0.0099840974 0.18310905
0.0051269615 0.012298732 0.18372464
0.00073776394 0.01397385 0.18340448
-0.00051411241 0.032321651 0.14472911
0.025794044 0.024757553 0.14236084
0.009842596 0.031818971 0.14096212
0.0045795022 0.032824188 0.14132017
4.5804307e-05 0.032782014 0.14012912
0.02405487 0.027502218 0.14091226
0.021428369 0.027888846 0.13837823
0.017947381 0.029983802 0.13773957
0.01377947 0.030897589 0.13765082
0.0099860579 0.031816784 0.13722497
0.0055935271 0.03301793 0.13673082
0.0013938304 0.033287544 0.1355949
-0.0023308061 0.03378994 0.13623753
0.021061715 0.028588571 0.13344428
0.018186484 0.030083509 0.13314843
0.01434037 0.031325139 0.13270128
0.010518532 0.032636125 0.13231385
0.0067329155 0.033569567 0.13220549
0.0037571192 0.033930395 0.13182506
0.018297652 0.030635243 0.12901959
0.015887054 0.031198323 0.12934285
0.0060478244 0.0056087226 0.18344492
0.0020904215 0.0067130807 0.18381804
0.021380289 0.02354268 0.13327366
-0.00048743561 0.032730319 0.13325536
0.0058774492 0.033538923 0.12942463
0.0011018179 0.033274565 0.12944129
-0.0017445972 0.032853119 0.12811869
0.018035674 0.03074055 0.12594014
0.014295096 0.031045942 0.12650263
0.010538178 0.032120619 0.12619957
0.0064515835 0.03280618 0.12524766
0.0030910242 0.03301217 0.12548056
0.017318122 0.03042323 0.12255621
0.01439236 0.030440113 0.12247729
0.011133975 0.031401135 0.12202704
0.00010067539 0.0018987992 0.18386191
0.018787403 0.0234037 0.12456223
0.01745248 0.023490144 0.12221441
0.0016767923 0.032966614 0.12301451
-0.0023524063 0.032721493 0.12202683
0.017853078 0.028072964 0.12193838
0.014274345 0.029814068 0.11906135
0.010195006 0.031143568 0.11900681
0.0062506767 0.031766992 0.11860305
0.0025646128 0.032369763 0.11837238
-0.0014819298 0.032754552 0.11849517
0.016529018 0.027750112 0.11539727
0.014094873 0.029428707 0.11440355
0.010658507 0.030835617 0.11391395
0.0067285961 0.031654801 0.11432427
-0.0017614366 -0.0025776618 0.18420148
0.015705666 0.025749462 0.11551863
0.00099551678 0.031955913 0.11554933
-0.002475949 0.032448009 0.11540502
0.015026077 0.029144352 0.11202008
0.0092770103 0.031302117 0.11157423
0.0062877196 0.031972568 0.11177534
0.0021234453 0.031949185 0.1114046
-0.0018060515 0.032155871 0.11040586
0.014190571 0.028952314 0.10789341
0.010700244 0.03081407 0.10780674
0.006734442 0.031937722 0.10721648
0.0031792745 0.031915698 0.10628039
0.013314705 0.029585857 0.10388887
0.010633734 0.030939497 0.10316455
0.0072247842 0.031846926 0.10290438
-0.00020870729 -0.0089756344 0.18591383
-0.0037291138 -0.0072290488 0.18537295
0.015159933 0.023836046 0.10994452
0.015702497 0.024745326 0.10592574
0.015276658 0.027215853 0.10473448
0.0012922883 0.032108597 0.10484928
-0.0019600121 0.032422427 0.10536903
0.014399422 0.028399304 0.10171717
0.011143437 0.030279122 0.10017115
0.0066445484 0.031814095 0.099997163
0.0028643748 0.032337226 0.10075051
-0.0017695511 0.032514077 0.10057765
0.014466126 0.027411461 0.097465932
0.010584583 0.030226758 0.096650839
0.0072202692 0.031449649 0.096358001
0.0026224917 0.031963781 0.096829712
0.014944952 0.022251025 0.099745572
0.013560184 0.025479414 0.092804313
0.011558822 0.028016428 0.094069004
0.0052274275 0.030791216 0.093894243
0.0018731849 0.030808564 0.093144894
-0.002102932 0.031239886 0.093489587
0.013392448 0.026269659 0.090169191
0.010385102 0.028416721 0.089948535
0.0065276241 0.029960733 0.08972609
0.0023910478 0.030798718 0.088833094
-0.0015604207 0.031471662 0.08908093
0.010353267 0.028857533 0.085778296
0.0068655713 0.030368598 0.085167825
0.0037164073 0.031234339 0.085002601
0.013964027 0.024735255 0.087683618
-0.0020898515 0.031621285 0.086290598
0.012761603 0.025059346 0.083457291
0.011229136 0.027941026 0.082515121
0.0070199245 0.030488975 0.082303524
0.0023726262 0.031442843 0.082644224
-0.0014406471 0.031952426 0.082271874
0.010908019 0.029097181 0.078870237
0.0073190508 0.030886322 0.078700006
0.0032701772 0.031546526 0.07793349
-0.0010271566 0.031696379 0.077670097
0.010426788 0.02946219 0.073993862
0.007329422 0.030542489 0.074363768
0.01411363 0.022328496 0.084463239
0.012928105 0.022708293 0.080267191
0.012927583 0.022378042 0.076946795
0.012061048 0.025061196 0.075752437
-0.0024426393 0.030878093 0.074930847
0.011750157 0.026332837 0.071433604
0.0074955518 0.02977276 0.071242929
0.0024165567 0.03000064 0.071425259
-0.0017017992 0.030532464 0.070850432
0.011911702 0.027417747 0.067715168
0.0079819914 0.02992148 0.067749381
0.00371414 0.0301116 0.066757977
-6.3858926e-05 0.03052213 0.067382693
0.011346087 0.028310755 0.063838542
0.0093499487 0.030081039 0.063720047
0.0061124456 0.030346327 0.063491225
0.012703801 0.018195288 0.077544451
0.013351595 0.020329211 0.073904753
0.013695834 0.021645855 0.069480002
0.013840705 0.023498531 0.065930426
0.013112163 0.025349287 0.065133393
0.0020958865 0.030603949 0.064872205
-0.001168224 0.030754117 0.065089166
0.012322123 0.026705978 0.060805321
0.0087371087 0.02998573 0.060614824
0.0045478926 0.03048436 0.060668349
0.00043773651 0.030299375 0.060698688
0.011932991 0.027249169 0.056969702
0.009130748 0.028757563 0.056621194
0.0051820744 0.029351268 0.056076109
0.010740109 0.010078924 0.081545651
0.012486653 0.013650119 0.074811399
0.013742425 0.016591629 0.073568404
0.014207656 0.017154144 0.068031847
0.01427797 0.019824497 0.063245952
0.014259031 0.021580182 0.058900774
0.013095971 0.024543706 0.057207286
-0.00052557327 0.029382106 0.056744695
0.014385613 0.022768551 0.054648697
0.012570352 0.026093524 0.053562343
0.0084488755 0.028487841 0.053312421
0.0043447372 0.028940396 0.052963495
-8.3561055e-05 0.029411368 0.052990258
0.015362653 0.024095872 0.049800754
0.012864754 0.027395476 0.049393952
0.0092416359 0.028819354 0.049166501
0.00449816 0.028969141 0.048871517
1.273118e-05 0.029403556 0.049889326
0.016450774 0.025891351 0.045081019
0.013640156 0.027857993 0.045055747
0.0092644375 0.029457297 0.04467696
0.0061372761 0.029760931 0.044800937
0.017207246 0.02770072 0.041079402
0.014079583 0.029015044 0.040537119
0.010164158 0.030021608 0.041089296
0.017210696 0.02883956 0.037442565
0.015836356 0.029217551 0.037212908
0.010734052 0.0092481859 0.073690176
0.013495976 0.01180295 0.069575906
0.014297672 0.013393239 0.066007793
0.014865146 0.018000891 0.060706019
0.015039584 0.018001907 0.056609452
0.016918588 0.018023169 0.048989475
0.015570101 0.020336147 0.052107036
0.017882586 0.020182334 0.047022045
0.016824815 0.022412721 0.047994673
0.00303496 0.028976217 0.046542645
3.3596531e-05 0.02920673 0.046583533
0.019384878 0.021905743 0.042794883
0.018095028 0.024190839 0.044264853
0.0039036046 0.029237255 0.042491615
0.00028170925 0.028950227 0.041459024
0.020374298 0.023471581 0.038224041
0.018781032 0.026320327 0.039556026
0.0094313137 0.029627839 0.037591159
0.005985043 0.029387124 0.037977338
0.020483837 0.025120737 0.033360481
0.01863144 0.027806351 0.034724593
0.014282672 0.028902164 0.034171522
0.01002425 0.029051935 0.033824623
0.021110177 0.026351277 0.030460835
0.018816324 0.028262081 0.030157685
0.015220337 0.028933715 0.030334771
0.014062205 0.012142194 0.059680343
0.015119439 0.014186373 0.054476321
0.016529366 0.015223951 0.049604595
0.018600399 0.017228439 0.045609891
0.020117518 0.018441319 0.041663706
-0.0013755858 0.028945575 0.038404644
0.021243511 0.019811401 0.037481785
0.0036722762 0.02840383 0.035743594
0.00022226851 0.028841468 0.035781324
0.021885756 0.022816371 0.032952189
0.012545614 0.028119756 0.030628562
0.0080854427 0.028663266 0.031402886
0.004890928 0.02904042 0.031943917
0.00053001009 0.029188242 0.030889511
0.024206236 0.022270825 0.028081715
0.022558054 0.024664808 0.028834999
0.018690532 0.027563332 0.026272118
0.013772901 0.027958231 0.027253747
0.0097983945 0.028219836 0.028052926
0.0055096857 0.028880287 0.027540863
0.025142292 0.024104076 0.023690104
0.022686021 0.025742838 0.024148524
0.018852152 0.027734892 0.024082661
0.014765047 0.027799491 0.023414075
0.025492914 0.024551319 0.019938886
0.022857344 0.026448602 0.019701004
0.019433884 0.027942795 0.019625425
0.0084745483 0.027084555 0.023725331
0.004475568 0.027760148 0.023206651
0.0005781902 0.028847108 0.024791241
0.013085633 0.027188577 0.020002782
0.00955969 0.027021395 0.02008003
0.0051186681 0.02731692 0.019516289
0.0010733129 0.027837088 0.020241857
0.025535848 0.022368575 0.016878605
0.023365289 0.02559845 0.016218841
0.018542238 0.02706231 0.015522897
0.014181062 0.026972676 0.016303241
0.0098196818 0.026756044 0.015349269
0.025292847 0.023296559 0.013287067
0.023275364 0.025955383 0.012714744
0.01938948 0.027092326 0.012330651
0.01523339 0.026627533 0.012452483
0.022429476 0.025964731 0.0083706975
0.020232949 0.026963815 0.008361876
0.003221781 0.027111236 0.017237663
5.3479336e-05 0.027733954 0.017920434
0.0085096247 0.026901476 0.013482034
0.0050502708 0.027442303 0.013966262
0.00080722477 0.028512461 0.013156235
0.017276574 0.0262115 0.0093071461
0.013816879 0.026736597 0.0097730756
0.0099318977 0.027439291 0.0094967484
0.0054781623 0.027968027 0.0080912113
0.0013640011 0.02854025 0.0085124373
0.025653973 0.022328272 0.0054467916
0.023736954 0.025067361 0.0059071183
0.018778566 0.026945787 0.0055357218
0.014645427 0.026975313 0.0045178533
0.010452218 0.027489314 0.0045159459
0.0071753133 0.027940743 0.0044116378
0.025929647 0.023436802 0.00056302547
0.023755599 0.025843173 0.00079375505
0.019841013 0.027297478 0.00074851513
0.016279645 0.026746819 0.00061458349
0.001800946 0.028435739 0.0058660507
0.0083706435 0.026802436 0.0016641617
0.0051153968 0.027339898 0.0016493201
0.0015004613 0.027772635 0.0013843179
-0.0020093769 0.027857641 0.0011383891
0.010090399 0.026120061 -0.0013233423
-0.0026256284 0.028114172 -0.0010924935
