# .PCD v0.7 - Point Cloud Data file format
VERSION 0.7
FIELDS x y z
SIZE 4 4 4
TYPE F F F
COUNT 1 1 1
WIDTH 456
HEIGHT 1
VIEWPOINT 0 0 0 1 0 0 0
POINTS 456
DATA ascii
-0.02987767 0.024418073 0.17940062
-0.031062726 0.022270409 0.17881244
-0.031707894 0.022628222 0.17665473
-0.029518381 0.004375584 0.18369186
-0.030452315 0.0019154018 0.18350929
-0.024262944 0.026275348 0.18082625
-0.026483031 0.022946451 0.18207297
-0.027972927 0.019465268 0.1821515
-0.029136883 0.015700685 0.18169659
-0.029758776 0.010957428 0.18084213
-0.03102161 0.0065446682 0.18086636
-0.032199834 0.0027693994 0.18041694
-0.032906502 -0.00082439091 0.18062109
-0.026736692 0.027636696 0.17857862
-0.028205266 0.02528717 0.18059707
-0.030442525 0.020201283 0.17887664
-0.031460717 0.016798483 0.17818263
-0.03182121 0.012026262 0.1768555
-0.031598724 0.0069386032 0.17685029
-0.028106211 0.028200528 0.17447481
-0.030599557 0.025095178 0.1749098
-0.031633947 0.021126328 0.17406738
-0.03230492 0.017344505 0.17349359
-0.032322612 0.013584364 0.17286488
-0.028898794 0.027865073 0.16966933
-0.030444965 0.025297372 0.16941434
-0.031548824 0.021481222 0.16941577
-0.031936433 0.018324483 0.16932094
-0.029628677 0.027973507 0.16609567
-0.030600796 0.026223628 0.16617924
-0.031919565 0.021804133 0.16560236
-0.025585022 -0.00021563843 0.18508628
-0.019796968 0.020084165 0.18285558
-0.02177193 0.016912092 0.18357676
-0.023224529 0.013222978 0.18333709
-0.024837254 0.0091978759 0.18296441
-0.026507884 0.0048989477 0.18370494
-0.028820602 0.0011701947 0.18491393
-0.030285919 -0.0024717944 0.18379554
-0.021965861 0.021692198 0.18207586
-0.024265818 0.017947126 0.18282658
-0.025866002 0.01432585 0.18270576
-0.027242571 0.010152366 0.18225959
-0.033446636 -0.0015081326 0.17858365
-0.031881385 0.0071355915 0.17476773
-0.032487471 0.0031056367 0.1743682
-0.033244371 -0.00085614156 0.17357334
-0.032119937 0.011207885 0.17072332
-0.032241687 0.0074606068 0.17016998
-0.032644622 0.0035291277 0.16936702
-0.033209227 -0.00073658861 0.1694802
-0.026429681 0.028926454 0.16750455
-0.0313197 0.02150343 0.16691685
-0.03211752 0.017065851 0.16719544
-0.03260554 0.012761951 0.16669753
-0.032701287 0.0080134207 0.16540152
-0.032729816 0.0049461857 0.16600204
-0.027976815 0.028649218 0.16334075
-0.030138275 0.025272686 0.16317654
-0.031441536 0.021722756 0.16317713
-0.032275163 0.017801231 0.16265982
-0.032812491 0.013949811 0.16225645
-0.032871064 0.010178433 0.16233891
-0.029022004 0.028447147 0.15893337
-0.030806754 0.025850557 0.15816915
-0.031637624 0.022197373 0.15840968
-0.032273855 0.018330663 0.15869287
-0.016041622 0.013189329 0.18320709
-0.017460413 0.0094522014 0.18292978
-0.018664416 0.0070597371 0.18294305
-0.021867767 0.0033080489 0.18381256
-0.022773469 -0.0014006589 0.18471077
-0.016960833 0.019583959 0.18330055
-0.018998947 0.015774127 0.18412733
-0.019969577 0.011889519 0.18351239
-0.021123724 0.0080709131 0.18303755
-0.022900363 0.0052002072 0.1832695
-0.032530483 0.0019524535 0.16670352
-0.032917637 -0.00077437889 0.16679385
-0.032437466 0.0063877287 0.16260436
-0.032022804 0.0031341687 0.16283748
-0.032717817 -0.00071076583 0.16225719
-0.032107841 0.012868232 0.1590274
-0.031944592 0.0081962831 0.15880716
-0.031812478 0.0039622169 0.15839478
-0.032815542 -0.00055032037 0.15867993
-0.033672389 -0.003077656 0.15842119
-0.026125299 0.028979754 0.1566132
-0.029738914 0.027147185 0.15483004
-0.03141908 0.022091769 0.15490317
-0.031923126 0.017670808 0.15572149
-0.031628583 0.013544389 0.15521389
-0.031466525 0.0096601658 0.15439311
-0.0276211 0.028445037 0.15228039
-0.030010341 0.025826111 0.15107948
-0.031114906 0.021914147 0.15161526
-0.031348638 0.017930832 0.15093842
-0.031514809 0.013966976 0.15081105
-0.029608738 0.025781712 0.1464316
-0.030472584 0.022068795 0.14707363
-0.031351767 0.018802533 0.14750752
-0.013777976 0.013709007 0.18343633
-0.014636642 0.0099088587 0.18331194
-0.015696669 0.0055965576 0.18369594
-0.017966637 0.0019929018 0.18348521
-0.031196695 0.0024853386 0.15579447
-0.032274198 -0.00067870505 0.15547347
-0.031665009 0.0074007143 0.15251869
-0.031956248 0.0036669346 0.15206879
-0.032087818 -0.00014090352 0.1514827
-0.031667363 0.013484268 0.1482299
-0.031769503 0.0092440527 0.14842808
-0.032087684 0.0050935796 0.14766151
-0.025730047 0.028859269 0.14648581
-0.02846898 0.026958123 0.1442475
-0.030709784 0.02259876 0.14386544
-0.031825308 0.018166754 0.14521745
-0.031875357 0.014272575 0.14496925
-0.031810954 0.010073033 0.14433509
-0.025545897 0.030467071 0.14173636
-0.029450737 0.026621077 0.14030042
-0.030373637 0.022559199 0.13941419
-0.031131182 0.019228399 0.14123362
-0.030266926 0.025392909 0.13584566
-0.030742247 0.02414071 0.13575274
-0.0083359657 0.0057081846 0.18322259
-0.010333142 0.0032666833 0.18445417
-0.011236284 -0.0004324317 0.18404579
-0.009907743 0.0078151152 0.18305132
-0.012436008 0.0051793731 0.18382862
-0.014110637 0.0007913555 0.18350857
-0.031770669 -0.0016542729 0.14886943
-0.031663567 0.0034981361 0.14505413
-0.031453457 -0.00067551341 0.14459118
-0.030421626 0.012899559 0.14101717
-0.03134894 0.0093454104 0.14120248
-0.031680677 0.0046739834 0.14094612
-0.031868283 -0.00014918298 0.13963819
-0.024399925 0.028698832 0.13933212
-0.02643274 0.027413808 0.13752615
-0.029676249 0.020734232 0.13755026
-0.029701259 0.017351609 0.13763824
-0.030065617 0.013635283 0.13722906
-0.031350564 0.0098064858 0.13682151
-0.032181762 0.0057965694 0.13601795
-0.03255653 0.0021511046 0.13577095
-0.02469385 0.029082498 0.1339843
-0.027465066 0.026902221 0.13406888
-0.030043244 0.022015925 0.13384581
-0.030127913 0.01820224 0.13318703
-0.030978119 0.014379936 0.13269648
-0.031765226 0.010146978 0.13249156
-0.033009999 0.0062922202 0.1320442
-0.033580448 0.0035853386 0.13245931
-0.028352639 0.026406331 0.12906915
-0.030441597 0.023025129 0.12872714
-0.030695628 0.018825263 0.12834507
-0.030977938 0.015804589 0.1291489
-0.02914897 0.026532702 0.1254048
-0.031101782 0.023397408 0.12348697
-0.031531181 0.020605713 0.12458512
-0.005250589 0.0060843118 0.18345958
-0.0071581574 0.0026030038 0.18471745
-0.032655291 -0.001397022 0.13763893
-0.032391701 -0.00011730101 0.13354635
-0.025312288 0.028011065 0.13119811
-0.031278849 0.012958752 0.13026851
-0.031957682 0.010330106 0.12983623
-0.033029228 0.006401591 0.12923259
-0.032963578 0.0012196619 0.12925291
-0.025759425 0.029782023 0.12833816
-0.026345812 0.028557662 0.1283378
-0.031019676 0.017418811 0.12592819
-0.030617034 0.014133311 0.1261234
-0.031141406 0.010334006 0.12563339
-0.032445505 0.0060446993 0.12547293
-0.032705061 0.0034331409 0.12601441
-0.024670526 0.029595522 0.1236071
-0.028213149 0.027677484 0.12311944
-0.031050654 0.023469843 0.12141436
-0.03091762 0.018583175 0.12215063
-0.030354066 0.015847411 0.12197366
-0.028962079 0.026934491 0.11873507
-0.031030618 0.023413558 0.11793077
-0.031413041 0.019594345 0.11793363
-0.031330958 0.022944659 0.11402363
-0.031504598 0.021056386 0.11411059
-0.0028745504 0.00047448935 0.18458775
-0.030872978 0.0086777629 0.12267241
-0.03151447 0.0064765066 0.12300581
-0.032416396 0.0017475309 0.12302834
-0.032472365 -0.0024535693 0.12180367
-0.024102794 0.028152019 0.11878633
-0.030049969 0.013920712 0.11980373
-0.03025328 0.010213099 0.1191324
-0.031098092 0.0059540402 0.11895871
-0.031884037 0.0022210591 0.11868936
-0.032384973 -0.0016322155 0.11816186
-0.026333034 0.028291609 0.11588389
-0.031436339 0.018780991 0.11516321
-0.030196795 0.014612634 0.11462528
-0.030002199 0.011089874 0.11448789
-0.027383361 0.026884524 0.1111154
-0.030143663 0.024046795 0.11156321
-0.031428512 0.019495174 0.11128652
-0.030641651 0.015874717 0.10997456
-0.028258573 0.026443183 0.10707277
-0.030390345 0.023696098 0.10666138
-0.031436604 0.020089898 0.10614079
0.0054967571 -0.0015213431 0.18525472
0.0022632265 -0.0016411612 0.18443355
-0.029489478 0.0083591584 0.11569762
-0.030124208 0.005676114 0.1152063
-0.030900318 0.001254634 0.11497033
-0.032075208 -0.0026278012 0.11506671
-0.029768154 0.0096121654 0.11181808
-0.03019817 0.0058442643 0.11142093
-0.030566135 0.001763843 0.11077136
-0.031710185 -0.0024319645 0.11053538
-0.025128476 0.028982164 0.11013979
-0.030456048 0.013872605 0.10821104
-0.030162215 0.010449507 0.10720855
-0.030378021 0.0060821185 0.10694414
-0.026051365 0.028141487 0.10466188
-0.028702144 0.025545735 0.10381567
-0.031455345 0.018555012 0.1033752
-0.031439632 0.01555226 0.10420692
-0.0307675 0.011601814 0.10319328
-0.02610383 0.026896194 0.10029548
-0.029113909 0.024113212 0.10005623
-0.030833628 0.020120718 0.099773586
-0.031122003 0.015591761 0.10003203
0.0082023144 8.2021579e-05 0.18647528
0.006946547 -0.0038142377 0.18575156
-0.030560583 0.0016353307 0.10820037
-0.031534806 -0.00093065668 0.10800999
-0.030689882 0.0062993965 0.10461205
-0.031164374 0.0019850256 0.10551971
-0.031865232 -0.0023946892 0.10551506
-0.030817775 0.010367287 0.10099757
-0.031281136 0.0066882987 0.10077959
-0.031581335 0.0021118475 0.100725
-0.032133959 -0.0019238982 0.10022217
-0.024299469 0.027571879 0.097135484
-0.027728986 0.025472313 0.097093105
-0.030408025 0.018415796 0.096569479
-0.030061819 0.015314451 0.09611553
-0.030299332 0.011201859 0.096939981
-0.0311643 0.0067837266 0.096763372
-0.031293217 0.003333821 0.09689647
-0.025401356 0.02775492 0.092113078
-0.028790442 0.024574921 0.093632162
-0.03027992 0.019998955 0.093092859
-0.030124798 0.016002147 0.092116475
-0.02931134 0.012127747 0.0933218
-0.026877537 0.028189406 0.087475836
-0.029463315 0.025085062 0.088390291
-0.030392438 0.020755297 0.088154614
-0.030038854 0.017141758 0.087820232
-0.029852709 0.024672989 0.084545255
-0.030572932 0.022000749 0.08410567
-0.029126652 0.0090253633 0.093998969
-0.02920248 0.0060893153 0.092955112
-0.030365091 0.0015449747 0.093499601
-0.031025233 -0.0021900171 0.09328723
-0.02849634 0.01345305 0.089174569
-0.028634308 0.010291553 0.089837611
-0.029231928 0.006243444 0.089035571
-0.030517278 0.0022793645 0.088565826
-0.03117154 -0.0009876471 0.089190662
-0.024109352 0.029324241 0.087667823
-0.029756177 0.019369902 0.085436881
-0.029484615 0.015050357 0.086284459
-0.029365182 0.010975253 0.084918201
-0.029914182 0.0076690614 0.085442066
-0.025448576 0.028246749 0.082309067
-0.028051455 0.02593286 0.082043946
-0.029694898 0.020247035 0.081845939
-0.030000195 0.015896171 0.081281245
-0.030593835 0.012549093 0.080881655
-0.028017227 0.02523943 0.077876925
-0.029581942 0.021358944 0.077174067
-0.030439258 0.01723765 0.077447891
-0.030328399 0.022349339 0.073943615
-0.031222507 -0.002402341 0.086689055
-0.03003436 0.0062980731 0.083002269
-0.03103568 0.0026866142 0.083106279
-0.032065999 -0.0013942914 0.082381785
-0.030554093 0.010562643 0.079173684
-0.030843662 0.0073020258 0.078658462
-0.031431843 0.0032405304 0.078154206
-0.031967428 -0.00091680977 0.077934086
-0.024640219 0.027517013 0.075285316
-0.026709199 0.02634106 0.075192928
-0.030419353 0.016332088 0.074858904
-0.030518986 0.011874971 0.074074686
-0.030351924 0.0080034994 0.074467778
-0.02459302 0.02769237 0.071240842
-0.027469853 0.025845202 0.070883751
-0.029931605 0.022304673 0.071305215
-0.030214103 0.017646512 0.070170462
-0.030209288 0.013837532 0.068978906
-0.027714795 0.024636935 0.066526592
-0.029536139 0.022416189 0.065139592
-0.029653689 0.01940172 0.066097021
-0.030815128 0.0028690305 0.074895144
-0.031578906 -0.002156958 0.075615883
-0.029560067 0.0070200493 0.071391165
-0.030012704 0.0024214759 0.07143718
-0.030897455 -0.0015536472 0.07120961
-0.030435298 0.012088892 0.067628741
-0.029903293 0.0072995117 0.067694604
-0.030238803 0.0034153238 0.06645304
-0.031149669 -0.00092990231 0.067054093
-0.023014147 0.027927008 0.063851893
-0.02607026 0.025630049 0.06347239
-0.029713118 0.017843237 0.063219905
-0.029927051 0.013807328 0.062647343
-0.030402614 0.0096364394 0.063163996
-0.030426035 0.0053897398 0.063273609
-0.024191767 0.028036017 0.060768783
-0.026262799 0.02590109 0.059275806
-0.029087106 0.02249578 0.059203446
-0.029617513 0.018195275 0.058382452
-0.030010995 0.013754605 0.059358895
-0.03049944 0.01091073 0.059332788
-0.02733358 0.024963044 0.056025565
-0.028735282 0.022902194 0.055369794
-0.02924205 0.019681387 0.055550396
-0.031758733 0.031786524 0.044986069
-0.031037997 0.0017874893 0.064429343
-0.031158021 -0.0012257555 0.064376354
-0.029878333 0.0075469362 0.060567915
-0.03019743 0.0044192974 0.060042381
-0.030387154 0.0004075272 0.060449719
-0.025104331 0.027060591 0.057021618
-0.029753335 0.013457601 0.05639869
-0.029668817 0.0099166026 0.056155324
-0.023577392 0.028644934 0.053572297
-0.026549613 0.026467878 0.053617656
-0.029108657 0.022401832 0.052897453
-0.028792493 0.018103721 0.052449346
-0.0289081 0.014584087 0.052521586
-0.02479146 0.028831232 0.049137414
-0.02737464 0.026844699 0.048496068
-0.029142819 0.022990348 0.048476636
-0.02827986 0.019118102 0.047545969
-0.028503235 0.023691893 0.044016242
-0.030011008 0.031329799 0.040094674
-0.029327938 -0.00061373785 0.056352437
-0.02888561 0.0077435747 0.054100335
-0.029037623 0.0045520458 0.053736508
-0.029677775 2.3441389e-05 0.053260744
-0.023519665 0.028291402 0.049902976
-0.028082108 0.016422402 0.049071252
-0.028454432 0.012985895 0.04940027
-0.029151633 0.0091896057 0.049171269
-0.029216625 0.004386235 0.048790157
-0.029614899 0.00042996369 0.049400449
-0.024930395 0.028977888 0.047226012
-0.028434109 0.017754579 0.045031667
-0.028944768 0.014083164 0.045285285
-0.029780781 0.0096221324 0.044654071
-0.029889632 0.0055464781 0.0448488
-0.026502609 0.026625799 0.041611373
-0.028813463 0.022955626 0.041285872
-0.029035069 0.018898785 0.041021764
-0.029476894 0.014073724 0.040678263
-0.030164115 0.010219161 0.041237056
-0.027957072 0.03071893 0.035891593
-0.026893811 0.027396627 0.037189662
-0.029419227 0.023812003 0.036717892
-0.029498288 0.019051701 0.036671937
-0.029805228 0.01605553 0.037824988
-0.028263925 0.03145561 0.033650219
-0.027783426 0.028083589 0.033580482
-0.029802158 0.02376771 0.031935513
-0.030410435 0.019560108 0.033462405
-0.028176989 0.031094223 0.029882133
-0.029562835 -0.00018929504 0.046276748
-0.029776542 0.0040476392 0.042038023
-0.029500348 0.00031827949 0.041688979
-0.029784814 0.0094919782 0.037754834
-0.029728014 0.0056409482 0.038016438
-0.029826719 0.017746408 0.034308136
-0.029429864 0.014300613 0.034384072
-0.029436672 0.010171595 0.034227371
-0.029528072 0.0068139932 0.033777416
-0.027620848 0.027436625 0.031253755
-0.029529374 0.019366343 0.02939868
-0.02944598 0.015051783 0.03019166
-0.027184181 0.027385818 0.026891649
-0.029078295 0.023731131 0.026087821
-0.029607764 0.020330578 0.025602102
-0.028419761 0.0031665526 0.035550952
-0.029077649 0.00031719636 0.036028028
-0.028913576 0.0081821699 0.031665981
-0.029396912 0.0047421283 0.032098472
-0.030052582 0.00087628886 0.031799316
-0.028611358 0.013657453 0.027259588
-0.028562481 0.0097325519 0.027721107
-0.029451622 0.0054326965 0.027806699
-0.030661963 0.0012896517 0.027174711
-0.031387661 -0.0015405128 0.027722597
-0.025113504 0.02786978 0.023604572
-0.027511213 0.024263849 0.022128344
-0.029062454 0.018908495 0.023437619
-0.028674383 0.014609506 0.023426354
-0.028158262 0.010502162 0.023390353
-0.025305126 0.026729364 0.019855976
-0.027687663 0.023708235 0.018826365
-0.028911196 0.019536145 0.019262969
-0.028657984 0.016301874 0.019821465
-0.026052717 0.026312428 0.015182793
-0.028280418 0.02410673 0.015223622
-0.028941201 0.02077204 0.014776289
-0.028467428 0.0051568314 0.023590267
-0.029625023 0.00097691454 0.022893131
-0.027820213 0.0094848787 0.019887984
-0.028450962 0.0054976377 0.020023346
-0.029445775 0.0010076808 0.019509614
-0.023201881 0.027180737 0.016533017
-0.027798899 0.017686868 0.015297472
-0.028221229 0.014509055 0.016233683
-0.027863955 0.0098955305 0.015311241
-0.028208746 0.0045018443 0.016606033
-0.029592551 0.0011698585 0.016467094
-0.024837896 0.026966352 0.012889326
-0.027575376 0.023995211 0.011268854
-0.028413195 0.019138377 0.011420906
-0.028157609 0.015175566 0.011522949
-0.028077852 0.010868777 0.012663126
-0.027900079 0.024252493 0.0084174275
-0.029149216 0.020408817 0.008153677
-0.028506758 0.016716093 0.0079308152
-0.027990269 0.023707677 0.0038987398
-0.028937086 0.020981431 0.0036133528
-0.028148659 0.0053636897 0.01365906
-0.029176565 0.0010808725 0.013607919
-0.027439918 0.013107102 0.0086686015
-0.028145721 0.010003497 0.0095584393
-0.028613597 0.0057303342 0.008795917
-0.029207785 0.0014785072 0.0078104138
-0.028991157 -0.0019892035 0.0080523491
-0.023693891 0.025774503 0.0062251687
-0.028348587 0.01832686 0.0051977038
-0.028202459 0.014675055 0.0053656101
-0.028339408 0.010698179 0.0043734908
-0.029111488 0.0064151259 0.0043001771
-0.02693443 0.024550915 0.0016208887
-0.028515941 0.019524336 0.00060969591
-0.02807541 0.015569067 0.00067985058
-0.028987542 0.0045411768 0.0020636916
-0.02857317 0.0015056087 0.0021334887
-0.028389003 -0.0022590058 0.00079154968
-0.02244108 0.025579881 -0.00052887201
