# .PCD v0.7 - Point Cloud Data file format
VERSION 0.7
FIELDS x y z
SIZE 4 4 4
TYPE F F F
COUNT 1 1 1
WIDTH 1348
HEIGHT 1
VIEWPOINT 0 0 0 1 0 0 0
POINTS 1348
DATA ascii
-0.029242679 0.013199285 0.17644559
-0.029155359 0.013902605 0.17644559
-0.029155359 0.014936633 0.17583832
-0.029155359 0.013199285 0.17667697
-0.028985344 0.0027751699 0.17818294
-0.028928414 0.0045125186 0.17818294
-0.028813615 0.0062498748 0.17818294
-0.028881051 0.0079872236 0.17818294
-0.027943231 0.0027751699 0.1799203
-0.027418002 0.0045099631 0.1799203
-0.027418002 0.0045125186 0.17991859
-0.027416438 0.0045125186 0.1799203
-0.027418002 0.0027751699 0.18059161
-0.025797956 0.0027751699 0.18165766
-0.025680654 0.0031764209 0.18165766
-0.025680654 0.0045125186 0.18139423
-0.025172465 0.0045125186 0.18165766
-0.027418002 0.0062498748 0.17962864
-0.027097888 0.0062498748 0.1799203
-0.027418002 0.0079872236 0.17986917
-0.027366616 0.0079872236 0.1799203
-0.025680654 0.0062498748 0.18118827
-0.025680654 0.0079872236 0.18127595
-0.024906315 0.0062498748 0.18165766
-0.024771526 0.0079872236 0.18165766
-0.028656296 0.0097245798 0.17818294
-0.028432265 0.011461928 0.17818294
-0.028826684 0.014936633 0.17644559
-0.028103463 0.013199285 0.17818294
-0.027418002 0.014731407 0.17818294
-0.027418002 0.014936633 0.17802051
-0.02731169 0.014936633 0.17818294
-0.027418002 0.0097245798 0.1796321
-0.027116284 0.0097245798 0.1799203
-0.027418002 0.011461928 0.17932141
-0.026750498 0.011461928 0.1799203
-0.025680654 0.0097245798 0.18100774
-0.025680654 0.011461928 0.18055736
-0.024795927 0.0097245798 0.18165766
-0.024099618 0.011461928 0.18165766
-0.027418002 0.013199285 0.17894766
-0.026458271 0.013199285 0.1799203
-0.025837854 0.014936633 0.1799203
-0.025680654 0.013199285 0.18032809
-0.025680654 0.014936633 0.18001959
-0.023943298 0.011591509 0.18165766
-0.023943298 0.013199285 0.18100347
-0.022626385 0.013199285 0.18165766
-0.023943298 0.014936633 0.18078288
-0.022205949 0.013993852 0.18165766
-0.022205949 0.014936633 0.18139918
-0.021752529 0.014936633 0.18165766
-0.025680654 0.0027751699 0.18170604
-0.023943298 0.0027751699 0.18234363
-0.022205949 0.0027751699 0.18259259
-0.023943298 0.0045125186 0.1821252
-0.022205949 0.0045125186 0.18232243
-0.023943298 0.0062498748 0.18204892
-0.022205949 0.0062498748 0.18228936
-0.023943298 0.0079872236 0.18196797
-0.022205949 0.0079872236 0.18246177
-0.020468593 0.0027751699 0.18281622
-0.018731244 0.0016307905 0.183395
-0.018731244 0.0027751699 0.1829434
-0.020468593 0.0045125186 0.1821339
-0.018731244 0.0045125186 0.18213756
-0.017432161 0.0027751699 0.183395
-0.016993888 0.0032771081 0.183395
-0.016993888 0.0045125186 0.18298934
-0.01641342 0.0045125186 0.183395
-0.016993888 0.0027751699 0.18366039
-0.015256532 0.0027751699 0.18425968
-0.015256532 0.0045125186 0.18387939
-0.020468593 0.0062498748 0.1821851
-0.018731244 0.0062498748 0.18238093
-0.020468593 0.0079872236 0.18277086
-0.018731244 0.0079872236 0.18301867
-0.016993888 0.0062498748 0.18308794
-0.016158566 0.0062498748 0.183395
-0.016993888 0.0079872236 0.18332957
-0.016646899 0.0079872236 0.183395
-0.015256532 0.0062498748 0.18359624
-0.015256532 0.0079872236 0.18355268
-0.023943298 0.0097245798 0.18217432
-0.022205949 0.0097245798 0.18289576
-0.023943298 0.011461928 0.18175966
-0.022205949 0.011461928 0.18270417
-0.022205949 0.013199285 0.18192996
-0.020468593 0.0097245798 0.18329583
-0.018731244 0.0097245798 0.18323444
-0.020468593 0.011461928 0.1831467
-0.018782489 0.011461928 0.183395
-0.018731244 0.011069104 0.183395
-0.018731244 0.011461928 0.18341357
-0.017559409 0.0097245798 0.183395
-0.016993888 0.0085817128 0.183395
-0.016993888 0.0097245798 0.18366531
-0.015256532 0.0097245798 0.18393177
-0.016993888 0.011461928 0.18398878
-0.015256532 0.011461928 0.18424568
-0.020468593 0.013199285 0.18268965
-0.018731244 0.012109101 0.183395
-0.018731244 0.013199285 0.18325713
-0.020468593 0.014936633 0.18230952
-0.018731244 0.014936633 0.18272258
-0.016993888 0.013157919 0.183395
-0.016993888 0.013199285 0.18336742
-0.015256532 0.013125576 0.183395
-0.015256532 0.013199285 0.18332162
-0.016993888 0.014936633 0.18266779
-0.015256532 0.014936633 0.18221335
-0.012174711 0.0027751699 0.183395
-0.011781827 0.0027751699 0.18329638
-0.01197698 0.0045125186 0.183395
-0.011781827 0.0045125186 0.18330085
-0.013519183 0.0027751699 0.18388529
-0.013519183 0.0045125186 0.18389422
-0.010044478 0.0027751699 0.18319745
-0.0091786683 0.0027751699 0.183395
-0.010044478 0.0045125186 0.18273637
-0.0083071217 0.003465578 0.183395
-0.0083071217 0.0045125186 0.18312337
-0.0083071217 0.0027751699 0.18368451
-0.012739219 0.0062498748 0.183395
-0.011781827 0.0062498748 0.18295373
-0.011781827 0.007694453 0.183395
-0.013519183 0.0062498748 0.18360715
-0.013519183 0.0079872236 0.18350942
-0.011781827 0.0079872236 0.18356717
-0.010044478 0.0062498748 0.18270105
-0.008321777 0.0062498748 0.183395
-0.0083071217 0.0062259883 0.183395
-0.010044478 0.007516332 0.183395
-0.0083071217 0.0062498748 0.18340449
-0.010044478 0.0079872236 0.18370971
-0.0083634108 0.0079872236 0.18513235
-0.0083071217 0.0079396665 0.18513235
-0.0083071217 0.0079872236 0.18528815
-0.0077633858 0.0045125186 0.183395
-0.006569773 0.0021538287 0.18513235
-0.006569773 0.0027751699 0.18430395
-0.0055218041 0.0027751699 0.18513235
-0.006569773 0.0045125186 0.18358091
-0.0048324168 0.0029717237 0.18513235
-0.0048324168 0.0045125186 0.18358289
-0.003095068 0.0034209341 0.18513235
-0.003095068 0.0045125186 0.18405296
-0.0013577119 0.0035413057 0.18513235
-0.0013577119 0.0045125186 0.18468961
-0.006569773 0.0062498748 0.184604
-0.0048324168 0.0062498748 0.18469881
-0.006569773 0.0067162737 0.18513235
-0.0048324168 0.0068876073 0.18513235
-0.003095068 0.0062498748 0.18417607
-0.0013577119 0.0062498748 0.18414778
-0.0045419261 0.0079872236 0.18513235
-0.003095068 0.0079872236 0.18458197
-0.0013577119 0.0079872236 0.18505654
-0.0048324168 0.0023099408 0.18686971
-0.0048324168 0.0027751699 0.18639976
-0.0041019171 0.0027751699 0.18686971
-0.003095068 0.0030666441 0.18686971
-0.0013577119 0.0028631762 0.18686971
-0.003095068 0.0027751699 0.18708275
-0.0013577119 0.0027751699 0.1869375
-0.006569773 0.0079872236 0.18647513
-0.0048324168 0.0079872236 0.18648264
-0.013519183 0.0097245798 0.18374692
-0.011781827 0.0097245798 0.18418308
-0.013519183 0.011461928 0.18410228
-0.011781827 0.011461928 0.18448
-0.010044478 0.0097245798 0.1847553
-0.0098853707 0.0097245798 0.18513235
-0.010992169 0.011461928 0.18513235
-0.010044478 0.0099192411 0.18513235
-0.014932498 0.013199285 0.183395
-0.013519183 0.013651878 0.183395
-0.013519183 0.014936633 0.18253566
-0.012097493 0.014936633 0.183395
-0.013519183 0.013199285 0.18370999
-0.011781827 0.013199285 0.18409215
-0.011781827 0.014936633 0.18350153
-0.010594852 0.013199285 0.18513235
-0.010044478 0.014211632 0.18513235
-0.010044478 0.014936633 0.18489258
-0.0097954348 0.014936633 0.18513235
-0.0088201985 0.0097245798 0.18686971
-0.0083071217 0.0092710182 0.18686971
-0.010044478 0.011461928 0.18617004
-0.0092061237 0.011461928 0.18686971
-0.0083071217 0.0097245798 0.18707469
-0.0083071217 0.011461928 0.18729839
-0.010044478 0.013199285 0.18573447
-0.0083071217 0.013007581 0.18686971
-0.0083071217 0.013199285 0.18676722
-0.0083071217 0.014936633 0.18574415
-0.003095068 0.008329004 0.18513235
-0.0013577119 0.0080014914 0.18513235
-0.0061316565 0.014936633 0.18513235
-0.0048324168 0.013764769 0.18513235
-0.0048324168 0.014936633 0.18447271
-0.0033479258 0.013199285 0.18513235
-0.003095068 0.013109446 0.18513235
-0.003095068 0.013199285 0.18495934
-0.0013577119 0.011915118 0.18513235
-0.0013577119 0.013199285 0.18401104
-0.003095068 0.014936633 0.18393731
-0.0013577119 0.014936633 0.18348204
-0.006569773 0.0084127337 0.18686971
-0.0048324168 0.008248888 0.18686971
-0.006569773 0.0097245798 0.18758374
-0.0048324168 0.0097245798 0.18753807
-0.006569773 0.011461928 0.18769424
-0.0048324168 0.011461928 0.18760613
-0.003095068 0.0091109425 0.18686971
-0.0013577119 0.0089374185 0.18686971
-0.003095068 0.0097245798 0.18716544
-0.0013577119 0.0097245798 0.18718225
-0.003095068 0.011461928 0.18713528
-0.0013577119 0.011461928 0.18705358
-0.008044593 0.013199285 0.18686971
-0.0050026923 0.013199285 0.18686971
-0.0048324168 0.013129219 0.18686971
-0.0048324168 0.013199285 0.18677494
-0.006569773 0.013528854 0.18686971
-0.006569773 0.014936633 0.18541341
-0.006569773 0.013199285 0.18710312
-0.003095068 0.011916749 0.18686971
-0.0013577119 0.011781298 0.18686971
-0.028080828 0.01667399 0.17644559
-0.02770146 0.018411346 0.17644559
-0.027418002 0.01667399 0.17700797
-0.026500933 0.01667399 0.17818294
-0.027418002 0.018411346 0.17688119
-0.026413277 0.018411346 0.17818294
-0.027523331 0.020148702 0.17644559
-0.027418002 0.020586409 0.17644559
-0.027418002 0.021886043 0.17553036
-0.026900351 0.021886043 0.17644559
-0.027418002 0.020148702 0.17662674
-0.026386961 0.020148702 0.17818294
-0.025680654 0.021791406 0.17818294
-0.025680654 0.021886043 0.17812516
-0.025616303 0.021886043 0.17818294
-0.025680654 0.015243761 0.1799203
-0.025680654 0.01667399 0.17925231
-0.025680654 0.018411346 0.17907664
-0.024903573 0.01667399 0.1799203
-0.024819888 0.018411346 0.1799203
-0.023943298 0.01667399 0.18044162
-0.022205949 0.01667399 0.18098901
-0.023943298 0.018411346 0.18037483
-0.022205949 0.018411346 0.18072812
-0.025680654 0.020148702 0.17901157
-0.024063408 0.020148702 0.1799203
-0.023943298 0.020208217 0.1799203
-0.023943298 0.021886043 0.17898664
-0.022205949 0.021071307 0.1799203
-0.022205949 0.021886043 0.17926404
-0.023943298 0.020148702 0.1799513
-0.022205949 0.020148702 0.18038395
-0.020468593 0.01647044 0.18165766
-0.020468593 0.01667399 0.18157515
-0.020214878 0.01667399 0.18165766
-0.020468593 0.018411346 0.18112314
-0.019046739 0.018411346 0.18165766
-0.020608529 0.021886043 0.1799203
-0.020468593 0.020148702 0.18083318
-0.018731244 0.018852331 0.18165766
-0.018731244 0.020148702 0.18104672
-0.020468593 0.021886043 0.17998122
-0.018731244 0.021886043 0.18031432
-0.016993888 0.019765131 0.18165766
-0.016993888 0.020148702 0.18145363
-0.016422719 0.020148702 0.18165766
-0.016993888 0.021886043 0.18076329
-0.015256532 0.020616733 0.18165766
-0.015256532 0.021886043 0.18121281
-0.025680654 0.023608662 0.17644559
-0.025680654 0.023623399 0.17642666
-0.025666565 0.023623399 0.17644559
-0.024074718 0.025360756 0.17644559
-0.023943298 0.023140378 0.17818294
-0.023943298 0.023623399 0.17787544
-0.022205949 0.023283161 0.17818294
-0.022205949 0.023623399 0.17802955
-0.023943298 0.025360756 0.17656864
-0.022205949 0.025360756 0.17748967
-0.023943298 0.025482543 0.17644559
-0.022205949 0.026727803 0.17644559
-0.022205949 0.027098112 0.17595334
-0.020883344 0.023623399 0.17818294
-0.020468593 0.024442129 0.17818294
-0.020468593 0.025360756 0.1777744
-0.019546203 0.025360756 0.17818294
-0.021765307 0.027098112 0.17644559
-0.020468593 0.027493961 0.17644559
-0.018731244 0.028256066 0.17644559
-0.020468593 0.027098112 0.17702971
-0.018731244 0.025802679 0.17818294
-0.018731244 0.027098112 0.17769596
-0.017944783 0.028835453 0.17644559
-0.018142425 0.027098112 0.17818294
-0.016993888 0.028460525 0.17818294
-0.016993888 0.028835453 0.17761576
-0.015256532 0.028475009 0.17818294
-0.015256532 0.028835453 0.17759436
-0.020468593 0.021952502 0.1799203
-0.020468593 0.023623399 0.17871286
-0.018731244 0.02341985 0.1799203
-0.018731244 0.023623399 0.17985533
-0.018731244 0.025360756 0.17855129
-0.018156022 0.023623399 0.1799203
-0.016993888 0.024634086 0.1799203
-0.016993888 0.025360756 0.17973097
-0.016756251 0.025360756 0.1799203
-0.016993888 0.023623399 0.1802709
-0.015256532 0.023623399 0.18075918
-0.015256532 0.025360756 0.1805841
-0.016993888 0.027098112 0.17916493
-0.01549086 0.027098112 0.1799203
-0.015256532 0.027136035 0.1799203
-0.015256532 0.027098112 0.17995271
-0.018731244 0.01667399 0.18204506
-0.018731244 0.018411346 0.18174915
-0.016993888 0.01667399 0.18221594
-0.015256532 0.01667399 0.18204246
-0.016993888 0.018411346 0.18196046
-0.015256532 0.018411346 0.18203719
-0.015256532 0.020148702 0.18177734
-0.013519183 0.020379834 0.18165766
-0.013519183 0.021886043 0.181288
-0.011781827 0.021452509 0.18165766
-0.011781827 0.021886043 0.18154503
-0.011396646 0.021886043 0.18165766
-0.013519183 0.028271832 0.17818294
-0.013519183 0.028835453 0.17761613
-0.011781827 0.028058507 0.17818294
-0.011781827 0.028835453 0.17757292
-0.010044478 0.028313763 0.17818294
-0.010044478 0.028835453 0.17780158
-0.0083071217 0.028660856 0.17818294
-0.0083071217 0.028835453 0.17801063
-0.013519183 0.023623399 0.18111767
-0.011781827 0.023623399 0.18126483
-0.013519183 0.025360756 0.18085283
-0.011781827 0.025360756 0.180792
-0.010044478 0.023136474 0.18165766
-0.010044478 0.023623399 0.18145508
-0.0091587082 0.023623399 0.18165766
-0.010044478 0.025360756 0.18061809
-0.0083071217 0.023807712 0.18165766
-0.0083071217 0.025360756 0.18059923
-0.014044844 0.027098112 0.1799203
-0.013519183 0.026983671 0.1799203
-0.013519183 0.027098112 0.17977749
-0.011781827 0.026546769 0.1799203
-0.011781827 0.027098112 0.17923813
-0.010044478 0.026338287 0.1799203
-0.010044478 0.027098112 0.17917825
-0.0083071217 0.026534967 0.1799203
-0.0083071217 0.027098112 0.17951213
-0.006569773 0.028651349 0.17818294
-0.006569773 0.028835453 0.17794184
-0.0048324168 0.028667919 0.17818294
-0.0048324168 0.028835453 0.17779301
-0.003095068 0.028560348 0.17818294
-0.003095068 0.028835453 0.17764561
-0.0022071376 0.028835453 0.17818294
-0.006569773 0.024062507 0.18165766
-0.006569773 0.025360756 0.18070699
-0.0048324168 0.024468251 0.18165766
-0.0048324168 0.025360756 0.18106109
-0.0019975379 0.023623399 0.18165766
-0.0013577119 0.023272283 0.18165766
-0.0013577119 0.023623399 0.18136995
-0.003095068 0.024060793 0.18165766
-0.003095068 0.025360756 0.18079773
-0.0013577119 0.025360756 0.18040578
-0.006569773 0.026616238 0.1799203
-0.006569773 0.027098112 0.17960358
-0.0048324168 0.02664692 0.1799203
-0.0048324168 0.027098112 0.17961432
-0.003095068 0.026494868 0.1799203
-0.003095068 0.027098112 0.17953627
-0.0013577119 0.026379161 0.1799203
-0.0013577119 0.027098112 0.17958535
-0.0013577119 0.028835453 0.17851654
-0.013519183 0.01667399 0.18237108
-0.01199872 0.01667399 0.183395
-0.013519183 0.018411346 0.18248516
-0.011781827 0.017508648 0.183395
-0.011781827 0.018411346 0.18307734
-0.011781827 0.01667399 0.18354425
-0.010804825 0.018411346 0.183395
-0.010044478 0.01667399 0.18448709
-0.0083071217 0.015878253 0.18513235
-0.0083071217 0.01667399 0.18467467
-0.010044478 0.018411346 0.18361497
-0.0083071217 0.018411346 0.18383963
-0.013519183 0.020148702 0.18176776
-0.011781827 0.020148702 0.18221559
-0.010044478 0.018756248 0.183395
-0.010044478 0.020148702 0.18261676
-0.0083071217 0.019836999 0.183395
-0.0083071217 0.020148702 0.1832927
-0.010044478 0.021886043 0.18205458
-0.0083071217 0.021886043 0.18271282
-0.006569773 0.015178137 0.18513235
-0.006569773 0.01667399 0.18418685
-0.0048324168 0.01667399 0.18398893
-0.006569773 0.018411346 0.18388504
-0.0048324168 0.018411346 0.18383393
-0.003095068 0.01667399 0.18379711
-0.0013577119 0.01667399 0.18369003
-0.003095068 0.018411346 0.18393721
-0.0013577119 0.018411346 0.18387935
-0.0080530345 0.020148702 0.183395
-0.006569773 0.020763837 0.183395
-0.006569773 0.021886043 0.18288071
-0.0048324168 0.021230765 0.183395
-0.0048324168 0.021886043 0.18289728
-0.006569773 0.020148702 0.18356191
-0.0048324168 0.020148702 0.18382774
-0.0038048476 0.021886043 0.183395
-0.0026265606 0.021886043 0.183395
-0.0013577119 0.020863317 0.183395
-0.0013577119 0.021886043 0.1828422
-0.003095068 0.020148702 0.18404563
-0.0013577119 0.020148702 0.18357703
-0.003095068 0.021886043 0.18344684
-0.0083071217 0.023623399 0.18181218
-0.006569773 0.023623399 0.18194662
-0.0048324168 0.023623399 0.18197648
-0.003095068 0.021956943 0.183395
-0.003095068 0.023623399 0.18193372
-0.016993888 0.029179849 0.17644559
-0.015256532 0.029387616 0.17644559
-0.013519183 0.02968099 0.17644559
-0.013519183 0.030572809 0.1751671
-0.011781827 0.029991187 0.17644559
-0.011781827 0.030572809 0.17575166
-0.010044478 0.030076005 0.17644559
-0.010044478 0.030572809 0.1756909
-0.0083071217 0.030052878 0.17644559
-0.0083071217 0.030572809 0.17560099
-0.006569773 0.02986034 0.17644559
-0.006569773 0.030572809 0.17536947
-0.0048324168 0.029514335 0.17644559
-0.0048324168 0.030572809 0.17504814
-0.003095068 0.029352941 0.17644559
-0.0013577119 0.02996067 0.17644559
-0.0013577119 0.030572809 0.1749794
-0.0013577119 0.029175691 0.17818294
0.01545734 0.0027751699 0.093052655
0.015347011 0.0045125186 0.093052655
0.015528373 0.0027751699 0.094790004
0.015411101 0.0045125186 0.094790004
0.015213735 0.0062498748 0.093052655
0.015141912 0.0079872236 0.093052655
0.01532238 0.0062498748 0.094790004
0.015268825 0.0079872236 0.094790004
0.015440054 0.0027751699 0.09652736
0.01541663 0.0045125186 0.09652736
0.015658386 0.0027751699 0.098264709
0.01564201 0.0045125186 0.098264709
0.015429832 0.0062498748 0.09652736
0.015407912 0.0079872236 0.09652736
0.015574865 0.0062498748 0.098264709
0.01556807 0.0079872236 0.098264709
0.012171485 0.023623399 0.093052655
0.012541108 0.02296979 0.093052655
0.011159763 0.025360756 0.093052655
0.012091383 0.023623399 0.094790004
0.012541108 0.022710629 0.094790004
0.011354715 0.025360756 0.094790004
0.0059930459 0.028835453 0.093052655
0.0073290542 0.028290026 0.093052655
0.0090664029 0.027382992 0.093052655
0.0066316426 0.028835453 0.094790004
0.0073290542 0.028515987 0.094790004
0.0090664029 0.027610295 0.094790004
0.0094470233 0.027098112 0.093052655
0.010803759 0.025839753 0.093052655
0.0098597035 0.027098112 0.094790004
0.010803759 0.026225694 0.094790004
0.012245379 0.023623399 0.09652736
0.012541108 0.022995211 0.09652736
0.011584222 0.025360756 0.09652736
0.012445226 0.023623399 0.098264709
0.012541108 0.023415528 0.098264709
0.011758871 0.025360756 0.098264709
0.0069712326 0.028835453 0.09652736
0.0073290542 0.028570779 0.09652736
0.0090664029 0.02778434 0.09652736
0.0072543249 0.028835453 0.098264709
0.0073290542 0.028767757 0.098264709
0.0090664029 0.028077148 0.098264709
0.010371074 0.027098112 0.09652736
0.010803759 0.026708074 0.09652736
0.010769561 0.027098112 0.098264709
0.010803759 0.027053259 0.098264709
0.012541108 0.023623399 0.098706566
0.012042314 0.025360756 0.10000207
0.012541108 0.024277277 0.10000207
0.012407795 0.025360756 0.10173941
0.012541108 0.025044434 0.10173941
0.0073290542 0.028835453 0.099956363
0.0073348284 0.028835453 0.10000207
0.0090664029 0.028025277 0.10000207
0.0078264475 0.028835453 0.10173941
0.0090664029 0.02822981 0.10173941
0.010800116 0.027098112 0.10000207
0.010803759 0.027092852 0.10000207
0.010803759 0.027098112 0.10100225
0.010952428 0.027098112 0.10173941
0.010803759 0.02723556 0.10173941
0.012541108 0.025360756 0.10223027
0.0084136501 0.028835453 0.10347677
0.0090664029 0.028455652 0.10347677
0.0089057833 0.028835453 0.10521412
0.0090664029 0.028725661 0.10521412
0.011244722 0.027098112 0.10347677
0.012541108 0.025877155 0.10347677
0.010803759 0.027371399 0.10347677
0.011327542 0.027098112 0.10521412
0.012541108 0.025925197 0.10521412
0.010803759 0.027502067 0.10521412
0.01320111 0.021886043 0.098264709
0.013464577 0.021886043 0.10000207
0.012804456 0.023623399 0.10000207
0.013737299 0.021886043 0.10173941
0.013124518 0.023623399 0.10173941
0.014039062 0.021886043 0.10347677
0.013506703 0.023623399 0.10347677
0.012787946 0.025360756 0.10347677
0.013862275 0.023623399 0.10521412
0.014278464 0.022373401 0.10521412
0.014278464 0.021886043 0.10465523
0.014396824 0.021886043 0.10521412
0.012940563 0.025360756 0.10521412
0.017753176 0.0024903715 0.10868883
0.017786391 0.0027751699 0.10868883
0.017878883 0.0027751699 0.11042619
0.018012293 0.0045125186 0.10868883
0.017898552 0.0045125186 0.11042619
0.018213578 0.0027751699 0.11216353
0.018152617 0.0045125186 0.11216353
0.018730514 0.0027751699 0.11390088
0.018824331 0.0045125186 0.11390088
0.019490518 0.0018657073 0.11563824
0.019490518 0.0027751699 0.11536953
0.019490518 0.0045125186 0.11513729
0.019644223 0.0027751699 0.11563824
0.019734316 0.0045125186 0.11563824
0.0090664029 0.028835453 0.10578385
0.01159472 0.027098112 0.10695148
0.012541108 0.026163898 0.10695148
0.0094408467 0.028835453 0.10695148
0.010803759 0.027827002 0.10695148
0.012093745 0.027098112 0.10868883
0.012541108 0.026710771 0.10868883
0.010029539 0.028835453 0.10868883
0.010803759 0.028155871 0.10868883
0.012541108 0.027098112 0.10989252
0.010645136 0.028835453 0.11042619
0.010803759 0.028738894 0.11042619
0.012541108 0.027256079 0.11042619
0.010803759 0.028835453 0.11062627
0.011968829 0.028835453 0.11216353
0.012541108 0.027963273 0.11216353
0.012256488 0.028835453 0.11390088
0.012541108 0.028446011 0.11390088
0.012417294 0.028835453 0.11563824
0.012541108 0.028724484 0.11563824
0.012541108 0.028835453 0.11602297
0.014126278 0.023623399 0.10695148
0.014278464 0.023227058 0.10695148
0.01472982 0.021886043 0.10695148
0.013191126 0.025360756 0.10695148
0.014278464 0.023623399 0.10787649
0.015055604 0.021886043 0.10868883
0.014442779 0.023623399 0.10868883
0.013639875 0.025360756 0.10868883
0.014278464 0.024041571 0.10868883
0.015310399 0.021886043 0.11042619
0.014768384 0.023623399 0.11042619
0.014088146 0.025360756 0.11042619
0.014278464 0.024978243 0.11042619
0.015664272 0.021886043 0.11216353
0.015117623 0.023623399 0.11216353
0.014278464 0.025360756 0.11137003
0.014413409 0.025360756 0.11216353
0.012701027 0.027098112 0.11042619
0.013155036 0.027098112 0.11216353
0.014278464 0.025594823 0.11216353
0.013547219 0.027098112 0.11390088
0.014278464 0.026114695 0.11390088
0.014708303 0.025360756 0.11390088
0.013923503 0.027098112 0.11563824
0.014278464 0.026567034 0.11563824
0.014981858 0.025360756 0.11563824
0.014250077 0.027098112 0.1173756
0.014278464 0.02705691 0.1173756
0.015382759 0.025360756 0.1173756
0.012792267 0.028835453 0.1173756
0.014278464 0.027098112 0.11753851
0.014796235 0.027098112 0.11911294
0.01601582 0.025426336 0.11911294
0.01601582 0.025360756 0.11903112
0.012962751 0.028835453 0.11911294
0.014278464 0.027607448 0.11911294
0.000989452 0.030572809 0.093052655
0.0021169931 0.03021767 0.093052655
0.00037964433 0.030740999 0.093052655
0.00089723617 0.030572809 0.094790004
0.0021169931 0.030262224 0.094790004
0.00037964433 0.030701287 0.094790004
0.0038543493 0.029694609 0.093052655
0.005591698 0.029023208 0.093052655
0.0038543493 0.029781036 0.094790004
0.005591698 0.029229365 0.094790004
0.0012626052 0.030572809 0.09652736
0.0021169931 0.030402787 0.09652736
-0.0013577119 0.030832909 0.09652736
0.00037964433 0.03071522 0.09652736
0.0017667338 0.030572809 0.098264709
0.0021169931 0.030507229 0.098264709
0.00037964433 0.030757122 0.098264709
0.0038543493 0.029821046 0.09652736
0.005591698 0.029378019 0.09652736
0.0038543493 0.03003604 0.098264709
0.005591698 0.029658653 0.098264709
0.0021169931 0.030572809 0.099619418
0.00037964433 0.030852415 0.10000207
0.0021169931 0.030614413 0.10000207
0.00037964433 0.030986287 0.10173941
0.0021169931 0.03075888 0.10173941
0.0023454726 0.030572809 0.10000207
0.0038543493 0.030237727 0.10000207
0.005591698 0.029793508 0.10000207
0.0031427518 0.030572809 0.10173941
0.0038543493 0.030408584 0.10173941
0.005591698 0.030010842 0.10173941
0.00037964433 0.03107775 0.10347677
0.0021169931 0.030878015 0.10347677
0.00037964433 0.03115914 0.10521412
0.0021169931 0.030990802 0.10521412
0.0038543493 0.030572809 0.10341116
0.0038997158 0.030572809 0.10347677
0.005591698 0.030196793 0.10347677
0.0038543493 0.030581303 0.10347677
0.0050181299 0.030572809 0.10521412
0.005591698 0.030410953 0.10521412
0.0038543493 0.030797265 0.10521412
0.0073290542 0.028840192 0.10000207
0.0073290542 0.029189311 0.10173941
0.0073290542 0.029467307 0.10347677
0.0073290542 0.0297179 0.10521412
0.00037964433 0.03128127 0.10695148
0.0021169931 0.031053193 0.10695148
0.00037964433 0.03142745 0.10868883
0.0021169931 0.031145297 0.10868883
0.005418323 0.030572809 0.10695148
0.005591698 0.030527316 0.10695148
0.0038543493 0.030883022 0.10695148
0.0051830858 0.030572809 0.10868883
0.005591698 0.03048072 0.10868883
0.0038543493 0.030846722 0.10868883
0.005591698 0.030572809 0.11021459
0.0021169931 0.031246252 0.11042619
0.0038543493 0.030939303 0.11042619
0.005591698 0.030613206 0.11042619
0.0021169931 0.031407677 0.11216353
0.0038543493 0.03111691 0.11216353
0.005591698 0.030804299 0.11216353
0.0073290542 0.02993346 0.10695148
0.0090664029 0.029064678 0.10695148
0.0073290542 0.030031629 0.10868883
0.0090664029 0.02942986 0.10868883
0.0057762638 0.030572809 0.11042619
0.0073290542 0.030124374 0.11042619
0.0090664029 0.029532187 0.11042619
0.0064553246 0.030572809 0.11216353
0.0073290542 0.030298658 0.11216353
0.0090664029 0.029805742 0.11216353
0.010803759 0.029483639 0.11216353
0.0021169931 0.03146448 0.11390088
0.0038543493 0.031163432 0.11390088
0.005591698 0.030875467 0.11390088
0.0021169931 0.031366222 0.11563824
0.0038543493 0.0310959 0.11563824
0.005591698 0.030881979 0.11563824
0.0021169931 0.03136342 0.1173756
0.0038543493 0.031132124 0.1173756
0.005591698 0.030928068 0.1173756
0.0021169931 0.031374238 0.11911294
0.0038543493 0.031190895 0.11911294
0.005591698 0.031135984 0.11911294
0.0068972483 0.030572809 0.11390088
0.0073290542 0.030466266 0.11390088
0.0090664029 0.03006383 0.11390088
0.0071557984 0.030572809 0.11563824
0.0073290542 0.030532576 0.11563824
0.0090664029 0.030036442 0.11563824
0.010803759 0.029668592 0.11390088
0.010803759 0.029566415 0.11563824
0.0073290542 0.030572809 0.11691736
0.0075102076 0.030572809 0.1173756
0.0090664029 0.030160882 0.1173756
0.0073290542 0.030617051 0.1173756
0.0080930293 0.030572809 0.11911294
0.0090664029 0.030379526 0.11911294
0.0073290542 0.030818947 0.11911294
0.010803759 0.029672034 0.1173756
0.012541108 0.029017128 0.1173756
0.010803759 0.02988974 0.11911294
0.012541108 0.029130243 0.11911294
0.023671053 0.0045125186 0.12953706
0.024162583 0.0045125186 0.13127442
0.023681127 0.0062498748 0.12953706
0.02420672 0.0062498748 0.13127442
0.023665525 0.0079872236 0.12953706
0.02418872 0.0079872236 0.13127442
0.02454228 0.0045125186 0.13301177
0.024565659 0.0062498748 0.13301177
0.024570413 0.0079872236 0.13301177
0.023521386 0.0097245798 0.12953706
0.024031766 0.0097245798 0.13127442
0.023285575 0.011461928 0.12953706
0.023783542 0.011461928 0.13127442
0.024492167 0.0097245798 0.13301177
0.024353944 0.011461928 0.13301177
0.022724278 0.014936633 0.12953706
0.02296523 0.013771437 0.12953706
0.02296523 0.014936633 0.13036396
0.023054026 0.013199285 0.12953706
0.023584269 0.013199285 0.13127442
0.023288064 0.014936633 0.13127442
0.024228968 0.013199285 0.13301177
0.023988016 0.014936633 0.13301177
0.016990162 0.023623399 0.11911294
0.017698236 0.023623399 0.12085029
0.017753176 0.022060849 0.11911294
0.017753176 0.02350264 0.12085029
0.017829485 0.021886043 0.11911294
0.018411137 0.021886043 0.12085029
0.016053982 0.025360756 0.11911294
0.016753785 0.025360756 0.12085029
0.017753176 0.023623399 0.12100513
0.018834449 0.021886043 0.12258765
0.018263943 0.023623399 0.12258765
0.017317377 0.025360756 0.12258765
0.017753176 0.024709426 0.12258765
0.015525483 0.027098112 0.12085029
0.01601582 0.026510261 0.12085029
0.01325915 0.028835453 0.12085029
0.014278464 0.028173827 0.12085029
0.01601582 0.027098112 0.12240444
0.013859563 0.028835453 0.12258765
0.014278464 0.028611951 0.12258765
0.01601582 0.027173065 0.12258765
0.016074248 0.027098112 0.12258765
0.019172929 0.021886043 0.12432501
0.018764548 0.023623399 0.12432501
0.017753176 0.025360756 0.12360406
0.018091194 0.025360756 0.12432501
0.019332878 0.023623399 0.12606236
0.019490518 0.0227345 0.12606236
0.019490518 0.021886043 0.12565367
0.018799044 0.025360756 0.12606236
0.014278464 0.028835453 0.12346837
0.014629342 0.028835453 0.12432501
0.01601582 0.027887456 0.12432501
0.015261598 0.028835453 0.12606236
0.01601582 0.028378554 0.12606236
0.016791545 0.027098112 0.12432501
0.017753176 0.025875367 0.12432501
0.017596848 0.027098112 0.12606236
0.017753176 0.026933677 0.12606236
0.015824668 0.028835453 0.1277997
0.01601582 0.028724216 0.1277997
0.01601582 0.028835453 0.12842585
0.017753176 0.027098112 0.12648346
0.019341893 0.025360756 0.1277997
0.01818376 0.027098112 0.1277997
0.017753176 0.027493231 0.1277997
0.018672578 0.027098112 0.12953706
0.019490518 0.026031993 0.12953706
0.019490518 0.025360756 0.12833309
0.016309984 0.028835453 0.12953706
0.017753176 0.027876817 0.12953706
0.019180588 0.027098112 0.13127442
0.019490518 0.026703395 0.13127442
0.016741969 0.028835453 0.13127442
0.017753176 0.028274901 0.13127442
0.019490518 0.027098112 0.13257056
0.017329954 0.028835453 0.13301177
0.017753176 0.028656654 0.13301177
0.019490518 0.0272085 0.13301177
0.024702586 0.0045125186 0.13368556
0.024702586 0.0062498748 0.13353369
0.024981551 0.0045125186 0.13474913
0.025045283 0.0062498748 0.13474913
0.024702586 0.0079872236 0.13345718
0.025099941 0.0079872236 0.13474913
0.025505714 0.0045125186 0.13648647
0.025622986 0.0062498748 0.13648647
0.025684901 0.0079872236 0.13648647
0.024702586 0.0097245798 0.13370454
0.025026716 0.0097245798 0.13474913
0.024702586 0.011461928 0.13409702
0.02489569 0.011461928 0.13474913
0.025527291 0.0097245798 0.13648647
0.025344007 0.011461928 0.13648647
0.024702586 0.013199285 0.13445805
0.024782144 0.013199285 0.13474913
0.024605028 0.014936633 0.13474913
0.024702586 0.014236189 0.13474913
0.02522596 0.013199285 0.13648647
0.024702586 0.014936633 0.13507773
0.025083922 0.014936633 0.13648647
0.026178442 0.0079872236 0.13822383
0.025939114 0.0097245798 0.13822383
0.02574598 0.011461928 0.13822383
0.026360743 0.0097245798 0.13996118
0.026439928 0.0092916563 0.13996118
0.026439928 0.0079872236 0.13948712
0.02612666 0.011461928 0.13996118
0.025669418 0.013199285 0.13822383
0.025508292 0.014936633 0.13822383
0.02605655 0.013199285 0.13996118
0.025931306 0.014936633 0.13996118
0.026422344 0.0045125186 0.13996118
0.026439928 0.0029448941 0.13996118
0.026439928 0.0045125186 0.14005783
0.026439928 0.0097245798 0.14027579
0.026439928 0.011461928 0.14129178
0.026439928 0.013199285 0.14166629
0.026344948 0.014936633 0.14169854
0.026439928 0.013452969 0.14169854
0.026439928 0.014936633 0.14213559
0.022947915 0.018411346 0.13301177
0.022506453 0.020148702 0.13301177
0.02296523 0.018411346 0.13306351
0.02296523 0.020148702 0.13437656
0.022137083 0.021886043 0.13301177
0.0226245 0.021886043 0.13474913
0.02296523 0.020755284 0.13474913
0.02296523 0.021886043 0.13600065
0.023558743 0.018411346 0.13474913
0.023088582 0.020148702 0.13474913
0.024163894 0.018411346 0.13648647
0.023610033 0.020148702 0.13648647
0.023090176 0.021886043 0.13648647
0.024641134 0.018411346 0.13822383
0.024170943 0.020148702 0.13822383
0.023703076 0.021886043 0.13822383
0.024702586 0.018411346 0.13846931
0.024702586 0.020148702 0.13986243
0.025139935 0.018411346 0.13996118
0.024734341 0.020148702 0.13996118
0.02433712 0.021886043 0.13996118
0.024702586 0.020347498 0.13996118
0.017738216 0.028835453 0.13474913
0.017753176 0.028827719 0.13474913
0.019490518 0.027738117 0.13474913
0.017753176 0.028835453 0.13485925
0.018176131 0.028835453 0.13648647
0.019490518 0.027888946 0.13648647
0.018391825 0.028835453 0.13822383
0.019490518 0.027796321 0.13822383
0.018330865 0.028835453 0.13996118
0.019490518 0.028062142 0.13996118
0.021588497 0.023623399 0.13301177
0.021980695 0.023623399 0.13474913
0.020779677 0.025360756 0.13301177
0.021225922 0.025360756 0.13474913
0.021227874 0.024520673 0.13301177
0.021227874 0.025357671 0.13474913
0.022635914 0.023623399 0.13648647
0.02296523 0.022338547 0.13648647
0.021227874 0.025360756 0.13475572
0.021759965 0.025360756 0.13648647
0.019565724 0.027098112 0.13301177
0.020041265 0.027098112 0.13474913
0.020265944 0.027098112 0.13648647
0.021227874 0.025976531 0.13648647
0.02296523 0.023623399 0.1373882
0.022404678 0.025360756 0.13822383
0.02296523 0.024263434 0.13822383
0.022642039 0.025360756 0.13996118
0.02296523 0.024697922 0.13996118
0.02319663 0.023623399 0.13822383
0.023511179 0.023623399 0.13996118
0.020358436 0.027098112 0.13822383
0.021227874 0.026554815 0.13822383
0.020862229 0.027098112 0.13996118
0.021227874 0.026853822 0.13996118
0.025704421 0.018411346 0.14169854
0.025274344 0.020148702 0.14169854
0.024702586 0.021886043 0.14147648
0.024752058 0.021886043 0.14169854
0.026228629 0.018411346 0.14343588
0.025776841 0.020148702 0.14343588
0.025170289 0.021886043 0.14343588
0.018632241 0.028835453 0.14169854
0.019490518 0.0283195 0.14169854
0.019023098 0.028835453 0.14343588
0.019490518 0.02852758 0.14343588
0.019490518 0.028835453 0.14490791
0.022686683 0.025360756 0.14169854
0.02296523 0.024786927 0.14169854
0.02296523 0.025360756 0.14323665
0.023659639 0.023623399 0.14169854
0.024702586 0.021995179 0.14169854
0.024121441 0.023623399 0.14343588
0.024702586 0.022821642 0.14343588
0.023020171 0.025360756 0.14343588
0.021083139 0.027098112 0.14169854
0.021227874 0.026978366 0.14169854
0.021227874 0.027098112 0.14234821
0.021629997 0.027098112 0.14343588
0.02296523 0.025507517 0.14343588
0.021227874 0.027348258 0.14343588
0.024607353 0.023623399 0.14517324
0.024702586 0.023483776 0.14517324
0.02553644 0.021886043 0.14517324
0.023390137 0.025360756 0.14517324
0.024702586 0.023623399 0.14585997
0.025782876 0.021886043 0.14691059
0.024851955 0.023623399 0.14691059
0.023572661 0.025360756 0.14691059
0.024702586 0.02384185 0.14691059
0.02199281 0.027098112 0.14517324
0.02296523 0.02603925 0.14517324
0.01959186 0.028835453 0.14517324
0.021227874 0.027736284 0.14517324
0.022234239 0.027098112 0.14691059
0.02296523 0.026220046 0.14691059
0.020014726 0.028835453 0.14691059
0.021227874 0.027968399 0.14691059
0.026521303 0.0079872236 0.13996118
0.02645316 0.0027751699 0.13996118
0.026817583 0.0027751699 0.14169854
0.026644774 0.0045125186 0.14169854
0.026938163 0.0027751699 0.14343588
0.026794903 0.0045125186 0.14343588
0.027205728 0.0027751699 0.14517324
0.02698154 0.0045125186 0.14517324
0.027433135 0.0027751699 0.14691059
0.02722495 0.0045125186 0.14691059
0.026758008 0.0079872236 0.14169854
0.026731156 0.0097245798 0.14169854
0.026543461 0.011461928 0.14169854
0.026919775 0.0079872236 0.14343588
0.026984401 0.0097245798 0.14343588
0.026902162 0.011461928 0.14343588
0.026448302 0.013199285 0.14169854
0.026802488 0.013199285 0.14343588
0.026697852 0.014936633 0.14343588
0.008257255 0.030572809 0.12085029
0.0090664029 0.030494936 0.12085029
0.005591698 0.031094618 0.12085029
0.0073290542 0.03076271 0.12085029
0.0084112287 0.030572809 0.12258765
0.0090664029 0.030490421 0.12258765
0.005591698 0.031187214 0.12258765
0.0073290542 0.030787744 0.12258765
0.010803759 0.030090176 0.12085029
0.012541108 0.029220425 0.12085029
0.010803759 0.03020715 0.12258765
0.012541108 0.029495664 0.12258765
0.0090664029 0.030572809 0.12356849
0.005591698 0.031524457 0.12432501
0.0073290542 0.031051643 0.12432501
0.0090664029 0.030703209 0.12432501
0.005591698 0.03165736 0.12606236
0.0073290542 0.031190179 0.12606236
0.0090664029 0.030931644 0.12606236
0.010370441 0.030572809 0.12432501
0.010803759 0.030506097 0.12432501
0.012541108 0.029974096 0.12432501
0.010803759 0.030572809 0.12466285
0.011440486 0.030572809 0.12606236
0.012541108 0.030280627 0.12606236
0.010803759 0.030715622 0.12606236
0.005591698 0.031775899 0.1277997
0.0073290542 0.031307958 0.1277997
0.0090664029 0.031013422 0.1277997
0.005591698 0.031860165 0.12953706
0.0073290542 0.031417303 0.12953706
0.0090664029 0.031142004 0.12953706
0.01175829 0.030572809 0.1277997
0.012541108 0.030364506 0.1277997
0.010803759 0.030766584 0.1277997
0.012226984 0.030572809 0.12953706
0.012541108 0.030470692 0.12953706
0.010803759 0.030909128 0.12953706
0.005591698 0.031902187 0.13127442
0.0073290542 0.031473123 0.13127442
0.0090664029 0.031248994 0.13127442
0.005591698 0.031918131 0.13301177
0.0073290542 0.031515546 0.13301177
0.0090664029 0.031192057 0.13301177
0.012541108 0.030572809 0.13050507
0.010803759 0.03105057 0.13127442
0.012541108 0.030611537 0.13127442
0.010803759 0.031009264 0.13301177
0.012541108 0.03063 0.13301177
0.014278464 0.029034458 0.12432501
0.014278464 0.029448204 0.12606236
0.014278464 0.029670469 0.1277997
0.014278464 0.029831134 0.12953706
0.01601582 0.029005595 0.12953706
0.012681238 0.030572809 0.13127442
0.014278464 0.030060373 0.13127442
0.01601582 0.029232837 0.13127442
0.012758456 0.030572809 0.13301177
0.014278464 0.030118786 0.13301177
0.01601582 0.029406019 0.13301177
0.00037964433 0.032281972 0.13301177
0.00037964433 0.032310165 0.13338538
0.0015131682 0.032310165 0.13474913
0.0021169931 0.0322515 0.13301177
0.0021169931 0.032270364 0.13474913
0.0021169931 0.032310165 0.13608177
0.00037964433 0.032404371 0.13474913
0.00037964433 0.032473676 0.13648647
0.0021169931 0.03232751 0.13648647
0.0024521053 0.032310165 0.13648647
0.0038543493 0.032230578 0.13648647
0.0038543493 0.032310165 0.13746275
0.0055797324 0.032310165 0.13822383
0.005591698 0.032132544 0.13648647
0.005591698 0.03230954 0.13822383
0.005591698 0.032310165 0.13822986
0.00037964433 0.032475404 0.13822383
0.0021169931 0.032391153 0.13822383
0.00037964433 0.032461531 0.13996118
0.0021169931 0.032428958 0.13996118
0.0038543493 0.03236223 0.13822383
0.0038543493 0.032414697 0.13996118
0.005591698 0.032444067 0.13996118
0.005591698 0.031960152 0.13474913
0.0073290542 0.031600766 0.13474913
0.0090664029 0.031331532 0.13474913
0.0073290542 0.031881191 0.13648647
0.0090664029 0.031649642 0.13648647
0.010803759 0.031084917 0.13474913
0.012541108 0.030712567 0.13474913
0.010803759 0.031312592 0.13648647
0.012541108 0.030886389 0.13648647
0.0090664029 0.031887434 0.13822383
0.010803759 0.031496875 0.13822383
0.012541108 0.031062044 0.13822383
0.0090664029 0.032107346 0.13996118
0.010803759 0.031683214 0.13996118
0.012541108 0.031217806 0.13996118
0.0019982159 0.032310165 0.14343588
0.0021169931 0.032299303 0.14343588
0.0021169931 0.032310165 0.14324845
0.0038543493 0.032275446 0.14343588
0.0038543493 0.032310165 0.1426235
0.0042729229 0.032310165 0.14343588
0.00037964433 0.032451414 0.14169854
0.0021169931 0.032397576 0.14169854
0.00037964433 0.032474957 0.14343588
0.0038543493 0.032363094 0.14169854
0.005591698 0.032483868 0.14169854
0.005591698 0.032485582 0.14343588
0.001929611 0.032310165 0.14517324
0.0021169931 0.032282837 0.14517324
0.00037964433 0.03222131 0.14691059
0.00037964433 0.032310165 0.14625627
0.001035735 0.032310165 0.14691059
0.0021169931 0.032310165 0.14569223
0.0038543493 0.032298587 0.14517324
0.0039203539 0.032310165 0.14517324
0.0038543493 0.032310165 0.14531897
0.00037964433 0.032440238 0.14517324
0.0021169931 0.032386251 0.14691059
0.005591698 0.032551847 0.14517324
0.0038543493 0.032540746 0.14691059
0.005591698 0.032716461 0.14691059
0.013214909 0.030572809 0.13474913
0.014278464 0.030260034 0.13474913
0.01601582 0.029612504 0.13474913
0.013908304 0.030572809 0.13648647
0.014278464 0.030452095 0.13648647
0.01601582 0.029799737 0.13648647
0.017753176 0.029060997 0.13648647
0.014198534 0.030572809 0.13822383
0.014278464 0.03054782 0.13822383
0.01601582 0.029952116 0.13822383
0.014278464 0.030572809 0.13852911
0.014645971 0.030572809 0.13996118
0.01601582 0.030097477 0.13996118
0.014278464 0.030692704 0.13996118
0.017753176 0.029227249 0.13822383
0.017753176 0.029215746 0.13996118
0.01601582 0.030294366 0.14169854
0.017753176 0.029425986 0.14169854
0.01601582 0.030558728 0.14343588
0.017753176 0.029706009 0.14343588
0.016603373 0.030572809 0.14517324
0.017753176 0.029981397 0.14517324
0.01601582 0.030572809 0.14353158
0.019490518 0.028888233 0.14517324
0.01601582 0.030804433 0.14517324
0.016742192 0.030572809 0.14691059
0.017753176 0.030106701 0.14691059
0.019490518 0.029156752 0.14691059
0.01601582 0.030873306 0.14691059
0.026140578 0.021886043 0.15038531
0.026370324 0.021886043 0.15212265
0.026439928 0.020959534 0.15038531
0.026439928 0.02169656 0.15212265
0.026439928 0.021886043 0.1525365
0.025983445 0.021886043 0.14864795
0.025080316 0.023623399 0.14864795
0.023861609 0.025360756 0.14864795
0.024702586 0.024173953 0.14864795
0.025337599 0.023623399 0.15038531
0.024210565 0.025360756 0.15038531
0.024702586 0.024662964 0.15038531
0.022528984 0.027098112 0.14864795
0.02296523 0.026585363 0.14864795
0.020280711 0.028835453 0.14864795
0.021227874 0.028191037 0.14864795
0.022570781 0.027098112 0.15038531
0.02296523 0.026701562 0.15038531
0.020564191 0.028835453 0.15038531
0.021227874 0.028352283 0.15038531
0.025711991 0.023623399 0.15212265
0.024682246 0.025360756 0.15212265
0.024702586 0.025336213 0.15212265
0.025978379 0.023623399 0.15386
0.026439928 0.022456251 0.15386
0.024702586 0.025360756 0.1521834
0.025058948 0.025360756 0.15386
0.022578172 0.027098112 0.15212265
0.02296523 0.026807152 0.15212265
0.020644195 0.028835453 0.15212265
0.021227874 0.028321065 0.15212265
0.02296523 0.027098112 0.15361308
0.020824827 0.028835453 0.15386
0.021227874 0.028513916 0.15386
0.02296523 0.027163304 0.15386
0.023093604 0.027098112 0.15386
0.024702586 0.02589909 0.15386
0.026051961 0.023623399 0.15559736
0.026439928 0.022854723 0.15559736
0.025081359 0.025360756 0.15559736
0.026181929 0.023623399 0.15733472
0.026439928 0.023113765 0.15733472
0.025230892 0.025360756 0.15733472
0.02111391 0.028835453 0.15559736
0.021227874 0.028764926 0.15559736
0.02296523 0.027536549 0.15559736
0.021227874 0.028835453 0.15649465
0.021447532 0.028835453 0.15733472
0.02296523 0.027823038 0.15733472
0.023616157 0.027098112 0.15559736
0.024702586 0.025998183 0.15559736
0.023895286 0.027098112 0.15733472
0.024702586 0.026193418 0.15733472
0.02634073 0.023623399 0.15907206
0.026439928 0.023452275 0.15907206
0.025301911 0.025360756 0.15907206
0.026439928 0.023623399 0.15983793
0.025376625 0.025360756 0.16080941
0.026439928 0.023964621 0.16080941
0.021831162 0.028835453 0.15907206
0.02296523 0.02805721 0.15907206
0.021896802 0.028835453 0.16080941
0.02296523 0.028151773 0.16080941
0.02409444 0.027098112 0.15907206
0.024702586 0.026339106 0.15907206
0.024151973 0.027098112 0.16080941
0.024702586 0.026311614 0.16080941
0.025798492 0.025360756 0.16254677
0.026439928 0.024490722 0.16254677
0.02611614 0.025360756 0.16428412
0.026439928 0.024714462 0.16428412
0.022056155 0.028835453 0.16254677
0.02296523 0.028204463 0.16254677
0.022185884 0.028835453 0.16428412
0.02296523 0.028257079 0.16428412
0.024246104 0.027098112 0.16254677
0.024702586 0.026611768 0.16254677
0.024410911 0.027098112 0.16428412
0.024702586 0.026873432 0.16428412
0.026115246 0.025360756 0.16602148
0.026439928 0.024783738 0.16602148
0.025977887 0.025360756 0.16775882
0.026439928 0.024682529 0.16775882
0.022195615 0.028835453 0.16602148
0.02296523 0.028252222 0.16602148
0.022073247 0.028835453 0.16775882
0.02296523 0.028046258 0.16775882
0.024487235 0.027098112 0.16602148
0.024702586 0.026926674 0.16602148
0.024165414 0.027098112 0.16775882
0.024702586 0.02669885 0.16775882
0.025967203 0.021886043 0.17470825
0.026439928 0.020600446 0.17470825
0.026439928 0.021886043 0.17385831
0.017829247 0.028835453 0.17470825
0.019490518 0.028058983 0.17470825
0.019490518 0.028835453 0.17358111
0.025299706 0.025360756 0.16949618
0.026439928 0.023885481 0.16949618
0.026208527 0.023623399 0.17123353
0.026439928 0.0232132 0.17123353
0.026439928 0.023623399 0.17003417
0.02466426 0.025360756 0.17123353
0.024702586 0.025305875 0.17123353
0.024702586 0.025360756 0.17108823
0.021901138 0.028835453 0.16949618
0.02296523 0.02798716 0.16949618
0.021667831 0.028835453 0.17123353
0.02296523 0.02790866 0.17123353
0.023995616 0.027098112 0.16949618
0.024702586 0.026212759 0.16949618
0.023760341 0.027098112 0.17123353
0.025703095 0.023623399 0.17297089
0.026439928 0.022506811 0.17297089
0.024055608 0.025360756 0.17297089
0.024702586 0.02453839 0.17297089
0.024391763 0.023623399 0.17470825
0.024702586 0.023306362 0.17470825
0.024702586 0.023623399 0.17430249
0.023108073 0.025360756 0.17470825
0.022814833 0.027098112 0.17297089
0.02296523 0.026955329 0.17297089
0.02296523 0.027098112 0.17276137
0.020430274 0.028835453 0.17297089
0.021227874 0.028386809 0.17297089
0.021227874 0.028835453 0.17215197
0.02149228 0.027098112 0.17470825
0.02296523 0.025616758 0.17470825
0.021227874 0.027221777 0.17470825
0.028060339 0.0097245798 0.15038531
0.028177284 0.0080856532 0.15038531
0.028177284 0.0097245798 0.15109475
0.028183736 0.0079872236 0.15038531
0.028536476 0.0079872236 0.15212265
0.028301649 0.0097245798 0.15212265
0.027959131 0.011461928 0.15038531
0.028177284 0.011461928 0.15194216
0.02820503 0.011461928 0.15212265
0.028785147 0.0079872236 0.15386
0.028566845 0.0097245798 0.15386
0.028497018 0.011461928 0.15386
0.027880557 0.013199285 0.15038531
0.028094523 0.013199285 0.15212265
0.028177284 0.011910744 0.15212265
0.02771493 0.014936633 0.15038531
0.027953871 0.014936633 0.15212265
0.028177284 0.013199285 0.1529486
0.028257407 0.013199285 0.15386
0.028116874 0.014936633 0.15386
0.028177284 0.013961419 0.15386
0.02918487 0.0027751699 0.15733472
0.029503904 0.0027751699 0.15907206
0.029488049 0.0045125186 0.15733472
0.02991464 0.004246138 0.15907206
0.02991464 0.0045125186 0.15887246
0.029799171 0.0027751699 0.16080941
0.02991464 0.0029874295 0.16080941
0.029998921 0.0045125186 0.15907206
0.030375801 0.0045125186 0.16080941
0.029030688 0.0079872236 0.15559736
0.028795175 0.0097245798 0.15559736
0.028718837 0.011461928 0.15559736
0.029428251 0.0079872236 0.15733472
0.029019929 0.0097245798 0.15733472
0.028823845 0.011461928 0.15733472
0.02842959 0.013199285 0.15559736
0.028177284 0.014936633 0.15460365
0.028266154 0.014936633 0.15559736
0.028590716 0.013199285 0.15733472
0.028427295 0.014936633 0.15733472
0.029733308 0.0079872236 0.15907206
0.029133029 0.0097245798 0.15907206
0.028971575 0.011461928 0.15907206
0.029844172 0.0079872236 0.16080941
0.029262759 0.0097245798 0.16080941
0.029084526 0.011461928 0.16080941
0.028718539 0.013199285 0.15907206
0.028515406 0.014936633 0.15907206
0.028810628 0.013199285 0.16080941
0.028606884 0.014936633 0.16080941
0.027414344 0.01667399 0.15038531
0.027685411 0.01667399 0.15212265
0.027026422 0.018411346 0.15038531
0.027317964 0.018411346 0.15212265
0.02795244 0.01667399 0.15386
0.027632065 0.018411346 0.15386
0.026642866 0.020148702 0.15038531
0.0269242 0.020148702 0.15212265
0.027179204 0.020148702 0.15386
0.026628934 0.021886043 0.15386
0.028126948 0.01667399 0.15559736
0.028177284 0.01625634 0.15559736
0.027842827 0.018411346 0.15559736
0.028177284 0.01667399 0.15633553
0.028264575 0.01667399 0.15733472
0.027984761 0.018411346 0.15733472
0.028177284 0.017262422 0.15733472
0.027419783 0.020148702 0.15559736
0.026838355 0.021886043 0.15559736
0.027636923 0.020148702 0.15733472
0.02703888 0.021886043 0.15733472
0.028394558 0.01667399 0.15907206
0.0280995 0.018411346 0.15907206
0.028177284 0.018047847 0.15907206
0.028567858 0.01667399 0.16080941
0.028177284 0.018411346 0.16026857
0.028225295 0.018411346 0.16080941
0.027761035 0.020148702 0.15907206
0.027256392 0.021886043 0.15907206
0.02784308 0.020148702 0.16080941
0.028177284 0.018570788 0.16080941
0.027423836 0.021886043 0.16080941
0.026641704 0.023623399 0.16080941
0.029623978 0.0027751699 0.16254677
0.02991464 0.0036470518 0.16254677
0.029352151 0.0027751699 0.16428412
0.029400311 0.0045125186 0.16428412
0.02991464 0.0045125186 0.16292043
0.030046113 0.0045125186 0.16254677
0.02929718 0.0027751699 0.16602148
0.029207952 0.0045125186 0.16602148
0.029181965 0.0027751699 0.16775882
0.029182963 0.0045125186 0.16775882
0.0297058 0.0079872236 0.16254677
0.029359199 0.0097245798 0.16254677
0.029179178 0.011461928 0.16254677
0.029510073 0.0079872236 0.16428412
0.029367484 0.0097245798 0.16428412
0.029327162 0.011461928 0.16428412
0.028906994 0.013199285 0.16254677
0.028675191 0.014936633 0.16254677
0.029073395 0.013199285 0.16428412
0.028595962 0.014936633 0.16428412
0.029487692 0.0079872236 0.16602148
