# .PCD v0.7 - Point Cloud Data file format
VERSION 0.7
FIELDS x y z
SIZE 4 4 4
TYPE F F F
COUNT 1 1 1
WIDTH 1292
HEIGHT 1
VIEWPOINT 0 0 0 1 0 0 0
POINTS 1292
DATA ascii
-0.034214891 -0.0092119724 0.080901846
-0.032905564 -0.012629375 0.080901846
-0.034515612 -0.0092119724 0.084377721
-0.034568772 -0.0092119724 0.087853603
-0.032905564 -0.012683257 0.087853603
-0.034481138 -0.0092119724 0.091329478
-0.035526402 -0.0057360977 0.091329478
-0.035630032 -0.0022602156 0.091329478
-0.03543859 0.0012156591 0.091329478
-0.025853999 -0.023115478 0.06699834
-0.022477932 -0.026029967 0.06699834
-0.025953807 -0.023023158 0.06699834
-0.025967792 -0.023115478 0.070474215
-0.025953807 -0.023128681 0.070474215
-0.025953807 -0.023115478 0.069086805
-0.022477932 -0.026127003 0.070474215
-0.029270917 -0.019639604 0.070474215
-0.026071623 -0.023115478 0.073950097
-0.025953807 -0.02324488 0.073950097
-0.022477932 -0.026313238 0.073950097
-0.029179074 -0.019639604 0.073950097
-0.025953807 -0.023115478 0.077110484
-0.025914721 -0.023115478 0.077425972
-0.022477932 -0.026579924 0.077425972
-0.028945796 -0.019639604 0.077425972
-0.025953807 -0.023070365 0.077425972
-0.02572304 -0.023115478 0.080901846
-0.028724514 -0.019639604 0.080901846
-0.025953807 -0.02286011 0.080901846
-0.025842413 -0.023115478 0.084377721
-0.028919719 -0.019639604 0.084377721
-0.025953807 -0.022994496 0.084377721
-0.025823124 -0.023115478 0.087853603
-0.022477932 -0.026047938 0.087853603
-0.029239155 -0.019639604 0.087853603
-0.025953807 -0.022995561 0.087853603
-0.026050612 -0.023115478 0.091329478
-0.025953807 -0.023196489 0.091329478
-0.025953807 -0.023115478 0.090705201
-0.022477932 -0.026134424 0.091329478
0.0018532053 -0.036355846 0.00095668249
0.0053290874 -0.036392786 0.00095668249
0.008804962 -0.034969725 0.00095668249
0.011736117 -0.03354311 0.00095668249
0.012280837 -0.033472665 0.00095668249
0.0018532053 -0.034740403 0.004432559
0.004509002 -0.03354311 0.004432559
0.0053290874 -0.03354311 0.0041222461
0.0018532053 -0.03354311 0.0061970931
0.0084751993 -0.03354311 0.004432559
0.008804962 -0.033668302 0.004432559
0.012280837 -0.03414464 0.004432559
0.012280837 -0.03354311 0.002065083
0.008804962 -0.03354311 0.0058998894
0.0094098821 -0.03354311 0.0079084355
0.0053290874 -0.033283241 0.004432559
0.0018532053 -0.03287974 0.0079084355
0.0053290874 -0.032782845 0.0079084355
0.008804962 -0.033394188 0.0079084355
0.015756711 -0.03205999 0.00095668249
0.018133938 -0.030067235 0.00095668249
0.019232586 -0.029133461 0.00095668249
0.022708461 -0.026591353 0.0001921393
0.01410909 -0.03354311 0.004432559
0.02618435 -0.023115478 0.00084625743
0.028139025 -0.019639604 0.00095668249
0.029318437 -0.016163722 0.00095668249
0.029660225 -0.015101589 0.00095668249
0.030951664 -0.012687847 0.00095668249
0.029769808 -0.019639604 0.0079084355
0.029660225 -0.018338792 0.004432559
0.029660225 -0.016163722 0.0022280961
0.029860064 -0.016163722 0.004432559
0.031238452 -0.012687847 0.004432559
0.029831856 -0.016163722 0.0079084355
0.031285539 -0.012687847 0.0079084355
0.0331361 -0.01013156 0.00095668249
0.033850685 -0.0092119724 0.00095668249
0.034017414 -0.0057360977 0.00095668249
0.032401055 -0.0022602156 0.00095668249
0.0331361 -0.00396429 0.00095668249
0.0331361 -0.0022602156 0.00054330379
0.032585964 0.0012156591 0.00095668249
0.0331361 0.0012156591 0.00077609904
0.032850951 -0.0092119724 0.004432559
0.0331361 -0.0092119724 0.0031004231
0.032217667 -0.0057360977 0.004432559
0.0331361 -0.0057360977 0.0022251774
0.032211676 -0.0092119724 0.0079084355
0.031611905 -0.0057360977 0.0079084355
0.031044737 -0.0022602156 0.004432559
0.03051056 0.0012156591 0.004432559
0.032751501 -0.0022602156 0.0079084355
0.0331361 -0.0017620847 0.0079084355
0.0331361 0.0012156591 0.0076192878
0.03349176 0.0012156591 0.0079084355
0.0018532053 -0.03354311 0.012777183
0.0053290874 -0.03354311 0.01188926
0.008804962 -0.033595681 0.01486019
0.008804962 -0.03354311 0.013034482
0.0097363591 -0.03354311 0.01486019
0.0018532053 -0.033161841 0.011384312
0.0053290874 -0.033414364 0.011384312
0.008804962 -0.033431567 0.011384312
0.008804962 -0.033593297 0.018336065
0.0089729875 -0.03354311 0.018336065
0.0075215325 -0.03354311 0.021811944
0.008804962 -0.03354311 0.019250795
0.008804962 -0.032976963 0.021811944
0.0053290874 -0.033736408 0.025287818
-0.00061512738 -0.03354311 0.028763697
0.0018532053 -0.03354311 0.027467363
0.0053290874 -0.03354311 0.026218954
0.0061004758 -0.03354311 0.025287818
0.0018532053 -0.033131339 0.028763697
0.0053290874 -0.033320576 0.028763697
0.008804962 -0.032839842 0.025287818
0.008804962 -0.033485107 0.028763697
0.0052735955 -0.03354311 0.032239571
0.0053290874 -0.033553414 0.032239571
0.0053290874 -0.03354311 0.032163542
0.0018532053 -0.03354311 0.03518305
0.008804962 -0.033811502 0.032239571
0.008804962 -0.03354311 0.029144306
0.011143602 -0.03354311 0.032239571
0.008804962 -0.033600375 0.03571545
0.0095070302 -0.03354311 0.03571545
0.0018532053 -0.033022493 0.032239571
0.012280837 -0.0332736 0.032239571
0.012280837 -0.032997854 0.03571545
0.02618435 -0.01929985 0.03571545
0.026058123 -0.012687847 0.03571545
0.02618435 -0.014470451 0.03571545
0.02618435 -0.012687847 0.035415716
0.02618435 -0.010893218 0.03571545
0.029660225 -0.020717844 0.01486019
0.029660225 -0.019639604 0.014348041
0.029843912 -0.019639604 0.01486019
0.029660225 -0.016576953 0.011384312
0.029808521 -0.016163722 0.011384312
0.031163305 -0.012687847 0.011384312
0.030360788 -0.016163722 0.01486019
0.030636281 -0.012687847 0.01486019
0.030373678 -0.019639604 0.018336065
0.030296713 -0.016163722 0.018336065
0.029903591 -0.012687847 0.018336065
0.028968975 -0.016163722 0.021811944
0.029660225 -0.016163722 0.020073485
0.029540971 -0.012687847 0.021811944
0.029660225 -0.012687847 0.020334546
0.031801581 -0.0092119724 0.011384312
0.031534389 -0.0057360977 0.011384312
0.031197205 -0.0092119724 0.01486019
0.031701475 -0.0057360977 0.01486019
0.032521829 -0.0022602156 0.011384312
0.0331361 -0.0013883412 0.011384312
0.031029165 -0.0022602156 0.01486019
0.030234516 0.0012156591 0.01486019
0.0331361 0.0012156591 0.012052231
0.033744872 0.0012156591 0.011384312
0.030454084 -0.0092119724 0.018336065
0.031330451 -0.0057360977 0.018336065
0.029660225 -0.012167849 0.021811944
0.030073181 -0.0092119724 0.021811944
0.030092925 -0.0057360977 0.021811944
0.030776322 -0.0022602156 0.018336065
0.030178353 0.0012156591 0.018336065
0.029909119 -0.0022602156 0.021811944
0.030409783 0.0012156591 0.021811944
0.028915405 -0.016163722 0.025287818
0.029505104 -0.012687847 0.025287818
0.029263481 -0.016163722 0.028763697
0.02909708 -0.012687847 0.028763697
0.028204396 -0.016163722 0.032239571
0.027567402 -0.012687847 0.032239571
0.026494876 -0.016163722 0.03571545
0.029621899 -0.0092119724 0.025287818
0.029660225 -0.0092119724 0.025021497
0.029126182 -0.0057360977 0.025287818
0.029660225 -0.0057360977 0.023013871
0.029055908 -0.0092119724 0.028763697
0.028908134 -0.0057360977 0.028763697
0.028774798 -0.0022602156 0.025287818
0.029660225 -0.0022602156 0.022453345
0.029299334 0.0012156591 0.025287818
0.029660225 0.0012156591 0.024169479
0.028599694 -0.0022602156 0.028763697
0.028691575 0.0012156591 0.028763697
0.028000981 -0.0092119724 0.032239571
0.028384417 -0.0057360977 0.032239571
0.026553482 -0.0092119724 0.03571545
0.027020961 -0.0057360977 0.03571545
0.028333083 -0.0022602156 0.032239571
0.028345361 0.0012156591 0.032239571
0.0272782 -0.0022602156 0.03571545
0.027504504 0.0012156591 0.03571545
0.0065020919 -0.03354311 0.039191328
0.008804962 -0.03354311 0.036125451
0.0076359287 -0.03354311 0.042667203
0.0070117414 -0.03354311 0.046143077
0.008804962 -0.031292617 0.060046583
0.011118665 -0.030067235 0.060046583
0.012280837 -0.029316597 0.060046583
0.008804962 -0.031448923 0.063522466
0.011215866 -0.030067235 0.063522466
0.012280837 -0.029339455 0.063522466
0.017220795 -0.026591353 0.053094834
0.01589638 -0.026591353 0.056570709
0.015301406 -0.026591353 0.060046583
0.015756711 -0.026591353 0.057149328
0.014930621 -0.026591353 0.063522466
0.02618435 -0.016163722 0.036308087
0.025159523 -0.012687847 0.039191328
0.024546534 -0.012687847 0.042667203
0.022708461 -0.014311291 0.046143077
0.023053899 -0.012687847 0.046143077
0.021412447 -0.016163722 0.049618959
0.022179574 -0.012687847 0.049618959
0.022708461 -0.012687847 0.047181107
0.025674477 -0.0092119724 0.039191328
0.02618435 -0.0092119724 0.036728736
0.025541723 -0.0057360977 0.039191328
0.02618435 -0.0057360977 0.037619185
0.024914742 -0.0092119724 0.042667203
0.024320289 -0.0057360977 0.042667203
0.025776103 -0.0022602156 0.039191328
0.02618435 -0.0022602156 0.038305245
0.02584514 0.0012156591 0.039191328
0.02618435 0.0012156591 0.038585164
0.024394944 -0.0022602156 0.042667203
0.024445668 0.0012156591 0.042667203
0.023644447 -0.0092119724 0.046143077
0.023510441 -0.0057360977 0.046143077
0.022708461 -0.0095355362 0.049618959
0.022750348 -0.0092119724 0.049618959
0.022909254 -0.0057360977 0.049618959
0.02344127 -0.0022602156 0.046143077
0.023429528 0.0012156591 0.046143077
0.02271387 -0.0022602156 0.049618959
0.022450849 0.0012156591 0.049618959
0.022708461 -0.0021978766 0.049618959
0.022708461 0.0012156591 0.048562795
0.019143701 -0.023115478 0.053094834
0.019232586 -0.023115478 0.052540757
0.019232586 -0.022620529 0.053094834
0.018337995 -0.023115478 0.056570709
0.018992007 -0.019639604 0.056570709
0.019232586 -0.019639604 0.055476606
0.019752979 -0.019639604 0.053094834
0.019232586 -0.018409796 0.056570709
0.020609409 -0.016163722 0.053094834
0.021338299 -0.012687847 0.053094834
0.019845292 -0.016163722 0.056570709
0.020696506 -0.012687847 0.056570709
0.015756711 -0.02602388 0.060046583
0.017343506 -0.023115478 0.060046583
0.018306106 -0.019639604 0.060046583
0.015756711 -0.024948038 0.063522466
0.016323969 -0.023115478 0.063522466
0.017510027 -0.019639604 0.063522466
0.019232586 -0.016720295 0.060046583
0.018717334 -0.016163722 0.063522466
0.019232586 -0.016163722 0.061450042
0.019232586 -0.013687976 0.063522466
0.019409046 -0.016163722 0.060046583
0.020192385 -0.012687847 0.060046583
0.019349694 -0.012687847 0.063522466
0.021793351 -0.0092119724 0.053094834
0.022708461 -0.0092119724 0.049823664
0.022078678 -0.0057360977 0.053094834
0.022708461 -0.0057360977 0.050816253
0.020875096 -0.0092119724 0.056570709
0.020698786 -0.0057360977 0.056570709
0.021880537 -0.0022602156 0.053094834
0.022708461 -0.0022602156 0.049652338
0.021527976 0.0012156591 0.053094834
0.020666465 -0.0022602156 0.056570709
0.020578921 0.0012156591 0.056570709
0.02024281 -0.0092119724 0.060046583
0.019874826 -0.0057360977 0.060046583
0.019436464 -0.0092119724 0.063522466
0.019386947 -0.0057360977 0.063522466
0.019863561 -0.0022602156 0.060046583
0.019903228 0.0012156591 0.060046583
0.019357622 -0.0022602156 0.063522466
0.019329503 0.0012156591 0.063522466
0.0058041662 -0.03354311 0.06699834
0.008804962 -0.031727359 0.06699834
0.011285178 -0.030067235 0.06699834
0.012280837 -0.029205322 0.06699834
0.008804962 -0.031827755 0.070474215
0.011184774 -0.030067235 0.070474215
0.012280837 -0.02899985 0.070474215
0.0014252216 -0.03354311 0.073950097
0.0018532053 -0.03354311 0.070978709
0.0018532053 -0.033889063 0.077425972
0.0018532053 -0.03354311 0.075428724
0.0038739815 -0.03354311 0.077425972
0.0018532053 -0.033441439 0.073950097
0.014488235 -0.026591353 0.06699834
0.014140666 -0.026591353 0.070474215
0.01388967 -0.026591353 0.073950097
0.013747126 -0.026591353 0.077425972
0.0018532053 -0.034315057 0.080901846
0.005013153 -0.03354311 0.080901846
0.0018532053 -0.034240104 0.084377721
0.0018532053 -0.034195438 0.087853603
0.0018532053 -0.034126893 0.091329478
0.015756711 -0.02412878 0.06699834
0.016107753 -0.023115478 0.06699834
0.01718691 -0.019639604 0.06699834
0.015756711 -0.023870692 0.070474215
0.016086489 -0.023115478 0.070474215
0.017080933 -0.019639604 0.070474215
0.017880037 -0.016163722 0.06699834
0.018230155 -0.012687847 0.06699834
0.019232586 -0.012687847 0.063866518
0.017475426 -0.016163722 0.070474215
0.01777418 -0.012687847 0.070474215
0.01574263 -0.023115478 0.073950097
0.015756711 -0.023115478 0.073847324
0.015756711 -0.02307564 0.073950097
0.016616121 -0.019639604 0.073950097
0.015346184 -0.023115478 0.077425972
0.015756711 -0.021755658 0.077425972
0.016226277 -0.019639604 0.077425972
0.017111093 -0.016163722 0.073950097
0.017613336 -0.012687847 0.073950097
0.016886994 -0.016163722 0.077425972
0.017422646 -0.012687847 0.077425972
0.018523425 -0.0092119724 0.06699834
0.019232586 -0.0092119724 0.06426952
0.01892437 -0.0057360977 0.06699834
0.019232586 -0.0057360977 0.064683124
0.018015504 -0.0092119724 0.070474215
0.01839754 -0.0057360977 0.070474215
0.018994406 -0.0022602156 0.06699834
0.019232586 -0.0022602156 0.064572603
0.018704638 0.0012156591 0.06699834
0.019232586 0.0012156591 0.064027034
0.018671468 -0.0022602156 0.070474215
0.018418312 0.0012156591 0.070474215
0.017794698 -0.0092119724 0.073950097
0.017994851 -0.0057360977 0.073950097
0.017710134 -0.0092119724 0.077425972
0.017809018 -0.0057360977 0.077425972
0.018347293 -0.0022602156 0.073950097
0.018445835 0.0012156591 0.073950097
0.017989859 -0.0022602156 0.077425972
0.018287659 0.0012156591 0.077425972
0.015074089 -0.023115478 0.080901846
0.015756711 -0.020776965 0.080901846
0.016042978 -0.019639604 0.080901846
0.015149087 -0.023115478 0.084377721
0.015756711 -0.020199202 0.084377721
0.015897185 -0.019639604 0.084377721
0.016756907 -0.016163722 0.080901846
0.017330527 -0.012687847 0.080901846
0.016718745 -0.016163722 0.084377721
0.017339379 -0.012687847 0.084377721
0.015371278 -0.023115478 0.087853603
0.015756711 -0.02060499 0.087853603
0.015940085 -0.019639604 0.087853603
0.01533173 -0.023115478 0.091329478
0.015756711 -0.021290474 0.091329478
0.016742691 -0.016163722 0.087853603
0.017649785 -0.012687847 0.087853603
0.017775849 -0.0092119724 0.080901846
0.017823279 -0.0057360977 0.080901846
0.017747059 -0.0092119724 0.084377721
0.017792583 -0.0057360977 0.084377721
0.01789166 -0.0022602156 0.080901846
0.018068016 0.0012156591 0.080901846
0.01783368 -0.0022602156 0.084377721
0.017893374 0.0012156591 0.084377721
0.017954573 -0.0092119724 0.087853603
0.0176626 -0.0057360977 0.087853603
0.017997682 -0.0092119724 0.091329478
0.017703339 -0.0057360977 0.091329478
0.017555133 -0.0022602156 0.087853603
-0.038149655 0.0046915337 0.00095668249
-0.03675963 0.0081674159 0.00095668249
-0.036381438 0.0091145709 0.00095668249
-0.035421833 0.011643291 0.00095668249
-0.034596242 0.015119165 0.00095668249
-0.036381438 0.0040564388 0.004432559
-0.036381438 0.0046915337 0.0037312116
-0.036381438 0.0081674159 0.0014811773
-0.036381438 0.0013744906 0.0079084355
-0.035719812 0.0046915337 0.004432559
-0.033725463 0.0081674159 0.004432559
-0.032905564 0.0040401965 0.0079084355
-0.032905564 0.0046915337 0.0073654484
-0.032339469 0.0046915337 0.0079084355
-0.032905564 0.0081674159 0.0056719519
-0.031786233 0.0081674159 0.0079084355
-0.033938028 0.011643291 0.004432559
-0.033359326 0.011643291 0.0079084355
-0.032905564 0.01080057 0.0079084355
-0.032979868 0.01859504 0.00095668249
-0.032905564 0.01859504 0.00063908659
-0.012050301 0.029022679 0.00041249953
-0.01900205 0.030512169 0.00095668249
-0.015526175 0.029695183 0.00095668249
-0.01900205 0.030487284 0.004432559
-0.015526175 0.031267539 0.004432559
-0.01900205 0.030876532 0.0079084355
-0.015787676 0.032498553 0.0079084355
-0.015526175 0.032498553 0.0076458696
-0.015526175 0.032605872 0.0079084355
-0.012050301 0.029549748 0.00095668249
-0.0085744262 0.030907303 0.00095668249
-0.0053101331 0.032498553 0.00095668249
-0.0050985441 0.032498553 0.00085189193
-0.0050985441 0.032968909 0.00095668249
-0.0043385923 0.035974428 0.00095668249
-0.012653664 0.032498553 0.004432559
-0.012050301 0.032498553 0.003916245
-0.0085744262 0.032498553 0.0018206462
-0.012050301 0.032805562 0.004432559
-0.0085744262 0.035298958 0.004432559
-0.012050301 0.033457443 0.0079084355
-0.0085744262 0.034781709 0.0079084355
-0.0075025409 0.035974428 0.004432559
-0.0050985441 0.035974428 0.0019293725
-0.0061833188 0.035974428 0.0079084355
-0.032905564 0.0028855875 0.011384312
-0.031570196 0.0046915337 0.011384312
-0.031721078 0.0081674159 0.011384312
-0.0338182 0.0046915337 0.01486019
-0.032905564 0.0046915337 0.013820827
-0.034674816 0.0081674159 0.01486019
-0.032905564 0.0081674159 0.013373289
-0.033300869 0.011643291 0.011384312
-0.032905564 0.010707349 0.011384312
-0.034492679 0.011643291 0.01486019
-0.033773668 0.015119165 0.01486019
-0.036479831 0.0046915337 0.018336065
-0.036381438 0.0044086203 0.018336065
-0.036381438 0.0046915337 0.018097766
-0.036381438 0.0076335743 0.018336065
-0.036381438 0.0046915337 0.021354053
-0.036154591 0.0081674159 0.018336065
-0.036129437 0.0046915337 0.021811944
-0.034096524 0.0081674159 0.021811944
-0.034652099 0.011643291 0.018336065
-0.033782206 0.015119165 0.018336065
-0.033555947 0.011643291 0.021811944
-0.033358917 0.015119165 0.021811944
-0.032905564 0.016830534 0.01486019
-0.032905564 0.01713486 0.018336065
-0.032905564 0.017791405 0.021811944
-0.032732174 0.01859504 0.021811944
-0.033874065 0.0046915337 0.025287818
-0.033982776 0.0081674159 0.025287818
-0.03429655 0.0046915337 0.028763697
-0.034340233 0.0081674159 0.028763697
-0.033703409 0.011643291 0.025287818
-0.033476979 0.015119165 0.025287818
-0.033864148 0.011643291 0.028763697
-0.033488445 0.015119165 0.028763697
-0.035123862 0.0046915337 0.032239571
-0.034353815 0.0081674159 0.032239571
-0.034711719 0.0046915337 0.03571545
-0.034246258 0.0081674159 0.03571545
-0.033829808 0.011643291 0.032239571
-0.033618726 0.015119165 0.032239571
-0.033950329 0.011643291 0.03571545
-0.033890724 0.015119165 0.03571545
-0.033259295 0.01859504 0.025287818
-0.032905564 0.01859504 0.022859517
-0.032905564 0.020680085 0.025287818
-0.032501921 0.022070915 0.025287818
-0.033419348 0.01859504 0.028763697
-0.032905564 0.021155924 0.028763697
-0.032543585 0.022070915 0.028763697
-0.030845486 0.025546789 0.028763697
-0.033463821 0.01859504 0.032239571
-0.032905564 0.021462455 0.032239571
-0.03270115 0.022070915 0.032239571
-0.03348989 0.01859504 0.03571545
-0.032905564 0.021132946 0.03571545
-0.032602645 0.022070915 0.03571545
-0.03120359 0.025546789 0.032239571
-0.029429682 0.027996644 0.032239571
-0.031098247 0.025546789 0.03571545
-0.029429682 0.028006375 0.03571545
-0.028011315 0.029022679 0.032239571
-0.028291941 0.029022679 0.03571545
-0.01900205 0.031860054 0.011384312
-0.018145368 0.032498553 0.011384312
-0.015526175 0.033652946 0.011384312
-0.012050301 0.033512518 0.011384312
-0.0085744262 0.03390485 0.011384312
-0.0050985441 0.03473857 0.011384312
-0.0050985441 0.035974428 0.0083043817
-0.0016226694 0.034226969 0.011384312
-0.0016226694 0.035974428 0.0093875062
-0.0050985441 0.033851951 0.01486019
-0.0016226694 0.03323175 0.01486019
-0.0050985441 0.036300927 0.0079084355
-0.0016226694 0.037456885 0.0079084355
-0.0050985441 0.032641143 0.018336065
-0.0016226694 0.032587364 0.018336065
-0.0050985441 0.032722428 0.021811944
-0.0016226694 0.03272076 0.021811944
-0.01900205 0.031996951 0.025287818
-0.01653304 0.032498553 0.025287818
-0.015526175 0.032498553 0.024309188
-0.015526175 0.032784164 0.025287818
-0.01900205 0.032478824 0.028763697
-0.018961117 0.032498553 0.028763697
-0.015526175 0.034263596 0.028763697
-0.025953807 0.029997975 0.032239571
-0.022477932 0.031615347 0.032239571
-0.025953807 0.03053309 0.03571545
-0.022477932 0.03239651 0.03571545
-0.020299271 0.032498553 0.032239571
-0.01900205 0.032498553 0.028978024
-0.01900205 0.033053741 0.032239571
-0.015526175 0.034243241 0.032239571
-0.022232719 0.032498553 0.03571545
-0.01900205 0.033383161 0.03571545
-0.015526175 0.033514306 0.03571545
-0.012050301 0.033467904 0.025287818
-0.0085744262 0.033654273 0.025287818
-0.012050301 0.034426212 0.028763697
-0.0085744262 0.034191847 0.028763697
-0.0050985441 0.033933803 0.025287818
-0.0016226694 0.03365393 0.025287818
-0.0050985441 0.034673735 0.028763697
-0.0016226694 0.034120634 0.028763697
-0.012050301 0.033671141 0.032239571
-0.0085744262 0.033244953 0.032239571
-0.012050301 0.033108383 0.03571545
-0.0085744262 0.032842487 0.03571545
-0.0050985441 0.034026474 0.032239571
-0.0016226694 0.03409031 0.032239571
-0.0050985441 0.033347964 0.03571545
-0.0016226694 0.033870667 0.03571545
-0.033895403 0.0046915337 0.039191328
-0.033742584 0.0081674159 0.039191328
-0.033823445 0.0046915337 0.042667203
-0.0331669 0.0081674159 0.042667203
-0.033947714 0.011643291 0.039191328
-0.033797048 0.015119165 0.039191328
-0.033789814 0.011643291 0.042667203
-0.034032382 0.015119165 0.042667203
-0.033987887 0.0046915337 0.046143077
-0.033217981 0.0081674159 0.046143077
-0.034692183 0.0046915337 0.049618959
-0.034086175 0.0081674159 0.049618959
-0.033735782 0.011643291 0.046143077
-0.034317456 0.015119165 0.046143077
-0.034009062 0.011643291 0.049618959
-0.034090556 0.015119165 0.049618959
-0.032905564 0.018590197 0.039191328
-0.032905564 0.01859504 0.039186604
-0.032904163 0.01859504 0.039191328
-0.031907529 0.022070915 0.039191328
-0.032905564 0.01845777 0.042667203
-0.032850221 0.01859504 0.042667203
-0.031391971 0.022070915 0.042667203
-0.030798689 0.025546789 0.039191328
-0.029429682 0.028652385 0.039191328
-0.033444002 0.01859504 0.046143077
-0.032905564 0.01859504 0.042881437
-0.032905564 0.02011694 0.046143077
-0.033532597 0.01859504 0.049618959
-0.032905564 0.021571353 0.049618959
-0.034908682 0.0046915337 0.053094834
-0.033597119 0.01859504 0.053094834
-0.033061929 0.022070915 0.053094834
-0.032905564 0.021673352 0.056570709
-0.032905564 0.021121934 0.060046583
-0.032905564 0.021005705 0.063522466
-0.029135086 0.029022679 0.039191328
-0.025953807 0.031443805 0.039191328
-0.02327463 0.032498553 0.039191328
-0.022477932 0.032498553 0.036395751
-0.022477932 0.032729805 0.039191328
-0.01900205 0.033508405 0.039191328
-0.015526175 0.033962011 0.039191328
-0.01900205 0.033569932 0.042667203
-0.015526175 0.034037873 0.042667203
-0.01900205 0.033232793 0.046143077
-0.015526175 0.033563033 0.046143077
-0.021512583 0.032498553 0.049618959
-0.012050301 0.03382431 0.039191328
-0.0085744262 0.03328523 0.039191328
-0.012050301 0.033931598 0.042667203
-0.0085744262 0.033679754 0.042667203
-0.0050985441 0.03341198 0.039191328
-0.0016226694 0.033883914 0.039191328
-0.012050301 0.033639699 0.046143077
-0.0085744262 0.034023151 0.046143077
-0.020388722 0.032498553 0.053094834
-0.021562159 0.032498553 0.056570709
-0.01900205 0.0336757 0.060046583
-0.015526175 0.034155369 0.060046583
-0.01900205 0.03362 0.063522466
-0.015526175 0.034171402 0.063522466
-0.0050985441 0.034244359 0.056570709
-0.0016226694 0.034188524 0.056570709
-0.012050301 0.034144208 0.060046583
-0.0085744262 0.034396946 0.060046583
-0.012050301 0.03442353 0.063522466
-0.0085744262 0.034794196 0.063522466
-0.0050985441 0.034576774 0.060046583
-0.0050985441 0.03502275 0.063522466
-0.035142913 0.0081674159 0.06699834
-0.035428144 0.0081674159 0.070474215
-0.03545177 0.011643291 0.06699834
-0.034339823 0.015119165 0.06699834
-0.035502359 0.011643291 0.070474215
-0.034691416 0.015119165 0.070474215
-0.035834566 0.0081674159 0.073950097
-0.036246464 0.0081674159 0.077425972
-0.035379939 0.011643291 0.073950097
-0.034892932 0.015119165 0.073950097
-0.035419188 0.011643291 0.077425972
-0.034998149 0.015119165 0.077425972
-0.033313341 0.01859504 0.06699834
-0.032905564 0.02184768 0.06699834
-0.032872409 0.022070915 0.06699834
-0.03371235 0.01859504 0.070474215
-0.033349521 0.022070915 0.070474215
-0.032905564 0.022070915 0.06721893
-0.032905564 0.024569809 0.070474215
-0.03427808 0.01859504 0.073950097
-0.033673026 0.022070915 0.073950097
-0.03457047 0.01859504 0.077425972
-0.033607215 0.022070915 0.077425972
-0.032905564 0.0254298 0.073950097
-0.032905564 0.024162114 0.077425972
-0.035792246 0.0046915337 0.080901846
-0.03598085 0.0081674159 0.080901846
-0.035257041 0.0046915337 0.084377721
-0.035341084 0.0081674159 0.084377721
-0.035256803 0.011643291 0.080901846
-0.034855366 0.015119165 0.080901846
-0.0351763 0.0046915337 0.087853603
-0.03515324 0.0081674159 0.087853603
-0.035371281 0.0046915337 0.091329478
-0.035392143 0.0081674159 0.091329478
-0.034438007 0.01859504 0.080901846
-0.034162417 0.022070915 0.091329478
-0.024947986 0.032498553 0.06699834
-0.022477932 0.033278272 0.06699834
-0.025112599 0.032498553 0.070474215
-0.022477932 0.033704132 0.070474215
-0.01900205 0.033873081 0.06699834
-0.01900205 0.034410194 0.070474215
-0.025676906 0.032498553 0.073950097
-0.022477932 0.033821285 0.073950097
-0.025736704 0.032498553 0.077425972
-0.022477932 0.033603057 0.077425972
-0.0050985441 0.034967631 0.06699834
-0.0050985441 0.034868032 0.070474215
-0.0097323582 0.035974428 0.077425972
-0.0085744262 0.035974428 0.075347655
-0.0050985441 0.035287499 0.073950097
-0.0016226694 0.034859285 0.073950097
-0.0059760809 0.035974428 0.077425972
-0.0050985441 0.035752729 0.077425972
-0.0016226694 0.035164118 0.077425972
-0.0085744262 0.03615211 0.077425972
-0.025830485 0.032498553 0.080901846
-0.022477932 0.033578411 0.080901846
-0.01900205 0.034602091 0.087853603
-0.015526175 0.035387143 0.087853603
-0.01900205 0.035144493 0.091329478
-0.015526175 0.035621271 0.091329478
-0.0085744262 0.035933316 0.080901846
-0.0085744262 0.035974428 0.080510758
-0.0085744262 0.0358679 0.084377721
-0.0050985441 0.035752803 0.080901846
-0.0016226694 0.035359517 0.080901846
-0.0050985441 0.035678178 0.084377721
-0.0016226694 0.035522029 0.084377721
-0.012050301 0.035903573 0.087853603
-0.0085744262 0.035938919 0.087853603
-0.012050301 0.035927683 0.091329478
-0.0085744262 0.035795271 0.091329478
-0.0050985441 0.035766184 0.087853603
-0.0016226694 0.035792872 0.087853603
-0.0050985441 0.03568998 0.091329478
-0.0024604276 0.035974428 0.091329478
-0.0016226694 0.035974428 0.089856379
-0.0016226694 0.036099792 0.091329478
0.0331361 0.0020430461 0.00095668249
0.034370691 0.0046915337 0.00095668249
0.030865476 0.0046915337 0.004432559
0.0331361 0.0046915337 0.0016019996
0.032469809 0.0046915337 0.0079084355
0.0331361 0.0024042726 0.0079084355
0.029660225 0.020223707 0.00095668249
0.029660225 0.020390257 0.004432559
0.029660225 0.021588787 0.0079084355
0.010617189 0.032498553 0.00095668249
0.012280837 0.031119794 0.00095668249
0.0081344172 0.035974428 0.00095668249
0.008804962 0.035076067 0.00095668249
0.008804962 0.035974428 0.00031864829
0.0052914023 0.035974428 0.004432559
0.0053290874 0.035799339 0.004432559
0.0053290874 0.035974428 0.0043359399
0.0053290874 0.035974428 0.0065864976
0.0067472085 0.032498553 0.004432559
0.008804962 0.030839309 0.004432559
0.008804962 0.032498553 0.0023390613
0.012280837 0.030128121 0.004432559
0.0087891296 0.032498553 0.0079084355
0.008804962 0.032478169 0.0079084355
0.012280837 0.030648559 0.0079084355
0.0063618571 0.035974428 0.0079084355
0.015756711 0.030274242 0.00095668249
0.019232586 0.029953554 0.00095668249
0.022708461 0.029248476 0.00095668249
0.015756711 0.030132532 0.004432559
0.015756711 0.029944107 0.0079084355
0.021089405 0.029022679 0.01486019
0.02166149 0.029022679 0.018336065
0.02618435 0.020054832 0.03571545
0.033022046 0.0046915337 0.011384312
0.0331361 0.004399471 0.011384312
0.030585736 0.0046915337 0.01486019
0.03059271 0.0046915337 0.018336065
0.030986458 0.0046915337 0.021811944
0.030348003 0.0081674159 0.021811944
0.029960483 0.011643291 0.021811944
0.029832587 0.015119165 0.021811944
0.030199021 0.022070915 0.011384312
0.029128313 0.01859504 0.021811944
0.029660225 0.016112223 0.021811944
0.029660225 0.0024117082 0.025287818
0.030075371 0.0046915337 0.025287818
0.029783949 0.0081674159 0.025287818
0.029178873 0.0046915337 0.028763697
0.029660225 0.0046915337 0.026912328
0.029275611 0.0081674159 0.028763697
0.029660225 0.0081674159 0.026567195
0.029400438 0.011643291 0.025287818
0.029660225 0.008776322 0.025287818
0.029660225 0.011643291 0.023264222
0.029163107 0.015119165 0.025287818
0.029660225 0.015119165 0.022783007
0.028963402 0.011643291 0.028763697
0.028368622 0.015119165 0.028763697
0.028346777 0.0046915337 0.032239571
0.028359577 0.0081674159 0.032239571
0.027253851 0.0046915337 0.03571545
0.027164668 0.0081674159 0.03571545
0.028328821 0.011643291 0.032239571
0.027895644 0.015119165 0.032239571
0.027218238 0.011643291 0.03571545
0.027238846 0.015119165 0.03571545
0.026762426 0.01859504 0.03571545
0.0010090992 0.035974428 0.011384312
0.0018532053 0.034294412 0.01486019
0.0018532053 0.035974428 0.012510076
0.0038787946 0.035974428 0.01486019
0.008804962 0.032498553 0.0079260673
0.010255717 0.032498553 0.011384312
0.012280837 0.031204596 0.011384312
0.0081608817 0.035974428 0.011384312
0.008804962 0.034935221 0.011384312
0.011156932 0.032498553 0.01486019
0.012280837 0.032209888 0.01486019
0.007000193 0.035974428 0.01486019
0.008804962 0.034461573 0.01486019
0.0018532053 0.038327649 0.0079084355
0.0018532053 0.036828145 0.011384312
0.0053290874 0.037060753 0.0079084355
0.0053290874 0.037493393 0.011384312
0.0053290874 0.036313131 0.01486019
0.0018532053 0.033433169 0.018336065
0.0053290874 0.034865156 0.018336065
0.0053290874 0.035974428 0.015370108
0.0018532053 0.033024326 0.021811944
0.0053290874 0.034885556 0.021811944
0.012280837 0.032498553 0.015452567
0.008804962 0.034127563 0.018336065
0.012280837 0.03308937 0.018336065
0.008804962 0.035446316 0.021811944
0.012280837 0.033602357 0.021811944
0.015756711 0.030308604 0.011384312
0.015756711 0.03128247 0.01486019
0.019232586 0.029747427 0.01486019
0.014096186 0.032498553 0.018336065
0.015756711 0.031654581 0.018336065
0.019232586 0.029968128 0.018336065
0.014333218 0.032498553 0.021811944
0.015756711 0.031865299 0.021811944
0.0018532053 0.032552823 0.025287818
0.0053290874 0.033168435 0.025287818
0.0017893761 0.032498553 0.028763697
0.0018532053 0.032462597 0.028763697
0.0018532053 0.032498553 0.025676448
0.0053290874 0.031607956 0.028763697
0.0053290874 0.032498553 0.026276737
0.008804962 0.035489872 0.025287818
0.012280837 0.034236088 0.025287818
0.0074554011 0.032498553 0.028763697
0.008804962 0.033504292 0.028763697
0.0018532053 0.032498553 0.029260598
0.0031539053 0.032498553 0.032239571
0.0053290874 0.031950936 0.032239571
0.0018532053 0.033047587 0.032239571
0.0053290874 0.032498553 0.034142949
0.0018532053 0.033558711 0.03571545
0.0053290874 0.032877475 0.03571545
0.008804962 0.032068938 0.032239571
0.008804962 0.032498553 0.030259121
0.008804962 0.032498553 0.035158869
0.010368668 0.032498553 0.03571545
0.008804962 0.032630697 0.03571545
0.015413046 0.032498553 0.025287818
0.025173515 0.0046915337 0.039191328
0.02618435 0.0046915337 0.037707604
0.025470734 0.0081674159 0.039191328
0.02618435 0.0081674159 0.037851442
0.023856133 0.0046915337 0.042667203
0.023940176 0.0081674159 0.042667203
0.026009515 0.011643291 0.039191328
0.02618435 0.011643291 0.038667075
0.026113033 0.015119165 0.039191328
0.02618435 0.015119165 0.038980171
0.02468437 0.011643291 0.042667203
0.023072332 0.0046915337 0.046143077
0.022828117 0.0081674159 0.046143077
0.022203371 0.0046915337 0.049618959
0.022708461 0.0046915337 0.047393888
0.021966934 0.0081674159 0.049618959
0.022708461 0.0081674159 0.046530873
0.023068756 0.011643291 0.046143077
0.021954179 0.011643291 0.049618959
0.022708461 0.011643291 0.047030672
0.025507763 0.01859504 0.039191328
0.02618435 0.01859504 0.037518557
0.023789987 0.022070915 0.039191328
0.022708461 0.022070915 0.041628208
0.018703878 0.029022679 0.039191328
0.019232586 0.028534159 0.039191328
0.019232586 0.029022679 0.037659056
0.017849788 0.029022679 0.042667203
0.019232586 0.027572423 0.042667203
0.021671548 0.025546789 0.039191328
0.022708461 0.024032831 0.039191328
0.016757354 0.029022679 0.046143077
0.019232586 0.026463851 0.046143077
0.021387354 0.0046915337 0.053094834
0.021165743 0.0081674159 0.053094834
0.020471483 0.0046915337 0.056570709
0.020275101 0.0081674159 0.056570709
0.021039307 0.011643291 0.053094834
0.020010129 0.011643291 0.056570709
0.019830465 0.015119165 0.056570709
0.019163162 0.0081674159 0.063522466
0.019232586 0.0073272586 0.063522466
0.019232586 0.0081674159 0.063129641
0.019815147 0.0046915337 0.060046583
0.019656792 0.0081674159 0.060046583
0.019334361 0.0046915337 0.063522466
0.019074455 0.015119165 0.060046583
0.019232586 0.011887237 0.060046583
0.019232586 0.015119165 0.059476107
0.018674284 0.011643291 0.063522466
0.019232586 0.011643291 0.060232058
0.01815258 0.015119165 0.063522466
0.019260496 0.011643291 0.060046583
0.018413812 0.022070915 0.056570709
0.019232586 0.01897265 0.056570709
0.019328579 0.01859504 0.056570709
0.018542364 0.01859504 0.060046583
0.019232586 0.01859504 0.05746413
0.017512932 0.022070915 0.060046583
0.017450154 0.01859504 0.063522466
0.016965225 0.022070915 0.063522466
0.01643604 0.025546789 0.063522466
0.0018532053 0.033794612 0.039191328
0.0053290874 0.033336371 0.039191328
0.011347957 0.032498553 0.039191328
0.012280837 0.032158241 0.039191328
0.008804962 0.033042893 0.039191328
0.0096420571 0.032498553 0.042667203
0.012280837 0.031834945 0.042667203
0.008804962 0.032628551 0.042667203
0.0062446594 0.032498553 0.046143077
0.008804962 0.032498553 0.043104939
0.0070057884 0.032498553 0.049618959
0.015756711 0.030780271 0.039191328
0.015756711 0.030295491 0.042667203
0.0018532053 0.03425543 0.056570709
0.018615648 0.0046915337 0.06699834
0.019232586 0.0046915337 0.064139597
0.01846236 0.0081674159 0.06699834
0.018007204 0.0046915337 0.070474215
0.017790407 0.0081674159 0.070474215
0.018224597 0.011643291 0.06699834
0.017713696 0.015119165 0.06699834
0.018068805 0.011643291 0.070474215
0.017648622 0.015119165 0.070474215
0.018070012 0.0046915337 0.073950097
0.017667741 0.0081674159 0.073950097
0.018126369 0.0046915337 0.077425972
0.017820671 0.0081674159 0.077425972
0.017941982 0.011643291 0.073950097
0.017775431 0.015119165 0.073950097
0.018002898 0.011643291 0.077425972
0.017937243 0.015119165 0.077425972
0.017029449 0.01859504 0.06699834
0.016479462 0.022070915 0.06699834
0.016981125 0.01859504 0.070474215
0.016170621 0.022070915 0.070474215
0.01549305 0.025546789 0.06699834
0.015756711 0.024945661 0.06699834
0.015756711 0.025546789 0.066064097
0.015056521 0.025546789 0.070474215
0.015756711 0.02350305 0.070474215
0.016838953 0.01859504 0.073950097
0.015963316 0.022070915 0.073950097
0.016987383 0.01859504 0.077425972
0.015998632 0.022070915 0.077425972
0.015187979 0.025546789 0.073950097
0.015756711 0.022944391 0.073950097
0.015756711 0.023007423 0.077425972
0.017884254 0.0046915337 0.080901846
0.017710149 0.0081674159 0.080901846
0.017726302 0.0046915337 0.084377721
0.017637223 0.0081674159 0.084377721
0.017804354 0.011643291 0.080901846
0.017784193 0.015119165 0.080901846
0.017618462 0.011643291 0.084377721
0.017485842 0.015119165 0.084377721
0.017636523 0.011643291 0.087853603
0.017314136 0.015119165 0.087853603
0.017255351 0.015119165 0.091329478
0.01719366 0.01859504 0.080901846
0.016082585 0.022070915 0.080901846
0.016975656 0.01859504 0.084377721
0.016024485 0.022070915 0.084377721
0.015756711 0.023157164 0.080901846
0.015756711 0.023197874 0.084377721
0.016811281 0.01859504 0.087853603
0.016056195 0.022070915 0.087853603
0.016903058 0.01859504 0.091329478
0.016287088 0.022070915 0.091329478
0.015293777 0.025546789 0.087853603
0.015756711 0.023450896 0.087853603
0.015475273 0.025546789 0.091329478
0.015756711 0.024336219 0.091329478
0.014119938 0.029022679 0.091329478
0.0018532053 0.034540385 0.073950097
0.0018532053 0.034741566 0.077425972
0.0018532053 0.035017595 0.080901846
0.0018532053 0.035286561 0.084377721
0.0018532053 0.035675332 0.087853603
0.0018532053 0.035974428 0.089860596
0.0053290874 0.035974428 0.090740278
0.011206239 0.032498553 0.091329478
0.012280837 0.031459883 0.091329478
0.006541647 0.035974428 0.091329478
0.008804962 0.03439492 0.091329478
0.0018532053 0.036281437 0.091329478
0.0053290874 0.036172315 0.091329478
-0.022521004 -0.026591353 0.094805352
-0.022477932 -0.026624456 0.094805352
-0.022477932 -0.026591353 0.094534427
-0.022683516 -0.026591353 0.098281235
-0.022477932 -0.026740693 0.098281235
-0.017989606 -0.030067235 0.094805352
-0.015526175 -0.031074822 0.094805352
-0.01900205 -0.029498912 0.094805352
-0.018107057 -0.030067235 0.098281235
-0.015526175 -0.031149767 0.098281235
-0.01900205 -0.029530056 0.098281235
-0.022826061 -0.026591353 0.10175711
-0.022477932 -0.026841603 0.10175711
-0.023168124 -0.026591353 0.10523298
-0.022477932 -0.02709537 0.10523298
-0.018033125 -0.030067235 0.10175711
-0.015526175 -0.031107977 0.10175711
-0.01900205 -0.029502742 0.10175711
-0.018029876 -0.030067235 0.10523298
-0.015526175 -0.031124637 0.10523298
-0.01900205 -0.029578872 0.10523298
-0.0085842386 -0.03354311 0.098281235
-0.0085744262 -0.033546731 0.098281235
-0.0085744262 -0.03354311 0.098158091
-0.0083927736 -0.03354311 0.094805352
-0.0050985441 -0.034343071 0.094805352
-0.0016226694 -0.034325607 0.094805352
-0.0050985441 -0.034528539 0.098281235
-0.0016226694 -0.034520164 0.098281235
-0.012050301 -0.032301784 0.094805352
-0.0085744262 -0.033479437 0.094805352
-0.012050301 -0.032373101 0.098281235
-0.0086220875 -0.03354311 0.10175711
-0.0085744262 -0.033555217 0.10175711
-0.0087199882 -0.03354311 0.10523298
-0.0085744262 -0.033576585 0.10523298
-0.0050985441 -0.034225121 0.10175711
-0.0016226694 -0.034572825 0.10175711
-0.0050985441 -0.034196675 0.10523298
-0.0016226694 -0.034795053 0.10523298
-0.012050301 -0.032454841 0.10175711
-0.012050301 -0.032522701 0.10523298
-0.023273773 -0.026591353 0.10870886
-0.022477932 -0.027125478 0.10870886
-0.023556918 -0.026591353 0.11218473
-0.022477932 -0.027231418 0.11218473
-0.017428368 -0.030067235 0.10870886
-0.015526175 -0.031035043 0.10870886
-0.01900205 -0.029292867 0.10870886
-0.016885825 -0.030067235 0.11218473
-0.015526175 -0.030891895 0.11218473
-0.01900205 -0.029041454 0.11218473
-0.023899972 -0.026591353 0.11566061
-0.022477932 -0.027534597 0.11566061
-0.024325162 -0.026591353 0.1191365
-0.022477932 -0.028123945 0.1191365
-0.017713562 -0.030067235 0.11566061
-0.015526175 -0.031197585 0.11566061
-0.01900205 -0.029518984 0.11566061
-0.019306079 -0.030067235 0.1191365
-0.01900205 -0.030067235 0.11846611
-0.0091922507 -0.03354311 0.10870886
-0.0085744262 -0.033715159 0.10870886
-0.010031745 -0.03354311 0.11218473
-0.0085744262 -0.034069508 0.11218473
-0.012050301 -0.032568738 0.10870886
-0.012050301 -0.03268221 0.11218473
-0.010815278 -0.03354311 0.11566061
-0.0085744262 -0.034378797 0.11566061
-0.010860227 -0.03354311 0.1191365
-0.0085744262 -0.034164682 0.1191365
-0.0050985441 -0.034705609 0.1191365
-0.0016226694 -0.035013027 0.1191365
-0.012050301 -0.032970272 0.11566061
-0.029429682 -0.019851431 0.094805352
-0.035544313 -0.0057360977 0.094805352
-0.035412982 -0.0057360977 0.098281235
-0.035849392 -0.0022602156 0.094805352
-0.035730101 0.0012156591 0.094805352
-0.035909794 -0.0022602156 0.098281235
-0.036051758 0.0012156591 0.098281235
-0.029429682 -0.02082447 0.10870886
-0.031083971 -0.019639604 0.11218473
-0.029429682 -0.021051876 0.11218473
-0.03337355 -0.016163722 0.11218473
-0.032905564 -0.017411329 0.11218473
-0.034370802 -0.012687847 0.11218473
-0.030687608 -0.019639604 0.11566061
-0.029429682 -0.021116354 0.11566061
-0.029429682 -0.021451093 0.1191365
-0.032916725 -0.016163722 0.11566061
-0.032905564 -0.016194128 0.11566061
-0.034043342 -0.012687847 0.11566061
-0.032905564 -0.016163722 0.11571778
-0.03509254 -0.0092119724 0.11218473
-0.034852073 -0.0092119724 0.11566061
-0.02646888 -0.023115478 0.094805352
-0.025953807 -0.023625083 0.094805352
-0.025953807 -0.023847103 0.098281235
-0.025953807 -0.024013795 0.10175711
-0.025953807 -0.024169534 0.10523298
-0.02713526 -0.023115478 0.10870886
-0.025953807 -0.024314262 0.10870886
-0.027307555 -0.023115478 0.11218473
-0.025953807 -0.024645887 0.11218473
-0.027555846 -0.023115478 0.11566061
-0.025953807 -0.024889737 0.11566061
-0.02794978 -0.023115478 0.1191365
-0.025953807 -0.02507744 0.1191365
-0.02475515 -0.026591353 0.12261237
-0.022477932 -0.028667644 0.12261237
-0.024955489 -0.026591353 0.12608825
-0.022477932 -0.028925821 0.12608825
-0.020185262 -0.030067235 0.12261237
-0.020804226 -0.030067235 0.12608825
-0.025225095 -0.026591353 0.12956412
-0.022477932 -0.029061303 0.12956412
-0.025669761 -0.026591353 0.13304
-0.022477932 -0.029009506 0.13304
-0.021029308 -0.030067235 0.12956412
-0.020509057 -0.030067235 0.13304
-0.010454334 -0.03354311 0.12261237
-0.0085744262 -0.033905156 0.12261237
-0.0050985441 -0.034609981 0.12261237
-0.0016226694 -0.03497158 0.12261237
-0.0050985441 -0.034622505 0.12608825
-0.0016226694 -0.035067126 0.12608825
-0.0050985441 -0.035081118 0.12956412
-0.0016226694 -0.035393499 0.12956412
-0.0050985441 -0.035429455 0.13304
-0.0016226694 -0.035539202 0.13304
-0.025686458 -0.026591353 0.13651587
-0.022477932 -0.028773323 0.13651587
-0.025245242 -0.026591353 0.13999175
-0.022477932 -0.02853477 0.13999175
-0.020109907 -0.030067235 0.13651587
-0.020303167 -0.030067235 0.13999175
-0.024963327 -0.026591353 0.14346763
-0.022477932 -0.028420046 0.14346763
-0.024960861 -0.026591353 0.14694351
-0.022477932 -0.028440028 0.14694351
-0.020434126 -0.030067235 0.14346763
-0.01900205 -0.031104632 0.14346763
-0.015526175 -0.032688871 0.14346763
-0.020137861 -0.030067235 0.14694351
-0.01900205 -0.030817397 0.14694351
-0.015526175 -0.032729432 0.14694351
-0.01069279 -0.03354311 0.13651587
-0.0085744262 -0.034121662 0.13651587
-0.011190005 -0.03354311 0.13999175
-0.0085744262 -0.034207113 0.13999175
-0.0050985441 -0.035025239 0.13651587
-0.0016226694 -0.035454333 0.13651587
-0.0050985441 -0.034970209 0.13999175
-0.0016226694 -0.0356979 0.13999175
-0.011948384 -0.03354311 0.14346763
-0.0085744262 -0.03451819 0.14346763
-0.012719557 -0.03354311 0.14694351
-0.012050301 -0.033740498 0.14694351
-0.012050301 -0.03354311 0.143839
-0.0050985441 -0.035190433 0.14346763
-0.0016226694 -0.035697177 0.14346763
-0.012050301 -0.033512473 0.14346763
-0.029429682 -0.021455787 0.12261237
-0.029429682 -0.021228448 0.12608825
-0.030367889 -0.019639604 0.12956412
-0.029429682 -0.021046408 0.12956412
-0.030705094 -0.019639604 0.13304
-0.029429682 -0.021307997 0.13304
-0.036313184 -0.0057360977 0.12608825
-0.036399625 -0.0022602156 0.12608825
-0.036381438 -0.0047174618 0.12608825
-0.036381438 -0.0022602156 0.12545641
-0.036387742 0.0012156591 0.12608825
-0.036381438 0.0012156591 0.12591504
-0.036415711 -0.0057360977 0.12956412
-0.036381438 -0.0060706362 0.12956412
-0.036381438 -0.0057360977 0.12722757
-0.036381438 -0.0057360977 0.13255244
-0.036379516 -0.0057360977 0.13304
-0.036439702 -0.0022602156 0.12956412
-0.036515988 0.0012156591 0.12956412
-0.03649918 -0.0022602156 0.13304
-0.036381438 -0.0057051107 0.13304
-0.036647446 0.0012156591 0.13304
-0.031207077 -0.019639604 0.13651587
-0.029429682 -0.021800488 0.13651587
-0.031537347 -0.019639604 0.13999175
-0.029429682 -0.022099525 0.13999175
-0.032905564 -0.016747959 0.13651587
-0.033480279 -0.016163722 0.13999175
-0.032905564 -0.017446861 0.13999175
-0.034774326 -0.012687847 0.13999175
-0.031190239 -0.019639604 0.14346763
-0.029429682 -0.022042133 0.14346763
-0.029429682 -0.021757104 0.14694351
-0.033134766 -0.016163722 0.14346763
-0.032905564 -0.016642921 0.14346763
-0.034670644 -0.012687847 0.14346763
-0.036348775 -0.0057360977 0.13651587
-0.035700127 -0.0092119724 0.13999175
-0.036373347 -0.0057360977 0.13999175
-0.036612108 -0.0022602156 0.13651587
-0.036381438 -0.0054082125 0.13651587
-0.036655642 0.0012156591 0.13651587
-0.036655657 -0.0022602156 0.13999175
-0.036381438 -0.0056732595 0.13999175
-0.036704443 0.0012156591 0.13999175
-0.036706567 -0.0057360977 0.14346763
-0.036381438 -0.0077159777 0.14346763
-0.036381438 -0.0057360977 0.14019243
-0.037240684 -0.0057360977 0.14694351
-0.036381438 -0.0090948045 0.14694351
-0.035921805 -0.0092119724 0.14346763
-0.036857434 -0.0022602156 0.14346763
-0.036958463 0.0012156591 0.14346763
-0.037236586 -0.0022602156 0.14694351
-0.03750518 0.0012156591 0.14694351
-0.028060921 -0.023115478 0.12261237
-0.025953807 -0.025384761 0.12261237
-0.027997233 -0.023115478 0.12608825
-0.025953807 -0.025570035 0.12608825
-0.027971104 -0.023115478 0.12956412
-0.025953807 -0.025854647 0.12956412
-0.028115533 -0.023115478 0.13304
-0.025953807 -0.026293308 0.13304
-0.028327882 -0.023115478 0.13651587
-0.025953807 -0.026313715 0.13651587
-0.028474867 -0.023115478 0.13999175
-0.025953807 -0.025937907 0.13999175
-0.028494194 -0.023115478 0.14346763
-0.025953807 -0.025752276 0.14346763
-0.028366029 -0.023115478 0.14694351
-0.025953807 -0.025706783 0.14694351
-0.025028273 -0.026591353 0.15041938
-0.022477932 -0.028594933 0.15041938
-0.025146648 -0.026591353 0.15389526
-0.022477932 -0.028672688 0.15389526
-0.02025909 -0.030067235 0.15041938
-0.01900205 -0.030783728 0.15041938
-0.015526175 -0.032510653 0.15041938
-0.020645119 -0.030067235 0.15389526
-0.01900205 -0.031001315 0.15389526
-0.015526175 -0.032445036 0.15389526
-0.020385414 -0.030067235 0.15737113
-0.01900205 -0.030958146 0.15737113
-0.015526175 -0.032766126 0.15737113
-0.020705022 -0.030067235 0.16084701
-0.01900205 -0.03113135 0.16084701
-0.015526175 -0.0329362 0.16084701
-0.012709707 -0.03354311 0.15041938
-0.012050301 -0.033822939 0.15041938
-0.012776315 -0.03354311 0.15389526
-0.012050301 -0.033906713 0.15389526
-0.013400137 -0.03354311 0.15737113
-0.012050301 -0.034003116 0.15737113
-0.0085744262 -0.035009846 0.15737113
-0.013818197 -0.03354311 0.16084701
-0.012050301 -0.034055024 0.16084701
-0.0085744262 -0.034681126 0.16084701
-0.02135206 -0.030067235 0.16432288
-0.01900205 -0.031480007 0.16432288
-0.015526175 -0.032896981 0.16432288
-0.021384701 -0.030067235 0.16779877
-0.013727181 -0.03354311 0.16432288
-0.012050301 -0.034100816 0.16432288
-0.0085744262 -0.034963422 0.16432288
-0.0085744262 -0.034957603 0.16779877
-0.0050985441 -0.034935534 0.17127465
-0.0016226694 -0.03532435 0.17127465
-0.0050985441 -0.034080692 0.17475052
-0.029429682 -0.021645874 0.15041938
-0.029429682 -0.022030056 0.15389526
-0.037265137 -0.0057360977 0.15041938
-0.036381438 -0.0077258795 0.15389526
-0.037743419 -0.0022602156 0.15041938
-0.038449563 0.0012156591 0.15041938
-0.037572935 -0.0057360977 0.16432288
-0.037114449 -0.0057360977 0.16779877
-0.037372723 -0.0022602156 0.16432288
-0.03745389 0.0012156591 0.16432288
-0.037254214 -0.0022602156 0.16779877
-0.03752514 0.0012156591 0.16779877
-0.036381438 -0.0067422539 0.17127465
-0.028375231 -0.023115478 0.15041938
-0.025953807 -0.025774419 0.15041938
-0.028663538 -0.023115478 0.15389526
-0.025953807 -0.025939226 0.15389526
-0.015526175 -0.016163722 0.18439959
-0.01900205 -0.012687847 0.18281344
-0.015526175 -0.012687847 0.18318065
-0.012050301 -0.019639604 0.18494788
-0.0085744262 -0.019639604 0.18410507
-0.0016226694 -0.023115478 0.18390827
-0.0050985441 -0.019639604 0.18443437
-0.0016226694 -0.019639604 0.18506728
-0.013476267 -0.016163722 0.18517815
-0.012050301 -0.019098438 0.18517815
-0.0086600706 -0.016163722 0.18517815
-0.0085744262 -0.016163722 0.18513694
-0.012050301 -0.015078291 0.18517815
-0.0085744262 -0.015746705 0.18517815
-0.012050301 -0.016163722 0.18543242
-0.0073297247 -0.016163722 0.18517815
-0.0050985441 -0.01887127 0.18517815
-0.0016226694 -0.019514769 0.18517815
-0.0050985441 -0.016163722 0.18754096
-0.022477932 -0.0057360977 0.1829191
-0.01900205 -0.0092119724 0.18279204
-0.01900205 -0.0057360977 0.18430476
-0.017318293 -0.0057360977 0.18517815
-0.022477932 -0.0022602156 0.18403143
-0.022477932 0.0012156591 0.18425943
-0.01900205 -0.0022602156 0.18477497
-0.018478803 -0.0022602156 0.18517815
-0.01900205 0.0012156591 0.18448053
-0.01785782 0.0012156591 0.18517815
-0.0016226694 -0.012687847 0.18957424
-0.0016226694 -0.0022602156 0.18883573
-0.0016226694 0.0012156591 0.18962288
0.0018532053 -0.034080349 0.094805352
0.0018532053 -0.034247234 0.098281235
0.012280837 -0.028687216 0.098281235
0.0018532053 -0.034690537 0.10175711
0.0053290874 -0.034196399 0.10175711
0.0018532053 -0.03493122 0.10523298
