# .PCD v0.7 - Point Cloud Data file format
VERSION 0.7
FIELDS x y z
SIZE 4 4 4
TYPE F F F
COUNT 1 1 1
WIDTH 1071
HEIGHT 1
VIEWPOINT 0 0 0 1 0 0 0
POINTS 1071
DATA ascii
0.038827673 0.059453823 0.81933343
0.04111322 0.059444148 0.81920016
0.038210608 0.06279783 0.81921351
0.042425428 0.062619679 0.81906074
0.038815033 0.067052692 0.81906682
0.042641636 0.067064099 0.81920576
0.040372171 0.070151165 0.81966674
0.028274648 0.058611222 0.82355833
0.032838002 0.057587966 0.82240587
0.037292734 0.0571604 0.82225442
0.04217878 0.056899779 0.82209986
0.046347212 0.058031455 0.82319999
0.02844795 0.062592372 0.82302499
0.032776695 0.062619708 0.82087386
0.036201201 0.062203504 0.82041663
0.044998433 0.061057307 0.82039994
0.047425907 0.062757112 0.82267779
0.029806489 0.06587562 0.82339996
0.033279248 0.067115895 0.82249516
0.036611255 0.067213811 0.82103306
0.046962786 0.0676177 0.82129979
0.033918329 0.071017422 0.82382226
0.037628569 0.071722098 0.82236654
0.042290803 0.072584078 0.82129991
0.046819806 0.072410814 0.82280666
0.039070953 0.075162962 0.82446676
0.040529769 0.07501711 0.82286662
0.047039032 0.075732894 0.82398671
0.0099099586 0.05398687 0.82900035
0.012998249 0.053201314 0.82877803
0.017626334 0.052843031 0.82835257
0.022255516 0.05315936 0.8281334
0.026524268 0.0535881 0.8288002
0.032762699 0.053631525 0.82828015
0.037876688 0.05255869 0.82778352
0.042325038 0.05237684 0.82795566
0.046775524 0.052861381 0.8286382
0.0099099586 0.057071071 0.82900029
0.01298064 0.056981701 0.82770371
0.017597428 0.056932252 0.82698494
0.022342384 0.057434794 0.82618177
0.026819326 0.056476776 0.8259666
0.032941684 0.05526102 0.82500017
0.047931302 0.055907834 0.8269999
0.0099099586 0.060155269 0.82900035
0.013212933 0.061213076 0.82840019
0.01775473 0.062168237 0.82778186
0.022074059 0.062791146 0.82714653
0.025650045 0.063360803 0.82555008
0.023207093 0.067559503 0.829027
0.027417297 0.06785693 0.82717568
0.03140305 0.068305612 0.82500017
0.048382703 0.066078305 0.82593328
0.027671419 0.072447717 0.82848907
0.032481838 0.072774418 0.82636666
0.036024775 0.073688835 0.8251335
0.048339743 0.072159745 0.82520008
0.027691137 0.075579315 0.82903367
0.032577809 0.07658723 0.82880759
0.037474439 0.077165268 0.827425
0.042225178 0.077609472 0.82601118
0.047627971 0.077627294 0.826208
0.038524866 0.080228366 0.82926691
0.042569444 0.081549533 0.82896692
0.045978289 0.080703825 0.8288669
0.013083518 0.049671482 0.83422208
0.01775983 0.049692657 0.83457756
0.021661317 0.049717795 0.83499974
0.032821879 0.049717795 0.83499974
0.037940428 0.049625173 0.83344442
0.042281531 0.048989478 0.83319998
0.04732528 0.049684718 0.83444422
0.0076253428 0.052698642 0.83301991
0.013026789 0.051000912 0.83059996
0.0176643 0.050972253 0.83013332
0.022333732 0.05102684 0.8310222
0.027324494 0.051704086 0.83198661
0.032108869 0.051744074 0.83191437
0.036260512 0.050996814 0.83053333
0.047916234 0.051037751 0.83119994
0.051744916 0.052926347 0.83356667
0.0070428527 0.057149891 0.83295828
0.051871452 0.057308853 0.83245188
0.0086690597 0.062046528 0.83368874
0.013033781 0.064166516 0.8310166
0.01612022 0.064885743 0.83033335
0.050326031 0.060416497 0.8326
0.0099816816 0.065250404 0.83499974
0.01308179 0.066989407 0.83407766
0.01771619 0.068162777 0.83260745
0.021173513 0.068428934 0.83115
0.018693533 0.072672978 0.83461314
0.022361986 0.072770253 0.83217037
0.019325396 0.076123245 0.83499974
0.022931581 0.077069111 0.8340221
0.02680018 0.077863984 0.83224761
0.031643424 0.078879766 0.83131105
0.048620913 0.078755356 0.83000004
0.027734285 0.081713706 0.83498639
0.032536168 0.082272194 0.83433872
0.037632741 0.082436703 0.83153337
0.04088442 0.083393939 0.83006686
0.047535218 0.082412012 0.83263987
0.034379169 0.085960545 0.83499974
0.037968133 0.086896159 0.8340295
0.042557701 0.087513506 0.83251667
0.046137262 0.086511388 0.83406669
0.039051004 0.090620361 0.83499974
0.042480167 0.092993915 0.83480817
0.045795597 0.090095401 0.8349331
0.0037717146 0.049971845 0.83926684
0.0076702409 0.049364969 0.83781123
0.012359452 0.047548629 0.83785009
0.017832 0.047712896 0.838
0.022902794 0.04870972 0.83771676
0.027391994 0.04870851 0.8367523
0.032097988 0.048079517 0.8374095
0.037870318 0.047535002 0.83762217
0.043171663 0.047106631 0.83691657
0.047460068 0.047491234 0.83683342
0.052247245 0.049145624 0.83850008
-0.00092455448 0.051563252 0.83975869
0.0022011127 0.053011205 0.8379643
0.005314914 0.051320191 0.83579999
0.053598501 0.051283356 0.83519989
0.055974614 0.053332668 0.83811444
0.0033735014 0.057281103 0.8377167
0.0053106737 0.05904679 0.83513314
0.056164194 0.057733532 0.83861113
0.0037717149 0.061681218 0.83926678
0.0059452029 0.062591605 0.83682668
0.051853914 0.0619964 0.83719999
0.055393927 0.060866375 0.83880007
0.0074065081 0.066831298 0.83750367
0.012075328 0.068983883 0.83633327
0.050757214 0.065620288 0.8397333
0.008468789 0.071059704 0.83940005
0.012200589 0.072634898 0.83775115
0.016623251 0.073507279 0.83614993
0.013779064 0.077394344 0.8386668
0.017627513 0.078113139 0.83759165
0.021430157 0.078818731 0.83613318
0.018248297 0.081579655 0.83920014
0.022504425 0.082577564 0.83743697
0.026364485 0.083214223 0.83601654
0.048984122 0.084010117 0.83619988
0.023723833 0.087033726 0.83910006
0.027180271 0.087218158 0.83712584
0.032013584 0.087497085 0.83648139
0.048389714 0.087483406 0.83669329
0.027541092 0.091115355 0.83860016
0.03266925 0.09196052 0.83776671
0.037860833 0.092927448 0.83595824
0.044245481 0.094769917 0.83506638
0.047467064 0.092387214 0.83693326
0.032729849 0.095250338 0.8393001
0.037190776 0.097634755 0.83811796
0.042779189 0.098085374 0.83684438
0.047178533 0.097528562 0.83875012
0.039229777 0.10195842 0.83882219
0.04257232 0.10207431 0.83892
0.046066184 0.10156393 0.83986664
0.0037974806 0.044025782 0.84499991
0.0069442526 0.043211486 0.84445554
0.012447634 0.043178961 0.84382516
0.016923806 0.043484464 0.84466666
0.029012445 0.044025782 0.84499991
0.032164332 0.044025782 0.84499997
0.036876429 0.043613713 0.84463334
0.04255227 0.04369821 0.84474647
0.047846373 0.043954 0.84362239
-0.00092981162 0.047928646 0.84453332
0.0022156339 0.04706727 0.84319264
0.0066966428 0.046526827 0.84152383
0.012406706 0.045383587 0.8410331
0.017922819 0.045840312 0.84225011
0.022652566 0.04626666 0.8428998
0.027030583 0.046070028 0.84216011
0.032453965 0.045843605 0.84231687
0.037402146 0.045764245 0.84229344
0.043008145 0.045399781 0.84133315
0.047693294 0.045378193 0.84093314
0.052531 0.04627578 0.84305549
0.056358136 0.047418639 0.84386665
-0.0056514358 0.0549637 0.84400004
-0.0023267355 0.052613903 0.84270597
0.0014271855 0.050100863 0.84143317
0.057531286 0.051424384 0.84258282
-0.0013230488 0.057703499 0.84388554
0.0012702383 0.058259297 0.84170997
0.058817524 0.058039159 0.8430264
-0.00093010528 0.061301749 0.84479988
0.0017649999 0.06295868 0.84294289
0.053461075 0.063649096 0.84120011
0.056962438 0.062461805 0.84348375
0.002411121 0.067450978 0.84308338
0.0053441655 0.068799026 0.84039992
0.052682687 0.067588359 0.84235007
0.055763729 0.065984957 0.84439999
0.0034008941 0.07187596 0.84440005
0.0064720474 0.072252527 0.8416
0.05233071 0.071949475 0.8429817
0.0071299584 0.076677859 0.843225
0.01140934 0.078766949 0.84190482
0.052561242 0.076902866 0.84355199
0.0079999743 0.080702595 0.84499997
0.012649287 0.082986623 0.84303647
0.017578805 0.083853245 0.84086645
0.050912071 0.083055027 0.84229535
0.013558569 0.08703617 0.84442675
0.01793324 0.087809794 0.84280008
0.021673542 0.087990738 0.84153336
0.051530652 0.088051036 0.84212005
0.019023299 0.091667242 0.84464437
0.022851013 0.0923426 0.84303343
0.026918584 0.093504712 0.84114987
0.051583253 0.092216842 0.84297335
0.024282737 0.095889658 0.84493327
0.027579568 0.097086757 0.84337521
0.031804215 0.097506918 0.84144747
0.049382456 0.098022982 0.84299999
0.029012445 0.10061287 0.84499991
0.032612804 0.10142364 0.84302235
0.036962461 0.10265512 0.84148568
0.043377612 0.10442431 0.84088314
0.047760453 0.10261644 0.84209991
0.033740267 0.1053284 0.84499991
0.037828211 0.10700083 0.8435396
0.043061286 0.10813422 0.84236312
0.047134209 0.10776269 0.84296215
0.038468074 0.11004401 0.84499991
0.042928014 0.11212664 0.84489989
0.047122478 0.11158507 0.84476662
0.0069857156 0.039517999 0.84946692
0.012516744 0.039472248 0.84848362
0.044983745 0.039496291 0.84900033
0.047368601 0.039504044 0.84916687
-0.0062138308 0.042136822 0.84916669
-0.0019914301 0.043201387 0.84940022
0.0020301726 0.042389918 0.8476752
0.0069659431 0.040979877 0.84702229
0.012482938 0.040939309 0.8461833
0.018561801 0.042054366 0.84753352
0.022787981 0.043389592 0.84794468
0.027204823 0.043214053 0.84760016
0.032677669 0.042214587 0.84810019
0.036986787 0.041616242 0.84717351
0.042378776 0.04163783 0.84668583
0.047999252 0.041732002 0.84631127
0.052780237 0.042555984 0.84707421
0.057342701 0.043042857 0.84777164
-0.0056849164 0.048182443 0.84900004
-0.0029648882 0.047062848 0.84713495
0.058714461 0.046898849 0.84720004
-0.0060630809 0.051984388 0.84663755
-0.0040867436 0.050369278 0.84594131
0.059080813 0.050420411 0.84679997
0.060631707 0.052759774 0.84640372
-0.0072374158 0.056241214 0.84550005
-0.0035644083 0.058028463 0.84670442
0.058967259 0.055040047 0.84517241
0.060750801 0.058381621 0.84806615
-0.0056868293 0.060047429 0.84928572
-0.0027130828 0.063260548 0.8473596
0.057465307 0.064556636 0.84626669
0.060688749 0.06147591 0.84720004
-0.0017232224 0.067767881 0.84705305
0.00064601778 0.067646384 0.84553325
0.056871455 0.06806381 0.84681338
-0.0015673718 0.07228709 0.84830606
0.0012779736 0.072773941 0.84662664
0.054235984 0.07390283 0.84513319
0.056682695 0.072637521 0.84872019
-0.00093510887 0.075851046 0.84934497
0.0027534568 0.076723941 0.84734446
0.0053848634 0.078774214 0.84680003
0.05394426 0.07737904 0.84879351
0.006650819 0.082290456 0.84733343
0.010102821 0.084907599 0.84513319
0.053199358 0.081986159 0.84743834
0.0081608547 0.086390898 0.84811693
0.011952187 0.088658713 0.84592223
0.053617593 0.08675319 0.84780014
0.013045583 0.091834821 0.84861141
0.017505424 0.093550235 0.84746677
0.021139439 0.094355144 0.84526652
0.053610787 0.092254758 0.84768337
0.019128317 0.09691304 0.84931135
0.022581061 0.097972184 0.84764183
0.025895271 0.099173807 0.84613323
0.052040692 0.097013831 0.8478834
0.023613088 0.10111292 0.84920025
0.027534958 0.1025554 0.84805727
0.031145925 0.10334158 0.84588879
0.049515247 0.10378934 0.84526658
0.029163517 0.10587691 0.84940028
0.0320732 0.10745573 0.84782517
0.035324547 0.10849781 0.84519982
0.049537379 0.1069821 0.84564441
0.033117339 0.11059532 0.84923363
0.036996841 0.11193639 0.84741914
0.042489883 0.11419589 0.84665
0.048426095 0.11225682 0.84687495
0.038648643 0.11608795 0.84896708
0.042246863 0.11707468 0.8481003
0.047282774 0.11590605 0.84763342
-0.00094023405 0.034963071 0.85400003
0.046885259 0.034995828 0.85480011
0.054822106 0.034973994 0.85426682
0.058015604 0.034580529 0.85436684
0.062815845 0.03498951 0.85464591
-0.0022063677 0.038958501 0.85105687
0.0020135809 0.038508952 0.85213929
0.0062113842 0.038846198 0.85210007
0.012566006 0.038050592 0.85199165
0.018133976 0.038850602 0.85218334
0.022943906 0.038922179 0.85373336
0.027724555 0.038928319 0.85386676
0.032514889 0.038943667 0.85420567
0.037236743 0.039280511 0.85290831
0.042293496 0.039010331 0.85221326
0.047878277 0.037832383 0.85220951
0.052965365 0.038089033 0.85288888
0.057939384 0.038105588 0.85324079
0.062702067 0.038100339 0.85310805
0.06622535 0.03846243 0.8523708
-0.0056962995 0.044322759 0.85070008
-0.0035786156 0.04166083 0.85020161
0.022866063 0.041164819 0.85084438
0.027621185 0.041157294 0.85068893
0.031580172 0.041148156 0.85049999
0.058567204 0.04116267 0.85080004
0.062570296 0.042769976 0.8513037
0.067015603 0.042857338 0.85302502
-0.0056923563 0.045873448 0.85011119
0.062394295 0.047340058 0.85159177
0.066914596 0.047357954 0.85405999
0.062698446 0.052378871 0.85302746
-0.0056952643 0.058554314 0.85054553
0.062343538 0.056781519 0.85363322
-0.0056956364 0.06251432 0.85060108
0.059387803 0.064142078 0.85119998
0.061949879 0.061945576 0.8536855
-0.0057089105 0.065038495 0.85258335
-0.0041087004 0.06804245 0.85048604
0.059464544 0.068187721 0.85230011
-0.0057200706 0.071521908 0.85425007
-0.0037157251 0.073248647 0.85122967
0.057718813 0.072747231 0.8500002
-0.0025286525 0.077454038 0.85248351
0.0011787816 0.078642778 0.85105556
0.054548301 0.079071887 0.8500002
0.056952156 0.077425852 0.85275996
-0.00094100862 0.081099384 0.85470384
0.0026948415 0.082279272 0.85280007
0.0054107234 0.083900876 0.85086656
0.054610416 0.082327664 0.85096776
0.056386646 0.082605124 0.85383254
0.0038385771 0.087402105 0.85414451
0.0060540843 0.087524138 0.85223997
0.054668102 0.085584059 0.85186666
0.007468564 0.091822751 0.85303342
0.012022871 0.093924232 0.85085553
0.0086190058 0.096951962 0.854289
0.012306628 0.0972609 0.85235554
0.017581476 0.098700605 0.85109991
0.052195683 0.099675849 0.85041678
0.013712982 0.10073285 0.85401332
0.018348482 0.10295194 0.85297501
0.022648616 0.10339081 0.85122854
0.026044196 0.10449331 0.85099989
0.052109819 0.1026666 0.85159826
0.023384903 0.10771913 0.85325718
0.027449258 0.1079263 0.85153747
0.052258909 0.10771473 0.851439
0.024016736 0.11176598 0.8541556
0.027905628 0.11252153 0.85335416
0.032176465 0.11289853 0.85128087
0.03556418 0.11398255 0.85093325
0.049944811 0.11420579 0.85260004
0.052320473 0.11180715 0.85244173
0.029344348 0.11607244 0.85466683
0.032507375 0.11757265 0.85401487
0.036713243 0.11742637 0.85130465
0.048260096 0.11767149 0.85091114
0.05159099 0.11645307 0.85356671
0.03413422 0.12087028 0.85486692
0.037451312 0.12203524 0.85327917
0.041907713 0.12188457 0.85084432
0.046716098 0.1220074 0.85169625
0.050081491 0.12247001 0.8549335
0.038877774 0.12551354 0.85400003
0.042221703 0.12678497 0.85319173
0.046624288 0.12685269 0.85365421
0.04685257 0.13030982 0.85420012
0.043392852 0.032515507 0.8593111
0.046685673 0.032853343 0.8570016
0.052534912 0.033450674 0.85595024
0.05811277 0.033444814 0.85580033
0.061280925 0.033431787 0.8554669
0.0025765188 0.035764564 0.85799563
0.0070564747 0.036991756 0.85811114
0.012254792 0.036317289 0.85786676
0.017968515 0.036142819 0.85688919
0.023048276 0.035907514 0.85762239
0.027459575 0.036325105 0.85805005
0.032655898 0.03671908 0.85791093
0.03742031 0.037320755 0.85709345
0.042010751 0.036247898 0.85758102
0.046405304 0.035565596 0.85575587
0.051715516 0.035425723 0.85558367
0.069266692 0.044576567 0.85557145
0.064441703 0.049322031 0.85506672
0.068486422 0.048169397 0.85578567
0.064569816 0.051811498 0.85676682
0.067297645 0.052371241 0.85662049
0.064585604 0.057405528 0.85697633
0.066205755 0.055827193 0.85725939
0.063087091 0.063082531 0.85833347
0.061266601 0.066833705 0.85526681
0.059687801 0.072422355 0.85550028
-0.0070277834 0.079196289 0.85819995
-0.0033460832 0.079804175 0.85787183
0.058072876 0.079556957 0.85521454
-0.0089559685 0.081507027 0.85900003
-0.0019047281 0.083279163 0.85749352
0.00065346726 0.083541088 0.85528356
-0.00094544282 0.087872215 0.85873103
0.0014526787 0.087634273 0.85641128
0.0022542698 0.092582963 0.85797787
0.0054446375 0.093186885 0.85620034
-0.0025493822 0.095948294 0.85953844
0.0030586885 0.097467907 0.85883337
0.0062440783 0.097195268 0.85643339
-0.0025477847 0.1006819 0.85900009
0.0075895018 0.10163125 0.85801119
0.011305842 0.10253784 0.85670018
0.015008029 0.10341819 0.85520017
0.012667495 0.10544699 0.85876667
0.017342335 0.10697483 0.8567853
0.021402046 0.10905898 0.85576689
0.018813273 0.11134072 0.85904437
0.022700811 0.11346994 0.85662681
0.026189076 0.11462548 0.85573363
0.051728334 0.11463442 0.85580021
0.023531932 0.1177517 0.85862857
0.027613426 0.11813157 0.8566252
0.051277801 0.11906651 0.8571462
0.024692738 0.12148298 0.85920012
0.027872374 0.12217673 0.8584556
0.032394946 0.12286824 0.85631692
0.035775915 0.12421513 0.8560003
0.05117033 0.12278415 0.85712653
0.03290423 0.12730877 0.85844755
0.037229169 0.12779662 0.85731685
0.040568423 0.12900214 0.85606694
0.048505936 0.12888159 0.85526693
0.051320419 0.12794088 0.85784572
0.039072022 0.13093026 0.85826659
0.042761233 0.13185583 0.85735559
0.04706062 0.13328236 0.85798877
0.051206063 0.13180967 0.85774672
0.046738248 0.13630158 0.85941666
0.0030683316 0.028863765 0.86161548
0.0063029928 0.028957278 0.86440682
0.033406433 0.028392717 0.86352795
0.036830515 0.028876647 0.86200005
0.0030679477 0.032061111 0.86141253
0.0070949518 0.032105848 0.86261487
0.011699731 0.032588679 0.86326677
0.017636172 0.032272849 0.86320013
0.023179637 0.033064425 0.86250675
0.028011885 0.033313036 0.86271667
0.033062223 0.032331862 0.86330849
0.037615046 0.032066889 0.86157036
0.041827802 0.031745359 0.86007792
0.0078786071 0.035226449 0.8604334
0.011083812 0.0352128 0.86010015
0.015894223 0.035208706 0.86000019
0.028726662 0.035210073 0.86003351
0.03274459 0.035218712 0.86024445
0.037547018 0.035208706 0.86000019
0.067256838 0.056837764 0.86048329
0.065096132 0.062676877 0.86375028
0.063349247 0.06655167 0.86190009
0.065182783 0.06597805 0.86490017
-0.006591042 0.081981458 0.86400008
-0.0041623106 0.082554363 0.86158335
-0.0034761818 0.087745599 0.86199665
0.058606092 0.089920267 0.86306667
-0.0023562126 0.092800952 0.86186481
0.057824213 0.09356761 0.86339176
-0.0020173828 0.097719915 0.86105853
0.00065735937 0.097642891 0.86037779
0.05760501 0.096998632 0.86414462
-0.00094809104 0.1017331 0.86113644
0.0022623469 0.10247891 0.86066604
0.006003581 0.10346808 0.86002237
0.0033446923 0.10659263 0.86373347
0.0070933104 0.10752299 0.86260003
0.011663289 0.10773675 0.86064768
0.015092262 0.10879795 0.86000019
0.0081787361 0.11143262 0.86388904
0.011914909 0.11229028 0.86224443
0.01616778 0.11257759 0.86035568
0.01247201 0.11676838 0.86373353
0.017527733 0.11700525 0.86152792
0.021507917 0.11759663 0.86000019
0.018556699 0.1217694 0.86264169
0.022590628 0.12220544 0.86053342
0.02793473 0.12484721 0.86035568
0.022872895 0.12669736 0.86314332
0.027964287 0.12818557 0.86127412
0.031944193 0.12964007 0.86030018
0.052789852 0.12800887 0.86009222
0.024836442 0.13022774 0.86420023
0.02801916 0.13164894 0.8629778
0.03301432 0.13291568 0.86207509
0.037389472 0.13314992 0.86100006
0.041289479 0.13386093 0.86000019
0.052064426 0.13380644 0.86136019
0.032884393 0.13661489 0.86392689
0.03765117 0.13797821 0.86239994
0.04238059 0.13766769 0.86045939
0.04750783 0.13860109 0.86029351
0.051167406 0.13766769 0.86246669
0.038665462 0.14265057 0.86349344
0.042457458 0.14272708 0.86201483
0.047284827 0.14273685 0.86207408
0.05057162 0.14293987 0.86330003
0.042922042 0.14654887 0.86327511
0.047678165 0.14680794 0.86338007
0.050571624 0.14615126 0.86330003
0.0087344274 0.028195687 0.86572921
0.011988114 0.028251814 0.8674612
0.016631456 0.027941855 0.86856186
0.022283087 0.0291238 0.86937767
0.028612815 0.02869923 0.86876655
0.031385414 0.028238319 0.86701798
0.012769832 0.03061096 0.86570013
0.01681849 0.030632179 0.86630017
0.023301018 0.031058647 0.86698341
0.028153872 0.031304698 0.86710006
0.031377528 0.030649861 0.86680013
0.067800581 0.063750997 0.86743551
0.070208147 0.064540349 0.86720008
0.063601598 0.069230482 0.86533338
0.067228131 0.068020955 0.86786669
0.070429429 0.067980267 0.86993343
0.063410744 0.073097818 0.86824167
0.066825919 0.072236247 0.86828572
0.070378773 0.071165532 0.86930782
0.062317245 0.079307988 0.86993337
0.062216133 0.082410499 0.86852181
-0.0057954006 0.08775878 0.86550003
-0.0058054444 0.091136456 0.86700004
0.058744155 0.093350627 0.86510009
0.06054287 0.092023313 0.86775559
0.058791693 0.098257795 0.86580008
0.060513187 0.096819036 0.86733031
0.058091283 0.10085814 0.86739165
0.0019555523 0.10839903 0.86704046
0.003901145 0.11143319 0.86806667
0.0068095336 0.11327473 0.86732006
0.0081185317 0.11769269 0.86897326
0.010909048 0.11888995 0.86748892
0.01254432 0.12229104 0.8687222
0.015604232 0.12287497 0.8661918
0.013629517 0.12610155 0.8689999
0.016851174 0.12758113 0.86806297
0.0200556 0.12816422 0.86655021
0.01795521 0.13152011 0.86919999
0.022606498 0.1322348 0.86798888
0.028169053 0.13397141 0.86762232
0.024574932 0.13704492 0.86919999
0.028180378 0.13725363 0.86796296
0.032174312 0.13863367 0.86650014
0.0294418 0.14191444 0.8693167
0.033035826 0.14209054 0.86791855
0.036727816 0.14336975 0.8659001
0.052446641 0.14124434 0.86768341
0.033495318 0.14595981 0.86933333
0.037671495 0.1474375 0.86816674
0.04268818 0.14887469 0.86668903
0.047532491 0.14912793 0.8666001
0.051626775 0.14685708 0.86748338
0.039575834 0.15040685 0.86933327
0.042797189 0.15194963 0.86890465
0.047423758 0.15204775 0.86830842
0.050851814 0.15099779 0.86808336
0.043622434 0.15523444 0.86919999
0.046873517 0.1552642 0.86936665
0.017721295 0.025936689 0.87096691
0.022184106 0.027956111 0.87078357
0.026654208 0.027555801 0.87093359
0.070499599 0.06804762 0.87080014
0.06806089 0.074524552 0.87076688
0.070502684 0.073720999 0.8708384
0.063324668 0.077407449 0.87040013
0.067175403 0.0777108 0.87243336
0.070688285 0.077163257 0.87313032
0.063282147 0.081121564 0.87203336
0.062422324 0.092410825 0.87139994
0.060841247 0.10139742 0.87203217
0.060985517 0.10570375 0.87409991
0.0017491604 0.11247785 0.87198895
0.0031125457 0.11546193 0.87411654
0.0059509007 0.11760941 0.87195021
0.056037597 0.11859041 0.87320685
0.007983678 0.12248176 0.87199998
0.010953507 0.12423149 0.87100023
0.057773545 0.12206595 0.87483335
0.0084057134 0.12635782 0.87356657
0.012042592 0.12808894 0.87152392
0.0088266134 0.13020773 0.87486666
0.012068038 0.1318834 0.87338877
0.016381556 0.13352433 0.87172228
0.020969132 0.13448262 0.87093353
0.013718387 0.13505913 0.87466663
0.017373838 0.13698316 0.87396657
0.021598835 0.13806339 0.87180007
0.022074347 0.1425233 0.87339991
0.026461076 0.14284223 0.87127519
0.028166583 0.14745222 0.87311107
0.032833301 0.14844772 0.8711201
0.033450358 0.15254182 0.87344992
0.037848029 0.1526178 0.87156677
0.041276108 0.15393572 0.87100023
0.051014856 0.15391213 0.87086678
0.034923501 0.15701859 0.87463331
0.038320299 0.15734832 0.87307495
0.042674694 0.15766539 0.87114292
0.048017804 0.15767772 0.87120962
0.051100124 0.15741637 0.87232226
0.043570772 0.16197829 0.87359434
0.047594603 0.16155803 0.87366647
0.069210581 0.079773113 0.87503576
0.064388871 0.092903353 0.87604451
0.066310734 0.09167061 0.87986642
0.063534565 0.097659193 0.87777996
0.063000157 0.10389857 0.87946653
0.059649326 0.10867968 0.87842989
0.062144272 0.10792521 0.87894988
-0.00096812542 0.11451524 0.87933332
0.058595102 0.11229791 0.87734687
0.061304137 0.11115946 0.87866658
0.0027153608 0.11752449 0.87737185
0.058329608 0.11788884 0.87704998
0.0055862344 0.12093887 0.87846673
0.058915175 0.1224028 0.87723863
0.0072060796 0.12796462 0.87621665
0.058036316 0.12752683 0.87881225
0.0080421446 0.13237068 0.87842488
0.010484951 0.13380334 0.87710017
0.0088703372 0.13575912 0.87919992
0.011931329 0.13745709 0.87828749
0.016206006 0.13866642 0.87690008
0.013388602 0.14198926 0.87979978
0.017041691 0.14208692 0.87787044
0.02188555 0.1448932 0.87510002
0.017548531 0.14706974 0.87977117
0.021708068 0.14737056 0.8773858
0.025980661 0.149048 0.87560004
0.018725671 0.15061539 0.87999976
0.022645522 0.15147202 0.87926656
0.026637064 0.15238096 0.878043
0.030614279 0.15315522 0.87580007
0.027322099 0.15582639 0.87938321
0.031532567 0.1571997 0.8775906
0.035812348 0.15979001 0.87645006
0.032635797 0.16024274 0.87893331
0.03748969 0.16242586 0.87747502
0.042071685 0.16411023 0.8763001
0.04845915 0.16419575 0.87603343
0.051368304 0.16231826 0.87690008
0.038373616 0.16515185 0.87895554
0.043017864 0.16733211 0.87895554
0.047864407 0.16737872 0.8786267
0.051512796 0.16604751 0.87936664
0.044985052 0.17025901 0.87999976
0.067213163 0.093420431 0.88093317
0.0647237 0.099937409 0.88059986
0.06760262 0.096985392 0.88142377
0.063978679 0.1016947 0.88163328
0.067803316 0.10065288 0.8832792
0.063152984 0.1098906 0.88160002
0.065020129 0.10533191 0.8846333
0.059912119 0.11490157 0.88230008
0.062331278 0.11317139 0.88160437
-0.0017951508 0.11736388 0.88229764
0.0012209538 0.11913618 0.88124555
0.059958514 0.11745419 0.88298333
0.062004372 0.11742637 0.88279271
-0.0026240279 0.12011725 0.88444948
0.0028707071 0.12271512 0.88340789
0.0055993758 0.12368071 0.8805331
0.061430018 0.12285322 0.88047105
0.0039757467 0.12672937 0.8846668
0.0056081377 0.12797529 0.8819111
0.059892509 0.12799092 0.88201112
0.061586697 0.1272718 0.88271666
0.006018064 0.13328722 0.88178337
0.058365241 0.13153629 0.88379306
0.061736699 0.13005005 0.88486677
0.0072549209 0.13786469 0.88220489
0.0089264978 0.14155617 0.88476676
0.011188222 0.1429185 0.88098657
0.056766596 0.14399269 0.88456678
0.012735854 0.14712881 0.88199443
0.015457878 0.14830083 0.88083315
0.055106476 0.14807816 0.88439983
0.013867913 0.15133423 0.8842001
0.017130841 0.15266871 0.88239998
0.021210704 0.15323979 0.88096654
0.018825684 0.15635698 0.88470012
0.022321373 0.15725558 0.88313812
0.026626635 0.1582872 0.88078642
0.027439393 0.1614258 0.88316661
0.03166103 0.16275547 0.88115221
0.032394469 0.16642347 0.88353342
0.036621068 0.16780826 0.88186187
0.040901817 0.16870508 0.8804332
0.049927581 0.1686859 0.88033307
0.0516202 0.16885196 0.88119978
0.038023368 0.17148232 0.88348895
0.041798342 0.17229395 0.88203335
0.046935666 0.17248262 0.88195002
0.050144989 0.17106524 0.88416678
0.042297222 0.17635219 0.88387513
0.046511218 0.17663231 0.88404006
0.066777773 0.1033035 0.88605541
0.066869184 0.10729753 0.88727188
0.065139033 0.11212049 0.88625127
-0.0042775068 0.11860316 0.88542855
0.063555345 0.11801815 0.88721645
-0.0019692979 0.12243228 0.88690984
0.00067655375 0.12355433 0.88549995
0.063584395 0.12219802 0.88762218
-0.0015306696 0.1261396 0.88823825
0.0018575423 0.1272417 0.88659316
0.063690245 0.12653801 0.88910007
0.0025373593 0.13184476 0.88725525
0.058508791 0.13350788 0.88596654
0.060817491 0.13263859 0.88749999
0.0031583083 0.13699231 0.88718766
0.0056282044 0.13995782 0.88506681
0.057958554 0.13739276 0.88764
0.060376152 0.13563901 0.88913339
0.0035753283 0.14162892 0.88779986
0.0072871367 0.14316091 0.88621098
0.057929773 0.14161538 0.8872
0.0039953692 0.14554639 0.88903332
0.0073035634 0.14705266 0.88813794
0.011414219 0.14913571 0.8858
0.057921864 0.14720979 0.88709319
0.060376149 0.14556274 0.88913345
0.0089732436 0.15222447 0.88940001
0.01169607 0.15224677 0.8863222
0.01553217 0.15477537 0.88506687
0.056439538 0.15144609 0.88806653
0.0089732427 0.1563607 0.88940001
0.012267755 0.15690941 0.88782203
0.016865127 0.15753095 0.88574666
0.021318022 0.1597807 0.88543344
0.012943158 0.16135879 0.88867998
0.01723757 0.16187944 0.88790351
0.022183506 0.16254699 0.88704419
0.027118754 0.1640278 0.88613331
0.017678168 0.16584542 0.88925004
0.022218889 0.16693956 0.8884666
0.026907995 0.16712785 0.88696164
0.031746216 0.16913822 0.88613319
0.023068845 0.17039768 0.88926667
0.027204191 0.17115885 0.88892215
0.032141212 0.17261814 0.88792211
0.036487576 0.17366238 0.88622761
0.051127009 0.17323992 0.88688326
0.032426987 0.17654012 0.88925713
0.037326247 0.17783596 0.88746655
0.04164527 0.17895594 0.88577336
0.04733206 0.17915086 0.88551676
0.051173437 0.17752562 0.8876887
0.037710592 0.18138497 0.88906664
0.04226898 0.18269041 0.88699025
0.046968054 0.18304913 0.88644427
0.051189438 0.1825359 0.88796657
0.042121623 0.18657784 0.88885552
0.047026951 0.18740845 0.88756639
0.051385771 0.18711071 0.88850659
0.047441863 0.19088145 0.88913333
0.051550765 0.19139071 0.88945007
0.069043219 0.10977323 0.89400005
0.068115771 0.11294191 0.89275569
0.067337923 0.11802033 0.89348179
0.065698788 0.12222679 0.8938669
-0.0020896371 0.12876092 0.89113146
0.063945748 0.1295359 0.89266658
-0.00098246569 0.13281251 0.89235824
0.00068029755 0.13417596 0.89039999
0.063057125 0.13273235 0.89184999
-0.0009845274 0.13641661 0.8942309
0.0006811702 0.13766414 0.89154226
0.061103046 0.13768376 0.89166689
0.0013453671 0.1429929 0.89167243
0.060508925 0.14256717 0.89108914
0.0023454237 0.14782169 0.89278597
0.0056674182 0.14922233 0.89123344
0.061638124 0.1481851 0.89298022
0.0040192883 0.15307331 0.89435583
0.006504674 0.15271699 0.89227802
0.05828638 0.15359978 0.89097786
0.060547031 0.15178022 0.8916502
0.0040220353 0.15650658 0.89496678
0.0068560173 0.15781356 0.89160496
0.057063542 0.15751551 0.89242524
0.060733017 0.15806937 0.89438915
0.0076770289 0.16182961 0.89310026
0.011498882 0.1635218 0.89235848
0.054085679 0.16479996 0.89480019
0.057369836 0.16132058 0.89396691
0.013178634 0.1662102 0.89343369
0.016972424 0.16848406 0.89139354
0.053980902 0.16614199 0.89306653
0.018445818 0.17166084 0.89296699
0.022075733 0.1731042 0.89224786
0.02727819 0.17411195 0.89134473
0.054077625 0.17476086 0.89466691
0.022693539 0.17697644 0.89408696
0.02731875 0.17769426 0.89267445
0.031417359 0.17898686 0.89085025
0.054024573 0.17791432 0.89378911
0.028485162 0.1819232 0.89442253
0.032320742 0.18271931 0.89288551
0.036587615 0.18306541 0.89134026
0.05394667 0.18263674 0.89250016
0.03279401 0.18677472 0.89441699
0.037320819 0.18689267 0.89298916
0.041461341 0.18927965 0.89250028
0.053842574 0.18725665 0.89077789
0.043308284 0.19233668 0.89281356
0.046799116 0.19354676 0.8911252
0.053091325 0.19333827 0.89208341
0.047562014 0.19726071 0.89319545
0.05129835 0.19730446 0.89274675
0.071061559 0.11700188 0.89843798
0.067833088 0.12296768 0.89562672
0.071459264 0.12156225 0.89816689
0.06776575 0.12695032 0.89639163
0.071074367 0.12621853 0.89860028
0.064206026 0.13339768 0.89630002
0.067129396 0.13144226 0.89812803
-0.00098632136 0.13916436 0.89586031
0.06355194 0.13776162 0.89649343
0.066083439 0.1354869 0.89910018
-0.00098616048 0.14247423 0.89571428
0.06343817 0.14188176 0.89724183
-0.00098647515 0.14668691 0.89600003
0.00068414828 0.14992662 0.89544004
0.062522776 0.14504176 0.89613342
0.0015199906 0.15255859 0.89622074
0.060808457 0.15493403 0.89550012
0.0023604934 0.15701869 0.89789343
0.059149336 0.15996127 0.89566666
0.0034771077 0.16089799 0.89779526
0.0057168067 0.16390118 0.89900017
0.057517242 0.16273372 0.89625341
0.060966901 0.16285455 0.89783347
0.0090558073 0.16614789 0.89758354
0.011966721 0.16799097 0.89628339
0.057026841 0.16659121 0.89907348
0.01288669 0.17182609 0.89796209
0.016982604 0.17341577 0.89631677
0.054164927 0.17170815 0.89611131
0.056047339 0.17235857 0.89950025
0.017414546 0.17690027 0.89707625
0.022403244 0.1791482 0.89579999
0.05600303 0.17723811 0.89878917
0.019102084 0.18203135 0.89768916
0.022208808 0.1819784 0.89640003
0.026300257 0.18274981 0.89575553
0.022703221 0.18667673 0.89823353
0.027428675 0.18674141 0.8962518
0.031597815 0.18834828 0.89596665
0.038260311 0.18990885 0.89546674
0.027487272 0.19131684 0.89816695
0.032678679 0.19168983 0.8969751
0.037235696 0.19230466 0.89664763
0.041339539 0.19332175 0.8958444
0.037969317 0.19598031 0.89848363
0.042258352 0.19733955 0.89679056
0.047463425 0.1999777 0.89579999
0.043119103 0.20161259 0.89813352
0.047282372 0.20236818 0.89689535
0.050940886 0.20218436 0.89820027
0.044282135 0.20655736 0.89905024
0.047291536 0.2063508 0.89888018
0.0729395 0.12319452 0.90093768
0.072095588 0.12737715 0.90088904
0.069055624 0.13359955 0.90141129
0.071404807 0.13268453 0.90277791
0.06727466 0.13787241 0.90157354
0.064506859 0.14407343 0.90050036
0.066780098 0.14234842 0.90284169
0.0079713352 0.16765857 0.90122241
0.058718584 0.16861995 0.90187514
0.061295126 0.16624884 0.90266663
0.0091032805 0.17289408 0.90228897
0.010769457 0.17346507 0.90090036
0.058205027 0.17267109 0.90258902
0.061446764 0.17171003 0.90489995
0.01267884 0.17772554 0.90232086
0.015810024 0.17933017 0.90090024
0.057973072 0.17814131 0.90336674
0.01417062 0.18152842 0.90349996
0.016678177 0.18299854 0.90245563
0.057955962 0.18144807 0.90309995
0.018784318 0.1876324 0.90254164
0.021689449 0.18937485 0.90085042
0.022803109 0.19253603 0.90220016
0.027597463 0.19460471 0.90178913
0.030921435 0.19434816 0.90060031
0.022625828 0.19523287 0.90470004
0.028059237 0.1969859 0.90309173
0.032651056 0.19716664 0.90199453
0.037330862 0.19885273 0.90127355
0.034440558 0.20030382 0.90480006
0.038576934 0.20240119 0.9028917
0.041576728 0.20392956 0.90098923
0.052401241 0.20339206 0.90170002
0.039465848 0.20600146 0.90394998
0.042419709 0.20779617 0.90225333
0.047773596 0.20911236 0.90165567
0.052090976 0.20760429 0.90360832
0.043652408 0.21090935 0.90336663
0.047549985 0.21218821 0.90380001
0.069918483 0.13726857 0.90533352
0.068287805 0.14328387 0.90610009
0.070271164 0.14219218 0.90990007
0.067313492 0.14698796 0.90815586
0.066869855 0.15148479 0.90980017
0.065117382 0.15727443 0.90902251
0.061578061 0.16870305 0.90683359
0.0074501075 0.17189838 0.90588903
0.061679915 0.17236301 0.90833354
0.0072466903 0.1773971 0.90708351
0.059883118 0.17712773 0.90677804
0.061761398 0.17766497 0.90953332
0.0074648908 0.18239225 0.90779662
0.011956084 0.18258373 0.90595561
0.05998034 0.1816382 0.90825021
0.060084905 0.18449339 0.90983337
0.0079586674 0.18744078 0.90888113
0.012534287 0.18731523 0.90710407
0.016462119 0.18820339 0.90596676
0.012769332 0.19251771 0.90876269
0.017384015 0.19243234 0.906371
0.018106299 0.19734526 0.90778124
0.022416754 0.19768092 0.90600014
0.026861539 0.19873038 0.90530008
0.019337099 0.20117453 0.90873355
0.022954386 0.20226376 0.90820032
0.027759118 0.20248753 0.90703732
0.03260285 0.20257798 0.90650016
0.036161978 0.20301926 0.90565008
0.028238419 0.20669538 0.90885019
0.033100352 0.20768368 0.90855038
0.03740165 0.20766 0.90647161
0.054827813 0.2075582 0.90707797
0.038201187 0.21241283 0.90825266
0.042396147 0.2130568 0.90654463
0.049688086 0.213186 0.90590012
0.052939303 0.21246105 0.90730023
0.043253817 0.21776175 0.90829188
0.048074335 0.21774195 0.90732628
0.052121237 0.21702647 0.90904456
0.071306676 0.14426169 0.91228342
0.068865605 0.14789577 0.91376686
0.071172468 0.14683443 0.91421127
0.066953152 0.1542152 0.91093338
0.067056872 0.15784818 0.91234446
0.067178562 0.16153526 0.91400015
0.0057997392 0.173913 0.91204143
0.0040962868 0.17804681 0.91148901
0.062467471 0.17806208 0.91156667
0.062375829 0.18244611 0.91230005
0.0057931161 0.18811925 0.91100007
0.06117481 0.18777323 0.91343355
0.0083476417 0.19251139 0.9117316
0.010882622 0.1947623 0.91036665
0.058608394 0.19198613 0.9132669
0.06041291 0.1906056 0.91480035
0.0083536347 0.19517949 0.91231674
0.013750955 0.19759016 0.91300011
0.015971478 0.19809119 0.91009992
0.058711071 0.19572502 0.91486686
0.014346802 0.20080116 0.91473371
0.017369408 0.2022986 0.91228008
0.018597407 0.20575592 0.91406691
0.022832053 0.20721409 0.91299534
0.027007114 0.20827183 0.91019994
0.03125447 0.20998806 0.91029996
0.024588108 0.21105693 0.91493374
0.028189829 0.21186574 0.91317624
0.033010792 0.21291512 0.9119556
0.068971112 0.14982472 0.91516685
0.071829915 0.14928636 0.91534466
0.069010049 0.15246427 0.91568357
0.072529174 0.15267664 0.91696489
0.069079973 0.15688199 0.91661119
0.072323821 0.15711975 0.91799998
0.06859532 0.16219352 0.91773337
0.070984267 0.16158828 0.91913325
0.066545531 0.16718447 0.9170084
0.063930571 0.17217048 0.91631126
0.065804265 0.17260389 0.91861105
0.063946083 0.17647474 0.91653335
0.065763675 0.1776173 0.91804439
0.063910022 0.18319128 0.9160167
0.065774821 0.18277484 0.91819984
0.063960023 0.18759893 0.91673326
0.065808252 0.18799366 0.91866654
0.061974186 0.19273551 0.91683888
0.0092705339 0.19828998 0.91886657
0.011524171 0.19890374 0.91644454
0.057991356 0.19873315 0.91696668
0.061223209 0.19705568 0.91842222
0.013016259 0.20272133 0.91726667
0.016057467 0.20426384 0.91500038
0.05785384 0.20277271 0.91749334
0.013379298 0.20712426 0.91862649
0.017776774 0.20811099 0.9157002
0.021176932 0.20937014 0.91500038
0.014404831 0.21101022 0.91843319
0.017575743 0.2122405 0.91794747
0.022912763 0.21276633 0.91618347
0.027149625 0.21447644 0.91500038
0.069365516 0.16437854 0.92040002
0.072323956 0.16288549 0.92163754
0.069493636 0.16725627 0.92210013
0.072188005 0.16666029 0.92355835
0.068759173 0.17185511 0.92377782
0.071434774 0.17379712 0.92496651
0.068358064 0.17751761 0.92418337
0.068564624 0.18176201 0.92347336
0.067897648 0.18818057 0.9237833
0.064201921 0.19344248 0.92020005
0.066043459 0.19295374 0.92195016
0.063883528 0.19763686 0.92179179
0.066106729 0.19571267 0.9228335
0.0093051754 0.2024651 0.92229992
0.011008939 0.20387533 0.92093343
0.061608344 0.20215876 0.92247343
0.0093243467 0.20631769 0.92419988
0.011019565 0.2075032 0.92182225
0.059154805 0.20749404 0.92178106
0.012451999 0.21267109 0.92193341
0.073249467 0.16884194 0.92609984
0.075114757 0.16829029 0.92780578
0.072589256 0.17201324 0.92647994
0.075802267 0.17293853 0.92774665
0.069746092 0.17646995 0.92544985
0.072474711 0.17767197 0.92722684
0.075130485 0.17609337 0.92800003
0.069855377 0.1845057 0.92689991
0.07229919 0.18249631 0.92719996
0.068045862 0.18600892 0.92580003
0.064736791 0.20195825 0.92786676
0.0093354443 0.20828456 0.92529982
0.068668142 0.19987541 0.93426669
0.066376165 0.20343824 0.93266672
0.070767283 0.19914134 0.93900007
