# .PCD v0.7 - Point Cloud Data file format
VERSION 0.7
FIELDS x y z
SIZE 4 4 4
TYPE F F F
COUNT 1 1 1
WIDTH 754
HEIGHT 1
VIEWPOINT 0 0 0 1 0 0 0
POINTS 754
DATA ascii
0.048285075 0.053678598 0.82426679
0.0083221607 0.059855327 0.82486689
0.013311351 0.059424523 0.82421672
0.017536931 0.059035901 0.82414454
0.022150228 0.058712143 0.82420957
0.028287863 0.058637645 0.82392502
0.032873038 0.057442222 0.82328898
0.037444882 0.057389114 0.82253885
0.041999202 0.057323884 0.8215943
0.04739324 0.057360139 0.82210827
0.052828714 0.058202703 0.82319999
0.056672093 0.05897456 0.82328337
0.013954683 0.061866473 0.82440013
0.017751355 0.062411286 0.8238762
0.021936979 0.062454123 0.82444775
0.027837863 0.062878028 0.82426006
0.032841187 0.062744439 0.82250363
0.037387926 0.062651157 0.82128119
0.041968618 0.062628634 0.82099223
0.047367822 0.062679611 0.821661
0.052818369 0.062785238 0.82304448
0.05667172 0.062803298 0.82327777
0.033683442 0.065950289 0.82433343
0.037682932 0.066934466 0.82296187
0.042036399 0.067320697 0.82232583
0.046980169 0.067216538 0.82293338
0.053848702 0.067208759 0.8247202
0.057473853 0.067438491 0.8237676
0.039077271 0.070573404 0.82460016
0.043705065 0.070596218 0.82486683
0.046016362 0.070601925 0.82493347
0.057555191 0.071369231 0.82493317
0.0080562141 0.053691417 0.82920039
0.012998248 0.053201314 0.82877809
0.017623901 0.053166594 0.82824463
0.022253403 0.053154275 0.82805562
0.027132677 0.053390909 0.82774431
0.033573147 0.052887794 0.82791114
0.037681088 0.052362375 0.82772607
0.042289257 0.052332744 0.82726687
0.04709895 0.052343443 0.82743716
0.052765381 0.052780826 0.82824177
0.057205986 0.052739281 0.82878697
-0.0014281818 0.058100373 0.82902235
0.0023310792 0.057319969 0.82816666
0.0075163017 0.057518262 0.82659113
0.012762142 0.056669582 0.82597494
0.017577464 0.056098405 0.82604438
0.022202807 0.05595354 0.82617331
0.026803328 0.056446083 0.82550848
0.052967053 0.055284839 0.82535571
0.056582373 0.056331854 0.82571107
-0.0055509959 0.060155258 0.82900006
-0.0024574385 0.062417846 0.82832688
0.0020335959 0.06252557 0.82696348
0.0075668669 0.063047849 0.82647222
0.012437875 0.063505597 0.8257668
0.016789552 0.064482003 0.82516682
0.022941433 0.06447158 0.82503355
0.026018834 0.062936932 0.82503355
-0.0016854261 0.067087211 0.82891113
0.0021793263 0.067089334 0.82893366
0.0077965809 0.067686334 0.82850933
0.01298486 0.067779064 0.82792598
0.017604858 0.067731768 0.82734805
0.022221096 0.067691118 0.82685912
0.027618222 0.067690499 0.82685536
0.032755755 0.068048872 0.8258667
0.036791183 0.069078535 0.8250668
0.049866673 0.068305612 0.82500017
0.051801387 0.067937307 0.82518351
0.05602121 0.067538291 0.82500011
0.014549414 0.070955649 0.82906699
0.017643169 0.071732648 0.82913369
0.022500398 0.072054081 0.82902896
0.027464272 0.072314009 0.82855773
0.032758906 0.072575651 0.82818013
0.037466917 0.072533272 0.82725829
0.042061917 0.072475068 0.82659155
0.047947444 0.07257136 0.82638657
0.053012833 0.072238073 0.82608885
0.056057423 0.072189867 0.82553339
0.030038157 0.075649217 0.82980019
0.038524993 0.075600594 0.82926691
0.042738311 0.075916521 0.82850015
0.046984732 0.076627098 0.82843816
0.052401688 0.076311857 0.82860845
0.05719728 0.076779112 0.82865924
0.013874894 0.049717795 0.83499974
0.017768111 0.049717795 0.83499974
0.022439962 0.049717795 0.83499974
0.027109662 0.049713831 0.8349331
0.032540794 0.049687032 0.83448315
0.038258493 0.049010813 0.83355999
0.042616684 0.048861999 0.83366656
0.046986274 0.049034573 0.83395988
0.053542886 0.049678098 0.83433318
0.056598324 0.049629148 0.83351117
-0.0015397337 0.05305209 0.83371413
0.0021900844 0.052699249 0.83305913
0.007296402 0.051823948 0.83320946
0.013035976 0.051036388 0.83117771
0.01768299 0.051025469 0.83099991
0.02234908 0.051060949 0.83157778
0.027400142 0.051469021 0.83193332
0.031347271 0.051686179 0.83169335
0.052297104 0.05102684 0.83102208
0.056378834 0.050980438 0.83026671
-0.006079508 0.058223575 0.83077782
-0.0029817971 0.056697726 0.83107209
-0.0055643879 0.06261912 0.83100003
-0.00091447122 0.069541812 0.83060008
0.0021834492 0.069533795 0.83050424
0.0052843895 0.069575302 0.83099991
-0.00091885403 0.072204113 0.8345809
0.002413573 0.072453104 0.83361089
0.0076188333 0.072779253 0.83227211
0.01284177 0.072874114 0.83114994
0.01768299 0.074212782 0.83099991
0.021557558 0.074212782 0.83099991
0.008416296 0.077222876 0.83428305
0.013079042 0.077578932 0.83393323
0.017732324 0.07752157 0.83331096
0.022388894 0.0775024 0.83310372
0.027023494 0.077426329 0.83228898
0.032682922 0.077600367 0.83264846
0.037695203 0.077924825 0.83289528
0.042202972 0.078294896 0.83166665
0.047078453 0.078764841 0.83010006
0.052551933 0.07884708 0.83096653
0.056428645 0.078850247 0.83099991
0.0099816816 0.080783039 0.83499974
0.013096253 0.080783039 0.83499974
0.017768111 0.080783039 0.83499974
0.022439962 0.080783039 0.83499974
0.026333183 0.080783039 0.83499974
0.030226398 0.080783039 0.83499974
0.038402133 0.081171349 0.83499974
0.0426488 0.082269259 0.83431089
0.047230318 0.082119375 0.83278525
0.051913753 0.08215683 0.83316296
0.056984372 0.081222437 0.83267301
0.042684678 0.085442789 0.83499974
0.046577889 0.085442789 0.83499974
0.047602288 0.043730546 0.83933347
-0.0024850608 0.049906358 0.83816671
0.0022058317 0.049963906 0.83913344
0.0069001666 0.049958616 0.83904463
0.011839982 0.048857536 0.83801121
0.017814863 0.048679855 0.83719999
0.022903077 0.047929127 0.83768332
0.02720408 0.047548503 0.83784443
0.032315034 0.047626484 0.83725721
0.037613627 0.046759304 0.83766669
0.042803969 0.045962658 0.83734447
0.047679931 0.046264645 0.83677149
0.051975451 0.048098873 0.83727497
0.056216128 0.047035974 0.83706665
-0.0056045642 0.05450784 0.83700001
-0.0036467833 0.052465618 0.83548057
-0.0056000999 0.056020167 0.83633333
-0.00092142948 0.07474146 0.83692002
0.0014168529 0.07459081 0.83523321
-0.0013141877 0.078370564 0.83826309
0.0022002684 0.077864967 0.83702213
0.0060963361 0.078564458 0.83618319
-0.0020397392 0.082857147 0.83802861
0.0022009094 0.082555957 0.83722812
0.0068811364 0.082509786 0.83675551
0.012339077 0.083263464 0.83650821
0.017796617 0.082914062 0.83634275
0.022478094 0.083253793 0.83641106
0.027370226 0.082891002 0.83611411
0.032816373 0.08258234 0.83605444
0.037758436 0.083395824 0.83627987
0.056755126 0.083970666 0.83580732
0.0022032086 0.087311611 0.83802164
0.0068912301 0.087302171 0.83792597
0.012361273 0.08730527 0.83795565
0.017829938 0.087302797 0.83793342
0.02250706 0.087256193 0.83748889
0.027177995 0.087208509 0.83703697
0.032647535 0.087224513 0.83718878
0.038106833 0.087211549 0.83706659
0.042771365 0.087368369 0.83669996
0.047643922 0.08756125 0.83615226
0.052150525 0.0872005 0.83695549
0.057208885 0.087141618 0.83788335
0.060572345 0.08838024 0.8383112
0.0022065234 0.090505548 0.83873433
0.0053395014 0.090606146 0.83966672
0.019434946 0.090613335 0.8397333
0.022548577 0.090539008 0.83904463
0.027242126 0.091315888 0.83901125
0.031949911 0.091354817 0.83936673
0.037664786 0.091555595 0.83882236
0.042852547 0.092017256 0.83828151
0.047532994 0.091998659 0.83811116
0.052463774 0.09188363 0.8388502
0.056967959 0.092088476 0.83894092
0.060809437 0.091983914 0.83798903
0.039772287 0.095246561 0.83926678
0.041353967 0.095284387 0.83959997
0.047636323 0.095322222 0.83993334
0.053897988 0.095314652 0.83986664
0.058550574 0.095238999 0.83920014
0.06112003 0.095698714 0.83866674
0.0037974806 0.044025782 0.84499991
0.0073433351 0.04363282 0.84499991
0.011676893 0.044024628 0.84497768
0.022708712 0.044025782 0.84499997
0.027783897 0.043558143 0.84356678
0.032091748 0.04392622 0.8430891
0.037290942 0.043292087 0.84384769
0.043096256 0.043139685 0.84306651
0.047151107 0.042638514 0.84248006
0.05263941 0.044015363 0.8448
0.055724114 0.043177456 0.84380007
-0.0013193716 0.047412544 0.84237885
0.0022147377 0.047029611 0.8425259
0.0069214581 0.046981156 0.8416518
0.012418611 0.046210457 0.84186673
0.017925175 0.046238948 0.84238881
0.022312414 0.046056733 0.84192008
0.027315093 0.045396179 0.84126645
0.032004662 0.045371 0.84079981
0.036718462 0.045382988 0.84102201
0.052472144 0.045441747 0.84211111
0.055539213 0.045381788 0.84099972
-0.0030204288 0.078306653 0.84176666
-0.0040693139 0.082275957 0.84233338
0.0030017062 0.093315005 0.84296632
0.0071255807 0.092687376 0.84259999
0.012424469 0.092452347 0.84224457
0.017719958 0.092618406 0.84197509
0.022597143 0.09308102 0.84085536
0.027302312 0.093864016 0.84086639
0.032012064 0.093878902 0.84099978
0.036703024 0.093841694 0.84066647
0.050801549 0.093819357 0.84046656
0.0030057062 0.096564442 0.84395993
0.0071402872 0.09719003 0.844275
0.012537302 0.096825287 0.84394825
0.017970599 0.096630193 0.84453326
0.022907285 0.096908435 0.84401911
0.027372679 0.097246058 0.84305191
0.032066718 0.09717463 0.84243721
0.037322771 0.097243764 0.84180605
0.043217633 0.097271629 0.84158325
0.047763396 0.097339287 0.84216666
0.052292112 0.097365528 0.84239167
0.056958608 0.097284861 0.84169167
0.060279559 0.097847447 0.84148753
0.028224479 0.10061287 0.84499991
0.032126725 0.10128326 0.84403342
0.037394702 0.10185272 0.84342444
0.043099493 0.10117223 0.84311146
0.047674209 0.1018766 0.84406674
0.052863907 0.1017118 0.84479988
0.05730664 0.10205741 0.84394085
0.060394127 0.1011693 0.84308708
0.058167249 0.1053284 0.84499991
0.037880599 0.039519545 0.84950024
0.04259491 0.039484654 0.84875023
0.047327876 0.039469924 0.84843361
0.056129135 0.039539706 0.84993351
-0.0017255095 0.044190772 0.8481667
0.0019104674 0.043191247 0.84714973
0.0066535585 0.041634403 0.84753352
0.012760627 0.04203447 0.84714085
0.018242018 0.04298484 0.84664768
0.022783592 0.04180469 0.84778905
0.027169157 0.041582525 0.84648001
0.032249458 0.04177672 0.84723347
0.036993798 0.040994931 0.84733349
0.041985042 0.041246146 0.84602672
0.049058795 0.041476145 0.84644443
0.052826837 0.041806281 0.84782243
0.056970064 0.041489866 0.84673339
-0.0025102156 0.046456147 0.84633338
0.0030100131 0.099054009 0.84511119
0.0053742658 0.099056609 0.84513319
0.012203825 0.099051408 0.84508872
0.017989805 0.099090464 0.84542209
0.021926824 0.099068329 0.8452332
0.007197381 0.10206045 0.84768814
0.012236835 0.10194954 0.84739274
0.018232917 0.10229727 0.84755009
0.02277923 0.10250505 0.8476373
0.027274784 0.10287459 0.84697151
0.032214347 0.10392303 0.84635562
0.042411339 0.10376477 0.84506661
0.049538687 0.10383845 0.84566683
0.051934354 0.10389984 0.84616667
0.022826642 0.10627208 0.84940022
0.027261127 0.1065043 0.84936029
0.032610856 0.10638735 0.84842694
0.037014142 0.10725699 0.84780759
0.042551067 0.10726217 0.84785026
0.048064347 0.10721591 0.84748161
0.052823536 0.10725208 0.84777051
0.057306878 0.1076372 0.8472572
0.060674433 0.10715332 0.84700006
0.038692649 0.11068647 0.84993351
0.042359024 0.11060256 0.84928918
0.047642574 0.11113801 0.84935588
0.054539744 0.1106778 0.84986687
0.058456607 0.11059165 0.84920543
0.047663782 0.034982182 0.8544668
0.053180605 0.034308452 0.8535201
0.056684632 0.034286082 0.85034019
0.0078108688 0.039690889 0.85318339
0.01257598 0.039657943 0.85247505
0.01847413 0.039059058 0.85325992
0.022916937 0.038875815 0.85273331
0.027669245 0.038849626 0.85216111
0.032460306 0.038877986 0.85278338
0.037211485 0.038062572 0.85229331
0.042367965 0.037658494 0.8521083
0.047541868 0.037666216 0.85229164
0.05278331 0.037901789 0.8522433
0.057494681 0.037987884 0.85058928
-0.00093885779 0.04284329 0.85275006
0.0022396918 0.041264802 0.85291117
0.017298799 0.041133642 0.85020006
0.013336644 0.10440872 0.85031122
0.01650851 0.10441146 0.85033339
0.0086100372 0.10716979 0.85339999
0.012583415 0.10791951 0.85304189
0.018107353 0.10765523 0.85096288
0.022863923 0.10858218 0.85078657
0.028024103 0.10883187 0.85088325
0.031979866 0.10879147 0.85056663
0.013394672 0.11280806 0.85402489
0.018149031 0.11266524 0.85293335
0.022894049 0.11252747 0.8518889
0.027665148 0.11254665 0.85203332
0.032264743 0.11245779 0.85286248
0.03701112 0.11266418 0.85292381
0.042197574 0.11301263 0.85213333
0.047674019 0.11301394 0.85108745
0.052898578 0.1127613 0.85215825
0.057324242 0.11280558 0.85199624
0.013929795 0.11707782 0.85426807
0.017911093 0.11706873 0.85420007
0.022955397 0.11680064 0.85417789
0.027733274 0.11599997 0.85413337
0.038905088 0.11606338 0.85460013
0.042064864 0.11678076 0.85403341
0.04707979 0.11721544 0.85255992
0.052549832 0.117162 0.85432869
0.057205386 0.11600451 0.85416675
0.014456631 0.12128013 0.85401791
0.047646895 0.1207713 0.85416675
0.050065871 0.12084199 0.85466695
0.037534159 0.033597644 0.85971117
0.042703353 0.03316474 0.85886669
0.046832047 0.032113384 0.85747755
0.050954513 0.032663807 0.85621071
-0.00094542437 0.039948195 0.85871428
0.0022568249 0.039954256 0.85884446
0.0066571711 0.038722567 0.85812509
0.012160312 0.037629809 0.85686672
0.017433809 0.036670256 0.85680842
0.023038143 0.035892133 0.85724455
0.027517285 0.036055572 0.85733336
0.033055827 0.036318898 0.85790002
0.037091237 0.035717629 0.85688007
0.041837908 0.035677459 0.85590696
0.045326367 0.035023116 0.85546696
0.051684007 0.035006747 0.8550669
-0.00094283646 0.041431844 0.85636365
0.034171484 0.11463442 0.85580033
0.03732872 0.11452725 0.8550002
0.059674576 0.11456881 0.8553105
0.061319143 0.11466119 0.85600013
0.013415164 0.11934515 0.85533339
0.018736968 0.11883955 0.85551137
0.023002541 0.11942887 0.85593367
0.027798584 0.11866223 0.85614473
0.032603305 0.11791726 0.85651129
0.037182104 0.11807537 0.85621691
0.042134359 0.11936066 0.85544467
0.052930709 0.11902402 0.8558836
0.058361106 0.11831418 0.85609561
0.061379552 0.1179625 0.85684353
0.013415164 0.12332317 0.85533333
0.017710129 0.12281452 0.8573249
0.023272386 0.12237751 0.85745722
0.027851222 0.12207714 0.8577556
0.032917958 0.12256572 0.85878086
0.037712581 0.12253413 0.85856193
0.042230334 0.12282344 0.85739261
0.046765305 0.12318993 0.85677153
0.052594639 0.12275679 0.85692674
0.057864677 0.12290512 0.85685337
0.061372638 0.12272978 0.85674685
0.03433653 0.12638561 0.8599335
0.039147906 0.12638561 0.8599335
0.042340726 0.1263399 0.8596223
0.050323639 0.12625822 0.85906678
0.057483859 0.12615044 0.85833323
0.06145047 0.12607692 0.85783321
0.029116554 0.028397493 0.86367792
0.032480139 0.028227121 0.86174667
0.038000152 0.028448189 0.86117512
0.041957773 0.028409708 0.86000013
0.0081871571 0.03111425 0.8647669
0.012481474 0.032705337 0.86431128
0.017388988 0.032425448 0.86259997
0.02285241 0.031933408 0.86234343
0.027983526 0.032076281 0.86184818
0.032791987 0.03206417 0.86149627
0.037548874 0.031210868 0.86004466
0.042037971 0.031049317 0.86000025
-0.0020222904 0.037971754 0.86222225
0.0024966062 0.03736845 0.86240959
0.0070935953 0.0361173 0.86262226
0.011499523 0.035657786 0.86120003
0.015894223 0.035208706 0.86000019
0.029527472 0.035208706 0.86000019
0.031933337 0.035208706 0.86000019
0.019903997 0.12479562 0.86000019
0.022310704 0.12480046 0.86003351
0.027923556 0.12479562 0.86000019
0.031933337 0.12479562 0.86000019
0.036745057 0.12479562 0.86000019
0.01813535 0.12784666 0.86169249
0.02314592 0.12818973 0.86130369
0.027938195 0.12806207 0.86044449
0.032561429 0.12830055 0.86070007
0.037379637 0.12830932 0.86075842
0.042408634 0.12894726 0.86101121
0.04720537 0.1280911 0.86063713
0.052256279 0.1283762 0.86120838
0.0568607 0.1289473 0.86101121
0.060619216 0.12923841 0.86117339
0.017984334 0.13101859 0.8641144
0.023176773 0.13156758 0.86244446
0.028415298 0.13201259 0.86272502
0.03281479 0.13151331 0.86208886
0.037689175 0.13249536 0.86325556
0.042508096 0.13246109 0.86303335
0.047326233 0.13243191 0.86284453
0.052168723 0.13246642 0.86307234
0.057003137 0.13248241 0.86317229
0.061030589 0.13248795 0.86320841
0.044182483 0.13506618 0.86430013
0.047939986 0.13612783 0.86423355
0.051027909 0.1362575 0.86420858
0.057883963 0.13506617 0.86430019
0.0030879555 0.029045265 0.86703348
0.0071268319 0.029031867 0.86663347
0.011996863 0.029077645 0.86799997
0.01681762 0.029019477 0.86626363
0.022502877 0.029060341 0.86748338
0.026511423 0.029019585 0.86626679
-0.00095389952 0.033053055 0.86641216
0.0022780092 0.032256909 0.86665469
0.0065858103 0.032782033 0.86633343
0.011697126 0.031958397 0.86588341
0.016806841 0.03061096 0.86570007
0.0014691141 0.035459436 0.86612421
0.016566731 0.13283505 0.86721987
0.022475513 0.13379042 0.86645007
0.027301352 0.13367461 0.86570013
0.03293461 0.13360254 0.86523348
0.02315212 0.13693544 0.86821854
0.028171536 0.13720495 0.86764812
0.033026848 0.13720585 0.86765558
0.037883565 0.13721399 0.86770749
0.042499676 0.13729946 0.86697513
0.046472911 0.13816553 0.86693352
0.053338312 0.13732514 0.86638021
0.057028174 0.13757056 0.86705256
0.062097508 0.13708189 0.86687475
0.065341055 0.13790727 0.86700004
0.024999296 0.14079042 0.86986667
0.028767489 0.1417859 0.8693555
0.033079609 0.14227408 0.86904442
0.037743874 0.14208946 0.86914992
0.042812526 0.14230227 0.86921471
0.047632769 0.14217542 0.86843699
0.052286815 0.14196324 0.86837494
0.057387237 0.14145686 0.86898881
0.062416755 0.14198524 0.86851245
0.047677327 0.14554061 0.8692444
0.051738024 0.14556107 0.86936671
0.063782893 0.14529878 0.86780006
0.017381417 0.13756381 0.87138337
0.020681994 0.13869332 0.8702445
0.017494425 0.14295718 0.87321401
0.021796746 0.14268728 0.87156308
0.026326383 0.14354017 0.87084019
0.03963653 0.14415914 0.8706668
0.054263234 0.14419225 0.87086689
0.057518959 0.14421065 0.87097806
0.060769223 0.14421433 0.87100023
0.017517751 0.14693631 0.87434125
0.021449776 0.14674085 0.8739832
0.027866976 0.14680184 0.87261903
0.032871194 0.14781411 0.87215346
0.038049981 0.14754371 0.87151855
0.042919409 0.14752091 0.87138528
0.047774348 0.14826691 0.87101126
0.052917875 0.1480232 0.87161905
0.057573099 0.14759141 0.87180012
0.061567396 0.14742225 0.8708058
0.03410235 0.15130076 0.87449992
0.038162936 0.15123348 0.874111
0.043442108 0.15157212 0.87371653
0.048099935 0.15250452 0.8732332
0.052240968 0.15216944 0.87325549
0.057723429 0.15122963 0.87408876
0.061408397 0.15147887 0.87239999
0.016989544 0.14489505 0.8751111
0.017555246 0.1483386 0.87622482
0.021898566 0.14878441 0.87564451
0.025150655 0.14815448 0.8751334
0.017856395 0.15102482 0.87762499
0.022161761 0.15210497 0.87796432
0.026864337 0.15187304 0.87780392
0.031430032 0.15276362 0.87729347
0.037463222 0.15333413 0.87682509
0.043143407 0.15399185 0.87592506
0.046361331 0.1546426 0.87500006
0.053737327 0.15392275 0.87553346
0.057830781 0.15313931 0.8757112
0.06106076 0.15467417 0.87517852
0.0223215 0.15607534 0.87940276
0.027123116 0.15688172 0.87956649
0.031784855 0.15681607 0.87805575
0.037512392 0.15679868 0.87795854
0.043010049 0.15726766 0.87797165
0.048156109 0.15761681 0.87796688
0.05310544 0.15718079 0.87857229
0.058437791 0.15570407 0.87869167
0.061326187 0.15780003 0.87898272
0.027752329 0.16043715 0.87999976
0.03225093 0.16077349 0.87959981
0.036743887 0.16110159 0.87915546
0.04291822 0.16140407 0.87969148
0.047933552 0.16107251 0.87989312
0.051545996 0.16042501 0.87993312
0.021618241 0.15854308 0.88084316
0.025298174 0.1588483 0.88026637
0.054853097 0.15886034 0.88033307
0.057863891 0.15835705 0.88117325
0.06308613 0.15892053 0.88066673
0.022062587 0.16084035 0.88221115
0.02733602 0.16285655 0.88246
0.031573102 0.16329418 0.88127983
0.036797859 0.16379379 0.88044423
0.041721243 0.16337626 0.88039976
0.048329469 0.16337563 0.88113326
0.052594367 0.16263808 0.88178575
0.057912514 0.16225176 0.88318753
0.062831759 0.16255751 0.88172597
0.028728789 0.16625002 0.88480014
0.031993225 0.1660621 0.88380009
0.036941472 0.16607463 0.88386679
0.042195391 0.16665511 0.88345337
0.046809878 0.16682227 0.88346678
0.051788449 0.16611013 0.88405561
0.064490497 0.16714974 0.88302511
0.065032355 0.17118774 0.88480014
0.018903706 0.1627892 0.88836658
0.022567818 0.16357279 0.88589996
0.025436128 0.16383055 0.88506687
0.055971198 0.16464756 0.88503349
0.017737148 0.16731885 0.88923007
0.021983214 0.16692637 0.88729972
0.027134446 0.16824184 0.88661879
0.032103855 0.16911305 0.88686633
0.037065905 0.16911304 0.88686633
0.041592821 0.16943668 0.88639987
0.046948586 0.16978878 0.88608879
0.051567722 0.16877344 0.88594657
0.056904271 0.16743635 0.88672203
0.061637331 0.16840741 0.88640404
0.018918602 0.17035937 0.88906664
0.022443887 0.17181981 0.88913327
0.027209684 0.17201373 0.8890667
0.032173268 0.17278643 0.88878888
0.037124988 0.17268954 0.88828874
0.042078327 0.17261839 0.88792199
0.047036126 0.17258368 0.88774419
0.052227896 0.17218852 0.88753319
0.057035107 0.17195347 0.8887555
0.061977997 0.17269804 0.88833326
0.06510587 0.17302898 0.8858
0.033856921 0.17622729 0.88946676
0.037394691 0.1765022 0.8890667
0.042130921 0.17696887 0.88903701
0.047107991 0.17698093 0.88909638
0.051877026 0.17677803 0.8891167
0.058176983 0.1759209 0.88931113
0.062045485 0.17536469 0.8892889
0.066167638 0.17530116 0.88896668
0.017317057 0.17258893 0.89203656
0.020606043 0.17391445 0.89033341
0.026423663 0.17395352 0.89053339
0.018338799 0.17746058 0.89317358
0.022299994 0.1774947 0.89167053
0.027303915 0.17759514 0.8921743
0.03177499 0.17757525 0.89089066
0.036392599 0.17894334 0.89063346
0.053801607 0.17883617 0.89010024
0.05661295 0.17787243 0.89080018
0.06219266 0.17826654 0.89138919
0.065649793 0.17862937 0.8932001
0.022369137 0.18137293 0.89444476
0.027706334 0.18203238 0.89441365
0.032337528 0.18197893 0.89333361
0.037517335 0.18247059 0.89268357
0.042295896 0.18216999 0.89251935
0.047289416 0.18181346 0.89251691
0.052309211 0.18190153 0.89295024
0.057659291 0.18180469 0.89329368
0.062372159 0.18210775 0.89396691
0.065708578 0.18294577 0.89400005
0.015769374 0.17803259 0.89858353
0.017686991 0.18184064 0.89675564
0.022396451 0.1832595 0.89553338
0.025731185 0.18321858 0.89533347
0.032419905 0.18493922 0.89560002
0.035742052 0.18484284 0.89513332
0.042429019 0.18488416 0.89533341
0.047452942 0.18493922 0.89560014
0.051616915 0.18489794 0.89540017
0.057459109 0.18405795 0.89536679
0.062479272 0.18492086 0.89551115
0.018266305 0.18706329 0.89779454
0.022419207 0.18678193 0.89644456
0.027421555 0.18669012 0.8960073
0.032434106 0.18751962 0.89598876
0.037444472 0.18750571 0.89592218
0.042460293 0.1875196 0.89598888
0.047474016 0.18752187 0.89599997
0.052738536 0.1872085 0.8962096
0.057383709 0.18719943 0.89744598
0.062619276 0.18783855 0.8975113
0.065992802 0.18791254 0.8978669
0.019109769 0.19129193 0.89805031
0.022458257 0.19128133 0.8980003
0.027476722 0.19124119 0.89781135
0.032501962 0.19125198 0.89786124
0.037557587 0.19141568 0.89862806
0.042551961 0.19126618 0.897928
0.047568534 0.19207411 0.89779651
0.05260678 0.19212292 0.89802617
0.058496531 0.19138291 0.89847529
0.062869318 0.19192933 0.89810026
0.06633164 0.19185537 0.89678335
0.047670051 0.19582747 0.89970028
0.064370774 0.19558805 0.89860028
0.066052802 0.19644319 0.89868355
0.013593079 0.1790728 0.90242457
0.014165741 0.18314719 0.90318912
0.015824065 0.18368301 0.90170014
0.012707938 0.1884682 0.90224302
0.01580905 0.18769769 0.90084475
0.00878294 0.19271971 0.90396672
0.012683044 0.19289204 0.90260422
0.017019676 0.19308908 0.90142405
0.022527583 0.19438411 0.90076691
0.027563045 0.19435294 0.90062255
0.032657739 0.19468142 0.90214449
0.038570989 0.19480851 0.90273333
0.042702403 0.19445847 0.90111142
0.057149034 0.19342901 0.90100032
0.061175141 0.1944129 0.90090042
0.0085628042 0.19685806 0.90443331
0.012494164 0.19679418 0.90414
0.017536582 0.19745688 0.90332222
0.022581078 0.19736445 0.90290004
0.027637579 0.19739716 0.90305001
0.032301646 0.19717701 0.90396661
0.037796561 0.19627781 0.90434438
0.043127384 0.19721091 0.90296668
0.047769263 0.19812597 0.90158778
0.052802205 0.19786894 0.90137058
0.057928059 0.19731438 0.90267223
0.062920921 0.1979731 0.90184784
0.066247553 0.19953628 0.90133363
0.044540718 0.20019314 0.90429997
0.04872942 0.20175985 0.90378332
0.052980136 0.20190251 0.90442228
0.058876324 0.20019315 0.90429997
0.063608684 0.20173138 0.90365553
0.066348001 0.20151803 0.90270007
0.011670358 0.17859435 0.90566671
0.0091655115 0.18336929 0.90845692
0.011508778 0.1824121 0.90621489
0.007950509 0.18772984 0.90795118
0.011680834 0.18633784 0.9064585
0.0074480074 0.19122228 0.90563345
0.0074460898 0.19790998 0.90540004
0.011672806 0.19884381 0.90581679
0.033633363 0.19883648 0.90578341
0.037434008 0.19841352 0.90577507
0.041217741 0.19875234 0.9054001
0.0091625843 0.20189407 0.908167
0.012551923 0.20278008 0.90834838
0.017614642 0.20255186 0.90732628
0.022683386 0.20248249 0.90701509
0.027757162 0.20247096 0.90696323
0.032846354 0.20256338 0.90737808
0.037908025 0.2024855 0.90702987
0.042733826 0.20251524 0.90622097
0.047577497 0.20350198 0.90592504
0.053078905 0.20396261 0.90610021
0.057932641 0.202849 0.90650022
0.062378034 0.2031371 0.90617514
0.014263155 0.20639712 0.90940005
0.017984066 0.2069587 0.90889359
0.022500601 0.20760287 0.90938574
0.027812619 0.20668034 0.9087835
0.03332274 0.20669144 0.90883356
0.037972782 0.20789987 0.90857059
0.043031607 0.20777887 0.90804482
0.048113033 0.20778254 0.90805954
0.052993145 0.20761639 0.90825444
0.058315456 0.20725521 0.90870684
0.061688617 0.20703079 0.90846688
0.065106235 0.20627609 0.90886682
0.043110531 0.21154441 0.90971118
0.046513524 0.21158837 0.90989995
0.0080541847 0.20325959 0.91050023
0.0086471103 0.20787656 0.91342235
0.012247352 0.20775151 0.91088659
0.017668808 0.20937759 0.91009992
0.027851835 0.20824131 0.9100666
0.03210032 0.20827565 0.91021657
0.055856064 0.20908394 0.91004992
0.061797552 0.2090878 0.9100666
0.065450057 0.20906505 0.91366678
0.013189963 0.211842 0.91342235
0.017477337 0.21274017 0.91276205
0.023031782 0.21238993 0.91242915
0.027954152 0.2124033 0.91340023
0.033061728 0.21239233 0.91335201
0.038111884 0.21290226 0.91189998
0.043214336 0.21374972 0.91190004
0.048291549 0.21279764 0.91145003
0.052042186 0.21300814 0.9116267
0.056876309 0.21275015 0.91280496
0.061973505 0.21222854 0.91264772
0.014348892 0.21614693 0.91486704
0.017755471 0.21607868 0.91457814
0.02287358 0.21608393 0.91460037
0.0084019136 0.21212575 0.91771668
0.01151003 0.2139715 0.91526699
0.0075667077 0.21224099 0.92006665
