# .PCD v0.7 - Point Cloud Data file format
VERSION 0.7
FIELDS x y z
SIZE 4 4 4
TYPE F F F
COUNT 1 1 1
WIDTH 1320
HEIGHT 1
VIEWPOINT 0 0 0 1 0 0 0
POINTS 1320
DATA ascii
-0.027482215 0.042340998 0.15104267
-0.0060216524 0.039824206 0.14639637
-0.010383831 0.038847361 0.14611307
-0.014959948 0.039043769 0.14513856
-0.018881015 0.038176205 0.14724416
-0.02623063 0.041085031 0.14684957
-0.00056867395 0.038185373 0.14225537
-0.005025696 0.038282387 0.14168409
-0.0089740157 0.039047386 0.14197701
0.0012854552 0.038820323 0.13844129
-0.0020353626 0.03832864 0.1371187
0.016677611 0.036220264 0.13550264
0.0075268466 0.038273878 0.13424766
0.020204475 0.035493772 0.13155621
0.012989637 0.036634658 0.13102704
-0.021178488 0.0071895286 0.19446456
-0.023124082 0.008784188 0.19571587
0.022230051 -0.0068429774 0.1929878
0.019263895 -0.0056964834 0.19281009
0.013729467 -0.0029831482 0.19340366
0.0089002177 -0.0015028678 0.19321534
0.0043171719 -9.7406562e-05 0.19314101
-0.0042225649 0.0041953465 0.19276392
-0.0084198611 0.0065250155 0.19289145
-0.012735762 0.0075268559 0.19273704
-0.018557293 0.0091262851 0.19342408
-0.022800744 0.012011455 0.1941388
0.027497986 -0.0068345298 0.19070318
0.025495209 -0.0044016093 0.19209695
0.029840926 -0.0039116195 0.18736556
0.030618697 -0.0021538641 0.18297219
0.03082956 -0.0015128898 0.17903551
0.028454453 0.0017307 0.17858166
0.028365495 0.0033087609 0.17398188
0.029382549 0.005350044 0.16869742
0.028284479 0.0094011091 0.16832075
0.034226432 0.0061556827 0.16246253
0.031401638 0.007482782 0.16455916
0.028603155 0.010000972 0.16688195
0.032762039 0.0089161089 0.16177958
-0.020459937 0.038871698 0.14505944
-0.02450417 0.040477458 0.14484558
-0.027784474 0.041384526 0.14466745
-0.010926179 0.037279893 0.13887686
-0.015126116 0.038322214 0.1398614
-0.019658692 0.038589552 0.14026225
-0.024691455 0.040295098 0.14013475
-0.027743787 0.041285224 0.14079481
-0.0048377048 0.038249612 0.13597465
-0.0099629927 0.037868276 0.13505474
-0.014950787 0.037667081 0.13585299
0.020361226 0.027405167 0.13121441
-0.0027444726 0.038175076 0.13102683
-0.0071114665 0.038443442 0.13024428
0.016653402 0.03478308 0.12806135
0.007292456 0.03706149 0.12760305
-0.0017289184 0.038213644 0.12749517
0.016444018 0.03433349 0.12340355
0.0078500286 0.036930598 0.12332428
0.0042920406 -0.0084697679 0.19477046
0.0020475597 -0.0076177497 0.19462767
-0.012223559 -0.002363936 0.19363347
-0.016590459 -0.00035704346 0.19353965
-0.020947495 0.001281057 0.194877
-0.024389571 0.0019473978 0.19547734
0.029541297 -0.01489787 0.19155151
0.026708322 -0.013116999 0.19267938
0.022848833 -0.010719643 0.19218922
0.017709987 -0.0098162144 0.19204405
0.012788431 -0.0081658289 0.19310117
0.0076771709 -0.0066173156 0.19386512
0.0026106602 -0.0041822493 0.19399938
-0.0064944462 -0.0012090413 0.19297886
-0.010766813 0.0010074659 0.19302237
-0.015119029 0.0030083412 0.19293031
-0.018747557 0.0047436473 0.19381297
0.030075327 -0.013838761 0.18947032
0.028729165 -0.010666667 0.18895975
0.030184422 -0.0099048195 0.1841723
0.032892659 -0.0080955997 0.17936006
0.031195158 -0.0079580173 0.17990866
0.033899285 -0.0059753531 0.1761283
0.031634927 -0.0044822679 0.17571542
0.028959416 -0.0010045711 0.17568284
0.034188535 -0.005847102 0.17251617
0.031572539 -0.0024602497 0.17209449
0.029701257 0.00032484438 0.17194885
0.031930834 -8.8358298e-05 0.16809642
0.030636726 0.0022260519 0.16859278
0.033000328 0.0032051923 0.16416585
0.031258658 0.003373201 0.16565856
-0.021846086 0.037428714 0.13695836
-0.025187306 0.039018821 0.13630578
-0.015609748 0.037765257 0.13311052
-0.020305101 0.037550285 0.13323846
-0.025646407 0.038365513 0.13244331
-0.0099093746 0.037582647 0.12960863
-0.014577133 0.037513275 0.12890697
-0.01851346 0.037848283 0.12888724
0.0011614366 0.037281901 0.12454933
-0.0028886069 0.037856005 0.12440503
-0.0077568954 0.037544217 0.12436169
-0.011737248 0.037111469 0.12563455
0.010823179 0.03651914 0.12057424
0.0024773525 0.037274051 0.1204046
-0.0021070596 0.037515182 0.11940587
-0.0077750534 0.037846573 0.12148649
0.012483619 0.035949748 0.11680675
0.0037091533 0.037234981 0.11528039
0.012406023 0.036096081 0.11216456
0.013544365 -0.017398229 0.19808972
0.00016278308 -0.014199828 0.19625995
-0.0098160077 -0.008663456 0.19746205
-0.014377775 -0.007096746 0.19708672
-0.018331129 -0.0048990883 0.19701135
0.019030297 -0.016325507 0.19513595
0.015171411 -0.015810128 0.19563094
0.010873492 -0.013532197 0.19569677
0.0059385179 -0.011292323 0.1957446
-0.0043506329 -0.0084338896 0.19437295
-0.0086901085 -0.0063067451 0.19434839
-0.01330702 -0.0047959024 0.1948548
-0.017570902 -0.0025091046 0.19493344
0.029474121 -0.017276928 0.19212502
0.023978233 -0.015507033 0.19439697
0.020938838 -0.014667813 0.19310808
0.016345289 -0.01324155 0.19264731
0.013000073 -0.01143979 0.19302633
0.031457253 -0.015660776 0.1871984
0.031751554 -0.012805026 0.18300906
0.032481752 -0.011338531 0.1802626
0.03424003 -0.0062563638 0.16946241
0.032773156 -0.0055908295 0.16943133
0.034528501 -0.0059460504 0.16687754
0.032727212 -0.004107425 0.16552931
-0.022527622 0.036811735 0.12991562
-0.024784174 0.037638947 0.12975347
-0.029069114 0.037946485 0.13058665
-0.020100314 0.036785595 0.12642533
-0.024990223 0.037484232 0.12552035
-0.029155549 0.039048731 0.12581271
-0.010079723 0.036630057 0.12193263
-0.01385038 0.036574055 0.12243736
-0.018736269 0.0368931 0.12137681
-0.02473524 0.038407251 0.12069803
-0.027833864 0.040169641 0.12166446
-0.0042523583 0.037589736 0.11752391
-0.0083212908 0.036931034 0.11819893
-0.01329474 0.036467645 0.11714709
-0.016930174 0.036766723 0.11793095
-0.024693681 0.039071709 0.11701792
0.017822769 0.03175183 0.11373448
-0.00228668 0.037826166 0.11436903
-0.0070847031 0.037706748 0.1140424
-0.011523573 0.03673638 0.11369306
0.013000676 0.035325643 0.10917115
0.0033417707 0.037726767 0.10975051
-0.0020644767 0.037933089 0.10957766
-0.006006659 0.0383102 0.10989624
0.012348679 0.035264552 0.10565084
0.0030595735 0.03729108 0.10582972
0.014550639 -0.021824107 0.19605064
-0.0048872917 -0.013769617 0.19609737
0.017409056 -0.021458501 0.19418898
0.0246691 -0.020997997 0.19167289
-0.022429425 0.036396548 0.11893111
-0.015286879 0.036247596 0.1141637
-0.019049671 0.036277629 0.11473197
-0.023462204 0.037249174 0.11399001
-0.026765525 0.038267195 0.11387056
-0.0099058375 0.036204614 0.11088508
-0.013643912 0.036211506 0.1104517
-0.018148959 0.03617125 0.10991389
-0.023504462 0.037442934 0.11039346
-0.026719393 0.038164284 0.10985935
-0.0081137884 0.037270952 0.10654688
-0.012214598 0.035987653 0.10637033
0.013485292 0.032685831 0.10306901
0.0021853829 0.035943322 0.1021449
-0.0024534194 0.03644653 0.10248959
-0.0072644092 0.036978483 0.10155529
0.012115952 0.033152837 0.098948538
0.0027895551 0.035931837 0.097833097
-0.0018204907 0.036716938 0.098080933
0.0080098342 0.035430029 0.094167829
-0.019868262 0.036141351 0.10736507
-0.023443568 0.037411258 0.10741121
-0.027815983 0.037967931 0.10699934
-0.014064951 0.035621393 0.10354143
-0.018557059 0.036156744 0.10313541
-0.02332627 0.037393965 0.10244793
-0.027187511 0.038692635 0.10209084
-0.0092327921 0.036808856 0.098555803
-0.01308177 0.035619371 0.099087238
-0.018062282 0.035986058 0.098670483
-0.023286805 0.037253551 0.098356485
-0.026688565 0.039605375 0.098857284
-0.0024381606 0.036891498 0.095290601
-0.0071658399 0.037241459 0.095502913
-0.012514962 0.035204075 0.095397055
0.013100659 0.032597862 0.091515124
0.0027680639 0.036683314 0.091644228
-0.0016807551 0.037277829 0.091271877
-0.0065036081 0.036989279 0.090167046
0.0085388925 0.036034044 0.087700009
-0.0011983495 0.036979109 0.086670101
0.0085509922 0.035632905 0.083363771
-0.01944926 0.035754569 0.09656018
-0.023524798 0.036594074 0.095820427
-0.027015507 0.038771518 0.096177042
-0.014127571 0.034755986 0.092887402
-0.019145951 0.034138042 0.091513932
-0.023975998 0.035859488 0.091383457
-0.027181825 0.038190603 0.09168756
-0.0089064296 0.036806054 0.088579237
-0.013494952 0.034462009 0.087482512
-0.016926456 0.034825265 0.087632418
0.014071222 0.029238062 0.08475244
-0.0028497456 0.036024444 0.08393085
-0.0075653642 0.035972442 0.084118724
-0.012212778 0.035097744 0.084272325
0.0087448107 0.034734886 0.080242932
-0.0019854335 0.035621207 0.079850435
-0.006789933 0.035890989 0.079980433
0.0093123242 0.034908392 0.076749384
-7.4502081e-05 0.035609148 0.076382697
0.010908275 0.035094548 0.072720051
-0.022095166 0.035435259 0.089420438
-0.019091344 0.035036512 0.085762858
-0.023391694 0.036319718 0.08553803
-0.027483992 0.038063966 0.085409701
-0.013283184 0.035079837 0.081280589
-0.017749742 0.035423249 0.080925763
-0.023057148 0.036107466 0.080389678
-0.026744466 0.03756519 0.079683125
-0.007307902 0.03634502 0.07736361
-0.011928152 0.035320491 0.078385949
0.015297524 0.029574167 0.074133396
-0.0013629273 0.035879802 0.07408917
-0.0053453837 0.035532892 0.072503209
-0.0091633284 0.035071708 0.072957635
0.010193294 0.034983352 0.069614828
0.0005106926 0.035349272 0.069698691
0.01065254 0.03355049 0.065621197
0.012423104 0.00064181164 0.10956734
0.012519423 0.002756671 0.10692769
0.019368608 0.0034976169 0.10145062
0.012675017 0.0048220754 0.10275906
0.019635206 0.003939054 0.099795461
0.012530127 0.011758746 0.090545654
0.01603283 0.019356901 0.082568407
-0.02177649 0.035476357 0.077975571
-0.024732336 0.036894254 0.077310026
-0.012395698 0.034055781 0.075280309
-0.016829871 0.034225326 0.074956536
-0.021971643 0.034828164 0.074117899
-0.025856124 0.036222462 0.073371768
-0.0073793111 0.034745257 0.069187999
-0.012131444 0.033445425 0.070506334
-0.016587203 0.033934169 0.069919527
-0.021330638 0.035021488 0.070405662
-0.025854496 0.036060046 0.070153356
0.015278632 0.028634325 0.06620729
-0.00061316788 0.034279123 0.065744698
-0.0054982193 0.034728464 0.066699386
-0.0096936198 0.034429435 0.066624165
0.014665411 0.030442445 0.062562346
0.00506886 0.033763792 0.061963499
-9.7487122e-05 0.034313265 0.061990261
-0.0050388873 0.034888715 0.062028885
-0.0087206913 0.035244875 0.061817825
0.015008879 0.031961385 0.058393955
0.0052478532 0.033797331 0.057871521
0.019192569 0.030206576 0.054081023
0.01080851 0.034366846 0.053676963
0.02007512 0.032317508 0.050079405
0.011858184 0.035025205 0.0500893
0.018475749 0.03408714 0.046212912
0.012724884 -0.0032525142 0.10816389
0.014216251 -0.0011564097 0.10440159
0.013298685 0.0021919566 0.10477817
0.019441564 -0.0012746933 0.098321557
0.016389634 0.0017966689 0.10142648
0.013066689 0.0044758413 0.10113186
0.016607394 0.001935048 0.096830368
0.013058805 0.0049553616 0.096355379
0.011831778 0.0056045149 0.090259373
0.011638986 0.0090751182 0.086381435
0.014359782 0.010685589 0.081150949
0.012523061 0.010789551 0.082690179
0.015745306 0.013770109 0.078575909
0.016680617 0.015625445 0.075007796
-0.018459093 0.034137726 0.067102611
-0.021997988 0.035187334 0.067498446
-0.02691479 0.036152013 0.067193925
-0.012402637 0.033669431 0.064223528
-0.016534712 0.034147069 0.063588142
-0.02135984 0.034966871 0.063147783
-0.026322495 0.035666421 0.062949598
0.018165119 0.023725506 0.061107039
-0.0068983445 0.035068415 0.059175789
-0.011360886 0.033862241 0.058864594
-0.015883524 0.033269793 0.058990002
0.019628949 0.026148174 0.056994677
3.9195642e-05 0.034074519 0.055583537
-0.0053506866 0.034126259 0.054815114
-0.0088718291 0.034389034 0.054851413
0.021110866 0.028222647 0.053264856
0.00032866094 0.033775266 0.050459027
-0.0043795323 0.033946641 0.050804079
0.021911204 0.030707048 0.04855603
0.0069825496 0.034284979 0.046977341
0.02173668 0.032440744 0.043724597
0.011694958 0.033893924 0.042824626
0.021952378 0.032972425 0.039157689
0.011771089 -0.0054525151 0.1094963
0.014361423 -0.0053845081 0.10373628
0.017662313 -0.0060028206 0.096693516
0.016303988 -0.0043548374 0.10042191
0.020478547 -0.0036794352 0.095009625
0.016734818 0.00044247322 0.094515324
0.015434721 -0.00029487023 0.090872049
0.013191172 0.0036646719 0.090620279
0.011517255 0.0030436551 0.084820807
0.01370245 0.0064500952 0.081537843
0.011259347 0.0077744462 0.083308518
0.01554078 0.0086293202 0.077003002
0.015962074 0.0090648737 0.07223922
0.016405907 0.014165891 0.068680346
0.017639346 0.016550768 0.063476324
-0.022756603 0.034275312 0.059485912
-0.027014442 0.035013296 0.05997777
0.019284261 0.017761277 0.058604598
-0.013095089 0.033153228 0.055652678
-0.016634371 0.033487901 0.056792915
-0.02177937 0.034247883 0.056646109
-0.027068868 0.035206679 0.056334019
0.021700464 0.020099845 0.054609895
-0.011437563 0.033379879 0.052594066
-0.016642589 0.033697627 0.052464485
-0.021467835 0.034649093 0.051773667
-0.026090764 0.035779398 0.051443338
0.023470439 0.021514874 0.05066371
-0.0016048495 0.033769835 0.047404647
-0.0051657623 0.034046371 0.048491359
-0.010752819 0.033803403 0.048491478
-0.016113278 0.034140244 0.049007893
-0.019366147 0.035036922 0.048550248
0.024784096 0.023113303 0.046481788
0.0002593128 0.033648379 0.044781327
-0.0050718468 0.034449466 0.044317186
-0.008959705 0.034400273 0.043719769
0.014636549 0.032806382 0.039628565
0.005706083 0.033880491 0.040943921
-0.0034683058 0.034477577 0.0401963
0.028240608 0.025982628 0.037081718
0.021805622 0.03215722 0.035272121
0.01143146 0.032923143 0.037052929
0.029332671 0.028121423 0.032690108
0.021994177 0.032357376 0.033082664
0.029741731 0.028643204 0.02893889
0.022672864 0.032599926 0.028625429
0.011365006 -0.012688249 0.10525453
0.01529057 -0.011764294 0.098348022
0.013890779 -0.010207004 0.10200292
0.015572525 -0.011286184 0.096689582
0.019795178 -0.0089240726 0.092004001
0.015632594 -0.0033420331 0.087000668
0.01449579 -0.0022129659 0.082731068
0.013322178 0.0012563625 0.083254278
0.014931935 0.0029098825 0.079090297
0.016013641 0.0050158692 0.074645102
0.016325738 0.0061479388 0.068741322
0.016246688 0.0088276286 0.064831078
0.017362855 0.011027856 0.060457408
0.019529028 0.012496901 0.056439281
0.021514112 0.015955649 0.053820491
-0.027250659 0.034968305 0.049496174
-0.012782369 0.033126146 0.045159221
-0.016296551 0.033494875 0.045278788
-0.021581385 0.034515936 0.045005083
-0.025685739 0.035148151 0.045386612
0.024407662 0.017213855 0.04298085
-0.011938713 0.033059079 0.040709376
-0.016218465 0.033391304 0.040961623
-0.021426555 0.034107417 0.040753901
-0.025179744 0.034038566 0.041535974
0.026083682 0.02083727 0.038811564
-0.0055033965 0.03374565 0.036782622
-0.0093923816 0.033295181 0.037214696
-0.015366959 0.033025052 0.037771881
0.028161854 0.020710325 0.032995462
0.0052214959 0.032386839 0.032206655
-0.003506911 0.033831768 0.033261538
-0.0088854628 0.03277263 0.033414125
0.032020934 0.020885183 0.030188203
0.029802125 0.022873588 0.029856443
0.011152972 0.03152496 0.029080033
0.0012521977 0.032476604 0.02924186
0.029791821 0.026096672 0.025878608
0.021632612 0.031572692 0.024522901
0.011456296 0.031215386 0.024349272
0.029508322 0.027179316 0.022287071
0.022621058 0.031607714 0.021330655
0.026167721 0.030292185 0.017370701
0.014059997 -0.018396128 0.10602206
0.01133061 -0.015995266 0.10671455
0.014792037 -0.016965169 0.10305679
0.012263624 -0.014154783 0.10305566
0.015135731 -0.014862517 0.098759115
0.015989905 -0.012804992 0.094798505
0.017917762 -0.0087799635 0.088750005
0.015927164 -0.0074598868 0.084848702
0.015660245 -0.0056403708 0.080783606
0.015096657 -0.003803713 0.076627553
0.015260022 -0.0017592041 0.071794331
0.01733543 0.0021920619 0.062593341
0.016566435 0.0049022478 0.063202202
0.018928926 0.0043869582 0.057801902
0.01744321 0.006584608 0.059409261
0.019777739 0.0071712784 0.054249525
0.018669162 0.0093907742 0.057603478
0.021602586 0.0088343509 0.04968822
0.022933464 0.011634927 0.045795918
0.024348278 0.013491258 0.0417732
-0.020869799 0.033144616 0.038082182
-0.025712181 0.034066144 0.038515091
0.025412213 0.015540928 0.037238002
-0.012396315 0.031865474 0.03435421
-0.016349006 0.032694414 0.034668863
-0.020247979 0.033389106 0.033875704
-0.024477335 0.035164319 0.034043908
-0.026872102 0.037970379 0.0331797
0.030399814 0.016879808 0.030843377
0.028088626 0.017834619 0.033352017
-0.0063242707 0.032805096 0.030753672
-0.010876091 0.032212734 0.030123115
-0.014891556 0.032600783 0.028685033
-0.019114701 0.033898134 0.028761983
-0.02398745 0.036770742 0.0291816
0.0322822 0.019143298 0.029473662
0.029817484 0.020011121 0.030886531
6.2392093e-05 0.032356281 0.026920438
-0.0049453909 0.03278878 0.026183844
-0.009057465 0.032827877 0.025286138
0.031910975 0.019876931 0.025026679
0.030555721 0.021985959 0.023468375
0.0058919834 0.03201602 0.022966266
-0.0041922731 0.033103272 0.02181077
0.030450264 0.024608139 0.01950562
0.016119692 0.031192698 0.018773079
0.00639119 0.032629363 0.017091215
0.029929634 0.026049651 0.014446795
0.021908324 0.031436749 0.014535725
0.012194254 0.032070868 0.013515949
0.030251255 0.027342934 0.0095630288
0.023147848 0.03184706 0.0097485185
0.01647217 -0.022254936 0.1012184
0.017066646 -0.021052673 0.099076271
0.016422279 -0.018250756 0.097585142
0.016325522 -0.017653909 0.092768431
0.019235088 -0.017371876 0.086582661
0.016253825 -0.017669693 0.088576913
0.016298432 -0.011329383 0.083414376
0.016577318 -0.01135445 0.078254163
0.01566075 -0.0072682444 0.07444036
0.015611422 -0.0058191787 0.069098115
0.016144086 -0.0027383585 0.065076828
0.018623786 -0.0017845323 0.060204744
0.019855864 0.00028942572 0.056133509
0.020988932 0.0035496759 0.052462518
0.023924859 0.0026485398 0.045946777
0.022634147 0.0042785821 0.047775686
0.023578936 0.0059805098 0.042902589
0.024979517 0.0089856964 0.039159775
0.026499107 0.012166618 0.034524262
0.02864732 0.012500465 0.031202435
-0.020800084 0.034646496 0.02630043
0.030695463 0.012533186 0.027602792
-0.01077391 0.031962283 0.023457527
-0.014463638 0.032014243 0.023265719
-0.019734353 0.03263849 0.021864951
-0.024691273 0.034082558 0.022303104
0.03131244 0.017794162 0.020999789
-0.0037685288 0.032788917 0.01899147
-0.0091275759 0.03202299 0.019296885
-0.014544182 0.031553093 0.019058287
0.030301578 0.019032868 0.01503098
-0.0035587726 0.032210551 0.014596522
-0.0073880041 0.032006491 0.015239537
0.030661304 0.024216983 0.01269877
0.005967963 0.031896546 0.010649323
-0.002344273 0.03250058 0.010138392
0.03084144 0.024062434 0.0082316995
0.016320176 -0.019729096 0.08932972
0.019239852 -0.017882749 0.083108366
0.016493291 -0.013974721 0.072236896
0.015654301 -0.0099929068 0.071517169
0.015907306 -0.0099246725 0.067414284
0.016799603 -0.0082095815 0.063589633
0.019265031 -0.007337586 0.058623314
0.017762696 -0.0061304648 0.061107218
0.02106381 -0.0053411382 0.053793132
0.022432361 -0.002882035 0.050011218
0.02360769 -0.00097663375 0.045770049
0.024763374 0.0017750906 0.041279197
0.02591851 0.0040748538 0.036893964
0.026666567 0.0065911692 0.033075929
0.027878314 0.0053888643 0.027683139
0.030919839 0.0079186065 0.024130821
-0.025412777 0.032322142 0.018495798
-0.029110076 0.032504398 0.019506752
-0.011138453 0.030589359 0.01569581
-0.014747555 0.03086289 0.015484631
-0.01969162 0.031818219 0.016395152
-0.025168911 0.031856809 0.015146732
-0.0091973636 0.031342097 0.0121544
-0.014549512 0.03103821 0.011511207
-0.019941919 0.03160622 0.01221031
-0.023610521 0.031806394 0.012144208
0.030535955 0.019022623 0.010699987
-0.0030632326 0.032799866 0.0079075098
-0.0084836576 0.031779625 0.0076836944
-0.013912575 0.031175282 0.0079842806
0.01624159 -0.021670464 0.077528358
0.016146049 -0.020021159 0.074375212
0.017597266 -0.01746643 0.069787621
0.017270664 -0.015535934 0.06531477
0.01803639 -0.012444815 0.061041355
0.019780027 -0.011067262 0.056161523
0.021861622 -0.010090213 0.052392006
0.024254525 -0.01040268 0.047361195
0.02393928 -0.006378714 0.047995806
0.025016069 -0.0043104975 0.043384194
0.025767101 -0.0030147606 0.039172649
0.027901126 -0.0031726435 0.033259869
0.026686648 -0.0012271516 0.035379529
0.028868256 -0.0012473902 0.029571414
0.027701711 0.0018931413 0.030982435
0.029949484 0.00082898885 0.024942935
0.028467162 0.0039349664 0.026784897
0.030734587 0.0024031913 0.022023797
0.02915298 0.0057507446 0.024029851
-0.027392477 0.031825267 0.013000667
-0.020351199 0.03156646 0.0092694759
-0.025768116 0.031025533 0.0085374117
0.013590347 -0.024054512 0.075093687
0.017030289 -0.025364352 0.071057677
0.018865623 -0.022426471 0.067241311
0.02000328 -0.021764297 0.063358068
0.018812243 -0.017378531 0.062142253
0.020697536 -0.020216914 0.058644772
0.019521343 -0.016027877 0.059028625
0.021603957 -0.018122192 0.053946137
0.02036868 -0.014453 0.055042922
0.023169894 -0.015163369 0.050080657
0.025105879 -0.013255497 0.045595646
0.025515702 -0.010480887 0.041224301
0.026585296 -0.0079790484 0.036447883
0.0286272 -0.0062197577 0.032334268
0.0305853 -0.0042457562 0.027914822
0.031052181 -0.002553869 0.02330929
0.031237314 4.2780302e-05 0.018919408
0.018733975 -0.026451971 0.066597462
0.021988824 -0.024685171 0.054882526
0.02454586 -0.023687312 0.049920797
0.022966987 -0.021380432 0.052105963
0.025483267 -0.02166375 0.047316551
0.024637768 -0.018918842 0.047898829
0.026304318 -0.020185016 0.043198705
0.025619615 -0.016956395 0.044194579
0.025775695 -0.017069044 0.040896654
0.0262779 -0.011670013 0.036253333
0.030061103 -0.01285365 0.027893186
0.028570972 -0.011437263 0.03063643
0.030845683 -0.011287231 0.024917722
0.031275511 -0.0060752509 0.020154476
0.02601367 -0.021056812 0.042477489
0.027014963 -0.021804718 0.036796033
0.025567366 -0.018270934 0.036671162
0.029275134 -0.019368358 0.030531347
0.026299451 -0.017058121 0.03231144
0.030332865 -0.016116258 0.02850914
0.031245977 -0.015430555 0.023060322
0.028631914 -0.023612279 0.034935117
0.02793147 -0.022668473 0.031853616
0.031130075 -0.020360762 0.024899244
-0.022272523 0.033641633 0.1920473
0.017871119 0.037221909 0.18869823
0.0086061256 0.037196517 0.18921247
-0.0021482273 0.036881328 0.18902826
-0.011408052 0.037239671 0.19023597
-0.016006086 0.037905157 0.19046724
-0.02135893 0.037308808 0.18987343
-0.026690893 0.036583181 0.18829554
-0.030491717 0.03675979 0.18734857
0.0085067898 0.039021015 0.18635374
-0.0015187502 0.038602769 0.18516356
-0.011218105 0.040835023 0.18619722
-0.021154262 0.040216446 0.18540123
-0.026513632 0.038885232 0.18433413
-0.03034512 0.03857344 0.18397981
-0.011257302 0.0413692 0.18161774
-0.020524763 0.041250467 0.18083093
-0.027281437 0.039468106 0.1795899
-0.030941501 0.040307697 0.17962036
-0.017022599 0.041241527 0.17714018
-0.019324955 0.041116595 0.17696664
-0.030808955 0.041135486 0.17560622
0.018135807 0.030500712 0.19210398
0.013163005 0.030493917 0.19244078
0.0038872706 0.030832231 0.19227257
-0.0074255234 0.030496299 0.19190326
-0.016178599 0.030541835 0.19217759
-0.020968018 0.030253528 0.19180265
-0.026561527 0.029582558 0.19070283
-0.030964324 0.028950332 0.19021946
0.027758334 0.033023003 0.18886831
0.02393106 0.033296052 0.18973473
0.018679351 0.034623027 0.18999317
0.0085563874 0.03413403 0.19090337
-0.00066488911 0.034495413 0.1903016
-0.02682358 0.033301707 0.18984303
-0.030371558 0.033375498 0.18853939
0.031949479 0.03413618 0.18731406
0.028912801 0.035705868 0.18545467
0.0243618 0.036823872 0.18573433
0.018834069 0.037338436 0.185177
0.0096157752 0.038891017 0.18398058
0.00034050498 0.038003445 0.18485597
0.028352909 0.037374083 0.1810225
0.024497997 0.037240032 0.18078065
0.018892959 0.037728429 0.18012106
0.0090450421 0.03848052 0.18004492
-0.00097453746 0.03859657 0.17971861
-0.010171209 0.040554464 0.17879292
-0.023251027 0.039858337 0.17872876
-0.025185611 0.039465185 0.17885202
-0.029421344 0.039312478 0.17903912
0.0092568584 0.038796425 0.17568004
-0.00055157178 0.039285719 0.17485601
-0.010594275 0.040235877 0.17468026
-0.021097519 0.040709436 0.17443454
-0.026180644 0.040663298 0.17456734
-0.02925051 0.041039046 0.17469028
-0.011423595 0.039884031 0.17097205
-0.019870352 0.040846825 0.1699557
-0.02527817 0.040386494 0.16983169
-0.030042533 0.040419575 0.16911173
0.0124927 0.023341598 0.1925306
0.0039465427 0.023086369 0.19202223
-0.0061612055 0.023225844 0.19169268
-0.011942273 0.023549138 0.19238284
-0.016290748 0.023255108 0.19220507
-0.020628164 0.022948084 0.19165587
-0.027125405 0.022727845 0.19052449
-0.030220592 0.02333772 0.19077274
0.027931115 0.026508631 0.19111404
0.024160473 0.026807727 0.19151133
0.019040091 0.026109638 0.19190833
0.013172762 0.027356209 0.1932165
0.0039028763 0.026737928 0.19245398
-0.0050452431 0.026663303 0.191315
-0.026010489 0.026318727 0.19096774
-0.030125985 0.026840625 0.19112152
0.032499395 0.031673435 0.18821046
0.029366104 0.030601086 0.18923181
0.032165695 0.033538822 0.18420488
0.027769279 0.037022833 0.17802113
0.024672691 0.03701121 0.17788941
0.02160709 0.036501709 0.17743573
0.028091624 0.034774069 0.17380527
0.024723433 0.0356468 0.17384434
0.019469477 0.036825061 0.17387772
0.0094133466 0.038322985 0.17261627
0.018952992 0.037129104 0.16897196
0.0096162017 0.03784883 0.16861308
0.00028642491 0.038427174 0.16862601
-0.01030973 0.037810564 0.16726854
-0.019791842 0.040390015 0.16728631
-0.025203053 0.039502438 0.16648155
-0.029069278 0.039359029 0.16623297
0.017566219 0.038132966 0.16540712
0.0097969826 0.037900925 0.16494498
0.0012508244 0.037645638 0.16443658
-0.010776617 0.037469387 0.1633783
-0.019669231 0.039604843 0.16306081
-0.024320394 0.039150234 0.16257223
-0.029442169 0.038989302 0.16332445
-0.018770847 0.039243579 0.1591318
-0.021154122 0.015690563 0.19376299
0.028995657 0.021128537 0.19184643
0.0243698 0.020164313 0.19106275
0.019680807 0.020100178 0.19083056
0.014653662 0.020343127 0.19199285
0.0086411387 0.020795703 0.1921761
-0.00073566084 0.019413769 0.19231197
-0.011162074 0.01888728 0.19247264
-0.016388936 0.018640099 0.19301757
-0.021273678 0.019142209 0.19273168
-0.025462186 0.019437132 0.19062483
-0.029745487 0.018992184 0.19140702
0.032221045 0.024422947 0.18852839
0.030106952 0.024738314 0.19092491
0.032238279 0.025724534 0.18750989
0.028318275 0.033912305 0.17047125
0.025887828 0.035257284 0.1712583
0.028921962 0.034455303 0.16666743
0.025328554 0.035204891 0.16748756
0.021422319 0.036158208 0.16703483
0.029804889 0.036802951 0.16287005
0.025518626 0.037239436 0.16325998
0.020821311 0.037494481 0.16324505
0.0099229962 0.03772372 0.16243529
0.00035723715 0.037628949 0.16199484
-0.0099797174 0.037411809 0.1608558
-0.028938115 0.037533458 0.15944427
0.02574141 0.038786951 0.1586991
0.021058187 0.038727045 0.15847415
0.010144059 0.038394809 0.15782082
0.00076437218 0.038861334 0.15777051
-0.010138609 0.038510919 0.15710524
-0.01969089 0.039197326 0.15666115
-0.024157748 0.038185056 0.15633366
-0.029156826 0.037189182 0.15564895
-0.032442234 0.037297186 0.15415746
0.025899023 0.039667848 0.15555137
0.022827428 0.03880072 0.15483838
0.0056200107 0.038804114 0.15416861
-0.0037118604 0.038625598 0.15274078
-0.014623977 0.039569616 0.1520206
-0.019304048 0.039571345 0.15183926
-0.024188228 0.038719054 0.15130037
-0.028669704 0.038601693 0.15081
-0.03255837 0.039276298 0.15112168
-0.012932099 0.039996207 0.14861274
-0.019181043 0.039533257 0.14804977
-0.025432792 0.039401766 0.1477161
-0.030114178 0.039814468 0.14781997
-0.032689318 0.040424939 0.14751348
0.022872848 0.012144031 0.19343859
0.019319782 0.011852743 0.19357416
0.015009581 0.011928321 0.19298241
-0.0011562958 0.012470722 0.19310057
-0.0054664789 0.012937008 0.19274533
-0.010637284 0.011814295 0.19263843
-0.016478019 0.012257336 0.1927954
-0.020574929 0.012416361 0.19327179
-0.025872489 0.010859666 0.19064274
-0.029036729 0.011252698 0.19166768
0.027965741 0.016205313 0.19199258
0.024432762 0.01578957 0.19205081
0.019687133 0.016396346 0.19222516
0.014184288 0.015679182 0.19247645
0.008719313 0.015068592 0.19187903
-0.0007430496 0.01537931 0.19259155
-0.010139429 0.015308141 0.19215995
-0.025796963 0.013907073 0.19066104
-0.028919881 0.014766333 0.19105437
0.030812172 0.031389777 0.16517752
0.032041412 0.032796923 0.1614781
0.025442839 0.037243489 0.15104035
0.021284163 0.037146807 0.15152049
0.015968692 0.037190974 0.15158004
0.0057671261 0.038408458 0.1510759
-0.0035886276 0.038377583 0.14974657
-0.022367854 0.038259204 0.14893451
0.025617141 0.037903193 0.14771158
0.021532733 0.037797991 0.14676714
0.016115941 0.037752688 0.14692163
0.0057758843 0.037420452 0.14619961
-0.0034390034 0.038666725 0.14616537
-0.014607944 0.039132416 0.14581966
-0.019109409 0.038515031 0.14521593
-0.023614906 0.038194235 0.14481819
-0.028312184 0.0386337 0.14494142
-0.031615354 0.038980301 0.14434493
-0.0032549908 0.039199769 0.14179337
-0.01425783 0.03963244 0.14167339
-0.01874363 0.038987339 0.1403324
-0.023888383 0.03810906 0.13982478
-0.028354708 0.038896617 0.13966066
-0.03151571 0.039137181 0.14066088
-0.029030744 0.039483245 0.13623133
-0.011063188 0.0050352803 0.19326743
-0.015809134 0.0055389986 0.193371
-0.020549405 0.00566989 0.19325191
-0.029247142 0.0041193343 0.19196281
0.02856186 0.0095970063 0.19213203
0.024840452 0.0099123735 0.19327456
0.020069085 0.008697452 0.19418347
0.013969495 0.0090503106 0.19365332
0.0085098101 0.0097703347 0.19272301
0.0039950525 0.0080721378 0.19295597
-0.0054811398 0.00826615 0.19267997
-0.010239498 0.0076673618 0.19303977
-0.015281037 0.0087884059 0.19313675
-0.022307698 0.0083183032 0.19231793
-0.025979981 0.0071480847 0.19115561
-0.030185286 0.0078344913 0.19170043
0.02933201 0.012305501 0.19104588
0.02577062 0.03806502 0.14497781
0.023412876 0.037976447 0.14482483
0.016595785 0.03780961 0.14444494
0.0069027436 0.037400544 0.143785
0.021847438 0.037090484 0.14087018
0.016798828 0.037148118 0.14080763
0.0063142483 0.03688091 0.13957775
-0.0031153406 0.038398623 0.13837177
-0.020442054 0.038449109 0.13774186
-0.022802949 0.037966367 0.13731056
0.0020888322 0.037118912 0.13497999
-0.0076981294 0.038551569 0.13446841
-0.018743202 0.038489938 0.134002
-0.023474813 0.03811067 0.13355181
-0.027961385 0.03861123 0.13318795
-0.031353977 0.038508769 0.13353506
-0.012822744 0.038667619 0.13050857
-0.018070519 0.038704336 0.12969208
-0.024942331 0.037831243 0.1294477
-0.028889753 0.038256463 0.12960207
-0.020728827 -0.0017746706 0.19434676
-0.026310641 -0.0014234209 0.19505772
-0.029980399 0.0012627217 0.19636467
0.019146636 0.0027679817 0.19316944
0.014352329 0.0032343876 0.19324872
0.0084868912 0.0020843155 0.19305691
0.0040182974 0.0023292308 0.1932022
-0.0055012032 0.0020017619 0.19261029
-0.010299701 0.0019066324 0.19327673
-0.0154703 0.0017250762 0.19341347
-0.020622533 0.001412986 0.19301334
-0.025846008 0.0014106013 0.19251755
-0.030633468 0.0027679177 0.19293985
0.027974166 0.0048996829 0.19111669
0.02475097 0.0039173388 0.19224221
0.0095729278 0.0057947645 0.19273868
0.015953984 0.035706222 0.13720459
0.020943489 0.034430623 0.13360149
0.01698814 0.034981787 0.13287386
0.0066332691 0.036975145 0.13274062
-0.0024664751 0.036996126 0.13211867
0.016419124 0.036401093 0.12805885
0.006814037 0.03786701 0.12874651
-0.0024857852 0.036697209 0.12779385
-0.012415029 0.037305593 0.12705857
-0.017936107 0.038064241 0.12722415
-0.023100674 0.036845978 0.12663299
-0.027523663 0.036877748 0.1264075
0.016061794 0.038187981 0.12415302
0.0070406166 0.037867486 0.12390375
-0.0088791577 0.036671937 0.12340772
-0.017102465 0.038769722 0.12286741
-0.022466462 0.037023362 0.1217581
-0.027164824 0.036480483 0.12257713
-0.017445005 0.0390172 0.11894709
-0.019828785 0.03853792 0.11850607
-0.010389882 -0.0067464719 0.19370115
-0.015610072 -0.0063611879 0.19417262
-0.019845292 -0.0057572145 0.19550651
-0.024006359 -0.0045040869 0.19537288
0.028193668 -0.0017215585 0.19086188
0.025005788 -0.0019288041 0.19060525
0.020528968 -0.0020081382 0.19176692
0.014927849 -0.0015798794 0.19299421
0.0096261129 -0.0021389714 0.19355354
0.0040280451 -0.0030577178 0.193701
-0.0059156078 -0.0037320857 0.19242239
-0.010020483 -0.003237904 0.19319192
-0.014811035 -0.0025411858 0.19340312
-0.018340714 -0.0025666372 0.19397914
-0.024706665 -0.0024114868 0.19380432
0.028120272 0.0010498787 0.1906606
-0.0073433402 0.035640836 0.1246658
-0.029621426 0.034721132 0.12315696
-0.03122139 0.034108337 0.12265372
0.016719889 0.038335979 0.1216861
0.0071894662 0.037561059 0.1207611
-0.0024165954 0.036051989 0.12125063
-0.011929262 0.037389398 0.11991549
-0.022690833 0.036522027 0.11936474
-0.028124895 0.035838064 0.11956775
-0.031109538 0.034923133 0.11934662
0.016872127 0.040215313 0.11818331
0.0071157669 0.037603915 0.11743224
-0.0024294532 0.036239386 0.11607158
-0.011786763 0.037306428 0.11594468
-0.016331408 0.037891567 0.11564481
-0.022156026 0.03737646 0.11560726
-0.027412731 0.037354168 0.11519837
-0.030925438 0.037260588 0.11519462
-0.0084368875 0.036842883 0.1117962
-0.019639868 0.037213147 0.11165261
-0.026828218 0.03759497 0.11166745
-0.03081603 0.037882503 0.11173183
-0.0054420708 -0.01092595 0.19777304
-0.010972458 -0.010482551 0.19751948
-0.014986592 -0.0095835933 0.19787094
0.019071711 -0.011498509 0.19525251
0.014823039 -0.010473489 0.19381082
0.0098227533 -0.0092445603 0.19457069
0.0043386398 -0.0094137788 0.19480032
-0.005619972 -0.0089020142 0.19449353
-0.01047781 -0.0081681618 0.19564515
-0.014965589 -0.0083391676 0.19554183
0.029382933 -0.0057132216 0.19101664
0.024861094 -0.0062979436 0.19119158
0.020237915 -0.0072132926 0.1919204
0.015746929 -0.0063088522 0.19273227
0.011279617 -0.0055950871 0.19343105
-0.0047240849 -0.0060730581 0.19247904
0.0083079012 0.036507726 0.11414438
-0.0012954803 0.036248088 0.1135931
0.012680669 0.036609888 0.11092973
0.0028399699 0.037518859 0.11074507
-0.0065541225 0.037077725 0.10981929
-0.016373094 0.036788642 0.10948533
-0.021370929 0.036269601 0.10866588
-0.02595403 0.03657585 0.1079824
-0.029684309 0.036458489 0.1074267
0.0078336019 0.037555039 0.10700047
-0.0018045171 0.037555397 0.10664338
-0.011388875 0.036882281 0.10478938
-0.016207743 0.036891162 0.10461789
-0.021025851 0.036562502 0.10419291
-0.025843557 0.036337908 0.10384488
-0.029859941 0.036188718 0.10358399
-0.016603295 0.037395298 0.10067385
-0.019680794 0.037386537 0.10038811
-0.026562329 0.036538716 0.10098714
0.024203504 -0.01432055 0.19631124
0.020151323 -0.014094887 0.19627139
0.015367971 -0.015422105 0.19529945
0.010461383 -0.014063775 0.19588101
0.00078915746 -0.014355361 0.19530404
0.028356092 -0.011759517 0.19331422
0.025114017 -0.012445508 0.1937094
0.020818384 -0.012042819 0.19314238
0.015662404 -0.012187897 0.19377583
0.010502451 -0.012815177 0.19474527
0.026014894 -0.010441242 0.19118688
0.014736773 0.034144163 0.10403126
0.0039754924 0.035559595 0.10336941
0.0083770631 0.035005271 0.099560142
-0.0014960723 0.035334587 0.099000633
-0.010981335 0.03569591 0.098675907
-0.021827355 0.035909053 0.098289728
-0.025463179 0.035322841 0.097538471
-0.030549675 0.035097536 0.097751498
-0.033747669 0.035280403 0.096773267
0.0030214419 0.036127746 0.094421148
-0.0059346664 0.036184788 0.093717694
-0.015837137 0.036558688 0.093390346
-0.02049239 0.03637439 0.093330085
-0.02556761 0.035442408 0.09318459
-0.030591663 0.035961743 0.092644811
-0.015708975 0.03743577 0.090044796
-0.019753288 0.037216723 0.089728236
-0.03186664 0.038113888 0.08998096
0.014330865 0.032686234 0.09786123
0.014523883 0.033618152 0.092244565
0.0056048878 0.035721421 0.092323184
-0.022243876 0.035173353 0.090078235
-0.025485672 0.034987088 0.089816511
-0.028727416 0.034872469 0.089609921
0.014714089 0.034504294 0.088209271
0.0042890836 0.035649359 0.088523269
-0.0059027816 0.036665738 0.087783039
-0.015605538 0.03716445 0.086807549
-0.020714041 0.036360621 0.086431086
-0.02536568 0.035858389 0.086449862
-0.02941161 0.036535379 0.086829245
-0.0057335529 0.036121786 0.08330828
-0.015647616 0.037199318 0.082011998
-0.019791123 0.036898017 0.0820508
-0.025252208 0.035556611 0.082161129
-0.029011175 0.037052151 0.082517028
0.015204796 0.032877564 0.089676082
0.014832583 0.033506393 0.086086571
0.007187658 0.034154475 0.086311102
0.014710908 0.033532977 0.083044946
0.0057650348 0.033507645 0.081679225
-0.0048076618 0.034744263 0.080223858
-0.013735115 0.036704779 0.079401731
-0.021093421 0.035675049 0.079346955
-0.025198173 0.035026368 0.079710245
-0.02839119 0.036124464 0.07841754
0.0057941889 0.034313381 0.076424718
-0.0046626027 0.035381019 0.076637268
-0.015251062 0.035442889 0.075281143
-0.020173285 0.03455615 0.075086653
-0.025543902 0.033594485 0.07601434
-0.028329905 0.034242149 0.073860466
0.00082844927 0.035969734 0.072677791
-0.0097861765 0.035868943 0.0714463
-0.014792181 0.035385251 0.071345687
-0.018419255 0.034936488 0.071682632
0.0077283555 0.034680307 0.074472249
-0.021757226 0.033746418 0.072676063
-0.02473503 0.032678839 0.072545409
-0.029951666 0.033235606 0.071977496
0.0059674839 0.034580767 0.069790363
-0.0035470123 0.036517262 0.069351315
-0.015031761 0.035369098 0.068711042
-0.019280054 0.034318805 0.068800569
-0.024525151 0.032742973 0.068165898
-0.029501174 0.034028288 0.068291962
0.001515989 0.034775853 0.066061139
-0.0086597791 0.035057366 0.065096438
-0.018219825 0.033983529 0.06472373
-0.030909974 0.035003778 0.063538969
-0.03119975 0.035331663 0.059116483
0.014699225 0.029597225 0.067572773
0.0080419639 0.032801211 0.067819655
-0.022396229 0.032306548 0.065303504
0.016083432 0.031011226 0.063247383
0.006600461 0.033467472 0.063104749
-0.00326229 0.033364952 0.061631739
-0.013139489 0.034074545 0.060815692
-0.017795011 0.033582509 0.061502457
-0.023128856 0.03210878 0.061998487
-0.027831562 0.032706555 0.06101197
0.015012079 0.032556355 0.060576797
0.0068026232 0.03309077 0.058627844
-0.0031071559 0.033799767 0.057810068
-0.013030014 0.033934116 0.057571054
-0.018236902 0.033778548 0.057710111
-0.022976145 0.032447513 0.057056963
-0.027902547 0.03302389 0.056306481
-0.031148359 0.03531849 0.057020664
-0.0031881176 0.034907579 0.054071009
-0.012860036 0.034818113 0.053058982
-0.017625201 0.03456223 0.052945018
-0.0239335 0.033798274 0.053234398
-0.027815953 0.033439811 0.053505003
-0.031948928 0.033570822 0.05346781
0.016856631 0.031041207 0.057312071
0.0077407593 0.032738566 0.056276798
0.016085308 0.032310545 0.052427053
0.0070908898 0.032987177 0.052246273
-0.0020097636 0.034710467 0.051244259
-0.019413382 0.034610748 0.050556004
-0.022217404 0.03345513 0.050908625
-0.02773774 0.032956179 0.049953461
-0.031075059 0.031429347 0.048577249
0.0069807349 0.033098757 0.047262192
-0.0028857414 0.034537375 0.047107518
-0.012670438 0.034082532 0.047184527
-0.017652258 0.03359282 0.046605229
-0.022975594 0.033085044 0.046211481
-0.027629912 0.03249478 0.045348287
-0.030925091 0.032761987 0.044396758
0.018964613 0.027891817 0.049531996
0.017097747 0.031243743 0.046924472
0.0090468517 0.032907724 0.045902431
-0.00089061365 0.033553004 0.043972075
-0.012546613 0.032838285 0.042972624
-0.016713828 0.032870829 0.042855859
-0.022577085 0.032329377 0.043264449
-0.027545303 0.032460209 0.042138755
0.016775984 0.032778502 0.041802824
0.0075296545 0.033903778 0.042428374
-0.002444546 0.034065306 0.041155338
-0.012447099 0.033705533 0.040509224
-0.017700613 0.03321594 0.0403741
-0.022268757 0.031984147 0.039524972
-0.027464759 0.032072421 0.03862077
-0.030808704 0.031693634 0.038188159
0.016110096 0.034525752 0.037908912
0.0077467086 0.034462869 0.037569344
-0.0022608854 0.033525467 0.036433339
-0.012269671 0.034270644 0.035650373
-0.017282456 0.033941269 0.035200357
-0.023163147 0.033020552 0.035291195
-0.027525727 0.033478674 0.034726799
-0.031054713 0.034500655 0.035205662
-0.028856702 0.034721907 0.031180859
-0.030497763 0.035002407 0.030288935
0.021384409 0.025064589 0.046939075
0.021010445 0.026298823 0.042957902
0.019295467 0.027814092 0.04308778
0.022617316 0.029689314 0.038803875
0.019417664 0.030464591 0.039955735
0.026789924 0.030296328 0.034482598
0.022831069 0.031461719 0.03474009
0.018447492 0.0324651 0.034864128
0.0079322634 0.033454001 0.033502281
-0.0029193638 0.031481802 0.031455219
-0.021603251 0.031803008 0.032382131
-0.02558824 0.032235857 0.031323791
0.027193284 0.031846825 0.030632257
0.023252236 0.031957868 0.030593097
0.018201921 0.032841027 0.030094743
0.0081061693 0.03275162 0.029675841
-0.0020029629 0.030779839 0.029449821
-0.012032545 0.033783913 0.028526723
-0.017076001 0.033703864 0.028556466
-0.022141106 0.032142576 0.028128445
-0.02714248 0.033031102 0.027639747
-0.030429855 0.034123357 0.026307583
-0.012732334 0.033537984 0.024237514
-0.016933519 0.032915831 0.023559153
-0.02288875 0.032040413 0.024771869
-0.027586766 0.033193704 0.023439527
-0.03038007 0.033852872 0.023914099
0.023460565 0.022039952 0.045949996
0.026294084 0.021912398 0.040582061
0.023797655 0.02336538 0.0423401
0.027645832 0.024454119 0.037052333
0.023789445 0.025000216 0.038758516
0.028155072 0.028160574 0.035096705
0.028400263 0.031525496 0.029317737
0.024241241 0.031473581 0.028048575
-0.0014818151 0.030539334 0.026918054
0.026990233 0.030919077 0.024406552
0.023652131 0.031076791 0.023339868
0.018536376 0.031718493 0.02372098
0.013459274 0.031808794 0.02362752
0.0033415454 0.03122437 0.022782385
-0.0065887449 0.031926274 0.022781968
-0.016862147 0.032407999 0.020950258
-0.02172607 0.031385001 0.021454692
-0.02616827 0.031674918 0.021089971
0.022140192 0.031808142 0.019558847
0.018421493 0.032408655 0.019081652
0.013966304 0.032144904 0.018014908
0.0031032069 0.031878173 0.018434763
-0.006585422 0.032797337 0.017271876
-0.016519807 0.032239079 0.016725063
-0.021819631 0.031511303 0.016514421
-0.025206955 0.031516131 0.016624689
-0.028624205 0.03070551 0.016898334
-0.0098131588 0.032859027 0.012838364
0.028275097 0.029541912 0.022172809
0.028018793 0.029131236 0.016698062
0.02428407 0.031198563 0.01778686
0.018894114 0.032498121 0.016403139
0.0044586277 0.031444728 0.016462028
-0.019222775 0.031265438 0.014418602
-0.025150089 0.031075416 0.014054716
-0.028599979 0.027784524 0.01216507
0.023637732 0.030869188 0.012936652
0.019358357 0.031747282 0.012201786
0.013784704 0.031709552 0.012337029
0.0038270925 0.030598819 0.01130569
-0.0063299676 0.032216549 0.010190547
-0.015181544 0.031843901 0.010448098
-0.01995091 0.030540047 0.0098342896
-0.025065349 0.03028029 0.01006496
0.022724541 0.031595651 0.0083978176
0.019307191 0.031716406 0.0083915591
0.014201787 0.031546772 0.0080727339
0.028659178 0.027363123 0.010951757
0.025495587 0.030300261 0.010293901
0.029624509 0.025372447 0.0097948313
-0.022124555 0.035673212 0.19036081
-0.030037627 0.031618357 0.190267
-0.022929134 0.037874892 0.1882534
-0.031844873 0.034091167 0.18764493
-0.028225604 0.038789257 0.18414551
-0.024669027 0.040279146 0.18044984
-0.031929173 0.037431315 0.17938724
-0.027031476 0.025101801 0.19226336
-0.015709128 0.034112733 0.19082153
-0.024779283 0.029840209 0.19191658
-0.029281866 0.028176855 0.19145226
-0.032521918 0.026260009 0.18887228
-0.015490971 0.038044743 0.18681568
-0.03307293 0.030402252 0.18763521
-0.034306876 0.027916316 0.18494201
-0.017572055 0.039533097 0.18272126
-0.033803791 0.032623116 0.1837132
-0.034140274 0.031637874 0.18091512
-0.02310596 0.040378142 0.17734897
-0.03238662 0.036675002 0.17622742
-0.033984393 0.033685975 0.17714041
-0.02328999 0.039433151 0.17248571
-0.031394321 0.036592025 0.17161068
0.0034462446 0.034293663 0.19158134
0.00027295947 0.032823052 0.19180256
-0.0081526367 0.029852344 0.19219041
-0.017981034 0.025352582 0.19189101
-0.026717711 0.021610636 0.19246548
-0.03037858 0.019515809 0.19121876
0.0035427334 0.03678361 0.18868095
-0.0052830316 0.035293519 0.18940574
-0.012798958 0.031081362 0.19113514
-0.032891549 0.022470806 0.18872052
0.0029957676 0.038426135 0.18577224
-0.0060280226 0.037640329 0.18460959
-0.034625046 0.02646105 0.18194532
-0.0061129369 0.038463023 0.17965499
-0.033626847 0.028372636 0.17925972
-0.011324334 0.03935359 0.17581472
-0.034337506 0.02958226 0.17421299
-0.01686128 0.039161514 0.17091876
-0.026986968 0.037662912 0.16896462
-0.034433208 0.03124099 0.17022243
-0.021901436 0.03850238 0.16586384
-0.030906672 0.035426542 0.16471964
-0.033519045 0.032490481 0.16573989
-0.026821095 0.038071223 0.16087422
-0.0094575481 0.020961449 0.19176823
-0.020314325 0.017814929 0.1928027
-0.024587959 0.01615731 0.19324946
-0.02832032 0.013639648 0.19212645
0.015923467 0.034533747 0.18982735
0.012148986 0.033958167 0.19054821
0.007246362 0.031865757 0.19120717
0.002129972 0.030219765 0.19234973
-0.0065790871 0.026092745 0.19238389
-0.015053988 0.022336006 0.19140941
-0.030990385 0.016280413 0.19147557
-0.033000536 0.013163026 0.18822539
0.015641209 0.036257718 0.18663985
0.011242635 0.036404978 0.18762052
0.0065767765 0.035816241 0.18873656
-0.033771403 0.015986279 0.18480754
0.014384355 0.037656903 0.18315077
0.010893633 0.037837114 0.18305928
0.0055483291 0.037873901 0.18326962
-0.032810543 0.017613109 0.18078187
0.0099470159 0.037975848 0.17905301
0.0052713649 0.037750598 0.17820469
-0.032710426 0.022126155 0.17523772
-0.0053322967 0.038721278 0.17352962
-0.033429563 0.024250582 0.17209613
-0.0057438388 0.038093783 0.16940966
-0.013836395 0.03823274 0.16829494
-0.034842044 0.028359216 0.16665569
-0.034586526 0.023366451 0.16717207
-0.015003134 0.037953719 0.16443744
-0.034128122 0.02896338 0.16317666
-0.020713232 0.038202044 0.15899721
-0.031118302 0.035320818 0.15887266
-0.032948084 0.03187776 0.15882191
-0.020896729 0.037947975 0.15396643
-0.030993192 0.036636312 0.15436932
-0.026572756 0.038657311 0.1490564
-0.027540501 0.039292455 0.14593595
0.025364991 0.034704391 0.19291934
0.023206968 0.032074716 0.19180873
0.019543026 0.030681834 0.19171873
0.010205768 0.025735516 0.19113085
0.0048563695 0.024473971 0.19221261
-0.0044675963 0.020572308 0.19186157
-0.012879792 0.015787035 0.19203204
-0.017540105 0.013178031 0.19247305
-0.022113997 0.011351978 0.19340187
-0.026759071 0.0095587634 0.19308767
-0.030980878 0.0083924169 0.18998152
-0.034886893 0.0050033452 0.18838245
-0.037962418 0.0043567708 0.18769607
0.026336316 0.035274468 0.19013366
0.022247564 0.034481682 0.18975091
0.017902132 0.033800319 0.19082657
0.013133875 0.031589046 0.19169292
0.0087882625 0.029863808 0.19154382
-0.03638633 0.0082423547 0.1861847
-0.038715985 0.0065891929 0.18457624
0.024940664 0.036836803 0.18509808
0.021505101 0.036713671 0.18572178
0.017920367 0.036910038 0.18656617
-0.034857538 0.014188011 0.18189567
-0.036300179 0.0097951908 0.18162957
-0.038893398 0.0072315075 0.18223846
0.024633449 0.037959024 0.18214881
0.021187205 0.038110368 0.18110341
0.016586922 0.037880532 0.18165019
-0.033646163 0.014462683 0.17787269
-0.035087373 0.010734063 0.17803189
0.021119805 0.038756702 0.17781529
0.015887726 0.038532652 0.17715144
0.011512662 0.03855668 0.1772359
0.0054420205 0.037801802 0.17497465
-0.03281983 0.016101919 0.17342195
0.014922257 0.037937321 0.17305374
0.011182161 0.038231336 0.17240193
0.0060620932 0.037825357 0.17161727
0.0019299444 0.037552334 0.17140421
-0.033542044 0.018388877 0.16849375
0.010037231 0.037977025 0.16853866
0.0058306279 0.037935223 0.16755489
0.0011529978 0.037865344 0.16628754
-0.034768037 0.021829536 0.16532388
-0.0048503969 0.037693609 0.16226935
-0.033856168 0.026438437 0.15964866
-0.033947833 0.022417273 0.15898228
-0.0099699534 0.038265124 0.15816075
-0.033680297 0.027980499 0.15648389
-0.01496294 0.039219905 0.15320608
-0.034012418 0.02962672 0.15237048
-0.020787772 0.038478136 0.14777255
-0.033097014 0.032427937 0.14759195
-0.025833732 0.039007492 0.14298365
-0.032949813 0.032768521 0.14286625
-0.029473495 0.037140373 0.1386393
-0.0058286949 0.011052985 0.19308323
-0.010224062 0.0093430728 0.19294998
-0.014432674 0.0070392969 0.19276673
-0.019572942 0.0046712914 0.19298846
-0.024051525 0.0031605214 0.19321457
-0.027797014 0.00026355218 0.19140202
-0.032341693 -0.0018869136 0.19076896
0.022782065 0.029197641 0.19204563
0.020242348 0.026335863 0.19133914
0.016884973 0.023214305 0.19156185
0.012340352 0.022219272 0.1921027
0.007565781 0.019705778 0.19239718
0.0022053029 0.017439654 0.19200033
-0.0067270575 0.014271938 0.19282252
-0.015233343 0.0102802 0.19217151
-0.029632581 0.0033770734 0.1902537
-0.033325415 0.00081713777 0.18930912
-0.036085296 -0.00066565163 0.18807176
0.028923243 0.033566803 0.18695775
0.018027157 0.028470855 0.19072595
0.015291276 0.026949491 0.19037738
0.028281659 0.035470389 0.18360558
-0.037189171 0.0074315527 0.17832702
