# .PCD v0.7 - Point Cloud Data file format
VERSION 0.7
FIELDS x y z
SIZE 4 4 4
TYPE F F F
COUNT 1 1 1
WIDTH 789
HEIGHT 1
VIEWPOINT 0 0 0 1 0 0 0
POINTS 789
DATA ascii
0.026114702 -0.033202253 0.19149408
0.023221564 -0.036640421 0.18756604
0.030078899 -0.033640794 0.18753067
0.02777965 -0.036761671 0.18377337
0.016656252 -0.030109288 0.19314224
0.02454602 -0.029124191 0.19324526
0.011167466 -0.035325248 0.18971613
0.020796679 -0.033669841 0.19128951
0.029768722 -0.027734676 0.19025782
0.020585265 -0.036331385 0.1868329
0.031917449 -0.027792506 0.18400893
0.022332337 -0.037558164 0.18228555
0.031004928 -0.033535346 0.18164429
0.032305602 -0.029037587 0.18121105
0.027132262 -0.037122473 0.17780688
0.025501512 -0.019011589 0.19379923
-0.0033973139 -0.034396172 0.19165179
-0.00035705511 -0.032931242 0.19269213
0.0080912802 -0.030105563 0.19300699
0.017506456 -0.024796454 0.19258851
0.026888313 -0.02210932 0.1925019
0.029056489 -0.019990146 0.18964639
-0.0028428026 -0.036009502 0.18908831
0.0053598275 -0.035030745 0.18980703
0.030705009 -0.022585796 0.18737471
-0.0025730645 -0.037026796 0.18611103
0.0052279457 -0.0361742 0.18421823
0.0070768422 -0.036767513 0.17973512
0.015136735 -0.036470067 0.18010366
0.016240878 -0.037146129 0.17549655
0.030304987 -0.031980898 0.17392498
0.021537358 -0.037140749 0.17094013
0.029892484 -0.032367118 0.1699428
0.026192334 -0.036086138 0.16502351
0.034318767 -0.034320302 0.16415739
0.030941214 -0.037115771 0.1605199
-0.0028174771 -0.027729079 0.1932981
0.0060412395 -0.023722067 0.1931622
0.014637154 -0.019424045 0.19267407
0.020144733 -0.018190078 0.19316977
0.024630915 -0.016212873 0.19380894
0.027025312 -0.014643407 0.19154719
-0.011260336 -0.032241058 0.18971211
-0.007266419 -0.031470392 0.19096878
-0.002281067 -0.03089783 0.19344339
0.01112481 -0.024880292 0.19257548
0.029039942 -0.015715033 0.1894581
-0.007278353 -0.033925962 0.18694621
0.030751657 -0.016307879 0.1841588
-0.0056557497 -0.035278872 0.18282583
-7.5334683e-05 -0.036296844 0.18216649
0.0310799 -0.021461228 0.18365648
-0.0042761024 -0.035425913 0.17868331
0.0045725545 -0.036230963 0.17770049
0.004849975 -0.035908505 0.17252719
0.030319951 -0.024924695 0.17092669
0.010141723 -0.036295284 0.16838789
0.030953281 -0.026919955 0.16675666
0.019350819 -0.036391169 0.16410515
0.032749381 -0.029607311 0.16420943
0.020619119 -0.036140401 0.15936217
0.02169507 -0.036275111 0.15576807
0.031017743 -0.036527108 0.15617144
-0.013323199 -0.027416922 0.19103953
-0.010182464 -0.026062246 0.19217578
-0.0053137019 -0.024574243 0.19339705
-0.00011523627 -0.022164971 0.19332099
0.0084156599 -0.017236274 0.19349736
0.018222976 -0.012419761 0.19262221
0.021538604 -0.01050942 0.19292444
0.026849616 -0.010010739 0.19063389
-0.017951272 -0.031626109 0.18892691
-0.014085265 -0.030867461 0.18951398
-0.010678117 -0.029528495 0.19097161
0.029839197 -0.013788503 0.1861352
0.030110147 -0.0087739229 0.18567324
-0.016843617 -0.032906514 0.18485746
-0.0127337 -0.033370115 0.18550798
-0.012356582 -0.034390867 0.1809099
-0.0083720041 -0.034899347 0.18058133
-0.011053586 -0.034457076 0.17729676
-0.0075846547 -0.035170179 0.17637444
-0.0030623041 -0.035343461 0.17581391
-0.0060988888 -0.034647465 0.17289525
-0.001925854 -0.035318919 0.17110282
0.030906804 -0.022452725 0.16766554
-0.00030165352 -0.035988074 0.16706535
0.0075520617 -0.035576873 0.16618252
0.032177791 -0.0237967 0.16506416
0.0092033399 -0.035967074 0.1621322
0.0097683594 -0.036507096 0.15761295
0.017518006 -0.036159128 0.15756047
0.019819982 -0.036314767 0.1528112
0.028526813 -0.034807362 0.1526165
0.024361085 -0.035425257 0.14735949
-0.016484439 -0.019972682 0.19343859
-0.013082357 -0.018970715 0.19425482
-0.0081731044 -0.017201105 0.19436923
-0.003298373 -0.014753992 0.19298753
0.0059798551 -0.011392562 0.19330785
0.0096377786 -0.008938957 0.19306314
0.0144132 -0.0069942675 0.19273713
0.019390808 -0.0044489941 0.19236702
0.023038063 -0.0023897397 0.19097015
-0.020277236 -0.024780262 0.19058019
-0.016263876 -0.024068642 0.19194892
-0.012237736 -0.022591989 0.19320789
-0.0068761711 -0.020284254 0.19364911
-0.0021503642 -0.017449478 0.19293106
0.0061617051 -0.014922563 0.19308832
0.012537418 -0.011930692 0.19260037
0.015286429 -0.010402404 0.19225246
0.021122819 -0.0081328899 0.19207686
0.025168778 -0.0046526268 0.19039619
0.027599445 -0.0024615629 0.18776578
-0.023494257 -0.030161217 0.18787885
-0.020383839 -0.028849291 0.18901432
-0.016314941 -0.026639903 0.18999413
0.030074906 -0.0065882811 0.18468645
-0.022332957 -0.03161753 0.18251401
-0.019749887 -0.03192351 0.18285257
0.030162234 -0.0087064775 0.17950583
-0.017622404 -0.03262794 0.17890146
-0.014830448 -0.03361778 0.17785373
0.028082753 -0.010294338 0.17447609
0.02937378 -0.0091505488 0.17590898
-0.016757527 -0.03375414 0.17382234
-0.013425529 -0.033892807 0.17437169
-0.016351331 -0.03506897 0.17098698
-0.013016311 -0.033930719 0.16939074
-0.0083841374 -0.034229025 0.17006031
0.027769567 -0.014429578 0.16761798
-0.011912729 -0.034153726 0.16575646
-0.0079869116 -0.034801513 0.16536477
-0.003093157 -0.034863729 0.16414806
-0.0072761215 -0.034897413 0.16096723
-0.0020581102 -0.035357505 0.15943801
-0.0011734469 -0.035722479 0.15517357
0.0075451299 -0.035625033 0.15467024
0.0086220466 -0.035961922 0.15072563
0.0093703121 -0.035569914 0.14621854
0.018101897 -0.035806563 0.14569372
0.018286245 -0.035083819 0.14152482
0.024148591 -0.03378503 0.13767248
-0.01464811 -0.012184234 0.19485366
-0.011549492 -0.011335773 0.19496125
0.011377549 -0.00062851096 0.1932402
0.016691532 0.0010116491 0.19331959
0.020813696 0.0034467126 0.19272032
-0.027183676 -0.020773448 0.19244477
-0.023551729 -0.019075047 0.19229373
-0.019147785 -0.017865323 0.19355518
-0.014914305 -0.016479753 0.19495276
-0.0094343703 -0.014189696 0.19515288
-0.0048997877 -0.010970454 0.19326597
-0.00063524861 -0.0095588583 0.19235903
0.0078093288 -0.0044939169 0.19292045
0.012470186 -0.0033405456 0.19315431
0.017634749 -0.0018258244 0.19291165
0.022981685 0.00059281848 0.1916109
0.026712762 0.0033309818 0.19023478
0.029372187 0.0050346758 0.18792489
-0.026584197 -0.023859497 0.19030353
-0.022976 -0.022636671 0.19065005
-0.019150626 -0.021920852 0.19220707
0.02842235 0.0012238482 0.18661833
0.030104168 0.0027900217 0.18381956
-0.027824596 -0.026446108 0.18760633
0.03009465 -0.0016210452 0.18361956
0.030731719 0.0008759154 0.18042934
0.030966824 -0.0042818841 0.17888618
0.031553105 -0.0015205443 0.17736533
-0.023418706 -0.030238565 0.17589274
-0.020845152 -0.03103558 0.17644033
0.02755785 -0.0091766091 0.17183098
0.029795861 -0.0068394123 0.17305565
0.031896412 -0.0027271686 0.17349949
-0.023332775 -0.030924192 0.17259204
-0.020047288 -0.03244818 0.17233694
0.027464435 -0.0092611732 0.16812629
0.028812503 -0.0083880778 0.16787434
-0.01847709 -0.033997826 0.16800582
-0.015175016 -0.03427992 0.16794688
0.028224241 -0.011569332 0.16408074
0.02929163 -0.010013665 0.16334429
-0.017468035 -0.033581283 0.1642077
-0.01351162 -0.033951692 0.16378418
-0.010266083 -0.034424171 0.16252634
0.031555422 -0.01321639 0.16017556
-0.012803038 -0.033071674 0.1592401
-0.0090353666 -0.034606256 0.15876696
-0.0048261723 -0.035777304 0.15704042
-0.0076912586 -0.034549762 0.15420344
-0.0031706579 -0.035526987 0.15283787
-0.0021828227 -0.035025876 0.14875749
0.0037691174 -0.03507429 0.14371759
0.011420469 -0.035355996 0.1433785
0.012477566 -0.034282591 0.13909221
0.013990329 -0.034199461 0.13555589
0.021647019 -0.03288291 0.13532734
0.018889088 0.010959124 0.19733503
0.02393399 0.011810672 0.19485062
0.028556563 0.012240191 0.19565764
0.032378424 0.0154546 0.19364816
-0.026025958 -0.014027377 0.19465944
-0.021965655 -0.012463542 0.19408235
-0.017036896 -0.012692546 0.19468784
-0.011516823 -0.0065924097 0.19366005
-0.0074449838 -0.0050401846 0.19309005
-0.0029387644 -0.0033868069 0.19340467
0.0058375094 -0.00014161621 0.19352657
0.010564713 0.002487289 0.19362405
0.014550542 0.0042157574 0.19293776
0.019690365 0.0070048003 0.19233352
0.024465457 0.0084736161 0.19259137
0.028814716 0.011251776 0.19165513
0.032785136 0.014177658 0.19098249
0.035766929 0.015198048 0.18981344
-0.028346814 -0.018752547 0.19321439
-0.025205012 -0.017009754 0.19328299
-0.022062974 -0.015267056 0.19335088
-0.0015266563 -0.0068494724 0.19247785
0.029787142 0.0089556221 0.18783435
0.033235945 0.012044664 0.18702632
0.03638088 0.013430308 0.18816075
0.030509729 0.0067330124 0.1836943
0.03382479 0.0094848536 0.18224913
0.031339888 0.0049298615 0.17936319
0.03410257 0.0079663135 0.17861205
0.03212326 0.0034504887 0.1745286
0.034702748 0.0051053949 0.17369193
0.030212346 -0.0029225405 0.17140287
0.032179512 0.00075793918 0.17053172
0.035186611 0.0040770518 0.1710301
-0.024820659 -0.03012754 0.16898137
0.029789036 -0.0041520027 0.16603205
0.032029048 -0.0028151963 0.16552263
-0.024923643 -0.028560016 0.1651704
-0.022323724 -0.030573906 0.16413081
0.03046177 -0.0065956479 0.16148177
0.032981828 -0.0049781334 0.16227621
-0.020102164 -0.031849109 0.16256413
-0.016440183 -0.030693941 0.15979555
0.031774294 -0.0091802804 0.15817463
0.033132162 -0.0072897775 0.15681535
-0.013823286 -0.03136326 0.15509358
-0.011549946 -0.032521788 0.15537927
-0.01109667 -0.032131586 0.15142801
-0.0089759743 -0.033174247 0.14722475
-0.0045981621 -0.034550097 0.14643162
-0.0080063529 -0.034363635 0.14304507
-0.0035839705 -0.034639679 0.14231902
-0.0026273746 -0.034592278 0.13808778
0.0070032421 -0.034319438 0.13729075
0.0031617489 -0.034747936 0.13272676
0.012049575 -0.034457356 0.13310462
0.020597253 -0.03192962 0.13174602
0.012493727 -0.035549887 0.12839156
0.020377107 -0.031615585 0.1295507
0.012140024 -0.035182077 0.12417513
0.0077314931 0.010276238 0.19490904
0.011692367 0.011566308 0.19473967
0.016365979 0.011727745 0.19505543
0.020853244 0.012299667 0.19510871
-0.022195557 -0.0090911221 0.19351327
-0.019023081 -0.0064954371 0.19264469
-0.01533729 -0.0029453936 0.1925723
-0.0094790151 -0.0010308123 0.19358528
-0.0049753571 0.0014880783 0.19375572
0.0040812977 0.0057024313 0.19336271
0.0081554325 0.006509291 0.19339576
0.012818348 0.0085635716 0.19293013
0.017379476 0.010063953 0.19312677
0.020166976 0.011722118 0.19345713
0.032319188 0.015416965 0.19088617
0.034169801 0.012300642 0.18467349
0.03614736 0.013917059 0.18598416
0.035133153 0.011832395 0.18234077
0.03519655 0.0089839678 0.17655063
0.035765417 0.0072132936 0.17302898
0.032593761 0.0040115658 0.16865975
0.034243733 0.0063466057 0.16759485
0.03219714 0.00029356778 0.16517299
-0.025549432 -0.027585944 0.16254365
0.032874186 -0.001063332 0.15896225
-0.025899176 -0.027289076 0.15943328
-0.021752089 -0.027926309 0.15786463
-0.018801507 -0.027845096 0.1565491
0.033234119 -0.0032052556 0.15523443
-0.017907921 -0.028357081 0.15324876
-0.01567797 -0.03001919 0.14905757
-0.012410147 -0.031494495 0.14881653
-0.014583519 -0.031178746 0.14428696
-0.012044224 -0.031888083 0.14483881
-0.014251563 -0.032475233 0.14038557
-0.010741726 -0.033577327 0.14066905
-0.0099031301 -0.03365764 0.13603884
-0.0057024537 -0.033948097 0.13591722
-0.0048793387 -0.032981545 0.13223833
0.0017498024 -0.034422919 0.12651002
0.017453725 -0.031273469 0.12473702
0.0071533285 -0.036022805 0.12126392
0.014995681 -0.032376401 0.1213851
0.010989013 -0.03429053 0.11692685
-0.011679895 0.0048849816 0.19319624
-0.0069495118 0.0061279247 0.19338211
0.001549019 0.010913218 0.19415113
0.0058395937 0.011192445 0.19571519
-0.024697095 -0.002942191 0.1926702
-0.021179678 -0.0017750966 0.19143063
-0.017562125 0.0010702349 0.19190791
-0.012091467 0.0017368495 0.19302279
0.032911684 0.0074179373 0.16478559
0.032308441 0.0064958134 0.16142425
0.033552781 0.003674618 0.15770277
-0.027387768 -0.026253233 0.1575149
-0.024766814 -0.026377589 0.15624827
0.033079218 0.001702412 0.15500802
-0.026778912 -0.026741803 0.15028641
-0.023040118 -0.026853777 0.15245494
-0.026924212 -0.026720893 0.14831471
-0.022893794 -0.027922448 0.14739788
-0.018773902 -0.029165845 0.14782414
-0.021815635 -0.02837437 0.14277941
-0.017735122 -0.030220846 0.14295676
-0.016435716 -0.031797692 0.13847798
-0.015178015 -0.032874402 0.13403869
-0.011891633 -0.033475701 0.13351715
-0.010871136 -0.032625515 0.12892222
-0.0061821863 -0.032948304 0.1294077
-0.0025907233 -0.032670982 0.12867951
-0.0096634608 -0.033129014 0.12437445
-0.005913415 -0.033624839 0.12462485
-0.0018488839 -0.033821952 0.12524146
-0.0048040524 -0.034015127 0.12057948
-0.00027000252 -0.034620654 0.12034541
0.016073506 -0.028350171 0.12045431
0.0061938828 -0.035517387 0.11512035
0.014038067 -0.029931339 0.11475688
0.011141798 -0.034341436 0.11059773
0.0071878629 -0.035784051 0.10665673
0.013485082 -0.032033406 0.10659117
-0.023345249 0.0076611 0.195095
-0.017764643 0.011000333 0.19427279
-0.026585149 0.0026168628 0.19262451
-0.023838781 0.0044744378 0.19303268
-0.019563358 0.0067653074 0.19254988
-0.015296867 0.0086014494 0.19285315
-0.0050710095 0.014032097 0.19212234
-0.022868818 0.0019773315 0.19086972
-0.028135803 -0.024989801 0.15081027
-0.028983209 -0.025129197 0.14452645
-0.028669298 -0.025870517 0.14157468
-0.024591699 -0.027448591 0.14117128
-0.022870339 -0.028385697 0.13699931
-0.019352043 -0.02953667 0.13632995
-0.022837697 -0.02892746 0.13252783
-0.019365158 -0.029250491 0.13125989
-0.01594894 -0.030669685 0.12613732
-0.013647627 -0.031816043 0.12646747
-0.012421096 -0.031889737 0.12189484
-0.010867101 -0.032376621 0.11717123
-0.0070956405 -0.033205189 0.11749995
-0.0061482312 -0.032988496 0.11309671
-0.0027669696 -0.033287466 0.11284524
-0.0051024072 -0.033497486 0.10893834
-0.0011948217 -0.033920188 0.10846311
0.015283621 -0.027751038 0.10800821
0.0042105094 -0.034292623 0.10360491
0.013671818 -0.029456982 0.10322618
0.010312125 -0.033166852 0.098857164
-0.015780173 0.012494258 0.19381112
-0.0084753977 0.017313592 0.19361216
-0.028392788 -0.025034118 0.13817516
-0.027818998 -0.026563272 0.13636404
-0.025986629 -0.026994593 0.13412756
-0.022651877 -0.028447269 0.1296401
-0.023142252 -0.026616342 0.12568861
-0.020309698 -0.027507428 0.1245746
-0.017712045 -0.02883504 0.12054676
-0.016982362 -0.029725173 0.11636525
-0.01381059 -0.031298198 0.11601931
-0.011809067 -0.032053899 0.11126071
-0.0081257718 -0.03245686 0.11045372
-0.011018423 -0.032318205 0.10764778
-0.0071925623 -0.033133782 0.1061691
-0.0035283696 -0.033510849 0.10535073
-0.0061703697 -0.03332502 0.10188597
-0.0022561541 -0.033995938 0.1017229
0.014040652 -0.027013451 0.099855304
-0.0056787534 -0.033496931 0.098780751
-0.00099688862 -0.03355575 0.09733057
0.0075388062 -0.033671539 0.096249104
0.0045223814 -0.033280417 0.092162609
0.013268312 -0.031013077 0.091784835
0.012247249 -0.032602523 0.087275028
-0.023419945 -0.026458271 0.12255102
-0.024064794 -0.025836287 0.11701173
-0.020932658 -0.027037926 0.11816978
-0.020203922 -0.027644258 0.11317521
0.013760951 -0.010783764 0.10987836
-0.016474336 -0.027711917 0.11012614
0.014489369 -0.0130317 0.1055814
-0.012423691 -0.031420812 0.10567492
0.015210912 -0.015072743 0.10315138
-0.012180108 -0.030686442 0.10019076
-0.0094028218 -0.031915709 0.10024321
0.017331399 -0.018664502 0.09813571
-0.008374759 -0.031906515 0.094943762
-0.0030846288 -0.032793373 0.094906569
-0.0067382576 -0.032140516 0.090457439
-0.0033457112 -0.03227365 0.090158701
0.0060012816 -0.032933898 0.08926034
0.013874291 -0.024835218 0.08951211
-0.0017981967 -0.032813929 0.085607708
0.0068338895 -0.032261025 0.084924221
0.014158146 -0.027425554 0.085358262
-0.00094632618 -0.034186222 0.082237244
0.0072348262 -0.032594364 0.081191421
0.014646502 -0.029132545 0.080612361
0.012468331 -0.032890555 0.076666355
0.0094472747 -0.034585528 0.073004186
0.015445763 -0.031946551 0.072656751
-0.026322555 -0.024459761 0.11953944
-0.026529038 -0.02458748 0.1155833
-0.02527062 -0.025279894 0.11167985
-0.022367669 -0.026624721 0.10995322
0.014118431 -0.0085120946 0.10841727
0.016765125 -0.0053018145 0.10686648
-0.024944201 -0.025153782 0.10832208
-0.020988485 -0.025125712 0.10674614
-0.017628128 -0.025754303 0.10548186
0.014634189 -0.007963689 0.10464609
-0.016942739 -0.025800921 0.10164851
0.015414161 -0.011481293 0.10003817
-0.014582825 -0.027641259 0.097451806
0.016999613 -0.015838342 0.096062839
-0.013476674 -0.028661195 0.093367398
-0.010413633 -0.031698342 0.092244804
0.015942369 -0.018095542 0.091307223
-0.0085823089 -0.032214094 0.08901608
-0.0076106591 -0.03265091 0.083863497
-0.003996674 -0.033449087 0.084574521
-0.0031033931 -0.033706944 0.079261661
0.0054619103 -0.032878865 0.078881264
-0.0013614604 -0.034018502 0.075843334
0.0061004758 -0.033787321 0.0751037
0.0074566961 -0.033569489 0.07004714
0.016370194 -0.030929193 0.06939292
0.012793425 -0.033480924 0.065506339
0.016113242 -0.032656841 0.060948312
0.01265361 -0.00067317067 0.10945821
-0.027011156 -0.024442408 0.1093502
0.01286072 -0.0034311013 0.10787851
0.015205498 -0.0013705813 0.1068421
-0.02743805 -0.024143046 0.1050036
-0.022796195 -0.024461146 0.10433388
0.015238577 -0.0063814833 0.10219151
0.015847191 -0.0035121827 0.10137844
-0.026536329 -0.024115924 0.10047352
-0.022061467 -0.024120037 0.10047817
-0.01853916 -0.024549808 0.099366963
-0.021272743 -0.024340687 0.095827222
-0.017599516 -0.025532391 0.095816195
-0.019891433 -0.026842054 0.090447426
-0.016569868 -0.027207039 0.091258645
0.015947178 -0.013975778 0.088374794
-0.019101596 -0.029217709 0.086191952
-0.015615847 -0.028810307 0.08679688
-0.011383628 -0.030204464 0.086843729
0.015894629 -0.01593224 0.085259795
-0.014850184 -0.030029535 0.082003295
-0.01087274 -0.030940387 0.082382083
0.015995186 -0.01711606 0.080392241
-0.013566427 -0.030510809 0.078270733
-0.0095803225 -0.032009684 0.077767134
-0.0052110404 -0.033351649 0.076381087
0.01606828 -0.018852739 0.076008797
-0.0090949899 -0.033145867 0.073122025
-0.0038738977 -0.033481006 0.073530734
0.015921658 -0.02450078 0.071354508
-0.0075796079 -0.034112614 0.068541825
-0.0037824064 -0.033486012 0.068582833
0.0055707209 -0.033080176 0.067368984
0.017033108 -0.023317246 0.066621006
-0.0025552213 -0.034059882 0.064493001
0.0066719544 -0.033327315 0.063352108
0.017736696 -0.029816657 0.063397288
0.0026876852 -0.034245662 0.059814572
0.011951083 -0.033029325 0.05857867
0.019974642 -0.029250894 0.058373749
0.011585612 -0.033812445 0.054026723
0.020868232 -0.030333064 0.053172171
0.016862143 -0.034182876 0.049165487
0.018125098 -0.034755025 0.046360314
0.010445056 0.0064673703 0.11054766
0.011905113 0.0027804384 0.11032206
0.013415474 0.0032858578 0.10832381
0.014783445 0.0037763615 0.10223526
-0.029718731 -0.023575619 0.10202914
0.015377407 0.0020155017 0.099508822
-0.028498605 -0.022868227 0.097767353
-0.024370061 -0.023959525 0.097508311
-0.027579667 -0.022867844 0.093220353
-0.023409933 -0.024034724 0.093033969
-0.023335766 -0.025511991 0.088627934
0.015470407 -0.0086936299 0.084489703
-0.022231106 -0.027523955 0.084686577
0.016620135 -0.011740078 0.082847238
-0.020294629 -0.029053818 0.079993248
-0.017484447 -0.029669017 0.079727173
0.016872728 -0.012891441 0.077554464
-0.019819343 -0.029099528 0.07559216
-0.015863933 -0.030359831 0.075224459
0.016268816 -0.014854543 0.07261461
-0.014676957 -0.031933248 0.071023762
-0.014429824 -0.032181848 0.06680584
-0.010444122 -0.033017412 0.066420913
-0.0081600547 -0.03252022 0.062489271
-0.0045272475 -0.034017693 0.061828136
-0.0031824084 -0.033839092 0.0568887
0.004731833 -0.033787653 0.056540728
0.0013368921 -0.033905122 0.052729368
0.021421649 -0.026647797 0.053632021
0.0067058215 -0.03384148 0.047297418
0.022782713 -0.030745212 0.046664178
0.0079781581 -0.034475092 0.043208122
0.016601153 -0.034217242 0.042769551
0.024890855 -0.028797355 0.041802347
0.021858145 -0.033205971 0.037993848
0.022476738 -0.033578705 0.032868385
0.028477162 -0.033249103 0.029031992
0.008436745 0.011809321 0.11362624
0.011917396 0.012250353 0.11514592
0.014958296 0.013711676 0.1158945
0.0096973944 0.008492047 0.11206162
0.012241257 0.011039801 0.11096704
0.01343835 0.0089236097 0.1068632
0.014633563 0.0075707631 0.10217166
-0.030312471 -0.021270154 0.095184505
0.015730025 0.00046396255 0.092490673
-0.029801475 -0.02204784 0.090721607
0.013157174 -0.0025634733 0.087801695
0.014217354 0.00093273912 0.089049399
-0.028088471 -0.023629624 0.087734759
0.013886421 -0.0046358416 0.085326612
0.014531966 -0.0019016941 0.083556116
-0.027373306 -0.024448095 0.083230495
-0.024623662 -0.025606943 0.08217895
0.015889812 -0.0056332843 0.080350399
-0.02444151 -0.026374841 0.07967025
0.016889185 -0.008525434 0.076469302
-0.021658367 -0.028661095 0.07374686
0.016344234 -0.012233712 0.070711136
0.017447883 -0.010387996 0.071733594
-0.020872531 -0.029659256 0.069472492
-0.017620634 -0.030971352 0.06817925
0.016751572 -0.013558071 0.067622125
0.01828347 -0.01188174 0.066269159
-0.01960119 -0.031002957 0.065574467
-0.015875567 -0.031308837 0.064365268
0.017819658 -0.016698336 0.062923193
0.019175509 -0.013876485 0.061808646
-0.014909276 -0.029969366 0.059767127
-0.011118212 -0.03159716 0.060280025
0.019959599 -0.015806589 0.057583928
-0.010213228 -0.031736493 0.0553146
-0.006700973 -0.032583781 0.055581093
0.020418443 -0.01743632 0.05261445
-0.004826487 -0.033254169 0.051336765
0.02215023 -0.021362243 0.049411118
-0.0028174389 -0.034317203 0.046363354
0.004168774 -0.033722367 0.045771956
0.025115211 -0.023255181 0.04465133
0.025927497 -0.0209808 0.042040348
0.0055541298 -0.03437046 0.042120457
0.026468512 -0.027164524 0.039601684
0.026637772 -0.023019155 0.039577127
0.010846398 -0.034028508 0.036677837
0.026932329 -0.028618649 0.036625564
0.02734646 -0.025232425 0.035118878
0.016246825 -0.033280987 0.032121003
0.024982233 -0.033365015 0.030226111
0.028794002 -0.028162031 0.030917823
0.021277387 -0.034066718 0.026918888
0.028809387 -0.029676616 0.027305067
0.026201533 -0.033284608 0.022521853
0.0142888 0.017325232 0.11135072
0.015446328 0.016384318 0.10817564
0.015039835 0.01545221 0.1032635
0.014595788 0.013030492 0.097959995
0.014651873 0.0080278926 0.095218539
0.015101626 0.0064276196 0.090258658
0.014755085 0.0031909421 0.085404038
0.015500676 0.0018560477 0.081558347
0.01580137 -0.0011574398 0.077126026
0.016775241 -0.0039967322 0.073165715
0.017436806 -0.0061015235 0.06859827
0.018655807 -0.0080845114 0.064084589
0.019705456 -0.0092682354 0.059457719
-0.015356903 -0.029450785 0.056084037
0.020973034 -0.011774775 0.054818213
-0.01561563 -0.029317891 0.052728891
-0.013123362 -0.030843345 0.052462578
0.021430153 -0.013397804 0.049814463
-0.015663287 -0.029614467 0.049751222
-0.010826324 -0.031238515 0.048396051
-0.0074616745 -0.031875908 0.047405422
0.02253994 -0.016558213 0.046169281
-0.0096639954 -0.03142938 0.044301629
-0.0065283235 -0.031944849 0.043883801
0.025171399 -0.017572533 0.041298807
-0.0049295137 -0.03281904 0.039462447
-0.00068585575 -0.033921234 0.038127244
0.027571041 -0.018750615 0.036485314
-0.004067719 -0.03291994 0.034201443
0.0052902303 -0.033550166 0.03313458
0.028477849 -0.021439815 0.032431543
-0.00040559471 -0.033268638 0.031235576
0.01012242 -0.033308912 0.029628038
0.028744014 -0.024682701 0.029720187
0.015492307 -0.032758687 0.024734497
0.028816994 -0.027636318 0.024572313
0.019851403 -0.033543326 0.020185709
0.027889702 -0.027958868 0.020220041
0.025291167 -0.031918999 0.015284061
0.015257802 0.016162554 0.1001097
0.01623925 0.015185223 0.096483409
0.01830392 0.017125526 0.094014823
0.015757695 0.013583058 0.091944456
0.018102219 0.017372169 0.090697885
0.015806591 0.012098872 0.087546051
0.017545966 0.01534513 0.086768746
0.014924759 0.0063121668 0.084089756
0.016367644 0.011052698 0.083216727
0.015904106 0.0032743046 0.078159571
0.016409507 0.0085639302 0.079136014
0.016159838 0.002309209 0.074738026
0.016430914 0.0061967513 0.074124455
0.0165825 0.00085835857 0.070655107
0.016738726 0.0051096161 0.070785165
0.017231984 -0.001129372 0.067015767
0.018133909 -0.0038039507 0.062896609
0.01911816 -0.0023303339 0.055718422
0.020197539 -0.0054301796 0.051950574
-0.018780436 -0.026583411 0.050837278
0.021665651 -0.0077431398 0.047275901
-0.018169399 -0.029127385 0.046274066
-0.013776937 -0.030158395 0.046429873
0.022766018 -0.010421585 0.043643296
0.024412524 -0.0077858549 0.042078435
-0.017456949 -0.030852972 0.041640699
-0.012568178 -0.030679831 0.042179942
0.024700345 -0.012103179 0.039359689
-0.017091395 -0.032391541 0.036484241
-0.01182789 -0.031605698 0.03738153
-0.0075059477 -0.031663802 0.037237704
0.026631277 -0.013973534 0.03676188
0.027534733 -0.011914226 0.033253253
-0.010914717 -0.032607377 0.032824337
-0.0065921629 -0.032705091 0.03298676
0.028499644 -0.014666262 0.030297637
-0.0054276846 -0.033580676 0.028150856
-0.00084359944 -0.033215806 0.028282285
-0.0041195787 -0.03417309 0.023269296
-0.00043647364 -0.033535812 0.023386776
0.0085396199 -0.032280222 0.02298373
0.0047090603 -0.03327322 0.018174231
0.013216169 -0.032217633 0.01926136
0.028455185 -0.025003498 0.017536283
0.014850858 -0.032382261 0.013336837
0.026404507 -0.029504823 0.012313902
0.027656756 -0.026188146 0.012580335
0.020152681 -0.032454994 0.0084459186
0.018215096 0.016605318 0.085023046
0.018092845 0.014673341 0.080702782
0.01698726 0.0096058166 0.076036811
0.017434528 0.013210474 0.0767501
0.016594898 0.01020058 0.071313381
0.017138433 0.0065811044 0.067304492
0.01775836 0.0046425508 0.06337291
0.018588955 0.0016557826 0.05899775
0.019433614 0.0013052057 0.053098738
0.020100646 -0.00081699714 0.048453569
-0.02178487 -0.024475399 0.047332704
0.021208163 -0.0038151881 0.046735406
0.02285796 -0.0019696355 0.044720054
-0.023290254 -0.025943071 0.042658985
0.02454209 -0.0034993179 0.040977597
0.025952486 -0.0065930178 0.036427379
0.027384292 -0.0069340011 0.03147316
-0.016871838 -0.031600021 0.030508339
-0.012683298 -0.032006342 0.030243278
0.028226027 -0.0094780931 0.027198315
-0.017072801 -0.031598233 0.027185321
-0.011948522 -0.031691667 0.026582956
-0.00821729 -0.032835148 0.026420057
0.028674338 -0.010899869 0.024100661
-0.010926259 -0.031398229 0.022283554
-0.0076292492 -0.032613833 0.022055268
-0.0010730904 -0.033063643 0.02000922
-0.0057984125 -0.032436505 0.017349005
-0.0021334579 -0.032473709 0.016288579
0.028961789 -0.017401844 0.011905193
-0.00055599585 -0.032317329 0.012240052
0.0082040448 -0.032672253 0.012272894
0.028722731 -0.02159309 0.010870218
0.017508224 0.015922654 0.073808551
0.017258838 0.013040476 0.069460154
0.017965959 0.013640532 0.064554572
0.018600855 0.011181409 0.060541272
0.018705977 0.0081805894 0.056362569
0.020021386 0.0062453412 0.051296651
0.02118095 0.0034143194 0.047714829
0.02355391 0.002382474 0.042685449
0.02496135 -4.4520013e-05 0.038449168
0.026359519 0.00088623073 0.035960972
0.026495613 -0.004275484 0.035649061
0.027837079 -0.00079617649 0.03333658
0.028728861 -0.0034681829 0.029147089
0.029197548 -0.005520544 0.024789214
-0.017684255 -0.028715659 0.022520542
-0.014582177 -0.030037425 0.023029029
0.028104074 -0.0097662844 0.019747853
0.028924501 -0.0070182132 0.021084487
-0.01313256 -0.030198451 0.018908083
-0.0091277566 -0.031721387 0.018697381
-0.012552878 -0.030793749 0.014718771
-0.0076036649 -0.032307498 0.014795303
-0.011059912 -0.032556292 0.011083722
-0.0075443722 -0.032738999 0.010564148
-0.00204268 -0.032836102 0.010302126
0.017814668 0.018108021 0.06769073
0.019770065 0.015583551 0.064048827
0.02058932 0.018114492 0.062443972
0.020151189 0.014160527 0.058782756
0.022094306 0.015723256 0.057730317
0.019985784 0.011812612 0.054037452
0.02203222 0.014785676 0.052935839
0.020829592 0.010428336 0.049377441
0.022506978 0.011954159 0.048159242
0.022746444 0.0063443636 0.045944214
0.023842474 0.010047231 0.043900013
0.023254292 0.0047757672 0.042951405
0.024651777 0.0076082842 0.039899886
0.026216319 0.0045095952 0.036400318
0.02909839 0.0030074092 0.031841874
0.030459747 0.006117411 0.030475676
0.030429441 -0.00083682779 0.027576327
0.031790838 0.0024565421 0.026956201
0.030743759 -0.0020035896 0.023116589
0.032256097 0.00044179428 0.022722542
0.029646652 -0.00349034 0.018488109
-0.018479038 -0.027652362 0.017028451
-0.016376488 -0.028302543 0.015972197
0.027576566 -0.0088222148 0.014437556
0.028177511 -0.0056028664 0.014232874
-0.015619328 -0.029472776 0.012170076
0.028128423 -0.010581934 0.010507345
-0.013963942 -0.031306233 0.008069098
0.023072364 0.017916366 0.050377369
0.024783535 0.020603335 0.048859417
0.023498628 0.016546171 0.047183633
0.026836338 0.018540043 0.044979513
0.024529502 0.014712545 0.042869925
0.027931068 0.016624678 0.041820884
0.031678632 0.016450403 0.04188031
0.025493596 0.011814817 0.038252234
0.028601537 0.014497253 0.037079453
0.032519847 0.015825305 0.036716461
0.026872572 0.0090766149 0.034182131
0.028967071 0.011780106 0.032388389
0.032246605 0.014283489 0.032325089
0.031626716 0.0095391478 0.029150546
0.03447704 0.010499664 0.028665066
0.032942392 0.0069175633 0.024431109
0.034589868 0.0099390503 0.024743915
0.032671638 0.0040481454 0.020003676
0.031473994 0.0020513041 0.01608634
-0.020985117 -0.026472757 0.015340209
0.028932288 -0.0019612228 0.011757076
-0.020530421 -0.026446801 0.010571599
0.025707295 0.020397587 0.046011329
0.032617923 0.018590553 0.037272692
0.033875797 0.014688714 0.029656053
0.033497047 0.010223542 0.022011518
0.031674422 0.0045558526 0.012677729
0.029317459 0.00067100953 0.008421123
0.030593349 0.0041925735 0.0086453557
