# .PCD v0.7 - Point Cloud Data file format
VERSION 0.7
FIELDS x y z
SIZE 4 4 4
TYPE F F F
COUNT 1 1 1
WIDTH 987
HEIGHT 1
VIEWPOINT 0 0 0 1 0 0 0
POINTS 987
DATA ascii
-0.015818678 -0.032130949 0.19265065
-0.032440405 -0.020339837 0.19019377
-0.024671225 -0.026979653 0.18979236
-0.018235909 -0.034370188 0.19020766
-0.032931242 -0.020610593 0.18691859
-0.025078539 -0.029195137 0.18532595
-0.019662783 -0.034792464 0.1853351
-0.0098540578 -0.028514918 0.19380769
-0.0086897761 -0.029533373 0.19368076
-0.033002038 -0.0099396966 0.19158134
-0.031010401 -0.012408773 0.19257021
-0.024625661 -0.01889745 0.19292378
-0.016676595 -0.026197709 0.19294068
-0.010076311 -0.032956891 0.19210577
-0.0066183154 -0.033846542 0.19085193
-0.034659185 -0.011490685 0.18937296
-0.030344818 -0.018323239 0.19197986
-0.024206264 -0.024131618 0.19148913
-0.012233664 -0.034851786 0.18806675
-0.007864574 -0.034883294 0.18732512
-0.035981692 -0.01259676 0.18591335
-0.032898046 -0.020375988 0.18407667
-0.026784742 -0.026745716 0.18448636
-0.013061244 -0.035151549 0.18272528
-0.03306045 -0.02021982 0.17952567
-0.02646766 -0.027837962 0.17959166
-0.018964175 -0.034477357 0.17879373
-0.032909155 -0.021266568 0.17562634
-0.027458694 -0.027875902 0.1747798
-0.01969425 -0.033921685 0.17524844
-0.029248757 -0.027953956 0.17183524
-0.025588017 -0.0079448558 0.19275752
-0.019697744 -0.01415806 0.19254637
-0.012544894 -0.021332489 0.19304973
-0.0093425829 -0.025391649 0.19339195
-0.0049337475 -0.028648783 0.19339651
-0.0014011934 -0.031021371 0.19181114
0.0011314861 -0.032840677 0.19046363
-0.031728834 -0.0056439526 0.1905168
-0.028798897 -0.010183307 0.19334489
-0.020954901 -0.017650431 0.19273603
-0.016882671 -0.022345845 0.19275412
-0.0034838691 -0.033989742 0.18944338
-0.00029976852 -0.034101166 0.18799871
-0.034116313 -0.0062441761 0.18693465
-0.0050305603 -0.03480538 0.18478042
-0.001271192 -0.034866109 0.18420365
-0.034923203 -0.0086355628 0.18282837
-0.035174295 -0.013644732 0.18140322
-0.01082211 -0.035274576 0.18068877
-0.006543654 -0.034836885 0.18054622
-0.035223305 -0.010693746 0.17879334
-0.012453594 -0.034953352 0.17604053
-0.0078301365 -0.03437075 0.17703074
-0.033821151 -0.019840974 0.1736151
-0.021483742 -0.032232165 0.17171463
-0.013781559 -0.034462422 0.17166597
-0.033164568 -0.019832056 0.1685898
-0.027495293 -0.027386814 0.16834182
-0.018690726 -0.032176223 0.16784549
0.0039037867 -0.02601268 0.19372836
-0.027777292 -0.00052557793 0.19121799
-0.024352966 -0.004412761 0.19257817
-0.019962486 -0.0077553866 0.19262958
-0.01333894 -0.014427067 0.19305417
-0.0050331829 -0.021226581 0.19317859
-0.0020517055 -0.024705142 0.1936588
0.0012337072 -0.028554983 0.19323835
0.0047015036 -0.031615816 0.19105157
0.0086311139 -0.03399501 0.18905276
0.011640745 -0.035705928 0.18858007
-0.035119426 0.004063529 0.18680859
-0.033037849 0.0012711044 0.18918371
-0.030837584 -0.0025561163 0.1907264
0.0025782902 -0.034535386 0.18683073
0.0068164635 -0.035221845 0.18539098
0.010994568 -0.036264732 0.18727455
-0.034892976 -0.00039969198 0.1851024
0.0009534061 -0.035180952 0.18236673
0.004877883 -0.035403501 0.18244195
-0.035342623 -0.0019249637 0.18066156
-0.034950633 -0.0049317451 0.18081957
-0.0042864513 -0.035348702 0.17850083
-0.0011836123 -0.035394713 0.17832303
-0.034825783 -0.0061230781 0.17619035
-0.0060585551 -0.034976464 0.17435801
-0.0019970108 -0.03510613 0.17360559
-0.035082478 -0.0082991822 0.17168999
-0.035105862 -0.011555078 0.17178854
-0.011920391 -0.034481943 0.16909593
-0.0073667085 -0.035298467 0.16925535
-0.035640974 -0.013221045 0.16626465
-0.020642074 -0.031040248 0.16522169
-0.012958569 -0.03440699 0.1647445
-0.0090803541 -0.035722591 0.16464293
-0.033419613 -0.019399405 0.16271585
-0.026727432 -0.025924433 0.16226798
-0.018124811 -0.032709345 0.16097775
-0.035133049 -0.016369976 0.15848166
-0.030098476 -0.022369122 0.1576978
-0.023220714 -0.029568974 0.15722626
0.015793364 -0.027721351 0.19447923
0.01876496 -0.031401858 0.19458318
-0.020218572 0.0032291813 0.1930989
-0.0085929465 -0.0096593359 0.19292185
-0.0017860574 -0.017295426 0.19285405
0.0026296666 -0.020678638 0.19310069
0.0062259622 -0.023459308 0.19348127
0.0099964803 -0.026376352 0.1926915
0.01356882 -0.029746726 0.19263077
0.016805591 -0.03315866 0.19250962
0.0198298 -0.035460558 0.19167864
-0.030161381 0.009074308 0.18980998
-0.028293464 0.0063612619 0.19096273
-0.025297791 0.0028448217 0.19214612
-0.021190662 -0.00038683321 0.19254696
-0.016498508 -0.0041735074 0.1920619
-0.011134862 -0.011091952 0.19282863
-0.0063038599 -0.016231051 0.19266975
-0.0037079011 -0.01804881 0.1922062
0.0092353523 -0.029456742 0.19083452
0.011557681 -0.032093655 0.1903674
0.015056045 -0.036038861 0.18913585
0.01845482 -0.038431086 0.18790662
-0.033508811 0.0080461372 0.18718037
-0.030460648 0.0053278981 0.18962818
0.0097107897 -0.035164628 0.18283105
0.012918001 -0.036939606 0.18444926
0.016692452 -0.03939604 0.18360147
-0.035264179 0.0063027255 0.18249387
-0.03544987 0.0018085986 0.18237615
0.0031787269 -0.034734838 0.17928562
0.0073665334 -0.03535407 0.17917207
0.013404805 -0.035902884 0.17986301
0.015801992 -0.038661525 0.17925715
-0.035827052 0.0050145937 0.17788059
-0.035566371 0.0010889061 0.17866749
0.0026110765 -0.034575418 0.1753307
0.0062662372 -0.035241865 0.17494357
-0.036142431 0.0040670857 0.17434174
-0.035449367 0.0002569221 0.17376727
-0.034935534 -0.003739926 0.17337015
0.00044669025 -0.034849819 0.17138973
-0.035391375 -0.0010144729 0.16915709
-0.034949578 -0.0046209963 0.17003378
-0.0049175769 -0.03543888 0.16681427
-0.0016931519 -0.035627045 0.16717824
-0.035517886 -0.0064785779 0.16531277
-0.0069086496 -0.035714548 0.16262814
-0.00285214 -0.036331031 0.16282412
-0.035824019 -0.0074262284 0.16046444
-0.035887208 -0.011999194 0.16002846
-0.01235134 -0.034220845 0.15812871
-0.007277702 -0.035115793 0.15754697
-0.035231911 -0.0132185 0.15522906
-0.030120246 -0.022199081 0.1548146
-0.023780229 -0.028018838 0.15422755
-0.013216454 -0.033478126 0.15348303
-0.033192322 -0.018328656 0.15084571
-0.027020331 -0.025512004 0.15096816
-0.019381519 -0.032265987 0.15014237
-0.03261302 -0.018584438 0.14687449
-0.027046567 -0.025706535 0.14652789
-0.020530842 -0.032473624 0.14533743
-0.024236301 -0.030319843 0.14163426
-0.019140752 -0.03483554 0.14076728
0.015412901 -0.020597558 0.19736052
0.0083826128 -0.016210129 0.19330269
0.011266774 -0.019288925 0.19452307
0.013896201 -0.023047553 0.19533375
0.017306685 -0.026327383 0.19531015
0.019470004 -0.029355051 0.1959011
-0.023631167 0.010607291 0.19217867
-0.021722779 0.0061895633 0.19352564
-0.017376129 0.0022669081 0.19323328
-0.013104239 -0.00072363392 0.19234246
-0.0089311628 -0.002974394 0.19248566
-0.0019163792 -0.0096655758 0.19263434
0.0011955197 -0.013252976 0.19263941
0.0049203071 -0.016684929 0.19285467
0.0095825633 -0.022730362 0.19349414
0.013304146 -0.025685379 0.19297248
-0.031279806 0.015741283 0.18824846
-0.029017016 0.012893913 0.18981618
-0.026121195 0.0085829701 0.19182584
-0.03365073 0.013805725 0.18581697
-0.032532893 0.011308168 0.18816093
-0.035623819 0.010924089 0.18143886
-0.035977066 0.0083688637 0.17988786
0.013256672 -0.036204878 0.17673722
0.016282551 -0.039117638 0.17600626
-0.035845459 0.011110747 0.17681748
-0.035961792 0.0081784306 0.17577514
0.0084488597 -0.035237655 0.17203856
0.012576395 -0.036108758 0.17220351
0.016311605 -0.038974311 0.17220953
-0.036512055 0.0062157288 0.17173865
0.0031449469 -0.03435149 0.16893718
0.0068831053 -0.034868114 0.16851482
-0.036180422 0.0053931698 0.1675573
-0.036162101 0.001400901 0.167647
0.0024524871 -0.03484226 0.16481048
0.0052242009 -0.035435323 0.16371131
-0.035876162 -9.4903633e-05 0.16352615
-0.035473287 -0.003395794 0.16226855
0.0009900108 -0.035481479 0.15970647
0.0044439714 -0.035659198 0.15980363
-0.035490606 -0.00086938962 0.15927696
-0.035557982 -0.0050090272 0.15850481
-0.0072589675 -0.034965266 0.15464538
-0.0021366961 -0.035584994 0.15612349
-0.03524581 -0.0063091218 0.15401122
-0.03578347 -0.0098390579 0.15303433
-0.010813694 -0.033855814 0.15121976
-0.0069478704 -0.034523368 0.15145275
-0.0031605288 -0.035284314 0.15177602
-0.035423886 -0.0069896625 0.15061146
-0.035363831 -0.011350974 0.14876631
-0.012260966 -0.034175929 0.14698535
-0.0082502887 -0.034231715 0.146476
-0.035265669 -0.013468982 0.14421323
-0.030027591 -0.021384144 0.14397687
-0.015415706 -0.034852926 0.14321792
-0.011612029 -0.034152962 0.14130241
-0.033407837 -0.018104373 0.13997859
-0.02741139 -0.025194535 0.13961783
-0.021926267 -0.03303289 0.13851669
-0.013324147 -0.035608433 0.13712713
-0.027255427 -0.024782106 0.1355077
-0.021283291 -0.032163382 0.13416961
-0.023142051 0.022833206 0.19775155
-0.021984722 0.021743059 0.19765702
0.014995928 -0.013595561 0.19544646
-0.030011199 0.022674538 0.19537002
-0.025816495 0.022234188 0.19526434
-0.02340669 0.020278221 0.19701961
-0.013948866 0.012113459 0.19226059
-0.011097465 0.0081537627 0.19252867
-0.0071583958 0.0047722966 0.19253999
-0.0039074682 0.0018160583 0.19269535
-0.00063113094 -0.0016576117 0.19257998
0.0024607731 -0.0053191734 0.19262135
0.0058313706 -0.0090331007 0.19295377
0.0090197185 -0.011790034 0.19238555
0.013170363 -0.014354442 0.19364077
-0.03123383 0.02377351 0.19156367
-0.028246071 0.020229833 0.19184226
-0.024480782 0.017313128 0.1912863
-0.020815056 0.014655384 0.19178092
-0.01753466 0.010644834 0.19261479
-0.014131116 0.0061400761 0.19284993
-0.01014832 0.0022835522 0.19256598
-0.035209417 0.025863115 0.18684521
-0.032837436 0.022731725 0.18738481
-0.030803584 0.018542148 0.18875125
-0.036460344 0.024625689 0.18395361
-0.034310073 0.021230483 0.1833258
-0.033394143 0.017743766 0.18408933
-0.034392882 0.020612728 0.17965162
-0.033927843 0.016451743 0.17928109
-0.034504775 0.01510543 0.17450386
0.014111809 -0.035958383 0.16900265
0.018221695 -0.037534148 0.16863409
-0.034935776 0.013271295 0.17031831
-0.036369655 0.008968059 0.16861692
0.0093855783 -0.034828458 0.16517746
0.013493532 -0.035329148 0.16527873
0.01835474 -0.037330359 0.16597861
0.020935435 -0.039248418 0.16523683
-0.036185898 0.0071563348 0.16507432
0.0088138422 -0.035245065 0.16187254
0.012000119 -0.035262659 0.16069913
-0.035768144 0.0066289995 0.16027603
-0.035323694 0.0031004958 0.1599642
0.0068256874 -0.03547417 0.15665668
0.010590006 -0.035594389 0.15737408
-0.035105772 0.0017359294 0.15603551
-0.034779705 -0.0021297187 0.15569502
0.0026117694 -0.034222923 0.15314287
0.0050396165 -0.035174873 0.15235242
-0.034805067 0.00048480928 0.15168437
-0.034537658 -0.0024568979 0.15153795
-0.00040894002 -0.034743812 0.14919418
0.0037949681 -0.035132758 0.14915144
-0.0346471 -0.0047657602 0.14729702
-0.03513689 -0.0085800905 0.14547151
-0.0061068786 -0.034751125 0.14523476
-0.0019339733 -0.034687512 0.14459884
-0.034618899 -0.0055365879 0.14284536
-0.035570726 -0.0095501672 0.1423158
-0.0073191319 -0.033942636 0.14051205
-0.0041527897 -0.034652915 0.1405496
-0.034497015 -0.011559707 0.13747898
-0.014546049 -0.034499146 0.13532579
-0.010093678 -0.034160685 0.13514033
-0.033911273 -0.013284007 0.13357437
-0.03081432 -0.021445494 0.13291758
-0.024303129 -0.027784728 0.13200191
-0.016206063 -0.034458242 0.1316894
-0.011972068 -0.03508582 0.13038659
-0.031433646 -0.021783831 0.1285764
-0.024024326 -0.027530542 0.12761945
-0.016948894 -0.033470877 0.12709761
0.014979113 -0.0022377865 0.19786027
0.012776714 -0.0033563902 0.19519162
0.014375117 -0.0069235577 0.19599235
0.016257999 -0.0098498296 0.19651181
-0.020529568 0.021052618 0.19334495
-0.016562287 0.018685987 0.19178781
-0.013065638 0.015872708 0.19149959
-0.0092962552 0.01233749 0.19223866
-0.0051905052 0.0084665818 0.19298592
-0.00043086498 0.0052835699 0.19348073
0.0066153612 -0.0012091862 0.19284877
0.0094146933 -0.0047543505 0.19315779
0.012507318 -0.0088793207 0.19319031
-0.039199345 0.029822778 0.18124121
-0.036918096 0.026754901 0.18143195
-0.035078861 0.02330262 0.180738
-0.037082687 0.026263688 0.17670813
-0.034933403 0.021802142 0.17700607
-0.036785621 0.02472919 0.17155391
-0.035308294 0.021527799 0.17219168
-0.034504801 0.017641939 0.17249858
-0.040989444 0.022986852 0.16674465
-0.035579454 0.019878834 0.16782272
-0.035132363 0.016426673 0.16822338
0.019382961 -0.037383046 0.16330701
-0.034919206 0.014994207 0.16370314
-0.034976214 0.011028804 0.16232902
0.014723632 -0.035588607 0.15865654
0.018140778 -0.037121367 0.15963757
0.021345321 -0.038730402 0.16009477
-0.034958705 0.013676239 0.15926906
-0.03462537 0.011068072 0.15738633
0.012859751 -0.035816893 0.15421358
0.017275307 -0.037573408 0.15532377
-0.035032976 0.0076266602 0.15385938
-0.034909569 0.0048602233 0.15359542
0.0084850518 -0.035144627 0.15061641
0.01189349 -0.034964427 0.14921388
-0.034775786 0.0037343008 0.14897871
0.0026475601 -0.033914968 0.14631817
0.0060001342 -0.035128672 0.1461257
-0.034408391 0.0020810068 0.14453322
-0.0342994 -0.0013355017 0.14507416
0.00080907717 -0.034414954 0.14269185
0.0042638006 -0.034640476 0.14078599
-0.03457284 -0.0026025306 0.1405071
-0.0022914167 -0.034601495 0.13796145
0.0020696837 -0.034131557 0.13806498
-0.034396898 -0.0038013747 0.13555902
-0.034167897 -0.0075688567 0.1355269
-0.0070454543 -0.033868432 0.13494956
-0.0035419017 -0.034874111 0.13358998
-0.03402435 -0.0090423888 0.13162452
-0.033871468 -0.013019003 0.13052276
-0.0081111491 -0.034671783 0.13008481
-0.0052411566 -0.034641147 0.12904108
-0.034274705 -0.010298701 0.12700647
-0.021761479 -0.027618611 0.12426448
-0.01485605 -0.033504762 0.12405068
-0.01101746 -0.035005383 0.12466437
-0.031236805 -0.021088168 0.1211316
-0.023363259 -0.026757859 0.1208064
-0.016133912 -0.032784756 0.1200788
-0.011554204 -0.034761563 0.12027991
-0.02751058 -0.023867017 0.11674708
-0.019456374 -0.029932147 0.11583078
0.013223846 0.0039616148 0.19720161
0.014615832 8.3047897e-05 0.19824755
-0.011610864 0.023071608 0.19483304
-0.0075874934 0.020989606 0.19337907
-0.0039274301 0.017807908 0.19344386
0.00013848115 0.013270541 0.1940833
0.0034236622 0.0091521153 0.193977
0.010663448 0.0027325889 0.1941613
0.012440538 -0.00064945314 0.19513461
-0.015118849 0.024758263 0.19341832
-0.013563992 0.021754649 0.1929588
-0.009605024 0.018967781 0.19226915
-0.0063848863 0.015915893 0.19247824
-0.0030612894 0.011793276 0.19305652
-0.037761737 0.032329187 0.18017292
-0.037821874 0.030579371 0.1733841
-0.037673853 0.027407818 0.1708537
-0.03866677 0.025216792 0.16656941
-0.036291208 0.022467811 0.16621178
-0.040074039 0.025642211 0.16231242
-0.035789315 0.020874821 0.16132233
-0.035022058 0.018157173 0.16116747
-0.035333853 0.020554733 0.15741685
-0.035123352 0.016771106 0.15677315
0.01825957 -0.037006918 0.15230286
-0.034853801 0.015057858 0.15191415
-0.03465949 0.011330882 0.15231615
0.013118341 -0.036146626 0.14682871
-0.034596168 0.01008854 0.14740312
0.011982356 -0.035548691 0.1430971
-0.034184624 0.0089149838 0.1427601
-0.034466863 0.0053740824 0.14219397
0.0098312804 -0.035649605 0.13864118
0.01292037 -0.037158947 0.13871789
-0.034766756 0.0025489554 0.13861406
-0.034629006 -0.00049271435 0.13762653
0.003696464 -0.034968846 0.13543612
0.0081894314 -0.037033729 0.13431036
-0.034571785 0.0022524949 0.13340592
-0.034791172 -0.0009113308 0.13354021
0.0027596485 -0.035388477 0.13053921
0.0061414447 -0.037692245 0.12985027
-0.034279209 -0.00256126 0.12933969
-0.034182187 -0.0063448679 0.12945592
-0.0026325993 -0.035052672 0.12698311
0.0015617982 -0.034882933 0.12638164
-0.034486875 -0.0039548371 0.12456959
-0.034646347 -0.0074038105 0.12493736
-0.0048957113 -0.035079818 0.12301016
-0.034654856 -0.0087407986 0.12034214
-0.034166958 -0.012529553 0.11971396
-0.0099281715 -0.035142154 0.11828035
-0.0058442904 -0.035058469 0.11773694
-0.034184411 -0.0099978754 0.11651814
-0.031697281 -0.019600321 0.11463642
-0.023584802 -0.027129741 0.11375386
-0.016187429 -0.032825395 0.11432493
-0.011033445 -0.034523591 0.11398768
-0.031743407 -0.020907022 0.11070949
-0.024742272 -0.027502455 0.11013722
-0.016256172 -0.032949939 0.10990298
-0.012469615 -0.033499029 0.11031932
-0.032107659 -0.02058981 0.1061303
-0.024982214 -0.027518176 0.10631973
-0.017658785 -0.03233825 0.10599768
-0.029728914 -0.022926658 0.10266995
-0.0024104975 0.026303887 0.19465262
0.013361844 0.010733761 0.19425878
-0.004559706 0.024137091 0.19362503
-0.0011419868 0.020679077 0.19362459
0.0014055213 0.017874304 0.19369507
0.010792917 0.0097508058 0.1932748
-0.037126485 0.032047801 0.16674364
-0.035522927 0.027441703 0.15836343
-0.035579652 0.024863575 0.1595017
-0.035187587 0.023420705 0.15417594
-0.035319138 0.022500606 0.14982224
-0.034489378 0.018832844 0.15006241
-0.03473419 0.01728515 0.14531493
-0.034169078 0.013501198 0.14455059
-0.034263104 0.01605618 0.14150524
-0.033960007 0.012369875 0.14079931
-0.0338609 0.010772778 0.1363048
-0.033680793 0.0069228634 0.13564658
-0.034232512 0.0097474763 0.13267142
-0.033586085 0.0058292728 0.13122559
0.010398132 -0.036995161 0.12925577
-0.033832945 0.0036044754 0.12651426
-0.034093134 0.00024425052 0.12595451
0.0041378774 -0.034237728 0.12301946
0.0072112186 -0.036473699 0.1238302
-0.034093492 0.0035626581 0.12372112
-0.034046605 -0.00053605996 0.12171352
-0.0013718102 -0.034430172 0.11955541
0.0023336262 -0.033153009 0.11992049
-0.034143113 -0.0024316628 0.11725032
-0.034496628 -0.0056697354 0.11654562
-0.0024334993 -0.034688186 0.11483103
0.001067061 -0.034122165 0.11415261
-0.033814635 -0.0070120832 0.11287308
-0.032828756 -0.010594717 0.11211836
-0.0045762965 -0.034240194 0.11061263
-0.033798054 -0.0089513203 0.10786086
-0.032968551 -0.011380889 0.1082164
-0.0097480975 -0.033213791 0.10644746
-0.0062605822 -0.034058191 0.10619259
-0.033055045 -0.013356641 0.10433793
-0.026583305 -0.024404181 0.1036514
-0.019588958 -0.028744457 0.10194159
-0.010997161 -0.033182263 0.10205662
-0.031428549 -0.018687086 0.099465966
-0.023456495 -0.025545623 0.098482251
-0.016144317 -0.031940099 0.097633898
-0.012836244 -0.033286151 0.098466694
-0.027883999 -0.023168053 0.094314754
-0.020381982 -0.02912177 0.094565451
-0.00024508778 0.026289567 0.19370484
0.0011850102 0.025452392 0.19339395
0.013093937 0.014817138 0.19332591
-0.036156595 0.033749599 0.16077226
-0.035843652 0.029785054 0.155586
-0.036696356 0.028479498 0.15243512
-0.035670079 0.025553836 0.15155268
-0.037845127 0.027496319 0.14855045
-0.035945587 0.024195984 0.14764202
-0.037304185 0.026937505 0.14399359
-0.036051936 0.023241159 0.14331156
-0.035207491 0.019749388 0.14226356
-0.035786308 0.022676796 0.13863328
-0.035023179 0.018185355 0.13873398
-0.035290889 0.017208386 0.13434547
-0.034560379 0.013388424 0.13458341
-0.033872198 0.012412295 0.12928176
-0.033134706 0.0088088177 0.12959635
-0.033536598 0.011090712 0.12578481
-0.033280484 0.0078462157 0.12520272
-0.033158623 0.0060375538 0.12006986
0.0051251967 -0.032955188 0.11721206
0.0098690707 -0.033782102 0.11819458
-0.033601593 0.004725866 0.11597306
-0.034035124 0.00097084604 0.11583865
0.0047136182 -0.033473372 0.11230159
0.0080900397 -0.03465689 0.11162627
-0.034548946 -0.002022963 0.1112169
-0.034095347 -0.0047383299 0.1099183
-0.0020810701 -0.034633137 0.10816872
0.0026835557 -0.034580886 0.10787183
0.007643085 -0.037711751 0.1073758
-0.034792542 -0.0020990074 0.10699862
-0.034249261 -0.0058092894 0.1065436
-0.0039175311 -0.034603935 0.10389149
0.00061634183 -0.034882661 0.10382247
-0.035110794 -0.0029477198 0.10358971
-0.034214377 -0.0073771384 0.10197192
-0.033536933 -0.011327371 0.10158283
-0.0093970224 -0.033770457 0.0994609
-0.0055997819 -0.035104893 0.099605143
-0.00034966692 -0.034911573 0.10035962
-0.033563901 -0.0079109529 0.097185791
-0.033140175 -0.011824777 0.096674562
-0.011254658 -0.03416945 0.095769763
-0.00713416 -0.034948375 0.094604433
-0.033471934 -0.013548942 0.092348874
-0.02942414 -0.021936767 0.091964245
-0.020763256 -0.029350527 0.091878891
-0.012589225 -0.034681421 0.091246843
-0.028904496 -0.022303417 0.087812185
-0.021288408 -0.029615546 0.087262034
-0.013866777 -0.034484088 0.086900294
-0.037202999 0.027264785 0.14184552
-0.036045812 0.026316814 0.13973173
-0.036932465 0.028210603 0.13539988
-0.03595024 0.025213426 0.13560534
-0.038812131 0.026366008 0.13326478
-0.036531158 0.024212653 0.13110858
-0.035142787 0.020086508 0.13097996
-0.035927411 0.022791853 0.12750024
-0.034322225 0.019408233 0.12682313
-0.032952055 0.016489927 0.12591571
-0.033198204 0.014163602 0.12218159
-0.033782523 0.012782949 0.11717808
-0.033500817 0.0087859137 0.11844069
0.010164897 -0.033385962 0.11487484
-0.033914648 0.011742043 0.11375457
-0.033581376 0.0080534574 0.11307234
0.0094769243 -0.035011008 0.11105204
-0.033474602 0.0060563125 0.1087687
-0.033018123 0.0035198862 0.10926014
0.0073026447 -0.03600103 0.10672307
-0.033819914 0.0014699344 0.10469598
0.0034648869 -0.034955166 0.10189217
0.0064475089 -0.036174279 0.10166174
-0.034219518 -0.0016909372 0.099446476
-0.034203626 -0.0040516322 0.099620104
0.002036145 -0.034768403 0.096954346
0.0057544662 -0.035737488 0.096388459
-0.03346597 -0.0049422774 0.095621824
-0.0034461617 -0.034759372 0.093445837
2.7474016e-05 -0.034248866 0.092757344
-0.033625569 -0.006556727 0.09086144
-0.033609726 -0.009857581 0.091130137
-0.010287451 -0.034845337 0.087745488
-0.0051235259 -0.034465857 0.0886724
-0.033786137 -0.007370593 0.086894929
-0.033316873 -0.011261589 0.086356461
-0.015272632 -0.032648843 0.083361506
-0.011661156 -0.034307487 0.084188879
-0.0069916667 -0.034352876 0.084081411
-0.033589032 -0.012296068 0.08186698
-0.028846489 -0.020711206 0.081858754
-0.020699047 -0.028032236 0.080860257
-0.011916268 -0.033790305 0.079983771
-0.033719435 -0.013715742 0.077912927
-0.02915949 -0.020710934 0.076925337
-0.021650625 -0.028241379 0.076556683
-0.013531591 -0.033646498 0.076065421
-0.02962645 -0.020943698 0.073214054
-0.02317813 -0.028595142 0.071934044
-0.036463484 0.024800196 0.12585485
-0.034947135 0.020545062 0.12407076
-0.035643443 0.024447817 0.12194455
-0.034383181 0.019917633 0.12065852
-0.033720851 0.016248718 0.1194824
-0.034075055 0.019817123 0.11597812
-0.034012262 0.016285475 0.11562681
-0.034116708 0.013666812 0.11133242
-0.033755429 0.013317841 0.10688114
-0.034025501 0.0088703306 0.10678524
-0.033385623 0.0066844206 0.10237253
-0.033309758 0.0037869923 0.10225618
-0.032986477 0.0069132661 0.097483516
-0.033061747 0.0029733703 0.097875357
0.0038170181 -0.03522924 0.094175637
0.00695037 -0.036011219 0.093501806
-0.032734312 0.0011242647 0.093484282
-0.033699546 -0.0029932428 0.092733026
0.0027171653 -0.034501202 0.090075076
0.0061209723 -0.036264744 0.0893538
-0.033916157 -0.0034847828 0.088528931
-0.0030796155 -0.034646958 0.085571468
0.00040827319 -0.034180127 0.085901856
0.0053491602 -0.035719343 0.085430562
-0.033980973 -0.0054876069 0.084394693
-0.0041291248 -0.034361914 0.081938028
-0.0018516853 -0.034410626 0.080659449
-0.034348525 -0.0075223418 0.08116132
-0.034247793 -0.01042533 0.079212964
-0.010432711 -0.034519266 0.07746172
-0.006405862 -0.034051154 0.076933801
-0.0029271115 -0.034148209 0.077033281
-0.034036797 -0.011463924 0.07484144
-0.012558366 -0.034123909 0.07386893
-0.0094760414 -0.034140468 0.072590053
-0.033569735 -0.013096433 0.071313143
-0.02971261 -0.020831743 0.070109785
-0.022181539 -0.02951722 0.069324613
-0.014425254 -0.032958344 0.069078922
-0.026386462 -0.024289811 0.066911697
-0.019008568 -0.03083986 0.066091299
-0.035801608 0.026202759 0.1188727
-0.035901368 0.025055727 0.11445224
-0.034693956 0.022317711 0.11461413
-0.036445744 0.024711566 0.11020768
-0.034454364 0.02088739 0.10988796
-0.033446111 0.017517649 0.10870647
-0.033792205 0.01984911 0.10574174
-0.033538841 0.016813969 0.1046527
-0.033813469 0.014232135 0.10039181
-0.033207368 0.010426752 0.10059047
-0.03434664 0.012903932 0.095238566
-0.033651136 0.009404907 0.096313417
-0.033848815 0.0080733234 0.091947019
-0.032756232 0.0038022781 0.091594398
0.0093785441 -0.036574483 0.088704884
-0.033729725 0.0069471821 0.08767575
-0.032592755 0.0034016846 0.086796999
0.0023755543 -0.033907134 0.083112895
0.0054999869 -0.035515964 0.083706498
0.0080374209 -0.037697431 0.084926903
-0.032886803 0.0016604606 0.082210541
-0.033227727 -0.0027937451 0.081123114
0.00067027099 -0.03422945 0.079122484
0.0053302115 -0.035510987 0.079180419
-0.033176228 -0.0032800324 0.077080131
0.00016722269 -0.033848457 0.074680626
-0.033882588 -0.004995767 0.072959304
-0.033810347 -0.0085940976 0.071107805
-0.0062347595 -0.033603456 0.070409775
-0.0019925106 -0.033906408 0.070581734
-0.034586564 -0.0061023366 0.069535494
-0.033512034 -0.009985446 0.068359435
-0.012243351 -0.032306209 0.065987825
-0.0072691562 -0.033273168 0.066345096
-0.033601351 -0.010532378 0.063972175
-0.028975017 -0.019623669 0.062788904
-0.021764936 -0.026403435 0.062193394
-0.012745495 -0.031796984 0.062292635
-0.0091584232 -0.032606155 0.062240899
-0.033600569 -0.012366464 0.06053412
-0.029014859 -0.01939054 0.058507085
-0.022241371 -0.026663894 0.058447123
-0.014008692 -0.030961238 0.058312297
-0.029263172 -0.020172214 0.054546595
-0.022981303 -0.027140826 0.053918362
-0.02367535 -0.028062098 0.049806476
-0.032599088 0.030546883 0.11009115
-0.035807773 0.024955899 0.10637707
-0.035040844 0.02329579 0.10676807
-0.034383822 0.026859269 0.10265493
-0.033760276 0.022646159 0.10233182
-0.033258617 0.02116248 0.097688615
-0.033964742 0.017869461 0.09867841
-0.034239605 0.016555637 0.093762338
-0.034378629 0.014517106 0.090354085
-0.033513043 0.011170249 0.088141322
-0.033186588 0.0097408108 0.084296763
-0.033011653 0.0056065982 0.083847165
-0.032895498 0.0084437588 0.080253959
-0.032856971 0.0051640524 0.079446912
-0.032793347 0.002953046 0.074762762
0.0024109157 -0.033422489 0.071503639
0.0059883939 -0.03435719 0.072261095
-0.033406116 0.0015127603 0.069636106
-0.033847198 -0.0014983248 0.071493506
0.0015580952 -0.03293407 0.067586005
0.0051694848 -0.032955389 0.067579091
-0.034083605 -0.0032300083 0.065891147
-0.0045222789 -0.03278131 0.062723875
-0.0013439711 -0.032999896 0.063474834
-0.033795401 -0.004721838 0.06206286
-0.034496583 -0.0085641732 0.061080813
-0.0062697902 -0.032391939 0.059362352
-0.0022251504 -0.032744095 0.059251606
-0.033286344 -0.0099097872 0.05731833
-0.01211841 -0.031295966 0.055264235
-0.0075660544 -0.031508207 0.054752469
-0.032943122 -0.011096874 0.052077413
-0.030472873 -0.01890064 0.052467883
-0.032167573 -0.015252096 0.047793448
-0.026955321 -0.023732586 0.048107684
-0.019528853 -0.031042056 0.04737705
-0.030157086 -0.020015616 0.042884588
-0.023609135 -0.02713255 0.042676568
-0.016855629 -0.032172032 0.0424366
-0.032157809 0.031701285 0.10319752
-0.034338508 0.027119521 0.10046309
-0.033991285 0.025148971 0.099194586
-0.034987845 0.026758261 0.096898913
-0.033809021 0.023663862 0.096141875
-0.035213299 0.026904309 0.09284246
-0.034314457 0.022991803 0.092235088
-0.034030072 0.018568594 0.090176344
-0.033878811 0.022250338 0.087554514
-0.033327654 0.017148752 0.087067664
-0.03271044 0.016344663 0.082822621
-0.032862619 0.012020673 0.081497788
-0.033075873 0.015704975 0.078686535
-0.03325801 0.011478633 0.078199744
-0.033670109 0.009888419 0.074011564
-0.032748383 0.0067045055 0.073809326
-0.033903059 0.0091012465 0.069387615
-0.033705711 0.0050747767 0.069590092
0.0036589447 -0.032024454 0.065876484
0.0078211175 -0.033142358 0.065721095
0.011326778 -0.034011904 0.066657841
-0.033977598 0.0037392667 0.06459713
0.0036534732 -0.03186363 0.06160599
0.0056076664 -0.032889664 0.061534762
-0.033261128 -0.001791222 0.059806466
-0.0040422231 -0.032024864 0.055736423
0.00017660297 -0.032706559 0.057809949
-0.032948524 -0.0029940512 0.05605799
-0.032680344 -0.0073804818 0.054086089
-0.006052956 -0.032087754 0.052758753
-0.0017564781 -0.033189587 0.052898586
-0.032978322 -0.008642273 0.050736368
-0.0072691021 -0.032500751 0.048787117
-0.0028010458 -0.03339636 0.047818065
-0.03329378 -0.010263803 0.046527982
-0.012140756 -0.032374665 0.044965208
-0.0084597962 -0.033051059 0.044158399
-0.034078613 -0.011497302 0.041312754
-0.031153094 -0.018059924 0.041108549
-0.018233009 -0.031090859 0.040544033
-0.010493546 -0.033452384 0.039772272
-0.030690147 -0.019735435 0.03750813
-0.023445999 -0.026654549 0.036971211
-0.015785281 -0.032859012 0.036031723
-0.011364563 -0.033516016 0.035533905
-0.023264006 -0.027430898 0.033021688
-0.017053826 -0.031835254 0.031676769
-0.032150153 0.03276559 0.092397749
-0.034947965 0.027534515 0.089287758
-0.034452789 0.025622698 0.088936925
-0.034631111 0.028227752 0.085659027
-0.03334859 0.025392875 0.084295928
-0.03253673 0.020714212 0.084132671
-0.032721296 0.023387633 0.079759002
-0.032565717 0.020079553 0.079900801
-0.033332489 0.018525131 0.075031936
-0.033827297 0.016192475 0.071030438
-0.033860326 0.013076966 0.071109056
-0.033615522 0.011310744 0.066129923
0.010162945 -0.032663468 0.062428534
0.013460976 -0.033697624 0.06189847
-0.033398785 0.0094108274 0.062274456
-0.032980025 0.0076054381 0.059830725
0.0089454316 -0.032748543 0.058555603
0.012958783 -0.034056321 0.058591843
-0.031918183 0.0046662046 0.057087898
-0.032721907 0.00079424493 0.057023525
0.0035148673 -0.031707995 0.054232657
0.0064834654 -0.032122072 0.053754032
-0.032195248 -0.00025823899 0.052625537
0.0023393137 -0.03266035 0.050156355
0.0045609577 -0.032867715 0.050003946
-0.031803031 -0.0017924681 0.047811806
-0.031949993 -0.0049887644 0.048078179
-2.9431656e-05 -0.033177823 0.045491815
-0.031842798 -0.0057207439 0.043088675
-0.0052901655 -0.032581732 0.04088974
-0.0023812698 -0.032944284 0.041810095
-0.032419592 -0.0072211148 0.038932979
-0.0070273951 -0.032903966 0.036788464
-0.033861488 -0.010101882 0.036101997
-0.012991575 -0.032577347 0.031712294
-0.0093602873 -0.033012554 0.032566309
-0.033447355 -0.010163501 0.03156811
-0.030099941 -0.018340357 0.029617012
-0.023182772 -0.025621001 0.02915132
-0.015270889 -0.03230026 0.028671741
-0.010473909 -0.032411948 0.030042112
-0.029539259 -0.017772177 0.024875164
-0.022845658 -0.02656031 0.024700463
-0.016455002 -0.031658411 0.023997903
-0.020842919 -0.029154118 0.02169925
-0.034364667 0.028756952 0.083165705
-0.032840788 0.026854007 0.081193745
-0.033254422 0.025414949 0.078503728
-0.033684537 0.0243604 0.074157596
-0.034741372 0.023316465 0.070466101
-0.033922337 0.019735968 0.069409013
-0.033394989 0.018649837 0.064756274
-0.032885291 0.014684604 0.064445019
-0.03307689 0.017342806 0.0599702
-0.033125598 0.01379116 0.060408592
0.01572106 -0.03415408 0.05575794
-0.032198962 0.011855445 0.055488765
-0.03152208 0.0087273037 0.054831803
0.0099503519 -0.031734802 0.052199423
0.0131618 -0.032971583 0.052384257
0.016550792 -0.034171809 0.051458359
-0.031510815 0.0070225755 0.050782442
0.0085203731 -0.032559507 0.048535645
0.011985468 -0.03338065 0.046611547
0.015654642 -0.033946805 0.047176838
-0.032038927 0.0048141768 0.045897603
-0.031884767 0.001839214 0.04691565
0.0025995038 -0.03214917 0.043330193
0.0057028588 -0.032722872 0.043911517
0.0098376973 -0.03382238 0.042743564
-0.032421537 0.004732498 0.04188174
-0.032016601 0.00025263242 0.041988671
0.0017732652 -0.032182727 0.039030254
0.0051780893 -0.032995775 0.037948489
0.0080200201 -0.033802856 0.037747622
-0.032371972 -0.0012017796 0.03700006
-0.031827487 -0.0041141594 0.037882268
-0.0015955269 -0.032317266 0.035256267
0.0029251156 -0.032251149 0.033880174
-0.033093125 -0.0024933098 0.031263351
-0.032873478 -0.0057717208 0.032573104
-0.0053883307 -0.032257322 0.031098485
-0.0025529675 -0.032427318 0.029976785
-0.033496525 -0.0085107274 0.028046191
-0.0081434567 -0.031952195 0.026153445
-0.03359855 -0.0097726611 0.023847759
-0.032446198 -0.013431066 0.023810029
-0.02554691 -0.020832997 0.023052335
-0.013525401 -0.03208036 0.022568166
-0.0094890445 -0.031636588 0.020837188
-0.029959235 -0.017795417 0.018625081
-0.023772636 -0.02528503 0.018794239
-0.015150495 -0.03164313 0.017354429
-0.030890856 -0.018446073 0.014141917
-0.024062676 -0.025932252 0.013117909
-0.016548451 -0.031208649 0.012888312
-0.033943217 0.025888292 0.065502405
-0.034326412 0.025491768 0.061952829
-0.033395864 0.021792848 0.062039316
-0.033588164 0.024499964 0.05752492
-0.032829326 0.020828189 0.057331622
-0.03283073 0.018218089 0.052964687
-0.032417186 0.015186465 0.052859664
0.018529614 -0.034774788 0.048056841
-0.031303104 0.013591236 0.048498809
-0.031218287 0.010450687 0.047661841
0.017864775 -0.034121331 0.044172764
0.021348687 -0.035510205 0.043569565
-0.031134747 0.013232543 0.045013189
-0.031744156 0.0087190876 0.043991327
0.011865065 -0.034139261 0.039549172
0.017111612 -0.034241196 0.040463626
0.02047186 -0.036251314 0.041275322
-0.032245122 0.0064013591 0.038687944
-0.032306787 0.0026500784 0.038670242
0.010779677 -0.033464886 0.035343528
-0.032492831 0.0060474584 0.034709871
-0.0322017 0.0022647129 0.034502149
0.0042537805 -0.033065204 0.032083035
0.0093154125 -0.03353342 0.031406343
-0.03285997 0.005126087 0.031114578
-0.032120094 0.0022787824 0.030103683
-0.00084897131 -0.03249703 0.028417706
0.0041677738 -0.031991273 0.02718842
-0.032489404 -0.00061769783 0.02545923
-0.032958385 -0.0044709602 0.026889384
-0.0021307133 -0.031662889 0.023956716
-0.032951701 -0.0053207502 0.021927774
-0.032208264 -0.010518776 0.020132303
-0.0069415392 -0.030840334 0.018211901
-0.0038379673 -0.031206381 0.019087493
-0.032353424 -0.0073867505 0.016735077
-0.031647559 -0.010925305 0.016730607
-0.0086896662 -0.031425372 0.014847279
-0.032085747 -0.011861864 0.012074471
-0.010144571 -0.031569183 0.0097075701
-0.032788571 0.029694837 0.06497407
-0.034372911 0.026314696 0.055947721
-0.034087639 0.025547601 0.051261127
-0.03249225 0.022453388 0.05155611
-0.034150258 0.024870208 0.046927035
-0.032295123 0.021163389 0.047298968
-0.031704262 0.016665179 0.046344638
-0.031513989 0.014585041 0.041907609
0.019049637 -0.034370109 0.037500858
-0.031461865 0.013514479 0.037489891
-0.031801797 0.010610288 0.038228154
0.013014538 -0.033645682 0.033542633
0.01752647 -0.034102499 0.033221424
0.019690566 -0.036689412 0.031181455
-0.032432307 0.0094391853 0.032324433
0.012056021 -0.033818893 0.029343665
0.016276075 -0.035100043 0.028022766
-0.032538619 0.0077153975 0.027698517
-0.032005478 0.003873474 0.026941657
0.0069756405 -0.031973366 0.02434808
0.010208598 -0.033338036 0.024489462
0.016513731 -0.037073225 0.023538291
0.017569922 -0.038427226 0.02365613
-0.032731522 0.0058149472 0.024091661
-0.031892776 0.0026317444 0.023209572
0.00011677202 -0.031266585 0.020572722
0.0047141565 -0.03128092 0.02051574
0.01002416 -0.033692405 0.021253943
-0.03209988 0.00022616424 0.019616246
-0.03223164 -0.0030676872 0.017962873
-0.00090622343 -0.031482369 0.016410649
0.0042005293 -0.031163137 0.016484737
-0.03165257 0.00015800819 0.015705109
-0.032038238 -0.0037961025 0.013865411
-0.003036743 -0.031232525 0.012194812
-0.032605454 -0.0053508105 0.010365307
-0.032715999 -0.010288114 0.0093330145
-0.033111617 0.030374359 0.05412513
-0.033994138 0.027505975 0.047566533
-0.034087218 0.027770005 0.043693304
-0.031835768 0.022582266 0.043916225
-0.034164663 0.026231371 0.041143715
-0.031675916 0.023465633 0.039450049
-0.03075121 0.01900666 0.040531516
-0.032098822 0.022266733 0.034828544
-0.031093359 0.017442763 0.035083532
-0.031105684 0.015279465 0.030844212
0.020303994 -0.035985075 0.026053786
-0.031964682 0.013884955 0.026681125
-0.032447539 0.01098747 0.025337696
0.015267173 -0.034714665 0.022965968
-0.032348663 0.0096344668 0.021340549
-0.031364877 0.0049587023 0.021537483
0.010517212 -0.033136085 0.018431187
0.015621405 -0.034848299 0.018982708
0.018622974 -0.037335087 0.019092679
-0.031705245 0.008286438 0.016886175
-0.031095076 0.0050188284 0.016374946
0.0055471584 -0.031537525 0.014238894
0.0096761659 -0.031985343 0.013332963
-0.031556979 0.002029663 0.011891365
0.0041853134 -0.031021146 0.0093672872
-0.033007264 0.031579006 0.042612433
-0.032678604 0.023014342 0.033670664
-0.032332905 0.022904076 0.028628111
-0.030560074 0.019295497 0.027813137
0.023740837 -0.032784633 0.024339318
-0.03198418 0.021507747 0.025679827
-0.031149192 0.018063024 0.023149788
-0.032625128 0.013695974 0.020597398
0.013729262 -0.0323736 0.014883459
0.017591894 -0.033503182 0.015331507
0.019960541 -0.033623293 0.013924181
-0.032677744 0.014118893 0.014852762
-0.03253828 0.0098568788 0.015022874
0.013003817 -0.0321551 0.01152432
0.016284635 -0.032229386 0.010984182
-0.032197561 0.0099675506 0.010300279
-0.031491708 0.0056221476 0.011290133
-0.031886313 0.023163188 0.022476077
-0.031029491 0.023242278 0.017467976
-0.031220883 0.019211147 0.017668724
-0.032072999 0.018097028 0.012727201
0.01884491 -0.032165848 0.0093407631
-0.032310359 0.015888775 0.0083933473
-0.031059561 0.025687955 0.018317699
-0.030574696 0.025226861 0.014940143
-0.030895784 0.024017345 0.010240793
-0.031581614 0.020726871 0.010337472
-0.030107908 0.027231647 0.012384534
-0.030390747 0.027212715 0.0092061162
