# .PCD v0.7 - Point Cloud Data file format
VERSION 0.7
FIELDS x y z
SIZE 4 4 4
TYPE F F F
COUNT 1 1 1
WIDTH 815
HEIGHT 1
VIEWPOINT 0 0 0 1 0 0 0
POINTS 815
DATA ascii
0.0185833 -0.038175523 0.19388017
0.010594445 -0.043427244 0.19001299
0.019469885 -0.040659558 0.19026446
0.011779123 -0.043973044 0.1870454
0.019732118 -0.041630995 0.1867668
0.0041196542 -0.036682241 0.1952002
0.012285498 -0.035576459 0.19583562
0.021385245 -0.031010389 0.19570318
0.028538615 -0.025723644 0.19427645
-0.0011748606 -0.041939922 0.19188532
0.0087753022 -0.040036667 0.19377691
0.02280212 -0.033292897 0.1941987
0.031080237 -0.029237671 0.19204909
0.034967769 -0.0258049 0.1901134
0.0090360828 -0.043624874 0.18979174
0.027613293 -0.034998786 0.1885767
0.032013182 -0.031930044 0.1876581
0.035643756 -0.028064556 0.18633723
0.010423296 -0.045264449 0.18553427
0.019367723 -0.041030582 0.18392962
0.027920663 -0.036148556 0.18399599
0.035438895 -0.029379144 0.18266505
0.010209754 -0.044056587 0.18064961
0.018697284 -0.039822876 0.17973122
0.027661899 -0.035903938 0.17929766
0.016133875 -0.024190038 0.19564071
0.031272542 -0.017176177 0.19465986
-0.0066850847 -0.038586564 0.19403803
-0.0041433033 -0.036783408 0.19439358
0.005643853 -0.032510471 0.19570264
0.014176075 -0.028719213 0.1955432
0.023227932 -0.023578338 0.19498584
0.027752122 -0.021908356 0.19423416
0.032603033 -0.020666454 0.19344997
0.037057735 -0.017576687 0.19254738
0.039272577 -0.014962509 0.19145325
-0.0069059525 -0.039895982 0.19155651
-0.0033806767 -0.040626779 0.19239908
0.035123453 -0.02246186 0.1909
0.037948046 -0.020551559 0.18880355
-0.0055790879 -0.041805062 0.18815792
-0.0022124005 -0.042132005 0.18639851
0.036751114 -0.025734659 0.18399554
0.038136855 -0.022115853 0.18425968
-0.0011109412 -0.042895757 0.1820707
0.036127638 -0.027201999 0.17966694
0.037423693 -0.023544602 0.18009058
0.0089864116 -0.043276481 0.17744654
0.018517744 -0.039473828 0.17598936
0.027634803 -0.035133164 0.17564812
0.034760352 -0.029033048 0.17608649
0.0091139749 -0.043070808 0.17326629
0.017983105 -0.040104765 0.17209834
0.026935231 -0.034747846 0.17161483
0.033990752 -0.029872082 0.17241079
0.018363236 -0.041123107 0.16824687
-0.0097198663 -0.031698324 0.1946637
-0.0067645768 -0.030804783 0.19475445
-0.0026954515 -0.028612075 0.19520685
0.0074907634 -0.025235701 0.1953432
0.016321272 -0.020416383 0.1949802
0.021252971 -0.018730763 0.1943751
0.025596244 -0.016695917 0.19446468
0.029842451 -0.014373149 0.19525781
0.034729145 -0.012988364 0.19447115
0.039040808 -0.010560227 0.19364893
0.042604953 -0.0087135229 0.19201961
-0.014197455 -0.03629053 0.19177756
-0.010035769 -0.035366826 0.1934146
-0.005742304 -0.033141192 0.19456404
-0.00059146248 -0.031591576 0.19472879
0.041195251 -0.013643795 0.19107291
0.042504746 -0.0096643129 0.18942052
-0.013219765 -0.038467795 0.18923014
-0.0096140616 -0.039110377 0.18968886
0.041232452 -0.016103655 0.18717748
0.043987997 -0.011357526 0.18429762
-0.012479817 -0.03919613 0.18535894
-0.0082842605 -0.040337153 0.1850909
0.038979836 -0.020111792 0.18147552
0.040901948 -0.016065588 0.18189868
0.044572867 -0.012315707 0.18199363
-0.0073572304 -0.040731546 0.17987776
-0.0036011441 -0.042531889 0.18047431
0.038632855 -0.022105437 0.17743096
0.040306747 -0.017438311 0.17740354
-0.0027854964 -0.041706104 0.17537248
0.036120817 -0.026900504 0.17374396
0.03744648 -0.023379875 0.1727373
-0.0014459593 -0.041847568 0.17188954
0.0089356191 -0.043057136 0.16957444
0.026298566 -0.034751952 0.16889146
0.034503594 -0.029316431 0.16944408
0.036208794 -0.025343109 0.16913316
0.0076504219 -0.042860329 0.16576844
0.017523089 -0.041143365 0.16559696
0.026915796 -0.035251055 0.16508949
0.033983551 -0.029548228 0.16437572
0.013127982 -0.042173497 0.16081935
0.022431403 -0.038732216 0.16078514
0.03037753 -0.032846134 0.15993759
0.017902829 -0.042166322 0.15642387
0.0085431412 -0.015776835 0.19628316
-0.016808011 -0.029994499 0.1944221
-0.012464344 -0.028804965 0.19537944
-0.0083136745 -0.027161703 0.19587463
-0.0042533204 -0.024909658 0.19629195
0.0052819056 -0.020001983 0.19538635
0.014234815 -0.016769562 0.19552296
0.018425016 -0.01375561 0.19444218
0.023031838 -0.01166979 0.19435233
0.027591763 -0.009839911 0.19494066
0.03277196 -0.0080239419 0.19423008
0.037009668 -0.0053037936 0.19363087
0.041036364 -0.0040738136 0.19218558
-0.016847 -0.033711586 0.19237921
-0.013135527 -0.031660765 0.19392383
0.043699462 -0.0075399121 0.18705204
-0.016961917 -0.037482318 0.18720725
0.044004709 -0.0091985567 0.18480337
-0.015170976 -0.037934411 0.18279123
0.041749336 -0.013647444 0.1785638
0.044382341 -0.011954823 0.17901149
-0.012329742 -0.039156031 0.1787039
-0.010104732 -0.039693937 0.17807412
0.041295163 -0.015518007 0.17506796
0.043959044 -0.013198214 0.17513311
-0.012502482 -0.039247517 0.17506781
-0.007870202 -0.040034741 0.17330787
-0.0051713269 -0.040941525 0.17229521
0.038621791 -0.020180162 0.17099112
0.040115155 -0.016683679 0.17059833
0.043432742 -0.01413737 0.17194784
-0.0075696483 -0.039721087 0.16913989
-0.0038815206 -0.040515266 0.1686509
0.037079275 -0.02234534 0.16624939
0.038924664 -0.019891484 0.16537556
-0.0023636511 -0.040650152 0.16448337
0.034898516 -0.026650161 0.16232827
0.036463786 -0.023640599 0.16229156
0.03898374 -0.020256493 0.16193625
0.0064489357 -0.042351879 0.1585542
0.030705098 -0.03203949 0.15699583
0.033798866 -0.028366994 0.15764332
0.035963755 -0.025397638 0.15900034
0.012087535 -0.043004658 0.15433872
0.025895705 -0.03569404 0.15407673
0.033165116 -0.02987059 0.15322456
0.017429123 -0.041622542 0.1503807
0.025246162 -0.035831094 0.14967018
0.017180385 -0.041412547 0.14644793
-0.015504938 -0.022448741 0.1952312
-0.01117446 -0.020772416 0.19514334
-0.0066231932 -0.019579215 0.19538298
-0.0019056741 -0.016870063 0.19537508
0.0072885342 -0.012825892 0.19565782
0.011623912 -0.010248385 0.19504488
0.015593106 -0.0078496514 0.19355726
0.020708729 -0.0057523046 0.19353604
0.025204195 -0.0038344143 0.19364223
0.029423788 -0.001948216 0.19340909
0.033854563 -3.6865473e-05 0.19388267
0.036945671 0.001659058 0.19339263
-0.023397021 -0.02910753 0.19267413
-0.019630954 -0.02740493 0.1941812
-0.015654325 -0.025869237 0.19539374
0.039059255 -0.001403369 0.19236618
-0.022297904 -0.031415977 0.18967998
-0.020484418 -0.030638549 0.19177333
-0.020523757 -0.035124678 0.18537521
-0.02090181 -0.03506837 0.17977965
-0.018681971 -0.035063781 0.17904314
-0.016921012 -0.036391512 0.17597264
-0.014905502 -0.037510127 0.17160296
-0.010650222 -0.038816024 0.17154542
0.040245369 -0.014568533 0.16828912
0.04190807 -0.011784161 0.16706967
-0.013492635 -0.038135469 0.16677874
-0.0099258777 -0.039373338 0.16673917
-0.0059305439 -0.040006656 0.16601279
0.039669871 -0.015203812 0.1630933
0.041313324 -0.013306179 0.16358575
-0.0091833221 -0.039754659 0.16165698
-0.0048025837 -0.040271305 0.1624825
0.037411146 -0.022013359 0.15961811
0.039404444 -0.01795825 0.15870655
-0.0079217041 -0.040287688 0.1583122
-0.0041874247 -0.040665846 0.15781018
-0.00022970699 -0.04122049 0.15763795
0.036633786 -0.022589415 0.15524623
0.038452342 -0.019308809 0.15470704
-0.0027298769 -0.041232683 0.15269873
0.0053976905 -0.041501779 0.15296656
0.034052767 -0.028067762 0.15131861
0.035317563 -0.024294732 0.15068981
0.0061167181 -0.041359305 0.14797097
0.022148322 -0.037300903 0.14678115
0.029782493 -0.032433964 0.1461435
0.033555374 -0.028566688 0.14623111
0.035666145 -0.025452722 0.14686054
0.011222191 -0.041483045 0.1431416
0.021169458 -0.037995201 0.14262873
0.029093962 -0.032330457 0.14139605
0.032985017 -0.029509194 0.14234087
0.016499229 -0.040584631 0.13819432
0.024581239 -0.035842061 0.13840771
0.017534675 -0.041353598 0.13519961
0.014300083 -0.0014608442 0.19457084
0.027942594 0.0040876186 0.19413224
0.031799346 0.0057422337 0.19468459
0.034810431 0.0056481869 0.19462276
-0.021868236 -0.020929057 0.19381499
-0.017504567 -0.018016025 0.19496265
-0.012648032 -0.016533475 0.19463897
-0.0087151937 -0.014835086 0.19491053
-0.004578976 -0.012605425 0.19536805
-0.00036993111 -0.0099528274 0.19529286
0.0093460428 -0.0057496312 0.19468439
0.013444427 -0.0042346036 0.1938858
0.017301347 -0.0020876001 0.19342741
0.022945376 0.0010651303 0.19341421
0.027463149 0.0020813635 0.19383585
0.030994458 0.0025920225 0.1938045
-0.025260422 -0.023876842 0.19223854
-0.022723552 -0.025483176 0.19370511
-0.024575897 -0.029595317 0.18847448
-0.022082891 -0.034229606 0.17394853
-0.019629333 -0.034856003 0.17441979
-0.021926776 -0.034204099 0.16980481
-0.018978423 -0.035511151 0.16906098
-0.016629647 -0.036308438 0.16614115
-0.014013851 -0.037642919 0.16170314
-0.011943186 -0.038782559 0.15918964
0.039960127 -0.014529265 0.15569639
-0.010035816 -0.03911959 0.15518564
-0.0067047412 -0.039687347 0.15447593
0.038916465 -0.01742819 0.1521925
-0.0095370868 -0.039221909 0.15011507
-0.0057469895 -0.040317334 0.15136987
0.036497094 -0.021045791 0.14883375
0.03847409 -0.017658591 0.14707944
-0.0047590099 -0.040170934 0.14613622
-0.00075878575 -0.04070513 0.14625734
0.036217544 -0.022766601 0.14426804
0.037909325 -0.018557614 0.14376819
-0.0036592484 -0.0403472 0.14247406
0.0041043395 -0.042739887 0.14127949
0.03340828 -0.028047238 0.13984337
0.035293657 -0.023515865 0.14013767
0.0054342048 -0.042426199 0.13666463
0.021559782 -0.036838949 0.1359624
0.028959014 -0.032673258 0.13571587
0.032579493 -0.028501689 0.1347003
0.035092704 -0.024720253 0.13584551
0.011008093 -0.042124886 0.13216698
0.020696791 -0.038622916 0.13167977
0.028082434 -0.032786544 0.13007575
0.03094352 -0.030153131 0.1302619
0.016014948 -0.0405562 0.12663531
0.025461789 -0.03485617 0.12701732
0.025777854 0.012027914 0.19641948
0.028867742 0.012718309 0.19709489
-0.028230051 -0.016811745 0.19663876
-0.025996611 -0.014183283 0.19648999
-0.022867108 -0.012329005 0.19575167
-0.014600224 -0.0091602951 0.19498718
-0.010591377 -0.0066693965 0.19436318
-0.0071738414 -0.006614699 0.19502029
-0.0028081294 -0.0049024252 0.19491574
0.0064477352 0.00045972539 0.19442919
0.011392129 0.0023901486 0.19431525
0.014917797 0.0042454284 0.19368562
0.019952271 0.0065214839 0.19371784
0.025163274 0.0086680166 0.19437277
0.029638924 0.0099589285 0.19525144
-0.027288312 -0.020028215 0.19358572
-0.02436986 -0.017532654 0.19464824
-0.020300625 -0.013721332 0.1946376
-0.015176334 -0.012590451 0.19429564
-0.010826252 -0.010045562 0.19443551
-0.0068849423 -0.0092848167 0.1947948
0.0035023042 -0.0039164796 0.19380084
0.008257485 -0.0031346162 0.19431275
0.011077648 -0.0018251126 0.1941283
0.016782749 0.0026485173 0.19270232
0.020926178 0.0028111171 0.19344777
-0.024021365 -0.033154368 0.17146379
-0.024055433 -0.034137439 0.16719323
-0.024083607 -0.034098785 0.16366673
-0.019598089 -0.034077778 0.16218579
-0.018162485 -0.034660604 0.15789691
-0.020418204 -0.039768275 0.15314937
-0.017168846 -0.035587274 0.15308392
-0.014348464 -0.036491275 0.15320718
0.038096193 -0.0099576339 0.14949048
-0.016995724 -0.036392782 0.14987403
-0.013541407 -0.037718065 0.14832738
0.039204776 -0.013180221 0.14430758
-0.010156012 -0.038279384 0.14455718
-0.0075887516 -0.039052814 0.14348662
0.036524311 -0.019446915 0.14118567
0.038534518 -0.016736405 0.14081761
-0.0053428533 -0.040057417 0.13996771
0.035817854 -0.020793272 0.13653931
0.037460227 -0.017825644 0.13653308
-0.0043680584 -0.040567767 0.13531548
-0.0012533125 -0.04154332 0.13501406
0.033531547 -0.025261298 0.13201374
0.035891585 -0.022675686 0.1327517
-0.00023779459 -0.042223122 0.13103998
0.032756634 -0.028218061 0.12868899
0.035448525 -0.024940997 0.12790763
0.0051555689 -0.042530712 0.1254437
0.020733999 -0.037246741 0.1242674
0.027952787 -0.032917537 0.12439054
0.031623766 -0.030076848 0.12359726
0.034775265 -0.02687192 0.12386078
0.010586781 -0.042236559 0.12159812
0.019563487 -0.038058676 0.12059045
0.027883381 -0.033121314 0.1197027
0.031198408 -0.030867934 0.11994815
-0.027192719 -0.0087796142 0.19834256
-0.023619277 -0.0060359081 0.19688296
-0.018923772 -0.0031071035 0.19615084
-0.014643224 -0.0011194628 0.19587088
-0.010457845 0.0011701088 0.19631669
-0.0060821055 0.0028557619 0.19531092
0.0034154449 0.006649971 0.19503948
0.0085535226 0.0086199762 0.19493952
0.012504103 0.011380803 0.19415507
0.016747478 0.013456399 0.19381776
0.021267151 0.014911739 0.19480363
0.025387574 0.015220356 0.19635445
-0.026321152 -0.009665234 0.19658121
-0.021756282 -0.0088612977 0.19561291
-0.017557953 -0.0068131327 0.19510403
-0.013325709 -0.0047609867 0.19477782
-0.0089222612 -0.0025393441 0.19507396
-0.0046608951 -0.00055010128 0.1947892
0.00033843331 0.0017082354 0.1944983
0.0057584378 0.0040185004 0.19471794
0.0094465772 0.0053522438 0.19469264
0.014322437 0.007664728 0.19407266
0.017903777 0.010524286 0.19388583
0.021847179 0.011219189 0.19427568
-0.024634214 -0.032723513 0.16048458
-0.02396878 -0.033163682 0.15596482
-0.021362739 -0.033621889 0.1555444
-0.022088233 -0.036124766 0.1532169
-0.020202126 -0.034772877 0.15184116
0.037175182 -0.0077265706 0.14593321
0.039037183 -0.005250995 0.14602831
-0.022058487 -0.036777925 0.14892077
-0.018887155 -0.036345471 0.14749825
0.038102891 -0.010181311 0.14586055
0.040658686 -0.0082284147 0.14329731
0.042689197 -0.0047942083 0.14152977
-0.018124854 -0.036813643 0.14228383
-0.013455051 -0.037129525 0.14219925
0.038702622 -0.012220037 0.13785213
0.041158162 -0.0097998325 0.13874558
-0.017233914 -0.038779296 0.13744462
-0.012692559 -0.036941689 0.13732836
-0.0081979968 -0.038453244 0.13722607
0.038275141 -0.014461862 0.13406438
0.041153233 -0.010031163 0.13412344
-0.011288322 -0.037227318 0.13275412
-0.0073746545 -0.039302513 0.1328395
0.03654753 -0.020257162 0.12935376
0.038166903 -0.016298616 0.13007909
-0.0056774924 -0.04019545 0.12877434
0.037035603 -0.021700464 0.12662756
0.037740182 -0.019256186 0.12512183
-0.0051029557 -0.04033082 0.12343121
-0.001045092 -0.041252624 0.1240837
0.036207497 -0.024179462 0.12235469
0.037618555 -0.021399772 0.12078416
-0.0043868264 -0.041392181 0.11999673
-0.00055635069 -0.041841526 0.11961198
0.009819163 -0.040847242 0.11751431
0.019846708 -0.036428731 0.11702698
0.026849046 -0.032909948 0.11637944
0.031884037 -0.028910985 0.11797529
0.03462784 -0.025325904 0.11718482
0.036991823 -0.022178467 0.11729038
0.0039851479 -0.041518882 0.11450469
0.01417336 -0.039437801 0.11377984
0.023378806 -0.034452338 0.11322719
0.030542161 -0.02882365 0.11278754
0.0090294816 -0.041420784 0.10870403
0.01931195 -0.037939321 0.10888302
0.027011316 -0.032554477 0.10837889
0.010838459 -0.042510629 0.10532767
0.01849282 -0.040034086 0.10389328
-0.023516139 -0.00018517021 0.19909576
-0.021232115 0.00052697072 0.19914186
-0.016452922 0.0033390224 0.19849664
-0.013864517 0.0052625868 0.19792247
0.010868945 0.016747061 0.19676328
0.015077347 0.017963018 0.19736031
0.018386967 0.01813153 0.19699493
-0.02434062 -0.0034720111 0.19790572
-0.019727284 -0.0011098832 0.19761062
-0.015240411 0.00045373989 0.19761029
-0.011152022 0.0029621029 0.19791368
-0.0070907655 0.0053560021 0.19644681
0.0018010871 0.010592019 0.19524014
0.0073208837 0.012696331 0.1946786
0.01157191 0.01381046 0.19534469
0.016064852 0.01530621 0.19538385
0.020339632 0.01738159 0.19596848
0.023404986 0.018185433 0.19611698
0.039594471 -0.0029994678 0.14628083
0.042153522 -0.001733087 0.14384586
-0.021280756 -0.035316564 0.14434633
0.042987507 -0.0033336235 0.1415976
0.043404207 -0.006918475 0.13738087
-0.018438023 -0.036774524 0.1374014
-0.015702724 -0.037196547 0.13643864
0.040919922 -0.0095778722 0.13088268
0.043649491 -0.0078214463 0.13229626
-0.018216744 -0.03729267 0.13235486
-0.014517721 -0.037089635 0.13161218
0.040892813 -0.011145025 0.1280843
0.043293916 -0.0082849208 0.12625951
-0.01233356 -0.036639437 0.12707412
-0.0093150567 -0.037368603 0.12562889
0.037824288 -0.015174671 0.12330306
0.039481383 -0.013293194 0.12378645
-0.008056975 -0.038701665 0.1220268
0.038574457 -0.018532041 0.11855024
0.039789177 -0.014659752 0.11924732
-0.0053543448 -0.040814042 0.11739326
-0.0025300151 -0.042048663 0.11705673
0.035817884 -0.023706852 0.11417031
0.038151827 -0.020447472 0.11418724
-0.0051980549 -0.0403626 0.11320943
-0.0017404081 -0.041084182 0.11267853
0.032006253 -0.027169731 0.11074424
0.034495506 -0.024878524 0.11074948
0.037092559 -0.021817904 0.10974997
-0.00025732256 -0.041406766 0.1079126
0.0074854149 -0.042370811 0.10823888
0.027659453 -0.032215238 0.1063506
0.031121455 -0.02898589 0.10667074
0.034258757 -0.026026133 0.10628343
0.0082131056 -0.041900165 0.10351241
0.019547746 -0.038105972 0.10203826
0.027427437 -0.032824565 0.10255361
0.030665688 -0.030121185 0.10237193
0.013181461 -0.040611491 0.098669291
0.023370788 -0.036394998 0.097392917
0.019949479 -0.038679112 0.095159352
-0.011806482 0.0083565824 0.19658816
-0.0050730994 0.012878982 0.19720671
0.0036424776 0.018147144 0.19595352
0.0076458901 0.019450834 0.19646189
0.0051285797 0.014920933 0.19437084
-0.018484389 -0.035975866 0.12817281
-0.018889626 -0.035521664 0.12484592
-0.015868688 -0.035158534 0.12383163
0.040684987 -0.010574341 0.12135351
0.04213855 -0.0087411683 0.12289238
-0.013380084 -0.035449903 0.1200242
-0.0098590888 -0.036918726 0.1193465
0.040444788 -0.012056403 0.1166364
-0.012082468 -0.036324788 0.11542231
-0.008840763 -0.038137294 0.11538106
0.039932597 -0.014123448 0.11216342
-0.0082366159 -0.037733115 0.11054385
-0.0036811549 -0.040296726 0.10964185
0.038251065 -0.019430634 0.10786885
0.039469253 -0.016010325 0.1067431
-0.0061889654 -0.038968805 0.1060521
-0.0029603438 -0.040805507 0.1058681
0.03492007 -0.023595192 0.10274363
0.03691414 -0.020203244 0.10333848
-0.0010484196 -0.041353032 0.10124707
0.03165894 -0.028537387 0.099517643
0.033741727 -0.024977207 0.099094033
-0.00066885632 -0.04072446 0.096923947
0.0078606158 -0.040998179 0.096918762
0.026805468 -0.032372586 0.095380187
0.030107437 -0.028433079 0.094955087
0.0079229549 -0.041123323 0.091625631
0.017285079 -0.03920991 0.092574
0.025489395 -0.032517724 0.090714753
0.012945258 -0.040603977 0.08722353
0.020626754 -0.03790348 0.08729887
-0.021357462 -0.033452932 0.12134022
-0.020625304 -0.033727851 0.11681044
-0.016865302 -0.034540519 0.11719328
-0.016034458 -0.035161521 0.1128428
-0.012317475 -0.036186587 0.11231643
0.041113097 -0.011200746 0.10968143
-0.014862228 -0.034866743 0.10874504
-0.011175595 -0.036631726 0.10832834
0.040548239 -0.012189099 0.10530233
0.042027988 -0.0094022481 0.10371745
-0.0095329294 -0.037560523 0.10414767
0.037805766 -0.017908126 0.10140294
0.039483983 -0.014148691 0.10047477
-0.0069752205 -0.038864616 0.1003145
-0.0044030342 -0.03976794 0.10017669
0.034848038 -0.022371231 0.096224904
0.036724336 -0.018329812 0.096782386
0.038787447 -0.014775653 0.0967623
-0.0033471342 -0.039604504 0.094968081
0.030584831 -0.027105795 0.091549873
0.033429794 -0.023987908 0.092607617
0.035380304 -0.019505236 0.093284249
-0.0012808237 -0.039970279 0.091206729
0.026505282 -0.031149002 0.087910354
0.029762391 -0.027981747 0.088217199
0.033211056 -0.023969414 0.08836019
0.0073040817 -0.040875159 0.085003853
0.01543631 -0.039173827 0.084275723
0.025194656 -0.032668583 0.084361851
0.0090128221 -0.040655695 0.081548572
0.016867483 -0.038218763 0.080508113
0.024577534 -0.033418067 0.080017924
-0.026338583 -0.031404793 0.12014705
-0.024619618 -0.031249546 0.12047553
-0.026905216 -0.032550912 0.11685443
-0.023527317 -0.032740373 0.11567926
-0.022023818 -0.033760879 0.11118948
-0.018297996 -0.034914605 0.10985786
-0.021731023 -0.033565406 0.10701734
-0.016893279 -0.033843853 0.1058991
0.041871667 -0.0089994567 0.10339063
-0.015637515 -0.034112658 0.10104424
-0.012915776 -0.036110993 0.10220397
0.040775158 -0.010884085 0.098479927
0.042387225 -0.0095303487 0.097441673
-0.011365081 -0.036802277 0.096883237
0.037443452 -0.01594577 0.093252897
0.039724387 -0.012897379 0.093658984
0.042576194 -0.0090751117 0.093669057
-0.0088756895 -0.03794428 0.09288311
-0.0050764838 -0.03913277 0.092545211
0.036628701 -0.017920785 0.090215981
0.038516026 -0.014527568 0.088499784
-0.007924879 -0.038456306 0.088578403
-0.0044348706 -0.03911281 0.088187575
0.034060705 -0.022498909 0.085766673
0.036716323 -0.019012481 0.085264444
-0.0030205222 -0.039489795 0.083989263
0.029146062 -0.027769754 0.082274914
0.03263041 -0.024236571 0.081956744
0.036209229 -0.020552579 0.080499172
0.0072499476 -0.040851194 0.079170287
0.015501686 -0.037911013 0.077283263
0.024522226 -0.032449696 0.07707572
0.031862624 -0.025389884 0.076785505
0.034600094 -0.022956189 0.07750535
0.007010431 -0.041333631 0.074830651
0.01633605 -0.03817289 0.073663235
0.024459019 -0.032077689 0.073132575
0.030984435 -0.027234208 0.073613524
0.012080859 -0.040907696 0.069431126
0.020359373 -0.035711091 0.068866313
0.012604646 -0.040402353 0.066123903
0.019284617 -0.03760368 0.065922856
-0.023141041 -0.031016514 0.10285127
-0.020095138 -0.031801552 0.10320985
-0.022417424 -0.031019101 0.10003769
-0.01925214 -0.032161269 0.099685788
-0.017528716 -0.033449579 0.095335364
0.04062438 -0.010901119 0.090450525
0.041481793 -0.008572693 0.091003001
-0.016442958 -0.03462635 0.090651512
-0.01303608 -0.036033534 0.090089679
0.039088614 -0.011547319 0.087482393
0.040601421 -0.0086787771 0.087820053
-0.011583223 -0.036417089 0.08551842
0.03850662 -0.013683533 0.082832098
-0.010176994 -0.03700557 0.080455959
-0.006776426 -0.037500475 0.080360353
0.036413215 -0.018737197 0.076877356
0.037991706 -0.016053833 0.07734561
-0.0047009178 -0.038299147 0.076526225
0.032935686 -0.023396192 0.073293686
0.035206407 -0.020295583 0.073634028
0.037433397 -0.017062569 0.073869228
-0.0031965692 -0.039454974 0.071429372
-0.00017033424 -0.039700169 0.071571052
0.028639507 -0.027426805 0.069680393
0.031718597 -0.024428841 0.069385827
0.033907916 -0.02170633 0.069220364
0.0048534861 -0.040721659 0.066135943
0.024423944 -0.031652994 0.066238284
0.030871678 -0.025279768 0.065947354
0.0065625058 -0.040465951 0.062581837
0.015537241 -0.038410477 0.061842799
0.02333371 -0.032214515 0.061553001
0.011505352 -0.039579641 0.058457315
0.018672746 -0.036916874 0.056959987
-0.025208116 -0.030640155 0.10103774
-0.024519304 -0.03117767 0.097329617
-0.023056917 -0.032117918 0.092999578
-0.020049244 -0.033209886 0.093186319
-0.02226728 -0.032776445 0.089235127
-0.019196549 -0.034113966 0.088613808
0.041022193 -0.006123215 0.084383905
-0.017727282 -0.034510206 0.083621025
-0.014238319 -0.03539566 0.084226489
0.038346052 -0.0099810418 0.08005023
0.039688744 -0.0071335463 0.079337597
-0.0164777 -0.035005249 0.079234838
-0.013230456 -0.036188308 0.080005825
0.03858719 -0.010859603 0.07567203
0.040976662 -0.0086645074 0.07529074
-0.011906485 -0.036653053 0.074886084
-0.0085173734 -0.037392125 0.075092733
0.038383882 -0.013834436 0.071413159
-0.011055577 -0.037549168 0.070722222
-0.0073180078 -0.03856796 0.071202397
0.035590366 -0.018929005 0.068202853
0.037216499 -0.015744489 0.067171216
-0.0059445649 -0.039117567 0.066141546
-0.0014506327 -0.039481003 0.065380335
0.028039752 -0.027180783 0.062467873
0.031372171 -0.02453498 0.063117862
0.034654923 -0.020770658 0.063874602
-0.0049065817 -0.03906865 0.061978221
-0.001131339 -0.039639778 0.061465025
0.024426538 -0.030819668 0.058722436
0.03168527 -0.024973158 0.059172332
0.034368604 -0.022434726 0.059100628
0.0055797147 -0.040480264 0.056720376
0.015399766 -0.037708975 0.054525018
0.02358013 -0.032496959 0.055542767
0.031429555 -0.026102548 0.055595279
0.010208506 -0.038950887 0.052689373
0.019632995 -0.03550997 0.050940037
0.027184058 -0.030292623 0.051171482
0.018149776 -0.036526918 0.047119737
-0.022671247 -0.032344617 0.085759997
-0.022648096 -0.032881603 0.082079411
-0.02073423 -0.033177041 0.081802666
0.040961534 -0.0043498389 0.077637613
-0.022988539 -0.032702237 0.077752948
-0.01928496 -0.033837881 0.076964676
0.041891228 -0.008262069 0.072614789
-0.018732965 -0.034131039 0.072813749
-0.014737853 -0.035792764 0.072110116
0.040118843 -0.0088222157 0.06883353
-0.017626666 -0.035075366 0.069023252
-0.013540774 -0.036043491 0.067486882
0.038288314 -0.012966418 0.064848304
0.040100347 -0.008499492 0.065077007
-0.01207037 -0.036441199 0.063243687
-0.0088688377 -0.038030796 0.063120008
0.035564091 -0.017529573 0.06031388
0.037050307 -0.013383153 0.060670376
-0.01212201 -0.037195224 0.059441745
-0.007160265 -0.03838075 0.058701098
-0.0034800265 -0.038716525 0.0579741
0.035320155 -0.019403182 0.056506693
0.036330897 -0.015238808 0.055650175
-0.0067905299 -0.038456634 0.053653419
-0.0029021278 -0.038894825 0.053699195
0.031703956 -0.025037352 0.05202955
0.034588128 -0.020638518 0.051782131
-0.0015326254 -0.039595421 0.049065053
0.0087938141 -0.037315663 0.048032403
0.027963471 -0.028511599 0.04811132
0.030849677 -0.024922045 0.047571361
0.03400033 -0.021892438 0.046922684
-4.1900203e-06 -0.04003799 0.04436481
0.0088284332 -0.037780032 0.044212341
0.019663913 -0.034882523 0.044917107
0.026620392 -0.02858031 0.042595983
0.029590722 -0.025869582 0.043141127
0.013822653 -0.037482958 0.039190233
0.022724893 -0.032185409 0.039250493
0.01785161 -0.0369201 0.0346995
-0.023474151 -0.032114938 0.074092031
-0.023264404 -0.033149723 0.069757164
-0.021235285 -0.033525743 0.070616484
-0.019695833 -0.034847744 0.066184044
0.040059555 -0.0084983893 0.062993228
-0.018274505 -0.034861326 0.061472535
-0.014920709 -0.035626959 0.06209904
0.037879508 -0.011487054 0.058068693
0.039086059 -0.0084641436 0.058529019
-0.017080465 -0.036432464 0.057392538
-0.013604579 -0.036949396 0.057352841
0.037883826 -0.012498612 0.053982019
-0.012446612 -0.036581233 0.052941442
-0.0093018468 -0.038289122 0.052770019
0.035564102 -0.018199112 0.049372375
0.036719702 -0.014771115 0.049545169
-0.0078208502 -0.038654696 0.047989964
0.03072877 -0.024202004 0.04426229
0.035363369 -0.01940567 0.046065509
0.036872372 -0.017180439 0.046863616
-0.0058190748 -0.038966622 0.044893503
-0.0031009996 -0.039578743 0.043678164
0.028386623 -0.027450781 0.040876865
0.031017847 -0.02365588 0.041102231
0.033141483 -0.021518577 0.041802108
-0.0012476975 -0.039096694 0.039348662
0.0081906803 -0.039045606 0.037647247
0.023784205 -0.03166334 0.037570715
0.03018103 -0.025583135 0.036750078
0.0082323439 -0.038611967 0.034547865
0.017557837 -0.036381528 0.03267926
0.025493924 -0.029617807 0.033611774
0.027852491 -0.026700871 0.032682955
0.012807986 -0.038076788 0.029799044
-0.019642707 -0.034628578 0.058389187
-0.019017164 -0.035139009 0.054772854
-0.015833165 -0.03560685 0.053976595
0.039416198 -0.0097257057 0.051236212
-0.017942369 -0.035438068 0.050060213
-0.014464304 -0.035925455 0.050004125
0.037750605 -0.012498957 0.047652423
0.038967628 -0.010671634 0.046161652
-0.01767255 -0.036587134 0.045758724
-0.013889658 -0.036930062 0.045759082
0.036442049 -0.015363734 0.042767167
0.038641103 -0.011274364 0.042028606
-0.013737964 -0.037832059 0.041219831
-0.0084672049 -0.038012628 0.040939331
0.033481017 -0.019184921 0.038452089
0.035616502 -0.014404728 0.037939131
-0.012780693 -0.038337346 0.038016081
-0.0080542285 -0.037933633 0.036483347
-0.0032234676 -0.038463999 0.036384463
0.032515369 -0.021031797 0.034403205
0.034823336 -0.017228283 0.033570349
-0.0066812262 -0.038318455 0.033484578
-0.0031190803 -0.038352501 0.032129467
0.0059793862 -0.037312027 0.030928493
0.025147807 -0.028164994 0.029614866
0.028963666 -0.02523694 0.029701054
0.032437313 -0.021253096 0.02968049
-0.0016173134 -0.039184112 0.027746141
0.0072822929 -0.037980016 0.026893854
0.017218672 -0.034706805 0.025923014
0.024809336 -0.028508868 0.025721133
0.028905511 -0.025412768 0.025185406
0.031566259 -0.023030017 0.026573658
0.007128201 -0.038050488 0.022603869
0.01658209 -0.035536807 0.021662414
0.024898171 -0.029620964 0.021562755
0.027889647 -0.027612053 0.02166003
0.016391456 -0.0372044 0.016251922
0.015888896 -0.038477656 0.012828231
-0.017838318 -0.03686928 0.040620685
-0.015747618 -0.037708625 0.038733363
0.036181722 -0.013710289 0.035428464
0.038061723 -0.011602159 0.036449671
-0.014179759 -0.037620544 0.034872115
-0.0097130667 -0.037538625 0.034049273
0.036603838 -0.015002463 0.032326877
0.039879195 -0.013331703 0.031686187
-0.0090741152 -0.036791321 0.029353261
-0.005036491 -0.038368467 0.029756308
0.033584692 -0.019023206 0.027149916
0.035805233 -0.0161977 0.027229548
0.040282581 -0.013309001 0.026954055
-0.0072866464 -0.037870396 0.025412083
-0.0042980295 -0.038869224 0.025670052
0.030092444 -0.024078293 0.022669554
0.032764543 -0.021192715 0.023023963
0.034514859 -0.017090704 0.022633433
-0.0021909606 -0.038644187 0.020648718
0.0060411887 -0.03787823 0.01995343
0.029387485 -0.02577132 0.019223392
0.032370739 -0.022399178 0.017994642
0.0067623355 -0.037246883 0.015943527
0.017858526 -0.034206867 0.016371965
0.024804115 -0.029880501 0.015262246
0.028845906 -0.026894154 0.015099704
0.031604577 -0.023953492 0.014397383
0.017348127 -0.03638104 0.010802627
0.013020896 -0.038649045 0.0065778494
-0.01497372 -0.03626046 0.03138423
-0.014841913 -0.035013035 0.027180552
-0.011753154 -0.035731483 0.027651548
0.035436578 -0.014801318 0.023208201
0.039948702 -0.012520726 0.024918497
-0.013537661 -0.036243234 0.02426821
-0.010207656 -0.036947817 0.023731709
0.035984509 -0.014834033 0.020525157
0.038737405 -0.011438409 0.020196378
-0.0097228726 -0.037763588 0.018866539
-0.0047889454 -0.038095351 0.018820226
0.033655405 -0.019912101 0.016030073
0.034953609 -0.016745292 0.016424
-0.0090359915 -0.038238548 0.014854312
-0.0042709 -0.038315669 0.014197588
0.0059455549 -0.036307469 0.012091219
0.030052138 -0.024696339 0.012342453
0.032990161 -0.02152803 0.012088537
0.034922253 -0.018792327 0.012240291
-0.0029521715 -0.03875633 0.0095034838
0.0060173748 -0.037294097 0.010141313
0.024193015 -0.028341254 0.008048892
0.028292354 -0.0251012 0.007743001
0.030986853 -0.022738922 0.0088175535
-0.015562887 -0.034788515 0.02135253
0.038612656 -0.0093946159 0.016526282
-0.01475896 -0.034495905 0.015916228
0.036133524 -0.013684511 0.013284504
0.037513264 -0.011398437 0.013468504
-0.010172612 -0.037122011 0.011184633
0.035794619 -0.015796099 0.0089244246
0.037398409 -0.011279627 0.010053515
-0.0091241924 -0.037107736 0.007853508
-0.0058111921 -0.038133107 0.0070536137
0.038062192 -0.0082141189 0.011009872
-0.015519234 -0.03356709 0.0094128847
