# .PCD v0.7 - Point Cloud Data file format
VERSION 0.7
FIELDS x y z
SIZE 4 4 4
TYPE F F F
COUNT 1 1 1
WIDTH 815
HEIGHT 1
VIEWPOINT 0 0 0 1 0 0 0
POINTS 815
DATA ascii
0.03177787 -0.028158065 0.19388017
0.026406879 -0.036067225 0.19001299
0.033547569 -0.030113732 0.19026446
0.027710244 -0.03611812 0.1870454
0.03416159 -0.030910866 0.1867668
0.017843748 -0.032313444 0.1952002
0.024964841 -0.028166907 0.19583562
0.031624552 -0.020466086 0.19570318
0.036210254 -0.012844294 0.19427645
0.014964282 -0.039197031 0.19188532
0.02342869 -0.033630893 0.19377691
0.03380705 -0.022032633 0.1941987
0.039903164 -0.015118195 0.19204909
0.042181112 -0.010459036 0.1901134
0.025042767 -0.036846168 0.18979174
0.038904812 -0.021767516 0.1885767
0.041795421 -0.017248604 0.1876581
0.043670379 -0.012287993 0.18633723
0.026951823 -0.037830073 0.18553427
0.033595167 -0.030495608 0.18392962
0.039628781 -0.022712138 0.18399599
0.043984182 -0.013580911 0.18266505
0.026292309 -0.036795877 0.18064961
0.032513592 -0.029636402 0.17973122
0.039296106 -0.022585163 0.17929766
0.024162883 -0.016174516 0.19564071
0.035465099 -0.0039012358 0.19465986
0.0085902261 -0.038207613 0.19403803
0.010248489 -0.035569012 0.19439358
0.017655458 -0.027875949 0.19570264
0.024087353 -0.021108145 0.1955432
0.030482851 -0.012894602 0.19498584
0.034023583 -0.0096204057 0.19423416
0.038029984 -0.0066166762 0.19344997
0.040963188 -0.0020573605 0.19254738
0.042009033 0.0012054052 0.19145325
0.0088872612 -0.039501872 0.19155651
0.012423856 -0.038827978 0.19239908
0.041045621 -0.0073108897 0.1909
0.042924166 -0.0044650771 0.18880355
0.010843699 -0.040757868 0.18815792
0.014079228 -0.039771546 0.18639851
0.043801829 -0.0097116847 0.18399554
0.043697231 -0.005838044 0.18425968
0.015389118 -0.040055651 0.1820707
0.043787338 -0.011305923 0.17966694
0.043585114 -0.0074309502 0.18009058
0.024863552 -0.03654331 0.17744654
0.032214142 -0.029382629 0.17598936
0.038976111 -0.021883434 0.17564812
0.043224845 -0.01352083 0.17608649
0.024902698 -0.03630447 0.17326629
0.031961653 -0.030170137 0.17209834
0.038182333 -0.021795161 0.17161483
0.042834908 -0.014590509 0.17241079
0.03270255 -0.030965494 0.16824687
0.003150437 -0.033005066 0.1946637
0.0055388249 -0.0310486 0.19475445
0.0084590949 -0.027465615 0.19520685
0.016577847 -0.020448159 0.1953432
0.0228919 -0.012616398 0.1949802
0.026803136 -0.0091718091 0.1943751
0.030037098 -0.0056297565 0.19446468
0.033071198 -0.0018588472 0.19525781
0.037055977 0.001290584 0.19447115
0.040110223 0.0051838923 0.19364893
0.042696364 0.0082539637 0.19201961
0.00077104568 -0.038961209 0.19177756
0.0042624548 -0.03651521 0.1934146
0.007377387 -0.032815956 0.19456404
0.011543131 -0.029413152 0.19472879
0.043280698 0.0031595137 0.19107291
0.04296764 0.0073371995 0.18942052
0.0025075153 -0.040598594 0.18923014
0.0060846563 -0.039812416 0.18968886
0.044256419 0.00090113841 0.18717748
0.044985946 0.0063404888 0.18429762
0.0034698602 -0.040988319 0.18535894
0.0077826995 -0.040436916 0.1850909
0.043709122 -0.0036639366 0.18147552
0.043936506 0.00080982782 0.18189868
0.045892976 0.0056790672 0.18199363
0.0087900907 -0.040446531 0.17987776
0.012949224 -0.04067244 0.18047431
0.044151485 -0.0056386087 0.17743096
0.043911934 -0.00068617798 0.17740354
0.013386772 -0.039597381 0.17537248
0.043665662 -0.011029989 0.17374396
0.043543126 -0.0072700419 0.1727373
0.014678476 -0.039215453 0.17188954
0.024732688 -0.036360096 0.16957444
0.0375957 -0.022042593 0.16889146
0.043096077 -0.013880898 0.16944408
0.04315095 -0.0095574744 0.16913316
0.023470003 -0.036670092 0.16576844
0.031934109 -0.031305719 0.16559696
0.038356949 -0.022267498 0.16508949
0.042704325 -0.014294062 0.16437572
0.028267773 -0.033939373 0.16081935
0.03554609 -0.027199779 0.16078514
0.040634848 -0.018720895 0.15993759
0.03267641 -0.032105487 0.15642387
0.013930365 -0.011306576 0.19628316
-0.0040501803 -0.034143452 0.1944221
-0.00049236976 -0.031382218 0.19537944
0.0027134987 -0.028275646 0.19587463
0.0056029577 -0.024641199 0.19629195
0.012534272 -0.016458124 0.19538635
0.019568687 -0.010045627 0.19552296
0.02228654 -0.0056575797 0.19444218
0.025744479 -0.0019675782 0.19435233
0.029257037 0.0014680168 0.19494066
0.033347972 0.0051281275 0.19423008
0.036222149 0.0092629185 0.19363087
0.039471641 0.011940223 0.19218558
-0.0026637334 -0.037592515 0.19237921
-1.9595027e-05 -0.03427748 0.19392383
0.043258436 0.0097570866 0.18705204
-0.0013269074 -0.04112019 0.18720725
0.044175185 0.0083415117 0.18480337
0.00050071441 -0.040852509 0.18279123
0.043794006 0.003368184 0.1785638
0.045578845 0.0059395675 0.17901149
0.0035931673 -0.040893845 0.1787039
0.0058546569 -0.040539332 0.17807412
0.044090241 0.0014662053 0.17506796
0.045663595 0.0046288352 0.17513311
0.0034685861 -0.041044474 0.17506781
0.0080495123 -0.039999075 0.17330787
0.010889957 -0.039804019 0.17229521
0.043404497 -0.0038641207 0.17099112
0.043446139 -6.230548e-05 0.17059833
0.045536757 0.0035597626 0.17194784
0.0082071591 -0.039594278 0.16913989
0.011918463 -0.038916621 0.1686509
0.042807974 -0.0064547807 0.16624939
0.043573841 -0.003481511 0.16537556
0.01337241 -0.038460374 0.16448337
0.042440597 -0.011266455 0.16232827
0.04273501 -0.0078869797 0.16229156
0.043768108 -0.0037961286 0.16193625
0.022165401 -0.036660135 0.1585542
0.040628791 -0.017850297 0.15699583
0.042081662 -0.01327342 0.15764332
0.042945433 -0.0097016282 0.15900034
0.027624596 -0.035105426 0.15433872
0.037584029 -0.023067139 0.15407673
0.042071551 -0.014905089 0.15322456
0.032030668 -0.031784382 0.1503807
0.037036374 -0.023442326 0.14967018
0.0317205 -0.031685557 0.14644793
-0.0057339333 -0.026673414 0.1952312
-0.002374596 -0.023467492 0.19514334
0.0013736086 -0.020623423 0.19538298
0.00469528 -0.016315177 0.19537508
0.011641985 -0.0090603791 0.19565782
0.014660981 -0.0050199954 0.19504488
0.017410083 -0.0012849104 0.19355726
0.02133368 0.0026104497 0.19353604
0.024753008 0.0061026895 0.19364223
0.027929585 0.0094600795 0.19340909
0.031291645 0.01292152 0.19388267
0.033498455 0.015671264 0.19339263
-0.01047706 -0.035845503 0.19267413
-0.007649227 -0.032831293 0.1941812
-0.0045629833 -0.02989071 0.19539374
0.036623091 0.013650784 0.19236618
-0.0085782036 -0.037557617 0.18967998
-0.007200269 -0.036145374 0.19177333
-0.0055198465 -0.040305071 0.18537521
-0.0058906693 -0.040397726 0.17977965
-0.0038415641 -0.03954399 0.17904314
-0.0017065499 -0.040096767 0.17597264
0.00058361515 -0.040358927 0.17160296
0.0050147269 -0.039936997 0.17154542
0.042757012 0.001941666 0.16828912
0.043227609 0.0051503778 0.16706967
0.0021282416 -0.04039599 0.16677874
0.0058972072 -0.040174693 0.16673917
0.0098307766 -0.039230853 0.16601279
0.042468429 0.0011345092 0.1630933
0.043260589 0.0035166182 0.16358575
0.0067291651 -0.040242821 0.16165698
0.010974151 -0.039043706 0.1624825
0.04298754 -0.0060210675 0.15961811
0.043277286 -0.0015118327 0.15870655
0.008098729 -0.040252473 0.1583122
0.011693469 -0.039172802 0.15781018
0.015562175 -0.038170673 0.15763795
0.042489801 -0.0068507567 0.15524623
0.042914495 -0.003123939 0.15470704
0.013256986 -0.039138712 0.15269873
0.02086886 -0.036277041 0.15296656
0.042201724 -0.012899802 0.15131861
0.041926365 -0.0089299604 0.15068981
0.021478631 -0.035870247 0.14797097
0.034736816 -0.025985746 0.14678115
0.039927378 -0.018567812 0.1461435
0.041933119 -0.013551096 0.14623111
0.042691555 -0.009866409 0.14686054
0.026242826 -0.034030791 0.1431416
0.03409816 -0.027001785 0.14262873
0.039251648 -0.018735671 0.14139605
0.04176686 -0.014640122 0.14234087
0.030774366 -0.031181332 0.13819432
0.036426269 -0.023706917 0.13840771
0.032025266 -0.031495515 0.13519961
0.013770595 0.0041227601 0.19457084
0.024251327 0.014469635 0.19413224
0.027181309 0.017474215 0.19468459
0.029999178 0.018539619 0.19462276
-0.012194414 -0.027704537 0.19381499
-0.0092776772 -0.023343345 0.19496265
-0.0053581712 -0.020115132 0.19463897
-0.0023746486 -0.017040992 0.19491053
0.00059346436 -0.013398193 0.19536805
0.0034670103 -0.0093367808 0.19529286
0.010834906 -0.0017353911 0.19468439
0.014041543 0.0012326953 0.1938858
0.016783252 0.0046922481 0.19342741
0.020791154 0.009764866 0.19341421
0.024576139 0.01243262 0.19383585
0.027643222 0.014255781 0.1938045
-0.014200317 -0.03172607 0.19223854
-0.011241836 -0.03223931 0.19370511
-0.011379531 -0.036747299 0.18847448
-0.0073028319 -0.040074788 0.17394853
-0.0047963243 -0.039714567 0.17441979
-0.0071683582 -0.039991483 0.16980481
-0.0039442461 -0.040070757 0.16906098
-0.0014691539 -0.039908513 0.16614115
0.0014582109 -0.04014039 0.16170314
0.0038073789 -0.04040087 0.15918964
0.042478457 0.0018687863 0.15569639
0.0056985337 -0.039982326 0.15518564
0.0089933164 -0.03923212 0.15447593
0.042623606 -0.0012088642 0.1521925
0.0061984565 -0.039886005 0.15011507
0.010119247 -0.039447635 0.15136987
0.04177279 -0.0054769423 0.14883375
0.04230307 -0.0015910137 0.14707944
0.010975997 -0.038934298 0.14613622
0.014876151 -0.037897013 0.14625734
0.04217305 -0.0071737431 0.14426804
0.042125337 -0.0026377309 0.14376819
0.0120595 -0.038676288 0.14247406
0.020147759 -0.037915844 0.14127949
0.041598439 -0.013127473 0.13984337
0.041606218 -0.0082195308 0.14013767
0.021256354 -0.037117116 0.13666463
0.034016296 -0.02578418 0.1359624
0.039258152 -0.019104021 0.13571587
0.041006651 -0.013864498 0.1347003
0.041881464 -0.0094091408 0.13584551
0.026290646 -0.034705706 0.13216698
0.033901691 -0.027762603 0.13167977
0.038491651 -0.019544136 0.13007575
0.040127188 -0.01601629 0.1302619
0.030316068 -0.03134039 0.12663531
0.036862504 -0.022459099 0.12701732
0.019212749 0.020977098 0.19641948
0.02180323 0.022797391 0.19709489
-0.019647591 -0.026335198 0.19663876
-0.018590029 -0.023052115 0.19648999
-0.016408347 -0.020141378 0.19575167
-0.0099833552 -0.014050273 0.19498718
-0.0072328886 -0.010214862 0.19436318
-0.0040964298 -0.0088564949 0.19502029
-0.00071829674 -0.005603875 0.19491574
0.0057810014 0.002892172 0.19442919
0.0096102851 0.0065677883 0.19431525
0.012157593 0.0096310582 0.19368562
0.015937829 0.013660467 0.19371784
0.019930728 0.017637771 0.19437277
0.023571679 0.020543175 0.19525144
-0.017546646 -0.028946441 0.19358572
-0.01580536 -0.025524002 0.19464824
-0.013504406 -0.02044557 0.1946376
-0.0092029478 -0.017439792 0.19429564
-0.0061578844 -0.013423916 0.19443551
-0.0028077122 -0.011212805 0.1947948
0.0047344789 -0.0022780818 0.19380084
0.0088284872 0.00026399456 0.19431275
0.010932853 0.0025530481 0.1941283
0.014491696 0.0088693909 0.19270232
0.018257501 0.010605235 0.19344777
-0.0095052207 -0.039823219 0.17146379
-0.0091604907 -0.040744498 0.16719323
-0.0092013143 -0.040719569 0.16366673
-0.0050652735 -0.038983624 0.16218579
-0.0035159104 -0.038972706 0.15789691
-0.0036453027 -0.0445548 0.15314937
-0.0022432879 -0.039448585 0.15308392
0.00070835091 -0.039204463 0.15320718
0.039006915 0.0053791255 0.14949048
-0.0017750878 -0.040126525 0.14987403
0.0019234475 -0.040029019 0.14832738
0.04126434 0.0028260816 0.14430758
0.0052659549 -0.039252076 0.14455718
0.0079337703 -0.038984187 0.14348662
0.041186079 -0.0039893594 0.14118567
0.042006001 -0.00071590208 0.14081761
0.010393158 -0.039052851 0.13996771
0.041048624 -0.00550358 0.13653931
0.041430317 -0.0021333415 0.13653308
0.01148905 -0.039151311 0.13531548
0.014740031 -0.038860645 0.13501406
0.040646188 -0.010506429 0.13201374
0.041837111 -0.0072144866 0.1327517
0.015938394 -0.039100081 0.13103998
0.041061766 -0.013534667 0.12868899
0.042294674 -0.0094769131 0.12790763
0.021038923 -0.037320301 0.1254437
0.033409428 -0.026476946 0.1242674
0.038422003 -0.019714771 0.12439054
0.040726461 -0.015685495 0.12359726
0.042411596 -0.011518503 0.12386078
0.02594414 -0.034970108 0.12159812
0.032638729 -0.027675012 0.12059045
0.038435861 -0.019929599 0.1197027
0.040636219 -0.01657914 0.11994815
-0.021762984 -0.018517507 0.19834256
-0.019511525 -0.014615156 0.19688296
-0.01629425 -0.010112404 0.19615084
-0.013100175 -0.0066379681 0.19587088
-0.010109571 -0.0029210045 0.19631669
-0.0067119859 0.00031085941 0.19531092
0.0006106263 0.0074508069 0.19503948
0.0046037026 0.011237111 0.19493952
0.0071970406 0.015299603 0.19415507
0.010323112 0.018841073 0.19381776
0.013941811 0.021915236 0.19480363
0.017630482 0.023777178 0.19635445
-0.020618849 -0.019002181 0.19658121
-0.016709112 -0.016512539 0.19561291
-0.013614158 -0.013013651 0.19510403
-0.0104894 -0.0094981054 0.19477782
-0.0072713294 -0.0057604495 0.19507396
-0.0040955911 -0.0022918745 0.1947892
-0.00034104177 0.0017077166 0.1944983
0.0037822896 0.005916269 0.19471794
0.0066792849 0.0085598771 0.19469264
0.010299043 0.012562244 0.19407266
0.012513464 0.016574651 0.19388583
0.015890766 0.01872573 0.19427568
-0.010236299 -0.039659686 0.16048458
-0.009453075 -0.039811701 0.15596482
-0.0068700574 -0.039237741 0.1555444
-0.0065825153 -0.041827731 0.1532169
-0.0053573288 -0.039856967 0.15184116
0.037302218 0.0070879031 0.14593321
0.038075127 0.010087595 0.14602831
-0.0063050818 -0.042419791 0.14892077
-0.0035406481 -0.040806636 0.14749825
0.039098702 0.005175041 0.14586055
0.040712606 0.0079573393 0.14329731
0.041274343 0.011907176 0.14152977
-0.0026572105 -0.040947452 0.14228383
0.0017780066 -0.039452232 0.14219925
0.040432967 0.0035210084 0.13785213
0.04177542 0.0066966806 0.13874558
-0.0010818671 -0.042422533 0.13744462
0.0024105757 -0.038986903 0.13732836
0.0071414579 -0.038663402 0.13722607
0.040895935 0.0012862422 0.13406438
0.041859392 0.0064810738 0.13412344
0.0038172267 -0.03871341 0.13275412
0.0082271285 -0.039132949 0.1328395
0.041517593 -0.0047290456 0.12935376
0.041498832 -0.00045211613 0.13007909
0.010136812 -0.039308436 0.12877434
0.042520843 -0.0058757048 0.12662756
0.042236403 -0.0033478569 0.12512183
0.010719419 -0.039213639 0.12343121
0.014821154 -0.038512394 0.1240837
0.042704441 -0.0084829051 0.12235469
0.042944353 -0.0053748153 0.12078416
0.0117872 -0.039920151 0.11999673
0.015498057 -0.038869437 0.11961198
0.024703287 -0.033980299 0.11751431
0.032276638 -0.026060753 0.11702698
0.037399378 -0.020130143 0.11637944
0.040520761 -0.014508775 0.11797529
0.041683756 -0.010146586 0.11718482
0.042663321 -0.0063340757 0.11729038
0.019570384 -0.036833394 0.11450469
0.02818667 -0.031011866 0.11377984
0.034783538 -0.022883128 0.11322719
0.03924761 -0.014941602 0.11278754
0.024193203 -0.034812387 0.10870403
0.032360666 -0.027661001 0.10888302
0.037413262 -0.019739635 0.10837889
0.026281543 -0.035127003 0.10532767
0.032405518 -0.029909778 0.10389328
-0.021655219 -0.0091703106 0.19909576
-0.01981758 -0.0076383203 0.19914186
-0.016478306 -0.0032114051 0.19849664
-0.014823049 -0.00044372445 0.19792247
0.0036327736 0.019631632 0.19676328
0.0070555038 0.022365514 0.19736031
0.010048706 0.023787737 0.19699493
-0.02115912 -0.012522471 0.19790572
-0.017800901 -0.0085747018 0.19761062
-0.014253942 -0.0054130512 0.19761029
-0.011436672 -0.0015310673 0.19791368
-0.0086006662 0.0022347828 0.19644681
-0.0023894021 0.010474996 0.19524014
0.0019049402 0.014531462 0.1946786
0.0054060179 0.017187579 0.19534469
0.0089845564 0.020288847 0.19538385
0.012139725 0.023842134 0.19596848
0.014664125 0.025757849 0.19611698
0.037728369 0.012381 0.14628083
0.039608002 0.01453029 0.14384586
-0.0061457921 -0.040772043 0.14434633
0.040991001 0.013370738 0.1415976
0.042747844 0.010218233 0.13738087
-0.0029615108 -0.041031159 0.1374014
-0.00027292594 -0.040374301 0.13643864
0.041470371 0.0068105739 0.13088268
0.043320011 0.0094778612 0.13229626
-0.0025587901 -0.04142518 0.13235486
0.00078096241 -0.039822046 0.13161218
0.042045049 0.0053523406 0.1280843
0.043168865 0.0089135934 0.12625951
0.0026265811 -0.038570277 0.12707412
0.005694354 -0.038088806 0.12562889
0.040752184 0.00045515969 0.12330306
0.041563127 0.0028275624 0.12378645
0.0073668119 -0.038838945 0.1220268
0.042730056 -0.0023595709 0.11855024
0.042370453 0.0016828123 0.11924732
0.010672087 -0.039756276 0.11739326
0.013753897 -0.039816096 0.11705673
0.042163625 -0.0081953648 0.11417031
0.0430726 -0.0042909309 0.11418724
0.010643721 -0.03927939 0.11320943
0.014114307 -0.038622864 0.11267853
0.039967328 -0.012853296 0.11074424
0.041390292 -0.0097839031 0.11074948
0.042618409 -0.0059624091 0.10974997
0.015607947 -0.038353339 0.1079126
0.023130227 -0.036280982 0.10823888
0.037882239 -0.019178186 0.1063506
0.039844897 -0.014869806 0.10667074
0.041610733 -0.010934755 0.10628343
0.023622418 -0.035567686 0.10351241
0.032642286 -0.027724728 0.10203826
0.037901063 -0.019829918 0.10255361
0.039858278 -0.016093094 0.10237193
0.027719425 -0.032475796 0.098669291
0.035519555 -0.024680981 0.097392917
0.033232767 -0.028100504 0.095159352
-0.014105694 0.0032023308 0.19658816
-0.009615506 0.0099572381 0.19720671
-0.0035794005 0.018159691 0.19595352
-0.00037962943 0.020896183 0.19646189
-0.00097180344 0.015747767 0.19437084
-0.0033099819 -0.040311038 0.12817281
-0.00385819 -0.040046483 0.12484592
-0.0012061689 -0.038554937 0.12383163
0.041634649 0.0058000516 0.12135351
0.042276043 0.0080499388 0.12289238
0.0012045037 -0.037871778 0.1200242
0.0050195735 -0.037881367 0.1193465
0.041979894 0.0043388847 0.1166364
0.0027381498 -0.038183488 0.11542231
0.0064267088 -0.038617484 0.11538106
0.042297717 0.0022331774 0.11216342
0.0068301968 -0.03801287 0.11054385
0.012019944 -0.03863804 0.10964185
0.042775154 -0.0033135172 0.10786885
0.042591721 0.00031261519 0.1067431
0.0091948556 -0.038370896 0.1060521
0.012880588 -0.038832247 0.1058681
0.041291431 -0.0084357839 0.10274363
0.041835666 -0.0045389328 0.10333848
0.014856505 -0.038606431 0.10124707
0.040169831 -0.014249757 0.099517643
0.040731654 -0.010163531 0.099094033
0.014966633 -0.037880458 0.096923947
0.022951584 -0.034869254 0.096918762
0.037153475 -0.019650362 0.095380187
0.038696513 -0.014747124 0.094955087
0.02305707 -0.034961015 0.091625631
0.03097431 -0.029610518 0.092574
0.035993125 -0.020288091 0.090714753
0.027498327 -0.032559246 0.08722353
0.033561669 -0.027124733 0.08729887
-0.006929839 -0.039079621 0.12134022
-0.0061482079 -0.039053433 0.11681044
-0.0023634266 -0.038365349 0.11719328
-0.0013581775 -0.038621131 0.1128428
0.0024681427 -0.03814574 0.11231643
0.042269889 0.0053851604 0.10968143
-0.00038798526 -0.037900198 0.10874504
0.0036934502 -0.038120016 0.10832834
0.042126253 0.0042558778 0.10530233
0.042426884 0.0073968694 0.10371745
0.0055665113 -0.038349494 0.10414767
0.04178112 -0.0020773131 0.10140294
0.041892916 0.002038179 0.10047477
0.0084285792 -0.038575523 0.1003145
0.011150657 -0.038425751 0.10017669
0.040756486 -0.0073325578 0.096224904
0.040943377 -0.0028807465 0.096782386
0.041489325 0.0011923872 0.0967623
0.012063636 -0.037870683 0.094968081
0.038629636 -0.013338184 0.091549873
0.040064875 -0.0093689105 0.092607617
0.040151469 -0.0044810325 0.093284249
0.014112635 -0.037417874 0.091206729
0.036407895 -0.018634794 0.087910354
0.038205013 -0.014462193 0.088217199
0.039855711 -0.0094355345 0.08836019
0.022390336 -0.034968574 0.085003853
0.029252464 -0.030284679 0.084275723
0.035778552 -0.020540258 0.084361851
0.023885023 -0.034111906 0.081548572
0.030209208 -0.028854625 0.080508113
0.035495222 -0.021468855 0.080017924
-0.012315585 -0.039093584 0.12014705
-0.01078688 -0.038292333 0.12047553
-0.012400486 -0.040369302 0.11685443
-0.0092072086 -0.039251674 0.11567926
-0.0074276254 -0.039619137 0.11118948
-0.0035439041 -0.039259225 0.10985786
-0.0072319228 -0.039326496 0.10701734
-0.0026558731 -0.037732415 0.1058991
0.042128317 0.0077091772 0.10339063
-0.001392832 -0.037500203 0.10104424
0.0018864572 -0.038304862 0.10220397
0.041836493 0.0055483934 0.098479927
0.042807795 0.0074159931 0.097441673
0.0035836548 -0.038350098 0.096883237
0.040695418 -0.00040298328 0.093252897
0.041636162 0.0032862388 0.093658984
0.042808168 0.0079088937 0.093669057
0.006320579 -0.038452521 0.09288311
0.0102854 -0.038096651 0.092545211
0.040698498 -0.0025394503 0.090215981
0.041143626 0.0013177209 0.088499784
0.0073949574 -0.038561713 0.088578403
0.010870537 -0.037832677 0.088187575
0.040077947 -0.0077518132 0.085766673
0.041197218 -0.0035145152 0.085264444
0.012321491 -0.037639719 0.083989263
0.037554473 -0.014502193 0.082274914
0.039421503 -0.0099045569 0.081956744
0.041318096 -0.0051314365 0.080499172
0.022331152 -0.034967151 0.079170287
0.028829608 -0.029092975 0.077283263
0.035073541 -0.020595362 0.07707572
0.039153513 -0.011263896 0.076785505
0.040751271 -0.0079678707 0.07750535
0.022294488 -0.03550452 0.074830651
0.029700672 -0.029015617 0.073663235
0.034872789 -0.020275859 0.073132575
0.039047964 -0.013303896 0.073613524
0.026815956 -0.03317064 0.069431126
0.03247565 -0.025201552 0.068866313
0.027106484 -0.032503322 0.066123903
0.032206967 -0.027361365 0.065922856
-0.009510031 -0.037511215 0.10285127
-0.0063955598 -0.037070878 0.10320985
-0.008840505 -0.037236691 0.10003769
-0.005479075 -0.037080612 0.099685788
-0.0033938233 -0.037611328 0.095335364
0.041703716 0.0054749567 0.090450525
0.041604809 0.0079542603 0.091003001
-0.0019403864 -0.03828302 0.090651512
0.0017456692 -0.03827934 0.090089679
0.040532142 0.0042902324 0.087482393
0.040832046 0.0075193457 0.087820053
0.0032347143 -0.038077712 0.08551842
0.040811941 0.0020939074 0.082832098
0.0047591012 -0.038083255 0.080455959
0.0080902083 -0.037239145 0.080360353
0.040811837 -0.0033761803 0.076877356
0.041243296 -0.00029301271 0.07734561
0.010313365 -0.037182759 0.076526225
0.03938194 -0.0090113236 0.073293686
0.040293261 -0.0052777641 0.073634028
0.041113511 -0.0014386196 0.073869228
0.012145521 -0.037674919 0.071429372
0.015035226 -0.036743354 0.071571052
0.036955237 -0.014379201 0.069680393
0.038652673 -0.010431125 0.069385827
0.039633483 -0.0070780367 0.069220364
0.020067539 -0.03576456 0.066135943
0.034677856 -0.019896915 0.066238284
0.03819586 -0.011541381 0.065947354
0.021548612 -0.034874298 0.062581837
0.029053593 -0.029540809 0.061842799
0.033885498 -0.020832909 0.061553001
0.025776032 -0.032163914 0.058457315
0.031378843 -0.026960993 0.056959987
-0.011563785 -0.037954539 0.10103774
-0.010721705 -0.038187541 0.097329617
-0.0090108197 -0.038496584 0.092999578
-0.0058142152 -0.038354449 0.093186319
-0.0080292821 -0.038802803 0.089235127
-0.0046804491 -0.038863398 0.088613808
0.040242821 0.010041399 0.084383905
-0.0031713899 -0.038667209 0.083621025
0.00039083883 -0.038150094 0.084226489
0.039246712 0.0054531172 0.08005023
0.039397508 0.008597685 0.079337597
-0.0018274821 -0.038646378 0.079234838
0.0016253162 -0.03849671 0.080005825
0.039805707 0.0047337115 0.07567203
0.041173264 0.0076761264 0.07529074
0.0030263569 -0.038419418 0.074886084
0.0064403173 -0.037805274 0.075092733
0.040756293 0.0019075219 0.071413159
0.0041554198 -0.038921691 0.070722222
0.0079983594 -0.038432632 0.071202397
0.040125024 -0.0038682781 0.068202853
0.040408716 -0.00030387565 0.067171216
0.0094775837 -0.038414806 0.066141546
0.013768516 -0.037030827 0.065380335
0.036306988 -0.014381424 0.062467873
0.038373236 -0.010661756 0.063117862
0.039965559 -0.0059277229 0.063874602
0.010417834 -0.037972394 0.061978221
0.014124265 -0.037055328 0.061465025
0.034361355 -0.019126028 0.058722436
0.038830183 -0.010946762 0.059172332
0.040337846 -0.0075746905 0.059100628
0.020646108 -0.035263624 0.056720376
0.028658127 -0.028945317 0.054525018
0.034221247 -0.020999555 0.055542767
0.039026137 -0.012088043 0.055595279
0.024337288 -0.032079302 0.052689373
0.031727597 -0.025293713 0.050940037
0.036707278 -0.017583847 0.051171482
0.030746453 -0.026800852 0.047119737
-0.0085677532 -0.038558438 0.085759997
-0.0083408691 -0.039045691 0.082079411
-0.0064596292 -0.038586229 0.081802666
0.039508138 0.011656572 0.077637613
-0.0087240394 -0.039010257 0.077752948
-0.0048677847 -0.038642161 0.076964676
0.041864205 0.0083979219 0.072614789
-0.0042456202 -0.038701765 0.072813749
8.1295148e-05 -0.038708135 0.072110116
0.040441096 0.0072021503 0.06883353
-0.0028621554 -0.039150845 0.069023252
0.0012832042 -0.038481675 0.067486882
0.040335827 0.0026728939 0.064848304
0.040300503 0.0074932296 0.065077007
0.0027938727 -0.03828641 0.063243687
0.0063600168 -0.038529832 0.063120008
0.039565213 -0.0025854278 0.06031388
0.03935153 0.0018141177 0.060670376
0.0030347183 -0.039002802 0.059441745
0.0080724545 -0.038199306 0.058701098
0.011601046 -0.037101153 0.0579741
0.040056843 -0.0044097677 0.056506693
0.039397012 -0.00017559156 0.055650175
0.0084430827 -0.038127918 0.053653419
0.012203188 -0.03704473 0.053699195
0.038872011 -0.010998918 0.05202955
0.039853286 -0.0058312006 0.051782131
0.013736548 -0.037167907 0.049065053
0.022404511 -0.031109933 0.048032403
0.036745794 -0.015640127 0.04811132
0.038038641 -0.01121931 0.047571361
0.039790079 -0.0072146133 0.046922684
0.015318003 -0.036991883 0.04436481
0.0226142 -0.031525701 0.044212341
0.031516053 -0.024702197 0.044917107
0.035531245 -0.01621758 0.042595983
0.037238121 -0.0125765 0.043141127
0.02711457 -0.029340036 0.039190233
0.033311889 -0.021039004 0.039250493
0.030621445 -0.027278209 0.0346995
-0.009397435 -0.0386535 0.074092031
-0.0088076582 -0.039529253 0.069757164
-0.0067891013 -0.03910014 0.070616484
-0.0048609246 -0.039732382 0.066184044
0.040262397 0.0074786395 0.062993228
-0.003542589 -0.039201014 0.061472535
-0.00015109219 -0.038624927 0.06209904
0.039392009 0.0038832054 0.058068693
0.039349899 0.0071377382 0.058529019
-0.0018381923 -0.040195618 0.057392538
0.0015709288 -0.03934304 0.057352841
0.039783105 0.0029502995 0.053982019
0.0024998616 -0.038559765 0.052941442
0.0060588252 -0.038934201 0.052770019
0.039821446 -0.0032039955 0.049372375
0.039577246 0.00040528923 0.049545169
0.0075669866 -0.038705193 0.047989964
0.03765139 -0.010600345 0.04426229
0.040097721 -0.0043955259 0.046065509
0.040640302 -0.0017622095 0.046863616
0.009535756 -0.038227327 0.044893503
0.012281178 -0.037752695 0.043678164
0.036730777 -0.014498126 0.040876865
0.037709467 -0.0099851713 0.041102231
0.038853537 -0.0071978793 0.041802108
0.013808933 -0.036598109 0.039348662
0.022509307 -0.032939002 0.037647247
0.034090776 -0.020151291 0.037570715
0.037673876 -0.012085956 0.036750078
0.022381853 -0.032522425 0.034547865
0.030143933 -0.026893059 0.03267926
0.034887556 -0.017607186 0.033611774
0.035950325 -0.014009705 0.032682955
0.026404392 -0.030276965 0.029799044
-0.0048957132 -0.039509572 0.058389187
-0.0041224528 -0.039741762 0.054772854
-0.0010017883 -0.038955532 0.053976595
0.040137686 0.0060985424 0.051236212
-0.0030150283 -0.03960675 0.050060213
0.000384802 -0.038726039 0.050004125
0.039660156 0.0028990004 0.047652423
0.040085249 0.0050529595 0.046161652
-0.0023260191 -0.040565096 0.045758724
0.0013001505 -0.039434269 0.045759082
0.03954751 -0.00024847127 0.042767167
0.040014237 0.0043711551 0.042028606
0.0017854776 -0.040209554 0.041219831
0.0067241229 -0.038359348 0.040939331
0.038274176 -0.0049119294 0.038452089
0.038417809 0.00032161362 0.037939131
0.0028632432 -0.040310048 0.038016081
0.0070754346 -0.038128324 0.036483347
0.011741438 -0.03676967 0.036384463
0.038088806 -0.0069877552 0.034403205
0.038765542 -0.0025905464 0.033570349
0.0084911892 -0.037958432 0.033484578
0.011795212 -0.036626711 0.032129467
0.019802926 -0.032183606 0.030928493
0.034011818 -0.016397413 0.029614866
0.036416698 -0.012231977 0.029701054
0.038101379 -0.0072220797 0.02968049
0.013500907 -0.036820322 0.027746141
0.021262283 -0.032302145 0.026893854
0.029189698 -0.025475606 0.025923014
0.03383071 -0.016844638 0.025721133
0.036430255 -0.012416678 0.025185406
0.037976623 -0.0091970768 0.026573658
0.02114689 -0.032426223 0.022603869
0.028919198 -0.026486035 0.021662414
0.034338363 -0.017838087 0.021562755
0.036333349 -0.014837309 0.02166003
0.029381236 -0.028099647 0.016251922
0.029404186 -0.029468302 0.012828231
-0.0023711976 -0.040889204 0.040620685
-0.00011843629 -0.040864579 0.038733363
0.038674254 0.0011794902 0.035428464
0.039604399 0.0038465932 0.036449671
0.0012963694 -0.040183209 0.034872115
0.0053917039 -0.038398199 0.034049273
0.039558731 0.0001472123 0.032326877
0.04194539 0.002944218 0.031686187
0.0056960378 -0.037463263 0.029353261
0.010029865 -0.037375227 0.029756308
0.038308077 -0.0047228467 0.027149916
0.039278314 -0.0012626536 0.027229548
0.042309389 0.0031195618 0.026954055
0.0077603888 -0.037776165 0.025412083
0.010903745 -0.037555266 0.025670052
0.037016157 -0.010729562 0.022669554
0.038380589 -0.0070410669 0.023023963
0.038427904 -0.0025814865 0.022633433
0.012764304 -0.036541015 0.020648718
0.020076701 -0.03268306 0.01995343
0.037012748 -0.012563491 0.019223392
0.038478456 -0.0083063981 0.017994642
0.020501347 -0.031823799 0.015943527
0.029589526 -0.024768867 0.016371965
0.034350786 -0.018113863 0.015262246
0.036942087 -0.013808111 0.015099704
0.038365424 -0.010035593 0.014397383
0.02995 -0.026972856 0.010802627
0.02682009 -0.030724183 0.0065778494
4.2364001e-05 -0.039230492 0.03138423
-0.00031323358 -0.038027581 0.027180552
0.0028153453 -0.037509322 0.027651548
0.038403347 -0.00011364371 0.023208201
0.04169926 0.0037200619 0.024918497
0.0013625156 -0.038665019 0.02426821
0.0047086719 -0.038041636 0.023731709
0.03892209 6.5814704e-05 0.020525157
0.040165987 0.0042564496 0.020196378
0.0054687355 -0.038609788 0.018866539
0.010154051 -0.037028167 0.018820226
0.038713571 -0.0055170171 0.016030073
0.038701069 -0.0020944662 0.016424
0.00628509 -0.038785737 0.014854312
0.010716974 -0.037033465 0.014197588
0.019387243 -0.031268463 0.012091219
0.037215434 -0.011315986 0.012342453
0.038717352 -0.0072645191 0.012088537
0.039455466 -0.0039976798 0.012240291
0.012103953 -0.036935929 0.0095034838
0.019831162 -0.032152507 0.010141313
0.033197161 -0.01692564 0.008048892
0.03574454 -0.012363473 0.007743001
0.037329927 -0.009149869 0.0088175535
-0.0010652449 -0.038096055 0.02135253
0.039268605 0.0060969293 0.016526282
-0.00043449178 -0.037518069 0.015916228
0.038619861 0.0011848602 0.013284504
0.039019734 0.0038249213 0.013468504
0.0048077088 -0.038189158 0.011184633
0.039114822 -0.00089568645 0.0089244246
0.038868152 0.0038907323 0.010053515
0.0057708602 -0.037774757 0.007853508
0.0092240646 -0.037454244 0.0070536137
0.038308289 0.0069769137 0.011009872
-0.0014923364 -0.036950901 0.0094128847
