# .PCD v0.7 - Point Cloud Data file format
VERSION 0.7
FIELDS x y z
SIZE 4 4 4
TYPE F F F
COUNT 1 1 1
WIDTH 1087
HEIGHT 1
VIEWPOINT 0 0 0 1 0 0 0
POINTS 1087
DATA ascii
0.026610231 0.059469942 0.8195557
0.018962029 0.06326133 0.81930017
0.02255993 0.062986568 0.8182168
0.027551619 0.062307641 0.8186062
0.031806603 0.062211983 0.81953335
0.018955858 0.066288099 0.8190335
0.022924393 0.067290694 0.81667155
0.027910251 0.067425564 0.81687891
0.031176349 0.067050837 0.81904459
0.022194639 0.07198032 0.81879181
0.027495367 0.072805792 0.81786162
0.031184806 0.07087899 0.8192668
0.027372275 0.076234609 0.81950003
0.034474742 0.053717677 0.82486683
0.039036203 0.05364389 0.82373327
0.013950192 0.059288993 0.82411116
0.017512327 0.058953717 0.82299995
0.022305975 0.058368836 0.82286662
0.027713079 0.057614055 0.82209623
0.03280827 0.057328314 0.821661
0.037417371 0.057346273 0.82191652
0.041235436 0.057808649 0.82381904
0.013679626 0.062803261 0.82327777
0.01703186 0.062407978 0.82096159
0.021282325 0.061057299 0.82039988
0.03391197 0.062976323 0.82054979
0.037382763 0.062641248 0.82115531
0.040952571 0.062448479 0.82365
0.014461085 0.066692889 0.82403356
0.017036509 0.067446627 0.82120931
0.033535186 0.067185447 0.82068866
0.03745899 0.067359462 0.82280743
0.01770591 0.071788326 0.82313335
0.021046834 0.074352048 0.82115531
0.033013459 0.072450884 0.82196659
0.036483917 0.071025528 0.82391125
0.019072356 0.075126499 0.82406682
0.022632895 0.077598192 0.82317781
0.027454447 0.078296378 0.82192659
0.031886123 0.076675355 0.82423347
0.023707937 0.081343658 0.82493347
0.027134525 0.081621796 0.82386678
0.014550583 0.053995557 0.82913369
0.017639937 0.053215537 0.82900023
0.022260418 0.053170871 0.82831126
0.027328592 0.053266909 0.82809532
0.032808665 0.052645389 0.8281334
0.037453834 0.052121554 0.82695836
0.042278435 0.052319631 0.82704443
0.046805814 0.052616969 0.82868344
0.009903186 0.057801992 0.82843345
0.01277851 0.057317287 0.82701671
0.017577894 0.056099892 0.82606667
0.021821951 0.055732891 0.8263166
0.0275853 0.055321313 0.82590002
0.043448862 0.057161212 0.82584012
0.046777636 0.056821726 0.82817507
0.0098930262 0.062362526 0.82758331
0.011410912 0.062991045 0.82573342
0.043201797 0.063395299 0.82700002
0.045842178 0.061292604 0.82873344
0.0099099586 0.067094691 0.82900035
0.012523135 0.067891218 0.82661903
0.041897606 0.06758251 0.82821912
0.013756252 0.072397262 0.82791114
0.016039984 0.073784083 0.82620013
0.037978336 0.072665222 0.82745332
0.040877845 0.07102982 0.82993335
0.014038007 0.076119244 0.82931137
0.017603556 0.076960824 0.82729524
0.021421915 0.079124175 0.8258
0.033548873 0.077729881 0.82729989
0.036179043 0.075545892 0.82866693
0.018669633 0.081997238 0.82894468
0.021866614 0.082859516 0.82644433
0.027768711 0.08351694 0.82555842
0.032409687 0.082770444 0.82823813
0.022450892 0.087642305 0.8282584
0.027415656 0.08756905 0.82707256
0.031568814 0.087949798 0.82934684
0.02382673 0.091004543 0.82906699
0.026902236 0.091718443 0.82854462
0.030033328 0.091070421 0.82966673
0.023997249 0.049717795 0.83499974
0.027110426 0.04971515 0.83495528
0.032526698 0.049666192 0.83413327
0.038208462 0.048947677 0.83248007
0.042754434 0.048215222 0.83255833
0.047252566 0.048833262 0.83316678
0.050926279 0.049137861 0.83395547
0.05768216 0.049152534 0.83419108
0.0080997841 0.053990681 0.83382654
0.013051013 0.052640218 0.83211428
0.017702721 0.051085513 0.83197778
0.022349879 0.051062305 0.83160001
0.02702561 0.051107347 0.83233339
0.031662039 0.051461793 0.83181679
0.04866777 0.051013194 0.83079988
0.051831417 0.052623227 0.83182216
0.056601956 0.052733626 0.83355212
0.0037525424 0.059037361 0.83499974
0.0071612867 0.057209074 0.83325988
0.011469874 0.055595934 0.8300001
0.04866777 0.058740426 0.83079988
0.051698145 0.057139352 0.83279169
0.056680676 0.0559115 0.83471084
0.0068501811 0.062010527 0.83319992
0.047699634 0.062687665 0.83191109
0.05095255 0.061063122 0.83437771
0.0081872363 0.067359321 0.83364755
0.04404946 0.068832912 0.83136666
0.046853863 0.067386277 0.83396178
0.0099668056 0.072909385 0.83375543
0.01148216 0.072657712 0.83088875
0.039431095 0.074308023 0.83206671
0.042788986 0.073056519 0.83322495
0.045795597 0.071457766 0.8349331
0.012743911 0.07774315 0.83238667
0.016118923 0.078780659 0.83026677
0.038125902 0.077703193 0.83319163
0.042285319 0.07649333 0.83479977
0.013847832 0.08218199 0.83342218
0.016537154 0.08241313 0.83185005
0.034737576 0.081957288 0.83115548
0.037203126 0.082266197 0.83428878
0.014653536 0.085442789 0.83499974
0.01792095 0.087186664 0.83310831
0.020799318 0.089742899 0.83166665
0.03424174 0.08793772 0.8316555
0.036398284 0.086859606 0.8336888
0.019325396 0.091655888 0.83499974
0.022375645 0.092947654 0.83264768
0.026997181 0.094361365 0.83146667
0.032704875 0.093147896 0.8331818
0.036454067 0.090875648 0.83496642
0.023985757 0.096269473 0.83459991
0.027277332 0.097571403 0.83410823
0.031465396 0.096915409 0.83481312
0.047598507 0.043727074 0.83926684
0.057768784 0.043724343 0.83921432
0.0084714787 0.049995665 0.83966666
0.012695687 0.049227756 0.83800012
0.017814636 0.049069028 0.83720011
0.022500485 0.048549622 0.83721113
0.027204232 0.047549125 0.83785558
0.032052539 0.047097314 0.83754075
0.037254002 0.046225667 0.83742219
0.042364601 0.045520145 0.83636653
0.047420934 0.045896042 0.83613318
0.052365072 0.047125407 0.83728331
0.056479711 0.046885878 0.83686042
-0.00092415966 0.053883024 0.83940017
0.0023958781 0.053169355 0.83739161
0.0073234579 0.052020241 0.83635235
0.011540812 0.051279262 0.83513331
0.05992227 0.054475278 0.83650005
-0.0009247468 0.056261312 0.8399334
0.0020039419 0.057440273 0.8371833
0.053632732 0.059089229 0.83573341
0.057826519 0.058090601 0.83626658
0.0021994773 0.062324259 0.8374148
0.05264229 0.062773392 0.83648878
0.056923542 0.062390063 0.83828902
0.060069516 0.061628997 0.83855551
0.0031414735 0.066758908 0.83833331
0.0057069524 0.06728778 0.83618319
0.048453227 0.067920513 0.83599997
0.052023202 0.066851623 0.83803344
0.058060218 0.066134989 0.83965605
0.0037726136 0.07028418 0.83946687
0.0070618158 0.07238663 0.83768886
0.047797389 0.072987631 0.83664441
0.050998319 0.072079502 0.83854675
0.0092187589 0.07626304 0.83653319
0.010521632 0.078871012 0.83668882
0.043072909 0.078748018 0.83647984
0.047317848 0.077738479 0.83775002
0.050733011 0.076518305 0.83933353
0.010952063 0.082300849 0.83780003
0.039630126 0.082462311 0.83626652
0.042649269 0.082448438 0.83810836
0.046047885 0.081221633 0.83953345
0.013384786 0.087192863 0.83688879
0.016218591 0.088591784 0.83539975
0.038897425 0.087233149 0.83726668
0.041307997 0.08581803 0.83866686
0.014711455 0.091239169 0.83830005
0.017356625 0.092060909 0.83665705
0.020912688 0.094898537 0.83619982
0.038297731 0.092783093 0.83739996
0.018892707 0.095719181 0.83884448
0.022299236 0.098307349 0.83707494
0.0255627 0.099453948 0.83526635
0.033373296 0.09862826 0.83579028
0.038170207 0.097490333 0.83842504
0.022977171 0.10272473 0.8384096
0.027161321 0.10271787 0.83653325
0.032170799 0.10261428 0.83696002
0.036242515 0.10224698 0.83906668
0.024122747 0.10696869 0.83936679
0.027238647 0.10724462 0.83890486
0.03162374 0.10676733 0.83901346
0.05107557 0.039310206 0.84499991
0.057344094 0.039286416 0.84448892
0.027387386 0.043948215 0.84351128
0.032407723 0.043299221 0.84311992
0.037234001 0.043226294 0.84257144
0.042609729 0.042989947 0.8423335
0.047792554 0.042138938 0.84268332
0.052356634 0.042569119 0.84341782
0.057013281 0.041899242 0.84291506
-0.015077974 0.047057863 0.84300005
-0.013505768 0.047057863 0.84300005
-0.0014548277 0.048181772 0.84437782
0.0024414994 0.0475269 0.84338123
0.0069279489 0.04702545 0.84244454
0.012158305 0.046474356 0.84192586
0.017919332 0.046224311 0.84212226
0.022312488 0.046056777 0.84192002
0.027303299 0.045376997 0.84091091
0.03354593 0.045335043 0.84013349
0.053970713 0.045381796 0.84099984
-0.005655752 0.051863153 0.84464449
-0.002813942 0.05220411 0.84255344
0.0018197085 0.050491594 0.84143323
0.0061301515 0.050059177 0.84073305
-0.0056574633 0.055808239 0.84489995
-0.0026971924 0.058197509 0.84251666
-0.0020521905 0.062494639 0.84272379
-0.0015595024 0.067217819 0.84409332
0.0010346267 0.067690343 0.8411833
0.053927954 0.068793572 0.8403334
0.056622472 0.067850374 0.84154445
0.0024780293 0.072155498 0.84307784
0.0053424696 0.073465616 0.84013337
0.053368725 0.072323702 0.84138662
0.05683684 0.0719788 0.8436287
0.0037908896 0.075332075 0.8435334
0.0069223782 0.077862106 0.84180003
0.049257483 0.079786435 0.84086645
0.052232478 0.077326737 0.84246665
0.055768132 0.075415425 0.84446675
0.0078815604 0.082877591 0.84366667
0.010041451 0.084391907 0.83999997
0.044563401 0.084499054 0.84106642
0.047972485 0.083261058 0.84238344
0.051040638 0.083266288 0.84442216
0.010851075 0.087735407 0.84210002
0.043223824 0.087888777 0.84168339
0.04736435 0.087451421 0.8443889
0.013220025 0.092525966 0.84292012
0.043113694 0.092574477 0.84336305
0.014823182 0.095859393 0.8446666
0.017388407 0.097622238 0.84180003
0.042184409 0.097001195 0.84366685
0.01871218 0.10188241 0.84248894
0.021038581 0.10407678 0.84123313
0.038308855 0.10254458 0.84150004
0.04158248 0.10169954 0.84423327
0.019007869 0.10572418 0.84397793
0.022177963 0.10831157 0.84200001
0.027281936 0.10942327 0.84023333
0.032390133 0.10908465 0.84063315
0.036815651 0.10745759 0.84320825
0.023126991 0.11281277 0.84386671
0.027357779 0.11286391 0.84257042
0.031901158 0.11275631 0.84323335
0.036080159 0.11075541 0.84443319
0.024284655 0.11633151 0.84499991
0.027435794 0.11632845 0.84497768
0.031373885 0.11632233 0.84493321
0.052831963 0.034713957 0.84791535
0.055902414 0.034656018 0.8465001
-0.0080671543 0.039531723 0.8497619
0.037092753 0.039524201 0.84960032
0.042614412 0.03950249 0.84913361
0.048306949 0.038311869 0.84778124
0.052919954 0.037591908 0.8461417
0.05636169 0.037236158 0.84549385
-0.012002007 0.043393832 0.84800607
-0.0072700358 0.042664241 0.84919572
-0.0025171887 0.043425497 0.84863901
0.0024544131 0.043041371 0.84775239
0.0069651902 0.042553242 0.84701478
0.012488582 0.042529579 0.84654444
0.018033883 0.042773355 0.84747922
0.02253494 0.043000221 0.84695244
0.027513949 0.041785758 0.84741122
0.031848215 0.041374292 0.84705007
0.036969751 0.04096806 0.84677774
0.042471863 0.040944953 0.84629995
0.054265942 0.040911093 0.84559983
-0.011807747 0.04734493 0.8481456
-0.0072546941 0.047298606 0.84733331
-0.0030358948 0.046709776 0.84617764
0.0014341212 0.045622841 0.84546655
-0.011692515 0.051139783 0.84828395
-0.0080401637 0.051997736 0.8468222
-0.0061974791 0.057765778 0.84675556
-0.0056777745 0.063107692 0.84793359
-0.0040878323 0.063762709 0.84616661
-0.0056878179 0.066378318 0.84943372
-0.0035671797 0.067788243 0.84731132
-0.0015673253 0.072282083 0.8482402
0.00064609433 0.073160484 0.84563327
0.059043612 0.07321538 0.84626675
0.0022271287 0.077277727 0.84765732
0.0053742658 0.078619167 0.84513319
0.054300152 0.077926084 0.84613329
0.05751105 0.077211276 0.84692705
0.0038139592 0.081316441 0.84866703
0.005390516 0.082012497 0.84768909
0.053586472 0.081973717 0.84730023
0.056706041 0.081829429 0.84907359
0.0077589876 0.087506078 0.84745568
0.010102023 0.08961691 0.84506649
0.049008071 0.089147091 0.84557766
0.051999375 0.08747945 0.8472001
0.056120329 0.085376456 0.84980029
0.0085710278 0.091670848 0.84953362
0.010760037 0.093325347 0.84733355
0.048027467 0.092952676 0.84680742
0.051867116 0.091651417 0.84935588
0.013284001 0.097705565 0.84704775
0.044472244 0.098069422 0.84678334
0.047326352 0.096283078 0.84840012
0.014894545 0.10184734 0.84873366
0.016445518 0.10243962 0.84708905
0.043875735 0.10306758 0.84795576
0.018552123 0.108224 0.84715551
0.041754559 0.10724109 0.84768909
0.045022599 0.10591845 0.84973353
0.0196093 0.11191706 0.84726685
0.021167777 0.11337524 0.84640002
0.03375889 0.11482299 0.84546667
0.037512574 0.11242353 0.84713358
0.040619142 0.11172199 0.84878349
0.019646326 0.11528471 0.84886706
0.022541577 0.11753546 0.84720021
0.027468959 0.11883011 0.84600002
0.032458596 0.1186024 0.84678108
0.036854438 0.11663581 0.84864187
0.023351168 0.12113192 0.84926701
0.027548885 0.12312378 0.84847438
0.032308526 0.12316652 0.84877062
0.035472222 0.12000302 0.8487336
0.027576325 0.1264043 0.84931153
0.031533819 0.12639272 0.84923363
0.046981886 0.033929043 0.85297906
-0.0056996783 0.038807325 0.85120451
-0.0025281911 0.038083091 0.85273212
0.0019243362 0.039057717 0.85324109
0.0066146487 0.039274581 0.85277998
0.012921187 0.038990598 0.85276669
0.018157301 0.038901649 0.85329992
0.022942895 0.038920183 0.85369444
0.027705923 0.038902681 0.85331112
0.032435279 0.038848557 0.85213333
0.037565805 0.037465192 0.8531267
0.042031348 0.037316468 0.85335559
0.046342045 0.036868159 0.85214996
-0.010451491 0.041140091 0.85033339
-0.0025223668 0.041148156 0.85050029
0.001442443 0.041148156 0.85050023
0.018088007 0.041125581 0.85003358
0.023639474 0.041130416 0.85013354
-0.012445978 0.053448405 0.85111314
-0.011625006 0.05692726 0.85324752
-0.0082372697 0.057313442 0.85090667
-0.010502704 0.060416099 0.85450017
-0.007939375 0.061580081 0.85299337
-0.0067817592 0.066745929 0.85414457
-0.0041066753 0.06959036 0.8500666
-0.0035884676 0.072940476 0.85226673
-0.001574935 0.077387817 0.85234004
0.00065057655 0.079211436 0.85149992
0.059402578 0.079203211 0.8514117
0.061190199 0.077873625 0.85420007
-0.00094041729 0.081048414 0.85416681
0.0017856099 0.082708657 0.85255241
0.059138063 0.082949869 0.85330391
0.0034358534 0.086906515 0.85317504
0.0054126307 0.087097585 0.85116655
0.054636721 0.087119661 0.85137773
0.05763818 0.08725401 0.85269862
0.0067465217 0.092018493 0.85275555
0.053453803 0.092649385 0.85273999
0.056441728 0.090634935 0.85466671
0.0079705045 0.096508846 0.85318005
0.010698107 0.09812557 0.85068887
0.048292015 0.098480485 0.8514778
0.05238932 0.096868709 0.85355842
0.012684077 0.10260909 0.85225713
0.047566209 0.103117 0.85270005
0.050672036 0.10138277 0.85413343
0.014455386 0.10697711 0.85397786
0.016533531 0.10773987 0.85162216
0.046137892 0.10819694 0.85274667
0.017511861 0.11234335 0.85290658
0.042924661 0.11287309 0.85211325
0.04589241 0.11250349 0.85412008
0.018946696 0.11743964 0.85305011
0.038716938 0.11866613 0.85046661
0.041807666 0.11720744 0.85280418
0.019765908 0.12075245 0.85403341
0.022245744 0.12260319 0.85143328
0.03736081 0.12212887 0.85116661
0.041104462 0.12200846 0.85392678
0.023690121 0.12680167 0.85197216
0.027627058 0.129012 0.85087776
0.032624219 0.12870879 0.85111421
0.037012272 0.12648943 0.85292381
0.040492605 0.12558214 0.8544668
0.024545206 0.13028948 0.85406673
0.027733179 0.13268478 0.85414451
0.031445172 0.13239749 0.85400009
0.035700694 0.13030982 0.85420007
0.030947976 0.13519272 0.85493356
0.041481823 0.028758289 0.85846674
0.037887979 0.033157449 0.85866672
0.042209014 0.031895828 0.85698533
0.046133906 0.031051386 0.85564816
0.0022522416 0.036686417 0.85718095
0.0070502176 0.036953267 0.85717863
0.011625188 0.03625628 0.85779065
0.017784536 0.036006998 0.8572669
0.023050359 0.035910558 0.85768908
0.027880264 0.035951629 0.85866672
0.03264406 0.035907391 0.85761136
0.037004791 0.035473857 0.85675013
0.042132989 0.035021294 0.85542232
-0.015340303 0.057450995 0.85766673
-0.013706112 0.058100276 0.85550499
-0.015350048 0.062276434 0.85821152
-0.012332106 0.062384125 0.85695511
-0.0089184353 0.063662134 0.85540032
-0.015375081 0.06717395 0.85961109
-0.012156813 0.06710209 0.85868621
-0.0085296063 0.067320213 0.85638356
-0.015364151 0.070321694 0.85900003
-0.011099943 0.070903815 0.85960007
-0.0071825818 0.072114803 0.85751355
-0.0041334061 0.074818105 0.8556003
-0.0071536144 0.077106528 0.85892498
-0.0037411251 0.078523219 0.85695004
0.061295267 0.079599038 0.8556667
-0.0025465011 0.082995139 0.85786682
0.061462414 0.084604241 0.85800004
-0.00094456482 0.086991705 0.85793322
0.0012925324 0.087949038 0.85637349
0.059662227 0.088298447 0.85513347
0.062337101 0.08790186 0.85903001
0.0027111473 0.09234798 0.85791433
0.0054450617 0.093990259 0.85626698
0.054911945 0.093924396 0.85566688
0.058355972 0.092614844 0.85643351
0.061569866 0.094345145 0.85949999
0.0038644425 0.096788451 0.85990018
0.005849381 0.097668603 0.85710007
0.054114521 0.097106814 0.855667
0.057462092 0.096974373 0.8580001
0.061485432 0.095812425 0.85832155
0.0075106183 0.10191422 0.85783821
0.010227539 0.10266723 0.85556692
0.052950449 0.10234471 0.85620016
0.055142984 0.10071315 0.85926664
0.011844544 0.10730458 0.85720009
0.01501388 0.10982434 0.85553366
0.048546258 0.10828912 0.85597819
0.051666852 0.10675954 0.85807496
0.012664607 0.11181049 0.85856664
0.015426586 0.11350954 0.85631692
0.048209988 0.11361075 0.85708344
0.050727505 0.11148334 0.85911661
0.013484172 0.11516125 0.85973346
0.01638262 0.11807375 0.8576557
0.043775205 0.11948468 0.85633367
0.04658138 0.11783509 0.85757154
0.018574052 0.12257783 0.85792005
0.04341558 0.12317912 0.85710007
0.045499448 0.121417 0.85873324
0.019887023 0.12708715 0.85926676
0.021442333 0.12760665 0.85737783
0.038169451 0.12898707 0.85596693
0.041980073 0.12765345 0.85770017
0.023365933 0.1321065 0.85761356
0.033632446 0.13317987 0.85562247
0.037455745 0.1324705 0.85789526
0.040697973 0.13101162 0.85879987
0.024686992 0.13663568 0.85900003
0.027835207 0.13716274 0.85729641
0.032846503 0.13741949 0.85765833
0.035890169 0.13579369 0.8587333
0.028705321 0.14149462 0.85940009
0.03238475 0.14130187 0.85920012
0.033709973 0.02895817 0.86443353
0.037628338 0.028071374 0.86190003
0.042362876 0.028012518 0.86008692
0.0080619846 0.032115955 0.86289042
0.011390768 0.032659311 0.8631134
0.017962063 0.032723676 0.86305004
0.022764487 0.0332871 0.86204171
0.028326809 0.033063658 0.86249334
0.033031214 0.032530148 0.86173344
0.03726865 0.031085253 0.86100006
0.0030629369 0.03520871 0.86000001
0.0078784525 0.035224061 0.86037505
0.015095776 0.03521689 0.86019993
-0.016985947 0.064004496 0.86000001
-0.016985947 0.065604262 0.86000001
-0.012726571 0.072635703 0.86117172
-0.011737643 0.076713033 0.86155927
-0.0089726476 0.078457072 0.86060017
-0.011256628 0.081603363 0.86339885
-0.0073759803 0.082278751 0.86149991
-0.0041553047 0.084814586 0.86013347
-0.0075852694 0.086856864 0.86253738
-0.0030135089 0.088346742 0.86113346
-0.0023601577 0.092950776 0.86325008
0.00065786031 0.093713537 0.86103338
0.062686689 0.092655845 0.86162579
-0.00095140882 0.097267121 0.86415017
0.0019967228 0.097786717 0.86164451
0.057607226 0.09921854 0.86016679
0.061990153 0.098019704 0.86088228
0.0032335133 0.10242335 0.86290008
0.0054721939 0.10326326 0.86053348
0.057089325 0.10276841 0.86141682
0.061348055 0.10250492 0.86281121
0.0072897738 0.10726365 0.86212915
0.010280537 0.10879795 0.86000019
0.053631816 0.10889072 0.86073327
0.056484401 0.10709124 0.86343354
0.060322694 0.10616325 0.86460024
0.0083110034 0.11207856 0.86370009
0.010692673 0.1125198 0.86093342
0.0530807 0.11260428 0.86219341
0.011716169 0.11733407 0.8624751
0.048793301 0.11844242 0.86033344
0.051324263 0.11712573 0.8624112
0.013546908 0.12132119 0.86373347
0.016330609 0.12266789 0.86191666
0.047785331 0.12233215 0.86142778
0.050634097 0.1206056 0.86436683
0.018351998 0.12756124 0.86248344
0.04402741 0.12818362 0.86126673
0.046716012 0.12625906 0.86344004
0.019185526 0.13177286 0.86379182
0.022096047 0.13418959 0.86211115
0.039150942 0.13439418 0.86000019
0.04266607 0.13272035 0.86212093
0.023179056 0.13800244 0.86256009
0.037789404 0.13794374 0.86093342
0.042332586 0.13755691 0.86353344
0.024793334 0.14203849 0.8627001
0.027298201 0.14311999 0.86052018
0.033142161 0.143618 0.8601501
0.037644085 0.14275534 0.86218524
0.040951498 0.14227651 0.86415017
0.028449954 0.14731912 0.8620761
0.032808118 0.14751889 0.86190367
0.036485899 0.14736499 0.86335015
0.02913169 0.1516487 0.86412239
0.032887384 0.1518923 0.86398345
0.011986032 0.02905097 0.86720371
0.016840545 0.02906044 0.86748642
0.021735491 0.029114494 0.86909992
0.028222915 0.029118963 0.86923325
0.032816686 0.027007546 0.86822385
0.03626354 0.025838433 0.86766684
0.013050362 0.031172698 0.86640567
0.015736325 0.031159541 0.86603338
0.023024669 0.031183926 0.86671668
0.027775358 0.031090487 0.86787498
0.032144323 0.03061096 0.86570013
-0.0064510508 0.091592714 0.86673468
-0.0058170357 0.09697441 0.8687312
-0.0035400433 0.097048834 0.86650437
0.0006621136 0.099960648 0.86660022
-0.0021138361 0.10159515 0.86875349
0.0012008478 0.10325376 0.86718899
0.002513244 0.1073248 0.86842388
0.0055005974 0.10943048 0.86500013
0.058059074 0.10886668 0.86691684
0.061533153 0.10747362 0.86651444
0.0039056391 0.11156156 0.8690666
0.006167247 0.11337607 0.86810005
0.056705654 0.11212997 0.86846
0.0079508675 0.11793981 0.86841112
0.053993542 0.11768562 0.86653852
0.055814672 0.11811829 0.86973345
0.0087680994 0.12126137 0.8690666
0.011531941 0.12296163 0.8680191
0.015192295 0.12401237 0.86570013
0.052631292 0.12284058 0.8673709
0.055797555 0.12131722 0.86946678
0.013227075 0.12734328 0.86919999
0.015865864 0.12778537 0.8672601
0.048330832 0.1281433 0.86640847
0.052063789 0.12748827 0.86900473
0.016854838 0.13244745 0.86821336
0.047609586 0.13241249 0.86797786
0.018488053 0.13658281 0.8688333
0.020473972 0.13753167 0.86716676
0.044305164 0.13866566 0.86670011
0.047183819 0.1371337 0.86866671
0.021705082 0.14209433 0.8679477
0.043690749 0.14231583 0.86732674
0.046055201 0.14230348 0.86922216
0.024142923 0.14699298 0.86826664
0.026481839 0.14809941 0.86530006
0.038915247 0.14779462 0.86665565
0.042302277 0.14675593 0.86822855
0.024982054 0.1503953 0.86926663
0.027765827 0.15253375 0.86764175
0.032941539 0.15455778 0.86541122
0.03742715 0.15222099 0.8678239
0.029280931 0.15673625 0.86856681
0.033021022 0.15735228 0.86750007
0.036857758 0.15680717 0.86895555
0.023391316 0.029158045 0.87040019
0.027565463 0.027384078 0.87121499
-0.0074566542 0.093987264 0.87100005
-0.0074523734 0.097982019 0.87050003
-0.0062366612 0.10165428 0.87075001
-0.0042067049 0.10287213 0.87077284
-0.0058446638 0.10555345 0.87285721
-0.0021201854 0.106741 0.87118584
0.00066516962 0.10851946 0.87060016
-0.0017758234 0.11208689 0.87314779
0.001825586 0.11205424 0.87109536
0.058638509 0.11295629 0.87151116
0.061516941 0.11166511 0.87238854
0.0025284886 0.11653234 0.87342846
0.0055395998 0.11749865 0.87113357
0.058059301 0.11705021 0.87210476
0.061773319 0.1170331 0.87371016
0.0074919043 0.12258603 0.87160027
0.057816647 0.12233145 0.87238312
0.061614722 0.12159324 0.8737731
0.0079952814 0.12671579 0.8732332
0.011066264 0.12839159 0.87137347
0.054265313 0.12880737 0.87090027
0.057163388 0.1270898 0.87261897
0.061825804 0.12526582 0.87444985
0.008815852 0.13004902 0.87379986
0.012596956 0.13254705 0.87241107
0.01527712 0.13361171 0.87053347
0.052664962 0.13291632 0.87128162
0.05663237 0.13170385 0.87400001
0.013705845 0.13656117 0.87386644
0.016469335 0.1381781 0.87234288
0.049381245 0.1384961 0.87070018
0.052287303 0.13777331 0.87271893
0.017757904 0.14289351 0.87282223
0.020158587 0.14421433 0.87100023
0.048613917 0.14267486 0.87148899
0.051176939 0.1422129 0.87363315
0.018593032 0.14711097 0.87376654
0.020985374 0.14756294 0.87163347
0.044523276 0.14825998 0.87096679
0.047673747 0.14756733 0.87285835
0.023050472 0.15223722 0.87286663
0.025582708 0.15345454 0.87133342
0.03963501 0.15306133 0.87063354
0.042483516 0.15224914 0.87194288
0.046287153 0.15114504 0.87359977
0.027030224 0.15714262 0.87261331
0.039036777 0.157638 0.87176001
0.04182674 0.15731478 0.87401652
0.032838922 0.16193138 0.87130338
0.037894152 0.16212516 0.87256253
0.033803131 0.16688897 0.87377781
0.036521263 0.16662821 0.8738333
-0.0042308839 0.11405221 0.87577796
0.062694527 0.11397697 0.87520009
-0.0017849138 0.11753798 0.87746358
0.0014863 0.1190037 0.87625009
0.064477459 0.11832286 0.87725002
-0.0016242279 0.12235589 0.87925494
0.0023064287 0.12244618 0.87755197
0.0055734096 0.12310778 0.87645006
0.063939586 0.12256407 0.8754828
0.0027228408 0.12642948 0.87971652
0.0059919665 0.12782976 0.87810004
0.059426606 0.12780811 0.87515008
0.062882856 0.1276549 0.87782174
0.0075491937 0.13202985 0.87833327
0.010467416 0.13357955 0.87563342
0.059018113 0.13275394 0.87878668
0.061383218 0.13176039 0.87979972
0.01165768 0.13737309 0.87756675
0.054576833 0.13850828 0.87590009
0.056361582 0.13724816 0.87825555
0.013120157 0.14183858 0.87836009
0.015366031 0.14253336 0.8756001
0.053577047 0.14281319 0.87732786
0.013790539 0.14558306 0.87926662
0.016484307 0.14769886 0.87726682
0.052249685 0.14699963 0.87795842
0.01739271 0.15175605 0.87901992
0.020819781 0.15265693 0.87605566
0.044772908 0.15397882 0.87585008
0.048346199 0.15269019 0.87714291
0.051538184 0.15058117 0.87979978
0.018725671 0.15552633 0.87999976
0.02196021 0.15682961 0.87812859
0.025984619 0.15884492 0.87573344
0.044017687 0.15826897 0.87705851
0.047388591 0.1569704 0.87891662
0.023633189 0.16032776 0.87939972
0.026873365 0.16254777 0.87813741
0.030053915 0.16365704 0.87533343
0.039929409 0.16480322 0.87710017
0.042946935 0.16213958 0.87857997
0.046626251 0.16043715 0.87999976
0.027176591 0.16681333 0.8790943
0.031180413 0.16848326 0.87643903
0.03856118 0.16803861 0.87695557
0.041679461 0.16689308 0.87951094
0.028559946 0.17018162 0.87959975
0.032003127 0.173024 0.87845421
0.03650064 0.17297825 0.87822098
0.040052321 0.17103881 0.87979972
0.032261852 0.17678683 0.87989974
0.036449682 0.17712896 0.87997305
-0.0037076287 0.12288519 0.88071251
-0.00097009586 0.12786096 0.88112301
0.0019864843 0.12878387 0.88070947
-0.00097246422 0.13228166 0.88327408
0.0025266905 0.13285457 0.88298494
0.0061518024 0.1338944 0.88127762
0.063355617 0.13324636 0.88060921
0.0078086518 0.13742919 0.88292235
0.059082624 0.1378634 0.88219446
0.062403705 0.13793162 0.88263339
0.010946252 0.14306055 0.88135821
0.057303239 0.14253065 0.88264668
0.061683539 0.14145128 0.88411099
0.012462194 0.14768697 0.882061
0.054349322 0.14751716 0.88104433
0.056170851 0.14798552 0.88384444
0.013847523 0.15111168 0.88290006
0.016018175 0.15361881 0.88157767
0.052689873 0.15302554 0.88257331
0.055100225 0.15135135 0.88430017
0.017455017 0.15722974 0.88221329
0.020368427 0.15881221 0.88006645
0.049102828 0.15721112 0.88026643
0.050894983 0.15767539 0.88286674
0.021861039 0.16272396 0.88240832
0.046745151 0.16248319 0.88222009
0.050141204 0.16118473 0.88410014
0.023087837 0.16735157 0.88366014
0.025328841 0.16805799 0.88133335
0.043419372 0.16727673 0.88153332
0.045215085 0.16619365 0.88450015
0.023772035 0.17114262 0.88456684
0.026772598 0.17240682 0.88156235
0.041818075 0.17236505 0.88240659
0.0279832 0.1769056 0.88211995
0.030792067 0.17807825 0.8808887
0.038481332 0.17790854 0.88139999
0.040612537 0.17701212 0.88305843
0.0287158 0.18098125 0.88440019
0.032162532 0.18209754 0.88282508
0.036398884 0.18192597 0.88213807
-0.00097630842 0.13610333 0.88676566
0.0020943775 0.13738443 0.88666958
0.0056307483 0.13837388 0.88546681
0.065063417 0.13751259 0.88522232
-0.00097788754 0.14045329 0.88819999
0.0023355896 0.14218874 0.88871598
0.0070846733 0.14206567 0.88665819
0.061774582 0.14330633 0.88541096
0.065145075 0.14098248 0.88633341
0.0039973166 0.14561732 0.88946652
0.0075112544 0.14686194 0.88823318
0.010598515 0.14844652 0.88659978
0.058114052 0.147562 0.88624144
0.061920747 0.14694811 0.8875035
0.0081450567 0.15059796 0.88956666
0.011709805 0.15243243 0.88739991
0.057526965 0.15249862 0.88778883
0.061715435 0.15121832 0.88932008
0.012481538 0.15679397 0.88834155
0.016356854 0.15888533 0.88503349
0.053017255 0.15827633 0.88623315
0.056182053 0.15700416 0.88835555
0.013527479 0.16165596 0.88894993
0.0169833 0.16218887 0.88701886
0.047726482 0.16467547 0.88518345
0.052562043 0.16241582 0.88783318
0.055413868 0.16048442 0.88933337
0.017457265 0.16675611 0.88859159
0.020926986 0.16860408 0.88635826
0.04696792 0.16793086 0.88643318
0.051050596 0.16660403 0.88843995
0.018921439 0.17121211 0.88919997
0.022182843 0.17327234 0.88704741
0.04365579 0.17395753 0.88633323
0.046810389 0.17194079 0.8886888
0.022555314 0.17722318 0.88865328
0.025873672 0.17841144 0.88593328
0.042835273 0.17810299 0.88644975
0.045867383 0.17657807 0.88914996
0.023901921 0.18117756 0.88940001
0.027145414 0.18289079 0.88701087
0.030392703 0.18443826 0.88520014
0.038638484 0.18357342 0.88500017
0.04183222 0.18236279 0.88769501
0.027526313 0.18647194 0.88861334
0.032337792 0.18760423 0.88681883
0.03683744 0.18776859 0.88634151
0.041288123 0.18682767 0.88873327
0.028888978 0.190348 0.88973349
0.032184303 0.19103631 0.88908339
0.037169494 0.19219537 0.88934445
0.040471125 0.19019113 0.889
0.003011998 0.14813989 0.89269841
0.0056608478 0.14904928 0.89019996
0.0034593921 0.1518241 0.89353633
0.0070953886 0.15311015 0.89180499
0.06256704 0.15370966 0.89081693
0.065488078 0.15415551 0.89099997
0.0081769759 0.1578401 0.89308363
0.010653105 0.15915753 0.89116687
0.058927029 0.15770207 0.89230031
0.062071104 0.15755188 0.89262944
0.065773427 0.15649186 0.89488232
0.011503833 0.16275647 0.89271694
0.05658735 0.16298202 0.89213359
0.013998877 0.16687697 0.89255023
0.015624592 0.16894592 0.89033329
0.053488389 0.16797972 0.89179182
0.056245595 0.16682439 0.89375585
0.017319039 0.17260435 0.89212024
0.048879035 0.17324555 0.89115024
0.051341813 0.1725409 0.89350688
0.018600466 0.17748721 0.89372534
0.020628031 0.17824554 0.89128357
0.048256867 0.17787504 0.89192021
0.050714031 0.17716506 0.89420038
0.02204193 0.18263811 0.89249468
0.04383966 0.1837965 0.8900668
0.04684674 0.18252861 0.89311934
0.023995988 0.18604255 0.89290035
0.026201377 0.18870807 0.89241141
0.043505564 0.1878707 0.8917169
0.046262983 0.18685186 0.8941226
0.027689755 0.19256712 0.89388692
0.031845778 0.19357383 0.89125019
0.038893178 0.19389765 0.89083356
0.042016935 0.19259046 0.89245582
0.029053489 0.19642553 0.89480019
0.032881971 0.19714658 0.89303368
0.037315182 0.19765332 0.89281887
0.040710144 0.19713688 0.89425027
0.036568593 0.20144902 0.89493346
0.0031882711 0.1540594 0.89525878
0.0030276326 0.15725054 0.8973068
0.0056924308 0.15737431 0.89516687
0.066833556 0.15868986 0.89790004
0.0040372401 0.16127697 0.89835018
0.0073756441 0.16213357 0.89692783
0.059180155 0.16254519 0.8961333
0.062797561 0.16227886 0.89663345
0.066716343 0.16182041 0.89858687
0.011831854 0.16764127 0.89664459
0.058242362 0.16789323 0.89710683
0.062942691 0.16671588 0.8987146
0.066812411 0.16699214 0.89763898
0.013250787 0.17212322 0.89826679
0.015735736 0.17348363 0.89666665
0.053591873 0.17332466 0.89584446
0.056900375 0.17222819 0.89707357
0.067677356 0.17040068 0.89800006
0.016584456 0.17696486 0.89741677
0.05306828 0.17759793 0.89638901
0.056390055 0.17671898 0.89827526
0.018526366 0.18186331 0.89686662
0.049115811 0.18324587 0.89546674
0.052276284 0.18192013 0.89714456
0.019108705 0.1854348 0.8980003
0.021862589 0.18734796 0.89649457
0.04813499 0.18765762 0.89585334
0.051591653 0.18674114 0.89785355
0.023012234 0.19153456 0.89788359
0.025750341 0.19335552 0.89599997
0.044128623 0.19334111 0.89593327
0.0477443 0.1921403 0.89713341
0.05098626 0.19149472 0.89900029
0.024157222 0.19565335 0.89890015
0.02717229 0.19690843 0.89700013
0.031586062 0.19910744 0.8956334
0.043012168 0.19749536 0.89587778
0.047108352 0.19691536 0.89811933
0.028491661 0.20183554 0.89813364
0.032200892 0.20220228 0.89616191
0.037850283 0.2028601 0.89564991
0.042519033 0.20196275 0.89721441
0.045951199 0.20066974 0.89890009
0.033065606 0.20659928 0.89802247
0.037480656 0.20687486 0.89680016
0.041575514 0.20693667 0.89852029
0.034204561 0.21063226 0.89860028
0.03753129 0.21049161 0.8980003
-0.00099605368 0.16325746 0.90470004
0.0023729817 0.16293487 0.90290838
0.0057367315 0.16447243 0.90213341
0.067894019 0.16424306 0.90087509
0.0086823292 0.16744703 0.9023335
0.06200505 0.16924693 0.9007504
0.011345703 0.17287624 0.90220022
0.059520632 0.17270215 0.90128905
0.062734179 0.17266291 0.90217525
0.066837899 0.17223001 0.9017446
0.01374428 0.17768799 0.90320009
0.015808271 0.17847322 0.90080035
0.058762155 0.17797598 0.90253329
0.061365284 0.17652546 0.90369999
0.016966484 0.18307416 0.9028334
0.054442301 0.18347937 0.90070033
0.056942493 0.18278041 0.90304011
0.019188857 0.18789005 0.90176678
0.054081272 0.18829082 0.90167522
0.056277908 0.18650851 0.90319997
0.019249147 0.19016312 0.90460002
0.021420499 0.19394541 0.90132254
0.052865379 0.19264449 0.90243357
0.022901777 0.19773871 0.90231353
0.025885422 0.19939606 0.90070039
0.049411982 0.19859536 0.90086699
0.05181789 0.19670725 0.90374452
0.024294291 0.20264977 0.90399998
0.026472298 0.20295477 0.90162247
0.044338774 0.20430908 0.90020025
0.047485914 0.20292599 0.9014945
0.028060917 0.20666736 0.90319169
0.031492509 0.20894451 0.90093368
0.043837298 0.20793213 0.90138894
0.046745822 0.20728612 0.90344447
0.029344071 0.21099895 0.90374994
0.032647621 0.21280336 0.90189457
0.037672188 0.21379794 0.90137237
0.042425714 0.21184471 0.90234011
0.046259627 0.21043339 0.90493339
0.033554647 0.21601887 0.90364993
0.037753396 0.21677756 0.90331101
0.041149452 0.21523735 0.90389997
0.00069212739 0.16094333 0.90588337
-0.0010008614 0.16573647 0.9090668
0.0023875029 0.16723002 0.90798599
0.0063307402 0.1681798 0.90704465
0.0081384685 0.1725263 0.90742016
0.0091672922 0.17749 0.90863353
0.011250938 0.17737219 0.90587509
0.063773103 0.17753249 0.9059779
0.067355618 0.17754567 0.90719354
0.070124418 0.17905448 0.90800029
0.012816993 0.18226196 0.90715027
0.015885491 0.1835539 0.9052
0.05989999 0.18223965 0.90703362
0.06252569 0.18249588 0.90831143
0.066813923 0.1826421 0.90903729
0.070806034 0.18217129 0.90950602
0.014252347 0.18764766 0.90871137
0.016585715 0.18754837 0.90660018
0.058179546 0.18720275 0.90656692
0.061776042 0.18757798 0.90974432
0.066882908 0.18706185 0.90997767
0.070273563 0.18705225 0.90993094
0.017405963 0.19268352 0.90755427
0.05476265 0.19382809 0.90600008
0.057411905 0.19252543 0.9078002
0.018462501 0.19751374 0.90744472
0.020959375 0.19879624 0.90560001
0.054008916 0.19752854 0.90751696
0.05664758 0.19618958 0.90913349
0.019331425 0.20196107 0.90846694
0.022003913 0.20212087 0.90690678
0.049647864 0.20375249 0.9051668
0.051886149 0.20214656 0.90740019
0.024391631 0.20768286 0.90762258
0.026616298 0.20855723 0.90653348
0.049309392 0.2078905 0.90669191
0.05157987 0.20641226 0.90946668
0.024437623 0.21145654 0.90933347
0.027277455 0.2128738 0.90713358
0.044594899 0.2130686 0.90540004
0.047823649 0.21281183 0.90790033
0.028638028 0.21792759 0.90810031
0.032237392 0.21801697 0.90613341
0.037835188 0.21893072 0.9052667
0.04319708 0.2178871 0.90705436
-0.0010019256 0.16760558 0.91003346
0.00069557835 0.16936664 0.91040009
-0.0010069899 0.17015418 0.91463345
0.0027416903 0.17230175 0.91338682
0.0057978863 0.17216268 0.91175002
0.006486027 0.17699242 0.91304684
0.0083578499 0.18170895 0.91285008
0.01089398 0.1839474 0.91131663
0.070294335 0.18456776 0.91019994
0.009224968 0.18626001 0.91435027
0.011758982 0.18760338 0.91260844
0.061806668 0.18964723 0.91019988
0.067814358 0.1898347 0.91110003
0.07027889 0.1896055 0.90999997
0.013744955 0.19183947 0.91257787
0.062224984 0.19236492 0.91276205
0.066896453 0.19251466 0.91347164
0.014308641 0.19517595 0.91230005
0.01600307 0.19763544 0.91190004
0.057235621 0.19844431 0.91172504
0.061212763 0.19553962 0.91400027
0.01715493 0.20209472 0.912889
0.053322904 0.20320727 0.91026664
0.056213953 0.20248196 0.91310012
0.019420797 0.20544077 0.91266674
0.021810329 0.20754723 0.91296673
0.052981649 0.20734176 0.91169167
0.0552563 0.20662886 0.91416693
0.022843078 0.21198934 0.91345859
0.049938541 0.2134138 0.91046661
0.052651584 0.21238911 0.91333896
0.026187658 0.21782726 0.91121662
0.00069955143 0.17374033 0.91560042
0.0028997883 0.17724888 0.91738099
0.0041307164 0.18210867 0.91914988
0.0062562833 0.18290702 0.9167251
0.007262534 0.18784668 0.91794997
0.0087008597 0.19206931 0.91908884
0.011811495 0.19268474 0.9165917
0.012685383 0.19710118 0.91811335
0.062277656 0.19820106 0.91713333
0.066319697 0.19693214 0.91784436
0.014427315 0.20192809 0.91986668
0.016103687 0.2031448 0.9176333
0.058770258 0.20273744 0.91578895
0.061972499 0.20172715 0.91894984
0.018668141 0.20824644 0.91755003
0.057396073 0.20801972 0.91655016
0.018695697 0.21196964 0.91889161
0.022047628 0.21379986 0.91575021
-0.0010166052 0.17864938 0.92336684
0.00070403371 0.17828181 0.92146677
-0.0010183665 0.18067962 0.92496645
0.0015659059 0.18208845 0.92338336
0.0041449731 0.18702717 0.92232233
0.0041555087 0.19094133 0.92466652
0.0062975483 0.19268398 0.92270839
0.0084550232 0.19670793 0.92347503
0.011899659 0.1992863 0.92348337
0.06769307 0.19875039 0.92100012
0.01333735 0.20274778 0.92360002
0.063667171 0.2032606 0.92073345
0.066649742 0.20134091 0.9224
0.01450103 0.20725974 0.92456657
0.016184023 0.20759089 0.92221117
0.06215262 0.20741174 0.92250955
-0.0010204032 0.18362823 0.92681646
0.00070742058 0.18430662 0.92589974
-0.0018895406 0.18665187 0.92900014
0.001746545 0.18778671 0.9277733
0.0024364926 0.1915517 0.92763329
0.0041743098 0.19612561 0.92885
0.0070356126 0.19798583 0.92543316
0.0079783797 0.20165804 0.92807323
0.011645972 0.20328969 0.92606646
0.06812612 0.20288704 0.92686659
0.070086502 0.20241533 0.92996675
0.0093771452 0.20575704 0.92943323
0.011962176 0.20723644 0.92831665
-0.001894369 0.18882269 0.93118358
-0.0014619749 0.19218034 0.93275845
0.0012899021 0.19344777 0.93121129
0.0024512452 0.1978568 0.93294668
0.0041942322 0.20227015 0.93328345
0.0065057739 0.20404021 0.93212229
0.070124187 0.20425501 0.93046689
-0.0027764628 0.1933023 0.93609995
-0.0019089378 0.19731092 0.9386
0.00071518857 0.19851926 0.93606669
-0.0010348811 0.20109479 0.93996698
0.0014157502 0.20278028 0.93805331
-0.0027954446 0.19988362 0.94250017
