# .PCD v0.7 - Point Cloud Data file format
VERSION 0.7
FIELDS x y z
SIZE 4 4 4
TYPE F F F
COUNT 1 1 1
WIDTH 882
HEIGHT 1
VIEWPOINT 0 0 0 1 0 0 0
POINTS 882
DATA ascii
0.033645362 0.053622171 0.82340002
0.037868276 0.053237796 0.82338333
0.041366287 0.05367643 0.82423347
0.0090875933 0.059828721 0.8245002
0.013238882 0.059215534 0.82450688
0.017532004 0.058253124 0.82391858
0.022132188 0.058227241 0.8235482
0.027734255 0.057805866 0.82378101
0.03283456 0.057377044 0.82233882
0.037395444 0.057314098 0.82143873
0.041588057 0.057377167 0.8235482
0.0083174529 0.061355013 0.82440019
0.013702484 0.061372384 0.82463348
0.017157696 0.061737247 0.8243835
0.021394987 0.061379828 0.8247335
0.02868858 0.061737306 0.8243835
0.032881841 0.062822327 0.82351851
0.03749226 0.062825419 0.82355565
0.040611871 0.061364941 0.82453352
0.042403925 0.049390983 0.82951134
0.007852261 0.054014359 0.82942247
0.013304889 0.053345673 0.82862693
0.017808732 0.052563343 0.8278501
0.022046564 0.052543581 0.82754171
0.027310202 0.053231779 0.82755244
0.032594286 0.052120887 0.8273716
0.037299413 0.051338077 0.82609332
0.042449601 0.05182093 0.82609522
0.046961188 0.052381612 0.82800746
0.050136641 0.052474275 0.82946676
-0.011735378 0.058613155 0.82900006
-0.0065842564 0.05761135 0.82937795
-0.0024591063 0.05784671 0.82906699
0.0021761076 0.057295404 0.82780677
0.007513335 0.057173386 0.82707691
0.012741967 0.056457728 0.82648563
0.017573241 0.055320565 0.82588887
0.022175444 0.055271436 0.82515574
0.026025975 0.055278882 0.82526684
0.043745097 0.057863396 0.82562214
0.046741258 0.056777459 0.82752508
-0.011735378 0.060155258 0.82900006
-0.0069550546 0.062660985 0.82877004
-0.0024571232 0.062420424 0.82836694
0.0021736755 0.062514834 0.82683009
0.0073094643 0.062916927 0.82644433
0.012735561 0.063452773 0.82602841
0.01787811 0.063910276 0.82570666
0.022409404 0.063426293 0.8256858
0.026989119 0.063533813 0.8253085
0.04246597 0.063274868 0.82693321
0.045980304 0.061947737 0.82890016
-0.001944967 0.066864386 0.82933354
0.0021792024 0.067418635 0.82891458
0.0078431508 0.067309774 0.82847428
0.013185361 0.067621663 0.82835853
0.017613182 0.067762092 0.82771844
0.022241304 0.067753434 0.82761472
0.027636549 0.067734934 0.82739431
0.033001836 0.067663617 0.82651836
0.037620708 0.067652039 0.82637763
0.042160843 0.067634247 0.82851684
0.017644608 0.070967063 0.82920027
0.022474755 0.072308809 0.82910872
0.027221814 0.072326437 0.82886696
0.032524426 0.072600983 0.82863671
0.037730992 0.071704015 0.82880026
0.040831875 0.070949942 0.82900035
0.026154654 0.075606674 0.82933366
0.0315613 0.075590461 0.82915586
0.013874894 0.049717795 0.83499974
0.017766733 0.049713824 0.8349331
0.02242141 0.049676776 0.83431107
0.027070366 0.049642373 0.83373338
0.032960016 0.049303152 0.83325326
0.037885211 0.048776552 0.83221108
0.042555045 0.047243837 0.83247775
0.047226898 0.048030648 0.83271104
0.051549353 0.049242631 0.83353329
0.056683946 0.049703509 0.83475983
-0.0055889394 0.05435589 0.83466673
-0.0020816391 0.053844057 0.83276433
0.0021873193 0.053410113 0.83204442
0.0079579912 0.052451938 0.83263797
0.012653588 0.051444583 0.83153331
0.016133161 0.051025473 0.83099991
0.02388229 0.051025473 0.83099991
0.026981944 0.051025469 0.83099991
0.030856501 0.051025473 0.83099991
0.052072972 0.052671399 0.83257502
0.055890415 0.052018777 0.83453315
-0.010213864 0.058754563 0.83100003
-0.007119061 0.057246886 0.83157122
-0.0024643601 0.055645049 0.8307333
0.048624817 0.058688577 0.83006668
0.051698901 0.056919787 0.83323801
0.056700256 0.057484124 0.83499974
-0.011003628 0.061549678 0.83220834
-0.0086588264 0.060264107 0.83050013
0.048096903 0.062822178 0.83163995
0.050392512 0.061271943 0.83369994
-0.010635216 0.067084245 0.83364403
-0.0071225073 0.068109125 0.83194518
-0.0027261868 0.068609662 0.83177119
0.0021845645 0.069569722 0.83093321
0.0068319566 0.069554836 0.83075547
0.011474482 0.069519483 0.83033329
0.044001769 0.069530644 0.83046669
0.047425728 0.067920201 0.83344662
-0.0063652545 0.07218729 0.83438867
-0.0024740153 0.072934337 0.8340444
0.0021900572 0.072837315 0.83293343
0.0076259724 0.072836079 0.83292222
0.01304917 0.072758108 0.83202958
0.017681004 0.073433258 0.83092213
0.020780981 0.074206829 0.83093321
0.037842467 0.074234605 0.83124429
0.042720702 0.072940506 0.8319
0.046392135 0.072659008 0.83445323
-0.00091931585 0.076123245 0.83499974
0.0021952558 0.076123245 0.83499974
0.0080755418 0.07730975 0.83476269
0.013085279 0.077613004 0.83430356
0.01774097 0.077366278 0.83373332
0.022365557 0.077424094 0.83226663
0.027243664 0.077862225 0.83222866
0.032733843 0.077983879 0.83274066
0.037769426 0.077383257 0.83391654
0.042645533 0.076052345 0.83422214
0.014653536 0.080783039 0.83499974
0.023218606 0.080783039 0.83499974
0.027111828 0.080783039 0.83499974
0.031783685 0.080783039 0.83499974
0.047632542 0.04375834 0.83986664
0.055407118 0.043713175 0.83900005
0.0084634088 0.049948033 0.83886689
0.012365391 0.048351411 0.83825833
0.017434411 0.047930054 0.83770001
0.022905119 0.047932848 0.83775002
0.027190791 0.0475263 0.83745557
0.032301951 0.047383394 0.83689517
0.03848137 0.046316952 0.83671665
0.04276799 0.045146752 0.83664441
0.047461104 0.045157548 0.83684438
0.052198675 0.04676196 0.83773333
0.05560248 0.04766766 0.83723432
-0.0071720197 0.053378459 0.83761364
-0.0027952557 0.052023686 0.83713341
0.0022002407 0.051395237 0.83702224
0.0063640513 0.050873142 0.83699989
0.056767941 0.054441791 0.8359856
-0.0087057427 0.055930853 0.83500004
0.05281125 0.059042074 0.83506638
0.056739882 0.057525218 0.83558875
0.052564938 0.062474277 0.83644754
0.056880251 0.062342636 0.83765924
-0.011820314 0.066027053 0.83500004
0.052204434 0.067028463 0.83780009
0.05698197 0.06635543 0.83915204
-0.010271223 0.070742652 0.83566666
-0.0077872425 0.073775396 0.83655483
0.048578016 0.073486164 0.83591646
0.05156694 0.07174857 0.83833349
-0.011047817 0.07772395 0.8355
-0.0071615661 0.077816941 0.83650208
-0.0026765205 0.07802023 0.83659989
0.0021976719 0.078539513 0.83591098
0.0063523203 0.078762598 0.8355332
0.01777095 0.07924246 0.83513314
0.039601691 0.07929305 0.83566654
0.042763963 0.078598656 0.83654433
0.047291663 0.077695437 0.83728325
0.050737068 0.076524377 0.83939999
-0.010279417 0.080912024 0.83633333
-0.0066576065 0.08216586 0.83853716
-0.002487188 0.082675844 0.83842969
0.0022027125 0.082622446 0.83788896
0.007196947 0.082399584 0.83721334
0.012340013 0.08280012 0.83653986
0.017800098 0.08248549 0.83650357
0.02226207 0.082945995 0.83666658
0.027176805 0.083312072 0.83699995
0.032892 0.083032362 0.83679253
0.038098648 0.082522035 0.8368814
0.042644359 0.08244054 0.83802509
0.046040587 0.08198981 0.83940005
0.0037705158 0.085852139 0.83900017
0.0072917743 0.086249284 0.8390668
0.012366924 0.086568505 0.83837509
0.017847255 0.086604364 0.83872229
0.02254362 0.086462095 0.83885336
0.02722553 0.086581506 0.83850002
0.032490365 0.086743288 0.83817506
0.037609436 0.087516479 0.83862436
0.042117007 0.085872598 0.83920014
0.023496684 0.044025782 0.84499991
0.027786385 0.043562487 0.84365022
0.031713247 0.043554671 0.84350026
0.037291031 0.043292094 0.84384775
0.042890605 0.042738423 0.84289169
0.047570802 0.042338755 0.84275246
0.052536327 0.043143675 0.84314299
0.055737317 0.042403679 0.84400004
0.0022184746 0.048700333 0.84428889
0.0071283085 0.047247622 0.84291673
0.01191368 0.046014756 0.84306663
0.018241206 0.046087921 0.84249336
0.022312341 0.046056733 0.84192008
0.027307322 0.045382988 0.84102201
0.032010376 0.045379389 0.84095526
0.036703393 0.045363802 0.84066653
0.053906556 0.045327839 0.84000003
-0.0071980855 0.051629256 0.84083337
-0.00092951808 0.050269566 0.84426659
0.002214283 0.050170328 0.84260011
0.0053475578 0.050071087 0.84093308
0.057085544 0.068821676 0.84067661
0.053443819 0.073014215 0.84093314
0.057185922 0.072076522 0.8421455
0.049253579 0.079780109 0.84079975
0.052936189 0.077018127 0.84235239
0.057095811 0.076722056 0.84371382
-0.0082364641 0.083878763 0.84007812
0.044513948 0.084405296 0.84013325
0.048192076 0.083232321 0.84180957
0.051410105 0.081262976 0.84401667
0.056852803 0.083582662 0.84498328
-0.0067586275 0.087492801 0.84189785
-0.0024968763 0.087712258 0.84185934
0.0020166482 0.087886147 0.84165001
0.0066065202 0.08861234 0.84149325
0.012404937 0.089176789 0.84091645
0.017895786 0.089185625 0.84099978
0.022593442 0.088764817 0.84071642
0.027289018 0.089126706 0.84044433
0.031210562 0.089136139 0.8405332
0.043264888 0.088167377 0.84194291
0.047429044 0.087732337 0.84420961
-0.0067034629 0.092157014 0.84433335
-0.0025044056 0.091907568 0.84444445
0.0022189722 0.092662841 0.844163
0.0069427313 0.092666946 0.84420002
0.012444247 0.092601158 0.84360009
0.01794718 0.092582531 0.8434298
0.02265022 0.092517138 0.84283721
0.02734796 0.09245465 0.84226674
0.032052733 0.092433564 0.84207416
0.037529495 0.092383407 0.84161657
0.04313536 0.092621595 0.84379268
0.0026155296 0.096290193 0.84499991
0.0069493516 0.096683167 0.84499985
0.012465128 0.09589722 0.84499991
0.017980903 0.09589722 0.84499997
0.02310174 0.096286401 0.84496653
0.027610475 0.097192228 0.84429163
0.032098446 0.097271346 0.84328175
0.037585996 0.097225241 0.84288359
0.042376701 0.097396649 0.84436661
0.032549754 0.10098003 0.84478331
0.03686076 0.10131273 0.8442778
0.040561941 0.1011183 0.84484434
0.043363731 0.039464239 0.84831136
0.048490405 0.039054535 0.84800017
0.053075902 0.038330417 0.84818113
0.055945504 0.037834499 0.84715277
0.0030243732 0.044246323 0.84923363
0.0073626116 0.043745976 0.8472001
0.012498125 0.043351665 0.8472001
0.018033771 0.043365836 0.84747791
0.022555845 0.042136963 0.84769535
0.027185792 0.041607853 0.84700012
0.032561518 0.041614808 0.84714681
0.036986239 0.040986329 0.84715563
0.041697118 0.040959459 0.84660006
0.049507439 0.040888514 0.84513319
0.052734982 0.040946372 0.84632951
0.055910017 0.0409602 0.84661543
-0.0019897765 0.047888074 0.84846622
0.0022248679 0.046465054 0.8465001
0.0053746896 0.04560845 0.84519994
-0.0064640353 0.050456133 0.84740007
-0.003297518 0.050355863 0.845716
0.059001736 0.078668788 0.84566677
0.05319998 0.082572252 0.84536666
0.057387173 0.081761755 0.84511662
0.049552344 0.088919252 0.8459
0.052796558 0.087230787 0.8473261
0.057676863 0.087996535 0.84647882
-0.0061862157 0.093323641 0.84541386
-0.002507142 0.094360113 0.84531099
0.048049197 0.092994481 0.84718537
0.052936859 0.090886161 0.84958351
0.057829164 0.092215173 0.84831458
-0.0060721873 0.097791754 0.84778881
-0.0025129318 0.0977294 0.84724468
0.0019101057 0.098616049 0.84674674
0.0069655776 0.099272765 0.84697789
0.012485987 0.098414607 0.8463667
0.018026544 0.098503225 0.84713346
0.02243703 0.098605014 0.84665334
0.02586671 0.099064432 0.84519982
0.044881303 0.097708642 0.8470667
0.046949346 0.097507477 0.84875023
0.059222687 0.096332289 0.84883338
-0.0056888419 0.10115891 0.84958637
-0.0025192213 0.10113143 0.84935588
0.0022312875 0.10106527 0.84880036
0.0073774513 0.10147025 0.84888363
0.012525317 0.10188695 0.84906703
0.018064281 0.10186962 0.84892255
0.023030059 0.10216502 0.84856218
0.027514689 0.10247922 0.84742236
0.031902753 0.10330435 0.84644002
0.03693806 0.10388484 0.84604454
0.042915247 0.10265055 0.84721678
0.04578428 0.10268888 0.84916699
0.024409181 0.10586861 0.84933358
0.027582593 0.10588798 0.84948903
0.032639198 0.10647941 0.84916019
0.037265547 0.10721288 0.84902519
0.041037213 0.10743769 0.84924465
0.047652438 0.034973994 0.85426676
0.052714504 0.034254186 0.85332388
0.05613355 0.034799304 0.85000002
0.0038415233 0.039766099 0.85480016
0.0070239636 0.039733533 0.85410005
0.012597919 0.039730433 0.85403341
0.018486153 0.039083801 0.85379332
0.022916153 0.038874947 0.85271668
0.027671054 0.038852375 0.8522222
0.032448504 0.038863316 0.85246664
0.037202582 0.038846981 0.85210544
0.04157548 0.038454443 0.852175
0.04719374 0.037151106 0.85216182
0.052270051 0.036449663 0.85161674
-0.010471977 0.04359898 0.852
-0.0070751095 0.043310028 0.85303265
-0.002532254 0.042885158 0.85361385
0.002013807 0.04237229 0.85242373
0.006678083 0.041785505 0.85060006
0.012551771 0.041166294 0.8508749
0.018103169 0.041160513 0.85075551
-0.010482219 0.047608018 0.85283333
-0.0072929645 0.047543157 0.85169142
-0.0035801532 0.046424013 0.85054415
-0.0089038378 0.050849117 0.85400003
0.05331865 0.092407189 0.85145551
0.056985192 0.094190598 0.85088325
0.049060438 0.098166972 0.8510499
0.052896161 0.096296288 0.85317224
0.057150722 0.096845761 0.85335004
-0.0065034931 0.10308301 0.85243392
-0.0025267147 0.10383418 0.85207772
0.0022385884 0.10377444 0.8515889
0.0066815121 0.10386699 0.85105324
0.01255364 0.10449331 0.85099989
0.018108577 0.10449331 0.85099989
0.022062119 0.10442783 0.85046667
0.04805724 0.10276746 0.85200548
0.050842214 0.10251679 0.85431689
-0.0057023256 0.10694262 0.85160005
-0.0031694262 0.107397 0.85394657
0.0024735893 0.10762019 0.8542763
0.0070236987 0.10804556 0.85405189
0.012582219 0.10791273 0.85299164
0.018109657 0.10766647 0.85105544
0.02266841 0.10784266 0.85088319
0.027632227 0.1084538 0.85102218
0.031995259 0.10884448 0.8509832
0.035527956 0.10912258 0.85006672
0.043492358 0.10763437 0.85079998
0.04657799 0.10768729 0.85278749
-0.004129299 0.11131376 0.85475004
0.0086160908 0.11121608 0.85400003
0.012599589 0.11202687 0.85412508
0.018159466 0.1127302 0.85342598
0.022908866 0.1125996 0.85243326
0.02751587 0.1125484 0.85355425
0.032468136 0.11187797 0.8529833
0.037230983 0.11264416 0.85277039
0.042004533 0.11264658 0.85278893
0.046043538 0.11200643 0.85396671
0.03761556 0.11665557 0.85428011
0.041024059 0.116575 0.85446674
0.037544105 0.033606324 0.85993356
0.04234083 0.033595037 0.85964459
0.047070403 0.033537727 0.85817784
0.051260725 0.031626616 0.85688728
-0.0022228279 0.03925927 0.85764742
0.0014551075 0.039905664 0.85780001
0.012255659 0.037918389 0.85798359
0.017323082 0.036906112 0.85699052
0.023035035 0.035887275 0.85713345
0.027846256 0.035906818 0.85760015
0.032644473 0.036067456 0.8576268
0.037421755 0.035887688 0.85713339
0.042205423 0.035877448 0.85688901
0.045379344 0.035064057 0.85646695
0.053850818 0.098174177 0.8557114
0.056516565 0.098714873 0.85580033
0.054137867 0.10192797 0.85604477
0.0579409 0.10214713 0.85621125
-0.0073282388 0.10510725 0.85600007
-0.0014736733 0.10877145 0.85559464
0.0014521274 0.10987569 0.85593367
0.048539694 0.10986654 0.85586238
0.051805932 0.10683272 0.85706675
0.056304835 0.10583316 0.85865581
-0.0017450791 0.11175998 0.85817063
0.0024806976 0.11272518 0.85683817
0.0068429625 0.11331972 0.8563835
0.011829517 0.11466419 0.85602254
0.0150209 0.11465228 0.85593361
0.029380981 0.11462548 0.85573363
0.032556333 0.11456594 0.85528904
0.047596656 0.11371998 0.85610688
0.050938111 0.11149763 0.85861331
0.002257931 0.11560129 0.85904437
0.0073803985 0.11722958 0.85847986
0.011857281 0.11732686 0.85802221
0.017659195 0.11786687 0.85719401
0.023018446 0.11791858 0.85651863
0.027838698 0.11803774 0.85738522
0.032610644 0.11794678 0.85672611
0.036958642 0.11899386 0.85566694
0.042705521 0.11840788 0.85622245
0.046604365 0.11789425 0.85799998
0.050362695 0.11516126 0.85973346
0.023398301 0.12205841 0.85874665
0.027883356 0.12142015 0.85875553
0.033227894 0.12250806 0.85891104
0.03746707 0.12293669 0.85818523
0.042073146 0.12274609 0.8582499
0.045555968 0.12156781 0.85980016
0.038318809 0.12629741 0.8593334
0.041518822 0.12627782 0.8592
0.028595602 0.028412899 0.86415577
0.032821465 0.02808403 0.86227781
0.037630085 0.028232131 0.86190671
0.041985512 0.028428633 0.86058342
0.047268812 0.028869634 0.86179048
0.017955106 0.032714251 0.86278325
0.023168612 0.032085277 0.86210752
0.028002955 0.032097824 0.86243343
0.032812659 0.032084838 0.86204451
0.03758793 0.031243732 0.86095554
0.042361408 0.031211302 0.86005569
0.047194425 0.031224476 0.86042237
-0.0014845077 0.036358755 0.86200005
0.0020658106 0.037106279 0.86233228
0.0070869313 0.037686028 0.86180568
0.011518748 0.03611796 0.86264175
0.016713362 0.035247829 0.86095566
0.032735288 0.035208706 0.86000019
0.05360689 0.10884012 0.86033338
0.056928232 0.10825368 0.86203212
-0.0033537531 0.11364385 0.86035299
0.053309545 0.11265909 0.86199999
0.055448879 0.11171941 0.86403352
-0.0022881897 0.117279 0.86157519
0.002261007 0.11813448 0.86003351
0.006671736 0.11959636 0.86000019
0.011884447 0.1199963 0.86000019
0.015092262 0.1199963 0.86000019
0.048774395 0.11839653 0.86000019
0.051433258 0.11732773 0.86154664
-0.0020995291 0.12174275 0.86265755
0.0020644986 0.12203495 0.86168337
0.0070845396 0.12259575 0.86139995
0.011910056 0.12266174 0.86186665
0.017509457 0.12248175 0.86060005
0.022720711 0.12445131 0.86038345
0.027926825 0.12401026 0.86010021
0.031667627 0.12426883 0.86004466
0.043962672 0.12479562 0.86000019
0.047435071 0.12259976 0.86062866
0.051226269 0.12176657 0.86347353
-0.0017560744 0.12689161 0.86337453
0.0022704354 0.12691668 0.86354089
0.006898961 0.12668054 0.86330009
0.012167441 0.12649758 0.86381447
0.01755311 0.12680149 0.86275834
0.023155592 0.12824135 0.86165184
0.027956506 0.12814711 0.8610149
0.032763034 0.12810545 0.86073339
0.037349332 0.12856123 0.86072385
0.042642467 0.12861665 0.86109537
0.04731619 0.12678498 0.86264759
-0.0014889586 0.13078643 0.86434883
0.019196507 0.13023779 0.86426687
0.023191452 0.13165233 0.86300009
0.027991334 0.13151333 0.86208886
0.032813016 0.13150655 0.86204439
0.037665594 0.13201126 0.86271667
0.04248549 0.13158453 0.8625555
0.045785572 0.13021769 0.86413354
0.0055251876 0.029106678 0.86886668
0.023301492 0.029046008 0.86705571
0.026530804 0.028234126 0.86690009
0.0028203756 0.03281511 0.8672207
0.0071353018 0.032296583 0.86771125
0.011988838 0.032288566 0.8675223
0.015746227 0.031177729 0.86655134
0.0038950022 0.035483006 0.86670011
0.0071268319 0.035480276 0.86663347
0.011955385 0.035418876 0.86513346
0.05685696 0.1133216 0.8670668
0.053989068 0.11767601 0.86646676
0.05573054 0.11794168 0.86842227
-0.004184959 0.1232893 0.86627138
0.053645559 0.12305086 0.86743617
-0.0041868682 0.125763 0.86666673
0.008744223 0.12899227 0.86670017
0.011170812 0.12901458 0.86685014
0.049131695 0.12893273 0.86630017
0.052020285 0.12738122 0.86827147
-0.0017631399 0.13308436 0.86710006
0.0022806874 0.13230738 0.86728549
0.007139286 0.13242298 0.86804444
0.012001308 0.13248938 0.86848146
0.016641513 0.13255715 0.86760008
0.022001145 0.13352054 0.86678678
0.028128818 0.13377242 0.86633348
0.032956332 0.1336952 0.86583346
0.037812002 0.13372865 0.86605012
0.042695258 0.13384961 0.86683345
0.04759853 0.13238373 0.86779058
0.0022845848 0.13579714 0.86897779
0.007146731 0.13580061 0.8689999
0.012824694 0.13586313 0.86939991
0.017106747 0.13698862 0.86920947
0.022525406 0.13731501 0.86835003
0.028170539 0.13719881 0.86761117
0.033031549 0.13722624 0.86778522
0.037901819 0.13727884 0.86811852
0.042776067 0.13733475 0.86847413
0.046696831 0.13710852 0.86909324
0.023680316 0.14131203 0.86909324
0.02844983 0.14181738 0.86907619
0.033081524 0.14182058 0.86909521
0.037623871 0.14132735 0.86918658
0.042814124 0.14149846 0.86924434
0.058563732 0.11713092 0.87201327
0.060910802 0.11694244 0.87302893
0.057592716 0.12222116 0.87207395
0.061592251 0.12219819 0.87345397
0.054302685 0.12889612 0.87150002
0.057684105 0.12648115 0.87347764
0.061977625 0.12556569 0.8727687
0.049349103 0.13435912 0.8701334
0.05246954 0.1327319 0.87140429
-0.0009611526 0.1372377 0.87300003
0.0022900803 0.13857237 0.87117863
0.0071629756 0.13854006 0.87097806
0.011801607 0.13816349 0.8707906
0.016090959 0.13929501 0.87063348
0.04898664 0.13812256 0.87090021
0.052299704 0.13757391 0.8729285
-0.00096188654 0.14140548 0.8736667
0.0028395627 0.14193614 0.87359351
0.0074168839 0.14255176 0.87357134
0.012053613 0.14280504 0.87228137
0.016915798 0.14264812 0.87132609
0.021237062 0.1431035 0.87081128
0.0266506 0.14418489 0.87082243
0.033119921 0.14406532 0.87010014
0.038412377 0.14372954 0.87051684
0.042899501 0.14421065 0.87097806
0.047788303 0.14263579 0.87125206
0.051184099 0.14304616 0.8737554
0.012905121 0.14647642 0.87483335
0.017287718 0.14693394 0.87367982
0.0218336 0.14698403 0.87301105
0.027874049 0.14683746 0.87282854
0.033204421 0.14768372 0.87234086
0.038055718 0.14756638 0.87165195
0.042934563 0.14757264 0.87168908
0.047641765 0.14729774 0.87280941
0.039009057 0.15135266 0.87479997
0.042258762 0.15130651 0.8745333
0.06269554 0.12049109 0.87521428
0.05864802 0.12870277 0.87570012
0.061762199 0.12840994 0.8774001
0.057950132 0.13223065 0.87748158
0.061383214 0.13176025 0.87979978
0.054618381 0.13779919 0.87656665
0.056460686 0.13667025 0.87979972
-0.0015127024 0.14204928 0.87763339
0.0017572646 0.14282645 0.87573338
0.0063820388 0.14492631 0.87530005
0.054031096 0.14237155 0.87761992
-0.0017880703 0.14719002 0.8790912
0.0023073249 0.14697438 0.87780309
0.0072163623 0.14774783 0.87755013
0.011685252 0.14774618 0.87512505
0.016588172 0.14943399 0.87547505
0.021070853 0.14978528 0.87515008
0.026807185 0.14909942 0.87590003
0.030050484 0.14979954 0.87523341
0.047998704 0.14977673 0.87510008
0.052410178 0.14731717 0.8779
-0.00096810627 0.1513162 0.87931597
0.0025449158 0.15160951 0.87898093
0.007223906 0.15198398 0.87844449
0.012130413 0.15187401 0.87781131
0.017045638 0.15272295 0.8780002
0.022190634 0.15236427 0.87794781
0.026668461 0.1521261 0.87808764
0.032217328 0.15245628 0.87713349
0.03731728 0.15307766 0.87722015
0.043561511 0.15280479 0.8761251
0.048338559 0.15220022 0.87700492
0.051529076 0.15219145 0.87964422
0.0039547752 0.15552633 0.87999976
0.0072358511 0.1563212 0.87986642
0.012144243 0.15695275 0.87881494
0.017068554 0.15701762 0.87917769
0.021985626 0.1570002 0.87908143
0.02691655 0.15707654 0.879511
0.031797741 0.15688068 0.87841487
0.037516516 0.15681605 0.87805575
0.043247066 0.15681216 0.87803352
0.047751866 0.15677477 0.87912852
0.022008099 0.16043715 0.87999976
0.027752329 0.16043715 0.87999976
0.032262672 0.16083121 0.87991643
0.036763873 0.16118883 0.87963313
0.042509332 0.16093017 0.87971085
0.062303357 0.13442874 0.88119996
0.058698412 0.13802148 0.88171428
0.062426347 0.13798057 0.88295007
-0.0026100704 0.14406751 0.88000005
0.057845075 0.1426875 0.88303339
0.061694715 0.14312212 0.88427156
0.054907084 0.14754367 0.88120002
0.057606652 0.1464992 0.88480014
-0.00096951 0.1539927 0.88059086
0.0014933882 0.15397388 0.88048309
0.05332138 0.15262568 0.8821556
0.055110626 0.15137985 0.88446671
-0.00097209692 0.15686771 0.88294053
0.0021107811 0.1576591 0.88162696
0.0072388998 0.15884028 0.88022202
0.049965393 0.15734182 0.88099974
0.051253781 0.15792599 0.88196665
0.0031505134 0.16126677 0.88455009
0.0072595403 0.16094773 0.88280004
0.01219756 0.16209933 0.88267142
0.017128432 0.16150592 0.88225329
0.022340758 0.16222842 0.88231111
0.026759088 0.16292234 0.88205236
0.031571735 0.16328792 0.88124657
0.036796 0.16378553 0.88039976
0.041308001 0.16336384 0.88033313
0.046742473 0.16247733 0.88218099
0.050101511 0.1610571 0.88340014
0.02704066 0.16602452 0.88360006
0.031951707 0.16584913 0.88266677
0.036504991 0.16637811 0.88329172
0.041860323 0.16679698 0.88333344
0.045201454 0.16614351 0.88423342
0.065047078 0.138301 0.88500005
0.057642326 0.14906093 0.88535011
0.061120234 0.14793332 0.88550007
0.056932535 0.15321134 0.88713318
0.061414406 0.15256269 0.88815171
0.053499386 0.15725097 0.88510013
0.057028484 0.15677615 0.88863325
0.062046826 0.15634461 0.88931113
0.065341078 0.1571169 0.88900006
0.0019179833 0.16288862 0.88665873
0.0068763504 0.16367142 0.88643318
0.012233112 0.16469097 0.88526678
0.017188746 0.16429798 0.88536674
0.021308642 0.16464756 0.88503349
0.048570972 0.16474055 0.88553327
0.052524056 0.16230066 0.88719988
0.055428401 0.16135405 0.8895669
0.0028865878 0.16629244 0.88795251
0.0075038578 0.16692649 0.88729978
0.012463659 0.16809785 0.88694978
0.017218672 0.16747165 0.88691086
0.022375075 0.16799754 0.88641655
0.027124124 0.16900556 0.88629985
0.032076702 0.16897178 0.88612223
0.037355307 0.16909134 0.88588655
0.041994501 0.16980155 0.88615537
0.04732427 0.16763838 0.8869198
0.051073451 0.16667908 0.88884002
0.0039958186 0.17037211 0.88913339
0.007642895 0.1710107 0.88901341
0.012048161 0.1724713 0.88899046
0.017249107 0.17189802 0.8884666
0.021986948 0.17239769 0.88860941
0.027194679 0.17274982 0.88859993
0.03214791 0.17265081 0.8880887
0.037097253 0.17255992 0.88762206
0.042067196 0.1725706 0.88767761
0.046867598 0.17153214 0.88901907
0.01726759 0.175391 0.88942224
0.022235876 0.17532964 0.8891111
0.027212651 0.17534278 0.8891778
0.032422498 0.17651367 0.88912386
0.037160575 0.17698826 0.88913333
0.04213018 0.17696472 0.88901478
0.045479201 0.17543919 0.88966674
0.040507548 0.18043107 0.88980013
0.058006041 0.15911585 0.89093357
0.062155444 0.15910396 0.89086694
0.057553679 0.16271709 0.89250022
0.061188862 0.16168618 0.89292246
0.0023454742 0.16928832 0.89213789
0.053501826 0.16802217 0.89201689
0.055691138 0.16710728 0.89378345
0.0030095773 0.17286578 0.89175862
0.0069106598 0.17360295 0.89085853
0.047997005 0.17388842 0.89020014
0.051841933 0.17255256 0.89308113
0.0040157433 0.17620827 0.89356679
0.0073420764 0.17690049 0.89286131
0.012330241 0.17762484 0.89232254
0.017301971 0.17823081 0.89121133
0.022279562 0.17815952 0.89085579
0.027258769 0.17812638 0.89068907
0.031417996 0.17899023 0.89086694
0.0474125 0.1775506 0.89091688
0.051077515 0.17739408 0.89325869
0.01402789 0.1813639 0.8944003
0.017690241 0.18195345 0.89402705
0.022339394 0.18279792 0.89327073
0.027328696 0.18273684 0.89297062
0.03231433 0.1826786 0.89268535
0.037326917 0.18276609 0.89311135
0.042490646 0.18279764 0.89225441
0.047327384 0.18278871 0.89322633
0.050709303 0.18213841 0.894117
0.023199644 0.18633422 0.89430034
0.027365124 0.18630414 0.89415592
0.032392044 0.18644305 0.89482242
0.043201379 0.18627866 0.89403367
0.06361223 0.1627589 0.89577866
0.058085144 0.16759759 0.89641118
0.062662214 0.16708319 0.89812237
0.054134034 0.17327727 0.89560014
0.05761547 0.17202799 0.89777642
0.061059702 0.17062837 0.8992002
0.0040236823 0.1782221 0.89533347
0.0081960987 0.17984079 0.89510012
0.053483538 0.17766686 0.89589328
0.056342125 0.17656599 0.89750016
0.0071352855 0.1823221 0.89677143
0.012047099 0.18268025 0.89595997
0.017388128 0.18438871 0.89562225
0.053088173 0.18266805 0.89672232
0.056008913 0.18143715 0.89888358
0.0073887887 0.18721007 0.8985002
0.012402966 0.18701494 0.89756322
0.017159376 0.18720075 0.89617145
0.021986565 0.18790381 0.89583331
0.02741375 0.1883039 0.89575559
0.032434549 0.18835528 0.89599997
0.037444033 0.18750334 0.89591104
0.04203134 0.18788619 0.89574999
0.047462489 0.18747556 0.89577788
0.052281711 0.18694822 0.89724463
0.012752369 0.19124207 0.89860028
0.017658602 0.19148634 0.89728111
0.02243406 0.19191271 0.8970409
0.027448513 0.19187881 0.89688152
0.032472204 0.19107604 0.89703345
0.037771612 0.19164334 0.89801449
0.04251213 0.19192378 0.8970927
0.047537193 0.19194335 0.89718533
0.051511232 0.19108777 0.89840025
0.044269819 0.19563156 0.89880025
0.047062028 0.19618227 0.89876682
0.059501555 0.17432208 0.90100032
0.062896505 0.17273962 0.90148592
0.066247135 0.17187105 0.90132773
0.058832597 0.17801869 0.90104705
0.062778674 0.17781951 0.90280008
0.066468894 0.17665143 0.90434492
0.058197189 0.18300091 0.90247232
0.062219128 0.18159875 0.90384996
0.054459423 0.1885653 0.90098363
0.05685002 0.18710089 0.9033556
0.007894529 0.19289391 0.90162867
0.012041313 0.19417232 0.90172505
0.016648183 0.19439134 0.90080035
0.032602284 0.19435294 0.90062255
0.036801763 0.19435894 0.9006502
0.053171791 0.19329014 0.90192014
0.056379672 0.19021216 0.9048335
0.0074354927 0.19707549 0.90414447
0.012489757 0.19739437 0.90380669
0.017512152 0.19718115 0.90206116
0.022554873 0.19713879 0.90186673
0.027596815 0.19710833 0.90172797
0.032653477 0.19717753 0.90204453
0.037911087 0.19780999 0.90205848
0.042497341 0.19804287 0.90120846
0.048023608 0.19836394 0.90108365
0.05161009 0.19771312 0.90257502
0.02346937 0.20028169 0.90470004
0.026003251 0.20030382 0.9048
0.038643852 0.20190869 0.90445
0.043228459 0.20207596 0.90331662
0.047520485 0.20230815 0.90322673
0.06487938 0.17523143 0.90570003
0.067164853 0.17756553 0.90615064
0.063893206 0.18272111 0.90608013
0.067078486 0.18178904 0.90689015
0.059436843 0.18759489 0.90641689
0.062799446 0.18705772 0.90702313
0.065034814 0.18831733 0.90786994
0.057953868 0.19245012 0.90745038
0.061751585 0.19286266 0.90939045
0.06515824 0.19205907 0.90959251
0.005757506 0.19875234 0.9054001
0.0125146 0.19879624 0.90560001
0.054357879 0.19768465 0.90629184
0.057196688 0.19669539 0.9088667
0.0040828558 0.20196897 0.90850008
0.0074556703 0.20238639 0.9065854
0.012533503 0.20247085 0.90696323
0.017592598 0.20229767 0.90618896
0.022419723 0.20276335 0.90611917
0.027938135 0.20246233 0.90598345
0.032806519 0.2023192 0.90628529
0.037181512 0.20288458 0.90580016
0.042059757 0.20379375 0.90535009
0.049693573 0.20394006 0.90600008
0.052864555 0.20253296 0.90724474
0.0078985225 0.20671058 0.90891683
0.012557993 0.20794569 0.90877056
0.017628334 0.20777182 0.90801525
0.022706818 0.20775494 0.90794116
0.027798951 0.20784372 0.90832627
0.032887973 0.20767929 0.90852946
0.037931614 0.20767611 0.90759289
0.042965248 0.20746173 0.90665573
0.048040688 0.20746858 0.90668541
0.05196397 0.20752174 0.90876693
0.01808277 0.21193984 0.90959173
0.022971835 0.21255417 0.90885741
0.026129697 0.21227184 0.90920007
0.038851336 0.21144882 0.90930009
0.043296419 0.21247861 0.90853357
0.047898613 0.21248972 0.9085812
0.05160255 0.21158062 0.90986657
0.063525155 0.19479086 0.91049993
0.06638179 0.19430496 0.91086656
0.057657674 0.19928271 0.91168332
0.06197381 0.19779782 0.91265011
0.065464385 0.19721101 0.91386694
0.057239152 0.20248552 0.91312683
0.061252326 0.20077188 0.91460037
0.0066464264 0.20861503 0.91170007
0.032944959 0.20994192 0.91009992
0.053317048 0.2082642 0.91016662
0.055876058 0.20690505 0.91313344
0.008785855 0.21189421 0.91303349
0.012603774 0.21294878 0.91210002
0.016822878 0.21336299 0.91024995
0.02872267 0.2126395 0.91077495
0.033019077 0.21296071 0.91214997
0.037688561 0.21333216 0.91192496
0.052969303 0.21237877 0.911475
0.055266377 0.21262014 0.91433358
0.01262934 0.21593691 0.91397792
0.017731043 0.21663798 0.91334462
0.065571837 0.1992375 0.91536689
0.058892902 0.20486665 0.91769987
0.062254705 0.20295946 0.91679335
0.065836914 0.20175247 0.91906661
0.058289457 0.20815843 0.91716653
0.061510433 0.20674275 0.91844994
0.0066851866 0.2132441 0.91702509
0.060743112 0.21046846 0.91979998
0.066018373 0.20402291 0.9216001
0.063837998 0.20777598 0.9211334
0.066211782 0.20634004 0.92429996
