# .PCD v0.7 - Point Cloud Data file format
VERSION 0.7
FIELDS x y z
SIZE 4 4 4
TYPE F F F
COUNT 1 1 1
WIDTH 1305
HEIGHT 1
VIEWPOINT 0 0 0 1 0 0 0
POINTS 1305
DATA ascii
0.018132202 0.023983367 0.063329041
0.018132202 0.024020724 0.063094474
0.017004989 0.025763161 0.063329041
0.017928757 0.024020724 0.065071478
0.018132202 0.023663618 0.065071478
0.017035164 0.025763161 0.065071478
0.015811406 0.027505599 0.063329041
0.01638975 0.02661889 0.063329041
0.014646254 0.029248051 0.063329041
0.014647312 0.02924677 0.063329041
0.014647312 0.029248051 0.063318707
0.015792899 0.027505599 0.065071478
0.01638975 0.026779152 0.065071478
0.014259689 0.029248051 0.065071478
0.014647312 0.028851934 0.065071478
0.019122563 0.017050959 0.066813923
0.019065924 0.018793397 0.066813923
0.019043617 0.017050959 0.068556361
0.018961661 0.018793397 0.068556361
0.019120149 0.020535849 0.066813923
0.018629961 0.022278287 0.066813923
0.018911771 0.020535849 0.068556361
0.018561594 0.022278287 0.068556361
0.019017808 0.017050959 0.070298798
0.018795721 0.018793397 0.070298798
0.018812992 0.017050959 0.072041243
0.018589221 0.018793397 0.072041243
0.01845292 0.020535849 0.070298798
0.018294267 0.022278287 0.070298798
0.018203132 0.020535849 0.072041243
0.017831616 0.022278287 0.072041243
0.018132202 0.020794503 0.072041243
0.018132202 0.022278287 0.070697904
0.017805301 0.024020724 0.066813923
0.018132202 0.023276247 0.066813923
0.017057158 0.025763161 0.066813923
0.017809011 0.024020724 0.068556361
0.018132202 0.023365371 0.068556361
0.016948961 0.025763161 0.068556361
0.015798979 0.027505599 0.066813923
0.01638975 0.026859336 0.066813923
0.01410491 0.029248051 0.066813923
0.014647312 0.028675504 0.066813923
0.015829138 0.027505599 0.068556361
0.01638975 0.0267713 0.068556361
0.014232941 0.029248051 0.068556361
0.014647312 0.028811552 0.068556361
0.017792843 0.024020724 0.070298798
0.018132202 0.023135774 0.070298798
0.01686009 0.025763161 0.070298798
0.017446943 0.024020724 0.072041243
0.016634203 0.025763161 0.072041243
0.015745766 0.027505599 0.070298798
0.01638975 0.026536472 0.070298798
0.014248259 0.029248051 0.070298798
0.014647312 0.028837286 0.070298798
0.015592672 0.027505599 0.072041243
0.01638975 0.026192941 0.072041243
0.014101408 0.029248051 0.072041243
0.014647312 0.0286927 0.072041243
0.00070779026 0.032961152 0.045904636
0.0024502352 0.03305725 0.045904636
0.00070779026 0.033016063 0.047647078
0.0024502352 0.033031516 0.047647078
0.0041926727 0.033012994 0.045904636
0.0059351176 0.03288617 0.045904636
0.0041926727 0.033257566 0.047647078
0.0059351176 0.033059858 0.047647078
0.0058183968 0.032732926 0.051131956
0.0059351176 0.032717086 0.051131956
0.0059351176 0.032732926 0.05035479
0.00070779026 0.032948799 0.049389515
0.0024502352 0.032927223 0.049389515
0.00070779026 0.033100851 0.051131956
0.0024502352 0.032920681 0.051131956
0.0041926727 0.033048593 0.049389515
0.0059351176 0.032931589 0.049389515
0.0041926727 0.03285826 0.051131956
0.0094199926 0.032732926 0.045253899
0.012904875 0.030990489 0.044289783
0.010197856 0.032732926 0.045904636
0.011162437 0.032168172 0.045904636
0.012904875 0.031295545 0.045904636
0.012805082 0.030990489 0.047647078
0.012904875 0.030963577 0.047647078
0.012904875 0.030990489 0.04755564
0.010309495 0.032732926 0.047647078
0.011162437 0.032002054 0.047647078
0.0076775551 0.0329623 0.045904636
0.0094199926 0.032995842 0.045904636
0.0076775551 0.033024825 0.047647078
0.0094199926 0.033089645 0.047647078
0.0072993487 0.032732926 0.049389515
0.0076775551 0.032680504 0.049389515
0.0076775551 0.032732926 0.049234603
0.0094199926 0.032376327 0.049389515
0.0094199926 0.032732926 0.048585072
0.0076775551 0.03239236 0.051131956
0.0094199926 0.031981729 0.051131956
0.012104869 0.030990489 0.049389515
0.012904875 0.030741371 0.049389515
0.011162437 0.031521253 0.049389515
0.012054168 0.030990489 0.051131956
0.012904875 0.030856766 0.051131956
0.011162437 0.031303324 0.051131956
0.0059351176 0.032732926 0.051412836
0.00070779026 0.033645563 0.052874394
0.0024502352 0.033299513 0.052874394
0.00070779026 0.033937164 0.054616839
0.0024502352 0.033689909 0.054616839
0.0041926727 0.033118226 0.052874394
0.0059351176 0.03287632 0.052874394
0.0041926727 0.033566706 0.054616839
0.0059351176 0.033264644 0.054616839
0.00070779026 0.034361981 0.056359276
0.0024502352 0.034039311 0.056359276
0.00070779026 0.034475364 0.056596547
0.0024502352 0.034475364 0.057523787
0.00070779026 0.034910612 0.058101721
0.0024502352 0.034738071 0.058101721
0.0041926727 0.033613361 0.056359276
0.0059351176 0.033604585 0.056359276
0.0041926727 0.034475364 0.057941802
0.0057018623 0.034475364 0.058101721
0.0059351176 0.034369387 0.058101721
0.0041926727 0.034656562 0.058101721
0.0067037567 0.032732926 0.052874394
0.0076775551 0.032500885 0.052874394
0.0094199926 0.031984814 0.052874394
0.0074316859 0.032732926 0.054616839
0.0076775551 0.032657512 0.054616839
0.0094199926 0.032041617 0.054616839
0.012904875 0.030990489 0.052148707
0.011162437 0.03143286 0.052874394
0.012904875 0.031130724 0.052874394
0.011162437 0.031467952 0.054616839
0.012904875 0.031170525 0.054616839
0.0076775551 0.032732926 0.055224329
0.0080443695 0.032732926 0.056359276
0.0094199926 0.032086708 0.056359276
0.0086274445 0.032732926 0.058101721
0.0094199926 0.032335408 0.058101721
0.012524746 0.030990489 0.056359276
0.012904875 0.030889548 0.056359276
0.012904875 0.030990489 0.055704892
0.011162437 0.031381808 0.056359276
0.012762792 0.030990489 0.058101721
0.012904875 0.030927427 0.058101721
0.011162437 0.031575076 0.058101721
0.0076775551 0.03293658 0.056359276
0.0076775551 0.033186443 0.058101721
0.013963483 0.030990489 0.045904636
0.014647312 0.03077013 0.045904636
0.01638975 0.030076616 0.045904636
0.014647312 0.030562498 0.047647078
0.01638975 0.029932402 0.047647078
0.018132202 0.02935078 0.045904636
0.014647312 0.030414604 0.049389515
0.01638975 0.029718705 0.049389515
0.014647312 0.030497812 0.051131956
0.01638975 0.029609136 0.051131956
0.013737686 0.030990489 0.052874394
0.014647312 0.030645616 0.052874394
0.01638975 0.029571928 0.052874394
0.013791762 0.030990489 0.054616839
0.014647312 0.030597143 0.054616839
0.014647312 0.030213676 0.056359276
0.014647312 0.029767163 0.058101721
-0.0004459843 0.034475364 0.059844159
0.00070779026 0.034888037 0.059844159
0.0024502352 0.035125159 0.059844159
0.00070779026 0.03409218 0.061586596
0.00070779026 0.034475364 0.060919695
0.0024502352 0.034430347 0.061586596
0.0024502352 0.034475364 0.061523445
0.0059351176 0.034475364 0.058215462
0.0041926727 0.035308339 0.059844159
0.0059351176 0.034972064 0.059844159
0.0041926727 0.034428187 0.061586596
0.0041926727 0.034475364 0.06153056
0.0059351176 0.03429807 0.061586596
0.0059351176 0.034475364 0.061341941
0.00070779026 0.033484034 0.063329041
0.0024502352 0.033489592 0.063329041
0.00070779026 0.033277668 0.065071478
0.0024502352 0.032983609 0.065071478
0.0041926727 0.033790745 0.063329041
0.0059351176 0.033881716 0.063329041
0.0041926727 0.033280216 0.065071478
0.0059351176 0.033679537 0.065071478
0.0087318048 0.032732926 0.059844159
0.0094199926 0.032425843 0.059844159
0.0092855319 0.032732926 0.061586596
0.0094199926 0.032662846 0.061586596
0.012904875 0.030990489 0.058482625
0.011162437 0.031813331 0.059844159
0.012904875 0.031044133 0.059844159
0.012736224 0.030990489 0.061586596
0.012904875 0.030886315 0.061586596
0.012904875 0.030990489 0.060651749
0.011162437 0.0318278 0.061586596
0.0065604821 0.034475364 0.059844159
0.0076775551 0.033403404 0.059844159
0.0076775551 0.033697329 0.061586596
0.0094199926 0.032732926 0.061756432
0.012251139 0.030990489 0.063329041
0.012904875 0.030613668 0.063329041
0.0099858046 0.032732926 0.063329041
0.011162437 0.03161221 0.063329041
0.012106515 0.030990489 0.065071478
0.012904875 0.030352704 0.065071478
0.010376722 0.032732926 0.065071478
0.011162437 0.031821258 0.065071478
0.0076775551 0.034203 0.063329041
0.0094199926 0.033540674 0.063329041
0.0076775551 0.034188814 0.065071478
0.0094199926 0.033860959 0.065071478
0.00070779026 0.033226795 0.066813923
0.0024502352 0.032887362 0.066813923
0.00070779026 0.033760898 0.068556361
0.0024502352 0.033102565 0.068556361
0.0041926727 0.03328868 0.066813923
0.0059351176 0.033583365 0.066813923
0.0041926727 0.033142231 0.068556361
0.0059351176 0.033569805 0.068556361
0.00070779026 0.033992164 0.070298798
0.0024502352 0.033341177 0.070298798
-0.00067090243 0.034475364 0.072041243
0.00070779026 0.033995651 0.072041243
0.0024502352 0.033482172 0.072041243
0.0041926727 0.03296604 0.070298798
0.0059351176 0.033325978 0.070298798
0.0041926727 0.033248208 0.072041243
0.0059351176 0.033330224 0.072041243
0.012313612 0.030990489 0.066813923
0.012904875 0.030432351 0.066813923
0.010346621 0.032732926 0.066813923
0.011162437 0.032140784 0.066813923
0.012524657 0.030990489 0.068556361
0.012904875 0.030621551 0.068556361
0.0099151358 0.032732926 0.068556361
0.011162437 0.032052465 0.068556361
0.0076775551 0.033376656 0.066813923
0.0094199926 0.033037491 0.066813923
0.0076775551 0.033462636 0.068556361
0.0094199926 0.032963969 0.068556361
0.012374192 0.030990489 0.070298798
0.012904875 0.03051769 0.070298798
0.010318018 0.032732926 0.070298798
0.011162437 0.031982161 0.070298798
0.011909544 0.030990489 0.072041243
0.012904875 0.030243568 0.072041243
0.01017233 0.032732926 0.072041243
0.011162437 0.031660162 0.072041243
0.0076775551 0.033885263 0.070298798
0.0094199926 0.033546798 0.070298798
0.0076775551 0.033749364 0.072041243
0.0094199926 0.033343263 0.072041243
0.012988396 0.030990489 0.059844159
0.014647312 0.0293274 0.059844159
0.014647312 0.029301308 0.061586596
0.018036909 0.003111437 0.073783681
0.018132202 0.003111437 0.073360063
0.018132202 0.0038865581 0.073783681
0.018243514 0.0048538819 0.073783681
0.017805062 0.003111437 0.075526126
0.017947234 0.0048538819 0.075526126
0.018132202 0.0048538819 0.074350394
0.018417113 0.0065963194 0.073783681
0.018585779 0.0083387643 0.073783681
0.018132202 0.0062818453 0.075526126
0.018163241 0.0065963194 0.075526126
0.01826895 0.0083387643 0.075526126
0.017719395 0.003111437 0.077268563
0.017719366 0.0048538819 0.077268563
0.01766517 0.003111437 0.079011001
0.01759126 0.0048538819 0.079011001
0.017988883 0.0065963194 0.077268563
0.018132202 0.0065963194 0.075829908
0.018100984 0.0083387643 0.077268563
0.018132202 0.0083387643 0.076727755
0.017797016 0.0065963194 0.079011001
0.018128715 0.0083387643 0.079011001
0.018517695 0.010081202 0.073783681
0.018272333 0.011823639 0.073783681
0.018234797 0.010081202 0.075526126
0.018155999 0.011823639 0.075526126
0.018276654 0.013566084 0.073783681
0.018516101 0.015308522 0.073783681
0.018297203 0.013566084 0.075526126
0.018518709 0.015308522 0.075526126
0.018132202 0.0098927766 0.077268563
0.018141635 0.010081202 0.077268563
0.018174328 0.011823639 0.077268563
0.018132202 0.0083839223 0.079011001
0.01820492 0.010081202 0.079011001
0.018195264 0.011823639 0.079011001
0.018415786 0.013566084 0.077268563
0.018707119 0.015308522 0.077268563
0.018289648 0.013566084 0.079011001
0.018519782 0.015308522 0.079011001
0.017623387 0.003111437 0.080753446
0.017526753 0.0048538819 0.080753446
0.017569952 0.003111437 0.082495883
0.017349176 0.0048538819 0.082495883
0.017613538 0.0065963194 0.080753446
0.018076845 0.0083387643 0.080753446
0.017538898 0.0065963194 0.082495883
0.017856814 0.0083387643 0.082495883
0.01741115 0.003111437 0.084238321
0.016945265 0.0048538819 0.084238321
0.017299004 0.003111437 0.085980766
0.016972415 0.0048538819 0.085980766
0.017345138 0.0065963194 0.084238321
0.01772099 0.0083387643 0.084238321
0.017182536 0.0065963194 0.085980766
0.01753927 0.0083387643 0.085980766
0.018132202 0.0087692812 0.080753446
0.01814305 0.010081202 0.080753446
0.01801949 0.011823639 0.080753446
0.018132202 0.010151766 0.080753446
0.018132202 0.011823639 0.079723589
0.017925538 0.010081202 0.082495883
0.018132202 0.010081202 0.08084403
0.017905004 0.011823639 0.082495883
0.01807753 0.013566084 0.080753446
0.018132202 0.013566084 0.080300793
0.018132202 0.014740005 0.080753446
0.018183105 0.015308522 0.080753446
0.018044807 0.013566084 0.082495883
0.018132202 0.014684737 0.082495883
0.018143825 0.015308522 0.082495883
0.01780539 0.010081202 0.084238321
0.01784227 0.011823639 0.084238321
0.017755605 0.010081202 0.085980766
0.017801113 0.011823639 0.085980766
0.018019132 0.013566084 0.084238321
0.018103607 0.015308522 0.084238321
0.018132202 0.015308522 0.083715402
0.017870657 0.013566084 0.085980766
0.017923109 0.015308522 0.085980766
0.018653281 0.017050959 0.073783681
0.018560924 0.018793397 0.073783681
0.01853659 0.017050959 0.075526126
0.018337823 0.018793397 0.075526126
0.018372066 0.020535849 0.073783681
0.017917298 0.022278287 0.073783681
0.018132202 0.021565147 0.073783681
0.018166073 0.020535849 0.075526126
0.017910577 0.022278287 0.075526126
0.018132202 0.020945229 0.075526126
0.018507071 0.017050959 0.077268563
0.018223725 0.018793397 0.077268563
0.018535815 0.017050959 0.079011001
0.018314876 0.018793397 0.079011001
0.01800894 0.020535849 0.077268563
0.018132202 0.019482262 0.077268563
0.018132202 0.020535849 0.075730331
0.017773055 0.022278287 0.077268563
0.017943032 0.020535849 0.079011001
0.018132202 0.019757368 0.079011001
0.017529957 0.022278287 0.079011001
0.0162744 0.025763161 0.075526126
0.01638975 0.025502242 0.075526126
0.01638975 0.025763161 0.074700579
0.017316364 0.024020724 0.073783681
0.016460098 0.025763161 0.073783681
0.01721061 0.024020724 0.075526126
0.015456669 0.027505599 0.073783681
0.01638975 0.025895379 0.073783681
0.013891004 0.029248051 0.073783681
0.014647312 0.028488539 0.073783681
0.015445195 0.027505599 0.075526126
0.013943501 0.029248051 0.075526126
0.014647312 0.028539814 0.075526126
0.016172476 0.025763161 0.077268563
0.01638975 0.025155954 0.077268563
0.016171731 0.025763161 0.079011001
0.01638975 0.025095142 0.079011001
0.017026819 0.024020724 0.077268563
0.016870387 0.024020724 0.079011001
0.015586145 0.027505599 0.077268563
0.014276586 0.029248051 0.077268563
0.014647312 0.028892107 0.077268563
0.015685447 0.027505599 0.079011001
0.014580198 0.029248051 0.079011001
0.014647312 0.029182427 0.079011001
0.018365584 0.017050959 0.080753446
0.018219672 0.018793397 0.080753446
0.018163048 0.017050959 0.082495883
0.018086739 0.018793397 0.082495883
0.018132202 0.018222697 0.082495883
0.018132202 0.018793397 0.081659824
0.017804734 0.020535849 0.080753446
0.018132202 0.019185923 0.080753446
0.017412104 0.022278287 0.080753446
0.017815016 0.020535849 0.082495883
0.017522566 0.022278287 0.082495883
0.017988436 0.017050959 0.084238321
0.018132202 0.017050959 0.082808986
0.018013544 0.018793397 0.084238321
0.01782199 0.017050959 0.085980766
0.017830022 0.018793397 0.085980766
0.017966188 0.020535849 0.084238321
0.017634951 0.022278287 0.084238321
0.01795315 0.020535849 0.085980766
0.01769679 0.022278287 0.085980766
0.01624582 0.025763161 0.080753446
0.01638975 0.025325112 0.080753446
0.01638975 0.025763161 0.081952266
0.016888447 0.024020724 0.080753446
0.01711791 0.024020724 0.082495883
0.016427614 0.025763161 0.082495883
0.01567588 0.027505599 0.080753446
0.014558621 0.029248051 0.080753446
0.014647312 0.029156856 0.080753446
0.01569856 0.027505599 0.082495883
0.01638975 0.025860183 0.082495883
0.014494605 0.029248051 0.082495883
0.014647312 0.029097892 0.082495883
0.016331889 0.025763161 0.085980766
0.01638975 0.025538988 0.085980766
0.01638975 0.025763161 0.085326701
0.017095558 0.024020724 0.084238321
0.016447298 0.025763161 0.084238321
0.016981743 0.024020724 0.085980766
0.015769191 0.027505599 0.084238321
0.01638975 0.025933482 0.084238321
0.014428221 0.029248051 0.084238321
0.014647312 0.02904696 0.084238321
0.015666522 0.027505599 0.085980766
0.014165841 0.029248051 0.085980766
0.014647312 0.028727509 0.085980766
0.017364241 0.003111437 0.087723203
0.017290555 0.0048538819 0.087723203
0.017494209 0.003111437 0.089465648
0.01747293 0.0048538819 0.089465648
0.017330311 0.0065963194 0.087723203
0.017482229 0.0083387643 0.087723203
0.017489038 0.0065963194 0.089465648
0.017501913 0.0083387643 0.089465648
0.017518379 0.003111437 0.091208085
0.017550401 0.0048538819 0.091208085
0.017257445 0.003111437 0.092950523
0.01743 0.0048538819 0.092950523
0.01757843 0.0065963194 0.091208085
0.017520376 0.0083387643 0.091208085
0.017619185 0.0065963194 0.092950523
0.017516963 0.0083387643 0.092950523
0.017697923 0.010081202 0.087723203
0.017787255 0.011823639 0.087723203
0.017627828 0.010081202 0.089465648
0.017753132 0.011823639 0.089465648
0.017814882 0.013566084 0.087723203
0.017823406 0.015308522 0.087723203
0.017793067 0.013566084 0.089465648
0.01781816 0.015308522 0.089465648
0.017580174 0.010081202 0.091208085
0.017662115 0.011823639 0.091208085
0.017501064 0.010081202 0.092950523
0.017528333 0.011823639 0.092950523
0.017725997 0.013566084 0.091208085
0.017832987 0.015308522 0.091208085
0.017656587 0.013566084 0.092950523
0.017862983 0.015308522 0.092950523
0.017150767 0.003111437 0.094692968
0.017434038 0.0048538819 0.094692968
0.017145149 0.003111437 0.096435405
0.017291032 0.0048538819 0.096435405
0.017581426 0.0065963194 0.094692968
0.017396443 0.0083387643 0.094692968
0.017378591 0.0065963194 0.096435405
0.01742173 0.0083387643 0.096435405
0.017030202 0.003111437 0.09817785
0.017020978 0.0048538819 0.09817785
0.016987674 0.003111437 0.099920288
0.016822495 0.0048538819 0.099920288
0.017198958 0.0065963194 0.09817785
0.01768256 0.0083387643 0.09817785
0.017000638 0.0065963194 0.099920288
0.017609872 0.0083387643 0.099920288
0.017409049 0.010081202 0.094692968
0.017495252 0.011823639 0.094692968
0.017400391 0.010081202 0.096435405
0.017506994 0.011823639 0.096435405
0.017637096 0.013566084 0.094692968
0.017812707 0.015308522 0.094692968
0.017643578 0.013566084 0.096435405
0.017837055 0.015308522 0.096435405
0.017728917 0.010081202 0.09817785
0.017566331 0.011823639 0.09817785
0.017770626 0.010081202 0.099920288
0.01773385 0.011823639 0.099920288
0.01761397 0.013566084 0.09817785
0.017805241 0.015308522 0.09817785
0.017666601 0.013566084 0.099920288
0.017705865 0.015308522 0.099920288
0.017786451 0.017050959 0.087723203
0.017762192 0.018793397 0.087723203
0.017836668 0.017050959 0.089465648
0.017762937 0.018793397 0.089465648
0.017724909 0.020535849 0.087723203
0.017538287 0.022278287 0.087723203
0.017564051 0.020535849 0.089465648
0.017345496 0.022278287 0.089465648
0.017861478 0.017050959 0.091208085
0.01773452 0.018793397 0.091208085
0.017878212 0.017050959 0.092950523
0.017733537 0.018793397 0.092950523
0.017528541 0.020535849 0.091208085
0.017244242 0.022278287 0.091208085
0.017580427 0.020535849 0.092950523
0.017269395 0.022278287 0.092950523
0.016231485 0.025763161 0.087723203
0.01638975 0.025319554 0.087723203
0.01638975 0.025763161 0.089415804
0.016938232 0.024020724 0.087723203
0.017010592 0.024020724 0.089465648
0.016400419 0.025763161 0.089465648
0.015375622 0.027505599 0.087723203
0.013992406 0.029248051 0.087723203
0.014647312 0.028455399 0.087723203
0.015170373 0.027505599 0.089465648
0.01638975 0.025785692 0.089465648
0.013962112 0.029248051 0.089465648
0.014647312 0.028178699 0.089465648
0.016993128 0.024020724 0.091208085
0.016675524 0.025763161 0.091208085
0.016918756 0.024020724 0.092950523
0.016697668 0.025763161 0.092950523
0.015323542 0.027505599 0.091208085
0.01638975 0.026372604 0.091208085
0.013947658 0.029248051 0.091208085
0.014647312 0.028178729 0.091208085
0.015757553 0.027505599 0.092950523
0.01638975 0.026654996 0.092950523
0.014064394 0.029248051 0.092950523
0.014647312 0.028566517 0.092950523
0.017843835 0.017050959 0.094692968
0.017714895 0.018793397 0.094692968
0.017905004 0.017050959 0.096435405
0.01777143 0.018793397 0.096435405
0.017572708 0.020535849 0.094692968
0.01736436 0.022278287 0.094692968
0.017510541 0.020535849 0.096435405
0.01728534 0.022278287 0.096435405
0.01794564 0.017050959 0.09817785
0.017854817 0.018793397 0.09817785
0.017856218 0.017050959 0.099920288
0.017850541 0.018793397 0.099920288
0.017595403 0.020535849 0.09817785
0.0172401 0.022278287 0.09817785
0.017717354 0.020535849 0.099920288
0.017432772 0.022278287 0.099920288
0.017073624 0.024020724 0.094692968
0.016690366 0.025763161 0.094692968
0.0171066 0.024020724 0.096435405
0.016627856 0.025763161 0.096435405
0.015666135 0.027505599 0.094692968
0.01638975 0.026501648 0.094692968
0.014174424 0.029248051 0.094692968
0.014647312 0.028620072 0.094692968
0.015619688 0.027505599 0.096435405
0.01638975 0.026273228 0.096435405
0.014397003 0.029248051 0.096435405
0.014647312 0.028886594 0.096435405
0.016332723 0.025763161 0.09817785
0.01638975 0.025571786 0.09817785
0.01638975 0.025763161 0.097906604
0.016185679 0.025763161 0.099920288
0.01638975 0.025273778 0.099920288
0.016827084 0.024020724 0.09817785
0.016900249 0.024020724 0.099920288
0.015577577 0.027505599 0.09817785
0.014643408 0.029248051 0.09817785
0.014647312 0.029241569 0.09817785
0.015456073 0.027505599 0.099920288
0.014578633 0.029248051 0.099920288
0.014647312 0.029139586 0.099920288
0.00019025058 0.034475364 0.073783681
0.00070779026 0.034413822 0.073783681
0.0024502352 0.03400863 0.073783681
0.00070779026 0.034475364 0.07401979
0.0024502352 0.034475364 0.074625149
0.00070779026 0.034951977 0.075526126
0.0024502352 0.034892343 0.075526126
0.0041926727 0.033733271 0.073783681
0.0059351176 0.033660971 0.073783681
0.0035082549 0.034475364 0.075526126
0.0041926727 0.034152873 0.075526126
0.0059351176 0.033734925 0.075526126
0.00070779026 0.03477446 0.077268563
0.0024502352 0.034892581 0.077268563
-0.00076916069 0.034475364 0.079011001
0.00070779026 0.034403123 0.079011001
0.00070779026 0.034475364 0.077852629
0.0010891259 0.034475364 0.079011001
0.0024502352 0.034560375 0.079011001
0.0034513846 0.034475364 0.077268563
0.0041926727 0.033995964 0.077268563
0.0059351176 0.033455022 0.077268563
0.003187716 0.034475364 0.079011001
0.0041926727 0.03412915 0.079011001
0.0059351176 0.033467792 0.079011001
0.011990942 0.030990489 0.073783681
0.012904875 0.030168913 0.073783681
0.0097454563 0.032732926 0.073783681
0.011162437 0.031690769 0.073783681
0.012222625 0.030990489 0.075526126
0.012904875 0.030245222 0.075526126
0.0097862482 0.032732926 0.075526126
0.011162437 0.031898759 0.075526126
0.0076775551 0.033401243 0.073783681
0.0094199926 0.032888152 0.073783681
0.0076775551 0.033542044 0.075526126
0.0094199926 0.032925002 0.075526126
0.008458592 0.032732926 0.079011001
0.0094199926 0.032401167 0.079011001
0.0094199926 0.032732926 0.077683546
0.012217507 0.030990489 0.077268563
0.012904875 0.030421369 0.077268563
0.0096221566 0.032732926 0.077268563
0.011162437 0.031806611 0.077268563
0.012308516 0.030990489 0.079011001
0.012904875 0.030585535 0.079011001
0.011162437 0.031740792 0.079011001
0.0076775551 0.033550479 0.077268563
0.0094199926 0.032851465 0.077268563
0.0076775551 0.033057831 0.079011001
0.00070779026 0.034475364 0.079471387
0.00070779026 0.034731887 0.080753446
0.0024502352 0.034715675 0.080753446
0.00070779026 0.034974001 0.082495883
0.0024502352 0.034819029 0.082495883
0.0040631518 0.034475364 0.080753446
0.0041926727 0.034439065 0.080753446
0.0059351176 0.033779345 0.080753446
0.0039616823 0.034475364 0.082495883
0.0041926727 0.034402885 0.082495883
0.0059351176 0.033866577 0.082495883
0.00070779026 0.035064586 0.084238321
0.0024502352 0.034835808 0.084238321
0.00070779026 0.035289325 0.085980766
0.0024502352 0.03503152 0.085980766
0.0032479689 0.034475364 0.084238321
0.0041926727 0.034046121 0.084238321
0.0059351176 0.03368444 0.084238321
0.0035014898 0.034475364 0.085980766
0.0041926727 0.034098394 0.085980766
0.0059351176 0.033672012 0.085980766
0.0084316283 0.032732926 0.080753446
0.0094199926 0.032368951 0.080753446
0.0091162324 0.032732926 0.082495883
0.0094199926 0.032624312 0.082495883
0.012383059 0.030990489 0.080753446
0.012904875 0.030606858 0.080753446
0.011162437 0.031710081 0.080753446
0.012284324 0.030990489 0.082495883
0.012904875 0.030524902 0.082495883
0.011162437 0.031754486 0.082495883
0.0076775551 0.033036582 0.080753446
0.0076775551 0.033285744 0.082495883
0.0094199926 0.032732926 0.083145902
0.012243301 0.030990489 0.084238321
0.012904875 0.030468695 0.084238321
0.0098515898 0.032732926 0.084238321
0.011162437 0.031890161 0.084238321
0.012446031 0.030990489 0.085980766
0.012904875 0.030523576 0.085980766
0.010349892 0.032732926 0.085980766
0.011162437 0.03216856 0.085980766
0.0076775551 0.033535041 0.084238321
0.0094199926 0.032935269 0.084238321
0.0076775551 0.033719264 0.085980766
0.0094199926 0.03326147 0.085980766
0.00070779026 0.035404392 0.087723203
0.0024502352 0.035120331 0.087723203
0.00070779026 0.035226308 0.089465648
0.0024502352 0.035000704 0.089465648
0.0041926727 0.034475364 0.087408915
0.0042870566 0.034475364 0.087723203
0.0059351176 0.033786334 0.087723203
0.0041926727 0.034517594 0.087723203
0.0044825599 0.034475364 0.089465648
0.0059351176 0.033822306 0.089465648
0.0041926727 0.0345897 0.089465648
0.00070779026 0.035059117 0.091208085
0.0024502352 0.034909688 0.091208085
0.00070779026 0.035012715 0.092950523
0.0024502352 0.034904055 0.092950523
0.004839018 0.034475364 0.091208085
0.0059351176 0.034001373 0.091208085
0.0041926727 0.03464406 0.091208085
0.0054792985 0.034475364 0.092950523
0.0059351176 0.034283258 0.092950523
0.0041926727 0.034792818 0.092950523
0.012648799 0.030990489 0.087723203
0.012904875 0.030663885 0.087723203
0.010497347 0.032732926 0.087723203
0.011162437 0.032347508 0.087723203
0.012697212 0.030990489 0.089465648
0.012904875 0.030752547 0.089465648
0.010005198 0.032732926 0.089465648
0.011162437 0.032205515 0.089465648
0.0076775551 0.033563502 0.087723203
0.0094199926 0.033227168 0.087723203
0.0076775551 0.033438586 0.089465648
0.0094199926 0.032960974 0.089465648
0.012514494 0.030990489 0.091208085
0.012904875 0.030641906 0.091208085
0.0099147484 0.032732926 0.091208085
0.011162437 0.0320834 0.091208085
0.01258745 0.030990489 0.092950523
0.012904875 0.030708633 0.092950523
0.010205589 0.032732926 0.092950523
0.011162437 0.032186113 0.092950523
0.0076775551 0.033363514 0.091208085
0.0094199926 0.032902025 0.091208085
0.0076775551 0.033446394 0.092950523
0.0094199926 0.032962091 0.092950523
0.00070779026 0.035194941 0.094692968
0.0024502352 0.035047315 0.094692968
0.00070779026 0.035312735 0.096435405
0.0024502352 0.035067089 0.096435405
0.0055717677 0.034475364 0.094692968
0.0059351176 0.034376673 0.094692968
0.0041926727 0.034796976 0.094692968
0.0056717545 0.034475364 0.096435405
0.0059351176 0.034421302 0.096435405
0.0041926727 0.034754388 0.096435405
0.00070779026 0.035370059 0.09817785
0.0024502352 0.035115533 0.09817785
0.00070779026 0.035532318 0.099920288
0.0024502352 0.03527727 0.099920288
0.0059351176 0.034475364 0.097053349
0.0041926727 0.034858115 0.09817785
0.0059351176 0.034523107 0.09817785
0.0041926727 0.035036929 0.099920288
0.0059351176 0.034584723 0.099920288
0.012904875 0.030990489 0.094379492
0.010277785 0.032732926 0.094692968
0.011162437 0.032385342 0.094692968
0.012904875 0.031058811 0.094692968
0.010253556 0.032732926 0.096435405
0.011162437 0.032331966 0.096435405
0.012904875 0.031229652 0.096435405
0.0076775551 0.033696167 0.094692968
0.0094199926 0.032991759 0.094692968
0.0076775551 0.033872105 0.096435405
0.0094199926 0.033091135 0.096435405
0.010800935 0.032732926 0.09817785
0.011162437 0.032475211 0.09817785
0.012904875 0.031220265 0.09817785
0.011162437 0.032732926 0.098698303
0.011847384 0.032732926 0.099920288
0.012904875 0.031243868 0.099920288
0.0060986653 0.034475364 0.09817785
0.0076775551 0.033943422 0.09817785
0.0094199926 0.033342116 0.09817785
0.0062082782 0.034475364 0.099920288
0.0076775551 0.033813693 0.099920288
0.0094199926 0.03359393 0.099920288
0.011162437 0.033423401 0.099920288
0.012960561 0.030990489 0.094692968
0.01312419 0.030990489 0.096435405
0.013204969 0.030990489 0.09817785
0.013119869 0.030990489 0.099920288
-0.022080526 -0.026510045 0.10166273
-0.021943934 -0.026619092 0.10166273
-0.022047937 -0.026510045 0.10340517
-0.021943934 -0.026583143 0.10340517
-0.022144221 -0.026510045 0.10514761
-0.021943934 -0.02663672 0.10514761
-0.022203639 -0.026510045 0.10689005
-0.021943934 -0.026684105 0.10689005
-0.015945263 -0.029994927 0.10166273
-0.014974169 -0.030317485 0.10166273
-0.016171768 -0.029994927 0.10340517
-0.014974169 -0.030493334 0.10340517
-0.019427702 -0.02825249 0.10166273
-0.018459052 -0.028755449 0.10166273
-0.020201489 -0.027832396 0.10166273
-0.019429289 -0.02825249 0.10340517
-0.018459052 -0.028800845 0.10340517
-0.020201489 -0.027790293 0.10340517
-0.016716614 -0.029652573 0.10166273
-0.016716614 -0.02974131 0.10340517
-0.016371086 -0.029994927 0.10514761
-0.014974169 -0.030612774 0.10514761
-0.016425319 -0.029994927 0.10689005
-0.014974169 -0.030692466 0.10689005
-0.019483045 -0.02825249 0.10514761
-0.018459052 -0.028856367 0.10514761
-0.020201489 -0.027799167 0.10514761
-0.019629367 -0.02825249 0.10689005
-0.018459052 -0.028912753 0.10689005
-0.020201489 -0.027899288 0.10689005
-0.016716614 -0.029826105 0.10514761
-0.016716614 -0.029847138 0.10689005
-0.022257246 -0.026510045 0.10863249
-0.021943934 -0.026708148 0.10863249
-0.02224458 -0.026510045 0.11037493
-0.021943934 -0.02669657 0.11037493
-0.022342555 -0.026510045 0.11211737
-0.021943934 -0.026788026 0.11211737
-0.022511229 -0.026510045 0.11385981
-0.021943934 -0.026898414 0.11385981
-0.016473591 -0.029994927 0.10863249
-0.014974169 -0.030721843 0.10863249
-0.016436562 -0.029994927 0.11037493
-0.014974169 -0.030630372 0.11037493
-0.019654058 -0.02825249 0.10863249
-0.018459052 -0.028905421 0.10863249
-0.020201489 -0.027914502 0.10863249
-0.01964324 -0.02825249 0.11037493
-0.018459052 -0.028894596 0.11037493
-0.020201489 -0.027898684 0.11037493
-0.016716614 -0.029863238 0.10863249
-0.016716614 -0.029846281 0.11037493
-0.016528443 -0.029994927 0.11211737
-0.014974169 -0.030699991 0.11211737
-0.016710237 -0.029994927 0.11385981
-0.014974169 -0.030863374 0.11385981
-0.019780219 -0.02825249 0.11211737
-0.018459052 -0.028992303 0.11211737
-0.020201489 -0.027989015 0.11211737
-0.019899771 -0.02825249 0.11385981
-0.018459052 -0.029077515 0.11385981
-0.020201489 -0.02805803 0.11385981
-0.016716614 -0.029901505 0.11211737
-0.016716614 -0.029991418 0.11385981
-0.0056526363 -0.03347981 0.10166273
-0.0045195296 -0.033737637 0.10166273
-0.0053871945 -0.03347981 0.10340517
-0.0045195296 -0.033651628 0.10340517
-0.0027770847 -0.034013361 0.10166273
-0.0010346472 -0.033935271 0.10166273
-0.0027770847 -0.034002826 0.10340517
-0.0010346472 -0.033970714 0.10340517
-0.0056997389 -0.03347981 0.10514761
-0.0045195296 -0.033536285 0.10514761
-0.0070171803 -0.03347981 0.10689005
-0.0062619671 -0.033627942 0.10689005
-0.0062619671 -0.03347981 0.1059034
-0.0045195296 -0.033671744 0.10689005
-0.0027770847 -0.03375002 0.10514761
-0.0010346472 -0.033895701 0.10514761
-0.0027770847 -0.033736646 0.10689005
-0.0010346472 -0.033842199 0.10689005
-0.013231732 -0.030800536 0.10166273
-0.011489287 -0.031443506 0.10166273
-0.011984579 -0.031737365 0.10340517
-0.011489287 -0.031961776 0.10340517
-0.011489287 -0.031737365 0.1028114
-0.013231732 -0.031184644 0.10340517
-0.010691084 -0.031737365 0.10166273
-0.0097468495 -0.032041647 0.10166273
-0.0080044121 -0.032778539 0.10166273
-0.0097468495 -0.032385856 0.10340517
-0.0080044121 -0.032816194 0.10340517
-0.012757875 -0.031737365 0.10514761
-0.011489287 -0.032348417 0.10514761
-0.013231732 -0.031450182 0.10514761
-0.013061456 -0.031737365 0.10689005
-0.011489287 -0.032400936 0.10689005
-0.013231732 -0.031636901 0.10689005
-0.0097468495 -0.032538205 0.10514761
-0.0080044121 -0.03297428 0.10514761
-0.0097468495 -0.032766975 0.10689005
-0.0080044121 -0.033263974 0.10689005
-0.0062619671 -0.033336416 0.10166273
-0.0062619671 -0.033300579 0.10340517
-0.0062619671 -0.03340365 0.10514761
-0.0089327767 -0.03347981 0.10863249
-0.0080044121 -0.033849388 0.10863249
-0.0080044121 -0.03347981 0.10759357
-0.008147493 -0.03347981 0.11037493
-0.0080044121 -0.033584654 0.11037493
-0.0080044121 -0.03347981 0.11050075
-0.0062619671 -0.034093715 0.10863249
-0.0045195296 -0.033841468 0.10863249
-0.0062619671 -0.033889085 0.11037493
-0.0045195296 -0.033749945 0.11037493
-0.0027770847 -0.033799514 0.10863249
-0.0010346472 -0.033736013 0.10863249
-0.0027770847 -0.033782698 0.11037493
-0.0010346472 -0.033741295 0.11037493
-0.0062619671 -0.03347981 0.11126731
-0.0060380623 -0.03347981 0.11211737
-0.0045195296 -0.033745043 0.11211737
-0.0063741654 -0.03347981 0.11385981
-0.0062619671 -0.033524677 0.11385981
-0.0062619671 -0.03347981 0.11315439
-0.0045195296 -0.033823945 0.11385981
-0.0027770847 -0.033858672 0.11211737
-0.0010346472 -0.033834621 0.11211737
-0.0027770847 -0.03391993 0.11385981
-0.0010346472 -0.033882827 0.11385981
-0.012544766 -0.031737365 0.10863249
-0.011489287 -0.032367222 0.10863249
-0.013231732 -0.031431735 0.10863249
-0.011828236 -0.031737365 0.11037493
-0.011489287 -0.031968974 0.11037493
-0.013231732 -0.031149045 0.11037493
-0.0097468495 -0.033212915 0.10863249
-0.0097468495 -0.032859884 0.11037493
-0.011892982 -0.031737365 0.11211737
-0.011489287 -0.031929553 0.11211737
-0.013231732 -0.031295553 0.11211737
-0.011991076 -0.031737365 0.11385981
-0.011489287 -0.031898662 0.11385981
-0.013231732 -0.031445533 0.11385981
-0.0097468495 -0.032640375 0.11211737
-0.0080044121 -0.032851532 0.11211737
-0.0097468495 -0.032481261 0.11385981
-0.0080044121 -0.032831751 0.11385981
-0.0062619671 -0.03340859 0.11211737
-0.022607505 -0.026510045 0.11560225
-0.021943934 -0.026975915 0.11560225
-0.022666879 -0.026510045 0.11734468
-0.021943934 -0.027040765 0.11734468
-0.022801019 -0.026510045 0.11908714
-0.021943934 -0.027135953 0.11908714
-0.022948503 -0.026510045 0.12082957
-0.021943934 -0.027231909 0.12082957
-0.016989209 -0.029994927 0.11560225
-0.016716614 -0.030147702 0.11560225
-0.016716614 -0.029994927 0.11397728
-0.014974169 -0.030945905 0.11560225
-0.017374493 -0.029994927 0.11734468
-0.016716614 -0.030347876 0.11734468
-0.014974169 -0.031063259 0.11734468
-0.019974634 -0.02825249 0.11560225
-0.018459052 -0.029173866 0.11560225
-0.020201489 -0.028104819 0.11560225
-0.020077944 -0.02825249 0.11734468
-0.018459052 -0.029309101 0.11734468
-0.020201489 -0.028178155 0.11734468
-0.01742091 -0.029994927 0.11908714
-0.016716614 -0.03037478 0.11908714
-0.014974169 -0.031157412 0.11908714
-0.017650314 -0.029994927 0.12082957
-0.016716614 -0.0304332 0.12082957
-0.014974169 -0.031232074 0.12082957
-0.020283684 -0.02825249 0.11908714
-0.020201489 -0.028302908 0.11908714
-0.020201489 -0.02825249 0.11852153
-0.018459052 -0.029381476 0.11908714
-0.020527445 -0.02825249 0.12082957
-0.020201489 -0.028486893 0.12082957
-0.018459052 -0.029598929 0.12082957
-0.02308502 -0.026510045 0.12257201
-0.021943934 -0.027332895 0.12257201
-0.023357652 -0.026510045 0.12431445
-0.021943934 -0.027535059 0.12431445
-0.023678705 -0.026510045 0.12605688
-0.021943934 -0.027788013 0.12605688
-0.023787387 -0.026510045 0.12779933
-0.023686372 -0.026589774 0.12779933
-0.023686372 -0.026510045 0.12612325
-0.021943934 -0.027957395 0.12779933
-0.017989799 -0.029994927 0.12257201
-0.016716614 -0.030560941 0.12257201
-0.014974169 -0.031272173 0.12257201
-0.018060051 -0.029994927 0.12431445
-0.016716614 -0.030603483 0.12431445
-0.014974169 -0.031312235 0.12431445
-0.020712227 -0.02825249 0.12257201
-0.020201489 -0.028643742 0.12257201
-0.018459052 -0.029768944 0.12257201
-0.020967491 -0.02825249 0.12431445
-0.020201489 -0.028796159 0.12431445
-0.018459052 -0.029799506 0.12431445
-0.018212095 -0.029994927 0.12605688
-0.016716614 -0.030626126 0.12605688
-0.014974169 -0.031379543 0.12605688
-0.018127479 -0.029994927 0.12779933
-0.016716614 -0.030568913 0.12779933
-0.014974169 -0.031375721 0.12779933
-0.021329962 -0.02825249 0.12605688
-0.020201489 -0.02899956 0.12605688
-0.018459052 -0.029886998 0.12605688
-0.021539062 -0.02825249 0.12779933
-0.020201489 -0.029052421 0.12779933
-0.018459052 -0.029859252 0.12779933
-0.0062619671 -0.03347981 0.11554994
-0.0062489137 -0.03347981 0.11560225
-0.0045195296 -0.033828527 0.11560225
-0.0045195296 -0.03347981 0.1172866
-0.0027770847 -0.033941418 0.11560225
-0.0010346472 -0.034004167 0.11560225
-0.0044480488 -0.03347981 0.11734468
-0.0027770847 -0.033935443 0.11734468
-0.0010346472 -0.034322642 0.11734468
-0.0067311749 -0.03347981 0.12082957
-0.0062619671 -0.033646286 0.12082957
-0.0062619671 -0.03347981 0.1199936
-0.0045195296 -0.033870988 0.12082957
-0.0045195296 -0.03347981 0.11940695
-0.0037510097 -0.03347981 0.11908714
-0.0027770847 -0.033779152 0.11908714
-0.0010346472 -0.034368128 0.11908714
-0.0027770847 -0.033980772 0.12082957
-0.0010346472 -0.034359008 0.12082957
-0.012001306 -0.031737365 0.11560225
-0.011489287 -0.031960934 0.11560225
-0.013231732 -0.031408779 0.11560225
-0.012437053 -0.031737365 0.11734468
-0.011489287 -0.032080598 0.11734468
-0.013231732 -0.031528972 0.11734468
-0.0097468495 -0.032690346 0.11560225
-0.0080044121 -0.033039607 0.11560225
-0.0097468495 -0.032685772 0.11734468
-0.0080044121 -0.032940418 0.11734468
-0.013039686 -0.031737365 0.11908714
-0.011489287 -0.032173686 0.11908714
-0.013231732 -0.031690903 0.11908714
-0.013471432 -0.031737365 0.12082957
-0.013231732 -0.031801306 0.12082957
-0.013231732 -0.031737365 0.11971838
-0.011489287 -0.03224308 0.12082957
-0.0097468495 -0.0326069 0.11908714
-0.0080044121 -0.032868266 0.11908714
-0.0097468495 -0.032634519 0.12082957
-0.0080044121 -0.033072628 0.12082957
-0.0062619671 -0.03347607 0.11560225
-0.0062619671 -0.033067711 0.11734468
-0.0045195296 -0.033455819 0.11734468
-0.0062619671 -0.033161938 0.11908714
-0.0045195296 -0.033377431 0.11908714
-0.0085469931 -0.03347981 0.12605688
-0.0080044121 -0.033651546 0.12605688
-0.0080044121 -0.03347981 0.12528959
-0.0093300119 -0.03347981 0.12779933
-0.0080044121 -0.033807293 0.12779933
-0.0067444593 -0.03347981 0.12257201
-0.0062619671 -0.033703052 0.12257201
-0.0045195296 -0.034320876 0.12257201
-0.0071391985 -0.03347981 0.12431445
-0.0062619671 -0.03377676 0.12431445
-0.0045195296 -0.034383342 0.12431445
-0.0027770847 -0.034405686 0.12257201
-0.0010346472 -0.03461846 0.12257201
-0.0027770847 -0.034545198 0.12431445
-0.0010346472 -0.03463722 0.12431445
-0.0062619671 -0.033929467 0.12605688
-0.0045195296 -0.034159489 0.12605688
-0.0062619671 -0.033978224 0.12779933
-0.0045195296 -0.03413263 0.12779933
-0.0027770847 -0.034458742 0.12605688
-0.0010346472 -0.0346229 0.12605688
-0.0027770847 -0.034376748 0.12779933
-0.0010346472 -0.034580767 0.12779933
-0.013628274 -0.031737365 0.12257201
-0.013231732 -0.031863034 0.12257201
-0.011489287 -0.032329336 0.12257201
-0.013824455 -0.031737365 0.12431445
-0.013231732 -0.031937286 0.12431445
-0.011489287 -0.032422915 0.12431445
-0.0097468495 -0.032731295 0.12257201
-0.0080044121 -0.033113107 0.12257201
-0.0097468495 -0.032835409 0.12431445
-0.0080044121 -0.03326185 0.12431445
-0.014071241 -0.031737365 0.12605688
-0.013231732 -0.032044321 0.12605688
-0.011489287 -0.032553814 0.12605688
-0.014136121 -0.031737365 0.12779933
-0.013231732 -0.032084458 0.12779933
-0.011489287 -0.0327214 0.12779933
-0.0097468495 -0.033045061 0.12605688
-0.0097468495 -0.033348218 0.12779933
-0.029158153 -0.019540288 0.10166273
-0.028913692 -0.019983336 0.10166273
-0.029208675 -0.019540288 0.10340517
-0.028913692 -0.019994147 0.10340517
-0.029243052 -0.019540288 0.10514761
-0.028913692 -0.019992836 0.10514761
-0.029222511 -0.019540288 0.10689005
-0.028913692 -0.019988433 0.10689005
-0.030146398 -0.017797843 0.10166273
-0.031296305 -0.016055405 0.10166273
-0.030656137 -0.01703655 0.10166273
-0.030404516 -0.017797843 0.10340517
-0.031487554 -0.016055405 0.10340517
-0.030656137 -0.017414562 0.10340517
-0.03281308 -0.012570523 0.10166273
-0.032398574 -0.013508916 0.10166273
-0.032950342 -0.012570523 0.10340517
-0.032398574 -0.013790846 0.10340517
-0.032101855 -0.014312968 0.10166273
-0.03222356 -0.014312968 0.10340517
-0.030514292 -0.017797843 0.10514761
-0.031542681 -0.016055405 0.10514761
-0.030656137 -0.017572112 0.10514761
-0.030539908 -0.017797843 0.10689005
-0.031549245 -0.016055405 0.10689005
-0.030656137 -0.017626084 0.10689005
-0.032404274 -0.014312968 0.10514761
-0.032398574 -0.014325596 0.10514761
-0.032398574 -0.014312968 0.10508177
-0.033052154 -0.012570523 0.10514761
-0.032556504 -0.014312968 0.10689005
-0.032398574 -0.014578953 0.10689005
-0.03317298 -0.012570523 0.10689005
-0.029237501 -0.019540288 0.10863249
-0.028913692 -0.01999221 0.10863249
-0.029432386 -0.019540288 0.11037493
-0.028913692 -0.020201854 0.11037493
-0.029612474 -0.019540288 0.11211737
-0.028913692 -0.020577185 0.11211737
-0.029662341 -0.019540288 0.11385981
-0.028913692 -0.020787723 0.11385981
-0.030560456 -0.017797843 0.10863249
-0.031527266 -0.016055405 0.10863249
-0.030656137 -0.017645396 0.10863249
-0.030655429 -0.017797843 0.11037493
-0.031681724 -0.016055405 0.11037493
-0.030656137 -0.017796591 0.11037493
-0.03264311 -0.014312968 0.10863249
-0.032398574 -0.014671445 0.10863249
-0.033267349 -0.012570523 0.10863249
-0.032715619 -0.014312968 0.11037493
-0.032398574 -0.01488857 0.11037493
-0.03330978 -0.012570523 0.11037493
-0.030685842 -0.017797843 0.11211737
-0.030656137 -0.017845355 0.11211737
-0.030656137 -0.017797843 0.11038388
-0.031813458 -0.016055405 0.11211737
-0.030656137 -0.017797843 0.11285856
-0.030638129 -0.017797843 0.11385981
-0.031785272 -0.016055405 0.11385981
-0.030656137 -0.017770782 0.11385981
-0.032745413 -0.014312968 0.11211737
-0.032398574 -0.015030019 0.11211737
-0.033325896 -0.012570523 0.11211737
-0.032644212 -0.014312968 0.11385981
-0.032398574 -0.014880151 0.11385981
-0.033286996 -0.012570523 0.11385981
-0.033674687 -0.010828085 0.10166273
-0.034091152 -0.0090856403 0.10166273
-0.033719659 -0.010828085 0.10340517
-0.034085862 -0.0090856403 0.10340517
-0.034049138 -0.0073432028 0.10166273
-0.033991553 -0.0056007653 0.10166273
-0.034157105 -0.0073432028 0.10340517
-0.034141012 -0.0082096532 0.10340517
-0.034141012 -0.0073432028 0.10327751
-0.034312285 -0.0056007653 0.10340517
-0.034141012 -0.0056007653 0.10239805
-0.033654429 -0.010828085 0.10514761
-0.034077607 -0.0090856403 0.10514761
-0.033675306 -0.010828085 0.10689005
-0.03416241 -0.0090856403 0.10689005
-0.034141012 -0.0092104301 0.10689005
-0.034141012 -0.0090856403 0.10676713
-0.034179963 -0.0073432028 0.10514761
-0.034141012 -0.0082209855 0.10514761
-0.034467779 -0.0056007653 0.10514761
-0.034346059 -0.0073432028 0.10689005
-0.034573331 -0.0056007653 0.10689005
-0.034329355 -0.0038583204 0.10166273
-0.034141012 -0.0045076534 0.10166273
-0.034689829 -0.0021158829 0.10166273
-0.034708485 -0.0038583204 0.10340517
-0.034962401 -0.0021158829 0.10340517
-0.034789652 -0.000373438 0.10166273
-0.034715444 0.0013689995 0.10166273
-0.034868114 -0.000373438 0.10340517
-0.034694076 0.0013689995 0.10340517
-0.034976617 -0.0038583204 0.10514761
-0.035051145 -0.0021158829 0.10514761
-0.034871697 -0.0038583204 0.10689005
-0.034774229 -0.0021158829 0.10689005
-0.034739718 -0.000373438 0.10514761
-0.034618273 0.0013689995 0.10514761
-0.034636162 -0.000373438 0.10689005
-0.034573577 0.0013689995 0.10689005
-0.033735752 -0.010828085 0.10863249
-0.034505911 -0.0090856403 0.10863249
-0.034141012 -0.0099644512 0.10863249
-0.033784896 -0.010828085 0.11037493
-0.034610093 -0.0090856403 0.11037493
-0.034141012 -0.010093778 0.11037493
-0.034735918 -0.0073432028 0.10863249
-0.034592368 -0.0056007653 0.10863249
-0.034714557 -0.0073432028 0.11037493
-0.0344363 -0.0056007653 0.11037493
-0.033816092 -0.010828085 0.11211737
-0.034593292 -0.0090856403 0.11211737
-0.034141012 -0.010124244 0.11211737
-0.033969663 -0.010828085 0.11385981
-0.034641467 -0.0090856403 0.11385981
-0.034141012 -0.01045882 0.11385981
-0.034548767 -0.0073432028 0.11211737
-0.034372821 -0.0056007653 0.11211737
-0.034607187 -0.0073432028 0.11385981
-0.034586005 -0.0056007653 0.11385981
-0.034625381 -0.0038583204 0.10863249
-0.03476122 -0.0021158829 0.10863249
-0.034466453 -0.0038583204 0.11037493
-0.034736715 -0.0021158829 0.11037493
-0.034862548 -0.000373438 0.10863249
-0.034578815 0.0013689995 0.10863249
-0.034839973 -0.000373438 0.11037493
-0.034562759 0.0013689995 0.11037493
-0.03456331 -0.0038583204 0.11211737
-0.034791656 -0.0021158829 0.11211737
-0.03479401 -0.0038583204 0.11385981
-0.034904778 -0.0021158829 0.11385981
-0.034678988 -0.000373438 0.11211737
-0.034597166 0.0013689995 0.11211737
-0.034720138 -0.000373438 0.11385981
-0.034744687 0.0013689995 0.11385981
-0.029679604 -0.019540288 0.11560225
-0.028913692 -0.020712465 0.11560225
-0.02971983 -0.019540288 0.11734468
-0.028913692 -0.020709738 0.11734468
-0.029873386 -0.019540288 0.11908714
-0.028913692 -0.020890065 0.11908714
-0.029992625 -0.019540288 0.12082957
-0.028913692 -0.020902678 0.12082957
-0.030755013 -0.017797843 0.11560225
-0.030656137 -0.017942637 0.11560225
-0.030656137 -0.017797843 0.11460581
-0.031901322 -0.016055405 0.11560225
-0.030869141 -0.017797843 0.11734468
-0.030656137 -0.018116966 0.11734468
-0.032025412 -0.016055405 0.11734468
-0.032627188 -0.014312968 0.11560225
-0.032398574 -0.014941044 0.11560225
-0.033255257 -0.012570523 0.11560225
-0.032813795 -0.014312968 0.11734468
-0.032398574 -0.015314199 0.11734468
-0.033421643 -0.012570523 0.11734468
-0.030934155 -0.017797843 0.11908714
-0.030656137 -0.018279098 0.11908714
-0.03199137 -0.016055405 0.11908714
-0.031082265 -0.017797843 0.12082957
-0.030656137 -0.018546879 0.12082957
-0.031940818 -0.016055405 0.12082957
-0.032820769 -0.014312968 0.11908714
-0.032398574 -0.015251502 0.11908714
-0.033579066 -0.012570523 0.11908714
-0.032643653 -0.014312968 0.12082957
-0.032398574 -0.014930464 0.12082957
-0.033484273 -0.012570523 0.12082957
-0.030082315 -0.019540288 0.12257201
-0.028913692 -0.020952448 0.12257201
-0.030168667 -0.019540288 0.12431445
-0.028913692 -0.021224871 0.12431445
-0.029105909 -0.021282725 0.12605688
-0.028913692 -0.021525539 0.12605688
-0.028913692 -0.021282725 0.12466528
-0.030210204 -0.019540288 0.12605688
-0.029304378 -0.021282725 0.12779933
-0.028913692 -0.021817736 0.12779933
-0.030286416 -0.019540288 0.12779933
-0.031165421 -0.017797843 0.12257201
-0.030656137 -0.018682882 0.12257201
-0.032026976 -0.016055405 0.12257201
-0.031184018 -0.017797843 0.12431445
-0.030656137 -0.018745601 0.12431445
-0.032100461 -0.016055405 0.12431445
-0.032683715 -0.014312968 0.12257201
-0.032398574 -0.015153185 0.12257201
-0.033388637 -0.012570523 0.12257201
-0.032985605 -0.014312968 0.12431445
-0.032398574 -0.015476659 0.12431445
-0.033744738 -0.012570523 0.12431445
-0.032508507 -0.016055405 0.12779933
-0.032398574 -0.016220011 0.12779933
-0.032398574 -0.016055405 0.12661573
-0.031262822 -0.017797843 0.12605688
-0.030656137 -0.018772818 0.12605688
-0.032296762 -0.016055405 0.12605688
-0.031333365 -0.017797843 0.12779933
-0.030656137 -0.018859565 0.12779933
-0.033389159 -0.014312968 0.12605688
-0.032398574 -0.015893005 0.12605688
-0.034002826 -0.012570523 0.12605688
-0.033487253 -0.014312968 0.12779933
-0.033918396 -0.012570523 0.12779933
-0.033914655 -0.010828085 0.11560225
-0.034452267 -0.0090856403 0.11560225
-0.034141012 -0.010149747 0.11560225
-0.033951432 -0.010828085 0.11734468
-0.034358338 -0.0090856403 0.11734468
-0.034141012 -0.010053396 0.11734468
-0.034696244 -0.0073432028 0.11560225
-0.034944773 -0.0056007653 0.11560225
-0.034865648 -0.0073432028 0.11734468
-0.035444431 -0.0056007653 0.11734468
-0.034134291 -0.010828085 0.11908714
-0.034428157 -0.0090856403 0.11908714
-0.034141012 -0.010797419 0.11908714
-0.034151375 -0.010828085 0.12082957
-0.034141012 -0.010867044 0.12082957
-0.034141012 -0.010828085 0.11916286
-0.034448564 -0.0090856403 0.12082957
-0.034844436 -0.0073432028 0.11908714
-0.035538748 -0.0056007653 0.11908714
-0.034749448 -0.0073432028 0.12082957
-0.035194337 -0.0056007653 0.12082957
-0.035145223 -0.0038583204 0.11560225
-0.03506586 -0.0021158829 0.11560225
