# .PCD v0.7 - Point Cloud Data file format
VERSION 0.7
FIELDS x y z
SIZE 4 4 4
TYPE F F F
COUNT 1 1 1
WIDTH 795
HEIGHT 1
VIEWPOINT 0 0 0 1 0 0 0
POINTS 795
DATA ascii
-0.036239848 0.025982145 0.18681246
-0.034438111 0.0051048482 0.19169188
-0.028306769 0.030654574 0.18882626
-0.032635082 0.022709481 0.19015151
-0.034718569 0.012783665 0.18884215
-0.037566472 0.0032309666 0.18841696
-0.03839092 -0.00096179079 0.1886211
-0.031192806 0.032242812 0.18657863
-0.035516281 0.023568163 0.18687665
-0.037124746 0.014030638 0.18485552
-0.032790579 0.032900617 0.18247482
-0.036906272 0.024647383 0.18206739
-0.037709717 0.015848424 0.1808649
-0.035519127 0.029513601 0.17741436
-0.037259169 0.021378564 0.17732096
-0.035700932 0.030594232 0.17417926
-0.029849192 -0.00025157817 0.1930863
-0.031545874 -0.0045606438 0.19284591
-0.02149128 0.026572552 0.19037005
-0.023096463 0.023431525 0.19085559
-0.027095282 0.015426807 0.19133711
-0.030925866 0.0057154396 0.19170496
-0.035333574 -0.0028837603 0.19179556
-0.035465911 -0.0078212172 0.19050932
-0.036051925 -0.010884952 0.18908551
-0.023409726 0.02956083 0.18864539
-0.02831012 0.020938314 0.19082659
-0.031782996 0.011844427 0.19025961
-0.039021075 -0.0017594881 0.18658367
-0.038632464 -0.0061392169 0.18695518
-0.037600368 -0.011112672 0.18607914
-0.024000851 0.032938909 0.18355474
-0.037902046 0.0036232425 0.18236822
-0.0387851 -0.00099883229 0.18157336
-0.038889758 -0.0057942355 0.18165115
-0.02564325 0.035574522 0.17793259
-0.027520537 0.034155421 0.17908195
-0.037615299 0.0087040421 0.17817
-0.038744096 -0.00085935276 0.17748022
-0.030834626 0.033747528 0.17550457
-0.037470438 0.019910159 0.17519546
-0.038151503 0.0093489904 0.17340153
-0.032639619 0.033424087 0.17134076
-0.03668179 0.025343213 0.17117715
-0.038281236 0.01627478 0.17025647
-0.033859003 0.033188339 0.16693339
-0.036910556 0.025896933 0.1664097
-0.018715223 0.015387549 0.19120711
-0.021775153 0.0082363598 0.19094306
-0.026569046 -0.0016341014 0.19271079
-0.027584262 -0.0062749563 0.1929138
-0.029652998 -0.010420149 0.19201592
-0.030945603 -0.014890695 0.19059867
-0.017141948 0.027077224 0.1893771
-0.019787636 0.02284795 0.19130057
-0.023297841 0.013871106 0.19151241
-0.026717091 0.0060669086 0.19126952
-0.034983873 -0.013526708 0.18892804
-0.033610713 -0.017672086 0.18712622
-0.017672408 0.032632485 0.18503866
-0.019236337 0.030292884 0.18770757
-0.037302192 -0.013215238 0.18423444
-0.035490904 -0.016577318 0.18263903
-0.019591026 0.034501262 0.18201613
-0.038741887 -0.0068187816 0.17899483
-0.037621234 -0.01157252 0.17975765
-0.022038389 0.036406845 0.17801106
-0.03840391 -0.00090344064 0.17479387
-0.038201749 -0.0062257946 0.1746296
-0.037672028 -0.010123122 0.17514825
-0.024069361 0.036370039 0.17325336
-0.027151614 0.034734562 0.17398402
-0.037359938 0.0036565308 0.17083749
-0.038170785 -0.0008292282 0.17025721
-0.038673542 -0.0054526133 0.16945723
-0.028182777 0.034600906 0.16902232
-0.037268691 0.0095623285 0.16680717
-0.038284797 -0.00064204074 0.16667995
-0.039284457 -0.0035905987 0.1664212
-0.030479515 0.033809714 0.16461322
-0.036655594 0.025773728 0.16290319
-0.03690001 0.015801787 0.16321391
-0.032224614 0.033185877 0.16028041
-0.036300719 0.025566503 0.15961528
-0.036767278 0.016294805 0.15881106
-0.035551347 0.025746927 0.15507364
-0.022478048 -0.013586383 0.19268861
-0.025073487 -0.019270893 0.19256476
-0.025117097 -0.020977493 0.19303966
-0.011360358 0.024332264 0.18958652
-0.014237722 0.02081681 0.19100001
-0.017076083 0.011560336 0.19131196
-0.020961076 0.0023250524 0.19148523
-0.021832546 -0.0032767905 0.19184577
-0.023402866 -0.0080791889 0.19285905
-0.025590498 -0.012232002 0.19292846
-0.026567401 -0.016856685 0.19129908
-0.029297899 -0.020975307 0.18978491
-0.0097205751 0.034013003 0.18583158
-0.012170034 0.031233417 0.18774608
-0.013840281 0.027399361 0.18951651
-0.033310745 -0.020759368 0.1851339
-0.011835513 0.035396907 0.18326968
-0.014194829 0.032975134 0.18500018
-0.03496173 -0.019623064 0.1814931
-0.03387399 -0.021738809 0.17845044
-0.014519622 0.036090329 0.18176642
-0.034621302 -0.017708112 0.17654788
-0.018505458 0.038312484 0.17584518
-0.037328791 -0.012047748 0.17302096
-0.035051487 -0.015920196 0.17337671
-0.018603999 0.038391385 0.16999459
-0.021049287 0.037099671 0.16983008
-0.039577574 -0.0068971654 0.16749358
-0.037929434 -0.011198894 0.16781092
-0.023020118 0.035178732 0.16796833
-0.023503363 0.033920027 0.16416794
-0.03765323 -0.00079182256 0.16347349
-0.039214954 -0.0054368638 0.16375434
-0.039053686 -0.0092803147 0.1640172
-0.025977882 0.033894893 0.16191795
-0.037282288 0.0042780908 0.16006881
-0.037435789 -0.00016438682 0.15948272
-0.038603395 -0.0053553749 0.15991622
-0.028210498 0.034467008 0.15745744
-0.037064418 0.010784728 0.1564281
-0.030018387 0.033669148 0.15448582
-0.035828076 0.026365219 0.15186545
-0.037187915 0.016651338 0.15296927
-0.029803548 0.035544917 0.14973637
-0.035435908 0.026319068 0.14741421
-0.035311416 0.02962506 0.14384568
-0.017136578 -0.022137385 0.19847673
-0.016722931 -0.017869316 0.19391254
-0.018261623 -0.020690173 0.19581199
-0.019825086 -0.023436256 0.19591504
-0.0041416357 0.021366876 0.19215798
-0.0052583534 0.018425411 0.19197088
-0.012055332 0.0038111308 0.19245419
-0.013108997 -0.00050450349 0.19204581
-0.015365217 -0.0051551252 0.19188517
-0.017794516 -0.0099866949 0.19216248
-0.018657928 -0.015267704 0.19290733
-0.021299928 -0.019023774 0.19264039
-0.021938801 -0.022420244 0.19367015
-0.004316709 0.027526235 0.18932906
-0.0066144574 0.024114376 0.19058159
-0.009182361 0.019443329 0.19133174
-0.010366447 0.014065521 0.19100916
-0.014508676 0.006042602 0.19182864
-0.018058501 -0.0034952885 0.19118312
-0.0058579119 0.033956893 0.18580526
-0.0067285271 0.029727437 0.18776688
-0.0089417752 0.02597148 0.18869734
-0.0071821958 0.034988523 0.18190935
-0.033987962 -0.019830285 0.1735107
-0.032345105 -0.022740483 0.17406613
-0.033431876 -0.018267069 0.17023
-0.032367125 -0.022186354 0.17005581
-0.032779347 -0.016688613 0.16533104
-0.037203901 -0.011473824 0.16066173
-0.021866858 0.033580333 0.15934026
-0.037065778 -0.0019299844 0.15686944
-0.037780285 -0.0055956589 0.15653834
-0.03769413 -0.0097484691 0.15658334
-0.024871971 0.034835145 0.15777761
-0.036695696 -0.0007880982 0.1525912
-0.037664104 -0.0054771509 0.15179619
-0.038209334 -0.0086517641 0.15119079
-0.028037764 0.034237638 0.15076202
-0.036573764 0.010902978 0.1492025
-0.037179664 -0.00017404743 0.1476382
-0.038144473 -0.0047791796 0.14776134
-0.028466579 0.03348197 0.14733213
-0.030838199 0.031982776 0.14552617
-0.034651466 0.02024354 0.14563826
-0.036575656 0.011440901 0.14482152
-0.037982617 0.002509621 0.14377096
-0.028809492 0.033929579 0.14198431
-0.035050452 0.025685245 0.14184582
-0.036141139 0.016776593 0.1406965
-0.038511664 0.0073409234 0.14004421
-0.033078078 0.030807385 0.13706917
-0.035811566 0.021962807 0.13634509
-0.034007132 0.030954817 0.13340482
-0.036786377 0.024039999 0.13258514
-0.013087779 -0.019576179 0.19701099
-0.015239346 -0.020381361 0.19793701
-0.007335267 -0.0038065682 0.19263506
-0.0094489967 -0.0072196266 0.19285676
-0.011539266 -0.012334825 0.19261098
-0.013565162 -0.017530579 0.19384024
0.0011760378 0.025748027 0.19091186
-0.001221349 0.021902485 0.19255817
-0.0030932399 0.01639835 0.19270262
-0.0047429726 0.011704372 0.19119406
-0.0061256872 0.0070983637 0.1914596
-0.009803107 -0.0019144386 0.19263023
-0.012120727 -0.0060818628 0.19276142
-0.014076559 -0.011233698 0.19243371
0.0011875741 0.03044555 0.18765447
-0.0013938565 0.027921008 0.1894908
-0.0011453833 0.03288449 0.18581513
-0.030686514 -0.02023714 0.16590184
-0.030660275 -0.022875041 0.16700783
-0.031464886 -0.019220976 0.16290027
-0.011528453 0.036260951 0.16145122
-0.015025081 0.034168988 0.16198379
-0.033093616 -0.017050769 0.15922406
-0.016188782 0.033603363 0.15780529
-0.019683644 0.03294269 0.15594822
-0.035819992 -0.012854317 0.15510854
-0.033111833 -0.016201029 0.1543898
-0.01757759 0.03394451 0.154019
-0.036868647 -0.011805035 0.15038705
-0.019133184 0.033091776 0.14997259
-0.03809784 -0.0016298601 0.14563894
-0.038868926 -0.0051566036 0.14553618
-0.037797406 -0.0098738167 0.14543003
-0.024649432 0.033400245 0.14269659
-0.037790317 -0.0001368504 0.14154637
-0.037843496 -0.0044547161 0.14145714
-0.037729274 -0.0085343253 0.14143243
-0.026315093 0.034790508 0.13970998
-0.029531 0.032679573 0.13919812
-0.037283964 0.012051791 0.13783625
-0.038457509 0.0014229389 0.13725293
-0.030052658 0.034745693 0.13633817
-0.030736782 0.033317275 0.13633782
-0.035719875 0.016488861 0.13412341
-0.037853088 0.0070521501 0.13347295
-0.028782282 0.034528106 0.13160712
-0.036225766 0.027381483 0.12941438
-0.035413079 0.018488646 0.12997368
-0.036202386 0.027315816 0.12593079
-0.036552787 0.02676877 0.12202364
-0.0066010412 -0.019702302 0.19354364
0.0088621257 0.026578873 0.19206697
0.007936487 0.023534887 0.19174993
0.0052906312 0.019406598 0.19206598
0.0026904312 0.013833797 0.19258848
0.0017258025 0.0084894169 0.19180077
-0.00058719516 0.0045938827 0.1921851
-0.0047766082 -0.0035912329 0.19270384
-0.005542737 -0.0092219245 0.19281298
-0.0066352477 -0.01357776 0.19242126
-0.0082617486 -0.017645281 0.19266659
0.0086533539 0.032034796 0.18808341
0.0063851881 0.02913031 0.19015449
0.0045985407 0.025174107 0.19139674
0.0024690595 0.022179073 0.19247884
-0.0019832277 0.0094833747 0.19147331
0.0072422009 0.033581741 0.18555635
0.003854814 0.031749927 0.18737888
0.0044670887 0.034672085 0.18217304
-0.00010972191 0.0341154 0.18047565
-0.028328389 -0.025003502 0.16379976
-0.030634647 -0.020953305 0.16003373
-0.029463354 -0.023682874 0.16091821
-0.0078462949 0.035149787 0.15704384
-0.0093763797 0.03398747 0.15761974
-0.031232841 -0.020142464 0.15637469
-0.030766927 -0.022540182 0.15682298
-0.0090629738 0.035795439 0.15415779
-0.011330404 0.034212124 0.15505868
-0.032203548 -0.017706472 0.15245849
-0.014171952 0.032956846 0.14879644
-0.032471959 -0.016269241 0.1473372
-0.015916497 0.032102898 0.14579082
-0.03567943 -0.012980666 0.14360157
-0.037003934 -0.0064431857 0.13841924
-0.037049577 -0.010702205 0.13891995
-0.021300916 0.033903856 0.13625622
-0.037937328 -0.004189847 0.13521427
-0.037603006 -0.0097200517 0.13370314
-0.025108885 0.034768611 0.13220257
-0.036766879 0.0075559239 0.13100582
-0.037884422 -0.0028624982 0.12980369
-0.038201809 -0.0075817825 0.12971902
-0.028119929 0.032844022 0.12678635
-0.03529549 0.011915282 0.12713242
-0.037198044 0.0025912374 0.12668937
-0.037782472 -0.0019042529 0.12616187
-0.028000442 0.034704827 0.12340355
-0.030721869 0.033006877 0.1238839
-0.035229597 0.017048072 0.12262529
-0.031947255 0.031365275 0.11911541
-0.036666598 0.022744369 0.11928654
-0.032968335 0.030850381 0.11507279
-0.036676031 0.023438215 0.11414081
0.0083758961 0.0051804604 0.19405422
0.0072939666 0.0021687858 0.19383025
0.0020975876 -0.012979034 0.19257462
0.00033917883 -0.016582966 0.19255105
-0.0031537977 -0.020332841 0.19340324
0.014173474 0.030881362 0.19160721
0.012527505 0.026846277 0.1929591
0.011186838 0.022285709 0.19184214
0.009852442 0.017698074 0.19102153
0.0085323974 0.012692927 0.19225237
0.00631712 0.0078980178 0.19277444
0.0039716903 0.0026993323 0.19294953
0.0012984329 -0.0065292441 0.19192246
-0.00041762856 -0.010592123 0.1922186
-0.0026812791 -0.015287007 0.19263679
-0.0048071924 -0.017861303 0.19308108
0.015034834 0.034789585 0.18816036
0.011465615 0.032855213 0.1888701
0.0098649254 0.029715225 0.19051489
0.011276091 0.036450703 0.18412405
0.0090599433 0.035495371 0.18507981
0.010762094 0.036999736 0.17894274
0.0084395017 0.036011558 0.18089595
0.0070355772 0.033673838 0.17258623
-0.026012748 -0.027638908 0.15760571
-0.0036224835 0.035241153 0.15740883
-0.028283965 -0.025344197 0.15422571
-0.0081016626 0.035474654 0.15348563
-0.027937336 -0.020972205 0.14893353
-0.026364198 -0.024315655 0.14892831
-0.0099442573 0.033571266 0.14958656
-0.028303768 -0.019778151 0.1437622
-0.011174496 0.032590814 0.1430113
-0.013408596 0.031358048 0.14209887
-0.031294368 -0.01746219 0.14051658
-0.013056516 0.033156902 0.13856214
-0.014777645 0.032055758 0.1393038
-0.033429004 -0.016378153 0.13638905
-0.015553481 0.034295887 0.13563716
-0.017618123 0.033256195 0.1375894
-0.034747355 -0.015479238 0.13207793
-0.018881099 0.033548497 0.13138598
-0.037859488 -0.0094674984 0.12775803
-0.037246678 -0.011741729 0.12666559
-0.022297353 0.032455515 0.12384295
-0.03514491 0.0066221328 0.12320632
-0.037421077 -0.0030657686 0.12306672
-0.037323315 -0.0075034769 0.12283295
-0.036353771 -0.012056325 0.12404746
-0.035231195 0.0068183085 0.11942095
-0.036995213 -0.002837291 0.1185354
-0.037243851 -0.007126444 0.11931694
-0.027713921 0.034943618 0.11743253
-0.029316556 0.033812523 0.1181398
-0.035189249 0.012191091 0.11520857
-0.028824378 0.035608813 0.11347592
-0.030393258 0.032831732 0.1126619
-0.036697902 0.021647513 0.11137521
-0.035895418 0.01353545 0.1111933
-0.03045447 0.031378891 0.1082955
-0.035972565 0.023474168 0.1077736
0.011971146 -0.00017970009 0.19694844
0.0095742596 -0.010171506 0.19589686
0.0069128964 -0.0143053 0.19620064
0.005966573 -0.019118287 0.19543776
0.0031218892 -0.022257198 0.19516864
0.016652148 0.020085681 0.19362262
0.015204187 0.015137585 0.1943205
0.013206882 0.010989614 0.19489816
0.011812342 0.0058469842 0.19465002
0.0095693665 9.5691998e-05 0.19447529
0.0065366491 -0.0087795816 0.19320443
0.0046163821 -0.012973173 0.19363928
0.0033462136 -0.017910862 0.19340569
0.00051603653 -0.021948654 0.19382831
0.019007165 0.031498902 0.18980825
0.014819723 0.020858403 0.19247097
0.013069876 0.016406033 0.19175467
0.011245599 0.01365315 0.19199237
0.012064399 0.03670815 0.17625752
0.01019633 0.034789365 0.17677116
0.0092899045 0.034690037 0.17371863
0.007142134 0.031831209 0.17389968
-0.024470713 -0.026988825 0.15084866
-0.0014358489 0.034820791 0.15120864
-0.025367446 -0.024130499 0.14710748
-0.0037654517 0.034834784 0.1468465
-0.0073684985 0.033422146 0.14541355
-0.02741163 -0.022589481 0.14200422
-0.0044311993 0.03473445 0.14336303
-0.008085412 0.033829093 0.14147401
-0.029653009 -0.022516221 0.13800031
-0.0096296286 0.034343462 0.13716564
-0.031513043 -0.021325443 0.13346174
-0.01272685 0.035113774 0.13274199
-0.03352572 -0.016972063 0.12852222
-0.032055076 -0.019854899 0.12914643
-0.013526172 0.03450717 0.12890887
-0.015328712 0.033051871 0.12635934
-0.034059376 -0.015758229 0.12533545
-0.019625207 0.033114292 0.12426299
-0.036932826 -0.0099530835 0.12116873
-0.035148274 -0.013535622 0.12046462
-0.037902161 -0.021745846 0.11813837
-0.019276137 0.033281516 0.11918557
-0.036790609 -0.0010857666 0.11601001
-0.0369456 -0.008641473 0.11701447
-0.036008928 -0.011953975 0.11601907
-0.024245366 0.035557605 0.11334562
-0.036358435 0.002315863 0.11351973
-0.037176102 -0.0027938038 0.11351508
-0.037414409 -0.0076934891 0.11237401
-0.02576708 0.034728095 0.10817331
-0.027544094 0.03364468 0.10902804
-0.036494661 0.0078030149 0.10877961
-0.037489623 -0.0022445479 0.10822219
-0.037882492 -0.0064957924 0.10911489
-0.028349379 0.032167189 0.1051355
-0.035476029 0.021485096 0.10456949
-0.03534922 0.013068836 0.10494
-0.036508754 0.0038894583 0.10489649
-0.029634913 0.032380737 0.10011309
-0.035326574 0.023332115 0.10109288
-0.034196563 0.014149037 0.10132182
-0.031357124 0.032887641 0.095475852
-0.035457842 0.024214514 0.09615463
-0.03482816 0.028785152 0.092545271
0.013531109 -0.0030730516 0.19569355
0.021454738 0.017144373 0.19281054
0.020734431 0.013939284 0.19296971
0.021219846 0.0289579 0.18982178
0.017105754 0.034824871 0.17671412
0.0092790388 0.035764832 0.15473425
0.0071407808 0.03586603 0.15217066
0.0047261566 0.033542648 0.15292993
0.0055246036 0.035860278 0.14830321
0.0023095394 0.034854431 0.14896929
0.0013858583 0.035107505 0.14380029
-0.0024842368 0.034775753 0.14024624
-0.0046688477 0.035301931 0.13591728
-0.0052225236 0.035915907 0.12961191
-0.0082874037 0.0352147 0.13165927
-0.030612316 -0.021748878 0.12619579
-0.010437136 0.035043351 0.12540257
-0.030897617 -0.020610809 0.12182623
-0.01126528 0.034007221 0.12059635
-0.014027926 0.032841809 0.12153137
-0.032424346 -0.017150797 0.11797303
-0.032356266 -0.020693555 0.11683446
-0.012394975 0.034229882 0.11695492
-0.015702037 0.033645514 0.11893129
-0.033200286 -0.015603103 0.11343455
-0.032528795 -0.018747751 0.11359912
-0.016035616 0.032403134 0.11282909
-0.035668407 -0.011910191 0.10988611
-0.036616795 -0.0080560679 0.10521978
-0.03601744 -0.011575327 0.10426569
-0.022502009 0.033720676 0.10364902
-0.025707636 0.033234313 0.10367912
-0.03406956 0.0071042003 0.10095513
-0.036196105 -0.0025550192 0.10128725
-0.036573939 -0.007676295 0.10089898
-0.024283323 0.032911755 0.099604666
-0.033406693 0.012006811 0.097837627
-0.035603493 0.0026592594 0.096565843
-0.036366798 -0.0011522546 0.097190678
-0.028127575 0.034211613 0.095667839
-0.034398716 0.01755875 0.094284475
-0.034899879 0.0089472383 0.093442082
-0.029690009 0.03295454 0.090309083
-0.034644049 0.023621541 0.089845955
-0.035692804 0.014640609 0.088881671
-0.034512267 0.024918769 0.085174084
-0.035383131 0.026074227 0.081943631
0.010576067 0.036130872 0.1550408
0.0092305485 0.037673976 0.15241992
0.0062794723 0.036898311 0.14589322
0.0062640123 0.036722366 0.14170304
0.0034161974 0.035415821 0.14071304
0.0023908783 0.034866698 0.13727736
-0.00013198331 0.035963107 0.1328049
-0.0032821232 0.035087209 0.1310806
-0.0052319132 0.036228269 0.12479693
-0.0041601798 0.036978539 0.12039292
-0.0074234912 0.035220265 0.11947525
-0.007755355 0.0342599 0.11592501
-0.011023655 0.032172002 0.11343241
-0.032013059 -0.021052763 0.11135334
-0.033620868 -0.02356543 0.11281168
-0.016063323 0.032587007 0.10992473
-0.032106794 -0.016080908 0.10720617
-0.0313613 -0.019105313 0.10775626
-0.015139739 0.032563441 0.10430849
-0.033794664 -0.014270922 0.10191619
-0.020033523 0.033846341 0.1000092
-0.036233641 -0.0077174744 0.097652256
-0.035598718 -0.012279454 0.098158538
-0.020315569 0.033316664 0.096009493
-0.023446679 0.032793388 0.095981061
-0.036426257 -0.0028027324 0.094689071
-0.036758974 -0.0071546901 0.094427049
-0.035432361 -0.011504653 0.093871772
-0.020737682 0.033693932 0.092386007
-0.036208294 0.0031343838 0.091106296
-0.037410334 -0.0016266741 0.090381801
-0.03744106 -0.005838627 0.0894292
-0.026294317 0.033489656 0.088099837
-0.035984274 0.0085190302 0.086658478
-0.03729533 -0.0010696128 0.085934103
-0.028746918 0.032103181 0.083285332
-0.035489243 0.019054102 0.08285892
-0.035410579 0.0093374178 0.082467794
-0.028691856 0.032307763 0.079240859
-0.034920204 0.026022116 0.079305232
-0.035244167 0.016143788 0.076978922
-0.034458835 0.02615222 0.073139608
0.011397895 0.035591561 0.14568648
0.0083963722 0.037211724 0.13820821
0.0078147724 0.035944682 0.13426325
0.0052335775 0.035135873 0.13462901
0.0034856154 0.035422049 0.12693846
-0.0014235796 0.036808863 0.12056875
-0.00095294695 0.040212393 0.11932713
-0.0019875104 0.037268341 0.11676484
-0.0039255852 0.038259812 0.11268669
-0.0067288829 0.034468364 0.11333162
-0.029875334 -0.025150189 0.1078794
-0.029351097 -0.022011621 0.10451794
-0.029176515 -0.025377315 0.10434675
-0.031438835 -0.017097924 0.10144281
-0.030025639 -0.019504679 0.10073966
-0.014447104 0.032679934 0.097845972
-0.03138946 -0.016999431 0.097421646
-0.035854358 -0.0094345147 0.090796173
-0.033248935 -0.013735149 0.09115082
-0.019608272 0.033423699 0.089488208
-0.03618335 -0.0085777808 0.08725512
-0.034642547 -0.01207219 0.086563647
-0.036842059 -0.0025164504 0.083615899
-0.03619168 -0.0074963933 0.082968414
-0.035177007 -0.011259645 0.082620978
-0.024013393 0.032123785 0.080949247
-0.035014823 0.0028250562 0.079437196
-0.03604703 -0.0018125894 0.079209626
-0.036475882 -0.0063726511 0.0786798
-0.026324075 0.032588571 0.076410055
-0.034887176 0.0085160965 0.075694621
-0.03634128 -0.0010848856 0.075054109
-0.037353188 -0.0046684397 0.075090528
-0.026849836 0.032581508 0.071851909
-0.034665305 0.02081711 0.071219921
-0.035469711 0.011242511 0.071164012
-0.028223731 0.032708682 0.068768799
-0.033934955 0.026245076 0.067203462
-0.035012823 0.016047038 0.067358911
-0.031889174 0.029123552 0.064025581
-0.034115728 0.022961617 0.063550413
-0.037051857 0.037084274 0.052986085
0.0040489351 0.038464323 0.11757511
0.0030284738 0.037007358 0.11877948
0.0017249724 0.037884027 0.11289275
0.0025714831 0.039400458 0.11181182
-0.00042746123 0.036851693 0.10962582
-0.0035555148 0.033961166 0.10909766
-0.00018353388 0.037294801 0.10591537
-0.0028878981 0.032699268 0.10544747
-0.0057825334 0.030628635 0.10549742
-0.027272873 -0.024340667 0.10040039
-0.027473267 -0.027288495 0.10161799
-0.0030958997 0.032444291 0.10227561
-0.0049569514 0.030587927 0.10090292
-0.028135041 -0.022071745 0.097658217
-0.0090761604 0.030670434 0.096598625
-0.02945016 -0.017764436 0.093848467
-0.027762709 -0.019375455 0.092190504
-0.011193742 0.031867906 0.090292811
-0.029538747 -0.017545622 0.087886035
-0.033154409 -0.014640993 0.085202098
-0.031111784 -0.016725458 0.084132612
-0.018504959 0.031664066 0.082021117
-0.035686783 -0.012330228 0.08109349
-0.032735325 -0.015883777 0.080418527
-0.018418672 0.031867079 0.077923238
-0.03663804 -0.008009701 0.07620126
-0.035304874 -0.011705563 0.075803578
-0.021925569 0.033423483 0.074765682
-0.036351025 -0.0014300477 0.07237637
-0.036934137 -0.0053378195 0.071823716
-0.036080457 -0.0087438365 0.0728181
-0.022370175 0.035724681 0.068633378
-0.024321338 0.033927388 0.070061445
-0.035230335 0.0051558474 0.068042397
-0.035815496 -0.0041979998 0.067961872
-0.026615068 0.034001041 0.065962434
-0.029288385 0.031570688 0.065021634
-0.03461362 0.01156937 0.06415534
-0.027506957 0.033419088 0.061572313
-0.033960097 0.026135471 0.06089747
-0.033726115 0.017014766 0.060521603
-0.028923368 0.033636436 0.05713743
-0.03399995 0.026822072 0.056476653
-0.033253774 0.02764054 0.052016258
-0.035012845 0.036551431 0.04809469
0.0036469288 0.037388504 0.1094839
0.0006957408 0.037084352 0.10405803
-0.0012898855 0.034321044 0.10369271
0.0011397498 0.037172541 0.1001454
-0.0019418634 0.033334691 0.099183559
-0.0036590183 0.030268025 0.097908258
-0.026317224 -0.024646305 0.095625401
-0.0020880671 0.032849334 0.094282448
-0.0043245107 0.030735256 0.094433248
-0.025778914 -0.022335708 0.090579867
-0.025782276 -0.025682887 0.091378272
-0.0047677141 0.03299623 0.089330494
-0.005959834 0.031652536 0.089708865
-0.026024437 -0.021796271 0.086155415
-0.0061025498 0.033691034 0.086367905
-0.0074700098 0.031593677 0.085600674
-0.029195827 -0.020116763 0.082144737
-0.029334184 -0.022843644 0.079882324
-0.010386385 0.031258773 0.080311298
-0.032477979 -0.018006099 0.0783692
-0.013559104 0.032818884 0.074796021
-0.03325808 -0.017281633 0.074498415
-0.016391207 0.033932533 0.072452784
-0.034501098 -0.011154872 0.069850385
-0.018645793 0.035089735 0.069871724
-0.034215927 -0.0007160278 0.064352453
-0.035069052 -0.0057856068 0.065329552
-0.034750368 -0.0099899368 0.065235317
-0.033877224 0.0053107203 0.061736524
-0.03531957 -0.0050770901 0.061069429
-0.035073802 -0.0087917643 0.060669065
-0.027439607 0.033006635 0.057902992
-0.033196837 0.015150211 0.057400286
-0.034086064 0.0051172739 0.056790173
-0.035544582 -0.0039465772 0.05744344
-0.029085461 0.033807535 0.055226028
-0.033768896 0.016430357 0.053285301
-0.034871235 0.0064708903 0.052848816
-0.030919716 0.031063434 0.04961139
-0.033874247 0.022048583 0.04902178
-0.035191469 0.011922355 0.049237072
-0.032616585 0.035838753 0.043891609
-0.031376109 0.03196273 0.045189679
-0.034414668 0.022226984 0.044671953
-0.032974578 0.036698215 0.041650236
-0.032413997 0.032764185 0.041580498
-0.035478838 0.022820126 0.041462421
-0.032873157 0.036276594 0.037882149
0.0027408721 0.03685879 0.095722497
0.0026843874 0.036384746 0.092335224
-0.00031189807 0.034129299 0.091449678
-0.023841118 -0.027367499 0.086979032
-0.0017011994 0.034125041 0.08811754
-0.025434699 -0.025657579 0.084508598
-0.0044715516 0.033852812 0.083242416
-0.0075239893 0.032044791 0.083386779
-0.027783236 -0.024500886 0.081356645
-0.0065603983 0.034340732 0.07865411
-0.0089249881 0.032979213 0.079340637
-0.0073995078 0.035058398 0.072218597
-0.010403879 0.032717548 0.07519567
-0.030090233 -0.019469667 0.069118381
-0.0091546327 0.035957776 0.068554401
-0.012609814 0.035362989 0.070821702
-0.032862857 -0.013601783 0.066819489
-0.031362727 -0.016098022 0.066987872
-0.032928936 -0.012981139 0.062388659
-0.030672817 -0.016266597 0.062266111
-0.035171267 -0.010046941 0.058745027
-0.034489974 -0.00022084452 0.054276764
-0.034959126 -0.0052451622 0.053866982
-0.034763675 -0.0096171061 0.053871512
-0.034417074 0.00037132576 0.049688995
-0.034802094 -0.0037922766 0.048954785
-0.034682684 0.0065811058 0.046016455
-0.034334842 0.016684048 0.042384088
-0.034449417 0.0079496587 0.041777432
-0.034450941 0.022594064 0.037398696
-0.031714875 0.031950124 0.034891665
-0.034542389 0.023719009 0.033602118
0.005891162 0.039594911 0.090381563
0.0053496761 0.037143942 0.089963675
-0.019990282 -0.029096924 0.085879743
0.0041342061 0.036925428 0.086594582
0.00045737345 0.034817703 0.085325778
-0.022860684 -0.029501822 0.081515253
0.0031248173 0.037582614 0.082328081
-0.00018819142 0.034723572 0.081261039
-0.023563713 -0.029141571 0.080047667
2.271682e-05 0.037297279 0.077114224
-0.001453138 0.035297245 0.077900887
-0.0045795972 0.034872733 0.072247744
-0.028036475 -0.019967696 0.064714611
-0.028238688 -0.022982832 0.066638231
-0.029313195 -0.0180529 0.060688674
-0.032564342 -0.013407242 0.056218624
-0.030135922 -0.016306948 0.055564463
-0.033774592 -0.011500183 0.051442266
-0.031885795 -0.01537776 0.050828099
-0.034547761 -0.006160493 0.047519982
-0.034325857 -0.010752824 0.047614992
-0.032526996 -0.014980536 0.047202587
-0.033923924 0.00037006289 0.044028044
-0.035150927 -0.0048054568 0.0435974
-0.034982651 -0.0089858593 0.043042243
-0.034296397 0.0055324831 0.040098488
-0.035738226 -0.0038933875 0.038848698
-0.033322893 0.011354646 0.035721123
-0.035772286 0.0015045935 0.035174727
-0.036618937 -0.0017972654 0.035722613
-0.029299084 0.032514744 0.031604588
-0.033906199 0.02205991 0.031437635
-0.032851305 0.012252523 0.031390369
-0.029522646 0.031184258 0.027855992
-0.033729728 0.022792168 0.027262986
-0.030394834 0.030697832 0.023182809
-0.033764735 0.024234045 0.022776306
0.004599425 0.036491331 0.07950896
0.0033250768 0.036967546 0.076797009
-0.025920581 -0.022046918 0.061113477
-0.025280101 -0.025092771 0.060689092
-0.02678854 -0.021086143 0.057321012
-0.025939452 -0.024694975 0.057079136
-0.02735878 -0.020221828 0.052213967
-0.029348982 -0.018748607 0.048337638
-0.031561583 -0.016238255 0.043924153
-0.033630125 -0.01196913 0.040022075
-0.031891566 -0.015027693 0.039250314
-0.03495172 -0.0061685005 0.035039902
-0.03421735 -0.0095929476 0.036129653
-0.034562528 0.0011397349 0.030893147
-0.035246994 -0.0041023828 0.032062173
-0.034258243 -0.0091462135 0.03238225
-0.033192787 0.006413911 0.028023362
-0.034304842 -0.0034545334 0.02797544
-0.027068861 0.031710859 0.024533033
-0.032924768 0.016927231 0.024233699
-0.032910202 0.0052521513 0.024606049
-0.028977543 0.031460743 0.020889342
-0.033148728 0.022328109 0.019420922
-0.032757491 0.012680239 0.020663142
-0.034007419 0.023810286 0.016153693
-0.032655314 0.027658954 0.011898756
-0.023625525 -0.02845829 0.054152727
-0.024784042 -0.024609933 0.051509678
-0.027982287 -0.020690249 0.046135128
-0.027506996 -0.022787783 0.047197878
-0.02908876 -0.020096898 0.042887628
-0.029087974 -0.022378515 0.041564643
-0.03027723 -0.017573584 0.038222134
-0.029926011 -0.021176198 0.036973774
-0.032607567 -0.012672392 0.033104062
-0.031433411 -0.015979432 0.0332008
-0.031273264 -0.01972248 0.03176409
-0.033666439 -0.010855929 0.02952522
-0.032195624 -0.01502301 0.028180361
-0.033810757 -0.0051104492 0.025195777
-0.033734776 -0.0091213286 0.024422407
-0.033433676 -0.012061174 0.025309682
-0.034039326 0.0012610182 0.021607935
-0.033909313 -0.0040458124 0.020132303
-0.033556908 -0.00813914 0.02028805
-0.024250338 0.031993784 0.020963669
-0.032836672 0.011670748 0.017558455
-0.034075748 0.001724924 0.01581043
-0.033823017 -0.0023207366 0.016052365
-0.027642872 0.030070256 0.014225185
-0.03290287 0.017120896 0.013365626
-0.033963401 0.0074843136 0.012300193
-0.033268601 0.02277839 0.0086097121
-0.022823971 -0.026799632 0.04774791
-0.022816233 -0.028732555 0.0502882
-0.024617981 -0.025936501 0.046143413
-0.030217584 -0.023058243 0.034114301
-0.029521113 -0.025290608 0.036045492
-0.030928543 -0.022665579 0.031549394
-0.029623784 -0.02511047 0.030788004
-0.031912141 -0.016505789 0.026895106
-0.031341676 -0.020746002 0.026504815
-0.030365452 -0.024677927 0.027164519
-0.031828217 -0.015168042 0.022234023
-0.031360969 -0.019447479 0.023252845
-0.03300529 -0.0095434031 0.017894089
-0.032302272 -0.013086053 0.017962277
-0.03288928 -0.0038683116 0.013289869
-0.032619014 -0.0080717811 0.013637304
-0.032461807 -0.012134212 0.013609946
-0.023653295 0.030406209 0.012252271
-0.033335365 0.0017565442 0.010133505
-0.033120502 -0.0026355069 0.0087915659
-0.02618126 0.029843193 0.0074711442
-0.030298639 -0.0246526 0.024947703
-0.02921433 -0.020774174 0.018940508
-0.030600559 -0.016131556 0.015100062
-0.028539158 -0.019546792 0.014463365
-0.032799989 -0.009089035 0.010584414
-0.031323969 -0.014430401 0.010781467
-0.033481836 -0.0077437442 0.0072067976
-0.02599337 -0.024493234 0.015124142
-0.027223859 -0.021977136 0.012567401
-0.027615584 -0.020421585 0.0082715154
-0.024199426 -0.025155444 0.0090717077
