# .PCD v0.7 - Point Cloud Data file format
VERSION 0.7
FIELDS x y z
SIZE 4 4 4
TYPE F F F
COUNT 1 1 1
WIDTH 764
HEIGHT 1
VIEWPOINT 0 0 0 1 0 0 0
POINTS 764
DATA ascii
0.028531007 -0.030733582 0.18897551
0.031767011 -0.022344265 0.19046158
0.032950997 -0.014650778 0.18808052
0.030616352 -0.031228248 0.18596023
0.034287974 -0.023596808 0.18591985
0.031458635 -0.030970862 0.18183368
0.034130078 -0.024094975 0.18161389
0.031299777 0.0046607209 0.19268245
0.021565082 -0.027417842 0.19064492
0.023384739 -0.023920391 0.19160554
0.027432501 -0.015768696 0.19200855
0.030069917 -0.0049997885 0.19025254
0.033326823 0.0036991611 0.19045112
0.034456182 0.0082385037 0.18983042
0.023752902 -0.030111384 0.18919384
0.03200601 -0.011371908 0.18827933
0.034524322 -0.001981915 0.18725395
0.035219647 0.0027235234 0.1863386
0.035748765 0.0064401915 0.18681681
0.025098056 -0.032178078 0.18488115
0.03393342 -0.012717454 0.18335122
0.034789201 -0.0025976636 0.18321243
0.029571995 -0.031607613 0.17954817
0.033939235 -0.023418393 0.17885
0.034663413 -0.014172358 0.17800793
0.030185863 -0.031704795 0.17490202
0.034224685 -0.024147704 0.17511022
0.035639681 -0.015628312 0.1734961
0.031190807 -0.032609761 0.17085397
0.03465163 -0.025047395 0.1703729
0.036614288 -0.016996995 0.17078909
0.034911364 -0.026523953 0.16700548
0.016784072 -0.020474194 0.19153062
0.020316487 -0.012666866 0.19134837
0.02419224 -0.0028263498 0.19116423
0.027141882 0.0013677757 0.19219309
0.027505096 0.006307194 0.19286138
0.030134054 0.010202174 0.19182131
0.030914448 0.014874215 0.1896753
0.032311678 0.020185325 0.18899512
0.017583055 -0.027553648 0.19027573
0.020018632 -0.022562228 0.1920765
0.024078369 -0.0133376 0.19179952
0.026564475 -0.0055424101 0.19031501
0.033358462 0.013724677 0.18770725
0.034100994 0.018663863 0.18716666
0.034888744 0.02435828 0.18684962
0.037406199 0.027128186 0.18444905
0.017952522 -0.032162923 0.18537003
0.019586295 -0.03092394 0.18868634
0.035299219 0.0082333973 0.1842435
0.034439057 0.012867149 0.18359849
0.03517627 0.016748844 0.18363291
0.03832164 0.027525743 0.18302497
0.022133045 -0.031803031 0.18124869
0.034608897 -0.0023252144 0.17980537
0.034646891 0.0027476931 0.18053365
0.03470359 0.0075478647 0.17944762
0.024069173 -0.031705026 0.17683065
0.034141883 -0.0023259548 0.17494687
0.034279969 0.0027066786 0.17535222
0.035198417 0.0074151456 0.17586604
0.027149037 -0.033533849 0.17317805
0.035184588 -0.0088254232 0.17127213
0.029915048 -0.034407549 0.1695379
0.034984015 -0.019500975 0.16758999
0.03516154 -0.010950731 0.16755897
0.030452084 -0.032763548 0.16568047
0.033454273 -0.024252918 0.16337544
0.03402552 -0.016288657 0.16348282
0.032994226 -0.026128938 0.16015881
0.026736623 0.023651786 0.19228607
0.027662652 0.02580113 0.19220918
0.011106988 -0.025275871 0.19092554
0.013198239 -0.021050621 0.19190004
0.014804235 -0.015475371 0.19162956
0.018860932 -0.006738273 0.19205403
0.021668974 0.0033569532 0.19209999
0.02267964 0.0083737168 0.19238448
0.025391532 0.012289023 0.19207779
0.027259361 0.016505072 0.18995056
0.029327776 0.021566575 0.1902568
0.031780243 0.025575779 0.18996593
0.012414098 -0.030553713 0.18785238
0.013659082 -0.027721565 0.18996033
0.034311309 0.021155138 0.1849747
0.03517884 0.025031678 0.18499982
0.036761835 0.028025381 0.18566769
0.014248583 -0.03204323 0.18461585
0.034430705 0.013877763 0.18095982
0.034622766 0.019339129 0.18115118
0.036086589 0.023876488 0.1807619
0.038543396 0.026533782 0.18159533
0.016213711 -0.031843126 0.17970023
0.034834385 0.0093126139 0.176961
0.034479134 0.012894742 0.17758787
0.035069406 0.017720535 0.17657042
0.036374941 0.023099666 0.17580688
0.038066469 0.026567984 0.17395607
0.016937356 -0.032369949 0.17564946
0.020122543 -0.031872816 0.17642778
0.034880668 0.0023495257 0.17281836
0.034816943 0.0075000534 0.17354628
0.03457813 0.012672867 0.17217192
0.035333626 0.017058488 0.17275524
0.036492806 0.022098145 0.17246196
0.023029342 -0.035069868 0.16979837
0.021389801 -0.032639645 0.17184117
0.034728449 0.0022488404 0.16849458
0.035592828 0.0069590071 0.16790444
0.035145447 0.011163839 0.16860616
0.033638328 -0.0035668788 0.16439012
0.034913093 0.0020071128 0.16428113
0.026238449 -0.032610111 0.16169772
0.028557362 -0.031051092 0.16077662
0.032969452 -0.01459237 0.16048431
0.030005958 -0.029101916 0.15710863
0.032352872 -0.019879466 0.15667441
0.0036732424 -0.022869313 0.19230896
0.0055457312 -0.018527687 0.19215465
0.014221693 3.0224212e-05 0.19186056
0.015241755 0.0049961577 0.19168651
0.017385382 0.010616166 0.19118139
0.018854208 0.014775589 0.19113171
0.019908151 0.020198993 0.18996575
0.022872683 0.023304988 0.19137853
0.0051519889 -0.028071702 0.1902425
0.0072329273 -0.024846213 0.19173115
0.0083112121 -0.018785568 0.19189695
0.0097944709 -0.013507094 0.19081983
0.014428545 -0.0060120793 0.19177663
0.017567389 0.00032486394 0.19177374
0.018690072 0.0040862942 0.19136783
0.022877855 0.018443143 0.18976542
0.02486706 0.021000305 0.19015867
0.0043222839 -0.031962685 0.18593848
0.0070859054 -0.030101812 0.18757483
0.0060916599 -0.031132897 0.1830028
0.011659655 -0.032624461 0.17694429
0.013755042 -0.033484261 0.17293027
0.035217531 0.017798875 0.16997558
0.035777763 0.022739347 0.17001075
0.035933349 0.026267905 0.16848081
0.015215572 -0.032946691 0.16923615
0.035117835 0.012810625 0.16625792
0.035175644 0.017344177 0.16561332
0.035500117 0.022122946 0.16466895
0.035719689 0.025712993 0.165407
0.033311434 0.0025486844 0.16036564
0.035044774 0.0069878399 0.1619831
0.035046089 0.012144612 0.16236287
0.0351636 0.016873386 0.16125488
0.022724137 -0.031498998 0.15736875
0.031323981 -0.0084609399 0.15745831
0.032366663 0.0019577425 0.15668467
0.033768229 0.0065659527 0.15853307
0.023116892 -0.031666785 0.15426484
0.026504401 -0.030597869 0.15470141
0.031126834 -0.013880701 0.15352392
0.027568666 -0.028509321 0.15018806
0.030505203 -0.019164724 0.14958471
0.028254349 -0.026695378 0.14610833
0.013691728 0.023597969 0.19626668
0.011449779 0.014078027 0.19209707
0.013329626 0.01801906 0.19251209
0.01504464 0.022050286 0.19373152
0.017843751 0.024283739 0.19463056
-0.0026235189 -0.029037593 0.1905517
-0.00071633607 -0.026295757 0.19177026
0.00070488499 -0.021669056 0.19313475
0.0030095903 -0.016367607 0.19264954
0.0050211507 -0.011586187 0.19091788
0.0063618184 -0.007034027 0.19041803
0.0096719647 0.0019239848 0.1916399
0.011893478 0.0065761753 0.19204834
0.014010112 0.011110199 0.19164559
0.016246758 0.016710551 0.19167572
0.017304169 0.020610958 0.19092417
0.019582063 0.02428266 0.19190094
-0.00085543841 -0.031074788 0.18811351
0.0018249135 -0.028480884 0.19036925
0.0017334996 -0.032738108 0.18497732
0.0037053889 -0.032996267 0.17939657
0.0052379947 -0.03107401 0.17879817
0.0051111411 -0.033690412 0.17423978
0.0063465321 -0.031680599 0.17587429
0.0087345159 -0.035062488 0.17026561
0.03465952 0.028808961 0.165775
0.0088115493 -0.035711668 0.16721627
0.011853286 -0.034295347 0.16765261
0.036127299 0.023721356 0.16247576
0.035401639 0.027192678 0.1633015
0.033417173 0.012737665 0.15840906
0.034378316 0.017904328 0.15795365
0.035267472 0.022280717 0.15862471
0.036652904 0.025112703 0.15863141
0.03257753 0.0018008118 0.15497401
0.032934826 0.0079171546 0.15521619
0.031961404 0.01284379 0.15514988
0.033003356 0.017135201 0.15499774
0.021181744 -0.032905508 0.1521236
0.031335533 -0.0040660137 0.15128914
0.0313983 0.0020621335 0.15108198
0.031892344 0.0071339263 0.15157509
0.022097882 -0.032159403 0.14826298
0.024976321 -0.030439071 0.1470899
0.030103693 -0.013229618 0.14638799
0.030388799 -0.0035798247 0.14749324
0.023288563 -0.032224085 0.14403367
0.026404403 -0.028649539 0.14363366
0.028645672 -0.018452609 0.14387441
0.026507998 -0.0263821 0.13919055
0.008198713 0.02075725 0.1941103
-0.010420169 -0.031921707 0.19265905
-0.0094763394 -0.028337101 0.19294751
-0.0074615409 -0.023697698 0.19204828
-0.0058675064 -0.019202668 0.19170201
-0.0033007513 -0.014212446 0.19174522
-0.0018512892 -0.0083729252 0.19142461
-0.00078208506 -0.0042583914 0.19205555
0.0039413427 0.0043216115 0.19160175
0.005836105 0.0086938022 0.19145006
0.0069034006 0.013062594 0.19104037
0.0091578597 0.018543966 0.19244367
-0.0084001813 -0.032832548 0.19029105
-0.005521623 -0.029807638 0.19126564
-0.0040083649 -0.024996277 0.1924049
0.001415543 -0.010117793 0.19133759
0.0030308366 -0.0056480691 0.19100928
-0.006320206 -0.034496181 0.18654269
-0.0035742549 -0.032230329 0.18812564
-0.0046763644 -0.035311438 0.18248057
-0.00049057044 -0.033795737 0.18191165
-0.0028624665 -0.036036842 0.17747203
0.0004098909 -0.034335542 0.17884302
-0.0018808106 -0.036328755 0.17436406
0.0022953888 -0.034966275 0.17354885
0.0032649916 -0.035234179 0.16855201
0.0067628454 -0.034909088 0.1632762
0.031139515 0.013878258 0.15179628
0.031986993 0.018603381 0.15152082
0.032442383 0.023384977 0.15189174
0.030818099 0.0031620385 0.14829406
0.031303879 0.0079251118 0.14837137
0.030102655 0.013436154 0.1481598
0.031159976 0.016885431 0.14826399
0.019791339 -0.033657093 0.14482987
0.029160725 -0.0028556101 0.14410412
0.02956295 0.0016069915 0.14440697
0.030355753 0.006332201 0.14439973
0.030707724 0.009994233 0.14429399
0.020941786 -0.032602306 0.14140168
0.023688231 -0.03031408 0.1405203
0.027245365 -0.018476583 0.14061543
0.028397417 -0.0080035096 0.14033607
0.020722393 -0.031071654 0.1369572
0.02423393 -0.028149657 0.13732806
0.025606118 -0.017552111 0.1372245
-0.0080507845 -0.0043994687 0.19494641
-0.0067637488 -0.0019215366 0.1956324
0.0015243045 0.021870248 0.192139
0.0036522564 0.023581602 0.19280925
-0.011989797 -0.030443663 0.19327503
-0.012082495 -0.025855267 0.19324049
-0.011676074 -0.022530911 0.19180009
-0.010880641 -0.01903137 0.19082752
-0.0080703311 -0.012796185 0.19113284
-0.0055351923 -0.0080385143 0.19240347
-0.0034957323 -0.002429815 0.1935924
-0.0010530909 0.0059845466 0.19173354
0.00053435541 0.010916451 0.19080368
0.0015744814 0.015692206 0.19083214
0.004048713 0.018724108 0.19183511
-0.0089650173 -0.035651863 0.18331021
-0.0059088659 -0.035287909 0.18023479
-0.0051727155 -0.03571523 0.17795834
-0.0016542207 -0.035690449 0.17243746
0.00052166916 -0.035100829 0.16787198
0.0037330547 -0.034137506 0.15747273
0.0058315145 -0.030963793 0.15700823
0.0070993956 -0.030085292 0.1513083
0.0079667242 -0.028692733 0.15142304
0.031383637 0.023769267 0.14828661
0.029760722 0.014272084 0.14512584
0.030196691 0.019178752 0.14485124
0.031147204 0.023992978 0.14448956
0.028660502 0.0038154274 0.14103755
0.029688258 0.0072841337 0.14111763
0.029135507 0.012320024 0.14103711
0.029335454 0.016617324 0.14148512
0.027773529 0.002081071 0.13770562
0.02837785 0.006853858 0.13754588
0.028578334 0.010678185 0.13700715
0.017918006 -0.032108724 0.13485396
0.021281743 -0.029692445 0.1349628
0.024171406 -0.016802967 0.13364494
0.026659425 -0.0077821929 0.13387942
0.017751208 -0.030265585 0.13095486
0.020635508 -0.027722891 0.13062799
0.022210026 -0.023214543 0.13042751
-0.013327166 -0.0044875601 0.19684279
-0.011574527 -0.00028591044 0.19665745
-0.0078136101 0.014624414 0.19472107
-0.0052792192 0.02227591 0.19404176
-0.017915398 -0.019196102 0.19318867
-0.015391324 -0.010206351 0.193546
-0.012140102 -0.0059084068 0.19430858
-0.0091273133 0.0043071527 0.19376275
-0.0069195218 0.0088880546 0.19204399
-0.0056635686 0.013613868 0.19239151
-0.0039594513 0.018113773 0.19187069
-0.0014753933 0.022082586 0.19289374
-0.01648248 -0.02883303 0.19230768
-0.015994098 -0.025954224 0.19319761
-0.015038848 -0.020460688 0.19197032
-0.013574317 -0.016057603 0.1906974
-0.011529976 -0.012180944 0.19163761
-0.0095397718 -0.0082602315 0.19239727
-0.0032346777 0.0081853764 0.19138387
-0.0018139994 0.011927485 0.19114587
-0.00010918686 0.016418012 0.19086027
0.00047849771 -0.035103504 0.15454879
0.001593166 -0.033575319 0.15141636
0.0045477618 -0.030827092 0.15133154
0.00057932176 -0.038168628 0.14782077
0.0025565075 -0.033745416 0.1477195
0.005270577 -0.031925049 0.14607689
0.029652556 0.022623859 0.14182281
0.0058308225 -0.030117225 0.14285326
0.02788729 0.013632181 0.13762599
0.028165244 0.018155646 0.13782725
0.028895346 0.023198618 0.13752064
0.030264854 0.025721613 0.1364547
0.012651908 -0.031443674 0.13585609
0.027012449 0.0033975309 0.13435066
0.027541462 0.0078788595 0.13410503
0.027441559 0.012821184 0.13371941
0.027037438 0.017409723 0.13403147
0.012133789 -0.033896953 0.13199741
0.0140226 -0.032027461 0.13495418
0.025496623 -0.0074312175 0.13085836
0.026340835 0.0026536305 0.13026872
0.026570363 0.0074561201 0.13012645
0.015575847 -0.03155186 0.12776649
0.019538494 -0.028567523 0.12768459
0.022312095 -0.01648687 0.12745804
0.024599925 -0.0072151748 0.12730092
0.017359635 -0.031071678 0.12444741
0.01965864 -0.027979504 0.12367171
0.020624146 -0.023409754 0.123128
0.019121129 -0.028010264 0.11940807
-0.019538987 -0.013642963 0.19600213
-0.013856662 0.0066564712 0.19477722
-0.010481285 0.015733341 0.19416428
-0.0092935571 0.020110965 0.19326708
-0.018189039 -0.014336014 0.19316295
-0.010998623 0.010604221 0.19224972
-0.0066260514 0.019276848 0.19226235
-0.0018466692 -0.034777414 0.14883798
-0.00053804833 -0.034766387 0.14397165
0.00065716542 -0.034799881 0.13940674
0.0041296612 -0.031636488 0.13976917
0.0012104679 -0.035734676 0.13585129
0.0054289522 -0.032009024 0.1350143
0.025881737 0.019167023 0.13132465
0.02676535 0.023630489 0.1310221
0.028289394 0.026510991 0.1320824
0.005825337 -0.036177479 0.12909135
0.0063416399 -0.033819549 0.13105327
0.024705116 0.0084863491 0.12648755
0.025636647 0.013431841 0.12818319
0.024516134 0.018355532 0.12827379
0.0059329458 -0.038039371 0.12776411
0.01052457 -0.033400577 0.12583739
0.021985158 -0.0063387793 0.12242186
0.02250823 0.0031651515 0.12377268
0.024173841 0.0095422342 0.12484992
0.024221048 0.012146717 0.1240868
0.011924013 -0.03371387 0.12241006
0.014388582 -0.031625025 0.12099445
0.01980284 -0.021307904 0.11973637
0.019943651 -0.011294511 0.12017423
0.021197738 -0.0025684466 0.12075686
0.0149599 -0.030891191 0.11660033
0.017642468 -0.027616117 0.11609733
0.01864199 -0.023015801 0.11581028
-0.0016791653 -0.036237713 0.13812101
0.0012947684 -0.034888983 0.13330436
0.0032462506 -0.035989977 0.13035023
0.023925718 0.015843913 0.12474018
0.023801241 0.019711541 0.1248914
0.025315549 0.024120007 0.12507159
0.0044511231 -0.036396235 0.12435222
0.0064477148 -0.034528673 0.12456214
0.020761445 0.0051149777 0.12058407
0.021370577 0.0092854016 0.12068367
0.022998232 0.014375439 0.12164521
0.023155835 0.017864622 0.12166947
0.0075992281 -0.03425118 0.11978531
0.020221451 -0.0058368891 0.11718667
0.019681823 0.0041367961 0.1177215
0.0086685028 -0.03291171 0.1151064
0.012570817 -0.031647861 0.1146794
0.018355139 -0.021096475 0.11279386
0.019261658 -0.011641995 0.11418205
0.013375307 -0.030386765 0.10977286
0.016086102 -0.027335275 0.11027336
0.017780263 -0.022770466 0.10995734
0.019555259 -0.014011825 0.10977006
0.015585855 -0.026924845 0.10631967
0.017391052 -0.022790687 0.10671383
0.019598423 -0.014935754 0.10569865
0.020150568 0.011049274 0.11788177
0.020499324 0.015776075 0.11715239
0.020907929 0.020531792 0.1177758
0.021614242 0.024691982 0.1176191
0.0046017114 -0.034800511 0.11603504
0.019079767 0.0015875744 0.11415023
0.018526003 0.0056280922 0.11396331
0.018749893 0.010384412 0.11345834
0.019679029 0.014387415 0.11390352
0.005077336 -0.033976998 0.1134308
0.017720841 -0.0009668814 0.11007249
0.017788298 0.0037091174 0.1089949
0.0085086357 -0.030691888 0.10732132
0.017757986 -0.007083863 0.10600603
0.018635023 0.0014376505 0.10591674
0.012239319 -0.029729938 0.10347027
0.014144442 -0.02734929 0.10278445
0.016206302 -0.022527277 0.10283285
0.017813595 -0.012919679 0.10186183
0.014368973 -0.02735205 0.098101139
0.016131688 -0.022768775 0.097824693
0.017423632 -0.018235028 0.097823501
0.015545459 -0.026253097 0.094502509
0.016126927 -0.024721432 0.094405055
0.019932915 0.021765236 0.11445826
0.020294584 0.025176089 0.11364418
0.018891525 0.015114255 0.1110428
0.018837439 0.020371232 0.11168796
0.018838292 0.025746349 0.1105358
0.0022946633 -0.032614425 0.10885674
0.01793764 0.0053734789 0.10757118
0.018212037 0.0088382661 0.1076743
0.017843017 0.013989247 0.10670167
0.0020247987 -0.03097105 0.10514498
0.0060330909 -0.03077339 0.10470384
0.018190762 0.0032976521 0.10302955
0.017214645 0.0091303512 0.10391593
0.0082234377 -0.030083295 0.10089821
0.017572124 -0.0073128049 0.099344194
0.018689448 0.0017327406 0.099147081
0.010927804 -0.029627554 0.096503437
0.017201252 -0.012466807 0.094669402
0.017472021 -0.0039074835 0.094723046
0.010226476 -0.029620651 0.091962874
0.014175395 -0.027856303 0.091799676
0.01619686 -0.022911109 0.091583908
0.016757555 -0.018080093 0.090658665
0.014886504 -0.027144928 0.086606145
0.015963875 -0.023841474 0.086156905
0.016299762 -0.019872805 0.086848438
0.015993204 -0.02708232 0.082851171
0.017248716 0.020995589 0.10896957
0.017888654 0.02520144 0.10808504
0.018470954 0.029161461 0.10790825
-0.0019543609 -0.034604095 0.10770619
0.01789543 0.016064892 0.10488385
0.01644209 0.020315284 0.10463035
0.017743452 0.025146671 0.10397726
0.018829331 0.029179664 0.10343176
-0.0030102693 -0.034446269 0.10393482
-0.00066384021 -0.032322876 0.10350984
0.016868167 0.0095318174 0.10100526
0.017409731 0.014344678 0.10106581
0.016641295 0.018885097 0.10048956
-0.0021087509 -0.035062335 0.099649966
0.00050653704 -0.032148436 0.099652469
0.0043594921 -0.030445369 0.099446714
0.017558511 0.0046963277 0.097622812
0.017660938 0.0086748675 0.096939385
0.018292293 0.013772256 0.095746815
0.0057225022 -0.030537292 0.0949049
0.017425572 -0.001820989 0.092804193
0.018220112 0.0028823968 0.093057752
0.018387666 0.0081547033 0.091487706
0.01979647 0.012727132 0.091231883
0.0077708149 -0.030524191 0.090581536
0.016858732 -0.0074741119 0.089342952
0.018768473 0.0024214694 0.087454677
0.019721232 0.0074646235 0.088526189
0.020714939 0.011528039 0.087895036
0.0093308603 -0.030540872 0.085512996
0.012571442 -0.028571911 0.085062265
0.015979463 -0.021614555 0.085149229
0.016387854 -0.017863195 0.085026503
0.017588254 -0.0080283396 0.083881915
0.019464077 0.0002030544 0.084551334
0.010799367 -0.031399697 0.080645204
0.013942352 -0.02873417 0.081277788
0.016395222 -0.023510195 0.08137089
0.017069768 -0.018710535 0.080851436
0.018792918 -0.008717793 0.079802513
0.01502791 -0.028836295 0.076578975
0.017399348 -0.024414025 0.076786101
0.018114299 -0.019402027 0.075629294
0.014520089 -0.033187341 0.071872652
0.016732574 -0.029773235 0.071894407
0.018394141 -0.025096789 0.07151562
0.019438285 -0.020684049 0.071081221
0.018260509 -0.029902641 0.067635119
0.019808948 -0.025874054 0.067600429
0.020335009 -0.022492152 0.067879856
-0.0046837805 -0.035702217 0.10221422
0.016829994 0.020537628 0.098067164
0.017929647 0.024892174 0.098103106
0.019115509 0.029282274 0.097507477
-0.0037712501 -0.034643035 0.096375287
-0.0016936129 -0.032368455 0.095508099
0.01794393 0.019299094 0.093766689
0.018642668 0.024410881 0.092613399
0.020381059 0.029086674 0.092292547
0.00086827483 -0.032192048 0.092570543
0.01999901 0.014581136 0.088476717
0.01799126 0.018505465 0.088598371
0.018235832 0.022656934 0.088807285
0.021168988 0.029542878 0.088583291
0.0022489754 -0.03285275 0.087566853
0.00505907 -0.031408627 0.087992489
0.019008601 0.0076386235 0.084911048
0.019186765 0.01297003 0.083996475
0.018318843 0.017011562 0.084506214
0.0047239391 -0.033352841 0.083250582
0.0063036345 -0.032134145 0.083943903
0.019234827 0.00220474 0.081429839
0.019169962 0.0071681077 0.080285013
0.018850584 0.011178565 0.080569685
0.0060069663 -0.034155589 0.078206658
0.0080509167 -0.033090774 0.079283535
0.019107759 -0.0035573251 0.077296138
0.019035913 0.001324547 0.07593888
0.018884035 0.0055484273 0.076224148
0.011093312 -0.032253355 0.074638724
0.018639689 -0.0089864759 0.07254523
0.019316159 -0.00024298998 0.072206557
0.011750461 -0.034668036 0.069456935
0.018726898 -0.014632924 0.068251669
0.015015515 -0.03416919 0.066595733
0.01701358 -0.031153746 0.065281332
0.019805331 -0.026038539 0.064528763
0.020387553 -0.02064733 0.064950943
0.020782487 -0.012143055 0.062625468
0.015083548 -0.033304051 0.06147331
0.018082693 -0.030314326 0.061243594
0.021011524 -0.026687544 0.061448336
0.021426162 -0.021546097 0.059998214
0.018230967 -0.029461376 0.056160629
0.021594327 -0.027228549 0.055767417
0.023070741 -0.027003706 0.050884426
-0.0050374735 -0.034354985 0.093393028
0.018858854 0.027881542 0.089614034
-0.0066216635 -0.033963129 0.090152681
-0.0041316478 -0.033091597 0.090518355
0.01772863 0.020066163 0.086213052
0.018270712 0.024779342 0.086922169
0.01946434 0.028132169 0.086518764
-0.0031958856 -0.033313636 0.085555792
0.018384565 0.015044178 0.081062615
0.017436717 0.019769495 0.082332015
0.018145813 0.02410789 0.082365096
0.019765588 0.028801972 0.082387149
-0.00076919235 -0.03422993 0.081408083
0.019016128 0.0091649648 0.077204466
0.01901599 0.013229355 0.07877779
0.017677456 0.018308595 0.078142047
0.0014148243 -0.034254611 0.077117264
0.018646192 0.0037696217 0.07456857
0.019368596 0.0074627707 0.074689627
0.019435104 0.012526173 0.074321449
0.0039271405 -0.034297563 0.07264322
0.0054559987 -0.032524385 0.072087288
0.019460361 0.0020611072 0.070852518
0.020049751 0.0066442811 0.070444822
0.020617142 0.011608273 0.069464743
0.0064081233 -0.034915827 0.068338513
0.019078065 -0.0037749517 0.066699147
0.019745855 0.0011295723 0.065798938
0.020879889 0.0058622733 0.065288067
0.021005135 0.0097128898 0.065926731
0.0083684549 -0.035821479 0.065855801
0.019788923 -0.0099030519 0.063015521
0.021680582 0.00011693733 0.061235011
0.021191098 0.0039922548 0.061680734
0.012265592 -0.033984803 0.061755538
0.015551541 -0.031003878 0.057880461
0.021967215 -0.010788392 0.058567524
0.023671465 -0.00091759441 0.056715548
0.015800986 -0.030415211 0.054172456
0.022504145 -0.01660699 0.054294169
0.02445142 -0.0068633053 0.05298692
0.017777391 -0.030094903 0.049702823
0.021017598 -0.028539907 0.049461603
0.024168616 -0.0177489 0.050186396
0.026313148 -0.0078496914 0.048355997
0.018293019 -0.030064169 0.045828998
0.022342727 -0.028339814 0.045536935
0.02611379 -0.018769028 0.045638621
0.028094087 -0.0090171024 0.043988168
0.024508037 -0.028633792 0.041808307
0.027918478 -0.019737678 0.040961981
0.029750748 -0.010608536 0.039137423
0.026691884 -0.029177856 0.037389338
0.029643284 -0.020677542 0.036208332
0.028180284 -0.02976919 0.032429874
0.031098267 -0.02172929 0.031545401
0.029252557 -0.030013047 0.02743572
0.031575564 -0.023123108 0.027127504
0.018033521 0.026137128 0.079309881
0.018628253 0.027703775 0.079210222
0.017537445 0.020117028 0.075382471
0.01829789 0.024083313 0.076003909
0.019484706 0.027962504 0.07597667
0.018410031 0.018386623 0.071690738
0.019831583 0.023247449 0.071086347
0.021423765 0.026212864 0.071222842
0.02040118 0.013653881 0.066284597
0.019352581 0.017793929 0.066269755
0.020631682 0.022480618 0.066219449
0.022752464 0.025497016 0.067161858
0.020439524 0.0079846298 0.061906278
0.020676836 0.011803631 0.062637329
0.021254925 0.0059101074 0.058714569
0.021466538 0.010536328 0.057874084
0.022822624 0.0048295669 0.054144561
0.023188053 0.0092120599 0.052921414
0.023901399 0.0039442843 0.049140871
0.023724765 0.0088454299 0.049193203
0.013720541 -0.030882034 0.047489941
0.025861975 0.002231163 0.044530034
0.016923508 -0.030796781 0.04249537
0.027990974 -0.0031592217 0.041330457
0.027569437 0.0013089227 0.039719641
0.018218715 -0.030448999 0.038427711
0.020509275 -0.029584095 0.03772223
0.029142179 -0.004079917 0.036372662
0.028783115 0.00062347576 0.035516679
0.022656204 -0.030030383 0.034159362
0.029586572 -0.010135469 0.032681823
0.023815194 -0.030617656 0.029665947
0.030263767 -0.015849071 0.028515041
0.029884931 -0.0065223402 0.029200435
0.02719444 -0.030530319 0.024925172
0.030734941 -0.021358995 0.023954093
0.027843863 -0.030690722 0.021158099
0.030122947 -0.022275915 0.019896865
0.018495888 0.017986618 0.060342193
0.019732762 0.022987535 0.0606094
0.020622395 0.026564503 0.05934602
0.019979056 0.013476637 0.055512667
0.01921903 0.017516669 0.055727184
0.020582208 0.021524305 0.055359244
0.021908417 0.025550149 0.054958344
0.022985922 0.02876484 0.054651201
0.021302907 0.012788491 0.052459598
0.021154195 0.016505875 0.051092625
0.022564717 0.020494942 0.050763488
0.023661826 0.024621554 0.050161183
0.023944095 0.028185561 0.049157739
0.023424622 0.010577845 0.047529101
0.023291549 0.015410648 0.04663074
0.024483595 0.019492485 0.046108305
0.025984118 0.023446046 0.04585737
0.026085921 0.027088044 0.044686437
0.008174398 -0.031688362 0.043107688
0.023943616 0.0058018663 0.044005513
0.025019014 0.0090055484 0.043697357
0.025113884 0.013933539 0.042373121
0.025658807 0.018108752 0.040762067
0.027283639 0.022711778 0.040645897
0.027872548 0.02617267 0.040961623
0.0098852189 -0.03263941 0.038268864
0.012139308 -0.031499494 0.041713953
0.026051641 0.0047190059 0.039532244
0.026879279 0.0080246618 0.039000928
0.026070509 0.012927335 0.036686599
0.027341913 0.016983332 0.036227822
0.028615274 0.020869127 0.036260068
0.010584082 -0.033000059 0.036766708
0.013870504 -0.031594858 0.036065757
0.028159933 0.0036360156 0.035058379
0.028674014 0.007070452 0.034240782
0.027969904 0.011930645 0.031998456
0.029456973 0.015897043 0.031732023
0.030960275 0.019856695 0.031480253
0.016738642 -0.03094808 0.032092512
0.029799018 0.00092449132 0.030801713
0.030331161 0.0061712759 0.029348552
0.030095749 0.010839717 0.027512133
0.031160578 0.014393409 0.027790725
0.032444652 0.018150099 0.027804136
0.036903642 0.025352012 0.025418282
0.018777134 -0.031233598 0.028356135
0.030151926 -0.0046888841 0.026318491
0.031360079 5.9993938e-05 0.025825441
0.031719483 0.005162173 0.024549425
0.022304663 -0.031083271 0.023454249
0.030415475 -0.010699127 0.022448599
0.032363553 -0.00058187451 0.020320475
0.03261847 0.003038682 0.021392167
0.024291208 -0.031570524 0.017935455
0.030080967 -0.016271072 0.017672777
0.032109361 -0.0064042821 0.015957892
0.026598508 -0.031256299 0.014099896
0.030122655 -0.021991286 0.013241708
0.031311683 -0.012411124 0.012866557
0.02769158 -0.030851211 0.0085169673
0.030738544 -0.023591297 0.0081805587
0.024319725 0.02986869 0.048859894
0.026199441 0.028886477 0.0441553
0.0040568952 -0.031301443 0.043142498
0.027662519 0.026183655 0.037578881
0.0054104831 -0.032670557 0.039237559
0.029205976 0.023078032 0.034964621
0.027952306 0.025975991 0.034633934
0.010358409 -0.033047874 0.034453213
0.010284824 -0.031232648 0.033759356
0.031573962 0.022357523 0.031066418
0.031426508 0.025077065 0.030617893
0.0093503864 -0.032831449 0.031444967
0.013108724 -0.032115802 0.029723227
0.03218805 0.01573367 0.025934398
0.033351999 0.020187367 0.026692629
0.034722924 0.023590997 0.02653718
0.031232603 0.0096228672 0.022738636
0.031303085 0.014764084 0.021608114
0.032188468 0.019971818 0.022068322
0.033263989 0.023194958 0.02120477
0.031686202 0.0045851246 0.018651128
0.030916644 0.0092432303 0.018192351
0.031089541 0.013832526 0.018500328
0.031511802 0.0034762686 0.013531148
0.031270742 0.0071013812 0.014496207
0.030663405 -0.010873116 0.010135114
0.031595986 -0.0022072289 0.0093490481
0.031562451 0.0012452556 0.010262907
0.02357835 -0.032052174 0.0067377687
0.00040390622 -0.03240088 0.041895509
0.0036866078 -0.032150693 0.03668505
0.031483307 0.020202011 0.018710911
0.032003753 0.025577249 0.018285275
0.030358613 0.010312085 0.014813542
0.030728243 0.015088971 0.014946282
0.031282861 0.019945182 0.014533341
0.031390209 0.025301721 0.01461637
0.030342046 0.0092676301 0.011146367
0.031149216 0.014502419 0.010616124
0.031469889 0.019505793 0.010158002
0.016817207 -0.031579547 0.0083222985
0.032231279 0.0029524677 0.0076895356
0.030977692 0.0090716295 0.0066581964
0.031560406 0.013448974 0.0066840053
0.031334251 0.02700313 0.012492836
0.031541899 0.02114342 0.0081465244
0.030844312 0.025620788 0.00772506
