# .PCD v0.7 - Point Cloud Data file format
VERSION 0.7
FIELDS x y z
SIZE 4 4 4
TYPE F F F
COUNT 1 1 1
WIDTH 1006
HEIGHT 1
VIEWPOINT 0 0 0 1 0 0 0
POINTS 1006
DATA ascii
0.028107177 0.030205514 0.19035491
0.022100678 0.036007181 0.18902445
0.02958904 0.031487562 0.18710005
0.022652796 0.037692048 0.18639383
0.027250431 0.036439613 0.18266088
0.031867068 0.034613091 0.17891586
0.026082328 0.021760834 0.19220006
0.018934008 0.028728515 0.1917125
0.013266123 0.033911623 0.19118524
0.029663162 0.024168057 0.19037592
0.021498976 0.031240216 0.19125444
0.014980317 0.036518916 0.18856055
0.032219678 0.025821587 0.18570724
0.017289609 0.0380213 0.18441039
0.0322529 0.03050982 0.18073389
0.033396605 0.028376093 0.17709476
0.02786918 0.036990605 0.17619824
0.033357412 0.028964123 0.1733107
0.02819581 0.036048044 0.17203361
0.02765324 0.015948094 0.19183943
0.021603975 0.023414508 0.19168422
0.013604724 0.029692903 0.19164631
0.0096606398 0.032533582 0.19073895
0.0064268326 0.035230856 0.18897024
0.030897101 0.018207179 0.1891571
0.011777868 0.036551248 0.18705505
0.0079348888 0.037097923 0.18636861
0.032655496 0.019339889 0.18365949
0.014135433 0.037730813 0.18195549
0.010096019 0.03773728 0.18168464
0.01574382 0.0377938 0.17765245
0.011487142 0.037962914 0.17749149
0.033221267 0.025084095 0.17475411
0.016500646 0.037277043 0.17413771
0.031681549 0.031853136 0.16971499
0.022705993 0.03609594 0.16978687
0.031264894 0.031439245 0.16508254
0.031442609 0.03283504 0.16117316
0.019115156 0.0135339 0.19102225
0.012002833 0.020767521 0.19156903
0.008518992 0.02498143 0.19166282
0.0046978174 0.027733423 0.19100672
0.0010505971 0.030628828 0.18957835
0.029569771 0.0061985748 0.18834239
0.028775703 0.0092966417 0.19076145
0.022021599 0.016528353 0.19177532
0.015730994 0.022258909 0.19118178
0.0066779805 0.031802427 0.19085678
0.0035806624 0.033479314 0.18937156
-0.00056637824 0.035427552 0.18713948
-0.0031843744 0.037169822 0.1857149
0.031527586 0.0080084298 0.18544284
0.032346848 0.011231308 0.18716991
0.0015944708 0.037069194 0.18358427
-0.0021606907 0.038063567 0.18382341
0.032244917 0.0085124327 0.18233019
0.033211984 0.013177028 0.18139699
0.0072371615 0.037744567 0.17992714
0.0031421017 0.037010692 0.17903185
0.032661904 0.017430129 0.17621779
0.0087603927 0.037629124 0.17465138
0.032712273 0.018762933 0.17195183
0.015007893 0.037057288 0.17094558
0.010338586 0.037559453 0.16939715
0.032234561 0.023032431 0.16738176
0.01555059 0.036421698 0.16618264
0.011676914 0.037628576 0.16638437
0.032085765 0.024829507 0.16347015
0.016754201 0.035861246 0.1625585
0.031553153 0.03032651 0.15869817
0.022827946 0.035606805 0.15852037
0.027506884 0.034104727 0.15265495
0.027415384 0.00066933688 0.18965045
0.024602698 0.0046134125 0.19086158
0.021372728 0.0087212184 0.19121233
0.013040396 0.014419961 0.19169623
0.004814269 0.020744676 0.19201416
0.0012101652 0.024383593 0.19168738
-0.0015656948 0.02818126 0.19102609
-0.0044149291 0.031524539 0.18871167
-0.0081450911 0.034271587 0.18752033
-0.010789593 0.036462672 0.18645015
-0.018345365 0.042256624 0.18712744
-0.019686531 0.043162663 0.18778867
0.030915778 -0.0015031798 0.18764561
0.029870138 0.0024236208 0.18803117
-0.0063716844 0.036899574 0.18528658
-0.010379385 0.038287763 0.18398148
0.030933313 0.0038470253 0.18343186
-0.00031204894 0.037554353 0.18082422
-0.0043328926 0.038046073 0.18095797
-0.0081295362 0.038738262 0.18036917
0.031941079 0.0056925165 0.17915881
0.031614542 0.007589614 0.17888182
0.00065855868 0.037471525 0.17721009
-0.0029241238 0.037913933 0.17641893
0.031311307 0.0085362615 0.17575344
0.0070906198 0.037773687 0.17159739
0.002218429 0.037219811 0.17292017
0.032367829 0.01312084 0.17033726
0.0076834355 0.038199306 0.16837117
0.0044053569 0.037639916 0.16800541
0.032379806 0.017260753 0.16546458
0.013159097 0.03678121 0.16396117
0.0096971076 0.038024165 0.16348565
0.0055826046 0.038142979 0.1635952
0.032132957 0.022467187 0.16057646
0.014929132 0.036396287 0.15978545
0.010849682 0.037239116 0.15959451
0.031798676 0.023652583 0.15682957
0.016534928 0.036163636 0.1554864
0.030939138 0.029085813 0.15136331
0.021771012 0.036051851 0.1510601
0.027766395 0.034112256 0.14694694
0.028284989 0.033018358 0.14338517
0.025333224 -0.0081257615 0.19248539
0.022250267 -0.0055993963 0.19300097
0.018385014 -0.0016670451 0.19280142
0.01445472 0.0021217195 0.19159672
0.012164552 0.0042791259 0.19140968
0.0062319939 0.014004057 0.19257486
0.0017550709 0.016547114 0.19215345
-0.0033023534 0.020436902 0.19151407
-0.0065074312 0.023000337 0.1910705
-0.0092266221 0.025136551 0.18994427
-0.017974308 0.032533348 0.18935233
-0.020465918 0.035839148 0.19038296
0.030087788 -0.0096305525 0.18993193
0.028056081 -0.0065494729 0.19069576
0.025447229 -0.0024024285 0.1911633
0.021155026 0.0010991842 0.19151106
0.017155811 0.0048534409 0.1911791
0.011115327 0.01107111 0.19181132
-0.0090173492 0.027883291 0.18857172
-0.01235196 0.031053528 0.18773547
-0.015013114 0.035476167 0.18759716
-0.018254105 0.039543573 0.18831289
0.031999782 -0.0082260929 0.18669274
0.031034654 -0.00420768 0.18659455
0.028307837 -0.0018527647 0.18904024
-0.013588453 0.038404599 0.1841034
-0.01698566 0.040725544 0.18269929
-0.019117482 0.043573529 0.18363655
0.032527678 -0.0071179336 0.18240875
0.031846981 -0.0033775428 0.18086147
0.031131644 0.00054778252 0.18215424
-0.0067561744 0.037794039 0.17786366
-0.011187114 0.038544632 0.17765713
-0.017601611 0.039517127 0.17899698
0.03235022 -0.0018321108 0.17655692
0.031681404 0.0018768404 0.17742765
-0.0058399141 0.037985485 0.17422232
-0.0092342403 0.03853178 0.17328984
0.03173624 0.0029654512 0.1725795
0.031199232 0.0074372077 0.1727601
0.00012668222 0.037534054 0.1699574
-0.0041941851 0.037757743 0.16981488
-0.0082124919 0.03826252 0.16901976
0.031782579 0.0039192596 0.16842785
0.0311512 0.0074280035 0.16838983
0.00095980428 0.037309282 0.16617498
-0.003117539 0.037290286 0.16491839
0.031533543 0.0094603375 0.16385725
0.0019921158 0.037157081 0.16138649
-0.0016757119 0.037660688 0.16166967
0.031230483 0.01132578 0.15889955
0.0089642834 0.037475221 0.15688065
0.0046502296 0.036971554 0.15699705
0.03095784 0.020800427 0.15360633
0.013638938 0.036184281 0.1531809
0.0099145332 0.037457515 0.15233693
0.015383331 0.036025457 0.14881328
0.011041481 0.03770354 0.1476244
0.029087054 0.026139477 0.14470124
0.016165048 0.036267146 0.14388067
0.01257371 0.03746143 0.14423755
0.02689968 0.031977527 0.13963556
0.018207802 0.037002295 0.13972282
0.020712808 0.036199346 0.13646242
-0.019426476 0.0238626 0.19629031
0.026536547 -0.019082032 0.19789028
0.020279102 -0.012167771 0.19410175
0.018357916 -0.0095702969 0.19425464
0.01421476 -0.0059038219 0.19382322
-0.0090993857 0.016609449 0.19213569
-0.011556271 0.018621936 0.19181624
-0.01557801 0.021885538 0.19174132
-0.018809026 0.02485651 0.19282776
-0.020730451 0.02924639 0.1931572
-0.021767501 0.032876313 0.19280535
0.037396528 -0.021845691 0.19253093
0.034671038 -0.020750105 0.19417557
0.029843239 -0.01840231 0.19198769
0.026890783 -0.014267379 0.19236252
0.024164734 -0.010772152 0.19326377
0.020291314 -0.007562038 0.19408435
0.016441317 -0.0035941992 0.19390464
0.01235377 4.3978915e-05 0.19256926
0.0088107651 0.0034221883 0.19160816
0.0021078731 0.0098653715 0.19180074
-0.0020433078 0.012970553 0.19160154
-0.0053521646 0.016159713 0.19120613
-0.0096976943 0.020928903 0.19127163
-0.012825044 0.024157403 0.18998042
-0.015789863 0.027584743 0.18976003
-0.018948361 0.03070084 0.1906589
-0.022178739 0.034595873 0.1914652
0.031614669 -0.016071247 0.1881946
0.030278709 -0.012568857 0.18966538
0.032921225 -0.0133543 0.18558544
0.032314137 -0.011176986 0.18480226
0.032751787 -0.0097080814 0.17948675
-0.017180666 0.039012652 0.17597532
-0.020349734 0.041535858 0.17606491
0.033705264 -0.0074545201 0.1748395
0.033364531 -0.0039667673 0.17530689
-0.01281268 0.038359568 0.17150563
-0.016798373 0.038235944 0.17110386
-0.021470644 0.041120939 0.17226398
0.033735134 -0.0068321247 0.17100596
0.032654122 -0.0031200545 0.17042619
0.032622665 0.001128532 0.17012703
-0.010814643 0.038523246 0.16667169
0.032216769 -0.0018714592 0.16676804
0.031942762 0.0015734229 0.16561997
-0.0057996921 0.037607666 0.1629
-0.0086748246 0.038147949 0.1626659
0.03215275 0.0036413027 0.16198781
0.031479336 0.0071962941 0.16095915
-0.00043119676 0.036526434 0.15803128
-0.00401094 0.037506975 0.1585702
-0.0079311654 0.038167566 0.15880781
0.031629439 0.0036631515 0.15758854
0.031301513 0.007485725 0.15722841
0.0014892165 0.036664218 0.15474132
-0.0021862909 0.037434291 0.15425703
0.030608628 0.010468784 0.15291619
0.0032661706 0.037534591 0.14994755
-0.00089357048 0.037980691 0.15088937
0.028468886 0.01777059 0.14621526
0.0092560146 0.038718902 0.14595509
0.005904967 0.038221434 0.145432
0.014776693 0.037269354 0.14148599
0.01049406 0.037513729 0.14128006
0.0063578058 0.037928164 0.14124113
0.02444578 0.026532266 0.13577551
0.015115051 0.036841221 0.13716534
0.012584993 0.037154946 0.13742325
0.023126241 0.03445394 0.133847
0.015190166 0.037220199 0.13210809
0.019707914 0.034859102 0.12952948
0.021629866 -0.019729551 0.19727933
-0.01632842 0.014110654 0.19343537
-0.018773235 0.017315544 0.19450703
0.030011203 -0.022674531 0.19437003
0.027327839 -0.020382293 0.19479597
0.023387451 -0.018056631 0.19503671
0.019794205 -0.01576977 0.19400662
0.016372401 -0.014019933 0.19345599
0.011703316 -0.0078732632 0.19302312
0.0081956098 -0.0042005107 0.19269589
0.0042138603 -0.0014872121 0.19196269
0.0006013157 0.0016265668 0.19155443
-0.0028184559 0.0049465345 0.19131377
-0.0057717762 0.0087463316 0.19147265
-0.0092106853 0.012038317 0.19121239
-0.013534786 0.015637998 0.19221058
-0.016973879 0.018950313 0.19257167
0.032239459 -0.021966754 0.19123232
0.02918034 -0.01908356 0.19233748
0.02649574 -0.017236918 0.19307756
0.03586974 -0.024050666 0.18725073
0.033533905 -0.021908877 0.18703666
0.031537637 -0.018495547 0.18810779
0.037048165 -0.024269491 0.18399224
0.03372186 -0.021649234 0.18276677
0.031781469 -0.017597284 0.18239492
0.031173104 -0.016005887 0.17716768
0.033569839 -0.01081349 0.17392227
-0.01844687 0.038645323 0.16855621
-0.022374801 0.039929893 0.16852966
0.033475511 -0.0092868442 0.16827154
0.03324382 -0.0053286972 0.16765958
-0.01700091 0.038551856 0.16395694
-0.021903329 0.040153842 0.16415492
0.032919362 -0.0082827592 0.16434884
0.032187603 -0.0047883587 0.16337502
-0.011898472 0.037975822 0.16016701
-0.015693329 0.037992049 0.1591686
0.031863101 -0.0036176322 0.15955043
0.031529557 -0.00034662057 0.15908092
-0.0065004583 0.037214972 0.15532109
-0.010853182 0.037493613 0.15549549
0.030971089 0.0019736681 0.15461585
0.03102489 0.0050546657 0.1541152
-0.0054213796 0.037227161 0.15169403
-0.0088689346 0.037057504 0.15217721
0.031046007 0.0025420822 0.15110028
0.030588718 0.0062415581 0.15062511
-0.0029409193 0.037749581 0.14785236
0.029885083 0.0083431192 0.14663985
0.028318914 0.011698758 0.14583829
0.0020453278 0.037412889 0.14337087
-0.0011329595 0.037482001 0.14387834
0.026312303 0.01743798 0.14017206
0.0077933734 0.036955703 0.13770539
0.0035239868 0.036746737 0.13827285
0.024979107 0.022602491 0.13612604
0.009889097 0.036638834 0.13480869
0.0072255768 0.03621459 0.13321492
0.022725703 0.025691668 0.13158172
0.011877668 0.036121774 0.12983125
0.016932027 0.034449361 0.12567019
0.013651277 0.03650659 0.12514782
0.012225336 -0.020529192 0.1955491
0.010086589 -0.019452967 0.19631079
-0.013416639 0.0035364893 0.1924932
-0.015625851 0.0058550327 0.19240439
-0.019013975 0.0096148076 0.19396943
-0.020692453 0.012179632 0.19443977
0.015121074 -0.019494316 0.19372171
0.012677872 -0.016122533 0.19245523
0.0086151417 -0.012968406 0.19223106
0.0046234038 -0.0089826528 0.19292048
0.0007775093 -0.004912368 0.1927802
-0.0068625733 0.0014031238 0.19162822
-0.0096551757 0.0049549597 0.19194308
-0.012810323 0.0085722897 0.19193572
-0.015167879 0.011490397 0.19232193
0.035310861 -0.025401548 0.1799207
0.03293822 -0.023939867 0.17894286
0.031342901 -0.020329928 0.17920876
0.035456862 -0.025621474 0.17614958
0.033075128 -0.023593182 0.17492461
0.031642552 -0.019122832 0.17609909
0.032675441 -0.021972923 0.17164034
0.031857211 -0.017868925 0.17131668
0.032399893 -0.016603589 0.16658705
0.032566231 -0.013111667 0.16682881
-0.022948748 0.04021319 0.16179067
0.032491799 -0.010684262 0.16216099
-0.018162094 0.038579375 0.15736306
-0.021943234 0.039963879 0.15838709
0.031938113 -0.0099293645 0.15746376
0.031068914 -0.0068473732 0.15647793
-0.012631284 0.036809243 0.15209854
-0.016907366 0.037996888 0.15294892
-0.021214494 0.038721032 0.15440828
0.029697437 -0.0057146167 0.15247816
0.029693283 -0.0022620903 0.15209419
-0.011245403 0.036909293 0.14902025
0.029860251 -6.8836845e-05 0.14837715
0.030146971 0.0036138333 0.14730743
-0.0063456828 0.036978856 0.14482656
-0.0097474959 0.036507964 0.14433023
0.027946506 0.0078641549 0.1423642
-0.0048087277 0.036444996 0.14057174
0.026696045 0.010988294 0.13995054
0.00122381 0.03614527 0.13680249
-0.0022690836 0.036120079 0.13643074
0.023911962 0.019135481 0.13393891
0.0036482196 0.036311373 0.13293171
0.00020534918 0.036100619 0.13238969
0.022896124 0.019444598 0.1293982
0.0093234712 0.035756968 0.1273337
0.0057093101 0.03565285 0.1282807
0.019666465 0.023409551 0.12531364
0.009937739 0.036150262 0.12298721
0.00768416 0.036238417 0.12377423
0.016647033 0.033583663 0.11950094
0.013038791 0.036467738 0.11919987
0.0081933578 0.036529336 0.11930531
0.014149461 0.035400819 0.11511952
0.004793983 -0.017643208 0.19799793
-0.004131109 -0.014306452 0.19533902
-0.012535764 -0.0044054152 0.19633541
-0.016835082 -0.001462298 0.19537914
-0.019101089 0.0026121456 0.19518822
0.013062058 -0.022078449 0.1943967
0.0080915987 -0.018509964 0.19495368
0.0049081482 -0.016616795 0.19473249
0.00055626221 -0.013057102 0.19417131
-0.0026054592 -0.0090405587 0.19369343
-0.010623576 -0.0026905281 0.19319445
-0.013464127 0.0010202695 0.19359219
-0.017369188 0.0042278008 0.19378781
-0.019273927 0.0069044176 0.19489589
0.0097164344 -0.017217815 0.19230866
0.0075158682 -0.015225707 0.19271666
-0.0070520174 -0.0015027814 0.19152665
0.034864105 -0.026625829 0.1726276
0.0346407 -0.027191076 0.16944689
0.033439152 -0.023738548 0.16937393
0.032225214 -0.020410273 0.16830075
0.035545651 -0.026609423 0.16537738
0.033151612 -0.022745891 0.16443524
0.032711569 -0.01964318 0.16459155
0.033601724 -0.022024069 0.16067371
0.032289315 -0.018067284 0.16009817
0.031577371 -0.014007024 0.15995985
-0.025643438 0.039049678 0.15619069
0.036603231 -0.019054715 0.15769204
0.033399951 -0.017449562 0.15605137
0.031305596 -0.013556717 0.15594992
-0.02357999 0.038909473 0.1511789
-0.02618061 0.040548638 0.14893726
0.029424351 -0.0076422691 0.15148801
0.029244583 -0.0041366955 0.14912081
-0.013618057 0.036775559 0.14585847
-0.017915349 0.03719905 0.14709193
-0.022880301 0.039143927 0.14611709
-0.02577829 0.040853206 0.14639115
0.028090425 -0.0056069354 0.14595965
-0.012522985 0.036800161 0.14219451
-0.01751986 0.037688561 0.1421409
-0.021119948 0.039924271 0.14221314
-0.0096518286 0.036450058 0.13782158
-0.014324861 0.03741543 0.13753298
0.023505624 0.0073516853 0.13468763
-0.0041800067 0.035669096 0.13346168
-0.0083717266 0.036133181 0.1334472
-0.0026985798 0.036080569 0.12961718
-0.0062806951 0.036435332 0.1281898
0.0020822175 0.035424851 0.1262576
-0.0013237689 0.035936445 0.12498152
0.021659212 0.018435167 0.12268931
0.00350032 0.035456013 0.12116635
0.00021978468 0.035676517 0.12148386
0.01813088 0.026716147 0.11761045
0.0063725999 0.036342554 0.11676306
0.016488235 0.033098962 0.11296821
0.012493514 0.036272075 0.11352193
0.0076488825 0.036812838 0.11227018
0.016015336 0.032409117 0.10841769
0.01241732 0.035914999 0.10826427
0.0087842429 0.036635224 0.10885191
-0.010725788 -0.0095621878 0.1942417
-0.01651408 -0.0038415822 0.1957317
-0.0201874 -0.00068784971 0.19531554
-0.0093100043 -0.0093577625 0.1930804
0.033603765 -0.0287294 0.16545588
0.033084664 -0.026844066 0.16600171
0.032641973 -0.02651298 0.16211298
0.032999966 -0.023758847 0.15772274
0.032175362 -0.021504287 0.15733323
0.035872176 -0.02240946 0.15587515
0.030566599 -0.019074589 0.15086877
0.030531922 -0.015405418 0.15246028
0.028698511 -0.015900623 0.14892468
0.027662285 -0.012345868 0.14804685
-0.026518717 0.040094554 0.14279646
0.026771098 -0.010246583 0.14450702
0.026443463 -0.0076366113 0.14228359
-0.022342378 0.040570132 0.14027786
0.025707431 -0.0062497482 0.13994864
0.024424361 -0.0030962024 0.13748664
-0.017331235 0.037391029 0.13557258
-0.020157348 0.038459867 0.13623554
0.023337733 -0.00063381437 0.133508
0.022681665 0.0017562592 0.13297078
-0.010713889 0.035671312 0.13040328
-0.015193757 0.03705246 0.13165012
-0.019161806 0.03779012 0.1318996
0.022228748 0.0037682708 0.12975937
0.021491084 0.0080046291 0.12939715
-0.010707151 0.035787392 0.12714142
-0.013226695 0.036510721 0.12655753
0.022105172 0.0053455746 0.1265136
-0.0044344142 0.035730895 0.12198234
-0.0077849682 0.03569857 0.12235802
-0.0021396745 0.035156079 0.11801267
0.0172949 0.020107055 0.11469084
0.0021835025 0.035028204 0.11435473
-0.00016810745 0.034970615 0.11305839
0.016521595 0.02394199 0.10978311
0.0030329023 0.035621233 0.10916793
0.00050845556 0.035477534 0.10970873
0.015504399 0.029485589 0.10502362
0.0065000085 0.036161199 0.10537571
0.014517336 0.030938037 0.10178822
0.01185625 0.034788255 0.10167629
0.0076427665 0.036322378 0.10110563
0.012609283 0.03498926 0.096452475
0.030279977 -0.019779848 0.14654553
0.028568927 -0.017406166 0.14558095
0.032261822 -0.01802293 0.14249751
0.028137768 -0.01710541 0.14110789
0.026331745 -0.013375045 0.1409429
0.025925338 -0.012730423 0.13728812
0.024366312 -0.0079534864 0.13621965
-0.02217539 0.037222151 0.13204858
0.023643918 -0.0065634865 0.13355058
0.023304436 -0.0040945774 0.13205978
-0.017898321 0.036642965 0.12811369
-0.021400191 0.036729001 0.12830555
0.022905678 -0.0022811191 0.12794936
0.022438541 0.0011155615 0.12765187
-0.016537698 0.036701426 0.12492293
-0.02022521 0.036581561 0.12393326
0.021801274 0.0025556432 0.12438726
-0.011218216 0.035421465 0.12071311
-0.014739186 0.036239978 0.12052917
-0.0055124899 0.034486592 0.11589211
-0.0088713905 0.035436042 0.11653483
-0.013816803 0.035617512 0.1159761
-0.0041358192 0.03476166 0.11240494
-0.0076472238 0.035106737 0.11157787
-0.0022671912 0.034994639 0.10739714
0.016784672 0.023817409 0.10289651
0.0037774313 0.036066934 0.10283118
0.00011062808 0.035940945 0.10274637
0.016347645 0.025478633 0.099483788
0.0059253648 0.036257561 0.098617494
0.00098419748 0.036221273 0.098359764
0.01553536 0.030150728 0.095377564
0.011193126 0.036040679 0.093933642
0.0070998771 0.036364987 0.094560802
0.016175482 0.03165748 0.090470552
0.013114774 0.035490826 0.090711474
0.0089324499 0.036483139 0.08935219
0.013776367 0.035468012 0.086226165
0.028630326 -0.019762797 0.13988832
0.027000699 -0.018167898 0.13429356
0.025443127 -0.014628837 0.13353524
0.023992406 -0.010911794 0.13370252
0.02588019 -0.014440103 0.13030326
0.02267367 -0.010275078 0.12938303
-0.02621818 0.034968875 0.1245234
0.022743134 -0.0080602691 0.1264956
0.021852568 -0.0056176847 0.12420309
-0.023673918 0.036168773 0.1206786
-0.027230451 0.036701776 0.12035018
-0.017497091 0.035571009 0.116983
-0.022166146 0.036060106 0.11641043
-0.012143632 0.034869298 0.11353052
-0.016304016 0.035050426 0.11239833
-0.020401731 0.036095534 0.11271447
-0.011164752 0.034723409 0.1086058
-0.014412908 0.035364695 0.10806996
0.01644841 0.014488051 0.10608488
-0.0044113556 0.03510876 0.10485852
-0.0092333863 0.034760468 0.10431552
-0.013277422 0.03574051 0.10435808
0.016287958 0.01499158 0.10183328
-0.0036811959 0.035671242 0.10152942
-0.0075868173 0.03472551 0.099420786
-0.0025394093 0.035417572 0.09600091
-0.0061531914 0.035385486 0.096001804
0.016952815 0.022965224 0.092912495
0.0035957899 0.035418622 0.091350496
0.00044053979 0.034670986 0.09122014
0.0043368861 0.035218351 0.087615669
0.012914494 0.034948982 0.083227813
0.0074510174 0.035370771 0.083365023
0.011953752 0.034106851 0.078916192
0.0081330882 0.034713399 0.079330623
0.01378719 0.033670329 0.074371576
0.023059327 -0.014784805 0.12750858
0.023107003 -0.0124189 0.12664402
-0.029634414 0.035140224 0.12333661
0.02236392 -0.012190851 0.12438309
-0.028627394 0.03717351 0.1192494
-0.023912216 0.036606763 0.11375976
-0.027036972 0.038301475 0.11395806
0.013443644 0.00022491533 0.11258084
-0.019155782 0.0349316 0.10982502
-0.022311274 0.036486186 0.10988981
-0.025714543 0.038572874 0.11041099
0.012616109 0.0015486875 0.10976326
-0.017423727 0.035512056 0.10562193
-0.021899397 0.036764085 0.10623461
-0.025351902 0.038053278 0.10601205
-0.010980871 0.035546582 0.10149276
-0.015404381 0.035464678 0.1014629
-0.010287239 0.035152614 0.097242594
-0.013410321 0.035379112 0.097055793
0.01685545 0.014223805 0.095104635
-0.004125677 0.03492634 0.092851102
-0.0074310703 0.035424501 0.092884481
-0.0029787738 0.034191884 0.089569271
-0.0051369797 0.033777952 0.08764112
0.0027370453 0.034305736 0.084200561
-0.00058481656 0.034005076 0.084711611
0.0042615496 0.03449408 0.081083536
0.0015789531 0.033753678 0.079161942
0.016701203 0.026856132 0.076043069
0.0069866637 0.034633685 0.076578498
0.017423568 0.029055471 0.073227227
0.012110796 0.034472175 0.073307276
0.0094961058 0.034550555 0.071821392
0.014695102 0.032934628 0.068499982
0.014948227 -0.0057141064 0.11130011
0.012204098 -0.0011219215 0.11127967
-0.02759283 0.038284644 0.10794073
0.014902983 -0.0043799262 0.10652411
0.0136261 -0.00025172578 0.10717279
0.011562062 0.0026317309 0.10670209
-0.022811184 0.036976319 0.10383672
-0.024610121 0.038670983 0.10368979
0.01644158 -0.0027583535 0.10216826
0.015132963 0.0012849206 0.10292578
-0.020731829 0.036071595 0.10019577
-0.024131514 0.037887655 0.099529028
0.016332999 0.0021639876 0.097929358
0.015656184 0.0061637447 0.097509384
-0.015902586 0.035298567 0.096663713
-0.019631233 0.03629896 0.09511888
-0.023367304 0.038229886 0.09443599
0.017176075 0.003878213 0.093139529
-0.013847578 0.035070118 0.091335058
-0.018445268 0.03650612 0.090446651
0.017260691 0.0049105738 0.089621127
0.016104139 0.013102446 0.089037359
-0.0077295862 0.034022477 0.086720765
-0.012162863 0.034848657 0.086702585
0.016189633 0.013874304 0.084982216
-0.0025963085 0.033729933 0.082920253
-0.0072592515 0.034133933 0.082282662
-0.010810005 0.035082966 0.083075166
0.016629776 0.015113207 0.079868078
-0.0016450845 0.033906557 0.078937948
-0.0050484659 0.034415126 0.078185499
0.016530301 0.019702923 0.075256705
0.0052208342 0.03393485 0.073127687
0.00025524572 0.033818625 0.07431978
-0.0036892192 0.034649283 0.074550211
0.017096058 0.021672972 0.070871294
0.0061077867 0.033865631 0.069476426
0.0019301753 0.033498041 0.069432199
0.018548505 0.023518683 0.066389263
0.012315514 0.032755733 0.064927578
0.0076306807 0.033637404 0.065753996
0.017874515 0.029538414 0.061366737
0.0090825297 0.033442374 0.061024129
0.019053172 0.030158076 0.056673765
0.022045009 0.027927328 0.0522632
0.016150385 0.032087695 0.053633213
0.021329813 0.030728288 0.049012303
0.018435415 -0.020750206 0.11435026
0.016728606 -0.017224085 0.11430132
0.014838182 -0.014222502 0.11216563
0.013014862 -0.012317164 0.10941309
0.016009098 -0.0065564029 0.10515767
0.016644843 -0.0056577506 0.100357
0.016897846 -0.003083711 0.096053898
0.017178617 -0.0021908614 0.091131628
0.017685838 0.00075779203 0.091860294
-0.020717863 0.036570724 0.087177992
-0.022892915 0.037621804 0.088888466
0.017097335 0.002546045 0.086284399
-0.015370513 0.034829628 0.083978236
-0.019141627 0.035512894 0.083554089
0.016618855 0.0037180111 0.081461847
-0.013274252 0.034937985 0.079556346
-0.0078468639 0.034769088 0.07584554
-0.011208878 0.034412742 0.074257791
0.016865574 0.013450486 0.072679102
-0.0018598959 0.03396669 0.071109235
-0.0059821606 0.034257974 0.070955694
-0.0011717547 0.033533029 0.066709578
-0.0041247951 0.033902556 0.065602362
0.0052153245 0.033476155 0.062508285
0.0013741348 0.03302975 0.062508702
0.020136688 0.022345398 0.059046686
0.0055698827 0.0330384 0.057773829
0.020785099 0.023723742 0.055578947
0.01218345 0.032872543 0.053773761
0.00865818 0.032725893 0.054094672
0.022250935 0.024950836 0.051676691
0.0097632036 0.032682717 0.050101578
0.023753043 0.026882771 0.046620905
0.015215613 0.031566545 0.045744717
0.02432405 0.027824076 0.041449964
0.024765672 0.028046267 0.037595689
0.018770482 -0.022170302 0.1125139
0.017288016 -0.019707667 0.11221933
0.018325012 -0.022382572 0.10785359
0.015991818 -0.018998235 0.10781837
0.013769757 -0.014102465 0.10727644
0.017098894 -0.017845904 0.10343283
0.014891972 -0.013530797 0.10348827
0.015570816 -0.012183979 0.098929703
0.015805837 -0.0079807695 0.09672755
0.015437255 -0.010886407 0.0951038
0.015785435 -0.0074855406 0.092865705
0.017140824 -0.0039604949 0.089201331
-0.023976697 0.036519259 0.084661782
0.016748104 -0.0038711457 0.084908783
0.016704608 -0.0007594442 0.084391654
-0.02179876 0.035028741 0.081002474
-0.024257258 0.036172424 0.08123982
0.017342908 -0.0026889555 0.081703484
0.017082434 0.00031848252 0.080605328
-0.020735661 0.03476955 0.077331126
-0.02465304 0.036445476 0.076673925
0.017435545 0.0025056456 0.076420248
-0.015326299 0.034196876 0.073460281
-0.018490773 0.034445293 0.073244691
0.017872715 0.0042951773 0.071057796
-0.0093333637 0.033695843 0.068729103
-0.013382401 0.034039751 0.069081604
-0.0078984862 0.0339991 0.065129459
-0.010697729 0.034549724 0.06421411
-0.001689408 0.032940876 0.060241878
-0.0058817379 0.033904418 0.060813248
0.020156898 0.015343141 0.059440196
-0.00030045584 0.032895394 0.056236446
-0.0043955315 0.033314593 0.056746781
0.025152335 0.010347111 0.051253378
0.021525886 0.016954944 0.053770959
0.0055010319 0.032517109 0.051663697
0.0016602566 0.032875039 0.052091777
0.022979815 0.01872449 0.049286187
0.0073079048 0.032855511 0.047503531
0.0025267145 0.03259813 0.047802806
0.024723796 0.019988952 0.045330703
0.008362025 0.032951497 0.043042004
0.026213594 0.021942299 0.040788651
0.010633907 0.033023145 0.039148152
0.027532209 0.023369297 0.036363006
0.019854885 0.031062383 0.035413563
0.030848628 0.020990731 0.031331599
0.025603723 0.028561044 0.032002628
0.01684879 0.03238935 0.030152261
0.030134797 0.025680609 0.026734352
0.022807309 0.031856731 0.026016295
0.027877159 0.030536603 0.021955431
0.018599799 -0.023808727 0.10487938
0.017730186 -0.023599135 0.10083514
0.017101584 -0.019690158 0.099921346
0.016564818 -0.019037658 0.096100509
0.015661856 -0.015416308 0.096090674
0.015786992 -0.018057106 0.091780841
0.014998941 -0.013630349 0.091461718
0.014747767 -0.012134662 0.087934196
0.014868349 -0.0096473657 0.087168634
0.01569158 -0.007952407 0.082261741
0.01599339 -0.0055786516 0.077396691
-0.023220796 0.034654729 0.073796093
-0.024941513 0.036483683 0.073762238
0.01631907 -0.0042745122 0.074076653
0.017179061 -0.0010586493 0.073092401
-0.021444488 0.034563452 0.070288837
-0.024393104 0.03667124 0.070417106
0.017761126 0.00045035686 0.06898284
-0.015657876 0.033798385 0.065835834
-0.020062737 0.034729589 0.065786064
-0.023373019 0.036560345 0.065292537
0.01817406 0.0024346514 0.064270079
-0.014455927 0.034409594 0.061958492
-0.017635169 0.034847349 0.060344756
0.019107226 0.0041859038 0.059652507
0.018948819 0.0070797242 0.060582101
-0.0083463397 0.033453636 0.05730325
-0.012410355 0.034256585 0.057457328
0.021529147 0.0057310965 0.05504173
-0.0069040516 0.0331215 0.053047895
0.023954879 0.0071112243 0.050877273
-0.0015969044 0.032784391 0.049139857
-0.0056448439 0.033374436 0.048634171
0.026016627 0.0088383099 0.04695791
0.00047671981 0.032834716 0.044570565
-0.0033077765 0.033897623 0.045005381
0.027542444 0.0095123071 0.042020559
0.0051329248 0.032423794 0.03970468
0.0025934977 0.032394201 0.041343868
0.029431086 0.011355516 0.037365377
0.0074407002 0.032526903 0.035828769
0.030725621 0.012655961 0.03273201
0.012427155 0.032001521 0.030026793
0.0095133968 0.032785937 0.031889856
0.031175975 0.017942891 0.028795242
0.0098895654 0.031818617 0.02833432
0.031819522 0.019692354 0.024283111
0.016824367 0.032423638 0.023320794
0.030323489 0.025090175 0.01939404
0.021996189 0.031742897 0.018625915
0.030456495 0.025792941 0.015298128
0.024301216 0.031078562 0.015360117
0.017059796 -0.026120186 0.096800864
0.017033681 -0.024936385 0.093644798
0.017361227 -0.021190185 0.093166709
0.018693771 -0.024373144 0.089747906
0.016500214 -0.019938385 0.08952266
0.014659875 -0.017041847 0.088563979
0.018869679 -0.022742216 0.084934831
0.017262939 -0.019789726 0.08525759
0.014838111 -0.014722545 0.084625125
0.017580863 -0.018516522 0.080911279
0.015810121 -0.01404619 0.080298305
0.01498645 -0.010149172 0.078677654
0.016440319 -0.01332887 0.075788558
0.015848381 -0.008669341 0.075737834
0.017610576 -0.011666438 0.071004033
0.016488047 -0.0074899481 0.071819067
0.01860005 -0.0097810747 0.066225052
0.017335702 -0.0061302879 0.067404032
-0.020811195 0.034267757 0.062413931
0.019501042 -0.0091014747 0.062873662
0.018881783 -0.0048889448 0.062617838
0.018051006 -0.00093036611 0.062116921
-0.02040232 0.034564249 0.059645534
-0.02353191 0.035111755 0.059177279
0.020303141 -0.0037865518 0.057678223
0.019014705 0.00041423272 0.058638155
-0.015778663 0.034098715 0.054694593
-0.018920269 0.034877487 0.054966271
-0.021584775 0.035615377 0.054225624
0.021980332 -0.0024012662 0.053031027
0.020326797 0.001477031 0.054679751
-0.012927266 0.033418812 0.051340759
-0.017361924 0.034502286 0.049998462
0.023349896 -0.0006119255 0.048722327
0.022326376 0.0025550155 0.049537838
-0.0090894913 0.033142444 0.04644835
-0.012091928 0.033791907 0.046076953
-0.016290314 0.034509301 0.046105087
0.024905549 0.0011577234 0.04390198
-0.0058936775 0.033105791 0.04247427
-0.0097232815 0.034031726 0.041519582
0.026829956 0.0030389242 0.039242268
-0.0012171371 0.031737607 0.037941039
-0.0053152042 0.032860868 0.03678906
-0.0083256522 0.033543039 0.037492871
0.028511632 0.0048410231 0.035255432
0.00068461709 0.031408355 0.033181429
-0.0029996121 0.03217737 0.032792926
0.030623836 0.0060783979 0.030783594
0.0050203772 0.031887449 0.029658377
0.0018401928 0.031184983 0.029448509
0.032015976 0.0078192018 0.026693523
0.031425275 0.011254812 0.027335644
0.0084839594 0.031715617 0.024795771
0.0045931442 0.031268258 0.024704218
0.031461667 0.01290303 0.022675931
0.012803905 0.031971727 0.021589816
0.0098947752 0.031470835 0.020542145
0.031593073 0.017666901 0.018049598
0.032481566 0.01524527 0.013350785
0.030659793 0.022963474 0.012417138
0.01796346 0.031783726 0.011683464
0.03040348 0.024889644 0.0090266466
0.022171726 0.030631194 0.0071339011
0.017566347 -0.026360879 0.087639391
0.019201333 -0.024939036 0.084029257
0.019371666 -0.023909703 0.079409719
0.017891467 -0.020630591 0.07814002
0.016338721 -0.019576274 0.073080778
0.016793149 -0.015987216 0.073583484
0.017306818 -0.015833279 0.068687618
0.018528128 -0.013398098 0.064723194
0.01991735 -0.010364092 0.059906721
0.021661308 -0.0086183744 0.055893481
-0.024236895 0.035435058 0.052579641
0.023272209 -0.0073106922 0.051142395
-0.018885676 0.035604067 0.047295451
-0.022168726 0.035829194 0.048037767
0.024516899 -0.0061265444 0.046528578
0.024466071 -0.0027295928 0.046855271
-0.017715216 0.03425305 0.04297632
-0.021219734 0.035632439 0.042712867
0.02515668 -0.0056067826 0.042469084
0.024670098 -0.0028297706 0.042630672
-0.012128305 0.034717076 0.040143192
-0.016935753 0.033723518 0.039930463
0.026201118 -0.0040838849 0.037469208
0.025959518 -0.0011633476 0.038950443
-0.010765019 0.033515718 0.035459161
0.027638469 -0.0028891666 0.033600688
0.028009914 0.00095263962 0.034046352
-0.005206544 0.033147376 0.031265497
-0.0092059067 0.033065658 0.030750871
0.029864468 -0.00097600836 0.028450668
0.029592331 0.0012768619 0.02956754
0.00068499241 0.031137902 0.026537478
-0.0041134767 0.031675071 0.02676636
0.031035798 3.75323e-06 0.025380433
0.031596631 0.0039444547 0.024515748
0.0016840324 0.030754879 0.022590876
0.031847849 0.0070026936 0.020483971
0.030902576 0.0092298193 0.019732237
0.0081342058 0.031243175 0.018203497
0.0044108806 0.030846305 0.018895805
0.031072918 0.006719063 0.016174674
0.030577321 0.0098201819 0.015489995
0.0083161741 0.031046454 0.013384104
0.013812952 0.030862115 0.01064837
0.010467397 0.030912885 0.0090759993
0.017325126 -0.025241736 0.07445246
0.017914604 -0.026141249 0.071158707
0.016946999 -0.022151461 0.07158643
0.018344659 -0.025924772 0.068333209
0.01727582 -0.020932732 0.06710726
0.018847117 -0.019933073 0.062941968
0.018695675 -0.014950253 0.061465442
0.019894157 -0.018928826 0.057939351
0.01961761 -0.014166504 0.059217334
0.023325341 -0.020653399 0.053665519
0.022196034 -0.016841194 0.053961456
0.021154165 -0.012860254 0.055470407
0.023364389 -0.014748646 0.049330413
0.022998033 -0.011292757 0.050974071
0.024808258 -0.013344653 0.044918358
0.024806894 -0.0097649368 0.046435297
0.026360163 -0.011110337 0.040159523
0.026009303 -0.0079302425 0.041268766
-0.019277608 0.033389635 0.036541462
-0.021982385 0.034758192 0.036388874
0.027632641 -0.010196658 0.034929633
0.026814442 -0.0072482722 0.03607738
-0.013690112 0.033028349 0.032868624
-0.016814804 0.032418914 0.031714499
0.028922353 -0.0091741942 0.030848801
0.028338265 -0.0055174334 0.031151772
-0.012582243 0.032957211 0.027643442
0.030277161 -0.0080779102 0.02684325
0.029665012 -0.0047713974 0.026598454
-0.0065154647 0.031615682 0.023066342
-0.0097717699 0.032636352 0.023523748
0.030465912 -0.0032167099 0.023175299
-0.00042405538 0.030189255 0.019485295
-0.0044232272 0.031114236 0.019705832
-0.0098676514 0.032650128 0.019752741
0.03014428 -0.0013442431 0.019666076
0.031012993 0.0027208365 0.018185437
0.0010604039 0.030253775 0.015340269
-0.0042189099 0.030758105 0.015604734
0.030668691 0.0041229418 0.013069451
0.002711704 0.030061347 0.010769844
0.031446818 0.0053668497 0.0089989901
0.031209711 0.010048599 0.0094260573
0.0050070975 0.030916767 0.0072218776
0.018041346 -0.026554756 0.064651012
0.020036649 -0.025311496 0.060789585
0.021147994 -0.025318088 0.05530715
0.023464544 -0.023695422 0.051489472
0.024023466 -0.022996433 0.046826541
0.023857808 -0.018081581 0.047827125
0.024155343 -0.020729816 0.042249918
0.024583813 -0.016932894 0.042402625
0.025880672 -0.015470739 0.038557351
0.026833072 -0.015137155 0.033438206
-0.020191282 0.032767482 0.030949175
-0.021964937 0.035181683 0.030130982
0.028382685 -0.013614178 0.029114962
-0.019051638 0.032797746 0.025936782
-0.021839902 0.034557965 0.024401903
0.0299992 -0.010980099 0.025335729
-0.013066938 0.033270031 0.022503436
-0.018308241 0.032645587 0.020740449
-0.021020111 0.035182379 0.019776165
0.030311283 -0.0093334494 0.021028697
0.029654386 -0.00598008 0.019610465
-0.0071638394 0.031585492 0.017534673
-0.011376857 0.032801278 0.017361343
-0.016093962 0.032624796 0.016965806
0.029488008 -0.0038477192 0.015155077
-0.0056246575 0.031306252 0.013202012
-0.010241172 0.031667028 0.012714982
0.029943492 -0.0022618631 0.010170996
0.029949434 0.00024777092 0.010544598
-0.00098688155 0.030037608 0.0095047355
-0.0042187888 0.030231824 0.008008182
0.025152545 -0.02690636 0.046010315
0.023951313 -0.025465311 0.048241615
0.025739528 -0.026818234 0.039886713
0.024598097 -0.024172163 0.040644884
0.025285628 -0.021853104 0.036095083
0.026202042 -0.019409992 0.032213807
0.026570687 -0.019462114 0.026925266
-0.024011293 0.034838311 0.0221349
0.028314475 -0.01792334 0.023349822
0.030394929 -0.013356728 0.021715164
-0.018744355 0.033350091 0.018673241
-0.02296678 0.03453828 0.018759429
0.0305981 -0.012561611 0.018619597
-0.018083308 0.03225822 0.014046431
-0.020877566 0.033587284 0.013807237
0.029489649 -0.0109039 0.014159143
0.029429816 -0.0074320277 0.014583111
-0.01308818 0.031438835 0.010204375
-0.01759012 0.0310423 0.010700524
0.029898675 -0.0098817889 0.0090087652
0.029680738 -0.0065878052 0.0092414021
0.025834991 -0.028134355 0.033395767
0.025515217 -0.025018137 0.034183741
0.026539093 -0.028228169 0.028635621
0.025758483 -0.024106916 0.030005515
0.027287439 -0.026517417 0.02451998
0.026453877 -0.023582919 0.024548113
0.028161135 -0.021299038 0.020242274
0.028648496 -0.018830471 0.015845835
-0.024263741 0.031916175 0.0092604756
0.029257704 -0.017993286 0.010579884
0.02951795 -0.014249412 0.011796355
-0.018336885 0.031454753 0.0082484484
-0.022333711 0.031293374 0.0078787804
0.028573565 -0.030067924 0.02663815
0.027578898 -0.028068729 0.022723913
0.028634062 -0.027689045 0.019141495
0.028523711 -0.023299189 0.017110586
0.02896844 -0.026429093 0.014862418
0.028323248 -0.022977006 0.013456821
0.029084533 -0.0221094 0.0092106462
0.028606225 -0.027547833 0.01139164
0.028966006 -0.026864816 0.0075206757
