# .PCD v0.7 - Point Cloud Data file format
VERSION 0.7
FIELDS x y z
SIZE 4 4 4
TYPE F F F
COUNT 1 1 1
WIDTH 954
HEIGHT 1
VIEWPOINT 0 0 0 1 0 0 0
POINTS 954
DATA ascii
-0.03628118 -0.0073857429 0.18851709
-0.033573225 -0.015468088 0.18945
-0.028488196 -0.024124075 0.18817094
-0.026565945 -0.026677689 0.18844745
-0.03578693 -0.016156416 0.18458509
-0.036805134 -0.014755984 0.18127981
-0.034601126 0.0032994691 0.19079265
-0.033066984 0.00015753042 0.19097015
-0.030437846 -0.0084200129 0.19158956
-0.026016872 -0.018063493 0.19136366
-0.022241637 -0.026726646 0.1913214
-0.019537024 -0.029589228 0.18993634
-0.036196977 0.0027532224 0.18821853
-0.035678018 -0.0049128421 0.18886125
-0.025107121 -0.02770099 0.18705994
-0.021711187 -0.030324575 0.18665618
-0.037782699 0.0022658529 0.18471724
-0.037214246 -0.0058296546 0.18331021
-0.032339435 -0.020463739 0.18248087
-0.025779527 -0.027915712 0.18132469
-0.022668844 -0.029910147 0.18314236
-0.037549414 -0.010781059 0.17907706
-0.032855675 -0.020488543 0.17824265
-0.027344167 -0.027383018 0.17723188
-0.038198028 -0.011019899 0.17426306
-0.033895899 -0.020501692 0.17362121
-0.038694702 -0.012533126 0.17099133
-0.035205834 -0.019428514 0.17029908
-0.026371341 0.0025972221 0.19154805
-0.023305535 -0.0054006688 0.19133666
-0.020286018 -0.015100724 0.19148874
-0.018215852 -0.020156484 0.19218728
-0.01589315 -0.02445736 0.19236219
-0.013376159 -0.028211921 0.19095129
-0.033331286 0.01212254 0.18900084
-0.031846903 0.0070005385 0.19004267
-0.030476652 0.0020082863 0.19152501
-0.026662139 -0.006838473 0.19176954
-0.023012329 -0.015371712 0.19132304
-0.016370041 -0.030562948 0.18908113
-0.012974434 -0.031666055 0.18684661
-0.036255538 0.014836127 0.18488622
-0.035467118 0.011703653 0.18596733
-0.035773635 0.0063848114 0.18722925
-0.018496618 -0.031220356 0.18410257
-0.014219245 -0.031634167 0.18392304
-0.036810704 0.011116584 0.1819194
-0.036749374 0.0056562023 0.18198338
-0.037052933 0.00026168302 0.18103737
-0.020697795 -0.030467046 0.17955738
-0.0366867 0.0045267558 0.17753991
-0.038211972 -0.0041930107 0.17626411
-0.025947902 -0.028239241 0.17490524
-0.02202782 -0.030022589 0.17471743
-0.03779212 -0.0052749906 0.17232436
-0.032234453 -0.021579601 0.17075139
-0.02614597 -0.027468553 0.17007366
-0.037338212 -0.0054925224 0.16816127
-0.036265895 -0.014691074 0.16716734
-0.029184651 -0.02311461 0.16686881
-0.026462896 -0.027460091 0.16656923
-0.03548447 -0.014169173 0.16303641
-0.025508266 0.0095837722 0.19027358
-0.023846582 0.0054043657 0.19134766
-0.021095721 0.00061075995 0.19160226
-0.017776432 -0.0081962766 0.19208583
-0.013151783 -0.017770126 0.19186673
-0.011047332 -0.021911519 0.19245896
-0.0093652308 -0.026679438 0.19196001
-0.0082714874 -0.030932182 0.18890151
-0.033176839 0.021885229 0.18768838
-0.032885686 0.017821305 0.18869561
-0.030935794 0.013916757 0.18969804
-0.029183552 0.0099805351 0.18990782
-0.011228808 -0.033220548 0.18612882
-0.0079148589 -0.034234293 0.18437949
-0.035854097 0.021707334 0.1843982
-0.035393599 0.017420849 0.1850251
-0.012773793 -0.032868318 0.18125027
-0.0089893024 -0.03455421 0.18140656
-0.036367521 0.020817844 0.1803599
-0.036825605 0.016600225 0.18027306
-0.037422594 0.012081382 0.17972761
-0.017502304 -0.031055253 0.17843705
-0.014345905 -0.031878196 0.1771633
-0.037485782 0.016021255 0.17587072
-0.037329886 0.011499644 0.17610425
-0.036772311 0.0066425223 0.17572743
-0.018937504 -0.031021178 0.1733152
-0.015892226 -0.031890005 0.17209974
-0.03696537 0.011048261 0.17227483
-0.036706179 0.0068006078 0.17078769
-0.036705434 0.0027381359 0.17017022
-0.021441502 -0.030730342 0.16852939
-0.018408265 -0.032705702 0.16732627
-0.036808349 0.0055071684 0.16592059
-0.037456576 0.00034742244 0.16584414
-0.028158069 -0.02333004 0.16376507
-0.025901817 -0.02711584 0.16335601
-0.022803972 -0.030719213 0.16335654
-0.020323694 -0.033336915 0.16400135
-0.037304018 -0.0048967656 0.16126621
-0.035975818 -0.014269171 0.16085675
-0.029183123 -0.023248974 0.1599195
-0.026423005 -0.026616573 0.15953261
-0.023738928 -0.029486269 0.15971115
-0.037393171 -0.0097971354 0.15679663
-0.033590846 -0.01847429 0.15624774
-0.037443954 -0.011073051 0.15218636
-0.034022275 -0.018145923 0.15251043
-0.011965934 -0.0057832422 0.19214061
-0.0075949631 -0.01446119 0.19191685
-0.0051851096 -0.019985024 0.19190469
-0.0031933933 -0.024024645 0.19193369
-0.00028096605 -0.028149173 0.19066387
-0.02485266 0.019697994 0.18912241
-0.023713838 0.016700057 0.18996862
-0.022002198 0.012241019 0.19076702
-0.019140759 0.0080288546 0.19115478
-0.016205685 0.0027272808 0.1911006
-0.014549705 -0.0068519055 0.19200718
-0.011355017 -0.012285875 0.19121903
-0.010472419 -0.015316291 0.19129866
-0.0031549037 -0.029542649 0.18910715
-0.0011968147 -0.031732496 0.18638122
-0.034404777 0.031131925 0.1860089
-0.031906087 0.028618053 0.18663257
-0.030383818 0.024945149 0.18764299
-0.026682004 0.020666802 0.18815878
-0.026353013 0.015584469 0.18897083
-0.025905183 0.012321042 0.189354
-0.0047272798 -0.034247044 0.18342537
-0.03472257 0.031724393 0.18192348
-0.034558669 0.027871419 0.18214506
-0.035605196 0.023950666 0.18172154
-0.0070501287 -0.034721717 0.17807394
-0.038065486 0.03087952 0.17807785
-0.036066055 0.027504256 0.17756876
-0.03625261 0.022759914 0.17804208
-0.010921538 -0.032575682 0.17477924
-0.0082802409 -0.034072548 0.17442146
-0.036903843 0.026938837 0.1740115
-0.03674607 0.022038881 0.17377439
-0.036909547 0.018183328 0.1732122
-0.011878266 -0.031939983 0.16966012
-0.036482628 0.021541499 0.16913652
-0.036773041 0.017380126 0.16895252
-0.036653504 0.012475759 0.16938916
-0.013793405 -0.032539658 0.16536945
-0.036908358 0.016435692 0.16487518
-0.036412485 0.012439026 0.16441038
-0.036168773 0.0078122513 0.16398257
-0.03626132 0.003335014 0.16324705
-0.020462185 -0.031576954 0.15997189
-0.017512985 -0.033312049 0.16224062
-0.036603458 0.011944361 0.16065091
-0.036420546 0.0075791627 0.15880242
-0.036794528 0.0021520257 0.15897024
-0.024810607 -0.02755972 0.1568442
-0.021353718 -0.030324858 0.15627384
-0.018134765 -0.032250322 0.15677339
-0.036992349 0.0016064532 0.15392965
-0.037115104 -0.0076259244 0.15402064
-0.025259852 -0.026449757 0.15249488
-0.021783728 -0.029799001 0.1521467
-0.037075829 0.00028892141 0.15032625
-0.036990337 -0.0085890945 0.15011621
-0.033848099 -0.017940911 0.14952356
-0.026681364 -0.025825864 0.14798072
-0.036074564 -0.013563829 0.14524543
-0.03146578 -0.022176221 0.14439127
-0.035649538 -0.014051646 0.1412763
-0.03259908 -0.02211839 0.1401791
0.0088238688 -0.026485885 0.19526747
0.0090719666 -0.028089464 0.19542846
-0.00053189322 -0.011336051 0.19217741
0.0011022757 -0.017510906 0.19242403
0.0024104044 -0.022098361 0.19255382
0.0057258271 -0.026144311 0.19275412
0.0071578524 -0.028744875 0.19295999
-0.018267464 0.022590766 0.19027653
-0.018134708 0.019135397 0.19086856
-0.016179347 0.014764101 0.19151169
-0.014232699 0.009574471 0.19139525
-0.012169945 0.0044458034 0.19120073
-0.010374464 6.4559281e-05 0.19101569
-0.0059416988 -0.0084035592 0.19194365
-0.0035758251 -0.012980765 0.191928
-0.0021343981 -0.017423237 0.19204739
0.00033551827 -0.023742661 0.19221398
0.00243646 -0.027134504 0.19166428
0.0042945966 -0.030840734 0.18886244
0.0079193125 -0.035054132 0.18728781
0.0093916748 -0.037894435 0.18791294
-0.027265845 0.03544502 0.18866408
-0.026156951 0.031790093 0.18796736
-0.024294566 0.026886916 0.18923268
-0.022250611 0.022828337 0.18907145
-0.020865131 0.017916918 0.19083732
-0.019882426 0.014895739 0.19085738
0.0034005055 -0.032111451 0.18497124
0.0065985406 -0.035484929 0.18490043
0.0016876655 -0.03301432 0.18125817
-0.033001039 0.035772771 0.17961568
-0.003088003 -0.035465203 0.17437562
-0.034982033 0.033883877 0.17684555
-0.0082841143 -0.032294452 0.17127153
-0.0047736913 -0.034347918 0.17190295
-0.036777034 0.031807009 0.17151603
-0.036343262 0.028212123 0.17088354
-0.036177993 0.024459261 0.17082456
-0.0090064527 -0.032469776 0.16801801
-0.0075240629 -0.033570062 0.16734308
-0.035791337 0.028038153 0.16720924
-0.036227793 0.023570046 0.16667593
-0.0091847787 -0.032395005 0.16343078
-0.0079464046 -0.03362608 0.16386783
-0.036420416 0.021876171 0.16261643
-0.036986586 0.018282406 0.16264835
-0.036561493 0.014474366 0.16195446
-0.015106265 -0.032832555 0.15875494
-0.036613334 0.021632299 0.15854597
-0.036769964 0.01790864 0.15780255
-0.036387146 0.013336519 0.15778679
-0.036352638 0.00967771 0.15722209
-0.015530351 -0.03242847 0.15422541
-0.036069505 0.012492258 0.15301347
-0.036463745 0.0081458893 0.1532208
-0.036704283 0.0047179516 0.15098476
-0.021709671 -0.030444739 0.14969125
-0.018121958 -0.032878093 0.15029961
-0.03610773 0.0076927627 0.14898193
-0.036521688 0.0025171041 0.14735332
-0.025174009 -0.027459292 0.1465196
-0.022219263 -0.030080473 0.14566934
-0.018648274 -0.032652412 0.14584053
-0.036112927 0.00081550982 0.1432384
-0.0361569 -0.0071995133 0.14256614
-0.022984374 -0.029100416 0.14149961
-0.035929475 -0.0082508689 0.13843858
-0.034517612 -0.017677292 0.13755238
-0.028581539 -0.026022587 0.1378507
-0.035126153 -0.012651023 0.13437963
-0.03194651 -0.021559529 0.13315022
0.0097786868 -0.02096514 0.19369769
0.010622381 -0.02312115 0.195207
0.013272747 -0.028493119 0.19425103
0.01506546 -0.031677872 0.19273546
-0.014140345 0.027808094 0.19246048
-0.0085360873 0.016393214 0.19144827
-0.0072555235 0.012601233 0.19144228
-0.0046307482 0.0072203325 0.1914376
-0.0028962702 0.0032056663 0.1912162
-0.0012085636 -0.0012860813 0.19157439
0.00021615159 -0.0058656125 0.19163567
0.001609243 -0.010460069 0.19190267
0.0039872425 -0.014198841 0.19154057
0.0065458026 -0.019990725 0.19244042
0.0078294985 -0.024269212 0.1935733
0.011400626 -0.029608458 0.19072104
0.01301742 -0.033232316 0.19049251
0.012990722 -0.036618758 0.19022626
-0.018898249 0.032915298 0.18864208
-0.01912467 0.028452553 0.19074595
-0.016284321 0.025422856 0.19067335
-0.014045484 0.020957803 0.19094291
-0.011962745 0.016623361 0.19150642
-0.010569677 0.011144429 0.19176003
-0.0083461516 0.0060657607 0.19146323
-0.0063801869 0.0017398847 0.19116929
0.0085565336 -0.030897047 0.18827769
0.011127803 -0.033872578 0.18799451
0.010912754 -0.037307225 0.18692848
-0.025218878 0.03706219 0.18777716
-0.023106765 0.031579938 0.18824208
0.0076796748 -0.034997996 0.18167728
0.011344138 -0.037571311 0.18116859
0.0035871249 -0.033081744 0.17923111
0.0064472957 -0.03434756 0.17817813
-0.030217476 0.035450734 0.17801964
0.0016328841 -0.033697911 0.1749275
-0.031581286 0.036665499 0.1767199
-0.0032444932 -0.033666763 0.16850352
0.0033395812 -0.03459724 0.16941336
-0.034127541 0.034266293 0.16938624
-0.0035555372 -0.033680595 0.16494319
-0.035066716 0.032867521 0.16460693
-0.035173871 0.029347455 0.16400939
-0.0088745551 -0.032180764 0.16037375
-0.0051407721 -0.033010483 0.1601274
-0.035796039 0.032470129 0.15947101
-0.035592467 0.029000323 0.16009179
-0.035416152 0.024842013 0.16050088
-0.0098778643 -0.032469001 0.15728655
-0.0066715023 -0.032911815 0.15632713
-0.036143441 0.028363781 0.15564251
-0.035567295 0.024315521 0.1551654
-0.036693994 0.020081805 0.15514863
-0.01021762 -0.032428309 0.15180832
-0.036193743 0.023722874 0.15136296
-0.036655828 0.018350197 0.15194377
-0.036170848 0.014878854 0.15169299
-0.011075693 -0.03259711 0.14667755
-0.03614112 0.017963137 0.14701071
-0.035612654 0.013934192 0.14653954
-0.035333265 0.0096345032 0.14645317
-0.035596196 0.0055913478 0.14435768
-0.016854733 -0.032424554 0.14272034
-0.035613831 0.012643337 0.14276266
-0.035681076 0.0091923364 0.14167434
-0.036189727 0.0033498583 0.14119166
-0.021382369 -0.029858518 0.13896525
-0.017201856 -0.032314368 0.13870487
-0.03646782 0.008219284 0.1376082
-0.03590386 0.0033134185 0.13644755
-0.03538255 -0.0059278542 0.13537332
-0.023117177 -0.028812513 0.13421491
-0.019489992 -0.031027313 0.1349135
-0.036459249 -0.0077399174 0.13242838
-0.034126483 -0.015511299 0.13101688
-0.027919032 -0.025187589 0.1308234
-0.024533972 -0.027853295 0.12942213
-0.035574816 -0.012505034 0.12741131
-0.030820547 -0.020823214 0.12642258
-0.037174623 -0.0089377556 0.12311345
-0.034113225 -0.015972884 0.12240022
0.011946408 -0.004760603 0.19687593
0.010449003 -0.0077850511 0.19270992
0.012208286 -0.011447006 0.19403061
0.011841565 -0.016766764 0.19452813
0.012971533 -0.01978071 0.19537953
-0.011478282 0.02646731 0.19120282
-0.0082632909 0.023132335 0.19047633
-0.0065641673 0.019490857 0.19066927
-0.0037179503 0.014577005 0.19137937
-0.001872737 0.01005685 0.1917868
0.0007567514 0.0044226856 0.19185185
0.0058770049 -0.0038901689 0.19158062
0.0072968816 -0.0081549212 0.19176757
0.0089694038 -0.012645992 0.19166964
0.0096206143 -0.017142596 0.19260901
0.017657006 -0.033226423 0.19157049
0.011846179 -0.036763836 0.17885649
0.01036018 -0.035099573 0.17519027
0.011070997 -0.037824616 0.17578146
0.0079004364 -0.034436006 0.17158735
0.011720119 -0.037485145 0.17158192
0.0026097121 -0.033096693 0.16672447
0.005871044 -0.035287075 0.16709304
0.0031304676 -0.032782346 0.16256863
0.0054341624 -0.03364126 0.16324195
0.00018295273 -0.032935008 0.15872407
-0.033045359 0.035566226 0.15899044
-0.0028396305 -0.032525931 0.1541757
-0.034364477 0.033510972 0.15454137
-0.035990976 0.030181404 0.15343359
-0.0072489595 -0.032942083 0.15004426
-0.036524307 0.032814693 0.15032515
-0.035849936 0.029471921 0.14895806
-0.035762079 0.024931088 0.14823705
-0.035511587 0.021073263 0.14845949
-0.0077368058 -0.032964248 0.14462349
-0.035246313 0.02452217 0.14394987
-0.035373472 0.020261502 0.1440782
-0.035407998 0.016171575 0.14374661
-0.010701202 -0.032264367 0.14061257
-0.035256155 0.019434221 0.13969591
-0.035644777 0.014765901 0.14013416
-0.014482512 -0.033589713 0.13664037
-0.01237986 -0.032825641 0.13798073
-0.035979748 0.014446627 0.13542798
-0.036112536 0.010094104 0.1352002
-0.01720646 -0.0331043 0.13317865
-0.015513367 -0.033857398 0.13255519
-0.035270017 0.009097565 0.13177443
-0.034947746 0.0046996409 0.13089317
-0.034980148 0.00017190352 0.12980336
-0.02156011 -0.029227709 0.12872106
-0.018461186 -0.031428941 0.12813407
-0.015271339 -0.033637077 0.12846625
-0.034148041 0.0037711123 0.12644392
-0.035951965 -0.0055837985 0.12406188
-0.02629154 -0.024607141 0.12336552
-0.023345757 -0.028027348 0.12348491
-0.019357245 -0.030492853 0.12397522
-0.03654214 -0.0067909304 0.12020612
-0.03311877 -0.017018335 0.12021756
-0.027151363 -0.023985934 0.11884153
-0.023889516 -0.027656607 0.1192106
-0.035479944 -0.011895961 0.11550146
-0.031256162 -0.020508889 0.11469734
-0.035471704 -0.012842752 0.11114365
-0.032618966 -0.019192196 0.11138815
0.011723836 -0.0010443223 0.19705904
0.0055734655 0.011997383 0.19175211
0.0066435114 0.0071839737 0.19205019
0.010711696 -0.0016375431 0.19327834
0.011626257 -0.0062581226 0.19415432
-0.0074849972 0.027429497 0.19061342
-0.0036783149 0.026116477 0.19057584
-0.0013516503 0.02082837 0.18963748
0.0010217442 0.017467203 0.19067374
0.0026046161 0.011611041 0.19162557
0.0038715294 0.0068997331 0.19179648
0.0072481604 -0.0012406453 0.19142503
0.011757323 -0.034802377 0.16724744
0.01303127 -0.036631919 0.16811869
0.010237207 -0.035297364 0.16447288
0.012055148 -0.035738669 0.16347131
0.0068001328 -0.034074366 0.1602267
0.010002656 -0.035267215 0.15986046
0.0048840232 -0.033860374 0.15578625
0.007779533 -0.035962708 0.15468758
-0.001179846 -0.032395232 0.15183708
0.0033602035 -0.034094721 0.15128401
-0.033299729 0.035396118 0.1518639
-0.0021550013 -0.032644745 0.14771849
0.001410054 -0.034706593 0.14688167
-0.035196327 0.031998415 0.1458165
-0.0036168089 -0.033032231 0.14200395
-0.00022568181 -0.035193779 0.14224842
0.0009006951 -0.038204189 0.14219725
-0.036045097 0.030039335 0.1429469
-0.035319418 0.026882326 0.14222583
-0.0059491508 -0.032933857 0.13769087
-0.037039366 0.03349993 0.13796955
-0.036698394 0.030130014 0.13754559
-0.03552762 0.025322324 0.13788068
-0.035301104 0.021333609 0.13735643
-0.0088473689 -0.033926364 0.13399374
-0.035519943 0.024444334 0.13354695
-0.035106525 0.020303283 0.13317919
-0.036013249 0.015737716 0.13265711
-0.010771685 -0.034365725 0.12992594
-0.0068345554 -0.035599925 0.12916958
-0.034279644 0.019424094 0.12869245
-0.035437509 0.015143659 0.12876195
-0.035215408 0.010422023 0.12892604
-0.034640782 0.0069714785 0.12796509
-0.013029952 -0.033530816 0.12499654
-0.035770372 0.014636431 0.1239723
-0.035548661 0.010332072 0.12386936
-0.034854461 0.005558487 0.1242969
-0.034835875 0.0018927958 0.1234535
-0.017752048 -0.03149806 0.12117618
-0.013855861 -0.032876696 0.12148386
-0.035232157 0.0095741926 0.11925745
-0.035353605 0.0054265289 0.11903203
-0.035468511 8.1833452e-05 0.11967242
-0.023541298 -0.028306941 0.11717081
-0.019255336 -0.030878749 0.11710173
-0.034990899 0.0040448317 0.11518151
-0.036112517 -0.0060283924 0.11449331
-0.023998735 -0.028131202 0.11326569
-0.020123675 -0.030409876 0.11270827
-0.036359824 -0.0067878063 0.11025345
-0.033990219 -0.016122028 0.10763377
-0.027706167 -0.024273682 0.10865295
-0.023855004 -0.027718581 0.10936391
-0.035589773 -0.01178454 0.10489279
-0.031206585 -0.020069266 0.10468233
0.011655412 0.015392059 0.19334552
0.014994007 0.0056638541 0.19440353
0.0018153982 0.027151117 0.19103143
0.0056030499 0.024381014 0.19130462
0.0076051094 0.019960521 0.19100907
0.0089237401 0.015205195 0.1914672
0.012733854 0.0062126755 0.19256642
0.00074833818 0.025855796 0.19000041
0.0017527221 0.023237396 0.18945971
0.014694572 -0.036412839 0.16075376
0.012590884 -0.036451552 0.15730843
0.010937149 -0.036510408 0.15477726
0.0064260634 -0.036343381 0.14985862
-0.034970544 0.034367178 0.13933742
0.00021571666 -0.03464875 0.13627705
-0.0016537774 -0.03414996 0.13178164
-0.035540618 0.031095278 0.13169417
-0.03483472 0.026481288 0.13093108
-0.034604479 0.022731852 0.13008907
-0.0088935886 -0.034577824 0.12639141
-0.005780871 -0.035142511 0.12706983
-0.035097845 0.031237312 0.12764585
-0.034212511 0.026489493 0.1261484
-0.033927359 0.021780748 0.12569809
-0.034825452 0.0176105 0.12557
-0.0083180089 -0.033361465 0.12180537
-0.006457922 -0.035282318 0.12297732
-0.034897372 0.024938241 0.12191314
-0.03457601 0.021313349 0.12115097
-0.0344426 0.017030898 0.1207332
-0.011273875 -0.031763073 0.11750877
-0.034496855 0.015970208 0.11654991
-0.034724671 0.011737923 0.1164133
-0.015678376 -0.031599477 0.11356103
-0.012698757 -0.032157466 0.11264533
-0.034670953 0.011057024 0.11245126
-0.034303613 0.0065174345 0.11187333
-0.034609687 0.0026114527 0.11230487
-0.017745461 -0.03110401 0.10925621
-0.014612903 -0.032782275 0.10915577
-0.034516405 0.0051485542 0.10714406
-0.034932189 0.0011896975 0.10767502
-0.022854371 -0.027188383 0.10555732
-0.0189905 -0.030368811 0.10492504
-0.035016574 0.00081869029 0.10329473
-0.034336615 -0.0090317465 0.10211331
-0.029262532 -0.019132419 0.10107684
-0.022879623 -0.026787568 0.10106188
-0.034370694 -0.010624765 0.098546565
-0.029468391 -0.01905378 0.097202957
-0.034322277 -0.011670733 0.093265593
-0.030808205 -0.018264376 0.093277633
0.0093352161 0.024144106 0.19302407
0.011289105 0.021078624 0.19325614
0.01317288 0.017357381 0.19355297
0.010584338 0.017675852 0.19164729
0.0025241347 -0.035633236 0.13281995
0.0018497808 -0.034951098 0.13017261
-0.03414074 0.03142247 0.123815
-0.03442391 0.028538551 0.12468404
-0.002981442 -0.03208638 0.11793298
-0.034831397 0.031353824 0.12034124
-0.035019662 0.027233828 0.12116665
-0.034638334 0.021712396 0.118559
-0.0087929834 -0.031919472 0.1158675
-0.034735389 0.030778451 0.11644745
-0.034804504 0.02715674 0.11637092
-0.034412578 0.022260612 0.1157254
-0.034303449 0.01800346 0.11394244
-0.009525992 -0.03222619 0.11198193
-0.034641385 0.021131322 0.11115718
-0.034851726 0.016528517 0.1106084
-0.034699604 0.012019449 0.10955113
-0.011810404 -0.03295486 0.10726541
-0.034957569 0.020537253 0.10712844
-0.034752224 0.017110681 0.10616547
-0.034786224 0.011562562 0.10548472
-0.03458675 0.0075936429 0.10568583
-0.017166909 -0.03182447 0.10273033
-0.014145715 -0.033281229 0.10297889
-0.03464555 0.010952082 0.10061175
-0.034621798 0.0065354817 0.10094374
-0.034607191 0.0019691763 0.10001248
-0.021926127 -0.027422 0.097974539
-0.019100472 -0.030705146 0.098807931
-0.015104454 -0.033223666 0.098629713
-0.034133568 0.0054888753 0.096266985
-0.034201052 0.0013278993 0.096034467
-0.026434386 -0.023830527 0.094250381
-0.023703512 -0.027146984 0.095156014
-0.020410858 -0.030553423 0.093962193
-0.034720786 0.00013948232 0.09200561
-0.034548141 -0.0083977263 0.091822743
-0.03003026 -0.019606547 0.091050208
-0.02473711 -0.027364435 0.089910626
-0.021856926 -0.030314457 0.089944363
-0.033351813 -0.014562519 0.086551607
-0.028354751 -0.022815179 0.085952997
-0.024981327 -0.027320608 0.086029947
0.00027108379 -0.032539554 0.11586362
-0.0028537046 -0.031917997 0.11383849
0.00028735958 -0.032874156 0.1124475
-0.034058902 0.033363409 0.11312246
-0.03412674 0.027717847 0.11278909
-0.005651203 -0.032867074 0.10999072
-0.0021164957 -0.034090277 0.10787612
-0.034600101 0.031857833 0.10860699
-0.034032356 0.028049929 0.10864532
-0.033877585 0.024042526 0.1090188
-0.0076912371 -0.033511467 0.10555488
-0.0047377581 -0.03408562 0.10365993
-0.036415614 0.031776011 0.10435843
-0.03551301 0.027714482 0.10372967
-0.034789622 0.022830397 0.10418725
-0.034878373 0.018109428 0.10366756
-0.0087223873 -0.033749312 0.10031176
-0.0060955212 -0.034514181 0.10068619
-0.035787273 0.026938535 0.10008448
-0.035177678 0.022496451 0.099327683
-0.034396492 0.01770132 0.099406362
-0.034111496 0.013775453 0.099690437
-0.011151954 -0.033377275 0.095882893
-0.033923127 0.017283861 0.095135689
-0.033477653 0.012770892 0.094519377
-0.033187933 0.0082902042 0.094588578
-0.033932399 0.0038947081 0.094513476
-0.017299617 -0.031520758 0.091697991
-0.014307589 -0.032121781 0.091736197
-0.033634853 0.0076532187 0.089533389
-0.033840783 0.00289289 0.090369284
-0.018642407 -0.030846113 0.087224424
-0.034083176 0.0060966145 0.085936069
-0.034112666 0.0025697276 0.084840178
-0.033404067 -0.0077753775 0.084328592
-0.02458963 -0.027080651 0.08365047
-0.020660654 -0.029927153 0.083567023
-0.034836121 0.001544809 0.081555605
-0.033239063 -0.0072935694 0.080425322
-0.029679731 -0.017890947 0.079419911
-0.024114786 -0.026731312 0.079130769
-0.021758907 -0.029324688 0.079109669
-0.033688229 -0.012544496 0.075694978
-0.027716577 -0.021720352 0.074536979
-0.02521426 -0.02583728 0.074925601
-0.034141216 -0.013267131 0.072194576
0.0024148822 -0.033446066 0.11464286
-0.031378131 0.036067881 0.11489707
0.00077503454 -0.034537151 0.11068541
-6.3371845e-05 -0.035916757 0.10691613
-0.0015392313 -0.035292495 0.10215336
-0.036528189 0.03101638 0.10160315
-0.004769831 -0.034974959 0.097458303
-0.036697619 0.031075753 0.099687278
-0.035416104 0.028219115 0.097139597
-0.03514985 0.023868127 0.096362472
-0.0078554414 -0.033191517 0.092498064
-0.0043355934 -0.033636831 0.093176305
-0.033867441 0.021897443 0.093924344
-0.033521276 0.018555015 0.092157423
-0.03391134 0.013890963 0.091935933
-0.0091559859 -0.031792901 0.087982476
-0.032260824 0.017586198 0.087766767
-0.033130765 0.012962351 0.088222206
-0.034398805 0.0094636064 0.087326109
-0.013532076 -0.031613018 0.084956467
-0.034218308 0.0082144979 0.083180726
-0.017241254 -0.030707505 0.080769956
-0.013686948 -0.031515591 0.07993114
-0.034227923 0.007293989 0.079588413
-0.03446706 0.0027597714 0.078570247
-0.019664226 -0.029731801 0.076139987
-0.016291225 -0.030642642 0.076470554
-0.033706475 0.0024206722 0.074327886
-0.034315117 -0.0058673345 0.073919594
-0.024373863 -0.026598029 0.072620928
-0.021253476 -0.028569784 0.071344376
-0.034306835 -0.0077954642 0.069694042
-0.031613164 -0.018136663 0.068703234
-0.025448114 -0.02475078 0.068487942
-0.022327594 -0.027388237 0.06769377
-0.033944074 -0.012416366 0.065099359
-0.028306676 -0.019859299 0.063916504
0.00064934418 -0.035811968 0.096323311
-0.0032573137 -0.034349948 0.091241479
-0.000380232 -0.035612047 0.090891898
-0.03375449 0.032987189 0.092047572
-0.033312205 0.029879663 0.090917826
-0.032504044 0.024886243 0.09097296
-0.032749124 0.02089126 0.089310527
-0.0040019648 -0.033330195 0.086750805
-0.0010435479 -0.0357657 0.087316871
-0.034326416 0.029484734 0.086184263
-0.033132914 0.024529655 0.086603642
-0.032580048 0.019716457 0.086218715
-0.03226487 0.015020882 0.085363746
-0.0094028218 -0.031737611 0.08303988
-0.006394594 -0.032792836 0.082689583
-0.036091026 0.028700612 0.082080245
-0.034314569 0.024345677 0.081339777
-0.033307642 0.019302107 0.081925154
-0.032392006 0.014529726 0.081920087
-0.011976301 -0.032151569 0.07885474
-0.0080026407 -0.034310985 0.076972365
-0.034634121 0.022605915 0.077902973
-0.034304358 0.018954821 0.076816916
-0.033461057 0.014084957 0.077228189
-0.033389039 0.0087338211 0.076532185
-0.033303529 0.0052341046 0.075339437
-0.013481904 -0.031844258 0.074040115
-0.0097971316 -0.035154417 0.073934615
-0.008803756 -0.038316924 0.074042857
-0.034979224 0.017280847 0.07336098
-0.034251373 0.013531718 0.07204777
-0.033886742 0.0089793541 0.072443306
-0.033424485 0.0040098522 0.072142541
-0.033456217 2.9683113e-05 0.070653915
-0.018856451 -0.02961586 0.068808198
-0.015259719 -0.030910924 0.069589257
-0.03458048 0.0081090098 0.067921519
-0.03361376 0.0037213638 0.0676952
-0.033232398 -0.0056412187 0.066502988
-0.024059623 -0.024859149 0.064676106
-0.020454431 -0.028705489 0.065402091
-0.016435634 -0.030941324 0.065630913
-0.03418503 0.0032501658 0.063570738
-0.033589806 -0.0067754355 0.062232614
-0.030206954 -0.017249707 0.061171412
-0.024632031 -0.024519073 0.061374366
-0.02154625 -0.028417759 0.061412454
-0.033772849 -0.0063634356 0.057483077
-0.031097101 -0.016276643 0.057754755
-0.024511129 -0.024310984 0.057046533
-0.022586608 -0.028026868 0.057657599
-0.033414215 -0.011645054 0.052997708
-0.029225264 -0.020078411 0.052841723
-0.033132762 -0.016372593 0.049071848
-0.0024691382 -0.0344401 0.083895266
-0.00068872701 -0.035543714 0.08393532
-0.0041341772 -0.034265451 0.080521584
-0.001923969 -0.036525995 0.081300914
-0.035992987 0.030139685 0.078980744
-0.0056537753 -0.034590676 0.07799381
-0.034880437 0.029769046 0.074712515
-0.034922861 0.024707427 0.075229704
-0.03473236 0.020975588 0.074267447
-0.0082783159 -0.033563051 0.06929034
-0.033352401 0.02367394 0.070452392
-0.033775359 0.019473707 0.070221126
-0.034382299 0.015925404 0.070167422
-0.011046876 -0.031871244 0.066723168
-0.0097558806 -0.033140112 0.066106617
-0.033602744 0.018367603 0.065801442
-0.033921726 0.014179409 0.066337407
-0.033739097 0.010483085 0.064560533
-0.014109581 -0.031483367 0.0622316
-0.033339176 0.0091810087 0.061303318
-0.034276452 0.0041895313 0.060559988
-0.0200413 -0.029725771 0.058282614
-0.016789805 -0.031141674 0.058299482
-0.033705935 0.0032457933 0.055768669
-0.024556438 -0.024212349 0.053908229
-0.020985872 -0.028419312 0.053845942
-0.017653117 -0.030428711 0.053508222
-0.034271091 -0.0059281313 0.051341176
-0.024975181 -0.024234222 0.050025344
-0.02257695 -0.027563762 0.049533844
-0.034216788 -0.011474975 0.046985805
-0.029006857 -0.020086253 0.045907021
-0.034427617 -0.0079563465 0.042164505
-0.032114998 -0.01599839 0.041603684
-0.034738109 0.030301085 0.07179302
-0.033917099 0.03001111 0.068130851
-0.033132393 0.026114751 0.068383753
-0.032621432 0.021452719 0.067375004
-0.034133244 0.029253712 0.064302206
-0.033266068 0.025762275 0.063810825
-0.033157822 0.02112207 0.064024091
-0.032530241 0.015379154 0.062668502
-0.0095895091 -0.032918591 0.060697734
-0.032651894 0.020548586 0.059773266
-0.032445837 0.015865695 0.059055626
-0.032537036 0.01016533 0.058150887
-0.011208711 -0.031618074 0.056308925
-0.0081470786 -0.032241818 0.056280136
-0.032703716 0.014548192 0.054956913
-0.032791682 0.01049522 0.054474831
-0.032738388 0.0066265846 0.054719746
-0.01440819 -0.031263679 0.051474273
-0.032521538 0.0096961679 0.050523937
-0.033281296 0.0048134765 0.050361335
-0.020016026 -0.028761771 0.047470033
-0.01661608 -0.030431392 0.047433436
-0.034132432 0.0033396855 0.045602977
-0.033989698 -0.0051052244 0.043124795
-0.021222081 -0.028155418 0.043386281
-0.017461557 -0.030040449 0.04373014
-0.03508281 0.0026848847 0.041741669
-0.034693465 -0.0058130571 0.040476143
-0.028089508 -0.020422526 0.039922595
-0.022590488 -0.027764089 0.038868845
-0.034892887 -0.0063125519 0.036262572
-0.031864226 -0.015654482 0.035973728
-0.026438754 -0.024265129 0.03524828
-0.0245676 -0.027103147 0.034589827
-0.032108057 -0.015576859 0.031861067
-0.0019474244 -0.032455731 0.062235713
-0.033095427 0.031224115 0.060539365
-0.03349125 0.027922485 0.061027527
-0.0025378512 -0.031910952 0.056206882
-0.033567436 0.029916432 0.058430493
-0.032374542 0.026224747 0.05712992
-0.031978223 0.021915805 0.056038439
-0.0076469127 -0.031945825 0.052653432
-0.031608533 0.021483861 0.052379191
-0.031681381 0.016787104 0.051719904
-0.010433932 -0.031044144 0.047100544
-0.0088674882 -0.032346413 0.050513089
-0.031754531 0.015405694 0.047623932
-0.031982638 0.011316942 0.046919703
-0.03234946 0.0072334912 0.046836376
-0.012371537 -0.030799586 0.044264376
-0.03169968 0.010196927 0.042646587
-0.032110374 0.0066584731 0.042548597
-0.015374694 -0.030016877 0.039967954
-0.033027783 0.0052255262 0.038113177
-0.019999083 -0.028964657 0.035799503
-0.016423207 -0.0300097 0.036504328
-0.034181803 0.0035241367 0.033284366
-0.03457522 0.00022245105 0.033177197
-0.02570742 -0.023832096 0.031320632
-0.02150025 -0.027971057 0.031761289
-0.033596866 -0.0051520979 0.028897285
-0.031525292 -0.01517687 0.028045475
-0.026065547 -0.023606092 0.02750051
-0.021694696 -0.026649337 0.027864575
-0.03152119 -0.014986469 0.023661017
-0.026362181 -0.023789903 0.023198187
-0.029951859 -0.018755853 0.020261943
0.0020563845 -0.032063004 0.059174657
0.0049809846 -0.032717276 0.05718863
-0.028341755 0.034077462 0.059743464
0.0023732129 -0.031819854 0.054639697
-0.031899106 0.030930039 0.054776728
-0.031537615 0.029221701 0.054972231
-0.0025613671 -0.03179951 0.051958263
-0.031931613 0.031212086 0.050464451
-0.031638414 0.027822934 0.050911844
-0.031008409 0.023303071 0.0498209
-0.0070045581 -0.031528965 0.046742857
-0.033359911 0.030920945 0.045217097
-0.032172166 0.027730603 0.045199454
-0.031363826 0.022458263 0.046055973
-0.030822866 0.018518304 0.046211064
-0.0070340196 -0.031414848 0.042462885
-0.034768354 0.030489985 0.042132318
-0.033215947 0.027486026 0.041780412
-0.032063283 0.021844694 0.041051328
-0.031629775 0.017071847 0.041352808
-0.031505376 0.012831094 0.041031957
-0.010269938 -0.030716581 0.038336575
-0.0078494353 -0.031555489 0.03669548
-0.032938644 0.020463962 0.037103117
-0.032846399 0.016612958 0.036248744
-0.032130782 0.011570705 0.036867619
-0.031732187 0.0080763064 0.036485553
-0.01332825 -0.030555805 0.034232676
-0.010689558 -0.031300321 0.032374859
-0.032882437 0.011027707 0.031451583
-0.033028256 0.0068195639 0.032484889
-0.015978374 -0.029922787 0.029669881
-0.033956088 0.0055510271 0.027376235
-0.033484712 0.00085871201 0.026813149
-0.020146068 -0.027459867 0.025059104
-0.016676359 -0.02956254 0.024164021
-0.034161236 0.0041252244 0.022258341
-0.033328064 0.00053442363 0.022189677
-0.031996578 -0.0091736289 0.021762431
-0.021507308 -0.027223218 0.020291686
-0.032108221 -0.0094596669 0.017033994
-0.029288514 -0.019533992 0.017154753
-0.023269553 -0.026652064 0.015444338
-0.031790733 -0.014830878 0.012116134
-0.027263198 -0.023099616 0.011365354
0.0094712619 -0.032767411 0.053884804
0.0057728612 -0.032290384 0.052235961
0.00034223497 -0.030571107 0.047304332
0.0026149862 -0.031547207 0.047994792
0.00031190086 -0.030491645 0.04409337
0.0014779326 -0.031883407 0.044665873
-0.032750741 0.03123741 0.044662178
-0.001764223 -0.031143295 0.039416969
-0.0011696108 -0.032704659 0.038319111
-0.034318611 0.03087515 0.039521694
-0.033089157 0.027374778 0.038698375
-0.032157592 0.023832867 0.03840667
-0.0031245006 -0.031506281 0.034094691
-0.00093344692 -0.032550707 0.03593725
-0.033343703 0.027384043 0.035437405
-0.032220282 0.023188623 0.034462154
-0.032647796 0.018989868 0.032977045
-0.0067081135 -0.03202799 0.030328929
-0.033356808 0.026238639 0.031441271
-0.031946741 0.02192048 0.030854166
-0.032118224 0.017563403 0.029718101
-0.032694723 0.013624354 0.029152691
-0.011127568 -0.031419441 0.026694357
-0.032083921 0.016559459 0.025995076
-0.03206813 0.01230257 0.024689972
-0.033271551 0.0081294738 0.023619175
-0.014958407 -0.030209154 0.022435248
-0.011499474 -0.031303313 0.022168875
-0.031934101 0.011611887 0.021511316
-0.032535952 0.0077288989 0.019868731
-0.015877586 -0.029703513 0.018224716
-0.012238869 -0.030860551 0.018261671
-0.03281156 0.0058004959 0.015628278
-0.032542162 0.0016853595 0.015935659
-0.018722996 -0.028833281 0.013702929
-0.033441905 0.00500808 0.011544645
-0.03252 0.00099263433 0.010685861
-0.032625411 -0.0081825592 0.011227846
-0.023016121 -0.026729196 0.009995997
-0.019668065 -0.027953941 0.0091539025
0.0096254172 -0.032624647 0.050529957
0.011863455 -0.033578776 0.0491243
0.0081510916 -0.032152049 0.046146691
0.011679143 -0.034489654 0.046288669
0.0051998706 -0.031622443 0.041776776
0.0036170986 -0.031967413 0.037032306
0.0013166834 -0.032204825 0.031936467
-0.0015457831 -0.032556582 0.027740538
-0.032496925 0.026898531 0.027303457
-0.031842865 0.024021123 0.027986169
-0.0044614812 -0.031703878 0.023241699
-0.0018482991 -0.032557357 0.023614168
-0.03185226 0.027449224 0.023350656
-0.032081693 0.023075204 0.022936404
-0.03223674 0.018519431 0.023357928
-0.0082678208 -0.031827901 0.019744694
-0.032768626 0.022348229 0.018266082
-0.032348339 0.01812363 0.018815339
-0.031736284 0.013092927 0.018092513
-0.010302174 -0.030957431 0.015635967
-0.032313175 0.017389555 0.01570648
-0.031838145 0.012664267 0.013651252
-0.032504667 0.008366406 0.014166415
-0.014988605 -0.029876763 0.011410117
-0.010755158 -0.030085312 0.011337221
-0.032669649 0.011512691 0.009485662
-0.032718692 0.0079207039 0.0093277097
-0.032906745 0.0026103891 0.0085235834
0.0097869132 -0.032368466 0.042826056
0.012940913 -0.03439489 0.042627633
0.0083790813 -0.03233894 0.039022684
0.012606373 -0.034569114 0.038421154
0.0077993991 -0.032902278 0.034745574
0.010693198 -0.034112219 0.034502149
0.0060268636 -0.032847993 0.030654728
0.008716289 -0.034277111 0.030073583
0.0028932132 -0.032687418 0.026494384
0.0011879057 -0.033192296 0.02140671
-0.029331822 0.029781779 0.019560158
-0.030204918 0.026515629 0.020114243
-0.0048167156 -0.031659458 0.0169366
-0.0024306513 -0.032609139 0.017508805
-0.030519238 0.025684524 0.016206086
-0.0058093853 -0.031319052 0.013227284
-0.031548806 0.022702668 0.011281431
-0.03112332 0.019389292 0.011298656
-0.031643264 0.015124775 0.011426389
-0.0080567561 -0.030322615 0.007558167
0.015362413 -0.035692099 0.038456142
0.012275357 -0.034866173 0.032961011
0.0077706873 -0.032718018 0.027086914
0.01038867 -0.034793921 0.026378572
0.0070720967 -0.032881368 0.023292959
0.0094517963 -0.033826739 0.022806227
0.0086255642 -0.034042038 0.019108713
0.0019041924 -0.032759227 0.015209138
-0.027461797 0.030147705 0.012419641
-0.029391244 0.027222587 0.014838457
0.00027552713 -0.031371843 0.0094575882
-0.028273541 0.029954592 0.0097926259
-0.029524008 0.02670344 0.01021719
0.018358449 -0.034411632 0.030386865
0.01214373 -0.034631569 0.020941257
0.013140704 -0.036127467 0.021694481
0.0086714728 -0.033013217 0.015460789
0.0080609247 -0.032868117 0.012943745
-0.02552487 0.030993354 0.012838244
0.0046654455 -0.031541973 0.0082146525
0.014869464 -0.033491638 0.015170515
0.012590093 -0.032294892 0.0077040792
