# .PCD v0.7 - Point Cloud Data file format
VERSION 0.7
FIELDS x y z
SIZE 4 4 4
TYPE F F F
COUNT 1 1 1
WIDTH 684
HEIGHT 1
VIEWPOINT 0 0 0 1 0 0 0
POINTS 684
DATA ascii
0.033505797 0.022670319 0.19139779
0.03311348 0.026903747 0.19143143
0.035148621 0.016352797 0.18841907
0.035964429 0.021415131 0.18820336
0.03552258 0.026419176 0.18754101
0.030471267 -0.025580017 0.1910269
0.030671 -0.018126881 0.1912097
0.030278146 -0.013152889 0.19169527
0.030435085 -0.0039010295 0.19102556
0.029807687 0.0064431089 0.19075626
0.030895889 0.016180994 0.19139671
0.030360758 0.021011448 0.19154429
0.030587731 0.026959257 0.19102216
0.029722212 0.030809583 0.19006836
0.032930315 -0.027285663 0.18718356
0.032492518 -0.024115404 0.18859869
0.033400118 -0.018657347 0.18894711
0.033648551 -0.0086215008 0.18869412
0.033184469 0.0013776119 0.18799534
0.034608841 0.010928305 0.18746683
0.035870314 0.014893772 0.1861172
0.035962701 0.020503582 0.1853438
0.034476161 0.028269632 0.18680659
0.034187496 0.030576224 0.18653184
0.03571099 -0.033575386 0.18418977
0.034329832 -0.02746241 0.18351895
0.034829736 -0.02445863 0.18426302
0.035609841 -0.018717801 0.18416217
0.034939528 -0.0090082865 0.18370625
0.034147799 0.00050635601 0.18251958
0.035505414 0.01100328 0.18216532
0.036328495 0.015771197 0.18213379
0.036162913 0.02115426 0.18181062
0.035285413 0.026543235 0.18103212
0.034543753 0.030399783 0.18040225
0.039251149 -0.033122722 0.18112102
0.035802245 -0.016801117 0.1794596
0.036389589 0.011486309 0.17747962
0.037063241 0.015583644 0.17713928
0.036760688 0.020521028 0.17692819
0.036146164 0.0253483 0.17615464
0.035081267 0.030535204 0.17647943
0.037648022 0.020372992 0.17292905
0.037823081 0.024660157 0.17176959
0.02362597 -0.012479066 0.19170511
0.02340883 -0.0039351853 0.19122028
0.023766577 0.0061717527 0.19102514
0.024255574 0.01195138 0.19181663
0.024916947 0.016301138 0.19222558
0.023524642 0.020944355 0.19117904
0.023575602 0.025594601 0.19101927
0.023445068 0.030548913 0.19055283
0.029522421 -0.031840317 0.19069135
0.027738692 -0.028565137 0.19074854
0.027548613 -0.02389252 0.19096008
0.027058959 -0.018987572 0.19149348
0.027820289 -0.013150926 0.19250247
0.026769876 0.00074344617 0.19128314
0.030040743 -0.032029316 0.18737927
0.031151177 -0.029026972 0.18818358
0.032814622 -0.032201119 0.18305331
0.033391178 -0.029402854 0.18330395
0.03513968 -0.023700913 0.18114245
0.034592271 -0.021412639 0.18069905
0.034366131 -0.0043994044 0.17986783
0.035364449 -0.0323136 0.17980197
0.033846259 -0.029004356 0.17754024
0.034678996 -0.024717992 0.17721611
0.035157681 -0.019480253 0.17714828
0.03454715 -0.0092134457 0.17650825
0.034213305 7.4958065e-05 0.17591947
0.035600126 0.009860253 0.175201
0.034771144 0.027906282 0.17424545
0.034684241 0.030993702 0.17388171
0.034134269 -0.024605183 0.17271063
0.034455717 -0.019311158 0.17193818
0.034412742 -0.0094920509 0.17090112
0.034557819 -0.00015810912 0.17062309
0.035498261 0.010726215 0.17080218
0.036920369 0.015355827 0.17062858
0.037288487 0.019596452 0.17024076
0.036316037 0.027761156 0.17065915
0.036391854 0.030852219 0.17058557
0.035699606 -0.0096186493 0.16804817
0.035579264 -0.0018457867 0.16765964
0.036467671 0.015253784 0.16756552
0.03671819 0.020085247 0.16621467
0.037127793 0.024291823 0.16631868
0.035878539 0.030131875 0.16621417
0.020305814 -0.027489334 0.19027805
0.021027388 -0.02275243 0.19052762
0.020051539 -0.01938764 0.19109669
0.019884109 -0.014371886 0.19151306
0.019575894 -0.008255397 0.19132525
0.019474387 0.00097723387 0.19173089
0.01889658 0.011162137 0.19147891
0.019001365 0.016391441 0.19223851
0.018909514 0.021063954 0.19198924
0.018643377 0.025709908 0.19072264
0.018874643 0.029325195 0.19010863
0.022920134 -0.02946434 0.19075391
0.021867396 -0.024314733 0.19019786
0.032626569 -0.031136172 0.17522505
0.032778442 -0.033030279 0.16984236
0.033486366 -0.029797686 0.17110485
0.034295559 -0.025440777 0.17034951
0.034805775 -0.020465238 0.16974542
0.034804881 -0.033165045 0.16653436
0.033837974 -0.030110827 0.16577131
0.034281313 -0.025389252 0.16587716
0.034348547 -0.020376658 0.16590834
0.035068631 -0.01521509 0.1656225
0.035114765 -0.0053073899 0.16510123
0.034367919 0.0048408764 0.16490319
0.034977674 0.015144354 0.16380066
0.035806 0.019007085 0.16326848
0.035619915 0.02522712 0.16289833
0.03475672 0.02940754 0.16308779
0.036460459 -0.03332857 0.16297916
0.034664869 -0.015412254 0.16200617
0.034565985 -0.005254433 0.16153851
0.033792853 0.011912612 0.16034341
0.034517884 0.015041748 0.16070378
0.035370588 0.019902097 0.15974718
0.035055995 0.024341149 0.15882686
0.033871651 0.02905686 0.15878361
0.034035623 0.032151099 0.1578362
0.012278617 -0.019715361 0.19238934
0.012309075 -0.014990616 0.19221213
0.0123564 0.0011527395 0.19203147
0.012956023 0.0054668435 0.19175687
0.012749254 0.010957492 0.19140434
0.01210463 0.016785339 0.19150692
0.012486338 0.020865511 0.19156852
0.011488914 0.025868155 0.19002393
0.010799586 0.02980148 0.18944368
0.015179993 -0.028683454 0.19054708
0.015663089 -0.024441388 0.19097379
0.015767038 -0.019975044 0.19195205
0.015142621 -0.014337464 0.19170541
0.015051663 -0.0090243844 0.1910643
0.015573978 -3.4583052e-05 0.19174203
0.015136778 0.010137123 0.19105589
0.014707266 0.025791489 0.19014776
0.0139997 0.029711261 0.18955559
0.017906846 -0.030791618 0.18893692
0.018789949 -0.026024036 0.18928462
0.033434093 -0.030480681 0.15990213
0.033344328 -0.025777088 0.1596567
0.033285022 -0.021072583 0.15943152
0.033775985 -0.015605485 0.15860772
0.033752501 -0.0054154866 0.15819058
0.032338321 0.003986984 0.15780807
0.033005595 0.014930366 0.15688628
0.033721805 0.018816067 0.1562773
0.033325493 0.028986325 0.15560997
0.033770204 0.03210739 0.1557864
0.032239914 -0.026069546 0.15516126
0.032413661 -0.021333707 0.15509254
0.032979369 -0.015724206 0.15444502
0.03300035 -0.0056199753 0.15392774
0.032311559 0.0037914268 0.15309191
0.032226861 0.014337188 0.15248555
0.033064246 0.019677637 0.15226993
0.033227563 0.024180746 0.15196812
0.032780468 0.029128661 0.15200952
0.033840835 0.032058202 0.15395856
0.034256577 0.033428285 0.14664149
0.0054250946 0.018179309 0.19220421
0.0054691425 0.020549409 0.19213188
0.0095545668 -0.032970011 0.19251812
0.0090635428 -0.029343836 0.19157979
0.010181666 -0.024518348 0.19224
0.0086479792 -0.019765887 0.19295788
0.0090821395 -0.013968494 0.19267219
0.0092979074 -0.0087402705 0.19174328
0.0084758401 -0.004210006 0.19151998
0.0080085397 0.005475611 0.19152519
0.0084875822 0.010216057 0.19161642
0.0080143204 0.015213963 0.19142982
0.0082854619 0.021656554 0.19147807
0.0077209463 0.025977027 0.19050071
0.0069929347 0.029899705 0.18897825
0.01161504 -0.033046573 0.19008467
0.012802423 -0.030367512 0.1900852
0.031156959 -0.030509258 0.15412918
0.031065347 -0.026214367 0.15323615
0.031490803 -0.021125792 0.15209472
0.031691015 -0.016197151 0.15099496
0.032763422 -0.0057614916 0.15093842
0.031982303 0.0036659925 0.15003735
0.032166779 0.013904305 0.14976224
0.032354593 0.017838662 0.14973614
0.031910479 0.028061735 0.14903349
0.030204298 -0.021676397 0.14981827
0.030192018 -0.018613962 0.14778692
0.032014549 -0.0059230593 0.14758641
0.031473279 0.0035356279 0.14684641
0.031051576 0.013791592 0.14615726
0.031855166 0.019286102 0.14554191
0.032452345 0.024013521 0.14576796
0.031824648 0.02874448 0.14515299
0.033398151 0.032363959 0.14482799
0.031215906 0.019160597 0.1412954
0.03131485 0.022323618 0.1412411
0.031521082 0.030224083 0.1410771
0.032556355 0.032575306 0.14170212
0.0037815585 -0.033392295 0.19336849
0.0021268141 -0.029166006 0.19294354
0.0021370659 -0.023955673 0.19199246
0.0025004754 -0.019955259 0.19204316
0.0025743253 -0.013821475 0.19244918
0.0017022494 -0.0088111069 0.19202754
0.0020855668 -0.0040266979 0.19205698
0.0017150638 0.0054952949 0.19143918
0.0021607275 0.010266561 0.19150689
0.0021476143 0.015026271 0.1913009
0.0010466566 0.020622645 0.19179577
0.0013032544 0.025806945 0.19127172
0.00035011634 0.030904938 0.18956545
0.0047451868 -0.033437286 0.1921002
0.0055554523 -0.029433906 0.19195899
0.0059863338 -0.024619855 0.19247901
0.0058856015 -0.0087772682 0.19176021
0.0045701847 0.029980984 0.18935987
0.027302327 -0.031275678 0.15012524
0.02744657 -0.030837027 0.14676875
0.028182091 -0.026460106 0.14695549
0.028677823 -0.022131929 0.14634091
0.029119611 -0.016011579 0.14585987
0.030387998 -0.0077035935 0.1436792
0.029942811 0.0081337551 0.14275619
0.029929996 0.012886112 0.14256248
0.030038118 0.016054129 0.14251381
0.028640987 -0.031641331 0.14340624
0.028024316 -0.016553095 0.1423943
0.029073834 -0.005904349 0.14155257
0.02945894 0.0032482981 0.13973689
0.029556513 0.012778279 0.13943452
0.029185593 0.017800873 0.13898242
0.029320834 0.023608329 0.13853151
0.029258011 0.02832018 0.1384334
0.029541252 0.031785198 0.13772959
0.029492795 0.0094928974 0.1366365
-0.0068417201 0.016789991 0.19237685
-0.006553174 0.01999037 0.19241223
-0.0069990167 0.023987994 0.19198254
-0.00092345366 -0.025260296 0.19161034
-0.0020623794 -0.020105451 0.19118002
-0.0021763437 -0.015266184 0.19183922
-0.0030685063 -0.0091020707 0.19259781
-0.003000438 -0.0040264968 0.19273502
-0.0043975716 0.0055211522 0.19150928
-0.0037164693 0.010324821 0.19171095
-0.0034664876 0.015115619 0.19165853
-0.0030758986 0.01993208 0.19261193
-0.0032105458 0.025655363 0.19192353
-0.0045186295 0.030274957 0.19040281
0.026185097 -0.030110488 0.14357695
0.026800634 -0.028471394 0.14393568
0.026305618 -0.030332332 0.13981807
0.026072742 -0.027335504 0.13978076
0.026251199 -0.02234135 0.1394684
0.026600897 -0.017578704 0.13856292
0.026327372 -0.012547347 0.13785654
0.027581513 -0.0024183549 0.13769317
0.0275898 -0.030528469 0.13588965
0.025493741 -0.012182436 0.13468552
0.026855826 -0.0014434799 0.1344457
0.028182209 0.0075944453 0.13362193
0.027493954 0.01278804 0.13262844
0.026922226 0.017364739 0.1326037
0.02706909 0.022738403 0.13267511
0.027016399 0.028093642 0.13280928
0.027157305 0.031747881 0.13318121
-0.011744975 -0.018412091 0.19656193
-0.011662066 0.005755167 0.1965189
-0.010980607 0.010965797 0.19623074
-0.010792912 0.015361282 0.19569087
-0.011902393 0.020170026 0.19484425
-0.011379183 0.023379005 0.19501266
-0.0088133207 -0.02444597 0.19454169
-0.0094063869 -0.020100053 0.19427755
-0.0099676242 -0.015560366 0.19322732
-0.0094426274 -0.010049196 0.19277245
-0.009183526 -0.0045978953 0.19282928
-0.0090942979 0.0056158896 0.19338143
-0.0081874728 0.010441575 0.19370919
-0.0084666023 0.015052922 0.19358379
-0.0094356546 0.020079695 0.1935015
-0.0099133858 0.024870742 0.19240183
-0.0099706659 0.028014068 0.19006684
-0.0056702485 -0.024966449 0.19203052
-0.0065336218 -0.020199448 0.19132045
-0.0060356851 -0.015733603 0.1918928
-0.0058247442 -0.011289828 0.19229591
0.024882736 -0.025738606 0.13672179
0.024357976 -0.027790638 0.1327939
0.02442676 -0.022775041 0.13240528
0.024933875 -0.017924832 0.13257313
0.02501905 -0.012349448 0.13144726
0.025582671 -0.0023202326 0.13097042
0.024943111 0.027704483 0.12887949
0.025311885 0.030101443 0.12904638
0.025190949 0.0031617966 0.12756228
0.024450421 0.012368512 0.12619722
0.024590254 0.017189575 0.12611145
0.025059639 0.022007091 0.12625891
0.023416458 0.026446598 0.12541592
-0.016456485 -0.0097516878 0.1934624
-0.015957534 0.0008209825 0.19424015
-0.012795865 -0.014534191 0.19392619
-0.01370877 -0.010539015 0.19322598
-0.013632655 -4.5821667e-05 0.19282877
0.021637501 -0.031136224 0.12882116
0.023058178 -0.026192637 0.1296294
0.020753684 -0.031318106 0.12624449
0.020542862 -0.028092109 0.12597173
0.020567181 -0.02322913 0.12580216
0.020930409 -0.017970916 0.12536478
0.021349907 -0.013525019 0.12499928
0.021680951 -0.0025271391 0.12461495
0.022382677 0.0073922398 0.12198466
0.02232945 0.012236767 0.1217615
0.022733331 0.017081236 0.12186342
0.023062764 0.021919182 0.1219126
0.020737765 0.026810091 0.12138349
0.020826159 0.030081734 0.12295491
0.020837605 -0.0088340929 0.12150663
0.020499289 0.0024978938 0.12083262
0.022050738 0.012162582 0.11959827
0.021796525 0.017010784 0.1192317
0.021596787 0.021860844 0.11890405
0.020696281 0.025099263 0.11813766
0.01866466 -0.032400921 0.12283957
0.019007267 -0.028311361 0.12292552
0.019667806 -0.023393869 0.12320489
0.019811869 -0.019327197 0.12315106
0.019284787 -0.032786481 0.12065923
0.017804684 -0.02850832 0.12010241
0.018398823 -0.023609802 0.11984199
0.019025087 -0.018505692 0.11917305
0.019370854 -0.013867958 0.11867619
0.020006776 -0.0092219925 0.11838907
0.020159662 0.0023667263 0.11763233
0.021391511 0.012082973 0.11715668
0.021264613 0.016941864 0.11688071
0.020790933 0.02180111 0.11635625
0.018551765 0.027191408 0.11624283
0.017238377 0.030861482 0.11742896
0.019981802 -0.0091525922 0.11497134
0.019286573 -0.00022135218 0.11413181
0.019098401 0.0079139294 0.11368728
0.019860566 0.012381089 0.11356896
0.02042681 0.016837083 0.11331117
0.020465432 0.021890007 0.11240149
0.019425271 0.026269533 0.11243033
0.018314002 0.032292791 0.11120278
0.016107084 -0.032073285 0.11604822
0.016392233 -0.028754234 0.11655033
0.016778709 -0.023859303 0.11601502
0.018281639 -0.019729838 0.11613965
0.016145764 0.030799158 0.11367863
0.015732648 -0.032280143 0.11279351
0.015532018 -0.029012702 0.11252499
0.016071739 -0.023774564 0.1119141
0.017202973 -0.019185189 0.11135548
0.018153489 -0.014226477 0.11185318
0.018416286 -0.0093604578 0.11086202
0.017683804 0.0010641561 0.11068523
0.01815331 0.011529521 0.10968059
0.018521607 0.016726248 0.10895324
0.019151688 0.019989796 0.10928655
0.018336294 0.026934106 0.10893112
0.018346427 0.030893363 0.10961914
0.0174734 -0.018560663 0.1075241
0.017819464 -0.014494105 0.10661906
0.018827021 -0.0093642278 0.10640752
0.017595708 0.00067997427 0.10638505
0.018043816 0.011078604 0.10463178
0.018145144 0.016590089 0.10468072
0.018908797 0.021495771 0.10505432
0.018314717 0.026399471 0.10443562
0.018215058 0.031301692 0.10417819
0.019412635 0.034497954 0.10293025
0.018912971 0.010727958 0.10144627
0.018741727 0.016459506 0.10110527
0.019492624 0.021875646 0.10011297
0.019209085 0.02628018 0.10108101
0.018862961 0.031585936 0.10012406
0.01963043 0.03444596 0.10108501
0.014483692 -0.034137983 0.10996026
0.015298725 -0.02920403 0.10935789
0.016227188 -0.02465323 0.10935676
0.013767185 -0.032665897 0.10737544
0.014312685 -0.029448204 0.10563505
0.015828671 -0.024122212 0.10573167
0.01711005 -0.019773055 0.1047188
0.018300176 -0.014621831 0.10396057
0.018637002 -0.011324144 0.10408354
0.017799377 -0.00016674322 0.10385442
0.015200675 -0.024669826 0.10206538
0.016147137 -0.019775227 0.10055435
0.01745069 -0.014816097 0.10031652
0.018382072 -0.0098754866 0.10006028
0.018654704 -1.9363244e-05 0.09964174
0.019320428 0.0098033668 0.098757386
0.019044816 0.015192908 0.098496139
0.019224584 0.019622985 0.097815096
0.018929897 0.026196517 0.097856164
0.018658875 0.030782044 0.097281873
0.017971754 -0.010073238 0.09596926
0.018986523 0.0002101072 0.095326722
0.018862426 0.0096460553 0.094375372
0.018897772 0.01454473 0.093204141
0.018936098 0.020412106 0.093691587
0.018579481 0.025252424 0.093245745
0.01914501 0.030978076 0.092780173
0.016685126 0.032711305 0.092910171
0.013340177 -0.03336858 0.10507435
0.014284254 -0.029566947 0.10360032
0.014227749 -0.026269514 0.1034348
0.014045479 -0.033129521 0.099506438
0.014629425 -0.029778395 0.09981066
0.014910401 -0.024814904 0.09957844
0.015750825 -0.019904703 0.098240733
0.015131355 -0.029607076 0.09436518
0.015798451 -0.025082778 0.0944013
0.016238987 -0.02009175 0.094543815
0.017007291 -0.015092379 0.094929516
0.017790973 -0.010201947 0.093298674
0.017862141 -0.0011234462 0.093014538
0.017271278 0.027712055 0.091501355
0.015893163 -0.028621253 0.090520382
0.01641679 -0.024440285 0.090758204
0.016932487 -0.019786946 0.089609206
0.017423928 -0.015378608 0.089132965
0.017916918 -0.010390448 0.089319766
0.018226087 -0.0004607692 0.089185059
0.018397927 0.0094505185 0.088947833
0.018153787 0.014363204 0.087562382
0.018124878 0.019133687 0.088128865
0.017603634 0.024496559 0.087537885
0.016607581 0.029045127 0.0866189
0.017233847 0.03252605 0.086196423
0.018060744 -0.014722674 0.085493028
0.018568158 -0.010263865 0.084892809
0.018539727 -0.00012967095 0.083951056
0.019396126 0.0092393318 0.083573401
0.019403279 0.014198483 0.083396971
0.018956363 0.01915507 0.082874358
0.018521128 0.024114754 0.082360566
0.018054424 0.029292043 0.082072377
0.018535433 0.032403819 0.083093286
0.019935727 0.0041278349 0.080064237
0.02054143 0.0092466222 0.07853967
0.020766675 0.013999336 0.07828182
0.020391822 0.018970869 0.078069508
0.019958971 0.023709744 0.077895224
0.019483028 0.030581631 0.07771945
0.021595776 0.015522481 0.074741006
0.014373959 -0.031810634 0.093592763
0.014114142 -0.030289643 0.08650589
0.015499056 -0.02571227 0.087479532
0.01623744 -0.021594647 0.087103009
0.01431495 -0.029083136 0.083179772
0.014982463 -0.025415521 0.082725286
0.016279697 -0.020740118 0.082301021
0.017969966 -0.015926339 0.082824528
0.018149793 -0.01116092 0.081831157
0.018278062 -0.0018823455 0.081760347
0.017852603 0.02737084 0.079676747
0.017024696 -0.02062441 0.077907145
0.01787132 -0.016170807 0.077410579
0.017736673 -0.010764814 0.077109754
0.018909752 -0.0011800743 0.077146173
0.020900369 0.0073024118 0.076567233
0.020393431 0.018897071 0.075753272
0.020246921 0.024695981 0.075429022
0.018693326 0.028426398 0.075863481
0.019304574 0.0038344162 0.072556317
0.019795358 0.0088094072 0.072103858
0.020521641 0.013567247 0.071644545
0.020373106 0.018765554 0.071600258
0.020209668 0.023747735 0.071292102
0.018398045 0.02877333 0.070739627
0.02031213 0.013638848 0.06758076
0.020234048 0.018633202 0.067339361
0.019985316 0.022794735 0.06699425
0.012052001 -0.032344084 0.085716605
0.013703764 -0.031202286 0.081553042
0.015081049 -0.026315268 0.080043435
0.014924229 -0.030574188 0.077783644
0.016387763 -0.026014004 0.077407241
0.017272472 -0.021081507 0.075487733
0.017585218 -0.014425996 0.074795008
0.017107546 -0.012780423 0.074365795
0.016436936 -0.030485362 0.072407842
0.017266216 -0.026244931 0.072897136
0.017849149 -0.021464817 0.07258153
0.018120587 -0.016223092 0.072156429
0.017926693 -0.011223405 0.071824372
0.01843822 -0.0020724137 0.070849419
0.019198656 0.010367204 0.06891042
0.018383386 -0.030707423 0.067664802
0.018893959 -0.026484884 0.067914009
0.019060912 -0.021454126 0.067863405
0.019515097 -0.016412664 0.068037689
0.019738376 -0.011390134 0.068032324
0.019685805 -0.001387057 0.067369878
0.019528329 0.0083688209 0.066559017
0.019962013 0.013563749 0.065220952
0.019936979 0.01856602 0.065021336
0.019258438 0.02400139 0.064814031
0.017645 0.028645199 0.064945161
0.016921697 0.031993851 0.064255476
0.01940638 -0.030036807 0.064253509
0.020664753 -0.02649273 0.063285291
0.02095473 -0.021673605 0.063080549
0.020899475 -0.016655602 0.062856972
0.021068573 -0.011628433 0.0628106
0.021182358 -0.0015941625 0.062542021
0.021178484 0.0084248791 0.06218034
0.021353781 0.013434243 0.062140286
0.021340013 0.018437831 0.061950743
0.020466922 0.023443174 0.061078429
0.019073067 0.027985603 0.059809625
0.018081127 0.031820506 0.058886051
0.022315146 -0.021330414 0.058543205
0.022908032 -0.016866187 0.058157504
0.023028612 -0.011838629 0.058076084
0.022752643 -0.0018115257 0.057498515
0.022447228 0.0082144784 0.056897283
0.022368252 0.013228361 0.056655645
0.022348106 0.018241545 0.056461394
0.022139369 0.023253294 0.056116283
0.021682499 0.029259836 0.055114627
0.022290109 0.03160084 0.055941463
0.024338603 -0.017093183 0.053286016
0.024915636 -0.012052554 0.053273916
0.024553359 -0.0022200334 0.052897215
0.024492264 0.0080167847 0.052222848
0.024272144 0.013031405 0.051867247
0.024491608 0.01804881 0.051869273
0.024060247 0.023063222 0.051342189
0.022518693 0.029793682 0.050912976
0.023618517 0.031450655 0.051745296
0.025805414 -0.01556554 0.049886048
0.026125073 -0.013035304 0.050058484
0.025232971 -0.0030166905 0.04897809
0.026807725 0.0078241946 0.047765672
0.026039004 0.01283249 0.046960175
0.026841402 0.017856924 0.047442138
0.026258824 0.022872066 0.046788871
0.028608084 0.0083221393 0.043707073
0.028756976 0.012635735 0.042563498
0.02874577 0.01766325 0.042644858
0.028211175 0.022680989 0.042027235
0.029836416 0.017533073 0.039293408
0.029616712 0.022553099 0.038936496
0.033891261 0.030619284 0.032632351
0.034790397 0.030527281 0.03018254
0.012278738 -0.033062004 0.073462069
0.013143422 -0.033244267 0.069952428
0.018390896 -0.031263091 0.060966194
0.019691112 -0.028577458 0.060219049
0.017452953 0.030155163 0.058447123
0.017080424 0.032394361 0.058071434
0.018363358 -0.030533943 0.056056678
0.020352663 -0.026863988 0.056726575
0.021661701 -0.023159245 0.055972993
0.019776104 0.027045965 0.054613411
0.021900954 -0.026495075 0.051338077
0.022740664 -0.022236312 0.051868439
0.023721218 -0.017194292 0.051426411
0.024169505 -0.00044682517 0.050141811
0.022093235 0.027609678 0.049283445
0.023139713 0.031379163 0.048184097
0.023379209 -0.026893048 0.04659456
0.024163248 -0.022486405 0.046657026
0.025201023 -0.017605526 0.047071278
0.025859058 -0.012100204 0.047076464
0.025656223 -0.0020407501 0.04655838
0.025430083 0.012825844 0.046460748
0.024084864 0.027908141 0.044829547
0.024209617 0.031918332 0.044365585
0.023750843 -0.025997153 0.044306099
0.024695398 -0.021836737 0.042800844
0.026673377 -0.017400255 0.042411327
0.027697384 -0.012528698 0.042824447
0.027163982 -0.0024752642 0.042033017
0.027764082 0.0067274137 0.041144073
0.027011812 0.012697701 0.043512285
0.025778471 0.027722562 0.039835691
0.025564669 0.031080751 0.039543092
0.02781707 -0.017269151 0.037736952
0.029841006 -0.012732304 0.038202107
0.028681755 -0.0026962634 0.036884487
0.029440165 0.0073996014 0.037172556
0.029576182 0.017429849 0.035870075
0.029587267 0.022459259 0.035706222
0.028203068 0.027528448 0.035442114
0.028815864 0.030875714 0.035840809
0.029655397 -0.016875742 0.033893526
0.030833423 -0.012940037 0.033677697
0.02985543 -0.0028836899 0.032506168
0.030493557 0.0071912608 0.031893432
0.030606627 0.017264878 0.031375587
0.030604003 0.022301024 0.031201005
0.030600725 0.027335005 0.031027496
0.030658899 0.030743754 0.033108175
0.030399084 -0.01311491 0.030081153
0.030903578 0.0078720869 0.027634978
0.031725705 0.017099431 0.026943743
0.031263292 0.02214334 0.026376903
0.031848013 0.028310994 0.027026951
0.033331394 0.030494036 0.026784062
0.032722056 0.01700191 0.024556875
0.031870902 0.022047291 0.023654699
0.032097936 0.028775858 0.023622394
0.016535582 -0.032355353 0.054657519
0.017931702 -0.031546585 0.050431848
0.019015135 -0.029102001 0.051220477
0.020374121 -0.031712025 0.046442449
0.021394076 -0.02929605 0.046762764
0.022275211 -0.031165915 0.04327184
0.023756327 -0.028078133 0.041629553
0.024602296 -0.023192035 0.041164458
0.024920525 -0.02808038 0.036762655
0.025750341 -0.022955043 0.03727895
0.026343644 -0.019598218 0.036583543
0.026629152 -0.028322009 0.031730354
0.027635219 -0.023180278 0.032403469
0.028440833 -0.019100273 0.032512367
0.029886486 -0.028228594 0.02826637
0.029465916 -0.02340859 0.027471721
0.030154109 -0.018296404 0.02788496
0.03056246 -0.013261403 0.026979864
0.029793143 -0.0031149839 0.027060926
0.030479252 0.0058442927 0.025899053
0.029676018 0.026068361 0.024525821
0.03102869 -0.028035009 0.022882342
0.030586781 -0.023407189 0.022532046
0.030864775 -0.01858406 0.021986723
0.031124532 -0.01349268 0.022038639
0.03068912 -0.0033600298 0.021322191
0.031945884 0.0068099513 0.022063434
0.032194793 0.016910048 0.021316707
0.031566262 0.021967115 0.020603716
0.030617295 0.026566958 0.020250201
0.030171631 0.029585639 0.019764721
0.031555593 -0.013148508 0.017308712
0.031666458 -0.0018176273 0.017754197
0.033009708 0.0065893992 0.016456485
0.032730281 0.016725494 0.015873015
0.0323686 0.021589806 0.015667975
0.031412065 0.025193239 0.014988542
0.033228993 0.011512237 0.012106836
0.033016801 0.015742155 0.011779726
0.032568932 0.02081904 0.011217594
0.032634676 0.023358321 0.011190891
0.030618312 -0.02718932 0.019882143
0.030374588 -0.024659591 0.019586027
0.028813185 -0.028040407 0.015421808
0.0298602 -0.024018189 0.015832007
0.030860364 -0.018858796 0.01652956
0.030841291 -0.014349035 0.015997112
0.030307233 -0.0039529228 0.015329659
0.030573426 0.026876537 0.013654292
0.027266799 0.028633798 0.01181227
0.029892923 -0.023792876 0.012004972
0.030741572 -0.018914206 0.011208057
0.030900717 -0.014023847 0.010909677
0.029994547 -0.0033478369 0.010074556
0.032845855 0.0059386804 0.01030767
0.032851219 0.015670536 0.0094400644
0.032061279 0.019499002 0.0091664791
0.030132232 0.025349719 0.008926332
0.026401939 -0.030223561 0.013031781
0.027507128 -0.028679123 0.0095247626
0.029981555 -0.024712635 0.009134531
0.030638158 -0.020963045 0.0087047219
0.029778421 -0.0056060129 0.0085424781
0.023837151 -0.031453393 0.0075106025
