# .PCD v0.7 - Point Cloud Data file format
VERSION 0.7
FIELDS x y z
SIZE 4 4 4
TYPE F F F
COUNT 1 1 1
WIDTH 710
HEIGHT 1
VIEWPOINT 0 0 0 1 0 0 0
POINTS 710
DATA ascii
-0.034522057 -0.011943545 0.19246921
-0.033876121 -0.015370898 0.19147557
-0.037509501 0.017086457 0.18784866
-0.037025869 0.0085688196 0.1890083
-0.036631763 -0.0016354886 0.18886128
-0.038174808 -0.011421312 0.18982226
-0.036221445 -0.015487749 0.18852594
-0.038341582 0.01790788 0.18659744
-0.038273394 0.0091008805 0.18574399
-0.037929833 -0.0024045394 0.18505949
-0.038910747 -0.011192076 0.1839681
-0.027171612 -0.016283765 0.19270578
-0.030463755 0.018363729 0.19072726
-0.03068608 0.012854364 0.19136652
-0.031002641 0.0040423847 0.19206426
-0.030638456 -0.0065074549 0.19189036
-0.031327367 -0.016421776 0.19216973
-0.029773355 -0.020798143 0.19050902
-0.028436959 -0.023883827 0.18955278
-0.033591986 0.03806119 0.18803906
-0.032632411 0.032903612 0.18843776
-0.032894552 0.0287797 0.18813187
-0.033606112 0.024065219 0.1889348
-0.034032285 0.018695485 0.18906865
-0.033903778 0.0085223932 0.19066167
-0.034180045 5.2960182e-05 0.19048917
-0.034559965 -0.017508838 0.18699458
-0.032281458 -0.020436648 0.18687814
-0.034320533 0.03812021 0.18668115
-0.035564423 0.033433855 0.18429914
-0.035671771 0.028914765 0.18443355
-0.03693217 0.024214379 0.18479821
-0.037308872 0.019084379 0.18432069
-0.038112938 0.0085370466 0.18316555
-0.038014352 -0.00058986852 0.1831435
-0.035999596 -0.015954264 0.1816889
-0.033535302 -0.019404862 0.18172401
-0.036904395 0.028626282 0.1800355
-0.037412405 0.024509691 0.17949969
-0.037580013 0.01883018 0.17946637
-0.038168311 0.0090580024 0.17884362
-0.038142264 -0.00096186483 0.17842498
-0.038701117 -0.010982338 0.17838344
-0.036673069 -0.015397009 0.1771237
-0.038946688 0.0044566407 0.17389768
-0.039200962 -0.0055852798 0.17326584
-0.037853122 -0.013917837 0.17405561
-0.040184617 -0.0044816886 0.17044652
-0.023341596 0.012492701 0.19153062
-0.02367419 0.0039261053 0.1913833
-0.024115384 -0.0066609518 0.19158414
-0.024637878 -0.011651997 0.19224557
-0.023539782 -0.016355701 0.19319266
-0.023566723 -0.020974465 0.19211283
-0.023286104 -0.025196359 0.19040239
-0.022270381 -0.030235395 0.18911508
-0.02640605 0.032072987 0.1887584
-0.027735531 0.028450578 0.18989548
-0.028037488 0.024135359 0.19036272
-0.02688998 0.018372979 0.19058484
-0.02724725 0.013589233 0.19171256
-0.027184486 0.0023403277 0.19166595
-0.026976645 -0.0046184813 0.19125199
-0.025734425 -0.025639616 0.18780273
-0.023587465 -0.029367317 0.18723002
-0.031851709 0.036657009 0.18688381
-0.030544162 0.033542342 0.18775913
-0.030386806 0.02879113 0.18928733
-0.030889273 -0.022104945 0.18388841
-0.027168512 -0.025067791 0.18377224
-0.025734186 -0.029940877 0.18215007
-0.032131314 0.03761759 0.18390125
-0.032958865 0.035136044 0.18569732
-0.031471848 -0.0213346 0.1795401
-0.028856456 -0.023572646 0.17980027
-0.033470213 0.037539739 0.17833084
-0.03534615 0.033981793 0.17801869
-0.035604894 0.029604893 0.1773988
-0.03665024 0.024696238 0.17665601
-0.036661267 0.02004889 0.17647684
-0.036878109 0.015392348 0.17643094
-0.035796463 -0.017055452 0.17442772
-0.032308698 -0.020371728 0.17424136
-0.035097778 0.033514924 0.17323375
-0.035637975 0.029642183 0.17250687
-0.03643173 0.02492439 0.17283785
-0.036279023 0.01949982 0.17252159
-0.038023353 0.0093812756 0.17233938
-0.03751725 -0.010687515 0.17028558
-0.03618294 -0.015568908 0.17082721
-0.033691466 -0.019104417 0.1696566
-0.036256552 0.028264817 0.16915739
-0.036163688 0.02515712 0.16897249
-0.036757767 0.019322362 0.16769016
-0.037403166 0.0096245594 0.16755071
-0.038679719 8.0152888e-05 0.16725749
-0.036652923 -0.010349076 0.16626081
-0.035609722 -0.015248764 0.16699964
-0.037738502 0.0043585277 0.16362149
-0.037483215 -0.0041876421 0.16311309
-0.015233099 -0.021154303 0.19248602
-0.015743494 -0.028960481 0.19247183
-0.02020514 0.018110964 0.18983066
-0.019870698 0.014123462 0.19129115
-0.020012379 0.0090191998 0.19162381
-0.019746244 -0.00074435794 0.19151521
-0.019489348 -0.012096401 0.19225737
-0.01887244 -0.016422264 0.19306734
-0.018561482 -0.021093749 0.19268525
-0.018395185 -0.025711201 0.19057328
-0.019161165 -0.029099911 0.1898084
-0.023395658 0.033775128 0.18832737
-0.023048222 0.029330112 0.18948632
-0.022700369 0.024315558 0.18979549
-0.022349358 0.02013975 0.19001856
-0.023426533 -0.030071329 0.1843614
-0.026949346 0.035261281 0.18739983
-0.026527345 -0.025997218 0.1809777
-0.025233567 -0.029946867 0.18183455
-0.026939392 -0.02554512 0.17732063
-0.025681317 -0.02979017 0.17661065
-0.031811655 0.038755368 0.17869449
-0.027910113 -0.0249377 0.17269585
-0.026258886 -0.029657058 0.17236918
-0.03340596 0.037426353 0.17413673
-0.033982217 0.035112139 0.17090118
-0.032728136 -0.02117439 0.16811046
-0.029689074 -0.024092011 0.16832656
-0.036873877 0.038459372 0.16811383
-0.035919249 0.034639653 0.16733006
-0.03579551 0.030177601 0.16683885
-0.036502421 0.025296647 0.16641623
-0.036816716 0.021139205 0.16615081
-0.035958946 -0.012009215 0.1636475
-0.034763455 -0.015143432 0.1636585
-0.033550918 -0.019655589 0.16383764
-0.031030476 -0.023023304 0.16366899
-0.037622988 0.037859913 0.16486907
-0.036166012 0.03441371 0.16251376
-0.03637737 0.030266188 0.16186768
-0.036688685 0.025555246 0.1618906
-0.037029684 0.020526838 0.16210809
-0.037379503 0.0099118575 0.16173685
-0.037053287 0.00061443402 0.16021901
-0.036458969 -0.010319967 0.16032219
-0.035277545 -0.014796678 0.15958634
-0.033752263 -0.018128023 0.15913513
-0.037188828 0.024174828 0.15843111
-0.037212789 0.020680159 0.15784109
-0.03736943 0.010142874 0.1570639
-0.037274897 0.00077236397 0.15663186
-0.037297666 -0.0095460825 0.15513378
-0.011556983 0.0032171418 0.19126937
-0.012410581 -0.005080713 0.19190165
-0.011814237 -0.010637365 0.19163841
-0.012227952 -0.016297664 0.19224313
-0.012022316 -0.020990383 0.19238275
-0.011910558 -0.025892939 0.19119561
-0.010710657 -0.029068656 0.19125423
-0.015025675 0.024588674 0.18875048
-0.01540184 0.019559603 0.19038346
-0.014544785 0.01474575 0.19111454
-0.014895737 0.0084038768 0.19094411
-0.015588582 -0.00074906665 0.19171858
-0.015612662 -0.010144424 0.19134489
-0.015670121 -0.027347155 0.19066888
-0.019733846 0.033908967 0.18835518
-0.015880525 0.027788565 0.18756601
-0.017207861 0.024557445 0.18825042
-0.018536091 0.021336801 0.1889357
-0.026077926 -0.029583257 0.16947454
-0.027941048 -0.025775198 0.1658783
-0.026318669 -0.029479116 0.16591179
-0.03137964 -0.021342508 0.16023201
-0.028597474 -0.025038414 0.16171542
-0.027134359 -0.029126283 0.16108906
-0.035664856 0.036138285 0.16037458
-0.034292996 -0.016472511 0.15675402
-0.032152593 -0.020096414 0.15678033
-0.029182196 -0.023262903 0.1572856
-0.029264331 -0.028552335 0.15446544
-0.035725176 0.034900799 0.15624887
-0.035735726 0.030654769 0.15582073
-0.03586781 0.026146505 0.15549815
-0.036212087 0.021586049 0.15466002
-0.036814094 0.015790731 0.15409002
-0.03649205 0.0055980938 0.15394211
-0.036572039 -0.0029957336 0.15318981
-0.034513354 -0.014984 0.15266451
-0.032187045 -0.019032568 0.15173456
-0.035781503 0.035156474 0.15099329
-0.035440624 0.030963168 0.15091145
-0.035904646 0.026263844 0.15009835
-0.035733163 0.021552686 0.14979696
-0.036066592 0.016028233 0.14981046
-0.036394775 0.0058001685 0.1496374
-0.036747217 -0.0036261999 0.14951169
-0.03499198 -0.014583878 0.1478802
-0.036869109 0.026052419 0.14648724
-0.036925673 0.021743201 0.14588401
-0.036389947 0.016209528 0.14624864
-0.036286294 0.0056094839 0.14529029
-0.037967503 -0.0034211171 0.14468122
-0.036764801 -0.013612993 0.14345071
-0.038857341 -0.0079641752 0.14037156
-0.0058930516 -0.016600862 0.19254971
-0.0058208103 -0.021748792 0.19275251
-0.005182683 -0.026342053 0.19303289
-0.0057687755 -0.029280119 0.19378278
-0.0085419416 0.023882505 0.19029951
-0.0099675059 0.019424312 0.19143879
-0.0096281767 0.014285043 0.1914812
-0.0092252493 0.008777244 0.19100952
-0.0083183646 0.0042299312 0.19172096
-0.0082567334 -0.0058034118 0.19184479
-0.0078202486 -0.010241937 0.19213143
-0.0081564784 -0.014973599 0.1921367
-0.0091823936 -0.022849016 0.19242534
-0.0080597401 -0.02600228 0.19162029
-0.0077197547 -0.029154256 0.19128519
-0.011087716 0.028983299 0.18775126
-0.01202178 0.024616778 0.18967864
-0.01266849 0.021370552 0.19085732
-0.013373315 0.033488091 0.18625683
-0.014715075 0.030233312 0.18694904
-0.026276886 -0.030847482 0.1583434
-0.028558195 -0.024925437 0.15539169
-0.028270781 -0.029147975 0.15597442
-0.031195402 -0.021013997 0.14976853
-0.029044867 -0.024238255 0.15039217
-0.030007541 -0.029124476 0.14982665
-0.035365462 0.034743667 0.14942721
-0.035836041 0.0311068 0.14834458
-0.032033086 -0.019288432 0.14566493
-0.02877903 -0.024115816 0.14610362
-0.030378819 -0.029015332 0.14523965
-0.035380721 0.034929805 0.1443693
-0.035724521 0.031346485 0.14446881
-0.036450148 0.026940119 0.14365965
-0.0364061 0.021933489 0.14267263
-0.036374629 0.016359251 0.14338803
-0.035915494 0.0064530219 0.14249492
-0.034459054 -0.015953559 0.14175767
-0.03281939 -0.017933346 0.14102042
-0.031825244 -0.03022005 0.14128765
-0.035376489 0.034773745 0.14053634
-0.035472155 0.031597558 0.14048079
-0.035788655 0.026824854 0.14051828
-0.03575325 0.021710072 0.13981709
-0.035635114 0.016599476 0.13905835
-0.035898149 0.0061011645 0.13842738
-0.038041294 -0.0028235284 0.13789541
-0.036720037 -0.013794564 0.13745219
-0.0349347 -0.016549934 0.13633114
-0.036704719 0.0017514802 0.1344431
-0.037450671 -0.0078845695 0.13291982
0.0016019943 -0.020728678 0.19344872
0.0012623075 -0.025858298 0.19422546
-0.0018212196 -0.029429357 0.19510543
-0.0014976265 0.023197856 0.1915786
-0.0020040872 0.019983191 0.19174758
-0.001895249 0.014417805 0.19145083
-0.0016257764 0.0085047949 0.19178361
-0.0023434758 0.004018141 0.19221082
-0.0022741556 -0.0055071805 0.19177285
-0.0024429557 -0.01027099 0.19167489
-0.0020658968 -0.014645483 0.19172829
-0.0012944338 -0.020301934 0.19254866
-0.0012918707 -0.025423467 0.19312131
-0.0062014465 0.037474442 0.19036981
-0.0050541167 0.03413007 0.18993708
-0.0042060618 0.029612534 0.18976825
-0.0048766141 0.024992283 0.19050965
-0.0060668592 0.020216856 0.19160703
-0.0053572059 0.014347356 0.19167441
-0.0052942038 0.0088015161 0.1914061
-0.0073615913 0.03768333 0.18644843
-0.0082417727 0.034436647 0.18685317
-0.0086131096 0.030626927 0.18815774
-0.007817924 0.036295801 0.18295217
-0.027837157 -0.024336938 0.14386138
-0.02907449 -0.027958196 0.14234245
-0.031042278 -0.019889712 0.13923305
-0.028174758 -0.023673352 0.13965467
-0.028150856 -0.02788784 0.13883469
-0.033801377 0.035814807 0.13755143
-0.034351528 0.031856224 0.13682145
-0.034611881 0.02707262 0.13682106
-0.034995019 0.022613972 0.13672775
-0.035162866 0.016775884 0.13585275
-0.035318315 0.0072569489 0.13559681
-0.032403708 -0.018660787 0.1347923
-0.030166268 -0.021323744 0.13376087
-0.036335349 0.035117857 0.1344974
-0.034407496 0.03273531 0.13284358
-0.034054339 0.027131196 0.13215706
-0.034317374 0.022595234 0.13161796
-0.035022914 0.016986348 0.13190356
-0.036546528 0.0068052947 0.13235801
-0.036653697 -0.0024571908 0.13087523
-0.035900831 -0.013985161 0.13134456
-0.034083068 -0.016954068 0.13018024
-0.035578668 0.033886574 0.12907386
-0.035813332 0.021124881 0.12875599
-0.035967469 0.017187994 0.12774682
-0.037421107 0.0068315635 0.12742615
-0.036310792 -0.0027043601 0.12723553
-0.036560953 -0.012200836 0.12608409
-0.035100698 -0.016191486 0.12585419
-0.036967993 -0.010981105 0.12189418
0.0069385171 -0.010387406 0.19258836
0.0068323016 -0.015189655 0.19244948
0.0057082777 -0.019990597 0.19290888
0.0055991416 -0.024314862 0.19494987
0.0010691282 0.029383972 0.191046
0.001007795 0.02574718 0.19018677
0.0024301407 0.014904384 0.19120926
0.0021846294 0.0097555052 0.19226682
0.0029621124 0.0040249284 0.19275773
0.0035979748 -0.0055296142 0.19179672
0.0033906105 -0.01033001 0.19190347
0.0033227208 -0.015116777 0.19174343
0.0034297707 -0.018337727 0.19246978
-0.026796699 -0.024416201 0.13675046
-0.026894331 -0.027050544 0.1360743
-0.028267801 -0.02454086 0.13327128
-0.028111339 -0.02831807 0.13277426
-0.031640887 0.036908779 0.13414109
-0.033554554 0.031185366 0.13075772
-0.033690333 0.028326686 0.12945229
-0.032345474 -0.018661126 0.12669897
-0.029754102 -0.021970883 0.12861019
-0.027748048 -0.026411854 0.12847614
-0.032705247 0.031710375 0.12693101
-0.034209013 0.027458541 0.1264568
-0.034760416 0.023103982 0.12588817
-0.035564899 0.018160298 0.124578
-0.035542548 0.014970675 0.12444091
-0.035546899 -0.0025643301 0.12377924
-0.033978641 -0.017559424 0.12324685
-0.03062135 -0.0208425 0.1238268
-0.033630967 0.027910646 0.12290007
-0.03474474 0.022831161 0.12142766
-0.035060465 0.018343046 0.12129146
-0.036331832 0.007147552 0.12081498
-0.035876513 -0.0024111257 0.12012327
-0.03623718 -0.012493405 0.11935484
-0.034312546 -0.016306806 0.1187399
-0.031382501 -0.020067338 0.12010825
-0.035870552 0.0025488152 0.11639106
-0.036803722 -0.006986652 0.11475503
-0.034493446 -0.015022419 0.11472088
-0.037367463 -0.010846511 0.11109531
0.01147157 -0.0057592876 0.19662902
0.011218011 -0.010571767 0.19638768
0.010089338 -0.014981885 0.19657838
0.011101723 -0.020171121 0.19530889
0.0092864037 0.0092788897 0.19319659
0.0091437101 0.0040161386 0.19375876
0.0093758106 -0.0056100488 0.19321632
0.0089561939 -0.010466073 0.19418558
0.0083211064 -0.015279103 0.19435394
0.0087819695 -0.02008104 0.19388306
0.0062955613 0.028772544 0.19150954
0.0063408609 0.025276706 0.19048437
0.0057527418 0.020260274 0.18992344
0.0073620677 0.015823618 0.19064802
0.0064426661 0.010515645 0.19189873
0.0060969591 -0.0055242665 0.19143146
-0.027771235 -0.023513727 0.12519968
-0.025898814 -0.026757967 0.12472016
-0.031720757 0.033506058 0.12434143
-0.028116047 -0.022980414 0.12107086
-0.025817096 -0.025040604 0.1208151
-0.032329619 0.032648314 0.12050253
-0.03395623 0.028058216 0.12020415
-0.034544766 0.023711365 0.11867076
-0.034578323 0.01852547 0.11800921
-0.034482777 0.015324738 0.11781877
-0.032723248 -0.01834425 0.11722827
-0.030776799 -0.020954199 0.11728442
-0.033479273 0.032689653 0.11605185
-0.034351408 0.028493125 0.11600548
-0.034716308 0.023490243 0.11534697
-0.034192622 0.018703245 0.11478299
-0.036022365 0.0079044364 0.11326289
-0.035967946 -0.0010480997 0.11305189
-0.034195125 -0.016812906 0.11331105
-0.031182528 -0.020473197 0.11248201
-0.035269797 0.032582931 0.11116046
-0.035015166 0.028575301 0.11082119
-0.034977794 0.023934886 0.11086762
-0.034281194 0.018698961 0.11047417
-0.036682546 0.0076844166 0.10930336
-0.037141025 -0.0019568694 0.10928464
-0.036769211 -0.011775278 0.10807794
-0.034397364 -0.016424526 0.10868353
-0.036243558 0.032518353 0.10725689
-0.037105143 0.0078523606 0.10566372
-0.037591398 -0.001805414 0.10567039
-0.036889791 -0.011425804 0.10478729
-0.034755647 -0.014685251 0.10505295
0.015978932 0.021873511 0.19425049
0.015284896 0.0007741304 0.19469675
0.012696564 0.024624933 0.19191957
0.0135023 0.020326316 0.19188938
0.01348424 0.015472934 0.19169718
0.013265729 0.011628624 0.19290888
0.011009693 0.023626525 0.18975133
0.011048675 0.02039811 0.18959326
0.0099001527 0.015496444 0.19006604
-0.023860037 -0.026219606 0.11789441
-0.02653116 -0.023223966 0.1145125
-0.024882138 -0.02484528 0.11325568
-0.03108871 0.035025831 0.11311454
-0.028226554 -0.022622891 0.10934424
-0.031909049 0.035143867 0.1107505
-0.033019781 0.022366732 0.10712367
-0.032825887 0.019954499 0.10688949
-0.032140374 -0.017955553 0.10496706
-0.029584885 -0.020790137 0.1052348
-0.034913778 0.033029214 0.10395604
-0.034262896 0.028974645 0.10431296
-0.033504128 0.024172395 0.10356599
-0.033005655 0.019347373 0.1030134
-0.03367573 0.014672164 0.10309273
-0.035023212 0.0031879763 0.1019364
-0.034963608 -0.0064908792 0.10153341
-0.032503486 -0.016212795 0.10131842
-0.034420669 0.029196173 0.10044408
-0.034257889 0.024346095 0.10014206
-0.033765852 0.018704779 0.09956187
-0.034337699 0.014464915 0.098406255
-0.03551513 0.0033468376 0.098316014
-0.034815967 -0.0063323532 0.097429335
-0.033614814 -0.015061557 0.096598983
-0.036398113 0.0033244467 0.093543649
-0.035795987 -0.0058421013 0.093378723
-0.0212515 -0.027508318 0.11211288
-0.020197868 -0.029802289 0.11166197
-0.023631632 -0.026341345 0.10765976
-0.022285938 -0.030258015 0.10679364
-0.027388513 -0.022834271 0.1022473
-0.024404883 -0.026193298 0.10324317
-0.024468958 -0.03055086 0.10412776
-0.031320691 -0.017756734 0.098373413
-0.029339492 -0.02086357 0.099023461
-0.031654775 0.032708209 0.097476959
-0.033792794 0.029416367 0.096965194
-0.033809006 0.024542108 0.096798718
-0.033658028 0.019889131 0.09694308
-0.034203112 0.015644025 0.095766008
-0.032433927 -0.017209411 0.094720483
-0.030289292 -0.020426065 0.094053209
-0.033036411 0.03290464 0.093493521
-0.033238232 0.029127918 0.092835069
-0.033412218 0.02458306 0.092031717
-0.034529984 0.019896243 0.092140019
-0.035152435 0.014986932 0.092438817
-0.036031961 0.005305096 0.090744615
-0.035735488 -0.006464724 0.090591133
-0.034291804 -0.015821896 0.090652049
-0.032179296 -0.019058604 0.08891201
-0.033990979 0.019325648 0.087656677
-0.035092652 0.014907621 0.087536037
-0.035481393 0.0042947638 0.087392926
-0.036558807 -0.0059003946 0.086700022
-0.035126626 -0.015412729 0.085823357
-0.035662234 -0.0097946152 0.081802309
-0.01989603 -0.031328648 0.1074037
-0.023467898 -0.026949421 0.10018462
-0.021739304 -0.029975653 0.099458277
-0.023586094 -0.026021358 0.096281886
-0.021219492 -0.029339027 0.0954023
-0.027121842 -0.02253351 0.092006505
-0.023685694 -0.024239462 0.091371
-0.029862761 0.033694196 0.091094136
-0.031806171 0.030358054 0.091109097
-0.033042014 0.025800332 0.089189351
-0.028371572 -0.021715362 0.087519825
-0.031015277 0.034244832 0.08589828
-0.031926095 0.030080307 0.086450756
-0.032368004 0.025197975 0.085597336
-0.034370244 0.020607255 0.086473823
-0.034713149 0.015798751 0.084532022
-0.033876181 0.0056125647 0.084020257
-0.034269273 -0.015549663 0.082542121
-0.030509472 -0.019893542 0.083129466
-0.032742143 0.033596791 0.082110584
-0.033071101 0.030084565 0.081801355
-0.033581078 0.025401119 0.081446111
-0.033940732 0.020466864 0.081549466
-0.034028828 0.015605241 0.080421388
-0.033383131 0.0059855669 0.080334663
-0.034279406 -0.0046504107 0.079272628
-0.033726037 -0.015692621 0.079492271
-0.031301916 -0.018733162 0.078069568
-0.033981919 0.028883021 0.077789664
-0.034377158 0.025632378 0.076957643
-0.035455406 0.020701915 0.076604664
-0.035019755 0.01581065 0.076084673
-0.034460485 0.0060047465 0.075291514
-0.035303414 -0.0046607782 0.075576007
-0.034033954 -0.014816873 0.074500442
-0.035592616 0.0053259577 0.072052896
-0.036002159 -0.0036568237 0.071028531
-0.021219254 -0.030079007 0.092339516
-0.022570848 -0.026316606 0.089148045
-0.021351814 -0.029970795 0.088381708
-0.028764188 0.034994848 0.088269293
-0.023638546 -0.025214974 0.084469736
-0.0226385 -0.028972268 0.083276331
-0.027635157 -0.022197135 0.081230104
-0.023890018 -0.024735298 0.080296814
-0.032883525 0.033769827 0.079154432
-0.032896161 0.031305797 0.079075515
-0.029241443 -0.020368565 0.076399982
-0.026563764 -0.022076093 0.076304018
-0.032171965 0.034009986 0.075518131
-0.033611059 0.030892901 0.07525593
-0.035253763 0.025745045 0.074572146
-0.032587528 -0.016902242 0.072989821
-0.031973362 -0.018112943 0.071944296
-0.03270942 0.030152205 0.070643008
-0.033977866 0.025945045 0.071502924
-0.034488022 0.02105502 0.070256233
-0.034429014 0.016089626 0.070682704
-0.034988105 0.0065235342 0.068958342
-0.036552548 -0.003547885 0.068379581
-0.034069061 -0.013425775 0.068103611
-0.032224119 -0.016765572 0.068581581
-0.035674751 0.0014877464 0.065784037
-0.035239995 -0.0083265267 0.064047813
-0.019619286 -0.032462198 0.086980045
-0.024614692 -0.024642996 0.077780306
-0.023846269 -0.028148245 0.078496277
-0.025025845 -0.023679145 0.073329329
-0.023688614 -0.028120652 0.073155582
-0.02882731 -0.020209331 0.070931971
-0.025385559 -0.023557026 0.069479287
-0.024435043 -0.028544005 0.069242656
-0.024975777 -0.031818312 0.068513334
-0.031654835 0.031558543 0.068296492
-0.032075584 0.026628841 0.067418933
-0.033424973 0.021259613 0.066751659
-0.033003628 0.016305305 0.066756606
-0.032130778 -0.014981654 0.064425886
-0.029392302 -0.018928923 0.065556049
-0.026773453 -0.021734588 0.065104187
-0.0320943 0.030792575 0.064633429
-0.032831192 0.026174333 0.064107955
-0.033545077 0.021251313 0.062946737
-0.033141792 0.016480722 0.06323415
-0.034109473 0.0066226791 0.061582863
-0.034209132 -0.0036050626 0.061094344
-0.032315493 -0.013551537 0.061296225
-0.030059159 -0.017224919 0.061015427
-0.032948315 0.029906027 0.060419917
-0.033246934 0.026284933 0.059697568
-0.033825874 0.021944046 0.058160722
-0.033861518 0.016704205 0.058603168
-0.033850074 0.0068204324 0.057200134
-0.034326673 -0.0031206259 0.057239354
-0.032319367 -0.012832899 0.056907535
-0.03466922 0.016871318 0.055076957
-0.034565449 0.0069331019 0.054644048
-0.03508544 -0.0029322975 0.052625597
-0.033635914 -0.011262886 0.053245068
-0.024435461 -0.024318013 0.066279411
-0.024364829 -0.028462324 0.066074908
-0.024770141 -0.023643788 0.062398493
-0.023802876 -0.027287476 0.06289196
-0.02983892 0.03167434 0.060059428
-0.027822793 -0.019424081 0.058194816
-0.025769174 -0.021547683 0.058039844
-0.031843245 0.031128027 0.057048261
-0.032868087 0.027214915 0.056590796
-0.032358408 -0.013805524 0.054210365
-0.029074967 -0.017536703 0.053803742
-0.031799436 0.03035016 0.053195059
-0.032648742 0.027019367 0.052719772
-0.03331691 0.022040691 0.052039206
-0.034433782 0.017042812 0.051733077
-0.034547746 0.0070756539 0.051479578
-0.033474445 -0.013043247 0.05068326
-0.031228423 -0.016579043 0.049502373
-0.03320235 0.020602677 0.047669053
-0.033700526 0.016950712 0.047107995
-0.034713924 0.0073061767 0.04634285
-0.034305811 -0.0026612119 0.045657516
-0.033917189 -0.012632489 0.044989944
-0.032724619 -0.015983481 0.044943035
-0.035353959 0.007470693 0.042642176
-0.034977615 -0.0083382055 0.041782081
-0.021721423 -0.029509399 0.060460508
-0.023614824 -0.023775 0.056230366
-0.021728039 -0.028268766 0.055607021
-0.027130067 -0.019659273 0.051845014
-0.024519086 -0.023062699 0.051715136
-0.022501111 -0.026475608 0.052073598
-0.03119427 0.030515205 0.050590575
-0.032040179 0.026401285 0.049027264
-0.028964877 -0.018826306 0.04788053
-0.02694416 -0.021633491 0.047924638
-0.031771779 0.027645443 0.046119452
-0.032509327 0.022714131 0.045894086
-0.033454716 0.017431948 0.044231474
-0.030608952 -0.018195409 0.043110371
-0.028036654 -0.02103949 0.043004632
-0.032550454 0.027673408 0.040987432
-0.033134162 0.022611972 0.041302145
-0.034306228 0.017797627 0.041510701
-0.034888089 0.0075855399 0.040126204
-0.034074008 -0.0024447967 0.040162683
-0.033879638 -0.012449421 0.039655089
-0.032194853 -0.017198566 0.039143741
-0.034207165 0.022481412 0.037071586
-0.035338342 0.017523751 0.037185609
-0.035584033 0.0077487896 0.03644675
-0.034167111 -0.0024990295 0.035508692
-0.034748197 -0.012276575 0.035054743
-0.033155382 -0.016208638 0.03500098
-0.03537178 -0.011554383 0.030606687
-0.022706747 -0.024681821 0.048067153
-0.021430314 -0.028103478 0.049030721
-0.021059453 -0.031488545 0.049671054
-0.024431825 -0.023870334 0.044829845
-0.022675931 -0.027720161 0.043946683
-0.020653307 -0.031363085 0.044029772
-0.025548875 -0.022968285 0.03981024
-0.023553073 -0.026960224 0.040158451
-0.029600263 -0.019106627 0.035832345
-0.026747763 -0.021419235 0.035864651
-0.032464623 0.027556129 0.034481347
-0.0328601 0.023472663 0.033064187
-0.033640802 0.018834151 0.033032715
-0.03315717 -0.0012843203 0.031935632
-0.031045735 -0.017590176 0.031307995
-0.026929796 -0.020750631 0.032458007
-0.032237589 0.028310746 0.029643595
-0.032535136 0.02326151 0.029221594
-0.033822298 0.018147297 0.029932022
-0.033780873 0.008064026 0.029554248
-0.033513844 -0.0021826779 0.028168797
-0.034332871 -0.012304582 0.027539134
-0.032604814 -0.015827097 0.027198076
-0.032631874 0.009943122 0.025390506
-0.034262359 -0.0072567468 0.023505151
-0.0188362 -0.029757865 0.044737339
-0.019473791 -0.031924509 0.042334497
-0.022068918 -0.028466597 0.038022101
-0.020820141 -0.031636544 0.038272917
-0.024207413 -0.023815271 0.033836663
-0.023319483 -0.027158093 0.03382498
-0.023101926 -0.029294357 0.032184958
-0.025634944 -0.022093654 0.02916342
-0.024007618 -0.025761887 0.027662456
-0.02334851 -0.029180802 0.028072834
-0.03197366 0.030117363 0.027676165
-0.031616986 0.023387719 0.027142465
-0.029235363 -0.018368158 0.025312364
-0.026415288 -0.021098789 0.024804175
-0.030812442 0.032079689 0.023485482
-0.032595694 0.028626367 0.023818076
-0.032151461 0.02358349 0.023264647
-0.032600939 0.01848691 0.023480892
-0.032738507 0.013684478 0.022817135
-0.032072842 0.003312632 0.022513628
-0.033317387 -0.005914506 0.021105766
-0.030730903 -0.016640853 0.020683706
-0.032571614 0.02847654 0.018887818
-0.03314501 0.023866691 0.01759249
-0.033577144 0.018759888 0.017799795
-0.033033967 0.0086313635 0.016986549
-0.03329891 -0.001525151 0.016877532
-0.033698976 -0.011669107 0.01688695
-0.031773567 -0.015468702 0.015628517
-0.034143865 0.018551543 0.013361335
-0.034405887 0.010513831 0.01277554
-0.034579098 -0.0066432511 0.011887968
-0.032733142 -0.014893051 0.011558831
-0.02388835 -0.027397517 0.025337636
-0.023250699 -0.030246541 0.025423527
-0.025142729 -0.021306846 0.021174133
-0.023461044 -0.025617804 0.021770895
-0.022007883 -0.029057074 0.021508217
-0.025396645 -0.020688318 0.017699957
-0.023169518 -0.024678227 0.018277824
-0.031056881 0.029949836 0.015976429
-0.030851007 -0.016714402 0.014236271
-0.027519286 -0.019158732 0.013886154
-0.0313676 0.02801301 0.012335002
-0.032574296 0.024193212 0.011618674
-0.034273922 0.01989885 0.011873424
-0.031927526 0.0038261521 0.010372937
-0.03165257 -0.016138937 0.010018587
-0.02918011 -0.018266529 0.0083255768
-0.03233093 0.024383999 0.0081029534
-0.033067942 0.019286014 0.0074805617
-0.021640778 -0.029005319 0.019012094
-0.02244395 -0.021999054 0.013354778
-0.022241354 -0.025475629 0.015260875
-0.019561946 -0.028972726 0.015042126
-0.02448684 -0.021299914 0.010742784
-0.022591531 -0.024498291 0.011194706
-0.028551757 0.030377373 0.0093940496
-0.023185194 -0.023516793 0.0073247552
-0.018397391 -0.028929368 0.01184082
-0.020646453 -0.026635509 0.0088849068
-0.017108023 -0.028887123 0.0085194707
