# .PCD v0.7 - Point Cloud Data file format
VERSION 0.7
FIELDS x y z
SIZE 4 4 4
TYPE F F F
COUNT 1 1 1
WIDTH 872
HEIGHT 1
VIEWPOINT 0 0 0 1 0 0 0
POINTS 872
DATA ascii
-0.025692385 0.035709165 0.18668512
-0.031737827 0.029529022 0.18734139
-0.026793648 0.036962479 0.18414566
-0.034696598 0.032126132 0.1836257
-0.030917713 0.036805868 0.17905474
-0.036419038 0.0295981 0.17926759
-0.029699702 0.017737418 0.19155049
-0.017861176 0.035104431 0.18821824
-0.024121011 0.029428162 0.18911773
-0.031787325 0.022125911 0.18997753
-0.036275901 0.01491465 0.1880396
-0.023010602 0.035832383 0.18676987
-0.035011373 0.024012927 0.18546113
-0.037618384 0.016894436 0.18405026
-0.024396729 0.037503671 0.18221632
-0.037291829 0.021698756 0.18032941
-0.02929722 0.037114833 0.17592311
-0.037019938 0.023085937 0.17664009
-0.030041948 0.03595243 0.17201954
-0.035394162 0.028278599 0.17178652
-0.033902727 0.033731669 0.16788539
-0.01528938 0.027372669 0.19104826
-0.022535093 0.020880122 0.19085348
-0.029865786 0.013773903 0.19179565
-0.033172 0.010289494 0.1912944
-0.035278354 0.0061492193 0.18999317
-0.011776472 0.034981746 0.18773538
-0.018072167 0.030173916 0.18989155
-0.024793174 0.022718631 0.19006148
-0.036255725 0.011891237 0.18752798
-0.036885981 0.0079851588 0.18653136
-0.013731659 0.037132841 0.18411997
-0.03723336 0.013643957 0.1815078
-0.037248909 0.0099529494 0.1823875
-0.014258896 0.038001087 0.17928573
-0.036819935 0.015391075 0.17732489
-0.022359928 0.037599187 0.17434824
-0.036046643 0.016374934 0.17354381
-0.023681164 0.036970086 0.1709432
-0.034828302 0.025658917 0.16931736
-0.024866223 0.037050024 0.1656695
-0.033799969 0.032966454 0.16538352
-0.029641094 0.036742043 0.160797
-0.035256691 0.029591627 0.15947324
-0.033749923 0.034812208 0.15680894
-0.014599803 0.017983587 0.1909298
-0.020995108 0.012273761 0.19087642
-0.025756717 0.0088520842 0.19194922
-0.028591741 0.0052386923 0.19228756
-0.031457961 0.0018377965 0.19119024
-0.033544514 -0.0011825617 0.19033313
-0.038017422 -0.0062239431 0.18980843
-0.0058058854 0.031763643 0.18866256
-0.0099125421 0.028679132 0.19036296
-0.016133046 0.021653205 0.19144228
-0.022486271 0.014904389 0.19043586
-0.034660935 0.0029800814 0.19029969
-0.03664463 0.00066519529 0.18821347
-0.038799867 -0.0037724599 0.18701965
-0.0036037788 0.036059096 0.18392509
-0.0065262141 0.03393897 0.18615076
-0.011135687 0.032131083 0.18884829
-0.037033021 0.0057703927 0.18349546
-0.037298635 0.0018261187 0.18378881
-0.039063074 -0.0033593774 0.18367183
-0.0078268535 0.035933878 0.18196949
-0.036847271 0.0072497148 0.17955464
-0.036944047 0.002857754 0.17963222
-0.010087972 0.036632143 0.17696974
-0.0365953 0.012439273 0.1746161
-0.036354713 0.0083623379 0.17450321
-0.012938462 0.03728018 0.17192626
-0.03465198 0.017362967 0.1697399
-0.035800286 0.013794164 0.17009801
-0.036237948 0.010033813 0.17052412
-0.02125866 0.036969148 0.16803157
-0.035469208 0.014480708 0.16636109
-0.021613073 0.037051544 0.16406369
-0.034100614 0.02055677 0.1618197
-0.023193583 0.037034344 0.15918657
-0.035555918 0.026295679 0.15823963
-0.024276109 0.03652215 0.15427846
-0.032694027 0.033989705 0.15310207
-0.03578271 0.02381386 0.15396446
-0.032124411 0.033401292 0.14901674
-0.026093569 -0.0038228352 0.19279763
-0.033088714 -0.011183055 0.19222105
-0.00097209681 0.026637457 0.18941218
-0.0047297329 0.024264853 0.19062129
-0.011754386 0.017356778 0.19100747
-0.017628744 0.0096990196 0.19156432
-0.020999819 0.0056740795 0.19207886
-0.024979357 0.0023228675 0.19289318
-0.028709985 -0.0010790145 0.19237176
-0.031710964 -0.0048998334 0.19045499
-0.03473343 -0.0077289306 0.19062054
0.0040894011 0.035024002 0.18667215
0.00070785545 0.033527859 0.18804798
-0.0029994166 0.03013989 0.18925601
-0.0064647375 0.027520455 0.19023138
-0.039657835 -0.0072791893 0.1839028
0.00371233 0.035571553 0.18432724
-0.00047273561 0.03547667 0.18440843
-0.037276141 -0.00059489533 0.18057376
-0.039487563 -0.0043144114 0.1809535
-0.001952745 0.036962867 0.17998737
-0.037229672 0.0010136217 0.17703328
-0.03885201 -0.003287822 0.17627019
-0.040595461 -0.0060043596 0.17662829
-0.0033514816 0.037342899 0.17559463
-0.0066916225 0.036926486 0.17598766
-0.036265671 0.0062018326 0.17297944
-0.03703643 0.0020332802 0.17275259
-0.039875656 -0.0035604928 0.17226231
-0.00411609 0.037494734 0.17191994
-0.0081885746 0.036903158 0.17070943
-0.036946122 0.0081314519 0.16825348
-0.037600353 0.0043657683 0.16796863
-0.011619122 0.037411146 0.16771147
-0.013208564 0.03731522 0.16526449
-0.035589483 0.013740623 0.16353899
-0.037345171 0.0095491828 0.16357869
-0.038261093 0.0057015251 0.16370583
-0.013821262 0.037591483 0.16169629
-0.035358563 0.014432795 0.15953994
-0.036365885 0.010687364 0.15974838
-0.020944424 0.037439324 0.15697283
-0.035105586 0.016297722 0.15638983
-0.021956937 0.037130244 0.15325934
-0.036021028 0.02174064 0.15103114
-0.026981214 0.035550207 0.14726916
-0.035509109 0.028370341 0.14693338
-0.027918726 0.035872635 0.14271161
-0.035136119 0.029999729 0.14294481
-0.029372683 0.03601326 0.13845649
-0.034678716 0.030696694 0.13835475
-0.023326572 -0.011295246 0.19378471
-0.027947798 -0.015559993 0.19367388
-0.013016645 0.0048084375 0.19226423
-0.016660409 0.0015958361 0.19229987
-0.020424716 -0.0022565564 0.1923008
-0.023479696 -0.006534216 0.19257805
-0.026250023 -0.010124553 0.19158298
-0.029564202 -0.013456179 0.19213283
0.018252907 0.040739764 0.19182941
0.01717677 0.03959737 0.1917361
0.0094943047 0.030441454 0.18938333
0.0063694026 0.02795634 0.19019729
0.0028331131 0.025062792 0.190813
-0.00092074927 0.021366503 0.19123173
-0.0046573738 0.016975338 0.1910176
-0.011621356 0.010558844 0.19177634
-0.016395483 0.0064621009 0.19180828
-0.029817123 -0.0088684503 0.19014746
0.011415943 0.034667429 0.18626565
0.0079834275 0.033947822 0.18677998
0.0045967642 0.030617297 0.18853965
0.001316146 0.02773834 0.18899378
0.010374976 0.035943948 0.18267176
0.0060393345 0.036048733 0.18151283
0.0044157244 0.037010662 0.17759329
0.0035341494 0.037557781 0.17276108
-0.00031077489 0.03754434 0.17355937
-0.03741543 6.1672181e-06 0.16984808
-0.038169459 -0.0030001011 0.1699492
-0.0014166459 0.037000541 0.16865104
-0.0057265181 0.037113305 0.16871196
-0.037419885 0.0010716561 0.16627753
-0.038205266 -0.0028833393 0.16532114
-0.002989186 0.036927417 0.16556177
-0.0070554148 0.036578707 0.16396314
-0.037240762 0.007057853 0.16019481
-0.037463799 0.0030726176 0.1614317
-0.037974544 -0.001355676 0.16196436
-0.0080172736 0.036601823 0.15861207
-0.012385155 0.037722386 0.15887457
-0.035342183 0.012053466 0.15622973
-0.036424689 0.0083595403 0.15649819
-0.037178248 0.0049404502 0.15535283
-0.012577048 0.037114002 0.15489495
-0.035057854 0.013890233 0.1530343
-0.03596865 0.0091423858 0.15190145
-0.01512684 0.036643226 0.15015033
-0.016092522 0.035661191 0.14629874
-0.035832122 0.016776672 0.14413938
-0.025139779 0.036119144 0.14030844
-0.036487889 0.018579584 0.13977164
-0.026712529 0.036372196 0.13615125
-0.03484362 0.030029902 0.13550711
-0.027509514 0.036216941 0.13125363
-0.033916686 0.030191286 0.13108036
-0.028632738 0.035984028 0.12755364
-0.033526391 0.030868514 0.12717229
-0.021189997 -0.015935211 0.1963568
-0.024209689 -0.017359979 0.19689107
0.020235924 0.028975576 0.19486091
-0.010779338 -0.0037467144 0.19226304
-0.014860732 -0.007493882 0.19217387
-0.019285906 -0.011269657 0.19352031
-0.023306498 -0.013923259 0.19465142
-0.025981504 -0.016173845 0.19506499
0.020582573 0.034255598 0.19251931
0.018354271 0.029858502 0.19232151
0.01449928 0.027005257 0.19163081
0.010627983 0.023772318 0.19209087
0.0072025685 0.020749575 0.1925998
0.0031181993 0.017002549 0.19251394
-0.00013408391 0.012514859 0.19153059
-0.0036329678 0.0096341856 0.19131139
-0.0094439192 0.0022227503 0.19214439
-0.013004834 -0.0014861841 0.19232616
-0.017079771 -0.0052131554 0.19224462
-0.025605034 -0.013385985 0.19190359
0.019328963 0.035459653 0.188963
0.01568961 0.032609373 0.18911549
0.012218521 0.030006763 0.18992704
0.0090223458 0.02678193 0.19095317
0.018176612 0.036665417 0.18554956
0.014446728 0.035175726 0.18526465
0.011370725 0.035958603 0.18010753
0.010154151 0.036821384 0.17481893
0.0076963753 0.036935411 0.17497867
0.010149023 0.037132863 0.17123416
0.0068611698 0.037341684 0.17086476
0.0047270861 0.036968324 0.16635227
0.0012185629 0.037200928 0.16667324
-0.038350899 -0.0055822264 0.16286081
0.00021092407 0.036355805 0.16200218
-0.00402412 0.036028787 0.16182107
-0.036638446 -0.00035649911 0.15905708
-0.038091928 -0.0034116432 0.15912268
-0.0014473498 0.036071014 0.15787691
-0.0033868421 0.035748444 0.15763026
-0.036620881 0.00094165653 0.15498656
-0.037539169 -0.0024137311 0.15409464
-0.0068486938 0.03614758 0.15276206
-0.010680278 0.036603764 0.15188771
-0.036828186 0.0078655137 0.14975178
-0.037290841 0.0041414537 0.15027979
-0.037746605 -0.0011320356 0.15066433
-0.007308987 0.035846937 0.14806947
-0.010769987 0.036139704 0.1475172
-0.036512043 0.0092334738 0.14588073
-0.03705553 0.0044840667 0.14560032
-0.014031199 0.036054511 0.14364475
-0.035665248 0.013678513 0.14159751
-0.036001325 0.010014609 0.14224085
-0.017621143 0.035442665 0.13926908
-0.020794731 0.035961814 0.13401937
-0.036500584 0.014388533 0.13326615
-0.024666006 0.036362968 0.12968343
-0.03507635 0.023714121 0.12920639
-0.022579391 0.036715996 0.12693232
-0.030917969 0.033987924 0.12469423
-0.03492156 0.024831796 0.12482709
-0.030654537 0.034034044 0.11974519
-0.034948446 0.026998401 0.12190098
-0.033883579 0.031875197 0.11627316
-0.013596409 -0.014927572 0.19501415
0.019791767 0.026150541 0.19467992
0.018853404 0.022691716 0.19441107
0.015843118 0.019510901 0.19304928
0.012261257 0.016450651 0.19279674
0.0080230115 0.011773405 0.19267872
0.0048189252 0.0076249763 0.19219553
0.0017984919 0.0039237887 0.19170964
-0.0017097356 0.00068058079 0.19162259
-0.0057090754 -0.0020869742 0.19194335
-0.0081392415 -0.0068950653 0.19238985
-0.010998737 -0.010327335 0.19214812
-0.014608939 -0.01291674 0.19285396
0.021752086 0.030954845 0.19331744
0.016432703 0.025098765 0.19276124
0.013718838 0.022217916 0.19252592
0.0020238003 0.010387504 0.19177726
-0.0017114379 0.0062970528 0.19139647
0.019854477 0.036392894 0.1822311
0.019636041 0.035804998 0.1781154
0.015650755 0.034851085 0.178675
0.018625122 0.035517238 0.17438766
0.015516942 0.034955654 0.17391908
0.013900004 0.035307057 0.16876027
0.008499234 0.03677395 0.16801438
0.0085709607 0.0363212 0.16399911
0.0058759814 0.036421232 0.15992904
0.0032373555 0.035953674 0.15858617
-0.037032586 -0.0066880304 0.15514767
-0.036004175 -0.010096841 0.15490118
0.0055259159 0.036214296 0.15580902
0.0020828396 0.03577663 0.15494442
-0.036750413 -0.0062489044 0.15097448
7.6357275e-05 0.035729468 0.15085727
-0.0026634857 0.035536055 0.15151611
-0.036223136 -0.00034655817 0.14847565
-0.037445303 -0.0032510553 0.14755809
-0.0040363278 0.035414975 0.14635664
-0.036210135 0.0017135143 0.1430361
-0.036362845 -0.0023111384 0.14372662
-0.0059718732 0.035898995 0.1421304
-0.009982449 0.035956938 0.1417163
-0.035301711 0.0083075492 0.1388014
-0.036235593 0.0035322383 0.1389991
-0.01168107 0.035216231 0.136913
-0.035419963 0.0097947558 0.13418704
-0.036065619 0.0060739797 0.13485581
-0.013096545 0.034500733 0.13215247
-0.03597093 0.012639729 0.12977678
-0.035625931 0.017033353 0.12614775
-0.036216754 0.013570474 0.1253534
-0.03561303 0.023145072 0.12207073
-0.020923447 0.035583843 0.1196813
-0.035284884 0.024971705 0.11877292
-0.026829446 0.036121592 0.11509091
-0.034097336 0.030820021 0.11328477
-0.036306322 0.022014128 0.11399442
-0.029966293 0.034038499 0.10864908
-0.034654029 0.027359072 0.11024129
-0.0046156496 -0.016005835 0.19731331
-0.0033739908 -0.011922803 0.1935589
-0.0070561576 -0.014535367 0.19520399
-0.010367608 -0.01691065 0.19634333
0.018951925 0.016113499 0.19326526
0.015584359 0.012724945 0.19274661
0.013071567 0.0087912995 0.192801
0.0085858945 0.0045318715 0.19290119
0.0052903378 0.0004240626 0.19247505
-0.00132672 -0.006502605 0.19194493
-0.0047479086 -0.0093243811 0.19247285
-0.0089971442 -0.012437927 0.19319132
0.024940494 0.036110751 0.17579675
0.022193138 0.036421318 0.17614451
0.023826117 0.037541874 0.17129213
0.020896537 0.036122248 0.17160892
0.017139532 0.035012066 0.17101207
0.023265284 0.038510554 0.16632298
0.020472936 0.036686737 0.16663012
0.016400622 0.035475776 0.16730553
0.021887446 0.039996423 0.16383791
0.019186787 0.036757465 0.16279006
0.014753994 0.035567872 0.16247231
0.010571916 0.03544673 0.16081062
0.014135134 0.036524378 0.15741146
0.010058541 0.035710711 0.15689009
-0.035635911 -0.010407394 0.152686
0.0084743286 0.035921618 0.15245032
-0.035743862 -0.010085279 0.14717156
0.0061948933 0.036161974 0.14880484
0.0033383872 0.035793819 0.14856249
-0.037541263 -0.0057677608 0.14537337
-0.036673836 -0.010132022 0.14373159
0.0020359177 0.035450861 0.14388028
-0.0014288463 0.035020251 0.14304653
-0.035664186 -0.00059631653 0.14045057
-0.037112571 -0.0040197894 0.14103878
-0.037815813 -0.0075225923 0.13788247
0.0011965334 0.035055622 0.13896796
-0.002283873 0.035567783 0.13939178
-0.036095239 0.0011322331 0.13769555
-0.036803104 -0.0027116947 0.13651642
-0.038987692 -0.0062426217 0.13714963
-0.0042361636 0.035462372 0.13520762
-0.0078288736 0.035087656 0.13545129
-0.036553778 0.0035578031 0.1329017
-0.035525959 -0.0004167892 0.13276631
-0.0092793182 0.03463272 0.13050395
-0.013324064 0.034213699 0.12888065
-0.035510827 0.0090342639 0.1280331
-0.035790719 0.0049888864 0.12820882
-0.010320188 0.034865193 0.12584502
-0.014219903 0.034786765 0.12524283
-0.036183462 0.010554276 0.12284744
-0.03590909 0.0067683896 0.12361521
-0.011138198 0.03479765 0.12229717
-0.035446867 0.016335931 0.1182909
-0.036042687 0.012977724 0.11899477
-0.035828076 0.017483391 0.11469871
-0.035633542 0.01437833 0.11535871
-0.02196346 0.034885976 0.1119737
-0.035822172 0.019791353 0.11056185
-0.033178847 0.029066904 0.10716802
-0.035248332 0.021292847 0.10716385
-0.02932656 0.03373912 0.10321784
-0.03346955 0.026552027 0.10326964
-0.032452371 0.030815274 0.098407924
0.0045881835 -0.013774017 0.1947929
0.00050306879 -0.015460555 0.19653252
-0.003918428 -0.01786229 0.19715586
0.020153733 0.0069045322 0.19426024
0.017855909 0.0045516635 0.19347936
0.013296422 -0.00016292278 0.19306245
0.009169573 -0.0028596434 0.1927554
0.0021707728 -0.010412758 0.19295752
-0.00077099865 -0.013584903 0.19432315
0.020714771 0.013343116 0.19319275
0.017661937 0.0096304324 0.19271708
0.012608309 0.0044859354 0.19237736
0.025598038 0.038309187 0.16902658
0.025106955 0.038886864 0.16761792
0.020807812 0.037646148 0.16062257
0.019135512 0.038173407 0.15679133
0.016073372 0.037354663 0.15554249
0.018521518 0.038514543 0.1515916
0.01440228 0.037048619 0.15165949
0.010515796 0.036422785 0.14987788
0.013826214 0.038247444 0.14715278
0.0093112318 0.036284115 0.14622968
0.0088503389 0.036234744 0.14114153
0.0050845956 0.035612904 0.14133307
-0.036656 -0.010186596 0.13830411
0.0071562212 0.036243696 0.13683388
0.0033219364 0.035753679 0.13737959
-0.036158614 -0.0032731947 0.13351288
-0.038317464 -0.007309013 0.13397193
0.0018823445 0.035795383 0.13263297
-0.0014727898 0.035855323 0.13287336
-0.036067262 -0.0023456514 0.12982997
-0.037979305 -0.0063502844 0.12915355
-0.0028897189 0.035046488 0.12849259
-0.0068156375 0.03467178 0.12796509
-0.036032118 0.0027769562 0.12496561
-0.035646603 -0.0015239231 0.1251111
-0.037217457 -0.0053299088 0.12515181
-0.0040279925 0.035124909 0.12345356
-0.0076231556 0.035170812 0.12422454
-0.035829309 0.0036649033 0.12104177
-0.0087821214 0.035264447 0.11919963
-0.035916828 0.0099755302 0.11703002
-0.035871055 0.006446573 0.11706221
-0.010427065 0.03463845 0.11498845
-0.013947191 0.034163941 0.11449164
-0.035697293 0.011472872 0.11315018
-0.03517374 0.0070616174 0.11311942
-0.035027888 0.016410571 0.10829645
-0.034840211 0.012491712 0.10880959
-0.021301787 0.034021512 0.10391253
-0.034923911 0.018538691 0.10398078
-0.033974696 0.024662446 0.10022914
-0.025168004 0.034551635 0.096564114
-0.033053592 0.030546002 0.095876813
-0.035342004 0.022049192 0.094713628
-0.032862891 0.031172417 0.091637135
-0.030147064 0.034038201 0.087175548
0.021260928 0.00042537879 0.19469804
0.018122215 -0.0032638558 0.19426861
0.01146843 -0.012534368 0.19272009
0.0059360527 -0.018645842 0.19586805
0.019353421 0.00088458695 0.19314182
0.0172728 -0.00085422397 0.19316903
0.01027138 -0.010703336 0.19164929
0.014371559 0.036680132 0.14094165
0.01360572 0.036995865 0.13522637
0.010551867 0.036669761 0.13607278
0.0068450989 0.034611858 0.13321429
0.0096673099 0.035960533 0.13092726
0.0058547789 0.035065409 0.13000569
0.0045233127 0.034860104 0.12576234
-0.0004317984 0.035450928 0.12534082
-0.034966104 -0.0040629338 0.12181634
-0.037182502 -0.0068550641 0.12302601
0.0026947185 0.035002552 0.12164682
-4.9458817e-05 0.0345794 0.12036926
-0.03402108 -0.0028030761 0.11829758
-0.0024655443 0.03474953 0.11609852
-0.035140775 0.0022968389 0.11447001
-0.0344074 -0.00073762983 0.11247861
-0.0036111362 0.034972027 0.11281699
-0.0067175459 0.034190014 0.11164832
-0.011078911 0.033265136 0.11159629
-0.035240352 0.0046615871 0.10962027
-0.035554022 0.00058580749 0.10978824
-0.0084419847 0.033850268 0.10713422
-0.011666667 0.033226386 0.10750043
-0.034561042 0.010263735 0.10565877
-0.035198241 0.0057972409 0.10479313
-0.013144376 0.03363407 0.10288835
-0.034340143 0.011412118 0.10120434
-0.017874371 0.033451974 0.098688722
-0.035042509 0.013023694 0.096748471
-0.035128459 0.018216301 0.093022764
-0.022562753 0.03355965 0.089622557
-0.033985421 0.024056941 0.08879739
-0.023520328 0.033594046 0.086106598
-0.032795608 0.031567097 0.083781779
-0.028872084 0.033169173 0.080596983
-0.033822898 0.027462075 0.079901993
0.013761414 -0.013841399 0.1933549
0.017145328 0.035782408 0.13688716
0.015585427 0.037514091 0.13360444
0.013791335 0.03781065 0.1301811
0.012043122 0.036762074 0.12897751
0.013719455 0.037702188 0.12573355
0.0097004166 0.036401622 0.12525272
0.0068606539 0.035362288 0.12379676
0.0091209635 0.036935098 0.11960238
0.0053087231 0.035506092 0.12038249
-0.033580102 -0.0056925416 0.1160205
-0.034573779 -0.0087631308 0.11657405
0.0049957549 0.035248674 0.11530048
0.0011205655 0.03475105 0.11535001
-0.034047876 -0.0041402997 0.11217088
-0.035523154 -0.0077835284 0.11121058
-0.0014688708 0.034896776 0.11053497
-0.035318919 -0.0022196472 0.10740399
-0.03677284 -0.0060584061 0.10717499
-0.0020013452 0.035067819 0.10610074
-0.0058475174 0.034528486 0.10531729
-0.035856646 0.0035660025 0.10260963
-0.036176577 -0.00016453676 0.10314184
-0.037597239 -0.0052811392 0.10361034
-0.0032115597 0.035344034 0.1028505
-0.0074847499 0.034310337 0.10107946
-0.010887677 0.033844795 0.10086578
-0.035770424 0.0059896894 0.098907173
-0.036316264 0.0010802131 0.098461092
-0.0085136481 0.034103476 0.096794665
-0.011909023 0.033569865 0.095923245
-0.035620164 0.010730415 0.094462216
-0.03605248 0.00717788 0.093976915
-0.01392156 0.034056135 0.091469228
-0.035856109 0.012335862 0.090457201
-0.036050763 0.0090534491 0.089703619
-0.018350136 0.034091923 0.087724984
-0.035808992 0.01398532 0.085561037
-0.023503872 0.033054247 0.082405269
-0.03429896 0.019982304 0.082176983
-0.024780497 0.032586165 0.078469992
-0.034033284 0.021076754 0.076780379
-0.033779658 0.026521103 0.073461711
-0.033381958 0.02840195 0.068980455
0.011937313 0.037891336 0.11678082
-0.034230325 -0.010427299 0.11314636
0.010307676 0.036387552 0.1127736
0.0068162857 0.035249136 0.11185944
-0.035429247 -0.011351677 0.1082499
0.0099032316 0.036963526 0.10767931
0.0060590282 0.035135377 0.10816729
0.0028911205 0.033644494 0.1079089
-0.037531622 -0.008396429 0.10537821
0.0059825322 0.035006028 0.10361725
0.0022461396 0.034081083 0.10295027
-0.036272436 -0.0030291062 0.10118484
-0.036824457 -0.0071573714 0.099858344
4.5148656e-05 0.034329921 0.099049807
-0.0042132968 0.034347102 0.098781526
-0.035106368 -0.0030718949 0.095144033
-0.035750315 -0.0057413336 0.095402181
-0.004914104 0.03372208 0.094461381
-0.035741657 0.0039202999 0.091697991
-0.03501888 0.00079169683 0.0915941
-0.0067613311 0.033808209 0.090069413
-0.010336933 0.034040406 0.090622127
-0.035434704 0.0053667352 0.087295294
-0.0077702207 0.034143381 0.086306155
-0.011585892 0.034118906 0.085223556
-0.035394385 0.0074744411 0.08339119
-0.012293929 0.033899266 0.080772698
-0.033813298 0.016659658 0.078680813
-0.035008695 0.012842312 0.078995526
-0.03478919 0.0082084388 0.079413831
-0.013715745 0.033719435 0.07691294
-0.022524165 0.032136925 0.075565994
-0.034494285 0.014047001 0.07444936
-0.022679515 0.031423129 0.071122289
-0.032994274 0.023357073 0.068849027
-0.034320429 0.015219654 0.070932686
-0.02857271 0.031429566 0.066438735
-0.033239558 0.021431057 0.065771341
-0.029197186 0.031293571 0.061443985
-0.033207465 0.023941554 0.062081575
-0.032496531 0.028657196 0.056851208
0.012130598 0.037816569 0.10665154
0.0090008583 0.037384227 0.10191458
0.0064203842 0.035810895 0.10112089
0.0090678297 0.037724983 0.097010612
0.0063056983 0.035558306 0.096434414
0.0023762118 0.034297645 0.09610641
-0.03702125 -0.0071110595 0.093595982
0.0012446344 0.033408832 0.092122138
-0.034465555 -0.0032655895 0.08903867
-0.036469471 -0.0059106406 0.088575065
-0.0036659613 0.034076706 0.087712646
-0.034381352 -0.00055159442 0.08482188
-0.036079936 -0.0049800258 0.084823787
-0.005659068 0.034235027 0.083218396
-0.034949806 0.0043319855 0.081359804
-0.03448876 0.0015408993 0.07952255
-0.0071037589 0.033974662 0.07972604
-0.010233567 0.034075662 0.078011334
-0.034493871 0.0066331932 0.075888932
-0.034487847 0.0032678898 0.076408029
-0.01190522 0.033964034 0.074447572
-0.034848943 0.01209936 0.073500931
-0.034498651 0.0094449194 0.071763039
-0.033561729 0.014574357 0.068079889
-0.034244381 0.010538923 0.068137646
-0.021200489 0.032667141 0.064859092
-0.032145701 0.015693247 0.063831389
-0.023372313 0.033054646 0.060836375
-0.025213212 0.033473574 0.056540906
-0.0331829 0.026628451 0.055373192
-0.025457973 0.033080205 0.051836431
-0.032502722 0.029160898 0.051612198
0.010206132 0.037066989 0.092003882
0.0076475339 0.035354532 0.090738714
0.0041279122 0.033845231 0.090223074
-0.036449421 -0.0095077204 0.08756882
0.0098203477 0.037800539 0.087499142
0.007360829 0.035717983 0.085531652
0.0027872398 0.033425551 0.086325765
-0.035852093 -0.0051361406 0.082573652
-0.036835745 -0.0089635262 0.083986104
0.0056672161 0.035309933 0.082061112
0.0020644218 0.033926927 0.081336498
-0.001615312 0.033210628 0.080525994
-0.03410377 -0.001425039 0.078653097
-0.035686363 -0.0051503778 0.078374207
0.0013654679 0.0340361 0.077382088
-0.0030704401 0.033374779 0.076573968
-0.034194142 -0.00012026541 0.073613346
-0.035655469 -0.0045209965 0.073772073
-0.0043148631 0.03383857 0.072244823
-0.0097968718 0.033711404 0.071728766
-0.033909716 0.0061522154 0.069524944
-0.034281924 0.0021526776 0.069459319
-0.0061209965 0.034478638 0.067615449
-0.0099269627 0.033288728 0.0678491
-0.032946814 0.012920843 0.064697802
-0.033810783 0.0070424965 0.065154552
-0.034177922 0.0033960817 0.065980554
-0.010613427 0.033674307 0.063059747
-0.032600544 0.013917102 0.061288655
-0.03366071 0.0092984801 0.061271012
-0.012581192 0.033863872 0.058763027
-0.032249622 0.018558407 0.056225419
-0.017275251 0.033713579 0.053511381
-0.032883529 0.020583456 0.052569091
-0.018917095 0.033726592 0.049598277
-0.027138008 0.032642491 0.048316658
-0.032681167 0.022122636 0.048292041
-0.028370893 0.031426296 0.044652283
-0.032992806 0.023523418 0.043904603
-0.027821954 0.031453539 0.040574431
-0.033289727 0.025175706 0.040865958
0.0077043576 0.035047796 0.078378618
0.003960005 0.034911804 0.0785954
0.0068212645 0.035563305 0.074713886
0.0027929004 0.034397639 0.074179769
-0.036013342 -0.0051150629 0.070823967
-0.038028494 -0.0071835741 0.070171893
0.0014460795 0.0345724 0.069349349
-0.001920633 0.034369234 0.06894362
-0.033766545 -0.001895519 0.06682694
-0.035654813 -0.0044266907 0.066617787
-0.036373816 -0.0088164331 0.06627208
-0.0025827549 0.034144681 0.064995229
-0.033896148 0.0018085595 0.062394977
-0.0056656934 0.033917107 0.061297178
-0.0088795265 0.034778707 0.060421288
-0.033535164 0.006064753 0.058338881
-0.033769011 0.0024961643 0.058269024
-0.0099807372 0.033824082 0.056259036
-0.032420963 0.011690523 0.054277301
-0.032331973 0.0082690986 0.053643465
-0.011295395 0.033718027 0.051128626
-0.032907043 0.013364212 0.049875677
-0.0328632 0.0099896966 0.049282849
-0.032926936 0.019795399 0.045795202
-0.018160276 0.033369049 0.043662906
-0.032857832 0.020544922 0.041451573
-0.022039112 0.032464515 0.037234485
-0.03213504 0.026589008 0.036833704
-0.02355307 0.032333061 0.033326566
-0.030895017 0.027931361 0.03268677
-0.030150959 0.028608575 0.028394401
0.0074596386 0.035560708 0.071951807
0.0079442551 0.035632707 0.06818831
0.0046672309 0.034991886 0.068927407
-0.035778668 -0.010556893 0.062854767
0.0067071393 0.035743196 0.064092338
0.0032186117 0.034458108 0.06380868
-0.032891914 -0.0025709607 0.060744941
-0.034955449 -0.005587942 0.06052959
-0.036205284 -0.0097427061 0.059782147
-0.001709586 0.033374541 0.058827579
-0.033248 -0.00052737445 0.055633605
-0.035040677 -0.0053075915 0.055635393
-0.038485464 -0.0073909461 0.055668175
-0.0029839836 0.033013806 0.054033935
-0.0061605601 0.032634683 0.053440988
-0.032566957 0.0055509098 0.051720619
-0.033682186 0.0020325501 0.051911771
-0.039885074 -0.0069996566 0.05244565
-0.0073141316 0.032836638 0.049972475
-0.033160269 0.0071561458 0.04773277
-0.033916786 0.0033225687 0.047422647
-0.010510832 0.03351602 0.045802534
-0.032798536 0.012606598 0.043427765
-0.033445369 0.0088507636 0.043618619
-0.011256148 0.033719931 0.042089999
-0.033225868 0.014686418 0.039419413
-0.033987839 0.010674672 0.039080679
-0.019556381 0.032923356 0.035661817
-0.033488099 0.015840827 0.034893453
-0.034274444 0.012160849 0.034391642
-0.020958969 0.032588515 0.031978607
-0.032723274 0.021946922 0.031049311
-0.022625014 0.032746501 0.02702868
-0.030987624 0.027768033 0.026738942
-0.033710871 0.019191096 0.026658535
-0.031206453 0.028814029 0.022684813
-0.028927181 0.031499177 0.018724203
0.013743246 0.03640417 0.059661329
0.010351477 0.034886923 0.060587883
0.0070646014 0.033450969 0.059398711
-0.036241956 -0.011061066 0.056502998
0.0042676236 0.032267794 0.056510508
-0.033829696 -0.0049022017 0.052505016
0.00068987533 0.032370903 0.051634371
-0.032833651 -0.002164145 0.049356699
-0.034435168 -0.0050313324 0.048783779
-0.037395947 -0.0079177609 0.049123943
-0.0017678514 0.031781204 0.046784818
-0.005008515 0.03196767 0.047099292
-0.033110663 -0.00043589622 0.044172764
-0.033675674 -0.0035330886 0.044746935
-0.0058692778 0.031599183 0.042023242
-0.03305535 0.0057616448 0.04044503
-0.03300488 0.0023249714 0.039811909
-0.0095740724 0.032346781 0.038152218
-0.033640563 0.0071915584 0.03577131
-0.033588719 0.0040606428 0.036493361
-0.0084396303 0.031467788 0.034814835
-0.013254194 0.033171486 0.032896578
-0.033643328 0.0092039173 0.031653225
-0.018394943 0.032259073 0.028124511
-0.033306677 0.010665894 0.027521551
-0.019279383 0.032578774 0.024522483
-0.03373839 0.017374273 0.023360729
-0.025009733 0.031496461 0.019274116
-0.033280857 0.018346757 0.018648446
-0.026349539 0.031488918 0.015355825
-0.032453489 0.023777405 0.015410066
-0.026796782 0.030965051 0.011645138
-0.03158991 0.025018113 0.011764944
0.014080562 0.033650264 0.061042368
0.01587305 0.034750536 0.055425346
0.012380634 0.033459533 0.054417312
0.0087675564 0.031487487 0.053789556
0.0064443033 0.03152395 0.049678385
0.0050187018 0.03185958 0.044675946
0.0018045707 0.03191537 0.045953095
-0.03412661 -0.0062504299 0.04264611
-0.035778955 -0.009559311 0.041850269
-0.03760381 -0.011497881 0.039977968
7.4861571e-05 0.031797778 0.040954888
-0.0037116436 0.031174565 0.040552139
-0.032222439 -0.0023534726 0.038234711
-0.033253372 -0.0049156835 0.037252367
-0.035753436 -0.0084030768 0.036527812
-0.03803147 -0.011747764 0.036485016
-0.0015286291 0.031787187 0.035393178
-0.0044913152 0.031289838 0.036334813
-0.032877013 0.00096159615 0.034186006
-0.033352822 -0.0033733463 0.032148063
-0.036535617 -0.0074068317 0.032189667
-0.038884327 -0.0098467451 0.03201884
-0.0059981914 0.031990446 0.031315744
-0.032946881 0.0061680935 0.028821409
-0.033170011 0.0027205599 0.028964758
-0.008276606 0.033031013 0.02705127
-0.011599154 0.032758038 0.02664119
-0.032563936 0.0071654581 0.024894416
-0.032890033 0.0038197869 0.025156677
-0.0095605878 0.033408038 0.022602975
-0.012470581 0.03243579 0.023037255
-0.032605812 0.010443736 0.021008909
-0.017850304 0.031626724 0.017271459
-0.032339107 0.010998729 0.016299248
-0.019231152 0.032354314 0.013149083
-0.032768354 0.016954476 0.011623561
-0.024866257 0.031192083 0.0087961555
-0.031718988 0.022643367 0.0078269243
0.015939236 0.034861226 0.053325057
0.014479146 0.03404944 0.051501155
0.018202115 0.033096552 0.048918128
0.014152651 0.031876829 0.047390759
0.01102109 0.030562639 0.048101485
0.0099250395 0.031048615 0.043198049
0.0070658205 0.031506691 0.03902632
0.003628727 0.031368516 0.03762573
-0.037958026 -0.010916183 0.034078836
0.0060672658 0.031643149 0.034262002
0.0027686181 0.031305067 0.033747673
-0.033707753 -0.0029146699 0.030109942
-0.03728221 -0.0077383611 0.02916503
-0.039626155 -0.008968953 0.02973783
8.8650733e-05 0.031409569 0.029914081
-0.033134107 -0.0037348215 0.026487291
-0.03590833 -0.0074898871 0.025744498
-0.0015051262 0.032367196 0.027073324
-0.0036844602 0.032257944 0.024995148
-0.032270983 0.0026919385 0.02191782
-0.032597035 -0.0025766734 0.023169637
-0.0051877741 0.032453153 0.020535111
-0.032019343 0.008107326 0.01864177
-0.031901874 0.0040885843 0.017776489
-0.0079128621 0.032144934 0.017558753
-0.0099966601 0.030993929 0.015421033
-0.032112651 0.0090153432 0.014351308
-0.031813934 0.005658322 0.01368016
-0.011741929 0.031560078 0.011216938
-0.032346845 0.010114927 0.009151876
0.016572569 0.032586344 0.045204401
0.015166971 0.03121379 0.041147053
0.0140023 0.031040328 0.035962939
0.010698872 0.031201456 0.036274016
0.0093037421 0.031538054 0.031288683
0.0077760741 0.031352092 0.026949525
0.0038067456 0.030773643 0.027397156
0.0028590504 0.030844048 0.022740901
-0.03207114 -0.0042206701 0.019289672
-0.033978105 -0.0080314893 0.01983273
0.0013444107 0.030296512 0.017562687
-0.0016533872 0.030823201 0.017441988
-0.031952038 0.00075181108 0.016135454
-0.031743549 -0.0037873713 0.015348732
-0.0050298395 0.030850697 0.012836695
-0.032129608 0.003212804 0.011207759
-0.0053044623 0.031390943 0.008925736
-0.010237903 0.031452406 0.0085923076
0.021375902 0.031066554 0.037331641
0.019054528 0.030794192 0.038446665
0.021811606 0.03086601 0.034791827
0.018563423 0.030422278 0.034142315
0.014580453 0.030951802 0.030139387
0.014921789 0.030987404 0.025589824
0.011625844 0.031204738 0.024848938
0.0094208186 0.030642007 0.020817101
0.0062770601 0.029065266 0.018338323
-0.033389572 -0.010217316 0.016666293
0.0043075206 0.029202398 0.01515013
-0.032194819 -0.0055075157 0.013059139
-0.032545004 -0.0093419803 0.013788879
0.0027650753 0.029421184 0.010653555
-4.607439e-05 0.029694594 0.011369646
-0.031257994 -0.00394616 0.0086585879
0.022131173 0.030850928 0.031325698
0.020134114 0.030376215 0.031056821
0.023241894 0.031297922 0.027687967
0.01959344 0.029782774 0.02704972
0.01787284 0.030722819 0.023759365
0.016083855 0.030400546 0.019056559
0.01129488 0.030990351 0.018855333
0.011268075 0.03008824 0.014324427
0.0069298605 0.029185418 0.013613582
-0.031076541 -0.012467187 0.010239542
-0.030223602 -0.015873946 0.0090807676
0.0099516585 0.029757133 0.0099925399
0.0069897939 0.029065635 0.0090613961
0.024022587 0.030809151 0.024750054
0.023737326 0.030786889 0.021027267
0.020441609 0.030149288 0.020475388
0.019440718 0.029883269 0.015708089
0.017115582 0.03001361 0.011560082
0.014222221 0.029651843 0.010410249
-0.030483402 -0.01552936 0.0072234273
0.026502211 0.030194104 0.018546104
0.02633106 0.029549977 0.013789237
0.022488803 0.029560281 0.013760686
0.025475128 0.029482275 0.0097627044
0.022014933 0.029428726 0.0090329051
0.028727068 0.028843556 0.0097424984
