# .PCD v0.7 - Point Cloud Data file format
VERSION 0.7
FIELDS x y z
SIZE 4 4 4
TYPE F F F
COUNT 1 1 1
WIDTH 568
HEIGHT 1
VIEWPOINT 0 0 0 1 0 0 0
POINTS 568
DATA ascii
-0.022272523 0.033641633 0.19104731
0.017871119 0.037221909 0.18769825
0.0086061256 0.037196517 0.18821248
-0.0021482273 0.036881328 0.18802828
-0.011408052 0.037239671 0.18923599
-0.016006086 0.037905157 0.18946725
-0.02135893 0.037308808 0.18887344
-0.026690893 0.036583181 0.18729556
-0.030491717 0.03675979 0.18634859
0.0085067898 0.039021015 0.18535376
-0.0015187502 0.038602769 0.18416357
-0.011218105 0.040835023 0.18519723
-0.021154262 0.040216446 0.18440124
-0.026513632 0.038885232 0.18333414
-0.03034512 0.03857344 0.18297982
-0.011257302 0.0413692 0.18061775
-0.020524763 0.041250467 0.17983094
-0.027281437 0.039468106 0.17858991
-0.030941501 0.040307697 0.17862037
-0.017022599 0.041241527 0.17614019
-0.019324955 0.041116595 0.17596665
-0.030808955 0.041135486 0.17460623
0.018135807 0.030500712 0.19110399
0.013163005 0.030493917 0.19144079
0.0038872706 0.030832231 0.19127259
-0.0074255234 0.030496299 0.19090328
-0.016178599 0.030541835 0.19117761
-0.020968018 0.030253528 0.19080266
-0.026561527 0.029582558 0.18970284
-0.030964324 0.028950332 0.18921947
0.027758334 0.033023003 0.18786833
0.02393106 0.033296052 0.18873474
0.018679351 0.034623027 0.18899319
0.0085563874 0.03413403 0.18990338
-0.00066488911 0.034495413 0.18930161
-0.02682358 0.033301707 0.18884304
-0.030371558 0.033375498 0.1875394
0.031949479 0.03413618 0.18631408
0.028912801 0.035705868 0.18445468
0.0243618 0.036823872 0.18473434
0.018834069 0.037338436 0.18417701
0.0096157752 0.038891017 0.1829806
0.00034050498 0.038003445 0.18385598
0.028352909 0.037374083 0.18002251
0.024497997 0.037240032 0.17978066
0.018892959 0.037728429 0.17912108
0.0090450421 0.03848052 0.17904493
-0.00097453746 0.03859657 0.17871863
-0.010171209 0.040554464 0.17779294
-0.023251027 0.039858337 0.17772877
-0.025185611 0.039465185 0.17785203
-0.029421344 0.039312478 0.17803913
0.0092568584 0.038796425 0.17468005
-0.00055157178 0.039285719 0.17385602
-0.010594275 0.040235877 0.17368028
-0.021097519 0.040709436 0.17343456
-0.026180644 0.040663298 0.17356735
-0.02925051 0.041039046 0.17369029
-0.011423595 0.039884031 0.16997206
-0.019870352 0.040846825 0.16895571
-0.02527817 0.040386494 0.16883171
-0.030042533 0.040419575 0.16811174
0.0124927 0.023341598 0.19153062
0.0039465427 0.023086369 0.19102225
-0.0061612055 0.023225844 0.19069269
-0.011942273 0.023549138 0.19138286
-0.016290748 0.023255108 0.19120508
-0.020628164 0.022948084 0.19065589
-0.027125405 0.022727845 0.1895245
-0.030220592 0.02333772 0.18977275
0.027931115 0.026508631 0.19011405
0.024160473 0.026807727 0.19051135
0.019040091 0.026109638 0.19090834
0.013172762 0.027356209 0.19221652
0.0039028763 0.026737928 0.19145399
-0.0050452431 0.026663303 0.19031501
-0.026010489 0.026318727 0.18996775
-0.030125985 0.026840625 0.19012153
0.032499395 0.031673435 0.18721047
0.029366104 0.030601086 0.18823183
0.032165695 0.033538822 0.18320489
0.027769279 0.037022833 0.17702115
0.024672691 0.03701121 0.17688942
0.02160709 0.036501709 0.17643574
0.028091624 0.034774069 0.17280528
0.024723433 0.0356468 0.17284435
0.019469477 0.036825061 0.17287773
0.0094133466 0.038322985 0.17161629
0.018952992 0.037129104 0.16797197
0.0096162017 0.03784883 0.16761309
0.00028642491 0.038427174 0.16762602
-0.01030973 0.037810564 0.16626856
-0.019791842 0.040390015 0.16628632
-0.025203053 0.039502438 0.16548157
-0.029069278 0.039359029 0.16523299
0.017566219 0.038132966 0.16440713
0.0097969826 0.037900925 0.16394499
0.0012508244 0.037645638 0.16343659
-0.010776617 0.037469387 0.16237831
-0.019669231 0.039604843 0.16206083
-0.024320394 0.039150234 0.16157225
-0.029442169 0.038989302 0.16232446
-0.018770847 0.039243579 0.15813181
-0.021154122 0.015690563 0.192763
0.028995657 0.021128537 0.19084644
0.0243698 0.020164313 0.19006276
0.019680807 0.020100178 0.18983057
0.014653662 0.020343127 0.19099286
0.0086411387 0.020795703 0.19117612
-0.00073566084 0.019413769 0.19131199
-0.011162074 0.01888728 0.19147265
-0.016388936 0.018640099 0.19201759
-0.021273678 0.019142209 0.19173169
-0.025462186 0.019437132 0.18962485
-0.029745487 0.018992184 0.19040704
0.032221045 0.024422947 0.1875284
0.030106952 0.024738314 0.18992493
0.032238279 0.025724534 0.18650991
0.028318275 0.033912305 0.16947126
0.025887828 0.035257284 0.17025831
0.028921962 0.034455303 0.16566744
0.025328554 0.035204891 0.16648757
0.021422319 0.036158208 0.16603485
0.029804889 0.036802951 0.16187006
0.025518626 0.037239436 0.16226
0.020821311 0.037494481 0.16224506
0.0099229962 0.03772372 0.16143531
0.00035723715 0.037628949 0.16099486
-0.0099797174 0.037411809 0.15985581
-0.028938115 0.037533458 0.15844429
0.02574141 0.038786951 0.15769911
0.021058187 0.038727045 0.15747416
0.010144059 0.038394809 0.15682083
0.00076437218 0.038861334 0.15677053
-0.010138609 0.038510919 0.15610525
-0.01969089 0.039197326 0.15566117
-0.024157748 0.038185056 0.15533367
-0.029156826 0.037189182 0.15464896
-0.032442234 0.037297186 0.15315747
0.025899023 0.039667848 0.15455139
0.022827428 0.03880072 0.1538384
0.0056200107 0.038804114 0.15316862
-0.0037118604 0.038625598 0.15174079
-0.014623977 0.039569616 0.15102062
-0.019304048 0.039571345 0.15083927
-0.024188228 0.038719054 0.15030038
-0.028669704 0.038601693 0.14981002
-0.03255837 0.039276298 0.15012169
-0.012932099 0.039996207 0.14761275
-0.019181043 0.039533257 0.14704978
-0.025432792 0.039401766 0.14671612
-0.030114178 0.039814468 0.14681998
-0.032689318 0.040424939 0.14651349
0.022872848 0.012144031 0.1924386
0.019319782 0.011852743 0.19257417
0.015009581 0.011928321 0.19198242
-0.0011562958 0.012470722 0.19210058
-0.0054664789 0.012937008 0.19174534
-0.010637284 0.011814295 0.19163844
-0.016478019 0.012257336 0.19179541
-0.020574929 0.012416361 0.1922718
-0.025872489 0.010859666 0.18964276
-0.029036729 0.011252698 0.19066769
0.027965741 0.016205313 0.19099259
0.024432762 0.01578957 0.19105083
0.019687133 0.016396346 0.19122517
0.014184288 0.015679182 0.19147646
0.008719313 0.015068592 0.19087905
-0.0007430496 0.01537931 0.19159156
-0.010139429 0.015308141 0.19115996
-0.025796963 0.013907073 0.18966106
-0.028919881 0.014766333 0.19005439
0.030812172 0.031389777 0.16417754
0.032041412 0.032796923 0.16047812
0.025442839 0.037243489 0.15004036
0.021284163 0.037146807 0.1505205
0.015968692 0.037190974 0.15058005
0.0057671261 0.038408458 0.15007591
-0.0035886276 0.038377583 0.14874658
-0.022367854 0.038259204 0.14793453
0.025617141 0.037903193 0.14671159
0.021532733 0.037797991 0.14576715
0.016115941 0.037752688 0.14592165
0.0057758843 0.037420452 0.14519963
-0.0034390034 0.038666725 0.14516538
-0.014607944 0.039132416 0.14481968
-0.019109409 0.038515031 0.14421594
-0.023614906 0.038194235 0.1438182
-0.028312184 0.0386337 0.14394143
-0.031615354 0.038980301 0.14334494
-0.0032549908 0.039199769 0.14079338
-0.01425783 0.03963244 0.1406734
-0.01874363 0.038987339 0.13933241
-0.023888383 0.03810906 0.13882479
-0.028354708 0.038896617 0.13866067
-0.03151571 0.039137181 0.13966089
-0.029030744 0.039483245 0.13523135
-0.011063188 0.0050352803 0.19226745
-0.015809134 0.0055389986 0.19237101
-0.020549405 0.00566989 0.19225192
-0.029247142 0.0041193343 0.19096282
0.02856186 0.0095970063 0.19113204
0.024840452 0.0099123735 0.19227457
0.020069085 0.008697452 0.19318348
0.013969495 0.0090503106 0.19265333
0.0085098101 0.0097703347 0.19172302
0.0039950525 0.0080721378 0.19195598
-0.0054811398 0.00826615 0.19167998
-0.010239498 0.0076673618 0.19203979
-0.015281037 0.0087884059 0.19213676
-0.022307698 0.0083183032 0.19131795
-0.025979981 0.0071480847 0.19015563
-0.030185286 0.0078344913 0.19070044
0.02933201 0.012305501 0.19004589
0.02577062 0.03806502 0.14397782
0.023412876 0.037976447 0.14382485
0.016595785 0.03780961 0.14344496
0.0069027436 0.037400544 0.14278501
0.021847438 0.037090484 0.1398702
0.016798828 0.037148118 0.13980764
0.0063142483 0.03688091 0.13857776
-0.0031153406 0.038398623 0.13737178
-0.020442054 0.038449109 0.13674188
-0.022802949 0.037966367 0.13631058
0.0020888322 0.037118912 0.13398001
-0.0076981294 0.038551569 0.13346842
-0.018743202 0.038489938 0.13300201
-0.023474813 0.03811067 0.13255182
-0.027961385 0.03861123 0.13218796
-0.031353977 0.038508769 0.13253507
-0.012822744 0.038667619 0.12950858
-0.018070519 0.038704336 0.12869209
-0.024942331 0.037831243 0.12844771
-0.028889753 0.038256463 0.12860209
-0.020728827 -0.0017746706 0.19334677
-0.026310641 -0.0014234209 0.19405773
-0.029980399 0.0012627217 0.19536468
0.019146636 0.0027679817 0.19216946
0.014352329 0.0032343876 0.19224873
0.0084868912 0.0020843155 0.19205692
0.0040182974 0.0023292308 0.19220221
-0.0055012032 0.0020017619 0.19161031
-0.010299701 0.0019066324 0.19227675
-0.0154703 0.0017250762 0.19241348
-0.020622533 0.001412986 0.19201335
-0.025846008 0.0014106013 0.19151756
-0.030633468 0.0027679177 0.19193986
0.027974166 0.0048996829 0.1901167
0.02475097 0.0039173388 0.19124222
0.0095729278 0.0057947645 0.19173869
0.015953984 0.035706222 0.1362046
0.020943489 0.034430623 0.1326015
0.01698814 0.034981787 0.13187388
0.0066332691 0.036975145 0.13174063
-0.0024664751 0.036996126 0.13111869
0.016419124 0.036401093 0.12705886
0.006814037 0.03786701 0.12774652
-0.0024857852 0.036697209 0.12679386
-0.012415029 0.037305593 0.12605858
-0.017936107 0.038064241 0.12622416
-0.023100674 0.036845978 0.125633
-0.027523663 0.036877748 0.12540752
0.016061794 0.038187981 0.12315303
0.0070406166 0.037867486 0.12290376
-0.0088791577 0.036671937 0.12240773
-0.017102465 0.038769722 0.12186742
-0.022466462 0.037023362 0.12075812
-0.027164824 0.036480483 0.12157714
-0.017445005 0.0390172 0.1179471
-0.019828785 0.03853792 0.11750609
-0.010389882 -0.0067464719 0.19270116
-0.015610072 -0.0063611879 0.19317263
-0.019845292 -0.0057572145 0.19450653
-0.024006359 -0.0045040869 0.19437289
0.028193668 -0.0017215585 0.18986189
0.025005788 -0.0019288041 0.18960527
0.020528968 -0.0020081382 0.19076693
0.014927849 -0.0015798794 0.19199422
0.0096261129 -0.0021389714 0.19255355
0.0040280451 -0.0030577178 0.19270101
-0.0059156078 -0.0037320857 0.1914224
-0.010020483 -0.003237904 0.19219193
-0.014811035 -0.0025411858 0.19240314
-0.018340714 -0.0025666372 0.19297916
-0.024706665 -0.0024114868 0.19280434
0.028120272 0.0010498787 0.18966061
-0.0073433402 0.035640836 0.12366581
-0.029621426 0.034721132 0.12215698
-0.03122139 0.034108337 0.12165374
0.016719889 0.038335979 0.12068611
0.0071894662 0.037561059 0.11976111
-0.0024165954 0.036051989 0.12025064
-0.011929262 0.037389398 0.1189155
-0.022690833 0.036522027 0.11836475
-0.028124895 0.035838064 0.11856776
-0.031109538 0.034923133 0.11834663
0.016872127 0.040215313 0.11718333
0.0071157669 0.037603915 0.11643225
-0.0024294532 0.036239386 0.11507159
-0.011786763 0.037306428 0.1149447
-0.016331408 0.037891567 0.11464483
-0.022156026 0.03737646 0.11460727
-0.027412731 0.037354168 0.11419839
-0.030925438 0.037260588 0.11419463
-0.0084368875 0.036842883 0.11079621
-0.019639868 0.037213147 0.11065263
-0.026828218 0.03759497 0.11066747
-0.03081603 0.037882503 0.11073184
-0.0054420708 -0.01092595 0.19677305
-0.010972458 -0.010482551 0.19651949
-0.014986592 -0.0095835933 0.19687095
0.019071711 -0.011498509 0.19425252
0.014823039 -0.010473489 0.19281083
0.0098227533 -0.0092445603 0.1935707
0.0043386398 -0.0094137788 0.19380033
-0.005619972 -0.0089020142 0.19349355
-0.01047781 -0.0081681618 0.19464517
-0.014965589 -0.0083391676 0.19454184
0.029382933 -0.0057132216 0.19001666
0.024861094 -0.0062979436 0.1901916
0.020237915 -0.0072132926 0.19092041
0.015746929 -0.0063088522 0.19173229
0.011279617 -0.0055950871 0.19243106
-0.0047240849 -0.0060730581 0.19147906
0.0083079012 0.036507726 0.1131444
-0.0012954803 0.036248088 0.11259311
0.012680669 0.036609888 0.10992974
0.0028399699 0.037518859 0.10974509
-0.0065541225 0.037077725 0.10881931
-0.016373094 0.036788642 0.10848534
-0.021370929 0.036269601 0.1076659
-0.02595403 0.03657585 0.10698241
-0.029684309 0.036458489 0.10642672
0.0078336019 0.037555039 0.10600048
-0.0018045171 0.037555397 0.10564339
-0.011388875 0.036882281 0.10378939
-0.016207743 0.036891162 0.10361791
-0.021025851 0.036562502 0.10319293
-0.025843557 0.036337908 0.10284489
-0.029859941 0.036188718 0.102584
-0.016603295 0.037395298 0.099673867
-0.019680794 0.037386537 0.099388123
-0.026562329 0.036538716 0.099987149
0.024203504 -0.01432055 0.19531125
0.020151323 -0.014094887 0.1952714
0.015367971 -0.015422105 0.19429946
0.010461383 -0.014063775 0.19488102
0.00078915746 -0.014355361 0.19430405
0.028356092 -0.011759517 0.19231424
0.025114017 -0.012445508 0.19270942
0.020818384 -0.012042819 0.1921424
0.015662404 -0.012187897 0.19277585
0.010502451 -0.012815177 0.19374529
0.026014894 -0.010441242 0.19018689
0.014736773 0.034144163 0.10303128
0.0039754924 0.035559595 0.10236943
0.0083770631 0.035005271 0.098560154
-0.0014960723 0.035334587 0.098000646
-0.010981335 0.03569591 0.09767592
-0.021827355 0.035909053 0.097289741
-0.025463179 0.035322841 0.096538484
-0.030549675 0.035097536 0.096751511
-0.033747669 0.035280403 0.09577328
0.0030214419 0.036127746 0.093421161
-0.0059346664 0.036184788 0.092717707
-0.015837137 0.036558688 0.092390358
-0.02049239 0.03637439 0.092330098
-0.02556761 0.035442408 0.092184603
-0.030591663 0.035961743 0.091644824
-0.015708975 0.03743577 0.089044809
-0.019753288 0.037216723 0.088728249
-0.03186664 0.038113888 0.088980973
0.014330865 0.032686234 0.096861243
0.014523883 0.033618152 0.091244578
0.0056048878 0.035721421 0.091323197
-0.022243876 0.035173353 0.089078248
-0.025485672 0.034987088 0.088816524
-0.028727416 0.034872469 0.088609934
0.014714089 0.034504294 0.087209284
0.0042890836 0.035649359 0.087523282
-0.0059027816 0.036665738 0.086783051
-0.015605538 0.03716445 0.085807562
-0.020714041 0.036360621 0.085431099
-0.02536568 0.035858389 0.085449874
-0.02941161 0.036535379 0.085829258
-0.0057335529 0.036121786 0.082308292
-0.015647616 0.037199318 0.081012011
-0.019791123 0.036898017 0.081050813
-0.025252208 0.035556611 0.081161141
-0.029011175 0.037052151 0.081517041
0.015204796 0.032877564 0.088676095
0.014832583 0.033506393 0.085086584
0.007187658 0.034154475 0.085311115
0.014710908 0.033532977 0.082044959
0.0057650348 0.033507645 0.080679238
-0.0048076618 0.034744263 0.079223871
-0.013735115 0.036704779 0.078401744
-0.021093421 0.035675049 0.078346968
-0.025198173 0.035026368 0.078710258
-0.02839119 0.036124464 0.077417552
0.0057941889 0.034313381 0.075424731
-0.0046626027 0.035381019 0.075637281
-0.015251062 0.035442889 0.074281156
-0.020173285 0.03455615 0.074086666
-0.025543902 0.033594485 0.075014353
-0.028329905 0.034242149 0.072860479
0.00082844927 0.035969734 0.071677804
-0.0097861765 0.035868943 0.070446312
-0.014792181 0.035385251 0.0703457
-0.018419255 0.034936488 0.070682645
0.0077283555 0.034680307 0.073472261
-0.021757226 0.033746418 0.071676075
-0.02473503 0.032678839 0.071545422
-0.029951666 0.033235606 0.070977509
0.0059674839 0.034580767 0.068790376
-0.0035470123 0.036517262 0.068351328
-0.015031761 0.035369098 0.067711055
-0.019280054 0.034318805 0.067800581
-0.024525151 0.032742973 0.067165911
-0.029501174 0.034028288 0.067291975
0.001515989 0.034775853 0.065061152
-0.0086597791 0.035057366 0.064096451
-0.018219825 0.033983529 0.063723743
-0.030909974 0.035003778 0.062538981
-0.03119975 0.035331663 0.058116496
0.014699225 0.029597225 0.066572785
0.0080419639 0.032801211 0.066819668
-0.022396229 0.032306548 0.064303517
0.016083432 0.031011226 0.062247396
0.006600461 0.033467472 0.062104762
-0.00326229 0.033364952 0.060631752
-0.013139489 0.034074545 0.059815705
-0.017795011 0.033582509 0.06050247
-0.023128856 0.03210878 0.060998499
-0.027831562 0.032706555 0.060011983
0.015012079 0.032556355 0.059576809
0.0068026232 0.03309077 0.057627857
-0.0031071559 0.033799767 0.056810081
-0.013030014 0.033934116 0.056571066
-0.018236902 0.033778548 0.056710124
-0.022976145 0.032447513 0.056056976
-0.027902547 0.03302389 0.055306494
-0.031148359 0.03531849 0.056020677
-0.0031881176 0.034907579 0.053071022
-0.012860036 0.034818113 0.052058995
-0.017625201 0.03456223 0.051945031
-0.0239335 0.033798274 0.052234411
-0.027815953 0.033439811 0.052505016
-0.031948928 0.033570822 0.052467823
0.016856631 0.031041207 0.056312084
0.0077407593 0.032738566 0.055276811
0.016085308 0.032310545 0.051427066
0.0070908898 0.032987177 0.051246285
-0.0020097636 0.034710467 0.050244272
-0.019413382 0.034610748 0.049556017
-0.022217404 0.03345513 0.049908638
-0.02773774 0.032956179 0.048953474
-0.031075059 0.031429347 0.047577262
0.0069807349 0.033098757 0.046262205
-0.0028857414 0.034537375 0.046107531
-0.012670438 0.034082532 0.04618454
-0.017652258 0.03359282 0.045605242
-0.022975594 0.033085044 0.045211494
-0.027629912 0.03249478 0.0443483
-0.030925091 0.032761987 0.043396771
0.018964613 0.027891817 0.048532009
0.017097747 0.031243743 0.045924485
0.0090468517 0.032907724 0.044902444
-0.00089061365 0.033553004 0.042972088
-0.012546613 0.032838285 0.041972637
-0.016713828 0.032870829 0.041855872
-0.022577085 0.032329377 0.042264462
-0.027545303 0.032460209 0.041138768
0.016775984 0.032778502 0.040802836
0.0075296545 0.033903778 0.041428387
-0.002444546 0.034065306 0.040155351
-0.012447099 0.033705533 0.039509237
-0.017700613 0.03321594 0.039374113
-0.022268757 0.031984147 0.038524985
-0.027464759 0.032072421 0.037620783
-0.030808704 0.031693634 0.037188172
0.016110096 0.034525752 0.036908925
0.0077467086 0.034462869 0.036569357
-0.0022608854 0.033525467 0.035433352
-0.012269671 0.034270644 0.034650385
-0.017282456 0.033941269 0.03420037
-0.023163147 0.033020552 0.034291208
-0.027525727 0.033478674 0.033726811
-0.031054713 0.034500655 0.034205675
-0.028856702 0.034721907 0.030180871
-0.030497763 0.035002407 0.029288948
0.021384409 0.025064589 0.045939088
0.021010445 0.026298823 0.041957915
0.019295467 0.027814092 0.042087793
0.022617316 0.029689314 0.037803888
0.019417664 0.030464591 0.038955748
0.026789924 0.030296328 0.033482611
0.022831069 0.031461719 0.033740103
0.018447492 0.0324651 0.033864141
0.0079322634 0.033454001 0.032502294
-0.0029193638 0.031481802 0.030455232
-0.021603251 0.031803008 0.031382143
-0.02558824 0.032235857 0.030323803
0.027193284 0.031846825 0.02963227
0.023252236 0.031957868 0.02959311
0.018201921 0.032841027 0.029094756
0.0081061693 0.03275162 0.028675854
-0.0020029629 0.030779839 0.028449833
-0.012032545 0.033783913 0.027526736
-0.017076001 0.033703864 0.027556479
-0.022141106 0.032142576 0.027128458
-0.02714248 0.033031102 0.02663976
-0.030429855 0.034123357 0.025307596
-0.012732334 0.033537984 0.023237526
-0.016933519 0.032915831 0.022559166
-0.02288875 0.032040413 0.023771882
-0.027586766 0.033193704 0.022439539
-0.03038007 0.033852872 0.022914112
0.023460565 0.022039952 0.044950008
0.026294084 0.021912398 0.039582074
0.023797655 0.02336538 0.041340113
0.027645832 0.024454119 0.036052346
0.023789445 0.025000216 0.037758529
0.028155072 0.028160574 0.034096718
0.028400263 0.031525496 0.02831775
0.024241241 0.031473581 0.027048588
-0.0014818151 0.030539334 0.025918067
0.026990233 0.030919077 0.023406565
0.023652131 0.031076791 0.02233988
0.018536376 0.031718493 0.022720993
0.013459274 0.031808794 0.022627532
0.0033415454 0.03122437 0.021782398
-0.0065887449 0.031926274 0.021781981
-0.016862147 0.032407999 0.019950271
-0.02172607 0.031385001 0.020454705
-0.02616827 0.031674918 0.020089984
0.022140192 0.031808142 0.01855886
0.018421493 0.032408655 0.018081665
0.013966304 0.032144904 0.017014921
0.0031032069 0.031878173 0.017434776
-0.006585422 0.032797337 0.016271889
-0.016519807 0.032239079 0.015725076
-0.021819631 0.031511303 0.015514433
-0.025206955 0.031516131 0.015624702
-0.028624205 0.03070551 0.015898347
-0.0098131588 0.032859027 0.011838377
0.028275097 0.029541912 0.021172822
0.028018793 0.029131236 0.015698075
0.02428407 0.031198563 0.016786873
0.018894114 0.032498121 0.015403152
0.0044586277 0.031444728 0.015462041
-0.019222775 0.031265438 0.013418615
-0.025150089 0.031075416 0.013054729
-0.028599979 0.027784524 0.011165082
0.023637732 0.030869188 0.011936665
0.019358357 0.031747282 0.011201799
0.013784704 0.031709552 0.011337042
0.0038270925 0.030598819 0.010305703
-0.0063299676 0.032216549 0.0091905594
-0.015181544 0.031843901 0.0094481111
-0.01995091 0.030540047 0.0088343024
-0.025065349 0.03028029 0.0090649724
0.022724541 0.031595651 0.0073978305
0.019307191 0.031716406 0.007391572
0.014201787 0.031546772 0.0070727468
0.028659178 0.027363123 0.0099517703
0.025495587 0.030300261 0.0092939138
0.029624509 0.025372447 0.0087948442
