# .PCD v0.7 - Point Cloud Data file format
VERSION 0.7
FIELDS x y z
SIZE 4 4 4
TYPE F F F
COUNT 1 1 1
WIDTH 737
HEIGHT 1
VIEWPOINT 0 0 0 1 0 0 0
POINTS 737
DATA ascii
-0.017677687 -0.032764241 0.18947816
-0.018091911 -0.033942714 0.18553194
0.00099076144 -0.030079048 0.19301125
0.0045248242 -0.031633742 0.19290432
-0.026818682 -0.022187067 0.19082785
-0.023933042 -0.023420466 0.19162878
-0.015755955 -0.027514426 0.1923418
-0.0051305192 -0.030994149 0.19135585
0.0033254856 -0.034245517 0.19106653
0.0080502322 -0.03491129 0.1901364
-0.028150763 -0.023053482 0.18805203
-0.021847086 -0.028956398 0.18903077
-0.0095786694 -0.033027116 0.19033158
-0.0023239888 -0.03538353 0.18783587
0.0023347782 -0.036176361 0.18698746
0.0071155168 -0.036705069 0.18595666
-0.02826225 -0.024954516 0.18460983
-0.022164444 -0.030360222 0.18325803
-0.012730786 -0.03524892 0.1827282
-0.0030178577 -0.036473721 0.1822874
0.0016165851 -0.036896154 0.18266058
0.0051418953 -0.03712659 0.18310648
-0.018616468 -0.03333731 0.17850065
-0.0082269972 -0.036392391 0.17732254
-0.018338988 -0.034562886 0.17400813
-0.010705628 -0.037337761 0.17360759
-0.020619292 -0.01718571 0.1917924
-0.012932773 -0.021027308 0.19181427
-0.0031697713 -0.025072822 0.19174504
0.00089075509 -0.027340163 0.19288534
0.0059736138 -0.028324012 0.19340199
0.010262043 -0.030033242 0.19226837
0.014521184 -0.030787896 0.19015709
0.021236116 -0.031958614 0.19033399
-0.030760132 -0.014835608 0.18871212
-0.027816124 -0.017716914 0.19058844
-0.022779923 -0.020625422 0.19247326
-0.012685403 -0.024538904 0.19187629
-0.0062414017 -0.027167775 0.19156778
0.013955796 -0.03480367 0.18844995
0.019876279 -0.034742162 0.18678436
0.023516592 -0.034267787 0.18734366
-0.030098766 -0.019254617 0.18644655
0.012720463 -0.036130026 0.18425483
0.017501164 -0.035962664 0.18264878
-0.029501284 -0.021324089 0.18196857
-0.026423395 -0.02612135 0.18110943
0.0019087307 -0.03645575 0.17906404
0.0072085429 -0.036499087 0.18011218
0.012292932 -0.035980165 0.17953402
0.015688971 -0.035991699 0.17950705
-0.028550381 -0.022929441 0.17748082
-0.023054536 -0.029493663 0.17569134
0.0021229098 -0.035946086 0.17448497
0.0068654148 -0.035652258 0.17554706
-0.022496412 -0.029688071 0.17196095
-0.0080909608 -0.037050158 0.17142481
0.00098830648 -0.03661985 0.16956308
-0.018633245 -0.032943077 0.16833961
-0.010053441 -0.036186494 0.16736838
0.022371873 -0.025825825 0.19304815
-0.028603576 -0.0093733873 0.18965614
-0.025414351 -0.011501433 0.19118053
-0.021072064 -0.013257295 0.19193816
-0.016093889 -0.01531874 0.19180647
-0.0071754046 -0.018481417 0.19175562
0.0037644464 -0.022515502 0.19217917
0.008200746 -0.023102829 0.19266233
0.012617925 -0.024657585 0.19231468
0.01695155 -0.027583975 0.1906158
0.020969383 -0.030106146 0.19017074
0.024705976 -0.031717118 0.18834275
-0.031456146 -0.011424433 0.18791395
0.024337478 -0.034584455 0.1851033
-0.03203059 -0.014345044 0.18447268
0.020611176 -0.035582691 0.18110996
0.024028944 -0.03605561 0.18111551
-0.032511506 -0.015756669 0.17962793
-0.031007713 -0.018411092 0.17980418
0.012381443 -0.035556894 0.17651147
0.018158983 -0.036020949 0.17699242
0.023082126 -0.037037801 0.17578128
-0.032804865 -0.016654372 0.17591766
-0.030416166 -0.020549908 0.17557141
-0.026887052 -0.024102796 0.17363453
0.00681997 -0.036297299 0.17267811
0.012143947 -0.035836194 0.17305079
0.016991064 -0.036384977 0.17199403
0.022332031 -0.037614901 0.17181003
0.026176479 -0.038796358 0.17171288
-0.03006183 -0.021089386 0.17092505
-0.027467556 -0.024534339 0.17012149
0.0027677678 -0.037438795 0.16834447
0.0064930646 -0.037081622 0.16835946
0.011456182 -0.0366235 0.16747573
0.015870515 -0.036760114 0.16882524
-0.029921634 -0.022133388 0.16592067
-0.026618944 -0.026092608 0.1658709
-0.018950159 -0.031454265 0.16503948
-0.0032805651 -0.035845552 0.16427332
0.0010029329 -0.037218615 0.16408211
0.005677186 -0.038143083 0.16327697
0.0090938453 -0.038202062 0.16418606
-0.022640433 -0.029209517 0.16110519
-0.014723897 -0.034051932 0.1611768
-0.0047538737 -0.035165995 0.15967813
0.00098795444 -0.036905572 0.16017002
-0.019136455 -0.032353029 0.15606427
-0.011641711 -0.034271915 0.15666476
0.020465663 -0.018686749 0.19472972
-0.022945125 -0.0038888711 0.19244662
-0.017906755 -0.0061431848 0.19231176
-0.014111171 -0.0072020823 0.19186273
0.00075075915 -0.013322353 0.19191173
0.0050666961 -0.015064718 0.19157121
0.010992257 -0.017320715 0.19132018
0.015183272 -0.019274946 0.19212112
0.01938244 -0.020933719 0.19211644
0.021692211 -0.023510702 0.19288945
-0.027932448 -0.0047469651 0.1899831
-0.024862265 -0.0072778286 0.19175977
-0.018930396 -0.0087144459 0.19215626
-0.013723906 -0.011253492 0.19140118
-0.0052396515 -0.014599529 0.19166076
0.0034323437 -0.01821778 0.1912871
0.017352816 -0.023451705 0.19037396
-0.033647679 -0.0062221242 0.18588033
-0.030546827 -0.0068888022 0.18820187
-0.034102682 -0.0092972433 0.18193454
-0.033201903 -0.01135086 0.1819227
-0.03467742 -0.0099663315 0.17692217
-0.033781007 -0.012214077 0.17795762
-0.035305269 -0.010789936 0.17199361
-0.033927601 -0.014767203 0.17328942
0.022676824 -0.037544884 0.16919947
0.026391238 -0.038161837 0.16850156
-0.036114641 -0.01250383 0.16948944
-0.033537291 -0.014999583 0.1685783
-0.030858297 -0.01846008 0.16867882
0.016959226 -0.036603726 0.16603062
0.021905899 -0.037269037 0.16572136
0.025553692 -0.037266858 0.16448915
-0.032573901 -0.015726758 0.16475648
-0.030593257 -0.019206438 0.16383943
-0.02825724 -0.023181316 0.1629501
0.011697335 -0.036530294 0.16136989
0.016368777 -0.036580056 0.16134983
0.021243058 -0.036930352 0.16104078
0.024709202 -0.037673824 0.16123134
-0.030078139 -0.020061092 0.15910637
-0.027567133 -0.024120256 0.15852198
-0.0033385232 -0.034815166 0.15736559
0.0013586776 -0.035725012 0.15653723
0.0059170211 -0.037081208 0.15695888
0.011300073 -0.03586955 0.15653479
0.014941053 -0.036141705 0.15751731
-0.027222266 -0.024822004 0.1537863
-0.02064134 -0.031064142 0.1536063
-0.0098050395 -0.034154631 0.15393603
0.0010760706 -0.03543492 0.15227509
0.0053178845 -0.036067173 0.15181273
-0.026411545 -0.025986195 0.15030739
-0.01950882 -0.032004725 0.15007517
-0.010425993 -0.034597483 0.1489681
-0.0022060042 -0.03535356 0.14887756
-0.015453806 -0.033991206 0.14536116
-0.0068807276 -0.035895269 0.1449219
0.013937305 -0.011794907 0.19231981
0.017230831 -0.014232734 0.19366574
0.020789465 -0.015428189 0.19549248
-0.025919776 0.0006755013 0.19123021
-0.021615505 -0.00055158418 0.19303757
-0.016410694 -0.0023999428 0.19263759
-0.011522789 -0.0049329619 0.1914672
-0.0073913112 -0.0073170438 0.19103298
0.0017832229 -0.0090016648 0.1917749
0.0065868571 -0.011867001 0.19203117
0.010927477 -0.013376947 0.19152719
0.014632013 -0.016163405 0.19264686
-0.030374374 -0.00047467463 0.18799442
-0.028155074 -0.00086936355 0.18975899
-0.033043798 -0.0010579173 0.1850391
-0.034659814 -0.0060208822 0.18023783
-0.034942899 -0.0059799477 0.17564797
-0.035963181 -0.0097809108 0.17159659
-0.036717635 -0.01147439 0.16718754
-0.035068113 -0.013628018 0.16610873
-0.036066681 -0.011302155 0.16314465
-0.033316076 -0.01373271 0.16228461
-0.031291604 -0.016183391 0.16090012
0.018421452 -0.036133021 0.15838054
0.02172314 -0.036464762 0.15824664
-0.03225797 -0.013803639 0.15787089
-0.030963741 -0.018319244 0.15756458
0.012077824 -0.035903644 0.1544441
0.016790485 -0.03616919 0.15487534
0.020301234 -0.035507344 0.15368727
-0.030799124 -0.020230316 0.15281239
-0.029363343 -0.022827279 0.15113524
0.0019764062 -0.035675015 0.14972535
0.0066034095 -0.036517207 0.15000477
0.011220928 -0.036245991 0.1504932
0.015979245 -0.03756173 0.15014321
0.01957977 -0.036868166 0.14998761
-0.030557854 -0.021151409 0.14855987
-0.027714858 -0.024358291 0.14758027
-0.0042539723 -0.035864029 0.1460132
0.00053062662 -0.035254411 0.14592892
0.0057601128 -0.035991449 0.14523375
0.011490431 -0.03659704 0.1458832
0.014898293 -0.038866356 0.1447407
0.016685553 -0.042943668 0.145091
-0.026244767 -0.024643289 0.14371803
-0.019580182 -0.030709887 0.14305374
-0.010573482 -0.035636123 0.14270303
-0.00068971794 -0.035929821 0.14136451
0.0032414924 -0.035969935 0.14097008
0.014373921 -0.0424468 0.14109856
0.015955877 -0.044446833 0.1433956
-0.015445532 -0.033137411 0.13814634
-0.0064563714 -0.036157753 0.13732597
-0.015535723 -0.032897927 0.13418451
0.019849792 -0.0083186962 0.19441396
-0.023586161 0.0077873366 0.19184369
-0.019583188 0.0047851335 0.19238433
-0.014669136 0.0020324457 0.19254759
-0.0084016407 0.0017704098 0.19147608
-0.0042015263 0.00046021049 0.19151893
0.0041342634 -0.00442251 0.19190931
0.0086759785 -0.0058807218 0.1914784
0.012965827 -0.0071429941 0.19119403
0.017799269 -0.0089142984 0.19281912
-0.028233336 0.0067127994 0.18959633
-0.025118327 0.0047613005 0.19129422
-0.0094337147 -0.0018487677 0.19138756
-0.0057081361 -0.0031918257 0.19111213
-0.030546857 0.0038008648 0.18661714
-0.032802403 0.0027567064 0.1840964
-0.033425935 -0.010371877 0.15899587
-0.032154225 -0.01299649 0.15451103
-0.031299207 -0.015224699 0.15465796
-0.032369412 -0.012785162 0.14968571
-0.03156795 -0.015349252 0.15101168
-0.030974934 -0.018216155 0.14623791
-0.029233545 -0.021529827 0.14458534
0.0076620178 -0.035862543 0.14244106
0.010571604 -0.036346704 0.14263442
-0.030981522 -0.018997032 0.14161646
-0.027674856 -0.023345899 0.14121062
0.0054495139 -0.036255952 0.13910103
0.0105258 -0.036371861 0.1386162
0.013428447 -0.03917107 0.13846803
-0.030954063 -0.020543426 0.13777187
-0.027716912 -0.023182804 0.1362676
-0.020808689 -0.029159224 0.13533464
0.0036504278 -0.036468029 0.13444474
0.0097827762 -0.036531959 0.13411903
0.014056898 -0.039096288 0.13422945
-0.019996727 -0.031014182 0.13241956
-0.011449315 -0.034581926 0.13153279
-0.0015012976 -0.035966877 0.12991393
0.0024482822 -0.036205631 0.13014394
-0.015943427 -0.03301692 0.12665945
-0.0064668627 -0.035160642 0.12705433
0.020873547 -0.0018839026 0.19305503
-0.026993429 0.012447808 0.19118401
-0.023554748 0.010170951 0.19148564
-0.012655885 0.0073551247 0.19101226
-0.0079933349 0.0059504742 0.19191384
-0.0022652773 0.0051293066 0.19222075
0.0064945817 0.0012091794 0.19197911
0.010886969 -0.00070478674 0.19182971
0.015277341 -0.0026174018 0.19168112
0.018352158 -0.0049530249 0.1924127
-0.031045232 0.012642131 0.18704793
-0.029220393 0.010361949 0.18872172
-0.032615773 0.010181084 0.18368214
-0.030837266 0.0077608027 0.18545741
-0.033071298 0.0088206828 0.1801925
-0.032627195 -0.0075588152 0.15194303
-0.032514732 -0.00825107 0.14696598
-0.032326177 -0.011809211 0.14428496
-0.031545945 -0.014124054 0.14355853
-0.032062605 -0.015943125 0.13955396
-0.032356322 -0.018119447 0.13542578
0.0099117998 -0.035875924 0.13216376
0.013538186 -0.037517503 0.13210118
-0.031238649 -0.018116599 0.13148499
-0.028544445 -0.021557586 0.13067245
0.0038769385 -0.036204245 0.12802601
0.0094834585 -0.035905723 0.12843931
0.013359617 -0.036340773 0.1281774
-0.027603064 -0.022014938 0.12638277
-0.021454811 -0.029319011 0.12402254
-0.0061283978 -0.033987239 0.12327069
0.0039565116 -0.03541024 0.12343258
0.0075438907 -0.036219284 0.12340397
-0.020158466 -0.030492935 0.12072784
-0.011232136 -0.033367962 0.11957794
-0.00023396965 -0.034192678 0.12059563
0.0050960742 -0.035953298 0.12008512
0.0073653022 -0.03739085 0.11966461
-0.015595578 -0.031944886 0.11560082
0.011487726 0.0095731886 0.1960187
0.014374578 0.0070874263 0.19609213
0.018800924 0.0051855235 0.1959255
0.021970397 0.0024264385 0.19560516
-0.021403128 0.017758684 0.19338679
-0.0045136753 0.01231296 0.1931347
-0.00075904187 0.010131488 0.193205
0.0089121424 0.0063047111 0.1927599
0.013062099 0.0042768423 0.19326413
0.017547695 0.0025395565 0.19299677
0.02144656 0.00034879241 0.19404703
-0.029268753 0.019489067 0.1905137
-0.025322389 0.016707405 0.19218791
-0.02074687 0.015390288 0.19074321
-0.016301841 0.013835676 0.18852231
-0.011757845 0.012536196 0.19040668
-0.0073613059 0.0096700666 0.19209045
-0.038159549 0.020472035 0.18519059
-0.033869129 0.018962624 0.18560439
-0.031556133 0.016426176 0.18724066
-0.038420636 0.020067023 0.18360367
-0.036091246 0.016992111 0.18110201
-0.033987854 0.013692231 0.18213007
-0.036596261 0.015236537 0.1776039
-0.034203343 0.012902337 0.17698473
-0.033126336 -0.0052256966 0.14626649
-0.032565687 -0.0085179647 0.14088103
-0.032853067 -0.010824002 0.1365892
-0.033775389 -0.012681494 0.1331819
-0.034669492 -0.012939849 0.12728083
-0.032052457 -0.016893385 0.12845051
0.013288856 -0.035634629 0.12515444
-0.031796619 -0.017410774 0.12367797
-0.029122295 -0.021200042 0.12437344
0.010084128 -0.035439759 0.12276495
0.012661379 -0.034916982 0.12293428
-0.031288117 -0.018588621 0.11909723
-0.02901607 -0.021676619 0.11942577
-0.025664357 -0.024922412 0.11985302
-0.0049015544 -0.034517478 0.11639076
0.0032495614 -0.035517991 0.11817151
0.0067042066 -0.037380498 0.11725211
-0.027765326 -0.022344369 0.11553794
-0.020326149 -0.029587744 0.11438119
-0.011484729 -0.034102362 0.11308199
-0.0017247116 -0.035005182 0.11374652
0.0031182654 -0.03586838 0.11279094
0.0068875477 -0.037258763 0.11252391
-0.020777194 -0.029620524 0.11002499
-0.012377243 -0.034989819 0.10922641
-0.0025471775 -0.035973333 0.10897905
0.0029415824 -0.035952806 0.10895306
-0.016992001 -0.03310458 0.10547149
-0.0076557696 -0.034936242 0.1049071
-0.0039969366 0.017783066 0.19439733
0.0069849892 0.014739933 0.19404718
-0.017483387 0.020800391 0.19137403
-0.01337531 0.020355534 0.19153953
-0.0094396174 0.017531067 0.19222245
-0.006051376 0.016158128 0.19251961
0.0056120576 0.012683159 0.19221103
-0.029203415 0.020852122 0.18821144
-0.017802704 0.018670224 0.19008845
-0.014796305 0.017660284 0.1888923
-0.034790214 0.022686448 0.18496814
-0.036767486 0.020169357 0.18216121
-0.036408108 0.017848644 0.17484328
-0.032276366 0.015304841 0.17322952
-0.034970839 0.017856982 0.17064664
-0.033637721 0.01511719 0.17117959
-0.032859709 -0.0038955659 0.14248061
-0.03291449 -0.0075084567 0.13599694
-0.03433843 -0.011958086 0.1265502
-0.033631466 -0.011680344 0.12222749
-0.032672025 -0.013357425 0.12005907
-0.032075029 -0.01575166 0.11650002
-0.030910242 -0.016667932 0.11277741
-0.028551579 -0.019404327 0.11186141
-0.026187668 -0.022254959 0.1120162
-0.027604124 -0.020803347 0.10752606
-0.025065817 -0.023163192 0.10730428
-0.00029474217 -0.034998596 0.10537559
0.0033306442 -0.034769326 0.10548359
0.0081082657 -0.03542668 0.1052205
-0.024581665 -0.024326241 0.10328305
-0.016140072 -0.030581359 0.1014905
-0.0063856738 -0.033389382 0.10075796
0.0031548068 -0.034809072 0.10115379
-0.016397201 -0.030765884 0.097698331
-0.0073058056 -0.033583924 0.097258747
-0.012918675 -0.033200659 0.093561828
-0.035763174 0.020275287 0.17141709
-0.033999491 0.010636628 0.14762312
-0.032823097 0.0090081319 0.14825076
-0.03312121 0.0040664291 0.14547539
-0.033406314 0.0039546536 0.14173895
-0.033420909 0.0046633389 0.13741025
-0.032718495 -0.012630955 0.11465633
-0.031508271 -0.015583455 0.11026078
-0.029686732 -0.017425435 0.10891837
-0.031657871 -0.015708454 0.10560268
-0.029161405 -0.018744506 0.10535836
0.010095632 -0.035208464 0.10219896
0.012058331 -0.034792803 0.10229158
-0.029041853 -0.019684728 0.100806
-0.025876787 -0.022839146 0.10068911
0.0031284327 -0.034606792 0.098022819
0.0082794083 -0.035040412 0.098663747
0.011964865 -0.034714282 0.098262846
-0.028554562 -0.020147085 0.096366823
-0.025692634 -0.023128906 0.095467448
-0.019217253 -0.028802169 0.095256448
-0.0024428871 -0.03486364 0.093977869
0.0025814017 -0.035596646 0.094860792
0.0073001096 -0.035727859 0.093708336
-0.021861384 -0.026786169 0.091266811
-0.012137702 -0.033192862 0.091287017
-0.0029976349 -0.035865135 0.090822339
0.002160266 -0.036095235 0.089293063
0.0061579514 -0.036460109 0.089587986
-0.013212224 -0.033688352 0.086392224
-0.0035072956 -0.035792157 0.086085677
-0.034718398 0.013491933 0.14710796
-0.034988824 0.013261757 0.14439911
-0.032717686 0.010093298 0.14368165
-0.033889811 0.012147118 0.14083689
-0.032831173 0.010710237 0.13845396
-0.032878522 0.0089112194 0.13465098
-0.031858079 -0.01307432 0.10269815
-0.03139808 -0.01591019 0.099433839
0.013877356 -0.034289181 0.096355855
-0.030918092 -0.014004961 0.094956338
-0.029711487 -0.01712415 0.094267726
0.010522216 -0.033402596 0.090778291
0.0126104 -0.032797433 0.09170872
-0.029568631 -0.01878015 0.089683354
-0.026608445 -0.022518083 0.090291619
0.0078835441 -0.035079535 0.08739686
-0.029130545 -0.020364374 0.085043848
-0.02611823 -0.022811718 0.085254967
-0.018192906 -0.029261112 0.084114671
-0.0011743819 -0.035097525 0.083609223
0.0023032548 -0.035292082 0.083613932
0.007189896 -0.036320977 0.083159626
0.011323462 -0.036910325 0.080752969
-0.026156064 -0.023454428 0.081126213
-0.018441398 -0.028917091 0.080639184
-0.0079852026 -0.032827225 0.079603851
0.0018543489 -0.034551241 0.078818858
0.0072233062 -0.037037585 0.078404546
0.010275282 -0.039100267 0.078560889
-0.018630305 -0.029876769 0.075754941
-0.0097875614 -0.03364433 0.075230002
0.010410902 -0.040587071 0.07547754
-0.014821148 -0.033416171 0.071829259
-0.035312694 0.016762074 0.14631641
-0.036672089 0.018508436 0.14273816
-0.034428272 0.015214133 0.13678765
-0.034169782 0.01287121 0.13260832
-0.033115558 0.011007775 0.13244975
-0.033005405 0.0090817101 0.12905633
-0.03072677 -0.0016608899 0.10684586
-0.030705456 -0.0090050781 0.095548332
-0.030888978 -0.013409154 0.091494918
-0.03119744 -0.013452415 0.086527407
0.010704337 -0.032569714 0.08506608
0.013058909 -0.031269677 0.084415257
-0.03087208 -0.018488176 0.083383918
0.0099978335 -0.034027316 0.083253086
0.01256243 -0.034191616 0.081505179
-0.029643297 -0.020097725 0.078781188
-0.026933571 -0.023025988 0.078314424
0.0021980796 -0.034956776 0.076773047
0.0053206207 -0.036021598 0.077001274
-0.026432741 -0.023022795 0.074442685
-0.020338351 -0.028883275 0.073303998
0.00053347647 -0.033752378 0.072099507
0.00621418 -0.035746694 0.073426366
0.011139943 -0.038756359 0.072555244
-0.01895407 -0.029330276 0.06903106
-0.0095536821 -0.033802945 0.068400145
-0.017564248 -0.029785382 0.064746737
-0.01106197 -0.033527285 0.065263271
-0.035651404 0.017969783 0.13488579
-0.037569776 0.018435821 0.13021111
-0.035685491 0.016205853 0.13101733
-0.038291801 0.017231036 0.12619078
-0.035528567 0.014513512 0.12629867
-0.033519275 0.011144483 0.12554997
-0.035194676 0.014398437 0.12203038
-0.033040375 0.011368435 0.12260777
-0.034504466 0.004508297 0.10802907
-0.032293186 0.0010717306 0.10756266
-0.035038937 0.0029073739 0.10452485
-0.031811122 0.00065534469 0.10364479
-0.031400677 -0.00072923768 0.099699855
-0.030294901 -0.0039157597 0.099102139
-0.030717995 -0.0042734714 0.094392836
-0.033446148 -0.0057407022 0.088091493
-0.031476777 -0.0074254032 0.090244532
-0.0340457 -0.0067915116 0.084903121
-0.032152675 -0.0089362608 0.085765779
-0.032419287 -0.011285678 0.081662595
-0.032036185 -0.012808161 0.075556815
-0.030831696 -0.017097302 0.076642513
-0.032462437 -0.014551068 0.072274268
-0.030605113 -0.018315211 0.072711706
-0.026980972 -0.021933395 0.071058333
0.0025138147 -0.03357983 0.068988085
0.005795164 -0.034349401 0.06947124
0.0099618463 -0.035137113 0.069671035
0.013724081 -0.036670964 0.067436993
-0.030565094 -0.01883159 0.068032384
-0.026648315 -0.02168248 0.067134917
-0.020178467 -0.027623836 0.066137135
0.00080896635 -0.033118494 0.066120923
0.0058533102 -0.033860847 0.06495136
0.010958599 -0.034654312 0.06587851
0.015373386 -0.036798585 0.063856959
-0.029828306 -0.020277802 0.064071536
-0.026531681 -0.022330463 0.063054562
-0.019205457 -0.028576801 0.062080681
-0.0096254461 -0.032445036 0.061306417
0.00054454245 -0.033296902 0.061137259
0.005252393 -0.034122255 0.06138885
-0.019410063 -0.029083978 0.057564199
-0.010309095 -0.033055723 0.057368338
-0.0015301378 -0.033634886 0.057916522
-0.015409425 -0.031905476 0.053036213
-0.0074817115 -0.034460992 0.053243458
-0.011206571 -0.034344543 0.049192011
-0.036605712 0.017707206 0.12239373
-0.036122479 0.015878864 0.11988187
-0.031261783 0.013505243 0.11940169
-0.031857312 0.0091153113 0.10826927
-0.035132226 0.010180603 0.10656649
-0.034910284 0.0046401983 0.10097992
-0.032981094 0.0027453685 0.10060644
-0.03493461 0.0024965508 0.099352598
-0.032039791 0.0022048242 0.096185327
-0.031510159 0.00056913309 0.091795206
-0.033512183 -0.0019527348 0.087578177
-0.034542974 -0.0043550348 0.083385468
-0.034710731 -0.0061703064 0.079881847
-0.032610904 -0.0088556809 0.077621341
-0.032928828 -0.0091645708 0.074316859
-0.03410773 -0.012536931 0.070052743
-0.033829577 -0.014935999 0.066770375
-0.031033505 -0.016491134 0.063818634
0.011218378 -0.033798631 0.062049568
0.014284347 -0.035057243 0.061923087
-0.029635675 -0.017030457 0.060595155
-0.027965846 -0.021101773 0.060555339
0.0061296215 -0.033712782 0.057968259
0.011057178 -0.03334967 0.05785352
0.015774086 -0.035518896 0.057830155
0.018191854 -0.038217708 0.057670236
-0.026410621 -0.022334479 0.056452453
-0.0032113725 -0.03297301 0.05381161
0.00062229112 -0.032522209 0.054257214
0.0060393596 -0.032574821 0.05401361
0.018612556 -0.03704682 0.053518653
-0.025956219 -0.02235928 0.051681101
-0.019937325 -0.029559383 0.050750434
-0.001302762 -0.032363143 0.049536645
-0.020156642 -0.029605696 0.046635211
-0.010934967 -0.033377182 0.045988142
-0.018863179 -0.030362045 0.042514145
-0.011784902 -0.032825645 0.041893661
-0.03439929 0.017677205 0.11571664
-0.034511436 0.017952237 0.11254448
-0.030624986 0.016219771 0.11347163
-0.034911606 0.016976323 0.10753804
-0.031243429 0.01551872 0.10802412
-0.036367822 0.013847087 0.10498327
-0.033793014 0.012366377 0.10541493
-0.03387817 0.006094926 0.094586372
-0.034410283 0.0066996538 0.089726508
-0.032669567 0.0040812856 0.090419233
-0.035703264 0.0047296323 0.085385442
-0.03406674 0.0021489384 0.087025166
-0.035031389 0.00039162301 0.08234185
-0.033226542 -0.0073584914 0.07262224
-0.030377114 -0.014073557 0.058692336
0.013177154 -0.032958124 0.054481685
0.0162533 -0.034239016 0.054368913
-0.028979557 -0.015656179 0.054627001
-0.027769864 -0.018277105 0.054559112
0.0026849266 -0.03166195 0.050804555
0.0056670569 -0.032163385 0.051203191
0.011444961 -0.03254424 0.05160743
0.0160884 -0.034410454 0.051388264
0.018842777 -0.036381926 0.05084151
-0.027274042 -0.019603565 0.049783409
0.00087640714 -0.032238759 0.048053563
0.0058581298 -0.033110138 0.04806459
0.010876054 -0.032984067 0.047103047
0.015735738 -0.034114443 0.047270119
0.019146817 -0.035545357 0.048002899
-0.026652152 -0.022212887 0.04598707
-0.0040744999 -0.032676071 0.044029593
0.00028788578 -0.032917302 0.043835282
0.0049972935 -0.033572786 0.043215096
-0.027026122 -0.023655646 0.041354597
-0.020540129 -0.02896608 0.040764868
-0.010465536 -0.032698926 0.039734423
-0.00096160825 -0.033652119 0.03901124
0.00329383 -0.033486668 0.039218247
-0.020706119 -0.029716546 0.036273599
-0.010951946 -0.032390285 0.035932422
-0.020083522 -0.029892111 0.031899273
-0.034435522 0.019014653 0.10778463
-0.035806835 0.0071625761 0.086249828
-0.029927101 -0.011899269 0.051661015
-0.029103294 -0.014213839 0.047134221
0.01302679 -0.032544427 0.043639719
0.01675451 -0.033453599 0.043556929
0.020562463 -0.034182396 0.043311298
-0.029490765 -0.014240376 0.043660641
-0.02772627 -0.018313935 0.042469203
0.007125739 -0.033145718 0.039751291
0.010841061 -0.032583706 0.040429056
0.015535603 -0.03284923 0.03979224
-0.027267728 -0.020825787 0.038219929
0.0014981637 -0.033175584 0.036405861
0.0052676676 -0.032903302 0.035939097
0.0092625581 -0.032198962 0.036143661
-0.027038321 -0.021218356 0.034142554
-0.010532639 -0.030940758 0.03144753
-0.00077953842 -0.033320054 0.03222543
0.0047254693 -0.032759428 0.031724393
-0.020578666 -0.028531672 0.028865278
-0.010591767 -0.03073672 0.028076231
-0.0013623331 -0.032649886 0.027335465
-0.011571726 -0.030580288 0.025062144
-0.030547727 -0.0059043095 0.047461569
-0.031275801 -0.00732233 0.044476569
-0.030461559 -0.010167127 0.046304226
-0.030345667 -0.012119566 0.04058218
0.018583603 -0.032133058 0.038191497
0.021174811 -0.03250625 0.037568152
0.024895787 -0.032410443 0.036198676
-0.030149993 -0.013884347 0.036416054
-0.028187696 -0.016838495 0.036583483
0.012069531 -0.031244051 0.033714235
0.01606562 -0.032174259 0.034039497
0.020072605 -0.033114206 0.032767951
0.023998907 -0.03415551 0.032447398
-0.030521361 -0.015502701 0.030993879
-0.028248291 -0.018158996 0.031792223
0.0065022539 -0.032370951 0.029356837
0.010687784 -0.031430546 0.028897941
0.01461033 -0.032045648 0.027668655
0.019268386 -0.034058496 0.027559519
0.02300968 -0.036050059 0.027760446
-0.027913343 -0.020021079 0.027318239
-0.024911076 -0.023196705 0.026269674
0.00027747918 -0.032552931 0.025807142
0.0049651228 -0.032740369 0.025139749
0.0091369674 -0.031655978 0.02497977
-0.027555522 -0.021254446 0.021900177
-0.024606522 -0.024230914 0.022623122
-0.015698055 -0.029205298 0.022219837
-0.005957278 -0.032182004 0.022120476
0.0038818195 -0.033414353 0.020258069
-0.020894382 -0.027975932 0.017689764
-0.011596737 -0.032036368 0.017519295
-0.0020062998 -0.033871777 0.016207278
-0.021512721 -0.028951991 0.013224661
-0.012280151 -0.032489285 0.012192547
-0.03138439 -0.0025346791 0.042042911
-0.032131493 -0.0067799557 0.038779676
-0.033227857 -0.0080043944 0.034464717
-0.031671062 -0.011390832 0.033671081
-0.033459552 -0.0095100245 0.029616654
-0.032127064 -0.013141612 0.029753387
0.016047999 -0.032842375 0.025602698
-0.034079786 -0.01193522 0.02734679
-0.030411398 -0.014718835 0.025283396
-0.029240806 -0.017679948 0.023530483
0.010261285 -0.031779882 0.023224652
0.014536135 -0.031842336 0.022107065
0.019770291 -0.0325546 0.020787418
0.023550242 -0.033823863 0.020782411
-0.02984326 -0.014230494 0.021062076
-0.028880114 -0.017798319 0.019854188
0.0092451014 -0.031624123 0.018379211
0.014138739 -0.031615343 0.01792407
0.01801515 -0.032121856 0.01780206
-0.028531831 -0.019452054 0.015916169
-0.026637428 -0.023804713 0.015382588
0.00051573198 -0.033576254 0.014325261
0.0038376022 -0.032751657 0.014214873
0.0066485507 -0.03219581 0.013192415
-0.028237874 -0.021270642 0.012121558
-0.026059972 -0.024078421 0.010995626
-0.0019996157 -0.033028491 0.0099767447
0.0025065793 -0.03281555 0.008870542
-0.029529396 0.0018467214 0.044644535
-0.033612169 0.0017458759 0.03855902
-0.031632245 0.00045596249 0.041536391
-0.034896601 -0.00094929338 0.034505844
-0.033171345 -0.0029029418 0.037536442
-0.034102753 -0.003193005 0.031567037
-0.034123097 -0.0074822204 0.028300822
-0.031381875 -0.011375585 0.022679925
0.025620604 -0.03184526 0.017051637
-0.030388303 -0.012841901 0.017983675
0.011029007 -0.030852407 0.014941692
0.015043173 -0.031234108 0.014339447
0.019929666 -0.031841204 0.014699817
0.024279214 -0.031909246 0.014654338
-0.030799896 -0.013332698 0.014114738
-0.029886853 -0.017837249 0.012932003
0.0098738028 -0.030664809 0.011252761
0.014373773 -0.031455345 0.010903835
0.019916933 -0.031643219 0.010881424
-0.031087656 -0.015739806 0.0094958544
-0.029331237 -0.019638153 0.009309113
0.008428161 -0.031913601 0.0068107843
-0.03082718 0.0083670709 0.042484879
-0.029743718 0.0061955908 0.043699265
-0.033029374 0.0059406958 0.038978159
-0.029890519 0.006332139 0.040402293
-0.03370063 0.0020698057 0.035092533
-0.031351011 -0.0077207861 0.014328659
0.025612861 -0.031621087 0.012482226
-0.031583585 -0.0094442433 0.011340499
0.020312715 -0.031655483 0.0083537698
0.024776453 -0.031151991 0.0079955459
-0.031958457 -0.013000741 0.0076342821
0.028892338 -0.028428819 0.0088072419
-0.032030232 -0.003790441 0.0081654787
-0.03187459 -0.0081541659 0.0082066655
