# .PCD v0.7 - Point Cloud Data file format
VERSION 0.7
FIELDS x y z
SIZE 4 4 4
TYPE F F F
COUNT 1 1 1
WIDTH 779
HEIGHT 1
VIEWPOINT 0 0 0 1 0 0 0
POINTS 779
DATA ascii
-0.022124555 0.035673212 0.18936083
-0.030037627 0.031618357 0.18926701
-0.022929134 0.037874892 0.18725342
-0.031844873 0.034091167 0.18664494
-0.028225604 0.038789257 0.18314552
-0.024669027 0.040279146 0.17944986
-0.031929173 0.037431315 0.17838725
-0.027031476 0.025101801 0.19126338
-0.015709128 0.034112733 0.18982154
-0.024779283 0.029840209 0.1909166
-0.029281866 0.028176855 0.19045228
-0.032521918 0.026260009 0.18787229
-0.015490971 0.038044743 0.18581569
-0.03307293 0.030402252 0.18663523
-0.034306876 0.027916316 0.18394202
-0.017572055 0.039533097 0.18172127
-0.033803791 0.032623116 0.18271321
-0.034140274 0.031637874 0.17991513
-0.02310596 0.040378142 0.17634898
-0.03238662 0.036675002 0.17522743
-0.033984393 0.033685975 0.17614043
-0.02328999 0.039433151 0.17148572
-0.031394321 0.036592025 0.1706107
0.0034462446 0.034293663 0.19058135
0.00027295947 0.032823052 0.19080257
-0.0081526367 0.029852344 0.19119042
-0.017981034 0.025352582 0.19089103
-0.026717711 0.021610636 0.1914655
-0.03037858 0.019515809 0.19021878
0.0035427334 0.03678361 0.18768096
-0.0052830316 0.035293519 0.18840575
-0.012798958 0.031081362 0.19013515
-0.032891549 0.022470806 0.18772054
0.0029957676 0.038426135 0.18477225
-0.0060280226 0.037640329 0.1836096
-0.034625046 0.02646105 0.18094534
-0.0061129369 0.038463023 0.178655
-0.033626847 0.028372636 0.17825973
-0.011324334 0.03935359 0.17481473
-0.034337506 0.02958226 0.17321301
-0.01686128 0.039161514 0.16991878
-0.026986968 0.037662912 0.16796464
-0.034433208 0.03124099 0.16922244
-0.021901436 0.03850238 0.16486385
-0.030906672 0.035426542 0.16371965
-0.033519045 0.032490481 0.16473991
-0.026821095 0.038071223 0.15987423
-0.0094575481 0.020961449 0.19076824
-0.020314325 0.017814929 0.19180271
-0.024587959 0.01615731 0.19224948
-0.02832032 0.013639648 0.19112647
0.015923467 0.034533747 0.18882737
0.012148986 0.033958167 0.18954822
0.007246362 0.031865757 0.19020718
0.002129972 0.030219765 0.19134974
-0.0065790871 0.026092745 0.1913839
-0.015053988 0.022336006 0.19040942
-0.030990385 0.016280413 0.19047558
-0.033000536 0.013163026 0.1872254
0.015641209 0.036257718 0.18563986
0.011242635 0.036404978 0.18662053
0.0065767765 0.035816241 0.18773657
-0.033771403 0.015986279 0.18380755
0.014384355 0.037656903 0.18215078
0.010893633 0.037837114 0.18205929
0.0055483291 0.037873901 0.18226963
-0.032810543 0.017613109 0.17978188
0.0099470159 0.037975848 0.17805302
0.0052713649 0.037750598 0.1772047
-0.032710426 0.022126155 0.17423773
-0.0053322967 0.038721278 0.17252964
-0.033429563 0.024250582 0.17109615
-0.0057438388 0.038093783 0.16840968
-0.013836395 0.03823274 0.16729495
-0.034842044 0.028359216 0.1656557
-0.034586526 0.023366451 0.16617209
-0.015003134 0.037953719 0.16343746
-0.034128122 0.02896338 0.16217667
-0.020713232 0.038202044 0.15799722
-0.031118302 0.035320818 0.15787268
-0.032948084 0.03187776 0.15782192
-0.020896729 0.037947975 0.15296644
-0.030993192 0.036636312 0.15336934
-0.026572756 0.038657311 0.14805642
-0.027540501 0.039292455 0.14493597
0.025364991 0.034704391 0.19191936
0.023206968 0.032074716 0.19080874
0.019543026 0.030681834 0.19071874
0.010205768 0.025735516 0.19013086
0.0048563695 0.024473971 0.19121262
-0.0044675963 0.020572308 0.19086158
-0.012879792 0.015787035 0.19103205
-0.017540105 0.013178031 0.19147307
-0.022113997 0.011351978 0.19240189
-0.026759071 0.0095587634 0.19208768
-0.030980878 0.0083924169 0.18898153
-0.034886893 0.0050033452 0.18738246
-0.037962418 0.0043567708 0.18669608
0.026336316 0.035274468 0.18913367
0.022247564 0.034481682 0.18875092
0.017902132 0.033800319 0.18982658
0.013133875 0.031589046 0.19069293
0.0087882625 0.029863808 0.19054383
-0.03638633 0.0082423547 0.18518472
-0.038715985 0.0065891929 0.18357626
0.024940664 0.036836803 0.18409809
0.021505101 0.036713671 0.1847218
0.017920367 0.036910038 0.18556619
-0.034857538 0.014188011 0.18089569
-0.036300179 0.0097951908 0.18062958
-0.038893398 0.0072315075 0.18123847
0.024633449 0.037959024 0.18114883
0.021187205 0.038110368 0.18010342
0.016586922 0.037880532 0.1806502
-0.033646163 0.014462683 0.1768727
-0.035087373 0.010734063 0.1770319
0.021119805 0.038756702 0.1768153
0.015887726 0.038532652 0.17615145
0.011512662 0.03855668 0.17623591
0.0054420205 0.037801802 0.17397466
-0.03281983 0.016101919 0.17242196
0.014922257 0.037937321 0.17205375
0.011182161 0.038231336 0.17140195
0.0060620932 0.037825357 0.17061728
0.0019299444 0.037552334 0.17040423
-0.033542044 0.018388877 0.16749376
0.010037231 0.037977025 0.16753867
0.0058306279 0.037935223 0.1665549
0.0011529978 0.037865344 0.16528755
-0.034768037 0.021829536 0.1643239
-0.0048503969 0.037693609 0.16126937
-0.033856168 0.026438437 0.15864867
-0.033947833 0.022417273 0.15798229
-0.0099699534 0.038265124 0.15716076
-0.033680297 0.027980499 0.1554839
-0.01496294 0.039219905 0.15220609
-0.034012418 0.02962672 0.1513705
-0.020787772 0.038478136 0.14677256
-0.033097014 0.032427937 0.14659196
-0.025833732 0.039007492 0.14198366
-0.032949813 0.032768521 0.14186627
-0.029473495 0.037140373 0.13763931
-0.0058286949 0.011052985 0.19208324
-0.010224062 0.0093430728 0.19194999
-0.014432674 0.0070392969 0.19176674
-0.019572942 0.0046712914 0.19198847
-0.024051525 0.0031605214 0.19221458
-0.027797014 0.00026355218 0.19040203
-0.032341693 -0.0018869136 0.18976897
0.022782065 0.029197641 0.19104564
0.020242348 0.026335863 0.19033915
0.016884973 0.023214305 0.19056186
0.012340352 0.022219272 0.19110271
0.007565781 0.019705778 0.19139719
0.0022053029 0.017439654 0.19100034
-0.0067270575 0.014271938 0.19182253
-0.015233343 0.0102802 0.19117153
-0.029632581 0.0033770734 0.18925372
-0.033325415 0.00081713777 0.18830913
-0.036085296 -0.00066565163 0.18707177
0.028923243 0.033566803 0.18595776
0.018027157 0.028470855 0.18972597
0.015291276 0.026949491 0.1893774
0.028281659 0.035470389 0.18260559
-0.037189171 0.0074315527 0.17732704
-0.03835256 0.0046050353 0.17710596
0.02714977 0.037214234 0.17810345
-0.03630802 0.0092050442 0.17428154
-0.037934016 0.0052499482 0.17339197
0.025851656 0.037960656 0.17385763
0.021653417 0.038096514 0.17351931
0.018203534 0.038112931 0.17332616
-0.034232005 0.013357962 0.17104265
-0.036019225 0.0099148564 0.16954726
0.021803156 0.037986603 0.16899633
0.017193582 0.03761331 0.16927835
0.013365998 0.038052242 0.16873562
-0.034529068 0.014523745 0.1662423
-0.035623904 0.0108055 0.16604912
0.021188118 0.038447194 0.16543758
0.017018802 0.037678264 0.16451558
0.012318778 0.037603632 0.16471261
0.0074491622 0.037205458 0.16334629
-0.034091357 0.017073352 0.1612007
0.012036444 0.037367973 0.16064215
0.0071655978 0.037443224 0.15870115
0.0024073338 0.037547238 0.15904325
-0.03340812 0.021104135 0.15703139
0.0058092549 0.037711404 0.15422592
0.0015383698 0.037653297 0.15419707
-0.034571398 0.022770852 0.15233594
0.00015850179 0.037351348 0.15053385
-0.0079835709 0.037435859 0.15006593
-0.034753084 0.024219841 0.14850172
-0.0094210189 0.037008256 0.14553913
-0.033458747 0.028089233 0.14458084
-0.018541258 0.03761746 0.14108843
-0.031189499 0.034290567 0.13866991
-0.032972954 0.031636819 0.1392194
-0.024312783 0.037507057 0.13515076
-0.032950804 0.032411017 0.13455573
-0.029208435 0.035809465 0.12987816
-0.026015587 -0.0078762267 0.19571143
-0.029533008 -0.0075871395 0.1965324
-0.011521122 0.00096219964 0.1924572
-0.016870378 -0.00058902428 0.19259378
-0.022298872 -0.0029980941 0.19271815
-0.02628069 -0.005337154 0.19329545
-0.030672092 -0.0060351738 0.19373131
0.022278473 0.018898418 0.19069988
0.018926732 0.01787395 0.19207689
0.014320707 0.016527938 0.19219255
0.0097055994 0.013841981 0.19206789
0.0046942802 0.011552034 0.19148991
0.00069413078 0.0093709277 0.19176516
-0.0081178434 0.0060537243 0.19213644
-0.012522966 0.0034633921 0.19223452
-0.017171958 0.0023152581 0.19246906
-0.024471108 -0.00063169748 0.19218439
-0.027559424 -0.0023982706 0.19130909
-0.031749517 -0.0035545779 0.19117644
0.025406469 0.023731338 0.18919361
0.022715671 0.022621289 0.19018278
0.031758923 0.033741325 0.18179613
-0.038578406 0.0024015047 0.17459965
-0.038764134 0.0045624916 0.17221996
-0.036790706 0.0072282841 0.16596803
-0.038047686 0.0059275683 0.16823936
0.026177829 0.037732992 0.16720647
0.02365456 0.03853761 0.16683918
-0.036001392 0.0097901132 0.16332152
0.022223663 0.038451556 0.16302657
0.018163761 0.037975427 0.16204128
-0.033406593 0.012335935 0.15714177
-0.034734976 0.011196802 0.1595411
0.021378605 0.038180035 0.15817034
0.017726872 0.037604138 0.15813264
0.012880449 0.03759009 0.15805638
0.0091308737 0.037712887 0.15632105
-0.033321615 0.014900855 0.15534276
0.016489765 0.037055068 0.15427431
0.012753195 0.037255574 0.15357083
0.0080781784 0.037361685 0.15254897
-0.033744972 0.01801295 0.15231404
0.011669753 0.036849443 0.14951763
0.007726674 0.037062734 0.14863986
0.0022629192 0.037602901 0.14794382
-0.03493239 0.021667976 0.14546269
0.00090734195 0.037223533 0.14330781
-0.0074385297 0.036674213 0.14296189
-0.033082556 0.025978301 0.14120522
-0.033809606 0.021386087 0.14025825
-0.0082791317 0.036490411 0.13857797
-0.033264879 0.026734065 0.13793087
-0.013254913 0.036615998 0.13407931
-0.033184558 0.027016623 0.13235176
-0.018182792 0.03663053 0.12949225
-0.028889652 0.035923637 0.12774354
-0.023039706 0.036996197 0.12488562
-0.032408446 0.032278642 0.12416941
-0.02886463 0.036697544 0.11908412
-0.018630009 -0.010012203 0.19466773
-0.022343811 -0.010751162 0.19525298
0.021094559 0.011593306 0.19229084
0.017379239 0.010154628 0.19218042
0.012114479 0.0082862778 0.1921207
0.0078050816 0.004892699 0.19193798
0.0031201709 0.0030325321 0.19177252
-0.0062672393 0.00069890055 0.19223088
-0.010417234 -0.002654199 0.19277862
-0.014326573 -0.0048296894 0.19247234
-0.019335443 -0.0063724997 0.19267756
-0.02365583 -0.0072388444 0.19379079
0.024500445 0.01625314 0.19097069
0.021342184 0.014939012 0.19230163
0.016905893 0.013199309 0.19215795
0.0059289304 0.008640632 0.19165745
0.029504348 0.033266928 0.16797948
0.029274151 0.033980992 0.16658553
-0.036313798 0.0064322855 0.15974224
0.027832884 0.034663472 0.1578674
0.025233164 0.036251962 0.15942746
-0.034167569 0.010002292 0.15584308
0.027210724 0.036406718 0.15530127
0.02460672 0.036670998 0.15565753
-0.033256497 0.012405331 0.15147746
-0.034422208 0.010920036 0.15268809
0.023115832 0.03777105 0.15159833
0.018484071 0.03733553 0.15187353
0.015182025 0.036638223 0.15049863
-0.033758629 0.013936166 0.14876553
-0.034221604 0.010853259 0.1468963
0.022178937 0.038717672 0.14683193
0.018619418 0.03689095 0.14631018
0.013870695 0.036696725 0.14677671
0.0089878635 0.036518238 0.14609569
-0.033882335 0.01468337 0.14355153
0.021056972 0.040231761 0.14289588
0.019696042 0.039534435 0.14179111
0.013612704 0.037010506 0.14177254
0.0089475038 0.036666617 0.14213508
0.0040194923 0.036978766 0.14115667
-0.034094501 0.015723865 0.13756937
0.017117254 0.042152427 0.13641202
0.012047588 0.037566848 0.13841072
0.0082699126 0.03700988 0.1376335
0.0027709734 0.036631484 0.13626745
-0.033625796 0.021398481 0.13447136
0.00082219765 0.036165435 0.13238069
-0.00746659 0.036965169 0.13217378
-0.033608805 0.022206351 0.12960964
-0.0082202852 0.037647612 0.12779045
-0.033097036 0.027204553 0.1276409
-0.033361733 0.02369765 0.12532741
-0.012848895 0.036956176 0.12261623
-0.032614663 0.03088975 0.12132686
-0.032352701 0.025814429 0.12166637
-0.017753487 0.036851842 0.11790234
-0.031848561 0.032364555 0.11771226
-0.023045981 0.03710366 0.11377352
-0.030940132 0.03350167 0.11258727
-0.027362198 0.035962403 0.1098901
-0.010217348 -0.013427638 0.19705725
-0.007666857 -0.010167658 0.19408116
-0.012054694 -0.010793816 0.19516259
-0.016153654 -0.011739796 0.19539574
-0.019901128 -0.012678185 0.19556522
0.019539146 0.0054289494 0.19094336
0.01452613 0.0039775819 0.19181445
0.009716657 0.00085279718 0.19233575
0.0051772217 -0.0019117494 0.19229433
-0.0039105159 -0.0050522122 0.19223365
-0.008109198 -0.0064415596 0.19270226
-0.013005191 -0.0082073547 0.19308937
-0.016095627 -0.0090714591 0.19318295
-0.034445696 0.0068614362 0.14822176
0.027752299 0.03603318 0.15017444
0.025505479 0.037322044 0.14863133
-0.034138739 0.0062360065 0.14584357
0.020395396 0.037632454 0.14423311
-0.033582583 0.009703638 0.14026403
0.018133208 0.038057093 0.14145711
0.01537862 0.037759453 0.13969508
-0.033596642 0.014276552 0.13939238
-0.033840671 0.010778789 0.1352374
0.017425925 0.039108116 0.13663864
0.013975208 0.037992071 0.13607371
0.010033993 0.037266076 0.13546401
-0.034118541 0.016155325 0.13303947
-0.033861917 0.015524531 0.13256365
0.016547337 0.040005408 0.13318378
0.014002478 0.037734531 0.13056681
0.0093856677 0.036746372 0.13075015
0.0046497285 0.036135767 0.13090417
0.00047811773 0.036036912 0.1291475
-0.033636786 0.01534572 0.12754411
0.0095472336 0.036905486 0.12692851
0.004514372 0.035938859 0.12608182
-0.033010866 0.021218553 0.12297964
-0.0062903306 0.037022199 0.12057662
-0.032717817 0.024390427 0.11843675
-0.011911533 0.036868256 0.11581713
-0.032829527 0.025940659 0.11405063
-0.012520364 0.036972325 0.11104673
-0.020922445 0.036930557 0.11091399
-0.032345545 0.031071479 0.11162436
-0.033062138 0.02865177 0.11010593
-0.017877834 0.037195683 0.10787058
-0.026897933 0.035155296 0.10624593
-0.033863232 0.029983222 0.10582364
-0.027058281 0.035450939 0.10179955
-0.033699431 0.03107816 0.10111743
-0.029849038 0.034727219 0.097779572
0.023757154 -0.0029232316 0.19663647
-0.00072907284 -0.013262143 0.19633892
-0.0057561882 -0.013751876 0.19680199
0.024914226 0.00058143772 0.19557753
0.022670763 -0.0020425948 0.19360265
0.019672617 -0.0029957606 0.19176418
0.011635436 -0.0047890758 0.19225812
0.007186247 -0.0067323763 0.1927456
-0.001787846 -0.010369504 0.1934979
-0.0053437399 -0.011697437 0.19465232
0.024257099 0.0040901206 0.19053647
0.021570649 0.00084627653 0.19076741
0.017168432 -0.00023809075 0.19144899
0.012951331 -0.0016866801 0.19188997
-0.034845021 0.0013201376 0.14575532
-0.033793755 0.0055871056 0.14247242
-0.035829872 0.0018996112 0.14249206
-0.038327225 -0.00058558863 0.1424253
-0.033714876 0.0057448084 0.13773465
-0.037174039 0.0011312282 0.1394057
-0.038519908 0.00016085245 0.13908356
-0.03376767 0.0062323548 0.13321793
-0.034000076 0.011611527 0.1300053
0.015978441 0.038089518 0.12814862
-0.033871755 0.01283977 0.12446123
0.014050024 0.038398411 0.1251533
0.0096791796 0.037004914 0.12403405
0.0055910246 0.036378827 0.12361324
-0.032731976 0.013500588 0.12120998
0.013440194 0.038297746 0.12041527
0.0097157657 0.037547998 0.11949366
0.0049425205 0.036358528 0.1198374
0.0001699198 0.036360733 0.11903763
-0.032641184 0.018061385 0.11741316
0.0049345111 0.035986569 0.11515671
-0.0060880296 0.036350261 0.11368883
-0.033068269 0.024013979 0.11277193
-0.0067088571 0.036758069 0.10968983
-0.033605732 0.025791083 0.10823333
-0.011948755 0.036854189 0.10464036
-0.020114873 0.035681397 0.10390311
-0.033825058 0.026880547 0.10212487
-0.016954115 0.036862243 0.099962413
-0.025193583 0.03587655 0.099391401
-0.034227163 0.029338479 0.098514616
-0.021991495 0.036935221 0.095336378
-0.031422745 0.034016468 0.095431864
-0.03410504 0.030953893 0.094159544
-0.027199991 0.036768746 0.091150939
-0.034318916 0.032129418 0.090398371
0.022356249 -0.0055885203 0.19542092
0.021129688 -0.0067642494 0.19499615
0.015850199 -0.010721264 0.19377756
0.00507442 -0.014442422 0.19462875
0.025860481 -0.001002335 0.19172642
0.023219479 -0.0031832331 0.19286612
0.01893352 -0.0059339465 0.19236279
0.015088975 -0.0081530493 0.19214052
0.0051589021 -0.012353703 0.19297138
0.025475452 3.4558587e-05 0.19051114
-0.035399675 0.0012140693 0.13615519
-0.037692539 -0.0018299064 0.13567924
-0.033609025 0.0060514258 0.13014466
-0.03503621 0.0018668761 0.13191077
-0.033139966 0.0065686172 0.12712216
-0.034291644 0.0034852112 0.127639
-0.033418275 0.0061512096 0.12233573
-0.032340504 0.011265278 0.11763954
0.013958569 0.036467515 0.11575198
-0.032284722 0.017425882 0.11393994
-0.031883713 0.011874677 0.11399555
0.014214661 0.036460366 0.11172169
0.010794817 0.036091488 0.11230534
0.0062970985 0.035152722 0.11157483
-0.032551907 0.018388622 0.11071789
-0.032608233 0.014186355 0.10881883
0.010246623 0.035870031 0.10831517
0.0059547834 0.035097577 0.1074205
0.0011121007 0.035200171 0.1075629
-0.033036113 0.020036619 0.10603738
0.00083363242 0.035273984 0.1028446
-0.033184756 0.020869367 0.10068589
-0.0096358377 0.034937549 0.097365379
-0.033759397 0.022581328 0.09805119
-0.010996448 0.03520738 0.093801618
-0.034226988 0.028735593 0.092582583
-0.015970169 0.03564395 0.089138091
-0.026029922 0.034869228 0.086861908
-0.034960069 0.030988242 0.088392615
-0.02534445 0.034102198 0.083514929
-0.033611618 0.030559378 0.084087312
-0.030390633 0.033952631 0.079509139
-0.03326723 0.031779114 0.080442607
0.016100582 -0.013408305 0.19412011
-0.037018485 -0.0034273351 0.13254833
-0.036092542 -0.0010267803 0.12900996
-0.03538388 0.0010199687 0.1256783
-0.033157472 0.0056465985 0.11996859
-0.0318349 0.0071454495 0.1147325
-0.032006726 0.0096832877 0.11134398
-0.032870002 0.011935235 0.10766393
0.01123967 0.036529362 0.10596472
0.0071416581 0.03534339 0.10473222
-0.032948278 0.015556782 0.10288149
0.010548276 0.036127817 0.10142452
0.0064245863 0.035453659 0.10098606
0.0022103023 0.035102226 0.099801481
-0.032991264 0.0159702 0.0991804
0.005710626 0.03500586 0.096160114
0.001504709 0.0351706 0.096010089
-0.033165947 0.021376314 0.094029963
0.00033741537 0.035649214 0.091949821
-0.0084941117 0.035380207 0.091190517
-0.033189431 0.021830324 0.089322627
-0.0093813036 0.035438139 0.086731195
-0.010965899 0.034869131 0.082857907
-0.02025765 0.034590397 0.082515955
-0.020953318 0.036127646 0.078326225
-0.031880498 0.032995515 0.076909721
-0.033117481 0.031671982 0.077272475
-0.025835138 0.036250029 0.073369145
-0.032785315 0.031213898 0.072754264
-0.029322367 0.033897772 0.068704903
-0.031249803 0.00060915109 0.12011313
-0.033351187 0.0017616805 0.11741489
-0.031548649 0.001935225 0.11312985
-0.033096649 -0.00093983114 0.11355698
-0.032181419 0.0039469106 0.10866469
-0.033400536 0.0027383929 0.10613137
-0.032909218 0.0073221242 0.10465306
-0.033767723 0.0038712565 0.10398936
-0.032454446 0.0087482948 0.10051322
-0.03232507 0.012177534 0.096342623
0.011355563 0.034688219 0.095567942
0.0084928256 0.034322303 0.094287097
-0.031920794 0.013815688 0.091337204
0.011031842 0.034542389 0.090076208
0.0074411053 0.034574658 0.090010345
0.0023445357 0.035058923 0.089653134
-0.032605052 0.015879143 0.087919593
0.0070647383 0.034964953 0.085813284
0.0024901694 0.034784861 0.085095942
-0.032362513 0.020222474 0.08286643
0.0018221419 0.035492085 0.081145287
-0.0075668483 0.034231532 0.080259681
-0.032331489 0.025146058 0.077300966
-0.012899559 0.03489605 0.074818194
-0.019132199 0.035133153 0.069710791
-0.032235198 0.030152744 0.068723381
-0.024121875 0.034311514 0.066204965
-0.031672321 0.029062936 0.064645112
-0.028379556 0.032041479 0.062900364
-0.033412579 -0.0021567484 0.10981721
-0.034199659 -0.00039923564 0.10643774
-0.036589112 -0.0027753571 0.10614944
-0.03514808 0.0017293133 0.10155922
-0.036866941 -0.0017376086 0.10189575
-0.033104081 0.0071944445 0.098080277
-0.034791827 0.0047242092 0.097784519
-0.036002953 0.00095986202 0.097487867
-0.032076873 0.0079428917 0.093292177
-0.032495387 0.0060544563 0.092067897
0.013337525 0.034397185 0.087678492
-0.032477379 0.013627723 0.083209097
0.012551311 0.035624482 0.083067477
0.0077471733 0.035579428 0.083325684
-0.032490503 0.016068911 0.08191669
0.01281586 0.036094896 0.078982651
0.0074996613 0.035324715 0.078870177
0.0031101629 0.034826383 0.077544272
-0.031325281 0.017947037 0.07786566
-0.030904897 0.017170075 0.074099243
0.0026019206 0.034343477 0.074235797
-0.0068116751 0.03451724 0.073297322
-0.031447221 0.023264613 0.072589159
-0.0078494232 0.03387139 0.069656312
-0.031579539 0.023997668 0.068018496
-0.016882354 0.034782499 0.064556301
-0.031416029 0.02393714 0.063789368
-0.018298049 0.034567643 0.060238421
-0.029183678 0.031470917 0.060020864
-0.031411391 0.028866053 0.059237123
-0.023224596 0.03531982 0.055661917
-0.031254705 0.03073894 0.053967118
-0.028155014 0.034326851 0.050280929
-0.036468472 -0.0027541593 0.10110027
-0.036841441 -0.0002462836 0.096350551
-0.03390326 0.0028541554 0.091184735
-0.036267985 -0.00020894036 0.090642452
0.014898947 0.030007668 0.088886142
-0.030673416 0.0063223699 0.086701453
-0.032678239 0.003807894 0.087129116
-0.037051 -0.00020721648 0.086757183
-0.031622719 0.0090431944 0.083776593
-0.033423427 0.0059634643 0.081735313
-0.03703019 0.004930459 0.080162823
0.016263828 0.03200062 0.081771016
-0.032272384 0.012714645 0.078396082
-0.034772314 0.008477035 0.078026533
0.013760235 0.035437755 0.07567358
0.0091433022 0.034681417 0.075313628
-0.032212846 0.013201687 0.074206829
-0.035175227 0.0098490333 0.073977888
-0.038232639 0.0086603528 0.072881877
0.012458178 0.035342809 0.072434306
0.0084044738 0.03469196 0.072419226
0.0033792527 0.033968821 0.07116574
-0.031718016 0.015048511 0.069650412
0.012582076 0.035929158 0.069104075
0.0082334112 0.03505839 0.068146348
0.0038182596 0.0340266 0.067384899
-0.0055374084 0.033008043 0.066305339
-0.031441987 0.016872831 0.066785753
0.0030540498 0.03437566 0.062898636
-0.0069688414 0.033383567 0.06272471
-0.030172516 0.02111515 0.059222519
-0.0064415773 0.033835575 0.057888925
-0.015296916 0.033159163 0.056973636
-0.031100303 0.023764305 0.056277275
-0.011704996 0.034075893 0.053264081
-0.020943655 0.034403663 0.0522089
-0.031888917 0.026162663 0.052061379
-0.017223207 0.034389187 0.048681736
-0.026128601 0.034508485 0.047478497
-0.032330912 0.028800461 0.047939658
-0.022587722 0.034931045 0.043621361
-0.031652033 0.030897971 0.043065131
-0.027761079 0.034106418 0.038334191
-0.033669408 0.0019787047 0.08403343
-0.035973672 -6.8645924e-05 0.084121048
-0.034731477 0.0034142509 0.081564486
-0.036481369 0.0018118164 0.081208885
-0.034568042 0.0085514542 0.069758534
0.016283292 0.033662152 0.069536984
-0.032343473 0.012362425 0.065746069
-0.033655725 0.009884242 0.066859722
0.013544668 0.035237238 0.065720975
0.010445271 0.033270918 0.063523114
-0.030899242 0.013558641 0.061727583
0.0082815299 0.033625882 0.061591446
0.0048307348 0.034743655 0.060597956
-0.030011848 0.015100911 0.057234466
0.003179851 0.033844031 0.055892527
-0.030858543 0.018775199 0.053435743
-0.0062669544 0.034537841 0.051082492
-0.031831294 0.021622697 0.049580514
-0.011247514 0.034596741 0.046777666
-0.032019623 0.022408873 0.046020389
-0.016438609 0.033853155 0.041434109
-0.022258816 0.033877354 0.036956549
-0.032532897 0.030694976 0.036443233
-0.027038878 0.033748019 0.032289565
-0.03294491 0.0048120711 0.062389374
0.01647798 0.032771125 0.062900364
-0.032985575 0.0081903609 0.060722649
0.015361575 0.033092689 0.058893442
0.010602877 0.032505043 0.05870682
-0.031215958 0.01136521 0.05579114
-0.032381095 0.0084911948 0.056577027
0.014521968 0.033130005 0.05430156
0.010533033 0.032714501 0.05440563
0.0065579228 0.032881103 0.054847836
-0.031115917 0.013725018 0.052283585
0.0096618654 0.032592811 0.05058831
0.0050802408 0.033238694 0.049988091
-0.031057244 0.015210343 0.046524465
0.0033904761 0.034025922 0.045505464
-0.0058658249 0.033647742 0.043075264
-0.031439055 0.019658539 0.042299628
-0.0057965289 0.034359992 0.040877759
-0.031029761 0.020602584 0.036873996
-0.010813577 0.033849265 0.035869181
-0.019328661 0.032125346 0.035122752
-0.031479497 0.021939123 0.034851789
-0.016402427 0.032729954 0.031171978
-0.021360924 0.033604249 0.02618432
-0.030039337 0.029096123 0.025124967
-0.026211329 0.03330823 0.021544635
-0.03327297 0.0010495046 0.060738087
-0.033126138 0.0028848257 0.056373954
-0.031982351 0.0061658658 0.052604735
0.020101272 0.031754415 0.051278114
0.017543659 0.032245651 0.051834345
-0.031001963 0.010251216 0.048010409
-0.032018811 0.0080587501 0.049807608
0.015995823 0.032349024 0.047773182
0.01129583 0.032026596 0.046959519
-0.030860133 0.010142094 0.044696152
0.014964087 0.031820893 0.044241428
0.010147591 0.031802073 0.042740583
0.0068502901 0.03214905 0.042095721
-0.030463006 0.014254363 0.039221644
0.0046053333 0.032439794 0.038400173
0.0008086795 0.033661723 0.036886513
-0.030448191 0.014382306 0.03717494
-0.0052393917 0.033439998 0.032031596
-0.031201024 0.021519572 0.031216681
-0.010369372 0.032418761 0.028415382
-0.0078780279 0.031809881 0.025023282
-0.019082416 0.032779537 0.022666633
-0.031038564 0.026517147 0.022248447
-0.020515695 0.032971267 0.018918455
-0.030036911 0.028902804 0.018472135
-0.025784671 0.032237869 0.014481068
-0.034009762 -0.0026191408 0.055578768
-0.033047665 0.0027551381 0.051028907
-0.033838294 -0.0015831571 0.051526964
-0.032711472 0.0045265099 0.047313809
-0.033642005 0.0032181749 0.044441223
0.020583842 0.031471275 0.045595407
0.018704476 0.03159513 0.045150578
-0.030647015 0.00977947 0.042222261
-0.032101505 0.0064796684 0.042229593
-0.033957366 0.0043022474 0.041077435
0.017178677 0.031920794 0.041279674
0.012939212 0.031285383 0.040830374
-0.030597419 0.0099782068 0.038075805
-0.031972077 0.0077121733 0.037244976
0.016754702 0.032148272 0.036685169
0.011892796 0.031472713 0.036257505
0.0076306593 0.031404622 0.035997689
-0.030516546 0.014794956 0.034296274
-0.031244233 0.010221186 0.032422364
0.010045138 0.032177377 0.030869544
0.0062866015 0.032192916 0.031977594
-0.030598957 0.015407331 0.029414594
0.0052949153 0.033054844 0.026458085
0.0010221703 0.03272894 0.027187228
-0.030589923 0.017685119 0.024299562
-0.0043230625 0.032384984 0.022254527
-0.012945283 0.031185074 0.021691382
-0.030824747 0.019166678 0.019473672
-0.0094444072 0.031426933 0.017097235
-0.031258203 0.021783046 0.015731871
-0.019499922 0.031827185 0.012575269
-0.030748066 0.026606379 0.012435973
-0.025171235 0.031288486 0.0080293417
-0.02925705 0.028466616 0.0072153211
-0.034637418 -0.0043742722 0.052847445
-0.035399921 -0.0070038992 0.050026357
-0.033381373 -0.0041286461 0.047359049
-0.033876136 -0.00091515854 0.043500245
-0.035374083 0.0021762103 0.039304137
0.02171924 0.029893458 0.038688123
-0.032833125 0.0065707481 0.034987926
-0.035302944 0.0034673447 0.035435021
-0.037472505 -0.00042400137 0.035196722
0.022049693 0.031231102 0.033868849
0.017659187 0.031382672 0.033447802
-0.0325316 0.0077171195 0.030396163
-0.035111979 0.0039653443 0.03098309
0.018242728 0.030615551 0.029418886
0.013658544 0.030441027 0.029525936
-0.031610914 0.010348719 0.026786804
0.017310435 0.031119505 0.025734842
0.012398762 0.030704688 0.025207937
0.0086687626 0.031774424 0.025524974
-0.032186229 0.012496718 0.022789419
0.01113099 0.030977745 0.020884812
0.0070489701 0.031906638 0.020292938
0.0026873099 0.031970415 0.02055198
-0.032000821 0.013584414 0.018952787
0.0055047479 0.031652354 0.016531885
0.0017555701 0.03102061 0.015388548
-0.0089064613 0.03111499 0.013864398
-0.031444632 0.018955655 0.012928426
-0.008430507 0.030945623 0.010754406
-0.030873951 0.020868476 0.0099352002
-0.033583403 -0.0064232135 0.041388035
-0.037541945 -4.251115e-05 0.03226763
0.024162123 0.029375281 0.033257008
-0.035828531 0.0029931255 0.027637422
-0.037545964 0.00024085399 0.028148115
0.023732122 0.030626254 0.027562022
0.020110056 0.03095619 0.026969075
-0.032457843 0.0064078104 0.023910224
-0.034729615 0.0034417966 0.02393806
0.023531888 0.031374793 0.023240864
0.018810611 0.030912712 0.022317231
0.014033325 0.030465625 0.022898436
-0.032858241 0.007786721 0.019659936
-0.034100998 0.003777531 0.020117283
0.022173721 0.031617247 0.01922524
0.018220114 0.031360112 0.018210709
0.013816122 0.0303014 0.018226445
0.0096019451 0.030742327 0.016762614
-0.03163667 0.01140443 0.0141626
0.012533859 0.030007878 0.01455611
0.0078337472 0.03095223 0.013428271
0.0034329928 0.031137168 0.013071477
-0.030755728 0.012555837 0.010796249
0.0075830333 0.03118425 0.0093500614
0.0021087611 0.031213423 0.0090173483
-0.033484954 0.0023831064 0.016631603
0.023729868 0.031207703 0.017333806
0.020722771 0.031109728 0.015943944
-0.032160968 0.0064483304 0.012886107
-0.032775436 0.0031485427 0.013727546
0.023346355 0.029993888 0.01204735
0.019432474 0.029781209 0.011461318
0.014738454 0.029666096 0.011406362
-0.030773859 0.0080693318 0.0071479082
0.013609571 0.029989585 0.0068356395
-0.032246843 -0.00048879907 0.010656595
0.025737667 0.028204037 0.0093260407
-0.032126125 -0.0030495469 0.0074537992
