# .PCD v0.7 - Point Cloud Data file format
VERSION 0.7
FIELDS x y z
SIZE 4 4 4
TYPE F F F
COUNT 1 1 1
WIDTH 877
HEIGHT 1
VIEWPOINT 0 0 0 1 0 0 0
POINTS 877
DATA ascii
0.030082708 -0.028447716 0.19033724
0.031550188 -0.029922845 0.18745089
0.032489866 -0.031908408 0.18322879
0.032493126 -0.033234458 0.17934743
0.021511182 -0.026899278 0.19248089
0.029336613 -0.018453952 0.19173747
0.017644532 -0.034682717 0.18868071
0.023917526 -0.029637039 0.19167623
0.031808145 -0.022145553 0.18999487
0.018935677 -0.035620719 0.18559271
0.02645563 -0.034395568 0.18547297
0.033147395 -0.023785409 0.18501362
0.02382892 -0.035100214 0.18142846
0.033212118 -0.028389882 0.18183002
0.024309937 -0.03497247 0.17756474
0.033661813 -0.031894319 0.17696598
0.028959878 -0.034459829 0.17293862
0.009723898 -0.03274234 0.19127867
0.012531659 -0.030814013 0.19220847
0.018666685 -0.024508126 0.19272372
0.026783064 -0.016961318 0.19179672
0.032322992 -0.0094507718 0.1905531
0.011280195 -0.034469955 0.1881949
0.034500197 -0.016363211 0.18565729
0.033642098 -0.011626737 0.18693873
0.012170785 -0.035533126 0.18543196
0.034094363 -0.017703013 0.18223354
0.033671901 -0.013443976 0.18300727
0.020865025 -0.035248104 0.17940891
0.034155805 -0.018907329 0.17785761
0.025935285 -0.034620717 0.17444086
0.034037583 -0.020197237 0.17393294
0.026740456 -0.034245189 0.17032501
0.033561666 -0.02569933 0.16996112
0.031182135 -0.031358562 0.16476241
0.00857611 -0.026163094 0.19228107
0.014602551 -0.020111615 0.19191915
0.021190865 -0.012460275 0.19104254
0.025781453 -0.0088754781 0.1919708
0.028618781 -0.0055715833 0.19177079
0.030830577 -0.0012516035 0.18975365
0.0057176547 -0.031508129 0.18996423
0.0092075663 -0.03000072 0.19250691
0.019909874 -0.018832941 0.19166902
0.032486521 -0.0033368655 0.18798703
0.0066641243 -0.033450402 0.1857937
0.033513721 -0.0087695122 0.18436188
0.033137299 -0.0052774427 0.1838302
0.0094857542 -0.034295801 0.1818856
0.013560975 -0.035098739 0.18033123
0.03315831 -0.010206247 0.18006814
0.010403771 -0.034341346 0.17862415
0.014194814 -0.035236444 0.17700011
0.032875311 -0.01227745 0.17539364
0.033599559 -0.017989364 0.17106509
0.02061823 -0.034905605 0.1679531
0.032693822 -0.019413169 0.16665897
0.02535796 -0.034742683 0.16411313
0.02301643 -0.034935147 0.15943986
0.030512527 -0.031490039 0.15828457
-0.0021156278 -0.03016427 0.18979558
0.0012091566 -0.027855141 0.19068429
0.0040881652 -0.024133617 0.19195476
0.0078651374 -0.02005209 0.19189787
0.014458153 -0.013365088 0.19215527
0.021268692 -0.0054819984 0.19149047
0.024850456 -0.0016718805 0.19208783
0.028320551 0.001426816 0.19114596
0.03132489 0.004617949 0.18853578
0.033327587 0.0072952481 0.18679914
-0.00075554848 -0.032688949 0.18786407
0.002303957 -0.031722456 0.189123
0.033004764 -0.0014808811 0.18527687
0.032544602 0.003220004 0.18494362
0.033528298 0.0070161605 0.18517792
0.00010572746 -0.033315036 0.18346417
0.0030342145 -0.033338346 0.18423209
0.033421464 -0.0026348289 0.18187404
0.033136886 0.0010060668 0.18095118
0.0048478572 -0.033895716 0.17947647
0.033027876 -0.0041210325 0.17736235
0.0076024411 -0.034028698 0.17580613
0.010767455 -0.033954985 0.1739848
0.032857116 -0.0095357858 0.17326012
0.032555036 -0.0053205648 0.17343256
0.0072053308 -0.033969697 0.1715323
0.010398628 -0.034066804 0.16977662
0.032692626 -0.011233324 0.16841832
0.031973261 -0.015831802 0.16372773
0.03277564 -0.012752901 0.16416755
0.019339208 -0.034853969 0.16116744
0.031877987 -0.018009463 0.16017172
0.020113187 -0.035069935 0.1569953
0.031099916 -0.020421572 0.15604666
0.025266288 -0.033539608 0.15266353
0.029431371 -0.025625141 0.15230313
0.030337986 0.018738415 0.19317672
-0.0075864224 -0.024760671 0.1924386
-0.0049606049 -0.022890296 0.19263035
-0.0011933167 -0.018836746 0.19289088
0.0022200071 -0.014544997 0.19167721
0.010185659 -0.0085217245 0.19255802
0.016209999 -0.0013674279 0.19159675
0.020623744 0.0031167865 0.19167268
0.023371752 0.006289551 0.19189391
0.026105948 0.0099422084 0.19046226
0.029033933 0.014265426 0.19011202
0.031507425 0.017604191 0.19012234
-0.0089024408 -0.030311521 0.1889489
-0.0064786179 -0.028119337 0.19075406
-0.002408063 -0.025703553 0.19180238
0.00095498376 -0.020958679 0.19227737
0.0042980975 -0.016583305 0.19160807
0.012147259 -0.011055509 0.19221509
0.018007936 -0.0036679353 0.1911715
0.028821465 0.0080650682 0.18938598
0.031510394 0.011543409 0.18776673
0.033430949 0.016326834 0.18633375
-0.010640641 -0.036346089 0.18515289
-0.0077371914 -0.033776693 0.18643296
-0.0044019111 -0.032069884 0.1875518
0.033096861 0.0050738426 0.18223634
0.033548858 0.0094440645 0.18303123
0.034485511 0.01461934 0.18313128
0.039097026 0.018503236 0.18086603
-0.0098603312 -0.037651122 0.18091404
-0.0068075461 -0.035102915 0.18097657
-0.0027946094 -0.033639107 0.18158266
0.03266605 0.0044505065 0.1782957
0.033339724 0.0084461942 0.17798117
-0.0052957358 -0.03558204 0.17664525
-0.0013243556 -0.034082066 0.17722815
0.032579109 0.0023557711 0.17433989
0.033317938 0.0067841392 0.17412663
-0.00014944002 -0.034259979 0.17261073
0.0036417171 -0.03390101 0.17331177
0.032306969 -0.0029489528 0.17032611
0.032819003 0.00026570447 0.16960794
0.00065870956 -0.034447085 0.16894504
0.0045917938 -0.034156501 0.16840065
0.032219391 -0.0083352318 0.16609347
0.03256204 -0.0041694464 0.16606358
0.033174999 -0.00025604852 0.16628498
0.0062326305 -0.034461331 0.16426438
0.010042983 -0.034272321 0.16322449
0.032267019 -0.010106156 0.16169834
0.03309305 -0.0052503841 0.16175196
0.0067894729 -0.034417417 0.16036049
0.011043629 -0.034633443 0.15859857
0.031643257 -0.011205507 0.15697044
0.013626418 -0.034542371 0.1540637
0.030613633 -0.017340122 0.15274256
0.015097386 -0.034368515 0.15086463
0.027688269 -0.027030561 0.14908484
0.029542726 -0.019231629 0.14908212
0.02358814 -0.032288887 0.14588624
0.027476665 -0.024784416 0.14593589
0.023279859 -0.032023631 0.14109111
0.021441821 0.015680011 0.19656855
0.016740043 0.0078579318 0.19274843
0.019565687 0.011090629 0.1931335
0.022744987 0.014202494 0.19407684
0.026506154 0.016770823 0.19386896
0.030372459 0.020454042 0.19378865
0.032784354 0.021864019 0.19272557
-0.014404547 -0.027162399 0.19081777
-0.010834944 -0.023872733 0.19227362
-0.0070431391 -0.02082381 0.19361439
-0.0033554025 -0.016701117 0.19350594
-0.00035624113 -0.011985146 0.19224346
0.0025552041 -0.0082263816 0.19168705
0.010154869 -0.0023855881 0.1920411
0.013613698 0.0012940057 0.19192088
0.016969232 0.0045548785 0.19188878
0.022130366 0.0090709133 0.1924893
0.024958499 0.012217592 0.19144541
0.027937161 0.015499627 0.19186571
0.032102615 0.019055804 0.19052285
0.034584094 0.021840237 0.18955076
-0.015330889 -0.031395666 0.18823871
-0.012185281 -0.02963298 0.1893847
0.036128767 0.020327659 0.18557516
0.038141478 0.022747256 0.18434995
-0.013235966 -0.034382217 0.18662199
0.035172086 0.01483598 0.18081883
0.037477065 0.018753663 0.18210953
-0.010306672 -0.037267927 0.18054709
0.033778802 0.01038098 0.17585805
0.035096694 0.013968649 0.17635348
0.037955053 0.017768063 0.17665228
-0.010033644 -0.037404902 0.17561331
-0.007754581 -0.036327697 0.1751287
0.032626472 0.0051297015 0.17183733
0.033655129 0.0088914949 0.17116734
0.035372086 0.013703042 0.17137831
0.036798798 0.016852465 0.17265299
-0.0064095631 -0.03634394 0.17057347
-0.0025924072 -0.035003588 0.17108849
0.032621905 0.0038189162 0.16780412
0.033478886 0.0072367396 0.16689116
-0.0058059925 -0.036681425 0.16677994
-0.0014322158 -0.035130136 0.16626883
0.032970164 0.0017346293 0.16335306
0.03353671 0.0061088037 0.16333818
-9.8153949e-05 -0.034957729 0.16261604
0.0031148922 -0.034594148 0.16211802
0.032704432 -0.0035448074 0.1583223
0.03332803 6.4052641e-05 0.1599462
0.0053117545 -0.034533624 0.1575017
0.0089421999 -0.034640931 0.15577936
0.031673945 -0.0090768319 0.15497449
0.03177369 -0.0055523179 0.1556111
0.0063662017 -0.034453273 0.15453047
0.0094022909 -0.034267999 0.15201551
0.030844219 -0.011799286 0.14992619
0.030683264 -0.0075445175 0.14997363
0.011882741 -0.034218073 0.14789805
0.029668007 -0.017547674 0.14663282
0.013408804 -0.034189656 0.14277089
0.026480775 -0.026229504 0.14242154
0.028040849 -0.018847015 0.14217284
0.022698369 -0.031667862 0.13776624
0.0256822 -0.023418289 0.1386731
0.022369569 -0.031546615 0.13466942
0.015049099 0.015385262 0.19422096
-0.020067049 -0.025988681 0.19357663
-0.019164398 -0.02282089 0.19373149
-0.015768878 -0.019209493 0.19220167
-0.011373549 -0.016745839 0.19281644
-0.0073799677 -0.012114661 0.19290981
-0.0048192432 -0.0076249586 0.19219553
-0.0015891233 -0.0041197045 0.1918804
0.005767941 0.0020307801 0.19199166
0.0093397833 0.0051953997 0.19196549
0.011916963 0.0088952873 0.19149169
0.015486686 0.013484288 0.19266534
-0.019355524 -0.028354801 0.19062144
-0.016489737 -0.025123689 0.19182763
-0.01389055 -0.02206628 0.19238925
-0.019863041 -0.030248614 0.18671852
0.034773789 0.014225012 0.16807219
0.035977896 0.018769927 0.16859007
-0.010466387 -0.03701435 0.16916639
0.033344287 0.010399292 0.16445875
0.034066789 0.014515037 0.1643227
-0.006690531 -0.037059441 0.16404316
0.032323509 0.0049712192 0.16054687
0.032921422 0.0085501755 0.15999591
-0.0096662529 -0.038630493 0.15898266
-0.0066646188 -0.036515966 0.16038769
-0.0032720147 -0.034423254 0.15907216
0.031853672 0.0035598194 0.15631634
0.03232361 0.0071178563 0.15665776
-0.0015849657 -0.033475716 0.15428558
0.00097572245 -0.03361807 0.15549359
0.031164616 -0.0021791058 0.15318221
0.030330535 0.00090065505 0.15127176
0.0032154415 -0.033557601 0.150765
0.029547218 -0.0046002418 0.14873436
0.0049007135 -0.03370386 0.14587384
0.0082360161 -0.033984251 0.14563206
0.028346879 -0.0099695791 0.14443633
0.0088039553 -0.034126908 0.14118218
0.02720378 -0.015870553 0.13976651
0.027035577 -0.011108836 0.14058712
0.011657073 -0.033649188 0.1374566
0.023347972 -0.023618875 0.13383821
0.026076041 -0.01606971 0.13598269
0.020850463 -0.030325083 0.13040873
0.017601267 -0.032540672 0.12745064
0.0031993357 0.013032954 0.1931524
0.0061652302 0.015708119 0.19381222
0.010893245 0.016964329 0.19449207
-0.020686425 -0.018832471 0.19381002
-0.019259697 -0.016479859 0.19191808
-0.016013779 -0.012455406 0.19091094
-0.012440129 -0.0091595026 0.19175428
-0.0091171972 -0.0040422105 0.19247514
-0.0054234378 -0.00029989844 0.19236776
0.0010778597 0.0067416374 0.19174159
0.004775878 0.0098285265 0.191796
0.0082782917 0.013099216 0.19169202
0.011153239 0.014739682 0.19207475
0.036016896 0.02215834 0.16604796
0.03424402 0.016912732 0.16216213
0.03491744 0.020603612 0.16279057
0.032637883 0.011460694 0.15750214
0.033455517 0.015303881 0.15882057
0.034243491 0.019123476 0.15824783
-0.0078276191 -0.035121076 0.15615147
0.030563686 0.005349081 0.15296388
0.031822577 0.0094509479 0.15338615
0.032296844 0.014067574 0.15512604
-0.0079954416 -0.03471275 0.15253547
-0.0050835134 -0.033583719 0.15278566
0.029731579 0.003762546 0.14957473
0.030460665 0.0076464918 0.14986873
-0.0037606396 -0.03412601 0.14791214
0.00011356175 -0.033356767 0.14831084
0.028908357 -0.0021204893 0.14515635
0.029287262 0.0011496898 0.14542791
-0.0028740726 -0.033828657 0.14367938
0.00086318329 -0.033315551 0.14383492
0.02596255 -0.0062156403 0.14014471
0.027281484 -0.002709033 0.1416797
0.0032124696 -0.033691563 0.13933116
0.025883915 -0.0089722034 0.13702959
0.0034684436 -0.033131965 0.13529509
0.0074488763 -0.033301987 0.13466144
0.025258504 -0.0096786208 0.13323814
0.0091853887 -0.032865278 0.13056451
0.012852647 -0.032581318 0.12972996
0.022630963 -0.01904089 0.13031501
0.019690147 -0.029048888 0.12383217
0.015309246 -0.032189742 0.12161094
-0.00079835905 0.016186483 0.19591552
0.0018828046 0.017568935 0.19558519
-0.023490356 -0.011326523 0.19382423
-0.021197343 -0.0074010785 0.19221589
-0.017728703 -0.0039798953 0.1927774
-0.013408422 -0.00025860639 0.19353232
-0.010178911 0.0031677308 0.1933603
-0.0029104319 0.011122108 0.19235766
0.00046614697 0.01355679 0.19372466
0.0039113886 0.016604248 0.19493112
-0.021605972 -0.013252974 0.1920633
-0.019158039 -0.0094347615 0.1911191
-0.015521657 -0.0067420471 0.19179118
-0.012565917 -0.0045247199 0.19241112
0.033995621 0.02411994 0.15856874
0.033221245 0.017783446 0.15560925
0.034246951 0.022064403 0.15559286
0.032134335 0.015885882 0.15201455
0.033612024 0.019950714 0.15089506
-0.0099947881 -0.03468205 0.15019563
0.029051587 0.005499593 0.14648759
0.030441333 0.0087178349 0.14709204
0.031378407 0.014735796 0.14674073
0.033433493 0.017829295 0.14658999
-0.0081989728 -0.034500208 0.1461035
0.028275477 0.0049809981 0.142557
0.030078726 0.0089323875 0.14297724
-0.0083035957 -0.034790784 0.14137918
-0.0047056135 -0.034501836 0.14125973
0.02711118 -0.0016490696 0.13845867
0.028348502 0.0021689869 0.13861495
-0.0034675822 -0.034641836 0.13701543
-0.00012263842 -0.033941858 0.13792086
0.025699317 -0.0060196416 0.13493341
0.026605761 -0.0022151805 0.13503486
0.027632974 0.001784482 0.1342234
-0.0023234319 -0.034583643 0.1314041
0.0014851801 -0.033944134 0.13260883
0.024747051 -0.0074124262 0.12987483
0.0028049471 -0.033612039 0.12793994
0.0063704327 -0.033305261 0.12858886
0.02338198 -0.013116514 0.12754899
0.0034416215 -0.033960249 0.12402433
0.007865903 -0.03374273 0.12406731
0.020763353 -0.017603427 0.12281871
0.008881242 -0.033744648 0.11906725
0.013393466 -0.032712571 0.11946929
0.018780753 -0.023958005 0.11869532
0.01740413 -0.028816042 0.11450559
-0.025474753 -0.0020674057 0.19381714
-0.023824021 -0.00028703082 0.19366166
-0.010253975 0.01361311 0.19270742
-0.0052032578 0.017833114 0.1946376
-0.026242331 -0.0069385692 0.19380409
-0.023754112 -0.0049033454 0.19292372
-0.020220615 -0.0015389388 0.19325501
-0.01765703 0.00052065309 0.19379082
-0.0094162701 0.01041947 0.19163579
0.033532124 0.021913841 0.14797175
0.03306957 0.024862565 0.15016085
-0.01388384 -0.031632468 0.1430656
0.029166289 0.012098417 0.1393587
0.030519195 0.015408455 0.14023107
0.034081064 0.016392116 0.14229935
-0.013734004 -0.031994887 0.14040387
0.02693806 0.0073043723 0.13690293
0.027748011 0.0096004223 0.13739705
-0.0093615875 -0.035071585 0.13488832
-0.006407965 -0.034839891 0.13548282
0.025411252 -0.00068127271 0.13155389
0.026363544 0.0045758989 0.13220075
-0.0095719332 -0.035034616 0.13070026
-0.0059552277 -0.03454588 0.13066414
0.024446204 -0.0044924114 0.12820923
0.024332102 -0.00084237847 0.12918478
-0.0080832299 -0.038581699 0.12491727
-0.0049013495 -0.034235556 0.12609714
-0.00045290589 -0.033697579 0.12556034
0.022962304 -0.0054413844 0.12507552
-0.0036865352 -0.03398506 0.12260479
0.00072077475 -0.033491679 0.12050569
0.018544881 -0.015196453 0.11798024
0.0021456545 -0.033313416 0.11615944
0.0051935194 -0.033426564 0.11621648
0.0069453856 -0.032986056 0.1120497
0.010475509 -0.031952541 0.11124098
0.016974492 -0.023218764 0.11099702
0.01149816 -0.031451583 0.10708523
0.017336786 -0.023921605 0.10559684
0.016226981 -0.028719429 0.10270566
-0.023056213 0.001201828 0.19329846
-0.014206888 0.013597809 0.19228238
0.026544206 0.012289129 0.13369769
0.028617306 0.01565125 0.13471672
-0.012928034 -0.031016111 0.13441843
0.025366411 0.007872601 0.13004491
0.025742499 0.010651482 0.13074908
-0.010825466 -0.035751786 0.12803775
0.02308627 0.0014810376 0.12641716
0.02334865 0.005891595 0.12621361
-0.0091345133 -0.035382643 0.12470096
-0.0066723889 -0.03475989 0.12422431
0.02027946 -0.0028742487 0.12147713
-0.0063115777 -0.03397188 0.11969995
-0.0024053622 -0.033251964 0.1188783
-0.0052845031 -0.033037696 0.1153962
-0.00043981336 -0.033191621 0.11484283
0.016308568 -0.013693667 0.11305958
0.00078086928 -0.033551533 0.11065876
0.0045371503 -0.033146009 0.10896379
0.016689442 -0.016167987 0.10900921
0.0015518479 -0.033439141 0.10698521
0.0060151229 -0.033057958 0.10524029
0.009524026 -0.032274015 0.10431057
0.017395658 -0.017182628 0.10391885
0.0078097656 -0.033123083 0.10091728
0.010862186 -0.032214589 0.10065961
0.018112296 -0.024041971 0.10033935
0.0074113915 -0.032976247 0.097618878
0.011684434 -0.032076217 0.09554404
0.017286614 -0.025425423 0.095584214
0.014905099 -0.030831903 0.091494501
0.025055643 0.01611267 0.13058233
0.023484554 0.010455447 0.12588269
0.024242604 0.014469845 0.12744701
0.020158891 0.0058531542 0.1214599
0.021489289 0.0092313001 0.12229937
0.017966241 -0.00068070646 0.11791009
0.019501023 0.0025491389 0.1202395
-0.011346629 -0.034835912 0.11702508
-0.0076478263 -0.034064796 0.11679679
0.017453987 -0.0050273947 0.11433804
0.017065432 -0.0010792911 0.11504251
-0.011263429 -0.035152514 0.11231565
-0.0080181174 -0.033260286 0.11195147
-0.0040952405 -0.032139331 0.11250103
0.016608555 -0.0044201924 0.1096186
-0.0068394914 -0.032908328 0.10791439
-0.0036427993 -0.032405913 0.10736895
0.016547536 -0.0095497062 0.10559636
5.0066039e-05 -0.03298413 0.10399127
0.017470442 -0.011830637 0.10142082
0.00057376549 -0.033012129 0.10024226
0.0036418568 -0.032852933 0.099273264
0.018231422 -0.013763938 0.097423077
0.0054701921 -0.032724127 0.094069242
0.009447217 -0.03289393 0.094574511
0.017159523 -0.019908378 0.093230724
0.0070734546 -0.033237223 0.089499295
0.010569107 -0.032765355 0.09035641
0.016530117 -0.023893094 0.088819802
0.011180684 -0.032658443 0.085446894
0.016691195 -0.025383329 0.084578991
0.012331259 -0.03283954 0.081134856
0.016701631 -0.027175933 0.080847621
0.024330033 0.019157773 0.1277132
0.022532646 0.016130541 0.12383181
0.023510618 0.019886831 0.12399709
0.020731922 0.010706368 0.11985797
0.021029778 0.015179206 0.12032002
0.017723922 0.0047808774 0.1162439
0.019161353 0.0098101478 0.11627364
0.016273655 -0.00046134274 0.11134183
0.01644893 0.0041141491 0.11199754
-0.012430658 -0.035799652 0.10942858
0.016561339 -0.0017604032 0.10716617
-0.011602361 -0.035534099 0.10566682
-0.0083613945 -0.033908874 0.10570335
0.017190054 -0.003773368 0.1035319
-0.0080021983 -0.032354731 0.10099798
-0.0043370482 -0.031910866 0.10081917
0.01811773 -0.0065663317 0.098448336
-0.0029125465 -0.031907555 0.095861375
-0.0014219666 -0.0316904 0.092428088
0.0022217967 -0.03286992 0.092903554
0.016825523 -0.012766706 0.090077102
0.0032971371 -0.032917038 0.087783694
0.0059029581 -0.033470627 0.08331722
0.0094191628 -0.033704314 0.082832158
0.017830061 -0.020332394 0.082010508
0.0060871486 -0.033066683 0.078668773
0.010546779 -0.033575572 0.078570545
0.017624484 -0.025657041 0.078149974
0.011403615 -0.0331982 0.074006259
0.017584333 -0.026966738 0.073663056
0.019701973 0.017659537 0.1174196
0.021157291 0.021449875 0.11741275
0.017992964 0.010886921 0.113159
0.019172825 0.015907455 0.11388415
0.021296231 0.020634187 0.11361134
0.016459258 0.0069699795 0.10998625
0.017853756 0.010845661 0.10909754
0.018691212 0.014778721 0.10942942
0.025419388 0.019652519 0.10803401
0.027986661 0.019374035 0.10940301
0.016866105 0.0045684129 0.1059286
0.017668672 0.0096337982 0.10461366
0.028443428 0.016388839 0.1071887
0.016813265 -0.00034935214 0.10148889
0.01732149 0.0035500075 0.10088944
-0.012442394 -0.034343075 0.099552512
-0.010697592 -0.032972623 0.099327505
0.017068617 -0.0020043491 0.09745425
0.017013863 0.0015619858 0.09649384
-0.012493416 -0.034539167 0.096588016
-0.0092935879 -0.033101581 0.095355988
-0.0057668481 -0.031954035 0.094453573
0.017301761 -0.0040768068 0.092612565
-0.008478337 -0.03427811 0.090300143
-0.0041511282 -0.032263834 0.090686202
0.0173526 -0.0057612373 0.087960184
-0.0065917028 -0.034116797 0.08604908
-0.003581346 -0.032435331 0.085615218
0.017379319 -0.011026898 0.084018111
-0.0023934934 -0.032754816 0.081270993
0.0015093498 -0.032492705 0.081088662
0.018096954 -0.012591936 0.079627812
0.0029858341 -0.032550871 0.076228082
0.018717047 -0.014601048 0.075070977
0.0053633656 -0.033369839 0.072788715
0.0092427861 -0.033214182 0.071141839
0.01842051 -0.019886255 0.071098566
0.0063870642 -0.034124993 0.06807071
0.0097127985 -0.033096008 0.067620099
0.017545551 -0.026872423 0.066950023
0.020635027 -0.01799256 0.066243768
0.010555832 -0.033128954 0.063139319
0.018807098 -0.027905688 0.062164009
0.011974428 -0.03324661 0.059107244
0.019719984 -0.029318124 0.057872057
0.017177142 -0.032673728 0.053665936
0.022910222 -0.026952703 0.05297029
0.021561414 -0.031725351 0.048808336
0.023357993 -0.032181688 0.045179188
0.021393562 0.024209054 0.11480427
0.019005181 0.018120771 0.1108377
0.021845346 0.021497296 0.11083311
0.023273436 0.024540117 0.11249608
0.018376404 0.017382836 0.10622048
0.022084326 0.019515898 0.10651672
0.017899979 0.011429764 0.10194117
0.017245054 0.015977193 0.10203558
0.024677817 0.019039411 0.10295689
0.017496102 0.0058822013 0.097428381
0.017403809 0.0099981865 0.097865462
0.017338192 0.0041680601 0.093919456
0.017057687 0.0085599562 0.093717158
0.016543213 -0.00070184562 0.089343548
0.016518161 0.0029092804 0.089383721
0.017058626 -0.0024080761 0.085016131
-0.0088258451 -0.034447756 0.084062755
0.018205769 -0.0042566443 0.081289291
-0.0081537366 -0.033816531 0.078375041
-0.0041807406 -0.033307079 0.078801692
0.018829668 -0.0072816531 0.076720297
-0.0073970687 -0.034275882 0.074365079
-0.0033321604 -0.032912083 0.073928833
0.00049981847 -0.032592874 0.074425876
0.018766126 -0.0078577846 0.072182655
-0.0024473472 -0.033221878 0.069423437
0.0016570278 -0.033132583 0.069745481
0.003043443 -0.033407934 0.065334439
0.004945714 -0.033202831 0.061531603
0.0086814733 -0.03381275 0.060435057
0.010351445 -0.033040252 0.055992424
0.023128493 -0.019492509 0.054593742
0.01104808 -0.032899112 0.051023543
0.023885472 -0.024461092 0.052001894
0.016197242 -0.033858292 0.046825647
0.025980111 -0.022494834 0.045908511
0.021578142 -0.032924727 0.042504609
0.026647367 -0.024352595 0.040796995
0.025474947 -0.029590331 0.037258446
0.025989335 -0.030049618 0.033306003
0.018139705 0.018709447 0.10303968
0.017631318 0.018380772 0.099716187
0.020074336 0.020967344 0.099371433
0.017503822 0.011780534 0.095250547
0.017311925 0.016264746 0.096308827
0.017868973 0.010386643 0.091950834
0.017959166 0.014736786 0.090793371
0.016709642 0.0043973681 0.087118506
0.018394396 0.009586717 0.087407112
0.018711679 0.013804858 0.087561071
0.017074134 0.0032329401 0.083315372
0.018695451 0.0079707652 0.083214581
-0.014495173 -0.03174866 0.079634964
0.017723853 -0.0025249254 0.077583909
0.018111926 0.0022451542 0.078971148
0.018272176 0.0065989317 0.078938305
-0.0099466871 -0.033952944 0.077005446
0.018202351 -0.0031467131 0.07507509
0.01867855 0.00045459066 0.074608088
-0.0087940954 -0.035008002 0.07266736
-0.0057901442 -0.033701558 0.071756303
0.0190138 -0.0056539918 0.070491016
0.019525904 -0.0014090249 0.069985628
-0.0078795291 -0.035688188 0.068255186
-0.0039759008 -0.034014549 0.067681849
0.019528776 -0.0070598163 0.066307485
0.020613035 -0.0037341025 0.065212429
-0.0071293451 -0.035377089 0.063652337
-0.0037500747 -0.033966836 0.063584805
0.0011780299 -0.032975499 0.062505126
0.020802272 -0.0088895913 0.062035441
0.021048594 -0.004365365 0.061617613
0.001334548 -0.032700296 0.058855772
0.0031815181 -0.03271883 0.05537504
0.0067316582 -0.032400005 0.053614676
0.023761714 -0.012648189 0.052823663
0.0083972672 -0.032758795 0.049467623
0.010360462 -0.033381477 0.045637429
0.02687001 -0.016043743 0.044317961
0.01151268 -0.034021676 0.041354358
0.027123904 -0.021301391 0.040245831
0.0157804 -0.034163952 0.036132812
0.026203718 -0.027845316 0.03418535
0.02940448 -0.019141693 0.034870863
0.021290844 -0.032877635 0.03174001
0.028410712 -0.025460461 0.031825006
0.022249909 -0.033124223 0.026924789
0.029754309 -0.02708493 0.02719152
0.023206977 -0.032658417 0.022562683
0.030440923 -0.02808908 0.021763861
0.029343816 -0.029593999 0.017742097
0.017041575 0.019712083 0.093395889
0.018024709 0.022697866 0.093186796
0.017410643 0.018864796 0.088272572
0.017851142 0.022094065 0.088796318
0.018198991 0.016221208 0.083913386
0.018661093 0.010276147 0.079843283
0.018726597 0.01348218 0.080510795
0.018362125 0.0087810513 0.07568109
0.019005567 0.0030842582 0.071942866
0.018412659 0.006693644 0.071149528
0.019341353 0.0018944135 0.067050099
0.018976564 0.0052788374 0.0664891
-0.013136391 -0.03437975 0.063025594
0.020248072 0.00014191866 0.062769711
-0.0098795136 -0.035251409 0.061580122
-0.0068042045 -0.033677708 0.059672177
0.021303896 -0.0020896271 0.058053195
-0.0047914693 -0.031930584 0.056910455
-0.0016475571 -0.031969011 0.055111527
0.022111267 -0.0046427101 0.053918421
-0.0048666894 -0.03137419 0.053005576
-0.00010556728 -0.031873249 0.051233232
0.023345336 -0.0061568674 0.049131393
0.0020349873 -0.031492829 0.046224475
0.0045768777 -0.031582002 0.04662621
0.025224335 -0.0083001936 0.045076966
0.0055105733 -0.031654853 0.041855931
0.027239885 -0.010087725 0.040582478
0.0085689314 -0.032573558 0.037724435
0.0291925 -0.011617619 0.036511123
0.010377076 -0.033425301 0.033910453
0.009989229 -0.03329061 0.030369639
0.03106552 -0.018800609 0.028099
0.015486553 -0.033721324 0.025187314
0.03109148 -0.020262515 0.023640215
0.021047102 -0.032599345 0.019506633
0.031176955 -0.022261288 0.019330919
0.026327882 -0.031427629 0.016029537
0.031239148 -0.023234639 0.015857637
0.028406531 -0.027798653 0.011651218
0.017426796 0.025847401 0.0893085
0.017016113 0.027933665 0.089360654
0.017878197 0.023415789 0.08560878
0.018843252 0.027339552 0.086018562
0.018078906 0.019090598 0.081233323
0.018532669 0.022321841 0.081757903
0.019936377 0.025758965 0.081605971
0.017623518 0.017438073 0.077132761
0.018797014 0.0216249 0.0774827
0.020192953 0.024091536 0.077442765
0.018057665 0.011366431 0.071981013
0.017304281 0.015489691 0.073463261
0.017624492 0.019257935 0.07360965
0.018390656 0.0096595157 0.068930328
0.018277142 0.01344568 0.068821549
0.019233106 0.0088536013 0.065205395
0.019568585 0.011880831 0.064067662
-0.01525118 -0.032398202 0.062862277
0.019875094 0.0065250807 0.060980916
0.020279402 0.010988129 0.060729802
-0.014242966 -0.033757124 0.05784142
0.021364011 0.0047622826 0.056451857
-0.012410421 -0.033062123 0.054166853
-0.0087141376 -0.031533703 0.053845823
0.021798227 -0.0007528672 0.052506745
0.02290914 0.002942577 0.051985502
0.024134465 0.0064011784 0.04847306
-0.0072214771 -0.031336725 0.049569666
0.0228836 -0.0020696949 0.048563778
0.024360832 0.0012156358 0.047411442
0.025696568 0.0046550063 0.046090186
-0.0056420434 -0.031836897 0.044854343
-0.0018695248 -0.031513508 0.045781791
0.02430366 -0.0037656343 0.043962538
0.025739934 -0.00043949764 0.042752743
0.02706142 0.0030157994 0.041400909
-0.00013716146 -0.031742662 0.040886521
0.026249111 -0.0059775477 0.039966166
0.02747326 -0.0024448493 0.03850019
0.027883096 0.0020111687 0.038169503
0.0012765061 -0.032091491 0.03597784
0.0043681087 -0.031526085 0.036302924
0.029352061 -0.0045940215 0.034423113
0.0018892139 -0.032406941 0.031659007
0.0057321321 -0.032582559 0.031801462
0.030487768 -0.006007188 0.029470623
0.0084795719 -0.033468679 0.027010977
0.03153006 -0.012167708 0.025270402
0.03079918 -0.0080150319 0.024838507
0.0090482216 -0.033682525 0.022840738
0.012912752 -0.033161595 0.022236168
0.031240497 -0.0097179776 0.019205213
0.017922699 -0.032499935 0.017147601
0.031760417 -0.015264341 0.016497135
0.018763762 -0.033002768 0.013053477
0.031560626 -0.017130952 0.011560977
0.025061943 -0.030929301 0.0088475347
0.030086812 -0.022010822 0.0070132613
0.01703666 0.030341914 0.088071704
0.019163616 0.022606086 0.074614584
0.020024726 0.025401736 0.074539006
0.017118922 0.01723255 0.071341872
0.018159084 0.021342013 0.070352972
0.01912874 0.024916343 0.069105327
0.018169153 0.015955433 0.067344069
0.019146999 0.019796481 0.065671027
0.020986019 0.023365462 0.064067125
0.019188657 0.014665373 0.062274992
0.019646535 0.018357432 0.060703993
0.019970311 0.01263499 0.057072818
0.020044757 0.015999081 0.056655288
0.020991255 0.010539088 0.053411365
-0.015945673 -0.032625455 0.052001536
0.022106772 0.010042151 0.049073279
-0.01343835 -0.031836711 0.047542155
-0.010041931 -0.031573661 0.047098279
0.024173293 0.0086318105 0.043960571
0.024539491 0.010678066 0.042940617
-0.012658358 -0.032315731 0.043421745
-0.0082934545 -0.032626938 0.042897999
0.026482029 0.0059984084 0.039283693
0.026588099 0.008974595 0.03916508
-0.0075332811 -0.032305848 0.038170338
-0.0034318827 -0.031541724 0.037842333
0.0281354 0.0028681951 0.0356372
0.028381694 0.007528699 0.035099566
-0.0056331549 -0.032023318 0.034738719
-0.002759641 -0.031715117 0.033644855
0.029289987 0.0014846148 0.031732619
0.029747814 0.0058886521 0.030371606
-0.00059337914 -0.032149147 0.029361784
0.030009374 0.00075954664 0.026733696
0.030534584 0.0049205124 0.027069092
0.00035764836 -0.032259293 0.024165452
0.0045389635 -0.033018935 0.025966704
0.030961379 -0.0068662576 0.021601617
0.030397836 -0.0025297245 0.022910535
0.0045927754 -0.032681305 0.020332158
0.010614763 -0.032294858 0.019243896
0.030423287 -0.0064803259 0.017768979
0.030192776 -0.0037613977 0.018105209
0.0074732471 -0.032431133 0.015835941
0.01124136 -0.031933367 0.016100526
0.031285629 -0.0085519925 0.013676524
0.011432425 -0.032202713 0.011332154
0.031172238 -0.010126278 0.0090110898
0.019093415 0.027397523 0.067696154
0.019821566 0.026419822 0.062266886
0.020605365 0.020491989 0.059679151
0.021201877 0.023581995 0.05928421
0.020584946 0.019361256 0.055637598
0.022071322 0.023721034 0.054331958
0.024385059 0.026171664 0.051996291
0.019992419 0.01332799 0.050714731
0.021025954 0.017221441 0.051132143
0.023372667 0.022150407 0.049508989
0.025410887 0.024961684 0.048955262
0.022514191 0.015457627 0.046532094
0.024586387 0.019979905 0.045293272
0.02700562 0.023958486 0.04538095
0.030938726 0.026329882 0.04251349
-0.017396728 -0.031546351 0.048436463
0.024160177 0.014239821 0.041998088
0.026058249 0.017696735 0.040668845
0.031968743 0.025115749 0.039475858
-0.014466067 -0.032565273 0.04095751
0.026459692 0.012419818 0.037996352
0.027779631 0.015693687 0.036325634
-0.012910166 -0.032589458 0.036967337
0.029073007 0.010466102 0.033702672
0.02962248 0.013565795 0.032128572
-0.0083320709 -0.032674573 0.032221138
0.030690867 0.0085706832 0.029260337
0.031554177 0.012256989 0.027214825
-0.0079523725 -0.032267984 0.027269125
-0.0041837832 -0.031655014 0.02663672
0.030827131 0.0060755527 0.023719609
0.032289725 0.010127563 0.023106754
-0.0068896487 -0.031633388 0.023982942
-0.0035191718 -0.031413138 0.022494256
0.029742546 0.0011105062 0.019708216
0.030600904 0.005289698 0.019453883
0.032526132 0.0087301908 0.019293308
0.000152288 -0.031698674 0.018216491
0.002777338 -0.031973328 0.016628981
0.030035997 -0.0012208652 0.015865624
0.029871786 0.0039416123 0.016364515
0.0040659253 -0.032278903 0.013178885
0.029938754 -0.0023202756 0.011110246
0.005559097 -0.032791413 0.009608984
0.0103455 -0.032767691 0.0084008574
0.031919874 -0.0093625402 0.0069417357
0.031014478 -0.0051041078 0.0073421001
0.026950531 0.0257571 0.0471645
0.025915062 0.021718668 0.043600798
0.028485358 0.024469018 0.04314959
0.027210001 0.020192806 0.039812028
0.029339647 0.022916382 0.039352119
0.028456045 0.018680336 0.034903765
0.029929357 0.022127805 0.034730613
0.032634906 0.024253249 0.034943283
0.030124327 0.016730903 0.030488908
0.03062544 0.021226693 0.030221045
0.033320192 0.023370247 0.030421793
-0.013375605 -0.031991951 0.031453133
0.031358268 0.015305378 0.027690649
0.032186378 0.019387644 0.02566117
0.034668274 0.02178828 0.026681244
-0.010078971 -0.033234619 0.025343359
0.033270031 0.013066938 0.022503436
0.032911826 0.018119294 0.020550132
-0.0091632679 -0.03205752 0.021111548
-0.0060737077 -0.030385865 0.019281626
0.031585492 0.0071638394 0.017534673
0.032751296 0.011361349 0.01778084
0.032878224 0.015830837 0.017274439
-0.0047046887 -0.030501511 0.016177773
0.029546753 0.0016614702 0.013207793
0.030688107 0.0057605235 0.013215184
0.031654984 0.010253572 0.0127002
-0.0018052077 -0.031495892 0.011426985
0.029373638 0.0016528154 0.008690834
0.029674802 0.004418809 0.0076649189
0.033952504 0.019751292 0.017659724
0.03331317 0.023021586 0.018581927
0.032096077 0.01784943 0.014468133
0.032408249 0.021301966 0.013606489
-0.010368451 -0.030479494 0.01420325
-0.0065806638 -0.030413778 0.012375534
0.031449236 0.013969677 0.01043129
0.031298753 0.017287202 0.00992769
-0.0087895133 -0.030932456 0.0091891289
-0.0061966581 -0.030988023 0.0096329451
0.031355284 0.019832082 0.011700273
0.030976081 0.024058012 0.011071324
-0.015353585 -0.029242573 0.012096703
-0.012561723 -0.030436959 0.007784307
