# .PCD v0.7 - Point Cloud Data file format
VERSION 0.7
FIELDS x y z
SIZE 4 4 4
TYPE F F F
COUNT 1 1 1
WIDTH 1079
HEIGHT 1
VIEWPOINT 0 0 0 1 0 0 0
POINTS 1079
DATA ascii
0.014385625 0.062532574 0.81973338
0.015907962 0.062507145 0.81940013
0.0090869106 0.059828717 0.82450014
0.01308992 0.058337409 0.82241672
0.017494265 0.058126058 0.8221333
0.022107229 0.057854582 0.82262671
0.027506286 0.058222946 0.82348895
0.032935105 0.058318928 0.82483721
0.037039693 0.057299506 0.824889
0.0090729687 0.062799171 0.82323337
0.012681917 0.062614731 0.82080811
0.01765402 0.062600538 0.82062477
0.022085262 0.062689267 0.82179254
0.027502617 0.062809415 0.82336116
0.0321685 0.061392229 0.82490015
0.0092276987 0.067094818 0.82332003
0.012891302 0.067291312 0.82197022
0.017477874 0.067240022 0.82134795
0.022110825 0.067353003 0.82272595
0.025835807 0.067157976 0.82409346
0.013850641 0.071774542 0.82429343
0.017528106 0.072028913 0.82369637
0.020621747 0.071337797 0.82456684
0.016005041 0.075156875 0.82440019
0.0099115521 0.053995553 0.82913363
0.013309496 0.053362899 0.82889354
0.017624095 0.053167343 0.82825565
0.022249224 0.053144246 0.82790011
0.027142309 0.053409498 0.82803327
0.033378646 0.05331856 0.82821339
0.037696049 0.052383129 0.82805187
0.042533893 0.052589562 0.82826674
0.046995923 0.053191885 0.82863361
0.05212098 0.053350914 0.8293907
0.0088647669 0.057498023 0.82775551
0.012582492 0.055769116 0.82684988
0.017581945 0.055345874 0.82626653
0.022191981 0.055314615 0.82579994
0.027574515 0.055296749 0.82553339
0.032997578 0.055354808 0.82639986
0.037758294 0.057692833 0.82565182
0.042106681 0.057220686 0.82670653
0.046936817 0.056974217 0.82759255
0.052224159 0.056938387 0.82910925
0.0068172193 0.060921848 0.82893348
0.033184491 0.063416451 0.82556206
0.037627749 0.063051984 0.8265332
0.042458974 0.062592313 0.82783628
0.046786152 0.061244618 0.82882875
0.050904337 0.060181875 0.82936698
0.0075815106 0.067792073 0.82813334
0.028804308 0.067848884 0.82610476
0.033033248 0.067725234 0.82727402
0.037717972 0.067827076 0.82851863
0.041609965 0.067102879 0.82910037
0.0094991233 0.071931548 0.82700002
0.011789186 0.072549537 0.82526684
0.022626998 0.072412901 0.82558089
0.027625771 0.072320655 0.82703328
0.032903269 0.072287917 0.82886696
0.037773028 0.071012706 0.82973361
0.0095173148 0.076688893 0.82851684
0.01297082 0.076938905 0.82705188
0.017791633 0.07712923 0.82703328
0.022247232 0.077009529 0.82781482
0.026691079 0.076661818 0.82881922
0.030009206 0.075576283 0.82900035
0.0099171288 0.080260605 0.82960021
0.013512813 0.081204854 0.82873362
0.017327851 0.080802634 0.82882702
0.021511888 0.08022514 0.82923365
0.034898266 0.049717795 0.83499974
0.037957009 0.049645018 0.83377784
0.042585719 0.049602676 0.83306676
0.047341246 0.049701918 0.83473319
0.05046707 0.049713828 0.8349331
0.0079621179 0.053162187 0.83334273
0.012653869 0.05144449 0.83153331
0.017685747 0.051033661 0.83113319
0.022355566 0.051075965 0.83182222
0.027419856 0.051506914 0.83255011
0.031920243 0.051590428 0.83181113
0.040894266 0.050980441 0.83026665
0.047118738 0.05101319 0.83079988
0.053030066 0.051344953 0.83117324
0.056934029 0.053065814 0.83271676
0.0063232523 0.056752037 0.83186817
0.054821588 0.058693297 0.83013344
0.058063965 0.057290707 0.83219266
0.0060600466 0.06263265 0.83118546
0.047427587 0.064303413 0.83078671
0.052400254 0.062087901 0.83163333
0.056886416 0.061387688 0.83316004
0.0068380539 0.068067692 0.83146667
0.043092739 0.068636246 0.83085334
0.047235303 0.068182029 0.83285183
0.050947662 0.067007154 0.83429986
0.0074601984 0.073040091 0.83174217
0.034728289 0.074206829 0.83093321
0.037883572 0.07354293 0.83215553
0.04257847 0.072835043 0.83290362
0.04734119 0.072798967 0.83472472
0.050471101 0.071463473 0.83499974
0.00746975 0.077777058 0.83273524
0.02778816 0.078938812 0.83193338
0.032469384 0.077452719 0.83257997
0.037600175 0.076462917 0.83446652
0.042682361 0.076119192 0.83495528
0.048913829 0.076123245 0.83499974
0.0099505996 0.082855687 0.83239985
0.011993746 0.082928278 0.8305555
0.018061612 0.083059579 0.83058321
0.022560697 0.082407661 0.83123809
0.026537701 0.081648506 0.83325553
0.030204678 0.080724992 0.83439982
0.013843496 0.086804263 0.83314443
0.017721342 0.086766399 0.83278525
0.022416316 0.086903967 0.83410352
0.025554538 0.085442789 0.83499974
0.014653536 0.090102598 0.83499974
0.017767875 0.090878047 0.83498859
0.021661317 0.090102598 0.83499974
0.0126905 0.0492086 0.83767623
0.017824816 0.049096089 0.83766669
0.022516282 0.049106698 0.83784455
0.027407456 0.048736222 0.83722836
0.03164142 0.048730664 0.83713323
0.037323974 0.048281834 0.83703333
0.0427933 0.047507692 0.83713335
0.047504351 0.047535151 0.8376112
0.052138183 0.048524871 0.83677775
0.0558815 0.04939352 0.83828896
0.0032440908 0.054044619 0.8378666
0.0064936825 0.051792946 0.83716667
0.058910877 0.052944366 0.8369112
0.061161365 0.052050386 0.83922237
0.0037647872 0.056893051 0.83772504
0.005315966 0.063770793 0.83596551
0.058035951 0.062862374 0.83628666
0.0053238608 0.065422863 0.8372069
0.053011112 0.067797601 0.83575994
0.056451846 0.066813216 0.83790481
0.0058464189 0.072713502 0.83748859
0.047360308 0.074575923 0.8350665
0.052484758 0.072995856 0.83674067
0.055828437 0.071454309 0.83945
0.034906622 0.079248771 0.83519995
0.038404956 0.078772716 0.83674657
0.042794991 0.078655832 0.83715552
0.047275491 0.07805942 0.83700836
0.051685553 0.077422388 0.83784443
0.0084388675 0.081700824 0.83643425
0.028157564 0.08339408 0.83522201
0.032833848 0.082625523 0.83649081
0.038147774 0.082627736 0.8379482
0.042265736 0.082112566 0.83905345
0.047619481 0.081232376 0.83964443
0.011560466 0.087158956 0.83655554
0.027365373 0.087376185 0.836775
0.031716157 0.087151051 0.83835006
0.036948949 0.086176626 0.83912021
0.013128652 0.091893137 0.8371619
0.017415129 0.09379372 0.83674991
0.022475462 0.092580348 0.83632487
0.026698345 0.091499083 0.83830005
0.030404979 0.09063492 0.83993334
0.01393168 0.095934086 0.83845007
0.017837794 0.096437462 0.83830005
0.022543743 0.095718853 0.83884448
0.057372142 0.037733626 0.84489489
0.047880445 0.043986004 0.84423643
0.052571084 0.043958835 0.84371507
0.057033449 0.042914551 0.84376675
0.061235704 0.04318101 0.84385717
0.0032685406 0.048169117 0.84415555
0.0071561337 0.047496833 0.84285724
0.011836053 0.046625618 0.84230828
0.017911904 0.046988387 0.84175539
0.022667678 0.046298712 0.84347779
0.02703678 0.04608085 0.84236002
0.03237237 0.046072591 0.84221333
0.037212543 0.046333205 0.842076
0.04230582 0.045489717 0.84300005
0.047704179 0.045388982 0.84113312
0.052751742 0.046037905 0.84157342
0.05737488 0.046806887 0.84203339
0.06192128 0.047027659 0.84248072
0.065085202 0.048611585 0.84275007
0.0028424612 0.051401705 0.84225339
0.0069149793 0.050069764 0.84091091
0.058638934 0.0500433 0.84046662
0.062493239 0.05119995 0.84110206
0.0030032953 0.058066033 0.84347564
0.0037940727 0.064402133 0.84424138
0.060211197 0.064119257 0.84053344
0.0037932973 0.066744581 0.84406912
0.0053521474 0.068119928 0.84165514
0.058650557 0.068036586 0.84063315
0.060344912 0.065828681 0.84240013
0.0053622965 0.071385637 0.84325123
0.057658453 0.07201051 0.84139991
0.053188622 0.079019971 0.84103322
0.056265075 0.076491289 0.84246671
0.0084896144 0.084538989 0.84146446
0.043777827 0.083713964 0.84103328
0.047743898 0.083793677 0.84183335
0.052071474 0.082667038 0.84288579
0.0085079186 0.088641927 0.84327865
0.010049422 0.087585926 0.84066659
0.03354593 0.08909373 0.84013325
0.037829872 0.08849521 0.84080929
0.043086618 0.087814227 0.84284461
0.047863699 0.087928683 0.84394085
0.051043332 0.087197199 0.84446657
0.0079865949 0.093116224 0.8435505
0.010452352 0.092771828 0.84160745
0.028355256 0.09336751 0.84108871
0.032228846 0.092569761 0.8415333
0.037569273 0.092479892 0.84250015
0.042965867 0.092484303 0.84433341
0.046873052 0.09170562 0.84499997
0.008104519 0.097158082 0.84230828
0.011620451 0.097389147 0.84091651
0.018669967 0.098517463 0.84053314
0.022924462 0.097985417 0.84133321
0.027367642 0.097224183 0.84287429
0.032104414 0.097286761 0.84341502
0.037167862 0.097209379 0.84410012
0.042404611 0.095889658 0.84493327
0.0085177673 0.102094 0.84425479
0.012759669 0.10171504 0.84370691
0.017922072 0.10185091 0.84222972
0.022660859 0.10196789 0.84320021
0.027168553 0.10157572 0.84366685
0.032151505 0.10135776 0.84465557
0.036102064 0.10139284 0.84494984
0.014041064 0.1053284 0.84499991
0.017962651 0.10679371 0.8441481
0.022476396 0.10641544 0.84471422
0.025860589 0.1053284 0.84499991
0.018296091 0.11067276 0.84499991
0.021132769 0.11082995 0.84499991
0.054382503 0.03469355 0.84741688
0.056618519 0.034611464 0.8454119
0.053382367 0.038410813 0.84828275
0.057224352 0.038008992 0.84602988
0.0032860935 0.043685287 0.84857798
0.0069701816 0.043373737 0.84763342
0.012501566 0.043361351 0.84739178
0.018055132 0.043417025 0.84847802
0.022796841 0.043407205 0.84828907
0.027509592 0.043354433 0.84726685
0.032242876 0.043343719 0.84705573
0.036993507 0.04335697 0.84731126
0.042676769 0.042878721 0.84722024
0.048058171 0.041783188 0.84735566
0.05272257 0.042061258 0.84615237
0.057922501 0.041418921 0.84526497
0.060578924 0.040914312 0.84566671
-0.00093480269 0.048185989 0.84906703
0.0016988056 0.046739519 0.84671116
0.0061622951 0.045604859 0.84513319
0.014830204 0.045601256 0.84506649
0.017986104 0.045610856 0.84524423
0.065258965 0.04716951 0.84500003
-0.0013296615 0.051662814 0.84781694
0.00064586126 0.051905349 0.84532833
0.0014382652 0.057553433 0.84742963
0.062963679 0.05745006 0.84591675
0.0028598804 0.06275712 0.84748971
0.063354157 0.062032957 0.84761667
-0.00093497609 0.068730876 0.84922427
0.001774002 0.067991778 0.8470493
0.060652945 0.068527028 0.84670019
-0.00093321083 0.070966862 0.84762079
0.0024539358 0.072098099 0.84766573
0.059098259 0.073283561 0.84705007
0.060775716 0.071033284 0.848414
0.058298647 0.077203095 0.84688342
0.0069695935 0.082777061 0.84746116
0.054242402 0.082559243 0.84523332
0.056686599 0.081887685 0.84641117
0.0072887978 0.087397203 0.84793681
0.053340856 0.088001862 0.8465417
0.056380644 0.086353026 0.84775013
0.0077582523 0.092232198 0.84744453
0.0447824 0.094347708 0.84519988
0.048480958 0.093339175 0.84555537
0.052642278 0.092885844 0.84800005
0.056111522 0.090895221 0.84966683
0.0069542872 0.095965348 0.84560001
0.04276279 0.098199472 0.84677786
0.047892176 0.097414829 0.84842873
0.05211034 0.097143285 0.8490169
0.0069640703 0.10240112 0.84678954
0.010891032 0.10377297 0.8451333
0.028228994 0.10377297 0.84513319
0.032185677 0.1038248 0.84555548
0.037580587 0.10297538 0.84632003
0.04224883 0.10224558 0.84810698
0.0085410951 0.10709775 0.84656668
0.01217188 0.10742378 0.84664679
0.023502368 0.1084978 0.84519982
0.02768831 0.10730708 0.84665
0.032092966 0.1071237 0.84831691
0.03706276 0.10581598 0.84891146
0.040258836 0.10589353 0.84953362
0.01281712 0.1116362 0.84753495
0.017612327 0.11295541 0.84619999
0.02320643 0.11206841 0.84671438
0.027039593 0.11161972 0.84901136
0.014889863 0.1152304 0.84846687
0.01824517 0.11656563 0.84812522
0.022584528 0.11639877 0.84876215
0.052576646 0.034365494 0.85231537
-0.0083611691 0.037033912 0.85291672
0.0070282668 0.039758343 0.85463345
0.012597539 0.039728109 0.85398334
0.018183209 0.039752658 0.8545112
0.022964848 0.039356139 0.85453337
0.027426858 0.039117035 0.85452002
0.032516968 0.039741285 0.85426682
0.037294555 0.039739221 0.8542223
0.042008977 0.039678741 0.8529222
0.047538139 0.038852222 0.85222501
0.051476702 0.036847405 0.85166669
-0.0013385527 0.043297507 0.85390007
0.0017096861 0.042257208 0.85162216
0.0069995597 0.04118095 0.85117769
0.012557592 0.04118444 0.85124987
0.018119864 0.041198149 0.85153317
0.022881476 0.04119331 0.85143322
0.02763065 0.041171268 0.85097766
0.032390229 0.041169122 0.85093331
0.037157524 0.041176111 0.85107774
0.041896846 0.041154604 0.85063338
-0.0027950357 0.047584962 0.85243326
-0.0034824186 0.052640699 0.85216171
-0.0023296976 0.056872945 0.8520143
0.00065030373 0.058595449 0.85114288
-0.0016200303 0.062281162 0.85206926
0.00065010472 0.0625339 0.85088241
0.062480718 0.063266456 0.85008341
-0.0022104073 0.067229286 0.8522166
0.062774584 0.06594713 0.85408199
-0.0014655559 0.072840355 0.85106903
0.0014431459 0.074422091 0.85107148
0.061074816 0.073763281 0.85258925
0.005434623 0.077912368 0.85462505
0.059423186 0.078439474 0.85170722
0.06112811 0.076207243 0.85333341
0.059585135 0.082624003 0.8540284
0.058668721 0.087604478 0.85225844
0.0069937627 0.093346275 0.85040003
0.054548305 0.094883524 0.8500002
0.057912387 0.092025913 0.85283339
0.049026765 0.099681698 0.85046679
0.053648699 0.098773085 0.85081327
0.057168681 0.096874513 0.85360557
0.043485545 0.10445239 0.85066664
0.04773448 0.1029093 0.85098886
0.052799881 0.10324939 0.85247993
0.056429993 0.10174301 0.85448909
0.033961195 0.10918248 0.85053337
0.037139751 0.10840992 0.85067779
0.042129096 0.10789523 0.85129577
0.046603657 0.10774949 0.85327506
0.05162093 0.10645308 0.85402226
0.010978572 0.11412521 0.85199857
0.028694073 0.11348169 0.85113329
0.03244023 0.11257219 0.85222602
0.037250008 0.11250176 0.85319585
0.041633751 0.11152752 0.8533417
0.046086326 0.11131594 0.85476679
0.012973922 0.11719018 0.85267735
0.016505921 0.11862888 0.85020012
0.02364379 0.11864052 0.85028344
0.027689889 0.11740025 0.85275555
0.03171866 0.11680593 0.85421675
0.014981707 0.12070532 0.85369998
0.018331731 0.12187839 0.852175
0.022902912 0.12207986 0.85219634
0.026941262 0.12158148 0.85427511
0.019242212 0.12609558 0.85435563
0.022958333 0.12634894 0.85427785
0.051045708 0.03352166 0.85776675
-0.0068058264 0.038814317 0.85717183
-0.0025442971 0.037984617 0.85770953
0.0020251628 0.038739596 0.85726678
0.0070571685 0.038720321 0.85808349
0.012490314 0.037341222 0.85757333
0.017674524 0.036862668 0.85792136
0.023047708 0.037343062 0.85761338
0.028246596 0.037106358 0.85766661
0.032619335 0.037474025 0.85695571
0.037425231 0.037485335 0.85721117
0.042208489 0.037474003 0.85695559
0.04703689 0.035906009 0.85757786
0.05012054 0.035028577 0.85560024
-0.0061517316 0.042754147 0.85891205
-0.0034996495 0.042714551 0.85652161
-0.0057539591 0.047968853 0.85931116
-0.0041377526 0.046218202 0.85650009
-0.0057428214 0.05265962 0.85764766
-0.0057436922 0.057458233 0.85777777
-0.0041333619 0.058901653 0.855591
-0.0057451804 0.060663555 0.85800004
-0.004141645 0.062210605 0.85730553
-0.0041513406 0.067149952 0.85931253
0.064098932 0.067013189 0.85757828
0.066408828 0.067195326 0.85988879
-0.0033449386 0.071790695 0.85750687
0.062994659 0.071758658 0.85707575
-0.00094451988 0.076614432 0.85789305
0.0022558598 0.077437967 0.85817873
0.062356304 0.078135833 0.85708606
0.005458686 0.084644578 0.85840917
0.061536029 0.083108515 0.85902774
0.0038608972 0.087910019 0.85911131
0.0054460927 0.087635316 0.85642862
0.059671517 0.087516628 0.85526687
0.061534047 0.087898113 0.85900003
0.059690118 0.093113951 0.8555336
0.061441883 0.09255293 0.85771352
0.059790909 0.097257756 0.85697788
0.062034141 0.096368827 0.85852957
0.058860563 0.10176718 0.85737342
0.048536178 0.10985857 0.85580033
0.051996034 0.10853649 0.85583359
0.056256682 0.10733881 0.85791683
0.037354901 0.11460762 0.8556003
0.042469263 0.11399233 0.85576028
0.047213953 0.11360739 0.85662884
0.051873516 0.11202946 0.85819989
0.055160094 0.11033781 0.85953331
0.010776948 0.11904705 0.85700363
0.033212233 0.11844788 0.85574692
0.037380323 0.11787108 0.85617805
0.042244259 0.11807513 0.85765922
0.046891585 0.11799954 0.8585583
0.050886821 0.11567058 0.85955566
0.0086759012 0.12478523 0.85992861
0.011859594 0.1229533 0.85830241
0.015547134 0.12363014 0.85562235
0.028432786 0.12326024 0.85600024
0.032651976 0.12288176 0.85779995
0.037496239 0.12302923 0.85882968
0.041263029 0.12205059 0.85944444
0.0086717801 0.12632483 0.85952002
0.011876887 0.1269546 0.85945272
0.016812693 0.12789454 0.85694093
0.022992676 0.12892513 0.85555583
0.027829336 0.12755868 0.85705942
0.032704186 0.12707222 0.8591668
0.035937537 0.12637581 0.85986686
0.018584561 0.13157983 0.85833329
0.023269942 0.13235094 0.85840839
0.027091645 0.13104719 0.85903335
0.036943484 0.028965238 0.86464441
0.0087237079 0.033791315 0.86466694
0.011923495 0.033722606 0.86290842
0.017037669 0.033330891 0.86108541
0.023186535 0.032912388 0.86273336
0.028021954 0.033325136 0.86302507
0.033151213 0.032688182 0.86387801
0.037694361 0.032133352 0.86337417
0.042251199 0.032664992 0.86327225
0.047322184 0.03291367 0.86277229
0.051576149 0.031554978 0.86215734
-0.0009472071 0.035222355 0.86033338
0.0025895888 0.035944439 0.86230481
0.0074202679 0.036300845 0.86316001
0.011097291 0.036057666 0.8611834
0.015092268 0.035208706 0.86000001
0.023123501 0.035225991 0.86042237
0.027961532 0.035256021 0.86115551
0.032768663 0.035245102 0.86088878
0.037559796 0.03522053 0.86028904
0.042370632 0.035218716 0.86024469
-0.010607177 0.040951177 0.86300004
-0.008178276 0.043275952 0.86136949
-0.0073864544 0.046558164 0.86280012
-0.007379605 0.052127197 0.86200005
-0.0073624831 0.059205197 0.86000001
-0.0057585724 0.063204609 0.86000001
-0.0061696898 0.067712113 0.86137503
-0.0041570775 0.067243099 0.86050004
0.064854607 0.068847425 0.86054552
-0.0057719643 0.070567288 0.86200005
-0.0041594924 0.072888792 0.86100006
0.06482365 0.072014488 0.86013466
0.066417411 0.070403554 0.86000001
-0.0025568625 0.076496758 0.86253977
0.0027983517 0.077412017 0.86084539
0.0031890206 0.082373731 0.86329991
0.0054838397 0.081826687 0.86236471
0.062428012 0.084029019 0.86028188
0.0038689044 0.086490914 0.86089295
0.063676775 0.088092096 0.86088824
0.063292213 0.092920594 0.86112428
0.065014474 0.094692759 0.86266667
0.062883466 0.098994516 0.86285824
0.06511496 0.097249925 0.86400002
0.061889138 0.10233212 0.86394471
0.058599688 0.10676662 0.8629725
0.053586129 0.11359721 0.86000019
0.056292821 0.11259836 0.86214674
0.0087119248 0.11807486 0.86349893
0.052577082 0.11746383 0.86097789
0.056054611 0.11694137 0.8634268
0.0087004416 0.12192958 0.86236089
0.042689584 0.12354463 0.86020023
0.047442999 0.12216447 0.86078101
0.052148603 0.12198368 0.862737
0.055474553 0.12061492 0.86443353
0.008695486 0.12827337 0.86186963
0.011899424 0.12936552 0.8611334
0.032769021 0.12972546 0.86086679
0.037806366 0.12839636 0.86134171
0.042685933 0.12714227 0.86196196
0.047352966 0.12688453 0.86331862
0.051412731 0.1253615 0.86390007
0.012328942 0.13206354 0.86306196
0.016709808 0.13359711 0.86075252
0.021507917 0.13439418 0.86000019
0.028206673 0.1335059 0.86163813
0.032844871 0.13243468 0.86286116
0.037693724 0.13170658 0.86335582
0.041740254 0.13097012 0.86379182
0.017545091 0.13797724 0.86239171
0.02314855 0.13781293 0.86136299
0.027559983 0.13783666 0.86294776
0.03182533 0.13560563 0.86432242
0.018645683 0.14246158 0.8636446
0.022665989 0.14295514 0.86338902
0.026992256 0.14205156 0.86441129
0.024995467 0.02832677 0.86973327
0.028212862 0.029108912 0.8689332
0.032587342 0.028632788 0.86677408
0.039399795 0.028992785 0.86546683
0.042645589 0.02900451 0.86581677
0.04757433 0.02905702 0.86738437
0.0063156434 0.03385384 0.86626679
0.024125617 0.030678736 0.86761677
0.02814642 0.031296529 0.86688012
0.032433856 0.031166732 0.86624461
0.043177918 0.031147709 0.86571121
0.047501415 0.030622885 0.86603731
0.050671194 0.030586207 0.86500007
0.0055022929 0.035424333 0.8652668
-0.010637905 0.043483868 0.86550003
-0.011475908 0.045211088 0.86775005
-0.0083808629 0.047684003 0.86575001
-0.0090445895 0.050846312 0.86750007
-0.0058226627 0.077657402 0.86957151
-0.0033835981 0.078296766 0.86768371
0.00066220091 0.079014502 0.86671436
-0.00095722073 0.080879256 0.86942858
0.00066422013 0.08087261 0.86935717
0.0022773824 0.087028153 0.8662383
0.0038895265 0.090171851 0.86548162
0.0055116154 0.092719048 0.86673248
0.0055128634 0.095160581 0.8669287
0.065228008 0.099833757 0.86550003
0.062895671 0.10400536 0.86671674
0.065228008 0.10144375 0.86550003
0.058744155 0.10944312 0.86510009
0.061545819 0.10757384 0.86819541
0.058843754 0.11124063 0.86656684
0.057183579 0.11920879 0.86589998
0.056611974 0.12291106 0.86702001
0.05262845 0.1278661 0.86686671
0.056394897 0.1273465 0.86866665
0.011992696 0.13400401 0.86783338
0.037832845 0.13380329 0.86653352
0.0433506 0.13291104 0.86701334
0.047586463 0.13235161 0.86757416
0.052291714 0.13209893 0.86895233
0.055795424 0.13182551 0.86943328
0.012962299 0.13690665 0.86781341
0.029702576 0.13840966 0.86510015
0.033537053 0.13762249 0.86689454
0.03791609 0.13733 0.86844438
0.042797774 0.13740321 0.86891103
0.047357641 0.13649754 0.86932003
0.013627425 0.14224525 0.86886662
0.015746528 0.14295019 0.86661118
0.024865177 0.1448634 0.8652001
0.029359795 0.1423234 0.86688346
0.033060927 0.14219065 0.86853337
0.037545186 0.14109218 0.86923331
0.041193973 0.14069337 0.86926657
0.013633699 0.14554434 0.86926663
0.016645584 0.14712819 0.86787504
0.022484535 0.14753294 0.86669594
0.028192706 0.14699249 0.86826301
0.032003924 0.14606853 0.86917776
0.018499402 0.15122172 0.86936665
0.022059822 0.15182193 0.86909997
0.026609357 0.15042993 0.86946666
0.021747995 0.15530588 0.86960012
-0.0058337171 0.079425454 0.87122226
-0.0027909626 0.082942747 0.87199008
0.00066473859 0.083363354 0.87003577
-0.0013688501 0.087362826 0.87359816
0.00066630292 0.087616287 0.87208337
0.0025622661 0.092488416 0.87215424
0.0029481861 0.097202525 0.87367404
0.0055514709 0.10069887 0.87299997
0.06321203 0.10857852 0.8710739
0.065612368 0.10689996 0.87060004
0.0591495 0.11343899 0.87106901
0.061672658 0.11116533 0.87229669
0.059145939 0.1174823 0.87101674
0.059144814 0.12315202 0.87100005
0.060987845 0.12278208 0.87413323
0.058797438 0.1285453 0.8718667
0.060984742 0.1268407 0.87408882
0.0087884814 0.1312656 0.87108701
0.010431405 0.1347432 0.87262076
0.053431123 0.13442087 0.87053353
0.057927832 0.13318336 0.87303877
0.010840002 0.13843136 0.87284994
0.048163392 0.13890094 0.87070018
0.052679136 0.13781628 0.87151867
0.056717366 0.13782683 0.87363988
0.011233863 0.14272843 0.8718223
0.038339023 0.14351574 0.8706935
0.043096736 0.14277375 0.87085855
0.047838293 0.14278443 0.87215555
0.052507084 0.14212093 0.87406653
0.012317891 0.14759199 0.87180567
0.033688445 0.14796314 0.87081128
0.038079705 0.1476569 0.87218517
0.042796962 0.14759469 0.8730166
0.046853196 0.14688276 0.87402207
0.06308493 0.14835073 0.87309104
0.013709765 0.15204778 0.87411654
0.01644727 0.15256916 0.87112391
0.027790925 0.15262222 0.87090015
0.033027519 0.15246327 0.87299997
0.037365682 0.15130365 0.87451661
0.017487273 0.15697019 0.87285548
0.021790678 0.1574351 0.87130839
0.027299441 0.15732597 0.87264234
0.030840881 0.15780759 0.87449992
0.021854416 0.16094457 0.87386674
0.025135331 0.16107963 0.87460005
-0.0058697117 0.082362518 0.87659788
-0.0058864052 0.085048668 0.87909091
-0.0031474195 0.088147067 0.87736726
-0.0009673927 0.093182348 0.87866783
0.000670949 0.093943983 0.87816441
0.0014866497 0.098343924 0.87735903
0.0026307094 0.10179802 0.876881
0.0055657793 0.10258653 0.87525004
0.0039457856 0.10862523 0.87800002
0.0055737281 0.10843965 0.87650001
0.0064066257 0.11279374 0.87866277
0.063178517 0.11295916 0.87739819
0.0077716582 0.11659667 0.87858456
0.061906029 0.11726694 0.87789345
0.066284612 0.11781172 0.87951988
0.062069356 0.12167631 0.87788332
0.063031197 0.12768322 0.87989986
0.061255287 0.13230421 0.8779667
0.059529591 0.1369995 0.87666661
0.061397165 0.13588263 0.87999988
0.052921426 0.14442196 0.8755334
0.058183275 0.14229986 0.87792927
0.06299983 0.14316151 0.87946284
0.010482164 0.14844795 0.87686676
0.049163401 0.14783765 0.87646675
0.053319227 0.14751448 0.87824297
0.058065023 0.14721519 0.87924075
0.06213877 0.14797197 0.87888336
0.012683052 0.15360703 0.87840003
0.034944795 0.15467206 0.87516671
0.038267426 0.15327533 0.87648678
0.043465655 0.15232316 0.87770957
0.048191123 0.15200901 0.87858891
0.052637532 0.1516877 0.87988871
0.061346002 0.1504899 0.87926656
0.013771456 0.1576322 0.87805009
0.016183363 0.15883231 0.87566674
0.033065658 0.15804556 0.87581676
0.037909895 0.1569505 0.87766689
0.042760756 0.15702873 0.87924433
0.047150955 0.15599732 0.87957764
0.013795767 0.16036429 0.87959987
0.017592931 0.16254053 0.87809449
0.021899797 0.16372389 0.87568903
0.027033459 0.16328973 0.87663335
0.031541552 0.16283134 0.87777632
0.036258996 0.16161056 0.87874764
0.040058389 0.16042499 0.87993306
0.018173134 0.16693465 0.87973309
0.022165831 0.16805899 0.87812513
0.02689492 0.16757102 0.87877774
0.031515554 0.16659746 0.8796798
0.022005012 0.17187019 0.87986636
0.0261092 0.17024612 0.87993312
-0.0075559625 0.083746336 0.88260001
-0.0064608976 0.087053739 0.88284272
-0.0042571467 0.088532545 0.8812142
-0.0031666083 0.091941841 0.88247341
-0.0015217289 0.096895516 0.88274813
-0.00097326341 0.10032328 0.88400006
0.0014933392 0.10893498 0.88050008
0.0027852508 0.11288642 0.88120598
0.064688765 0.11461835 0.88012505
0.0034214444 0.11726114 0.88358974
0.0061549223 0.11808419 0.88153887
0.06434714 0.11842856 0.8810609
0.066463165 0.11976951 0.88188887
0.007245949 0.12293538 0.88106441
0.063960828 0.12257098 0.88139158
0.066501677 0.12230133 0.88240004
0.063985243 0.12876904 0.88172179
0.065992936 0.12800756 0.88440692
0.063941352 0.1327786 0.88112766
0.066887423 0.13291907 0.8820619
0.063310504 0.13786806 0.88092327
0.062669501 0.14129485 0.88057482
0.066471525 0.14111355 0.88200003
0.061974317 0.14632018 0.88042206
0.054334234 0.15348144 0.88078874
0.057689603 0.15203013 0.88186663
0.061640035 0.15285812 0.88350123
0.012178332 0.15738963 0.88126653
0.044988461 0.15881221 0.88006634
0.048622567 0.15757659 0.88047981
0.052144587 0.15777732 0.88211906
0.055021308 0.15606241 0.88303339
0.013020859 0.1625717 0.88269997
0.015454954 0.16301653 0.88066649
0.038446404 0.16300419 0.8805998
0.041955665 0.1624651 0.88100398
0.046527445 0.16207933 0.88256663
0.050924599 0.16105407 0.88338345
0.013034143 0.16685581 0.88365
0.016120626 0.16753383 0.8811599
0.032993957 0.16830163 0.88117766
0.036428403 0.16729145 0.8828429
0.041095823 0.16621242 0.88460016
0.017133649 0.17241181 0.88263708
0.021463169 0.17300479 0.88008863
0.027212573 0.17265277 0.88147122
0.031410579 0.1719075 0.88285559
0.017347097 0.17719351 0.88294172
0.022042105 0.17707986 0.88135171
0.02604633 0.17715438 0.88336009
0.021299103 0.18102899 0.88463348
-0.0075924634 0.089100115 0.88686365
-0.0063542929 0.092015773 0.88713026
-0.0042793178 0.093113691 0.88580358
-0.0034633297 0.097520694 0.8884207
0.0006784639 0.11399204 0.88800001
-0.00097977184 0.11672054 0.88991159
0.0010909741 0.11766487 0.88767356
0.0031627696 0.1206125 0.88809609
0.0056465492 0.12142018 0.88795149
0.067463681 0.12631534 0.88637412
0.007313563 0.13400801 0.88928568
0.0089575676 0.14370047 0.88784623
0.0089378608 0.14668019 0.88589287
0.010591477 0.15329294 0.88601094
0.058464766 0.15481614 0.88529992
0.061818112 0.15494439 0.88603324
0.065120578 0.15329044 0.8860001
0.0089780409 0.15809932 0.88987541
0.010601504 0.1575623 0.88684988
0.056881487 0.15802072 0.88633889
0.06127619 0.15656808 0.88775998
0.0089598224 0.16190727 0.88806987
0.011015465 0.16252768 0.88694936
0.047734454 0.16470337 0.88533342
0.051903058 0.16345966 0.88602775
0.056986291 0.16189054 0.88797134
0.060396522 0.16132994 0.88943344
0.0089666862 0.16533896 0.88875008
0.011433909 0.16756806 0.88743395
0.03864722 0.16879533 0.88520014
0.041993175 0.16842444 0.88613325
0.046988532 0.16745715 0.88683301
0.052245766 0.16729358 0.88783789
0.056063998 0.16673127 0.88911998
0.013362001 0.17163946 0.88713747
0.033182707 0.17421073 0.88622218
0.037053809 0.1731804 0.88657022
0.042323142 0.17229612 0.88808548
0.046760466 0.1709674 0.88878661
0.05125194 0.17035937 0.88906664
0.013925798 0.17674118 0.88789058
0.015535673 0.17951183 0.8852666
0.028345861 0.17836788 0.88571668
0.031873278 0.17774229 0.88699979
0.037126724 0.17765103 0.88831097
0.041923158 0.17675823 0.88901669
0.017423874 0.18292913 0.88686234
0.022394521 0.1834314 0.88601428
0.026936516 0.18293524 0.88689142
0.032166798 0.18183903 0.88859046
0.036827419 0.18094939 0.8890934
0.040510584 0.18044455 0.88986671
0.013904862 0.18801899 0.88655543
0.017008934 0.18720873 0.88830036
0.021983139 0.18796374 0.88726646
0.027434299 0.18728431 0.88865709
0.030532323 0.18528551 0.88926679
0.013941938 0.19182879 0.88891953
0.017674895 0.1906133 0.8890388
0.022477258 0.19238198 0.88929528
0.027215192 0.19024344 0.8892445
-0.0076252678 0.093627676 0.89069545
-0.0066419877 0.097623579 0.89238131
-0.0043003969 0.099367231 0.89016658
-0.0059827431 0.10139894 0.89347821
-0.0036489156 0.10269316 0.8931551
-0.00098142889 0.11360146 0.89141667
-0.0020951089 0.11799016 0.89326745
-0.00098386442 0.12219605 0.89362884
0.0021098047 0.12343568 0.89314359
0.0056688702 0.12438614 0.89146143
0.0031860126 0.1264849 0.89457715
0.0056740157 0.12698957 0.8922708
0.0040193545 0.13976535 0.89437062
0.0065095699 0.13788505 0.89296693
0.0040196879 0.14144075 0.89444453
0.0073400736 0.14200377 0.89275718
0.0081714662 0.14776327 0.89243686
0.0090169655 0.15379676 0.8937335
0.0077640135 0.1574927 0.89347577
0.062979273 0.15825734 0.89076674
0.065488093 0.15581295 0.89099991
0.0073315669 0.16169967 0.89147502
0.058810368 0.16401418 0.89053351
0.061752915 0.1628142 0.89304471
0.058504071 0.16805243 0.89218354
0.060713392 0.16716662 0.89410019
0.01229902 0.17219377 0.8900001
0.047593124 0.17351517 0.89040846
0.052484863 0.1730357 0.89189541
0.056303762 0.17242773 0.89292032
0.043875776 0.17897683 0.89080024
0.047244463 0.17748968 0.89164841
0.0513543 0.17757061 0.89372694
0.033892442 0.18386532 0.89040023
0.037663348 0.18361798 0.89120853
0.042302348 0.18266909 0.89264309
0.046557214 0.18137068 0.89443362
0.032492477 0.1876862 0.89182526
0.037339274 0.18697499 0.89338356
0.04154329 0.18632033 0.8942337
0.013974566 0.19227645 0.89100003
0.016957525 0.19318089 0.89058417
0.027305527 0.19335502 0.89215016
0.031217687 0.19161354 0.89305574
0.017337009 0.19686572 0.89301711
0.022316003 0.19671261 0.89232236
0.0262393 0.19673371 0.89367801
-0.0085019432 0.099135071 0.89554894
-0.0068340115 0.10332794 0.8957938
-0.0068544387 0.10616686 0.8986572
-0.0033348841 0.10729519 0.89831102
-0.0026614685 0.11240429 0.89732915
-0.0043314532 0.11787304 0.8965953
-0.0018217076 0.12415884 0.89580458
-0.0019924657 0.12720054 0.89727306
0.0019368983 0.1278965 0.8957212
0.0056923865 0.12989768 0.89516014
0.0023609684 0.13202026 0.898265
0.0056993188 0.13255656 0.89625013
0.0033638626 0.13727458 0.89767206
0.0057059433 0.13521443 0.89729172
0.0020808119 0.14202534 0.89814162
0.0065304376 0.14413673 0.89569247
0.0033656391 0.14671515 0.89821512
0.0061195362 0.1472058 0.89662433
0.0073841261 0.15168683 0.89797246
0.0061255763 0.15653968 0.89754128
0.066137314 0.15903154 0.8998335
0.0057006441 0.16010265 0.89645839
0.064380333 0.16050895 0.89873338
0.063128978 0.16679294 0.89880848
0.058601301 0.17331602 0.89579993
0.061659686 0.17176673 0.89815348
0.053582549 0.17829303 0.89568883
0.057794567 0.17733009 0.89683813
0.061606094 0.17616707 0.89901137
0.044122059 0.18498054 0.89579999
0.047881275 0.18289754 0.89579999
0.052764181 0.18229465 0.89663821
0.057152059 0.18185951 0.89801925
0.014038608 0.18816255 0.89508337
0.036602736 0.18997249 0.89576662
0.042878658 0.18793857 0.89599997
0.04750606 0.18681356 0.89659637
0.052413795 0.18696156 0.89830852
0.056003716 0.1856 0.89880013
0.033534326 0.19271898 0.89562225
0.03772356 0.1923538 0.89687622
0.042540155 0.19204578 0.89766312
0.047601674 0.19136679 0.89840031
0.050986249 0.19065823 0.89900029
0.022395564 0.19991322 0.89551115
0.027825618 0.19825999 0.89556682
0.032472804 0.19691648 0.89703339
0.037345797 0.19704182 0.89855862
0.041797221 0.19582748 0.89970016
0.017907958 0.2018584 0.8978067
0.022439547 0.20280939 0.89726686
0.027463239 0.20199656 0.89736205
0.032205522 0.201345 0.89892691
0.035927042 0.20086327 0.89976698
0.019129984 0.20570898 0.89900017
0.022476362 0.20648187 0.89872235
0.025839437 0.2057319 0.89910024
-0.0060293884 0.10888954 0.90044445
-0.00099087902 0.10883579 0.9000001
0.0023731545 0.10915826 0.90266675
-0.0060398052 0.11243266 0.90200001
-0.0039351713 0.11281908 0.90171731
-0.0060282391 0.11556749 0.90027279
-0.0043505025 0.12900299 0.90053838
-0.0021173898 0.13318817 0.90241116
-0.00099494716 0.13786054 0.90369505
0.0011078961 0.13700511 0.90083259
-0.00099463947 0.1420199 0.90341568
0.00068960612 0.14440675 0.90258336
0.0012499753 0.14775628 0.90254086
0.0040508858 0.15176186 0.90138638
0.0057252869 0.15325841 0.90033352
0.064572535 0.16350371 0.90141678
0.066493779 0.16241324 0.90468329
0.064683571 0.1688236 0.90296674
0.064238027 0.17337343 0.90260839
0.066512153 0.17003296 0.90493351
0.06325648 0.17816791 0.90180671
0.066411883 0.17649919 0.90356904
0.05951146 0.18357116 0.90115023
0.061956055 0.18266575 0.90247345
0.014181073 0.18502624 0.9041667
0.054502741 0.18955356 0.90170008
0.057909716 0.18801592 0.90236676
0.06224383 0.18587717 0.90421665
0.047754526 0.19449443 0.90127802
0.052845266 0.19271316 0.90209454
0.056326717 0.19255671 0.90398335
0.039297756 0.19926323 0.90010017
0.042939361 0.19827007 0.90101928
0.047625013 0.19797419 0.90280837
0.052128594 0.19598001 0.90426672
0.029225577 0.20428638 0.90010017
0.03303789 0.20408513 0.90105855
0.037883677 0.20311399 0.90139616
0.04279967 0.20245403 0.90312785
0.047091436 0.2019645 0.90470004
0.018063402 0.20741749 0.90157795
0.022536071 0.20954458 0.9011113
0.027587509 0.20793772 0.90140963
0.032354079 0.20731184 0.90306664
0.037775476 0.20723771 0.90384161
0.041134279 0.20507319 0.9035666
0.019240636 0.21026286 0.90419996
0.022571543 0.21239424 0.90253335
0.027647218 0.21202566 0.90335006
0.03106449 0.21039464 0.90476674
0.023467638 0.21541196 0.9046334
0.026004208 0.21545959 0.90483344
-0.00099748489 0.10703335 0.90600002
-0.0018409465 0.13305579 0.90531802
-0.0026868701 0.13735288 0.90589356
-0.0026873508 0.14159067 0.90605563
-0.0018450739 0.14599219 0.90721673
0.0023850882 0.1527403 0.90720606
0.0040769675 0.15695541 0.90719014
0.0040765223 0.16031419 0.9070909
0.068425983 0.16384092 0.90793359
0.067079879 0.16660398 0.90689188
0.066525906 0.17259365 0.90512049
0.012540855 0.17895585 0.90750003
0.068297014 0.17870386 0.9062224
0.012546787 0.18326348 0.9079293
0.064904451 0.18119824 0.90605009
0.06700442 0.18238968 0.90778351
0.012561845 0.18770933 0.90901899
0.062640391 0.1881877 0.90588903
0.066788733 0.18764187 0.90868539
0.012555302 0.19268259 0.90854549
0.059146125 0.19244751 0.90584677
0.062516116 0.19260283 0.90816689
0.066033602 0.19129133 0.90996659
0.053648259 0.19780327 0.90619469
0.057748836 0.19726323 0.90740025
0.061145071 0.1972401 0.90877795
0.015896723 0.20390409 0.90583998
0.048675351 0.20290975 0.90591347
0.052978337 0.2024886 0.90798771
0.057457604 0.20113027 0.90853357
0.034455787 0.20881158 0.90520006
0.037836023 0.20883462 0.90530002
0.043149471 0.20753641 0.90606266
0.048093647 0.20769586 0.90767807
0.051564742 0.20635173 0.90920001
0.018291347 0.21302111 0.90734684
0.029409563 0.21399704 0.90576673
0.033022679 0.21267016 0.90639192
0.037928447 0.21271825 0.90749276
0.042840261 0.21273693 0.9084751
0.046440259 0.21125504 0.90846694
0.019337809 0.21808755 0.90876681
0.022415891 0.21789925 0.9059763
0.027944218 0.21767199 0.90615857
0.032322738 0.21746112 0.90850574
0.00069820153 0.15130638 0.91383332
0.0023970979 0.15775089 0.91177398
0.0023987438 0.1612525 0.91240007
0.068662211 0.16864322 0.91106796
0.068674833 0.17121705 0.91123533
0.0092083206 0.17998129 0.9127
0.010906134 0.17905909 0.91233337
0.0086480947 0.18297516 0.91351861
0.010896628 0.18314271 0.91153806
0.068584226 0.184534 0.91003335
0.070584297 0.18362895 0.91395468
0.0085356729 0.18697056 0.91366559
0.011459358 0.18761356 0.91128784
0.070462182 0.18755174 0.91237336
0.011334717 0.19186154 0.91268188
0.067366906 0.19273368 0.91078335
0.070332356 0.19144382 0.91069227
0.012610579 0.1952284 0.91254544
0.062242746 0.1985725 0.91036665
0.06595856 0.19585903 0.91284448
0.056726038 0.20379901 0.91038889
0.061982244 0.20235027 0.91276675
0.052787375 0.20784216 0.91078883
0.057103928 0.20743525 0.91303355
0.061210532 0.20573339 0.91396683
0.016018862 0.21396071 0.91280019
0.048273463 0.21271126 0.91108334
0.052282996 0.21261846 0.91328108
0.055286519 0.21184634 0.91466707
0.00070200569 0.15383996 0.91881257
0.00070203544 0.15726574 0.91885167
0.00070160319 0.16400088 0.91828573
0.0079716807 0.17879942 0.91752511
0.010938012 0.17703068 0.91500008
0.0065159402 0.18223573 0.91720885
0.0066772108 0.18655901 0.91582227
0.009249283 0.19272101 0.91676015
0.010958241 0.19611557 0.91669238
0.067403004 0.19789934 0.91705555
0.063911185 0.20449454 0.91603351
0.061888825 0.20833051 0.91641998
0.016103975 0.21168037 0.9176501
-0.0010166639 0.15890589 0.92342001
0.0007036007 0.1618982 0.92090011
0.0075789522 0.16972767 0.92155564
0.0079248101 0.1769754 0.9218086
0.0075801401 0.1920433 0.92170012
0.066639036 0.2024523 0.92225558
0.064250745 0.2090071 0.92090005
0.066183135 0.20625073 0.92390001
0.016148727 0.21227174 0.92019999
-0.0010185355 0.16264012 0.92512
0.002434337 0.16824515 0.92597789
0.0033078296 0.17100257 0.92847776
0.0041698557 0.17865372 0.92785913
0.0067574577 0.17668466 0.92658091
0.004173859 0.18228263 0.92875004
0.068032399 0.20405108 0.92561662
0.070051335 0.20058468 0.92950016
0.0033142245 0.17311627 0.93055558
0.0066129789 0.17349602 0.93073428
0.0036106936 0.17579083 0.93250006
0.0059247492 0.17679545 0.93170011
0.070197038 0.20360029 0.93143344
