# .PCD v0.7 - Point Cloud Data file format
VERSION 0.7
FIELDS x y z
SIZE 4 4 4
TYPE F F F
COUNT 1 1 1
WIDTH 1293
HEIGHT 1
VIEWPOINT 0 0 0 1 0 0 0
POINTS 1293
DATA ascii
-0.028889643 0.00026270002 0.049570501
-0.028451953 0.0017112858 0.049422383
0.059557457 0.0036230455 0.049677253
0.060314685 0.0042118318 0.04918611
-0.028527312 0.0059611551 0.049689829
0.058005914 0.0076818075 0.049824536
-0.028282892 0.0089794537 0.049241066
0.056741558 0.0092155281 0.049122274
-0.028549893 0.010213833 0.049907386
0.030311048 0.019792851 0.049588382
-0.02879546 0.022996411 0.049152851
0.024745002 0.025614176 0.049189985
-0.024528708 0.026332758 0.049977899
0.012985662 0.026876181 0.049658895
0.015886238 0.026439067 0.049418509
-0.012998438 0.027012732 0.049209833
-0.0097460719 0.027468538 0.049588203
-0.0049294871 0.027937654 0.049694598
0.0086806044 0.027616233 0.049591362
-0.002535763 0.02824872 0.049033344
0.0004387442 0.028259251 0.049939096
0.0017230838 0.028022749 0.049015164
-0.0016373424 -0.030084826 0.050819814
0.0012561148 -0.029682403 0.050339758
0.0056116516 -0.029082749 0.050154269
0.01015764 -0.029264644 0.050466716
-0.010408763 -0.028306298 0.050133407
-0.016617803 -0.024589162 0.050211489
0.031732023 -0.02490681 0.050424755
-0.020147912 -0.021964889 0.050086021
0.041846301 -0.020763662 0.050364733
-0.024926629 -0.016534669 0.050440252
-0.027340829 -0.012616983 0.050084889
-0.028406074 -0.0099835107 0.050798476
0.059841719 -0.0094259921 0.050379694
-0.029165355 -0.0012665335 0.050478995
0.059530277 -0.00019656021 0.050165832
0.05973734 0.00017274357 0.050248384
0.044048037 0.013858191 0.050857067
-0.028413126 0.01445651 0.050421476
0.031496339 0.016663315 0.050427377
0.036802933 0.016463144 0.050481915
0.032899704 0.018514421 0.050414622
-0.028695896 0.021184469 0.050396264
0.029210836 0.021316901 0.050815403
0.025648542 0.022392511 0.050946891
0.026576782 0.024123928 0.050236344
0.023476476 0.025320813 0.050420463
0.02406667 0.026256884 0.050176442
-0.016778197 0.027196016 0.050109863
-0.013081824 0.027519319 0.050060213
0.0057231854 0.027705841 0.050542414
0.010179378 0.027323944 0.050835907
-0.0018446511 0.028567109 0.050927401
0.016233072 -0.030668838 0.051049173
0.012490272 -0.029944744 0.051229537
0.014162012 -0.029974513 0.051273644
-0.013485489 -0.027143802 0.051166952
0.028580649 -0.025861342 0.051183879
0.039164647 -0.022235097 0.051142037
-0.022815732 -0.019831665 0.051081598
0.048687715 -0.017857337 0.051626742
0.052349068 -0.017374873 0.051121294
0.05231493 -0.01699244 0.051449299
0.057528634 -0.012824264 0.05129683
0.059623983 -0.011504808 0.051394224
0.060298361 -0.0092338864 0.051772475
-0.029436722 0.001892467 0.051207185
0.058875561 0.0047405809 0.051503479
0.040779203 0.014532682 0.051029503
-0.028127244 0.017502403 0.051581383
0.026137311 0.022953909 0.051787138
-0.026787704 0.02488712 0.051120043
-0.023645367 0.026752379 0.051634967
0.018232079 0.026674693 0.051583111
-0.015401144 0.027665798 0.051506996
-0.0094161164 0.027828643 0.051079273
0.014434893 0.02739164 0.051096737
-0.0099998415 -0.029153347 0.052491844
-0.0041780872 -0.029059416 0.052656591
0.020256262 -0.029277937 0.052960575
0.005483211 -0.028911147 0.052657664
-0.01255913 -0.027948812 0.052495599
-0.011486788 -0.027948864 0.052791893
0.024871221 -0.027588718 0.052930832
0.028831998 -0.026165102 0.052928567
0.034473725 -0.024027895 0.052978575
0.035362024 -0.024259027 0.052176237
0.043973666 -0.021597315 0.052600026
0.047878005 -0.020256141 0.052427948
-0.023320083 -0.01751606 0.052470148
0.050410915 -0.017847484 0.05231303
-0.028081298 -0.011436463 0.052430749
-0.028243201 -0.0065503637 0.052497566
0.060019203 -0.0045607295 0.052384377
-0.027991841 -0.0026738115 0.052960694
0.059144482 0.0017241929 0.05253154
0.059379205 0.0033748697 0.052615464
0.058922973 0.0063934247 0.052842617
0.056998834 0.0086894473 0.052002132
-0.028741216 0.014173666 0.052443624
0.03563308 0.015963299 0.052125573
0.0390759 0.015259714 0.052542269
-0.028706651 0.018010169 0.052687764
0.02949108 0.019868795 0.052405059
0.024306044 0.024918621 0.052578747
-0.02468539 0.025720732 0.052952945
-0.022427343 0.026748493 0.052381933
-0.019087467 0.02679925 0.052650094
0.014598069 0.026349522 0.05256778
0.02125073 0.026891617 0.052398443
-0.018743362 0.027918648 0.052029788
-0.011158165 0.027804237 0.052390754
-0.0069089192 0.02787648 0.052447259
0.014521733 0.027155947 0.052610815
0.018010173 0.027081743 0.052178025
0.015722351 -0.030341774 0.053907037
-3.7336722e-06 -0.029318418 0.053796947
0.00539015 -0.029107476 0.053757489
0.011016298 -0.029859586 0.05310601
0.016310252 -0.029984616 0.053118885
-0.0074323742 -0.028595293 0.053055227
-0.0054627913 -0.028631637 0.053420067
-0.0019294886 -0.028510043 0.053141832
0.0029645753 -0.028753025 0.053457558
0.020697549 -0.028921768 0.053846419
0.02451393 -0.027356245 0.053858757
0.02536582 -0.027106829 0.053584099
0.031925526 -0.025376391 0.053397715
-0.01648283 -0.024573183 0.053274333
-0.017778134 -0.023541771 0.053012431
0.037290707 -0.022397961 0.053016543
0.039947726 -0.021647315 0.053882778
-0.020549461 -0.020650795 0.053609014
0.043378454 -0.02025893 0.053066432
-0.021901773 -0.01968026 0.053448737
0.039228864 -0.019858049 0.05327785
0.044576678 -0.019782107 0.053274691
0.046130486 -0.019141948 0.053034842
-0.024826903 -0.016605135 0.0535447
0.051822729 -0.015503747 0.053980887
-0.025475403 -0.014964445 0.053055227
0.059050646 -0.011341001 0.05376792
-0.027409058 -0.0092747547 0.053483546
0.060146518 -0.0084293066 0.053268731
0.059262265 -0.001660781 0.053341568
-0.029091002 -8.871872e-05 0.053566396
0.059649773 -0.00070894038 0.053068876
-0.028081911 0.0015689195 0.053241968
0.060299594 0.0029983092 0.053519666
-0.028401995 0.0042550485 0.053340852
-0.028330462 0.005806468 0.053672493
-0.02817248 0.0072286371 0.053651989
0.057632394 0.0091695972 0.053478122
-0.027613536 0.011457098 0.053253651
0.051990394 0.01309229 0.053394556
0.032349743 0.017732525 0.053873599
-0.027949063 0.020271966 0.053422749
0.028898584 0.020673262 0.053813756
-0.028051795 0.023011239 0.05336988
-0.026821597 0.023409907 0.053102732
0.026035594 0.023771508 0.053778291
-0.023845997 0.0258231 0.053824723
0.010486591 0.026646901 0.053452373
0.021999121 0.026813714 0.053273499
0.02279409 0.026096784 0.053601742
-0.0092145093 0.027274916 0.053345025
-0.0028842231 0.027666194 0.053090096
0.0015486955 0.027784927 0.053741872
0.0041953446 0.027828498 0.053435862
0.007867638 0.027500793 0.053544402
-0.00070788153 0.028102186 0.053257465
-0.010314537 -0.02820049 0.054383278
0.027722558 -0.025846418 0.054933131
-0.020007584 -0.022079032 0.054303229
0.037385799 -0.021956213 0.054498732
0.051621862 -0.016980354 0.054804921
0.055217654 -0.01467816 0.054192603
-0.026893243 -0.012718482 0.054606974
-0.02822512 -0.0052383691 0.054225385
0.059467822 -0.0048011541 0.054260075
0.059088144 -0.0011971723 0.054572642
-0.028175917 0.0098382505 0.054159462
0.05630105 0.012307613 0.054570854
0.042517677 0.014526086 0.05434078
0.043695889 0.014828955 0.054963171
0.032663628 0.018228615 0.05446279
0.026902998 0.021636982 0.054385364
-0.027968589 0.022421768 0.054441333
-0.026892804 0.024917796 0.054294348
-0.024450924 0.026391724 0.054311693
-0.021030441 0.027270861 0.054519951
-0.01250183 0.027014233 0.05455488
-0.0054274183 0.027645802 0.054627001
0.010009603 0.027293138 0.054974258
0.016396331 -0.031300768 0.055299044
0.0012617651 -0.029186904 0.055119336
0.0091569172 -0.0296112 0.055145204
-0.013096562 -0.027658552 0.055812001
-0.016319187 -0.026186876 0.055744588
0.030385852 -0.024886044 0.055460632
0.040388364 -0.021497156 0.055055082
0.048348103 -0.019065302 0.0554564
0.049584642 -0.019363003 0.055623353
0.046140127 -0.018950274 0.055788815
0.052960213 -0.016889449 0.055272639
-0.027709059 -0.014074375 0.055287898
0.056572743 -0.014020884 0.05551821
0.059948571 -0.0072189746 0.055703819
0.059469704 -0.0040166229 0.055005968
-0.028720845 -0.00088622142 0.055368543
0.053759702 0.011910879 0.055559397
-0.027413875 0.013530539 0.055613935
-0.028021472 0.014257816 0.055074275
0.034527082 0.015309096 0.055446744
0.039629214 0.015622485 0.055062115
0.036415156 0.017018329 0.055059493
-0.028598981 0.018824557 0.055595815
0.024268452 0.025166132 0.055234134
0.014063646 0.026975924 0.055645049
0.016400453 0.026657898 0.055689871
-0.0086506754 0.027634507 0.055055678
0.0057484107 0.027671508 0.055131495
-0.01125353 0.028300932 0.055974126
-0.00082939863 0.028153231 0.055108488
0.007462854 -0.030237028 0.05635345
0.011825081 -0.030888217 0.056074679
-0.0092360955 -0.029496301 0.056284368
-0.0050036907 -0.029656583 0.056304753
-0.0011641298 -0.029523356 0.056866825
0.001527505 -0.029548829 0.056496501
0.009743439 -0.029877571 0.056003273
-0.013326973 -0.028297834 0.056220591
0.027795244 -0.026801135 0.056283772
0.031078376 -0.025336724 0.056945682
0.034679964 -0.023637159 0.056591213
-0.019332994 -0.02298326 0.056081593
-0.020288996 -0.021407504 0.056736767
-0.022546604 -0.020484798 0.056744099
-0.024266794 -0.01732851 0.056057632
-0.026685301 -0.013848064 0.056110859
0.056652125 -0.013920358 0.056923568
-0.02912266 -0.010890828 0.056242824
-0.029222898 -0.00728777 0.056193173
-0.028669493 -0.0027946944 0.056712568
-0.029399876 -0.0008253213 0.056651831
0.058967978 -0.0007024426 0.056990445
0.05907993 0.000635501 0.056202948
-0.028424252 0.0049401261 0.056062877
0.059377845 0.0050380137 0.056932867
0.058346119 0.0077154147 0.056540191
-0.028631784 0.0093069123 0.05621618
0.0569943 0.0091994377 0.056116879
-0.028093608 0.010104661 0.05677247
0.05757875 0.011069195 0.056056619
-0.029128289 0.012653516 0.056313455
0.037146311 0.015736958 0.056519449
-0.017195618 0.026740232 0.056816041
-0.014334185 0.026403729 0.05632782
0.022145243 0.026266733 0.05628556
-0.014336086 0.027936637 0.056527674
0.012943716 0.027870359 0.056477666
0.0172401 0.027658023 0.056737483
-0.0070103994 0.028799057 0.056119204
-0.0020782547 0.028188024 0.056294024
0.0014498801 0.028275542 0.056539893
0.00949171 0.028344104 0.056786895
-0.0089774188 -0.029160056 0.057026982
-0.00595839 -0.029551558 0.057115734
0.0024438996 -0.029666662 0.057145596
0.0064948341 -0.029741948 0.05747658
0.014472799 -0.029971199 0.057349861
0.016441157 -0.029888425 0.057870805
0.020770388 -0.02884008 0.057314038
0.02303654 -0.027110647 0.057170749
0.024992157 -0.027057353 0.057403862
-0.016889844 -0.025954681 0.057287395
0.028611481 -0.025265923 0.057220638
-0.019534998 -0.023126666 0.057431042
0.033596162 -0.02383209 0.057809711
0.036565512 -0.022966528 0.057771444
0.03903643 -0.021553013 0.057335079
0.043416448 -0.021182189 0.057069004
0.042102516 -0.020740606 0.057713568
0.045858726 -0.020719014 0.057065725
0.046644572 -0.020446075 0.057150483
-0.025496662 -0.017498035 0.057693541
0.051713295 -0.015329314 0.057962
-0.026224945 -0.014202431 0.057158947
0.058516964 -0.012090604 0.057690084
0.059603848 -0.011196423 0.057248175
-0.028285109 -0.010472948 0.057445824
0.060881242 -0.0084536532 0.057492316
-0.028194962 -0.007068221 0.057118952
0.060646433 -0.004384649 0.057076097
0.060010724 -2.3720559e-05 0.057061434
-0.028812289 0.0014352944 0.057042837
0.059972595 0.0026722495 0.057188272
0.059655957 0.0038165927 0.057754457
-0.028939707 0.0056645968 0.057358742
-0.028502993 0.010623457 0.057179093
-0.028213859 0.016332017 0.057039261
0.037881427 0.016689159 0.057951212
0.034602828 0.017268376 0.057813823
-0.027862206 0.018463369 0.057789624
0.030599114 0.018682588 0.057774484
0.028457243 0.020627011 0.057516992
-0.026907796 0.021872386 0.057727754
0.02528422 0.023714487 0.057911575
-0.027514461 0.024949957 0.05796665
0.025222735 0.024096798 0.057465792
0.0099529503 0.026980188 0.057005942
0.021726437 0.026562518 0.057097077
0.022108678 0.026013367 0.057619512
-0.024896044 0.02726008 0.057813525
-0.019564345 0.027943779 0.057607114
-0.010302745 0.027904036 0.057054758
-0.0007501971 0.027903052 0.057838976
0.0027842168 0.027706394 0.05735743
0.012674846 -0.031124864 0.058557928
0.011425774 -0.030011207 0.05872643
0.011937191 -0.029888764 0.058281481
0.016493894 -0.029414717 0.058759868
0.0011922065 -0.028631538 0.058765113
0.020580346 -0.028285747 0.05875355
-0.014101557 -0.026535325 0.058960974
0.026778458 -0.026595736 0.058838069
0.035780907 -0.022458628 0.058112442
-0.020948678 -0.021079823 0.058339059
0.03759956 -0.021698119 0.058352172
-0.022755425 -0.018997297 0.058859944
0.049568806 -0.017272135 0.05821383
-0.027011774 -0.011076233 0.058852494
0.059409894 -0.0053507909 0.058601558
-0.028144889 -0.004032677 0.058192074
-0.029129487 0.013888737 0.058606207
0.045100518 0.013752712 0.058625221
0.05469811 0.013030832 0.058565974
-0.027720809 0.01410386 0.058683932
0.039731409 0.014858549 0.058565676
0.041329786 0.015328436 0.058399498
-0.028702587 0.017985009 0.058447897
0.031861927 0.018295087 0.058862686
0.028638525 0.020417014 0.05838114
-0.027889179 0.022014724 0.058606565
0.025668966 0.023899125 0.058512449
-0.024078092 0.025762673 0.058606446
-0.023671886 0.025985301 0.058003664
-0.019686861 0.026634594 0.058838606
-0.010933914 0.026881272 0.058672547
0.0098572206 0.026859336 0.058718741
0.018089226 0.026726289 0.058703899
-0.0043267338 0.027590204 0.058487356
0.0063405754 0.027482834 0.058100522
-0.00021001697 -0.030231785 0.059837759
-0.010036274 -0.029839281 0.05931282
-0.013309171 -0.028569592 0.059550226
-0.01207957 -0.02880856 0.059969187
0.048688971 -0.019212397 0.059360325
0.051485099 -0.017313281 0.059267014
-0.027990047 -0.00095796399 0.059510171
0.060260121 0.0029782988 0.059854329
0.056427848 0.0098548597 0.059378564
-0.028283283 0.011812315 0.059730828
0.042726491 0.014601754 0.059139192
-0.025106886 0.024590608 0.059079349
0.021527469 0.026364233 0.059741914
-0.00047464669 0.027770631 0.059339404
0.01158531 0.027286489 0.059776366
0.017660426 0.027285675 0.059382737
-0.014762866 0.02818168 0.059540212
0.014614061 0.028050436 0.059633911
-0.011350342 0.029003976 0.059733391
-0.003928992 -0.030560112 0.0602265
-0.0016549039 -0.030211534 0.060949624
0.0029037851 -0.030615756 0.060599566
0.0057110712 -0.030500753 0.060361505
0.0059213657 -0.029492136 0.060801089
0.022013834 -0.029256649 0.060730755
0.023963021 -0.028491242 0.060670316
-0.021443157 -0.021204814 0.060102522
0.044952229 -0.021233693 0.060521662
0.045707047 -0.020500913 0.060838878
-0.02450574 -0.018881962 0.060346663
0.044742413 -0.018054701 0.060552537
0.048076123 -0.018938527 0.060296476
-0.026315119 -0.016492009 0.060733676
0.053307828 -0.016303075 0.060702562
-0.0293801 -0.012065566 0.060394704
0.061066952 -0.0083238175 0.060711384
-0.029981937 -0.0064392118 0.060874462
0.059802726 -0.0055606328 0.06039083
0.060928959 -0.0042598736 0.060391486
-0.030169232 -0.0028949885 0.060182571
0.059050076 -0.0013343804 0.060068071
0.060628399 -0.00052059494 0.060432255
-0.030059699 0.000337773 0.060334742
0.059285339 0.00031837448 0.060367942
-0.029575519 0.0013018369 0.060855031
-0.02917661 0.0055369586 0.060680032
-0.029310921 0.0074533229 0.060925782
0.056339879 0.011323795 0.060652614
0.029477043 0.02134919 0.060715377
0.023786023 0.024515003 0.060318589
0.0043295473 0.02794677 0.060248137
0.0074835969 0.027909324 0.060373962
-0.025309164 0.02809247 0.060743749
-0.022660716 0.028994506 0.060703456
-0.0093394797 0.028415289 0.060789287
0.00087732356 0.028295241 0.060545087
-0.0069467998 0.029342294 0.060696006
-0.0031263456 0.029174004 0.060716808
0.014813863 -0.030044707 0.061204493
-0.0099463621 -0.0291574 0.061309159
-0.0055109081 -0.029937439 0.061388791
-0.0014759824 -0.029284779 0.061611891
0.01050493 -0.029846147 0.061906397
-0.013967706 -0.02808281 0.061510086
0.026792387 -0.027105028 0.061616242
-0.017599182 -0.025647754 0.061548948
0.0305325 -0.024876783 0.061749816
-0.020051733 -0.022980204 0.061653674
0.041412551 -0.021882575 0.061147809
0.042412624 -0.021335386 0.061365545
0.054384112 -0.014069551 0.061120927
0.05613941 -0.014962982 0.061346233
-0.027162202 -0.013733581 0.061654508
0.057470031 -0.012031966 0.061907411
-0.02867922 -0.0089586265 0.061245799
-0.028692348 -0.0059198947 0.061335742
0.059414145 -0.0034977403 0.061511934
-0.029907931 0.0044498867 0.061001539
0.058929674 0.0056372471 0.061989009
0.05828435 0.0085845441 0.061461985
-0.028919987 0.0097302692 0.061666787
-0.028115179 0.013999568 0.061552465
0.036477964 0.016145078 0.061187327
0.033145115 0.017881494 0.061111867
0.03298609 0.01860996 0.061910152
0.028149316 0.022326687 0.061569154
-0.028199723 0.023826838 0.061991751
-0.027318429 0.023265377 0.061317444
0.025397219 0.024675582 0.061436713
-0.025825201 0.025722006 0.06157428
-0.016791472 0.026593599 0.061114967
-0.013396124 0.026851416 0.061229229
0.0053127897 0.027985096 0.061182201
0.014497745 0.027285725 0.061377048
-0.0060252002 0.028201189 0.06134975
-0.0019502789 0.028287895 0.061808407
0.0012876382 0.028715424 0.061083853
-0.0086636748 -0.03006459 0.062818468
-0.0045342548 -0.030357681 0.062360406
0.008303375 -0.030494673 0.062295258
0.012791768 -0.030453138 0.062047422
0.0021560816 -0.029622838 0.062524021
0.011267202 -0.029866867 0.062674105
-0.013186009 -0.028561935 0.062587082
-0.013596578 -0.027689645 0.062254906
0.024146605 -0.027946319 0.062579632
-0.016097987 -0.026913691 0.062250793
0.028848402 -0.025970686 0.062139869
0.03100189 -0.024975793 0.062800825
0.032024566 -0.024165034 0.062463403
0.035080291 -0.022978537 0.062204659
0.038586993 -0.022209741 0.062287152
-0.022742318 -0.020992383 0.062883198
-0.023316318 -0.019840978 0.06238395
-0.024957955 -0.018382575 0.062648952
0.05073766 -0.017698828 0.062153041
-0.027351666 -0.015117387 0.062783659
-0.028655775 -0.010843786 0.062909931
0.060009927 -0.010425132 0.0627262
-0.030185733 -0.0084085623 0.062885344
-0.028435813 -0.002795374 0.06220156
0.059719771 0.0019969083 0.062677681
0.057003144 0.0097274547 0.062065899
-0.02872055 0.012537437 0.062981129
-0.029140631 0.013638215 0.062815964
-0.028895209 0.013946711 0.062098682
0.040766582 0.015776906 0.062656522
-0.028098421 0.016358223 0.062761605
0.036910467 0.017312586 0.062464416
-0.027774509 0.019679714 0.062188089
-0.02219242 0.025794506 0.062253833
0.019683607 0.026822742 0.062621176
0.022403276 0.026160719 0.062156081
0.013926755 0.027685458 0.062783837
0.016309749 0.02713038 0.062532961
-0.015536768 0.02877737 0.062370121
0.0097899977 0.028683349 0.062876344
0.012771213 0.028049313 0.062760115
-0.012847017 0.029138954 0.062883258
-0.00091315329 -0.030509183 0.063973546
0.001905567 -0.03095242 0.063728392
0.0033512542 -0.030629192 0.063423216
0.01561545 -0.029274052 0.0632658
-0.012665465 -0.028850026 0.063150048
-0.016288672 -0.026379433 0.063702047
0.028893156 -0.025517657 0.063701034
-0.019497862 -0.024116684 0.063057363
0.035016824 -0.022307407 0.063031971
0.037230652 -0.021348624 0.063010514
0.047220707 -0.019535644 0.063796997
-0.025363792 -0.017920924 0.063289464
0.049994994 -0.01775247 0.063459158
0.058370486 -0.013204777 0.06388849
-0.029474974 -0.012146901 0.063227773
0.060315389 -0.0066494085 0.063893974
-0.030251894 -0.0030021938 0.063346207
0.059236173 -0.00095171295 0.06361407
0.059913062 0.0032250155 0.063494742
0.060569286 0.0040030787 0.063702524
-0.029354265 0.0058501014 0.063414633
-0.029458854 0.0094011212 0.063153744
0.03890213 0.015451469 0.063133299
-0.028734896 0.017608359 0.063217819
-0.027986001 0.022023812 0.063585043
0.024908619 0.023881128 0.063325107
-0.02451616 0.024640465 0.063753963
-0.019105803 0.02649964 0.06368041
0.021254541 0.026083006 0.063281834
0.016886901 0.027037991 0.063552797
-0.010826503 0.028598249 0.063203275
0.0096716378 0.028285759 0.0631423
-0.0086355573 0.029243333 0.063176692
-0.0023183667 0.029400025 0.063616931
-0.0093855299 -0.029660396 0.064484775
-0.0089113237 -0.029701199 0.064420462
-0.0053929342 -0.029894676 0.06443584
0.006863012 -0.029775027 0.06412822
0.012263897 -0.029830903 0.064643919
0.025340056 -0.027858257 0.064645469
-0.01893612 -0.02426134 0.064350486
0.044692643 -0.020940334 0.06487602
0.047340464 -0.01833738 0.064482331
0.050710149 -0.016439645 0.064172447
-0.026840946 -0.01523478 0.064434767
0.060915828 -0.0081677185 0.064594626
-0.028878594 -0.007635152 0.064099252
0.059877589 -0.0042033345 0.064512014
0.061195798 -0.0040977132 0.064683676
0.059525218 -0.00048583746 0.064384818
0.060945868 -4.6920031e-05 0.064255178
-0.030195318 0.0015790286 0.064478636
-0.02974483 0.0011844567 0.064100325
-0.029621806 0.0054017003 0.064182997
0.05919344 0.0074314461 0.064219296
0.050348051 0.012872037 0.064056575
0.041671485 0.015332971 0.064545274
0.027021989 0.024266243 0.06459558
-0.027733274 0.026360581 0.064079106
-0.015268246 0.026871933 0.064476907
0.0096017113 0.027925882 0.064867735
-0.0076164068 0.028837083 0.064057052
-0.00056844112 0.028811039 0.064528227
0.006820512 0.028174803 0.064869881
0.01392111 -0.031127358 0.065983653
0.021445857 -0.028460732 0.065626621
0.049887892 -0.017463375 0.065901816
0.052278787 -0.0167548 0.065333903
0.054803949 -0.015292028 0.065646172
0.052026682 -0.014999758 0.065373778
0.05983717 -0.0108397 0.06567806
-0.028656112 -0.0087986821 0.065805256
-0.0291765 -0.0047730771 0.065526366
-0.030573247 -0.00165674 0.065156102
-0.029199045 0.0095452284 0.065337479
0.057163544 0.009535674 0.065173566
0.044218358 0.014727641 0.065624475
0.034188304 0.015591587 0.065397561
0.031931017 0.018894408 0.0657987
-0.028163234 0.021949779 0.065035522
0.028338093 0.021735471 0.065429986
0.029742908 0.021601683 0.065129519
0.025311537 0.025632661 0.065777838
-0.0268263 0.026548732 0.065346003
-0.013070307 0.027595934 0.06566596
0.014153101 0.027968494 0.065634191
0.022402739 0.027151911 0.065226555
-0.02552891 0.028309962 0.065103054
-0.0013358733 0.028681522 0.065829277
0.0035561193 0.028243521 0.065101326
0.0056896703 0.028544936 0.065771401
0.010084971 0.028413069 0.065219641
-0.0046972688 0.02901059 0.065358162
-0.0021579796 -0.030293459 0.066664398
0.0014342121 -0.030428719 0.066384822
0.0093611069 -0.030304085 0.066766679
-0.011395806 -0.029176582 0.066881895
-0.014253285 -0.027581029 0.066139579
0.027783547 -0.0263579 0.066176355
-0.021529887 -0.023132693 0.066356182
0.034044374 -0.023300169 0.066279173
-0.02339245 -0.020028647 0.066437542
0.041004375 -0.020855585 0.066493809
-0.02427903 -0.019515796 0.066859782
0.053245474 -0.016227465 0.066775322
-0.02919163 -0.013150299 0.066439748
0.055428948 -0.012717327 0.066931903
-0.029891713 -0.0087382346 0.066852927
0.059186231 -0.0040231477 0.066293716
-0.028776234 -0.0015849005 0.066245735
0.05897107 0.0010706708 0.066667259
-0.028624721 0.0020460188 0.066367269
-0.029454561 0.0032289284 0.066568434
-0.028896447 0.011553331 0.066524506
0.049419984 0.013846468 0.066614926
-0.028401855 0.01508618 0.06659168
0.040723424 0.015587213 0.066839635
0.036750685 0.01644936 0.066295803
0.032414015 0.018964197 0.066517651
-0.028807219 0.019217638 0.066232741
-0.02827267 0.021994716 0.066891789
-0.024086015 0.02767997 0.066449106
-0.0096410401 0.027938388 0.06624651
0.014832562 0.027190568 0.066690266
-0.012965048 0.028872114 0.0667395
-0.008243354 0.028830068 0.066735268
-0.0034282808 0.028355138 0.066915333
0.0010713501 0.02836086 0.06692636
0.0020267349 0.028666057 0.066409171
0.011798517 0.028146941 0.066227853
-0.0076001966 -0.030186132 0.067202985
-0.0030328408 -0.030219944 0.067128241
-0.0010557781 -0.030366285 0.067749202
0.0087421816 -0.030309729 0.067238092
0.0099368272 -0.030485719 0.067247808
0.012940161 -0.030437658 0.067159414
-0.013191894 -0.02971503 0.067050755
-0.0052697584 -0.029999461 0.067608118
0.0038580033 -0.029931307 0.067732751
0.015564144 -0.029611547 0.067915261
0.025126524 -0.02866121 0.067785084
-0.015071784 -0.027432472 0.067003489
0.027666781 -0.027299095 0.067417443
-0.018515863 -0.024952374 0.067828417
0.030362818 -0.024330743 0.067546427
0.031351879 -0.024872111 0.067284763
0.033271495 -0.0225028 0.067917883
0.045124479 -0.019229664 0.067930937
0.045911025 -0.018369902 0.067647278
0.04936577 -0.018821642 0.067394793
-0.027232002 -0.016180472 0.067373574
-0.028850233 -0.011567216 0.067967117
0.059768129 -0.010217468 0.067474544
-0.028436005 -0.0062694792 0.067656815
0.060191639 -0.0057491567 0.067436635
-0.029600756 -0.0035711941 0.067441642
0.060286861 -0.0013241898 0.067709148
-0.030196041 -0.00055223051 0.067058623
-0.029272659 0.0010470877 0.067765296
0.060480759 0.0038112234 0.067781746
-0.028698258 0.0052738292 0.067433834
-0.029060448 0.0074807499 0.067667484
0.056639034 0.01073166 0.067371696
-0.029285653 0.012014869 0.067860901
0.035443649 0.017607119 0.067257941
-0.028566247 0.02422167 0.06788522
0.025231024 0.024450708 0.067835271
0.023350403 0.026673319 0.067248344
0.004615292 0.027847797 0.067783087
0.0081942733 0.027570158 0.067220807
-0.010573754 0.028804803 0.067882657
-0.0062014069 0.028285362 0.067504704
0.012825798 0.028183917 0.06760329
0.011801261 -0.030121438 0.068665147
-0.0094562843 -0.029440949 0.068313181
0.0023138775 -0.029364815 0.068524718
0.0063136076 -0.029429367 0.068020701
-0.012730495 -0.028148737 0.06864655
0.026087396 -0.027539961 0.068685234
-0.01651272 -0.026133008 0.068034828
0.029483173 -0.025718031 0.068659484
-0.01988955 -0.023271786 0.068010628
-0.022406759 -0.021808488 0.068207383
0.043783896 -0.021097736 0.068207443
-0.025289897 -0.017860938 0.068080246
-0.027473727 -0.014097609 0.068271339
-0.028590038 -0.011228831 0.068290174
0.061133265 -0.0037096075 0.068959057
0.059118934 -0.0026923791 0.06835252
0.060555391 0.0041614422 0.068420351
0.058916178 0.0061308276 0.068021595
0.058770776 0.0082605779 0.068797529
-0.02910161 0.0094695147 0.06800139
-0.029185755 0.013677197 0.06827569
0.046722852 0.01399857 0.068141818
-0.029455947 0.014075165 0.068821728
0.040897064 0.015785946 0.06837225
0.04324384 0.015208198 0.068964303
-0.028382126 0.01748942 0.068738639
0.037331391 0.017137099 0.068782926
0.034294993 0.018020503 0.068017364
0.029477045 0.021626748 0.0689888
-0.028134115 0.025771674 0.068454802
-0.024480946 0.025677759 0.068244517
-0.026828049 0.026399806 0.06830436
-0.013875321 0.026964471 0.068372905
-0.026201289 0.027813077 0.068959773
0.017271906 0.027969956 0.068166196
-0.003164615 0.028644633 0.068675816
0.00065992866 0.028426379 0.068804264
0.0094706183 0.028041039 0.068052828
0.013395581 0.028072257 0.068470776
0.016957678 -0.031459313 0.069945753
-0.0091386437 -0.030435553 0.069725215
-0.012342348 -0.02978838 0.069579005
-0.021963492 -0.021020243 0.069011033
0.050496954 -0.01622439 0.069026291
-0.027637467 -0.015669929 0.069613636
-0.029031768 -0.012470134 0.069835722
0.058938045 -0.01067024 0.069825113
0.060640864 -0.0079767974 0.069343805
-0.028533328 -0.00088488404 0.069930851
0.060764298 0.00012751616 0.069093883
0.060550589 0.0042043063 0.069702804
0.057596579 0.0093572 0.06989032
0.048700742 0.012999283 0.069089234
0.044399895 0.014256527 0.069033921
0.030910378 0.019218644 0.069491923
-0.028194599 0.020268403 0.069510996
0.025007248 0.025524389 0.069583595
0.026840035 0.025303483 0.069283366
0.0059014149 0.026405863 0.069195509
0.020703848 0.027170081 0.069683492
-0.00085599907 0.028471079 0.069868326
-0.013939656 0.029903648 0.069517732
0.013201822 -0.031537332 0.070406735
-0.0022875844 -0.030040508 0.070258856
0.0079252124 -0.030059747 0.070796013
0.022054687 -0.030399794 0.070946038
-0.0062330128 -0.029662713 0.070658386
-0.0022800602 -0.029670749 0.070981026
0.017129486 -0.029579746 0.070364296
0.020552849 -0.029024487 0.070883811
0.024462106 -0.028190933 0.070759237
-0.014519521 -0.02752861 0.070266306
0.027746946 -0.027225215 0.070468545
-0.018430443 -0.025011061 0.070872843
0.040077187 -0.022387549 0.070227206
-0.023948183 -0.020513993 0.070630908
0.044459648 -0.020429211 0.070764899
0.048066922 -0.018167159 0.070035875
0.048400197 -0.017631467 0.070911944
0.050985325 -0.016590226 0.070304155
0.051598549 -0.014799368 0.070011079
-0.030339973 -0.0088381665 0.070329726
0.05827355 -0.005174024 0.07082355
-0.029249055 -0.0044397814 0.0708974
0.060656294 -0.0043237647 0.070528328
-0.029785868 -0.0018822877 0.070973873
0.060619272 0.0028597172 0.070870697
-0.029199217 0.010379277 0.070883214
0.05340825 0.012494895 0.070483863
-0.028209668 0.013698293 0.07063514
0.039578572 0.016462451 0.070566118
-0.029519562 0.017276 0.070329607
0.031078117 0.019810157 0.070206523
0.028597515 0.021856092 0.070644677
0.02767895 0.024129752 0.070788503
-0.021024445 0.027137769 0.070695937
0.0023077074 0.027677765 0.070880175
0.013392346 0.02727917 0.070877135
0.021621205 0.027741954 0.070381224
0.024449898 0.027187351 0.070405543
0.009642195 0.028221905 0.070952892
0.01431631 0.028341932 0.070030272
0.017591001 0.028074296 0.070593417
-0.020495549 0.029359648 0.070061147
-0.0019528652 0.029170867 0.070695519
-0.0051088547 -0.030071702 0.071758449
-0.00022255949 -0.030250363 0.071353137
0.0013961187 -0.030891206 0.071054459
-0.010759189 -0.029691096 0.071382821
0.0050293398 -0.029272864 0.07106185
0.025744459 -0.028368328 0.071335733
-0.016724795 -0.026099578 0.071669996
0.027052332 -0.026717938 0.071422935
0.029112408 -0.026266888 0.071767986
0.030321578 -0.02586058 0.071135759
-0.022087432 -0.02362767 0.07174778
0.039266411 -0.021471623 0.071409047
-0.023149302 -0.019894021 0.071960926
-0.025349403 -0.01761719 0.071549594
-0.029653583 -0.014016742 0.071497679
0.057959773 -0.0031945352 0.071935833
0.060315289 -0.0012329854 0.071705639
0.057853702 0.00050994381 0.071676493
-0.029072957 0.002168606 0.071391881
-0.028689662 0.006802035 0.071437538
-0.029113185 0.010045538 0.07102555
0.054769132 0.011214112 0.071956336
0.052421104 0.01241706 0.071237803
0.046710186 0.014041549 0.071104705
0.032645702 0.018496968 0.07180202
-0.028816512 0.022027344 0.07118845
-0.026219577 0.024989884 0.071127594
0.024929821 0.02581998 0.071619987
0.0065328376 0.02688859 0.071547329
-0.0037446215 0.027692966 0.071823061
0.010913811 0.027638426 0.071676075
-0.025532577 0.028331282 0.071817577
-0.0089113554 0.02802556 0.071270645
-0.022638075 0.029533707 0.071793377
-0.01282828 0.029087916 0.07185185
0.018431257 -0.03119649 0.072207808
-0.0093033798 -0.029080715 0.072070301
-0.0022583064 -0.029835554 0.072723746
0.0018090047 -0.029102406 0.072494268
0.0062458399 -0.029293587 0.072229326
0.010631202 -0.029986268 0.072823822
0.023703137 -0.0285952 0.072952926
-0.013693935 -0.027994292 0.072742701
0.028846605 -0.025475185 0.072837353
-0.019843765 -0.022920026 0.072613895
-0.022985894 -0.02023764 0.072860897
0.042044796 -0.020361431 0.072315335
0.051136136 -0.015372904 0.072619915
-0.027555203 -0.01394829 0.072838843
-0.029022943 -0.009946391 0.072917402
-0.028284281 -0.0097516188 0.07243377
0.059024286 -0.0095061902 0.072968304
-0.027724452 -0.0057596788 0.072187185
0.060056068 -0.0053473935 0.07291162
-0.028293621 -0.0018873252 0.072662652
-0.028478317 0.00088169926 0.072144151
0.057572808 0.0042818934 0.072239816
-0.028132541 0.0050943736 0.072027504
-0.028202329 0.0092961499 0.07228899
0.048166417 0.012929524 0.072623253
-0.028340833 0.013496026 0.072612882
0.045440186 0.014778643 0.072800338
0.046159066 0.01450501 0.072242796
0.03980146 0.016265023 0.072657049
0.032063048 0.019478597 0.072965264
0.029606488 0.021785384 0.072201312
-0.028550437 0.023003129 0.072120368
0.027649118 0.024756245 0.07243371
0.025007233 0.0256822 0.072731972
-0.027571809 0.026399817 0.072455227
-0.013375154 0.026916098 0.072360635
0.025440916 0.026154026 0.072979629
-0.0089102425 0.027451823 0.072477996
-0.0058388435 0.02735992 0.072481573
-0.0016802642 0.027845033 0.072215199
0.00086587371 0.027664151 0.072422087
0.0050774352 0.027438028 0.072414398
0.0092868488 0.027397616 0.072575271
0.01349696 0.027379889 0.072757483
-0.025086174 0.028363204 0.072637796
0.0093947984 -0.031005928 0.073628008
0.013090246 -0.031356558 0.073096395
-0.0078319488 -0.030094726 0.073681653
-0.015438601 -0.027690126 0.07374078
-0.018239042 -0.02496013 0.07376647
-0.023329157 -0.022350755 0.073037624
-0.021543359 -0.022310773 0.073369205
0.039515354 -0.022372385 0.073468864
-0.024985677 -0.019506902 0.073254943
0.044451673 -0.01946833 0.073502064
-0.026899025 -0.016258759 0.073231101
-0.030793445 -0.012264707 0.073028207
-0.028412296 -0.012556002 0.073656142
0.056693263 -0.011078363 0.07329911
-0.03089256 -0.0089389849 0.073885441
0.060216624 -0.0070814136 0.073010802
0.059228897 -0.006441806 0.073915303
0.059100151 -0.0038893172 0.073896468
0.058839902 0.00044100563 0.073952317
-0.028882045 0.0018611606 0.073488593
0.058692455 0.0043704966 0.073902786
0.057530314 0.0072695045 0.073167622
0.057344709 0.0089435475 0.073094785
0.056458663 0.0097600427 0.073007345
-0.029445905 0.012827721 0.073858559
-0.028702242 0.016417455 0.073806703
0.036638524 0.017689221 0.073054135
-0.028447267 0.019820869 0.073937237
-0.029256698 0.022089288 0.073868871
0.027738655 0.02304673 0.073479652
-0.010419713 0.027497061 0.073195755
0.012761207 0.027864058 0.073506176
0.016115099 0.027547639 0.073298454
0.023927348 0.027092498 0.073987246
-0.019875888 0.028425569 0.073631108
0.0012872126 0.028452143 0.07329458
-0.014539706 0.029685512 0.073539138
-0.012640678 0.029059505 0.073986709
0.0026399745 -0.031768911 0.074347675
0.013142097 -0.031183878 0.074453652
-0.0038620336 -0.030923015 0.074163854
0.00029844686 -0.030649168 0.074273407
0.0047794827 -0.030125856 0.074399889
0.0091048479 -0.03019141 0.074557841
-0.012956464 -0.02957597 0.074025214
-0.01172981 -0.029799616 0.074292064
0.016412593 -0.029633511 0.074998677
0.028673287 -0.027957484 0.074589431
0.032376606 -0.025579983 0.074499846
-0.018613514 -0.02457469 0.074719727
0.035814963 -0.023670543 0.074822545
-0.024773389 -0.018696003 0.074706256
0.046616025 -0.018270658 0.074463427
0.058578476 -0.007896103 0.074448466
-0.030522568 -0.0047858213 0.074760973
-0.029607756 -0.0019783436 0.074059784
0.057811826 -0.00019570626 0.074877203
0.059400681 0.0039282274 0.074246705
-0.029109385 0.0076447017 0.074153423
-0.029463995 0.0097683379 0.074854195
-0.029275382 0.011703646 0.074103117
0.03516756 0.018124629 0.07489866
-0.018735992 0.026791854 0.07474488
0.019050777 0.026932541 0.074104667
-0.0055106264 0.027969718 0.074439943
0.0063150367 0.027825933 0.074613214
0.016621806 0.027803756 0.074770153
-0.016635291 0.028986655 0.074473143
-0.010407999 0.02853574 0.074722588
-0.0091672847 -0.030387793 0.075295269
-0.0042652264 -0.030935833 0.07556361
0.013470711 -0.030345852 0.07596755
0.021936692 -0.030269939 0.075284362
0.025771849 -0.028907759 0.075054765
-0.015627367 -0.027887519 0.075007081
0.026333636 -0.026842834 0.075346172
0.029789677 -0.026201576 0.075565696
0.030621959 -0.024064505 0.07578814
0.038632106 -0.02141268 0.075389326
0.040471714 -0.021643467 0.075239778
0.044403143 -0.019861678 0.075796843
0.047985245 -0.016691547 0.075645626
0.049845517 -0.016361363 0.075248182
-0.027526325 -0.015553195 0.075329721
0.051591512 -0.015022496 0.075799763
0.05484673 -0.010433575 0.075912237
-0.028014297 -0.0054988917 0.075998902
0.056154385 -0.0038444847 0.075729549
0.057835732 -0.0032125288 0.075760305
-0.030098498 -0.0029095244 0.075586855
0.056804698 0.0019539203 0.075394809
0.05770294 0.0037804358 0.075424016
-0.02862479 0.0056586177 0.075561345
-0.028917126 0.0077447151 0.075925112
0.055181339 0.0093477163 0.075732946
0.046835039 0.013994744 0.075799286
-0.029221103 0.016438164 0.075261652
0.03813481 0.017095948 0.075150967
0.028873721 0.021610614 0.075564921
0.027491417 0.022666246 0.075003266
-0.025551278 0.025428731 0.075879395
0.024952317 0.025437225 0.075887561
-0.028464142 0.026089527 0.075601757
-0.022383353 0.026769791 0.075095832
-0.016050801 0.027036671 0.075301945
-0.012539304 0.027482379 0.075497687
0.021221783 0.027349096 0.075747669
0.0021360982 0.028846975 0.07585305
0.0094235651 0.028665598 0.075155497
-0.0022107242 0.029375443 0.075608134
0.017570071 -0.030466797 0.076134503
0.021546945 -0.028550025 0.076148689
0.036250383 -0.02186257 0.076587796
0.043742757 -0.019040136 0.07674545
0.050479122 -0.015729209 0.076283991
0.054153219 -0.012403744 0.076932967
0.052721806 -0.011962344 0.07622093
0.056223016 -0.0081384089 0.076979399
0.057449006 -0.0042578354 0.076459587
0.055290814 -8.8829547e-05 0.076097429
0.057733655 -0.00094213139 0.076222658
0.053070214 0.0022035036 0.076853573
0.054733299 0.0042575002 0.07678777
0.055475026 0.007286028 0.076335728
0.05311358 0.009460697 0.076496482
-0.029210227 0.014021574 0.076487243
0.045067575 0.014673557 0.076645255
0.046398334 0.014211159 0.076834738
0.041797847 0.016494185 0.076195359
0.031582102 0.018836543 0.076447666
0.038849384 0.018180508 0.076567471
-0.028410982 0.021935329 0.0765149
0.027540307 0.022260576 0.076838434
0.024480272 0.025339473 0.076213777
0.026849531 0.025120884 0.076157928
0.021499729 0.026812265 0.076608002
-0.023661027 0.027686261 0.07686156
-0.0049486151 0.027207471 0.076838672
-0.0012935903 0.027387397 0.076992333
0.0025136992 0.027756918 0.076706707
0.0049037798 0.027922001 0.076923192
0.0091158235 0.0275141 0.076753438
-0.02578138 0.028077424 0.076157928
-0.021520322 0.028582364 0.076297164
-0.018216006 0.02897221 0.076970756
0.00075641181 -0.03239591 0.077878416
0.0090411939 -0.031579256 0.077549279
0.013429843 -0.031567115 0.077483177
-0.011612997 -0.030606152 0.077548206
-0.0023893388 -0.029524524 0.077374697
0.0015744017 -0.029420501 0.077029526
-0.015497631 -0.028794203 0.077801943
-0.014208524 -0.028321113 0.077723324
-0.019073714 -0.025969539 0.077991962
0.028097058 -0.025740258 0.077531397
-0.022333173 -0.023606472 0.077640295
0.037262972 -0.022828728 0.077408612
-0.023304233 -0.020609662 0.07736963
0.040800516 -0.020336587 0.077072501
0.043317471 -0.020051407 0.077576458
-0.030180113 -0.013431014 0.077844262
-0.028896224 -0.0089265462 0.077922404
0.054276161 -0.0076649687 0.077243626
0.054879427 -0.003581529 0.077624798
-0.028452596 -0.0016258201 0.077032864
-0.030789912 -0.00063370727 0.077714086
-0.030516332 0.00298882 0.077801168
-0.028782729 0.0024894243 0.077294111
0.05552515 0.0092733288 0.077637911
-0.029137488 0.014351775 0.077742994
0.044207573 0.015221472 0.077880323
-0.029091833 0.017328981 0.077936411
0.03421104 0.017310159 0.077531338
-0.028886635 0.018129017 0.077108324
0.035233911 0.018499348 0.077315807
0.031015392 0.019254118 0.077200115
-0.028455097 0.021313183 0.077153802
-0.026952701 0.02397679 0.077769399
-0.027520444 0.026609691 0.07799691
-0.0087745916 0.027282998 0.077156484
0.013277289 0.02736911 0.077834845
-0.02532758 0.028332485 0.077822328
-0.011760376 0.02874147 0.077910244
0.0021003985 0.028188996 0.077032149
-0.0089164414 0.029409017 0.077865779
-0.013262738 0.03001596 0.0779562
-0.0032911655 -0.031711858 0.078643441
0.0046187928 -0.031451888 0.078451514
-0.0069933925 -0.030927705 0.078772008
0.02317634 -0.030710591 0.078641474
-0.012374186 -0.029345155 0.078968227
-0.01090215 -0.029985949 0.078178585
0.0031859931 -0.029833887 0.078680933
0.012166554 -0.029864812 0.078908563
0.026547812 -0.029836217 0.078920364
0.019457379 -0.028972747 0.078020394
0.025399955 -0.02884954 0.078722835
0.02894247 -0.028415527 0.078428686
0.030803893 -0.025537105 0.078532636
-0.024877569 -0.020149855 0.078768194
0.045626432 -0.019663416 0.078428328
-0.026753331 -0.016612764 0.078722298
0.050439037 -0.014425432 0.078569233
-0.028897604 -0.012142754 0.078242898
-0.031259384 -0.009069277 0.078269303
-0.02865223 -0.007976044 0.078758776
-0.030907171 -0.0049195453 0.078904212
0.054800663 -0.0037381388 0.078973472
-0.030027203 -0.00044988663 0.078368962
0.05571454 0.0004980184 0.078224599
0.051066272 0.0031484161 0.078058541
0.056412324 0.0037396566 0.078335881
0.056234989 0.0055872928 0.078977287
-0.02968098 0.0069740512 0.078418076
-0.029522436 0.0091993576 0.078824937
-0.029986907 0.011858484 0.078267753
0.052678127 0.012752479 0.078778386
0.045686875 0.013643189 0.078685224
0.034906831 0.01816106 0.078713775
-0.018196514 0.027020503 0.078627825
0.021149488 0.027422898 0.078059971
-0.0079837572 0.028238937 0.078972638
-0.0049280538 0.028857198 0.078317463
-0.00074186322 0.028700914 0.078374088
0.0068512904 0.028881216 0.078295946
0.014922647 0.028411852 0.078024924
-0.0029158797 0.029726423 0.0786677
0.0023295088 0.029495317 0.078487158
0.011541994 0.02903639 0.078155875
0.00058011553 -0.031140549 0.079321146
-0.0089936899 -0.030572636 0.079512417
-0.0041135172 -0.030819859 0.079505324
0.0075171213 -0.030027492 0.0791412
-0.016322136 -0.027268715 0.079332888
0.028424088 -0.027471088 0.079140723
-0.019924711 -0.024574058 0.079291761
0.031489197 -0.024472848 0.079372168
0.034720883 -0.023043592 0.079998434
-0.021857195 -0.022901673 0.079015911
0.033699453 -0.022601206 0.07949847
-0.022368165 -0.021956392 0.079457879
-0.024816776 -0.019007009 0.079656899
0.045359109 -0.017810531 0.079398334
0.047598124 -0.017841954 0.079445541
-0.027877755 -0.015149668 0.079379439
0.048183307 -0.015762968 0.079893947
-0.028647058 -0.012457037 0.079081595
0.049365267 -0.011658917 0.079807878
0.052113604 -0.010888923 0.079708695
0.053243656 -0.0071631968 0.079455674
-0.029024716 -0.0037900563 0.079391599
0.050834645 -0.0030817054 0.079973757
0.052180205 -0.002586701 0.079687893
0.052492894 -0.0015789233 0.079147637
0.052535243 -0.00074603409 0.0795241
-0.029643161 0.0040478967 0.079112768
-0.029421315 0.010880062 0.079055488
0.048221808 0.011640852 0.079886258
0.048687153 0.012866067 0.079428494
-0.029255748 0.013008685 0.079090595
0.036981527 0.017175579 0.079705894
0.037291862 0.018209467 0.079838157
0.031013593 0.019623633 0.079829335
0.029493783 0.021977641 0.079241097
-0.028255373 0.02393534 0.079747021
-0.015047716 0.027533486 0.079338968
0.023568535 0.027625121 0.079912603
-0.024671871 0.02877445 0.079444706
0.0041013397 0.028735757 0.079649031
0.0090079056 0.028124366 0.079330504
0.01100949 0.028540261 0.079058826
0.015062319 0.028112222 0.079076469
-0.021832626 0.029077165 0.079847217
0.013297735 -0.032107677 0.08085537
0.0091381557 -0.031874094 0.08084172
0.017357856 -0.030912044 0.080058575
0.015371403 -0.029527849 0.080119014
-0.016224118 -0.028763644 0.080999196
0.02191644 -0.028706597 0.080016375
0.036709886 -0.022112785 0.08058846
0.040220931 -0.021821205 0.080554128
0.040119104 -0.020646906 0.08068949
0.043921966 -0.019921077 0.080140054
0.044574521 -0.017982192 0.08011955
0.046031732 -0.014342617 0.080261707
0.048038129 -0.014952218 0.080010533
0.049151018 -0.011260981 0.080483139
0.050023198 -0.0075490144 0.080229759
0.050884124 -0.0060764048 0.080726445
0.050047569 -0.0037422702 0.080849648
0.052277479 0.00060591649 0.080390394
0.048868984 0.0012273416 0.080980241
0.051463727 0.0037164381 0.080342472
0.048724961 0.0041408818 0.080435574
0.0505394 0.008340341 0.080289781
0.052466817 0.0094154878 0.080329478
-0.029420817 0.016856348 0.080611646
0.03088134 0.019240199 0.080862641
-0.028458925 0.020870879 0.080048263
0.02744407 0.022629568 0.080267847
0.02437349 0.025910471 0.080024183
0.027218085 0.02558111 0.080398738
-0.021094412 0.027198721 0.08051151
0.019604316 0.0272479 0.080472171
-0.017108068 0.029144794 0.080281496
-0.0021626614 -0.031106165 0.081753552
0.0022224849 -0.031099372 0.081478894
0.0053369477 -0.031575833 0.08125633
0.013233342 -0.031063855 0.081285477
-0.013671047 -0.030554026 0.081174374
-0.0083619729 -0.030798567 0.081219435
0.010490653 -0.030427748 0.081593871
-0.011728976 -0.02990525 0.081032217
-0.0026202118 -0.029835379 0.081197441
0.018063059 -0.029082863 0.081554055
-0.014968151 -0.028349644 0.081960261
0.029880043 -0.027219692 0.081955314
-0.019116977 -0.026159938 0.081165969
0.027474999 -0.026281346 0.081123769
0.035674132 -0.021393921 0.081950724
0.03953943 -0.020045927 0.081626892
0.044053715 -0.019611847 0.081661105
-0.027163591 -0.01591268 0.081457853
-0.028246867 -0.01335723 0.081609845
-0.03108808 -0.011937181 0.081008911
-0.031386599 -0.0091649424 0.081408978
-0.031076483 -0.0049985652 0.081326902
0.04763272 -0.0026941579 0.081812799
0.049947433 0.00068292936 0.081965923
0.052659273 0.0046950192 0.081127107
0.049719367 0.0079214657 0.081549048
-0.029387387 0.012278051 0.081592023
-0.029200768 0.015722003 0.081435144
0.044857163 0.015742825 0.081335485
0.045404691 0.015741993 0.081840336
0.039196447 0.016037257 0.081441998
0.040935375 0.016654968 0.081078112
-0.018552404 0.027188875 0.081986785
0.015570183 0.027982207 0.081894934
0.02026801 0.027513398 0.081827462
-0.0005507404 0.028270869 0.081835449
0.016667798 0.028298073 0.081150353
-0.013209801 0.029316558 0.081799924
-0.010222941 0.029737629 0.081934154
-0.0019313684 0.029959265 0.08183831
-0.010208273 -0.031133598 0.082230985
0.0015349165 -0.031838682 0.082680821
-0.0046752151 -0.030126777 0.082948387
0.0058192792 -0.029920906 0.082784474
0.026657073 -0.029796101 0.082932174
0.0243067 -0.027948119 0.082200587
-0.02166119 -0.023476645 0.082257658
-0.023884509 -0.020618852 0.082104206
0.043835931 -0.016934959 0.082654297
-0.0293613 -0.01432404 0.082032502
0.046836223 -0.014290057 0.082571208
0.047912847 -0.0054657757 0.082635164
0.046144418 -0.0031539053 0.082836807
-0.0309502 -0.0017213058 0.082141936
0.048631568 -0.0014387704 0.08208698
-0.030111654 -0.00088283507 0.082671165
-0.030197842 0.0039781691 0.082979023
0.048567861 0.0041690692 0.082915485
0.050039597 0.0047824895 0.082655728
-0.029334711 0.0063643116 0.082750797
-0.029890021 0.0099067427 0.082292795
0.050011344 0.010205322 0.08237648
0.046739206 0.012874037 0.082808316
0.0423938 0.014652524 0.082121968
0.044403575 0.014355802 0.082028925
-0.028758194 0.020771431 0.082035482
-0.025973335 0.02506303 0.082186043
0.02477278 0.025712105 0.082110703
-0.028494544 0.026966644 0.082071006
-0.026351355 0.028597159 0.082062781
-0.0090855453 0.028853469 0.082918286
0.0022457605 0.029623795 0.082601786
0.010416477 0.029180583 0.082460344
0.019147499 -0.032008115 0.083214998
0.015665 -0.03195123 0.08344996
0.022887889 -0.0314737 0.08322376
-0.0011575408 -0.030044297 0.083496034
0.002704611 -0.03004827 0.083725274
0.010698584 -0.029366668 0.08350879
-0.013004422 -0.028550046 0.083947599
0.031131215 -0.024504289 0.083598852
0.037299003 -0.019886723 0.083102047
0.040854335 -0.0184453 0.083265483
0.042972051 -0.016974572 0.083271801
0.044849623 -0.013321635 0.083391368
0.046071 -0.011351712 0.083473861
-0.028730888 -0.010885821 0.083738148
0.046381369 -0.0095375646 0.083170295
0.046006579 -0.0076028891 0.08323884
-0.029404597 -0.0067508258 0.083130181
0.044567432 -0.0039830357 0.083988845
-0.029321535 -0.0025718985 0.083323598
-0.029426843 0.00090111047 0.083726525
0.046325888 0.00076561305 0.083391011
0.04723379 0.00082407705 0.083053887
-0.03041371 0.0023858864 0.083043218
0.047053251 0.0048641497 0.083869159
0.047113899 0.0067708781 0.083986104
0.047258634 0.0089456607 0.083867669
-0.029544711 0.0092768874 0.083988726
0.045506369 0.010823073 0.083642781
0.043992963 0.013128646 0.083040774
0.042192526 0.015884163 0.083874226
0.035961036 0.017273832 0.0833655
0.033082124 0.019090252 0.083449483
0.03100686 0.020032709 0.083942354
-0.02907066 0.022801179 0.083197296
0.030447003 0.022485409 0.083225906
0.027611949 0.023359414 0.083348781
0.027822265 0.025897019 0.083019912
-0.027502676 0.026295319 0.083799183
-0.023481868 0.02682386 0.083106816
0.025334714 0.026158234 0.083537281
-0.024462791 0.0279445 0.083464205
-0.013688322 0.027636565 0.08389467
-0.010951748 0.027901696 0.083442152
0.02227054 0.027386276 0.083022416
-0.0064705554 0.028988048 0.083533823
-0.0050942902 0.028673939 0.083198965
-0.0026673437 0.028351977 0.083208084
-0.00092410017 0.028772235 0.083485126
0.0039387564 0.028968267 0.083891273
0.0063131396 0.028559541 0.083313346
0.0088187782 0.028717468 0.083898127
0.0092265904 0.028279841 0.083204925
0.013015199 0.028294856 0.083719432
-0.016343487 0.029885804 0.083902538
-0.022623001 0.030051909 0.08313024
-0.019502075 0.030399688 0.083285987
-0.0030318545 -0.031090315 0.084665954
-0.01206414 -0.030521546 0.084394991
0.00096050545 -0.030356731 0.084900558
0.0051238206 -0.030509286 0.084838808
-0.0092703355 -0.029705644 0.084132493
-0.0068753725 -0.029981427 0.084679186
0.021011248 -0.029535346 0.084047139
0.024798503 -0.029167043 0.084342897
