# .PCD v0.7 - Point Cloud Data file format
VERSION 0.7
FIELDS x y z
SIZE 4 4 4
TYPE F F F
COUNT 1 1 1
WIDTH 364
HEIGHT 1
VIEWPOINT 0 0 0 1 0 0 0
POINTS 364
DATA ascii
-0.012949205 0.032864153 0.18357322
-0.012123282 0.03516829 0.18014932
-0.015861858 0.035134614 0.1803523
-0.01723849 0.03631103 0.17650893
0.012971614 0.0292632 0.18320554
0.0086237723 0.029666126 0.18344501
0.0040021418 0.029428363 0.18309242
-0.00021711248 0.029306412 0.18237633
-0.0067958799 0.029137194 0.18256268
-0.011274259 0.029903768 0.18384179
0.013366976 0.032504439 0.18089518
0.0088986671 0.032959878 0.18062079
0.0041229771 0.033017099 0.18044609
-0.0011997288 0.032609582 0.18003845
-0.0068060914 0.033221841 0.1800926
-0.010042581 0.033866942 0.18035442
0.013611329 0.034501076 0.17580315
0.0088455984 0.034789681 0.17552954
0.0043595587 0.034858108 0.17537645
-0.0010902688 0.034980416 0.175282
-0.0062837931 0.034886539 0.17492768
-0.011022388 0.03548187 0.17443669
-0.015437975 0.035828173 0.17423624
0.018468164 0.034931004 0.17172778
0.013825399 0.035041153 0.17159539
0.0088105341 0.035459697 0.17118782
0.0043808972 0.03554827 0.17020127
0.00017308877 0.035622001 0.16977063
-0.0054169237 0.035862744 0.16945255
-0.010823472 0.036538959 0.16965196
-0.015444844 0.036305487 0.16929922
-0.0068279742 0.036885917 0.16638947
-0.010970547 0.037169158 0.16565928
-0.015788831 0.037185431 0.16497013
-0.019882448 0.037397444 0.16431856
0.010226795 0.02221483 0.1834521
-0.0076446813 0.021771729 0.18238476
-0.011542531 0.023345886 0.18317917
0.013655717 0.026584746 0.18402544
0.0086087342 0.026396513 0.18413836
0.003987757 0.025636852 0.18346414
-0.00093216111 0.02552104 0.18244883
-0.0049563707 0.025285006 0.18212387
0.014008501 0.034157991 0.16828203
0.0096490281 0.034923017 0.16840348
0.005494921 0.035257041 0.16770437
-0.0014609464 0.035028458 0.16725254
0.014269059 0.0337075 0.16339192
0.0095682954 0.034687877 0.16382805
0.0048789294 0.035743415 0.16431397
0.0002230188 0.036045492 0.1643092
-0.0048720422 0.036208034 0.16382533
-0.010168872 0.036028564 0.16246423
-0.014176681 0.036671877 0.16286552
0.018300068 0.034845829 0.16061273
0.014414967 0.034749508 0.16038069
0.0093771676 0.034891367 0.15979218
0.0051050321 0.035443962 0.15950754
0.00043955693 0.035580099 0.15939495
-0.0049906163 0.035298586 0.15897381
-0.010424043 0.035161614 0.15864772
-0.015253327 0.035731137 0.15811849
0.0083559994 0.018923402 0.18226129
0.0040610265 0.01922667 0.1820733
-0.00087982963 0.019713938 0.18272674
-0.0053441785 0.019107521 0.18267778
0.015364406 0.03421396 0.15728191
0.010219294 0.034440696 0.15702307
0.0052517434 0.034941912 0.15639707
0.00057624344 0.035068035 0.15627861
-0.0048745531 0.035188913 0.15612313
-0.010313361 0.034686208 0.155554
-0.013425726 0.034627616 0.15538049
0.015293484 0.034713924 0.15357071
0.010115025 0.034818053 0.15279374
0.0054166452 0.035246432 0.15287852
0.00074743549 0.034814894 0.15238798
-0.0042517292 0.034763753 0.15232486
-0.0095974943 0.034728587 0.1517145
-0.014849729 0.034762621 0.15168035
0.0016911111 0.034982681 0.14879903
-0.0053455192 0.035086274 0.14856645
-0.0089910766 0.035070062 0.14839882
-0.013153451 0.034558952 0.14787495
0.0040845168 0.014546752 0.18168113
-0.00035788983 0.013743818 0.18255252
-0.0057672458 0.012950837 0.18210346
0.016508855 0.033853948 0.15055189
0.015931506 0.03368181 0.14665031
0.010425108 0.03402108 0.14664319
0.0057195993 0.03405875 0.14646649
0.00081142114 0.034248114 0.1458472
-0.00348279 0.034258485 0.14597219
-0.0092322556 0.034254611 0.14533114
-0.014834705 0.034046352 0.14534134
-0.018257115 0.034825206 0.14470506
0.016318329 0.033451438 0.14235583
0.010667061 0.033816159 0.14179504
0.0057705073 0.034269869 0.14118594
0.0012516982 0.034650981 0.14101759
-0.0034616415 0.034706295 0.1408546
-0.0087472377 0.03455615 0.14069793
-0.014126829 0.034392655 0.1399945
0.00062621827 0.034890354 0.13736486
-0.0032799013 0.03510052 0.13658392
-0.007961805 0.035620034 0.13560373
-0.012998602 0.03530705 0.13536286
0.0040900554 0.0078106527 0.18172479
-0.00069156173 0.0079115033 0.18249413
0.0040813154 0.011029959 0.18183434
0.016175754 0.033657432 0.13989055
0.010808625 0.033812523 0.13895494
0.0076408191 0.034269094 0.13913405
0.016546626 0.033342779 0.13506484
0.011022105 0.033176422 0.13471481
0.0062860129 0.033065319 0.13443607
0.0017637431 0.034269512 0.13453484
-0.0031817586 0.035580695 0.13435262
-0.01578987 0.035455465 0.13420606
-0.018615007 0.035398722 0.13385624
0.01040152 0.033632874 0.13118294
0.0017039635 0.033499777 0.1307213
-0.0032390237 0.034979105 0.13017845
-0.0077444199 0.036090136 0.13021928
-0.013260751 0.035786808 0.12977296
-0.01877911 0.03530854 0.12920463
-0.0091648838 0.035187364 0.12569144
-0.013119246 0.035171628 0.12551349
-0.018007591 0.03539145 0.1250782
-0.00072087941 0.0037986636 0.18278134
0.016881738 0.03266716 0.12885892
0.01155381 0.033345044 0.12856209
0.0065498678 0.033223689 0.12881428
0.0018362821 0.033317327 0.12772024
-0.0020931524 0.033711493 0.12687057
0.017142322 0.032526791 0.12395239
0.011585283 0.033386052 0.12336028
0.006795737 0.033959687 0.12356514
0.0020446356 0.033494234 0.12303472
-0.0027281858 0.03390336 0.12312418
-0.0072979401 0.035025299 0.12348926
-0.01201209 0.035164893 0.12308007
-0.017648757 0.035183132 0.12230524
0.010948333 0.034167826 0.12002021
0.0069864327 0.034352541 0.11950123
0.0022070489 0.03383261 0.11941332
-0.0025707085 0.034042656 0.11936313
-0.0076355143 0.034603179 0.11877608
-0.012047972 0.035291851 0.11792058
-0.017135285 0.036065817 0.1184575
-0.016973056 0.036155701 0.11367941
-0.0007662081 -0.0032864809 0.1831784
0.014897172 0.032667994 0.1210539
0.013006992 0.033438444 0.11725092
0.0071304003 0.033745348 0.11644799
0.0023565376 0.033091128 0.11597145
-0.0024267947 0.032972574 0.11568576
-0.006798896 0.033329248 0.1152733
0.012916681 0.033337593 0.11268753
0.007143178 0.033626437 0.11192232
0.0027793692 0.033008873 0.11160642
-0.0020374218 0.033146739 0.11119086
-0.0070298007 0.033598542 0.11106628
-0.011829882 0.0345577 0.11156297
-0.016166929 0.035523832 0.11062187
0.0067232354 0.034036398 0.10803956
-0.011682677 0.033933818 0.10719931
-0.016448896 0.035089314 0.10686648
0.0040353304 -0.0082733631 0.18322933
-0.00077235996 -0.0085268021 0.18286306
0.013064637 0.033304513 0.10973155
0.0090632094 0.033205271 0.1094926
0.0018606492 0.033026695 0.10906243
-0.0037413267 0.032887757 0.10872787
0.013188937 0.033853114 0.10719031
0.0076044006 0.034360528 0.10634756
0.0027716279 0.033735156 0.10667127
-0.0020339203 0.033661425 0.10641748
-0.0070166579 0.033994794 0.10571784
-0.011580422 0.034549117 0.1047073
-0.016349562 0.034834504 0.10373604
0.013434152 0.033886492 0.10229331
0.0079926318 0.034625053 0.10236973
0.0031454049 0.034525037 0.10194671
-0.0018443123 0.034374893 0.1020245
-0.0064090742 0.034485161 0.10135305
-0.011403448 0.034844697 0.10000139
-0.016216122 0.034881949 0.09983027
0.0082566598 0.034876466 0.098194659
0.0028679471 0.034712911 0.097321093
-0.0016500589 0.034910202 0.097480893
-0.0064712982 0.034763694 0.097172737
-0.011259614 0.034919262 0.096100092
-0.01608336 0.035529554 0.096358836
0.014608354 0.032336295 0.095227122
0.0095384205 0.032694399 0.093957603
0.0033898512 0.032106578 0.092598319
-0.0014765646 0.032723784 0.092862606
-0.0063200062 0.032522678 0.092512429
-0.011169839 0.032933354 0.092622042
-0.016011838 0.033425033 0.092793047
0.01481833 0.032143772 0.091093659
0.008358839 0.033011794 0.090339541
0.0035001682 0.032872975 0.090178788
-0.0013541683 0.032833397 0.089950085
-0.0064218631 0.032792687 0.089281976
-0.011027074 0.033276618 0.088887155
-0.015877794 0.033689082 0.089000881
-0.012509114 0.034342825 0.085625648
-0.016040947 0.034473777 0.084777594
0.01494458 0.032225847 0.088580549
0.01041619 0.032628715 0.088069558
0.003632349 0.032905281 0.087198675
-0.0012216019 0.032515943 0.086704135
-0.0052721603 0.032361567 0.086421192
0.0151844 0.033010662 0.083719432
0.010288575 0.033503711 0.083898127
0.0045952154 0.03379631 0.083891273
-0.0010781168 0.033567607 0.083485126
-0.0059433384 0.033452928 0.083198965
-0.010599802 0.033662379 0.082918286
-0.015219695 0.034118295 0.081820309
0.010509224 0.032811761 0.079330504
0.004784896 0.03352505 0.079649031
-0.00086550706 0.033484399 0.078374088
-0.005749396 0.03366673 0.078317463
-0.010402515 0.03431052 0.077865779
-0.015473193 0.035018623 0.0779562
-0.01696299 0.0346331 0.073539138
0.015490171 0.031930625 0.077834845
0.010635127 0.032099783 0.076753438
0.0057210764 0.032575667 0.076923192
0.0024504652 0.032887161 0.077032149
-0.0064290641 0.032631338 0.074439943
-0.012142665 0.033291698 0.074722588
0.015746454 0.031943202 0.072757483
0.010834658 0.031963885 0.072575271
0.0059236744 0.032011032 0.072414398
0.001010186 0.032274842 0.072422087
-0.0043687252 0.032308459 0.071823061
-0.01039658 0.032696486 0.071270645
-0.014966327 0.033935905 0.07185185
0.015628178 0.032750964 0.068470776
0.011049055 0.032714546 0.068052828
0.0058000246 0.032549918 0.067917407
0.0012499084 0.033087671 0.06692636
-0.0039996607 0.033080995 0.066915333
-0.0096172458 0.03363508 0.066735268
-0.015125888 0.033684134 0.0667395
-0.0027047612 0.034300029 0.063616931
-0.010074816 0.034117222 0.063176692
-0.014988187 0.03399545 0.062883258
0.016511951 0.032629907 0.065634191
0.011201997 0.032580197 0.064867735
0.0066379486 0.033302426 0.065771401
0.01624788 0.032299697 0.062783837
0.011283577 0.033000052 0.0631423
0.0061982544 0.032649279 0.061182201
0.0015022446 0.033501327 0.061083853
-0.0036474031 0.034036338 0.060716808
-0.0081045991 0.034232676 0.060696006
-0.013242065 0.033837974 0.059733391
0.0016915266 0.032988131 0.056539893
-0.0024246303 0.032886028 0.056294024
-0.0081787994 0.0335989 0.056119204
-0.013129118 0.033017755 0.055974126
0.011500091 0.03133589 0.058718741
0.0073973378 0.032063305 0.058100522
0.016407588 0.031471908 0.055645049
0.01167787 0.031841993 0.054974258
0.006706479 0.032283425 0.055131495
0.0018068114 0.032415748 0.053741872
-0.0033649271 0.032277226 0.053090096
-0.008060406 0.032522559 0.052447259
-0.013017858 0.032438278 0.052390754
0.016840709 0.031956911 0.051096737
0.011875941 0.031877935 0.050835907
0.0066770492 0.03232348 0.050542414
0.0020102644 0.032693207 0.049015164
-0.0029583899 0.032956839 0.049033344
-0.0079165203 0.032781184 0.048694313
-0.012873343 0.03250879 0.048276663
0.0021665141 0.033489823 0.04547894
-0.0030285448 0.033852518 0.045122147
-0.0077450862 0.033834398 0.044584036
-0.012915614 0.03366679 0.04424274
-0.017664764 0.033688664 0.043811262
0.012022031 0.031977117 0.047779441
0.0078765573 0.031970918 0.047610641
0.012213447 0.032200515 0.043761849
0.007222916 0.032409787 0.04373765
0.0023018036 0.033444405 0.042290926
-0.0018510214 0.033687294 0.042328298
-0.0076561635 0.033792973 0.042187572
-0.010969947 0.033710778 0.041989625
0.015778234 0.031532645 0.039125741
0.01243184 0.0318169 0.039230049
0.0070344741 0.032003582 0.03864342
0.0024640625 0.032464206 0.038316727
-0.0025345376 0.03279072 0.038391232
-0.0075303866 0.033243954 0.038571179
-0.012513123 0.03310281 0.038259149
-0.017462343 0.033048034 0.036960959
0.01253279 0.031816661 0.037113369
0.0079870941 0.032017529 0.036040604
0.0026093433 0.032110393 0.03484571
-0.0032232078 0.031869829 0.034417331
-0.0073927185 0.031879842 0.034262955
-0.012395273 0.031965196 0.034138858
0.012691499 0.032871723 0.033747554
0.0077060694 0.033026338 0.033074498
0.0027183564 0.033054531 0.032447577
-0.0020588888 0.032679617 0.032403529
-0.0072851507 0.032684624 0.031747758
-0.012289605 0.032656252 0.031529367
-0.017292604 0.032575727 0.031267107
0.017728899 0.033381283 0.02857697
0.013172937 0.03337127 0.028047085
0.0079548815 0.033391595 0.027593791
0.0028972449 0.033150375 0.028265655
-0.0021101059 0.032739341 0.027724087
-0.0071267104 0.032732189 0.027523696
-0.01232561 0.033045113 0.026783586
-0.01712209 0.032888234 0.026196837
0.01142553 0.032823086 0.025102794
0.003067092 0.031999528 0.024080157
-0.001950006 0.031302512 0.023294151
-0.0069910353 0.031663358 0.02340579
-0.010348956 0.03197068 0.02353698
0.013275848 0.032379627 0.021566689
0.0082426714 0.032142222 0.021169901
0.0032140734 0.031684041 0.020584822
-0.0021611853 0.031073987 0.020072818
-0.006871785 0.031750023 0.020252645
-0.011881228 0.032731116 0.019819021
-0.016915236 0.032438934 0.019375086
-0.0067506908 0.031727493 0.016996801
-0.011710412 0.032425761 0.014698744
-0.017179605 0.032335401 0.01441139
-6.6778462e-05 0.03014034 0.018059015
0.013583519 0.031272531 0.015216768
0.0085204924 0.031224847 0.014981568
0.0034689987 0.030854762 0.014468789
-0.0015976866 0.030993998 0.014394701
-0.0066266311 0.03153646 0.013583899
-0.011649708 0.03188175 0.012603462
-0.01586354 0.0315184 0.012127936
0.013870635 0.031843781 0.009185195
0.008787998 0.03165096 0.0090964437
0.0034561502 0.031602561 0.0092024207
-0.0013650423 0.032246649 0.0089549422
-0.0064380458 0.032450914 0.0089392662
-0.011504247 0.032500505 0.0087890625
-0.016567364 0.032194138 0.0083292127
-0.0016044258 0.03277719 0.0044874549
-0.0064732349 0.033400416 0.0038318634
-0.011293056 0.033279359 0.0031898618
-0.016155645 0.03293997 0.0027070045
0.0089091631 0.031378329 0.0064021945
0.0046761082 0.031234622 0.0061155558
0.014141516 0.031647563 0.0035435557
0.009064612 0.031212687 0.0029687285
0.003966962 0.031313777 0.002864182
-0.00025967605 0.03242296 0.0025810599
