# .PCD v0.7 - Point Cloud Data file format
VERSION 0.7
FIELDS x y z
SIZE 4 4 4
TYPE F F F
COUNT 1 1 1
WIDTH 406
HEIGHT 1
VIEWPOINT 0 0 0 1 0 0 0
POINTS 406
DATA ascii
0.02488127 0.023172624 0.17966205
0.022630904 0.025400253 0.18168679
0.019216657 0.027044028 0.18216419
0.015164484 0.02749474 0.18149018
0.011134126 0.027958315 0.18010816
0.025711441 0.024991781 0.1775203
0.023760092 0.027316526 0.17842516
0.0201478 0.028893245 0.17827865
0.016006202 0.029060984 0.17701519
0.012332303 0.029102297 0.17654932
0.026214141 0.025773246 0.17367065
0.024095893 0.027649906 0.17422783
0.020595007 0.028989535 0.17327735
0.017186757 0.029220089 0.17327785
0.019626632 0.019310839 0.18265572
0.016600046 0.020770095 0.18352732
0.013052481 0.022598546 0.18356201
0.009052 0.023816748 0.18275106
0.0040499405 0.025826458 0.18227941
0.00029925629 0.026783859 0.18281519
0.024178173 0.019996604 0.17987561
0.021383189 0.021098142 0.18185899
0.017783262 0.023623319 0.18305779
0.014159836 0.025211066 0.18291226
0.0090676993 0.027005868 0.1808731
0.0055381791 0.028233154 0.17960301
0.0017365813 0.029443076 0.17981049
-0.0020668404 0.03059696 0.17932138
0.026506547 0.021778703 0.17600432
0.010448074 0.029734181 0.17509997
0.0063963034 0.02980726 0.17468634
0.0023818379 0.030485781 0.17435151
-0.0015222924 0.031411134 0.17367435
0.026907321 0.023665398 0.17156601
0.024060355 0.027193977 0.17117643
0.018982768 0.028652394 0.17045844
0.015788285 0.029036669 0.17086166
0.011670489 0.030032055 0.17076212
0.00692567 0.030591723 0.16954929
0.0028638607 0.031217303 0.16970941
-0.00049388688 0.031805072 0.16971481
0.026353247 0.025285123 0.16698837
0.024201766 0.027104821 0.16750675
0.020574251 0.028709305 0.16737682
0.016652852 0.029528171 0.1666092
0.012798185 0.03054446 0.16599989
0.0089076459 0.03101676 0.16553104
0.026784552 0.025988046 0.16394424
0.024695769 0.027745556 0.16260588
0.021115966 0.029052066 0.16251796
0.016987765 0.029892111 0.1623807
0.013748605 0.030781582 0.16281128
0.024835557 0.028559942 0.15907288
0.022664212 0.029422237 0.15939048
0.0004660096 0.019988155 0.18233836
-0.001867576 0.021323547 0.18244433
0.019085437 0.016173601 0.1825633
0.015204992 0.017347446 0.18357822
0.011405068 0.018568285 0.18313712
0.0073873708 0.02009212 0.18236801
0.0039110775 0.022238273 0.18230519
0.00065975171 0.02387755 0.18308854
0.0028345771 0.030928548 0.16702935
-0.0013532508 0.031765923 0.16704246
0.0066335192 0.03070184 0.16328275
0.0028430121 0.030587453 0.16265589
-0.0009151483 0.03151428 0.16224927
0.027804539 0.024647316 0.1615214
0.019456284 0.028607283 0.15956616
0.016947495 0.02947171 0.15930739
0.012557348 0.029806878 0.15935522
0.0084597385 0.029880809 0.15932727
0.027703792 0.026020534 0.1572631
0.025368702 0.02795301 0.15633258
0.020919245 0.028740594 0.1562278
0.01701561 0.029229654 0.15545455
0.013212439 0.02927723 0.15479523
0.02429443 0.02757154 0.15159824
0.021192826 0.02841194 0.15127486
0.018057074 0.028978096 0.15129614
0.013255347 0.012423262 0.18233189
0.0094228378 0.013651628 0.18206888
0.005772301 0.015906397 0.18273172
0.001841397 0.017119832 0.18276685
-0.0023610834 0.031770516 0.15985578
0.0064968579 0.029075697 0.15618932
0.0024793409 0.029199891 0.15601465
-0.0014541689 0.030632839 0.15589529
0.011882305 0.029335529 0.15251434
0.0083429106 0.028960634 0.15226999
0.0047889454 0.028577283 0.15202206
0.025338748 0.025052313 0.14933026
0.021376144 0.028613884 0.14908248
0.016802482 0.029215135 0.14915836
0.013100514 0.029567569 0.14874071
0.0096230283 0.029352117 0.14862597
0.023966635 0.026539348 0.14522263
0.021341892 0.028060097 0.14492333
0.01755177 0.029374035 0.1445345
0.014065514 0.029716035 0.14449477
0.0016039792 0.0089833103 0.18300453
0.00036371616 0.0095139109 0.18294513
0.0073249955 0.0092808837 0.18208319
0.0043167765 0.011238683 0.1827327
-1.9020401e-05 0.012037587 0.1825867
-0.00033992156 0.029209707 0.15319234
0.0026193 0.028620835 0.14963847
-0.0016743783 0.029187014 0.14896905
0.025931785 0.021806031 0.14769644
0.0080662835 0.028866906 0.1458604
0.0036809552 0.028925519 0.14517072
-0.00095162075 0.029313553 0.14365983
0.024957635 0.022963541 0.14252901
0.012610179 0.029109687 0.14185023
0.0088019129 0.029027209 0.14120412
0.0045391936 0.029228916 0.13984856
0.0013003424 0.029713299 0.14032093
0.024760086 0.024176398 0.13765419
0.021138743 0.026812363 0.13828647
0.017353255 0.028198322 0.13795042
0.01335985 0.029044246 0.13714761
0.0093278242 0.029374745 0.13619262
0.0059631825 0.029971622 0.13646215
0.024272043 0.025303708 0.13297826
0.021576904 0.027304359 0.13310397
0.017673481 0.028399074 0.13251019
0.01467506 0.029095538 0.13242513
0.021749549 0.027992269 0.12909615
0.019514255 0.028921811 0.12878865
0.0053737136 0.0045668529 0.18215245
0.0022104811 0.0061857323 0.18253681
0.0081716748 0.007078764 0.18205509
-0.002646463 0.029767839 0.14150107
-0.00080572534 0.029970957 0.1380783
0.026616434 0.02216778 0.13685083
0.0080905799 0.030165935 0.13419053
0.004653811 0.030158963 0.13423005
0.00048799627 0.029960644 0.13366303
0.026496457 0.023884799 0.13207623
0.012813546 0.029234698 0.13099965
0.0095558511 0.029837765 0.13065636
0.0055523342 0.030301835 0.12980157
0.0019735228 0.030411318 0.12963766
0.029254759 0.024253432 0.12979209
0.025868686 0.025090337 0.12727222
0.022530537 0.028042266 0.12683129
0.017644551 0.028734004 0.12673786
0.014181206 0.028780509 0.12643263
0.010139851 0.029092973 0.12648478
0.024972878 0.026129238 0.12324104
0.022427997 0.028207503 0.12259358
0.018737609 0.02870998 0.12226671
0.02185021 0.028124934 0.1184597
0.00055089616 0.0029239701 0.18254131
-0.00099874754 0.029313 0.1303241
0.0038308003 0.029908163 0.12673533
0.00041968003 0.030030414 0.12687933
0.012526752 0.028044231 0.12335891
0.00914401 0.028696606 0.12335336
0.0052875313 0.029550184 0.12314311
0.0010706065 0.030005159 0.12195507
-0.0022289073 0.030602045 0.12159193
0.026202161 0.023839699 0.120675
0.017221067 0.028304001 0.11947387
0.013673245 0.028032802 0.11925799
0.0096020196 0.028184552 0.119048
0.0053273938 0.029301029 0.11910439
0.0020250781 0.030221965 0.11859298
0.024732845 0.024935383 0.11563319
0.022457883 0.026939888 0.11528379
0.018320739 0.028144743 0.11523199
0.014773387 0.027882468 0.11502057
0.022332892 0.026750281 0.11175573
0.018907428 0.028397094 0.11097103
-0.0015622852 -0.0021335396 0.18242612
0.0088077299 0.027580386 0.11567831
0.0050063794 0.028229803 0.11526239
0.00076462328 0.029238932 0.11488938
-0.0028089629 0.030439071 0.11528862
0.025779985 0.021381393 0.11281759
0.013332075 0.027723541 0.11241794
0.0094663277 0.027899783 0.1117745
0.0053968718 0.028291078 0.11112964
0.001812079 0.028536253 0.11074108
0.025164057 0.022399312 0.10847217
0.022948723 0.02545579 0.10837609
0.018146448 0.027812481 0.10759389
0.014042936 0.027755467 0.10748643
0.010035509 0.02798282 0.10764319
0.022526683 0.02592054 0.10377789
0.018743053 0.027925022 0.10348505
0.014680073 0.028308602 0.10281986
0.018916437 0.027936205 0.099614739
0.00027187285 -0.0075157788 0.18292084
-0.0034321409 -0.0065603419 0.18281794
0.0046236687 0.028504899 0.10848886
0.00016955193 0.029299613 0.11006492
-0.002963746 0.03012516 0.10986537
0.0096277166 0.028374203 0.10514086
0.0058200336 0.02882313 0.10580999
0.0013170103 0.029316925 0.10592008
-0.0027682493 0.030225506 0.10510159
0.024439704 0.024719482 0.10180503
0.01400355 0.028740956 0.10036659
0.010451207 0.029269477 0.10141557
0.0058460305 0.029455379 0.10155851
0.0021946393 0.029967586 0.10111624
-0.0014228635 0.029570295 0.10114831
0.023375204 0.025897108 0.097713232
0.018986247 0.027782314 0.0965482
0.014973421 0.028481063 0.096815109
0.010902481 0.029039918 0.096952498
0.0064211516 0.02912287 0.097307026
0.026384899 0.023716889 0.094148159
0.023878444 0.026535012 0.092452168
0.019464541 0.028495252 0.092330039
0.015329285 0.02848031 0.092727423
0.023546834 0.027144123 0.088823497
0.020338051 0.028405618 0.088603914
-2.1379441e-05 0.029114923 0.098345637
0.0093361884 0.027721599 0.093824387
0.0054624728 0.028145455 0.093484879
0.0014957245 0.028769759 0.093670547
-0.0028374624 0.029229702 0.093392372
0.013710578 0.027641414 0.090105832
0.010103622 0.027394095 0.089859784
0.0060479366 0.027988052 0.089034617
0.0018908139 0.029330306 0.089268565
0.024833601 0.025438568 0.086438477
0.019658918 0.027577786 0.08606863
0.01490044 0.027680201 0.085917234
0.011032511 0.028127208 0.085073531
0.027463587 0.023210749 0.083134532
0.02477278 0.025712105 0.082110703
0.02026801 0.027513398 0.081827462
0.015570183 0.027982207 0.081894934
0.021149488 0.027422898 0.078059971
0.0044608577 0.028020453 0.086194277
0.0018900167 0.02907731 0.086055219
-0.0023308257 0.029926976 0.087127924
0.0092265904 0.028279841 0.083204925
0.0063131396 0.028559541 0.083313346
0.0022457605 0.029623795 0.082601786
-0.0019313684 0.029959265 0.08183831
0.015062319 0.028112222 0.079076469
0.01100949 0.028540261 0.079058826
0.0068512904 0.028881216 0.078295946
0.0023295088 0.029495317 0.078487158
0.027491417 0.022666246 0.075003266
0.024952317 0.025437225 0.075887561
0.021221783 0.027349096 0.075747669
0.016621806 0.027803756 0.074770153
0.012761207 0.027864058 0.073506176
0.02767895 0.024129752 0.070788503
0.024929821 0.02581998 0.071619987
0.021621205 0.027741954 0.070381224
0.017591001 0.028074296 0.070593417
0.01431631 0.028341932 0.070030272
-0.0029158797 0.029726423 0.0786677
0.0063150367 0.027825933 0.074613214
0.0021360982 0.028846975 0.07585305
-0.0022107242 0.029375443 0.075608134
0.010913811 0.027638426 0.071676075
0.0065328376 0.02688859 0.071547329
0.0023077074 0.027677765 0.070880175
-0.0019528652 0.029170867 0.070695519
0.025231024 0.024450708 0.067835271
0.017271906 0.027969956 0.068166196
0.012825798 0.028183917 0.06760329
0.0081942733 0.027570158 0.067220807
0.0042591342 0.027795661 0.067648768
0.024908619 0.023881128 0.063325107
0.021254541 0.026083006 0.063281834
0.016886901 0.027037991 0.063552797
0.012771213 0.028049313 0.062760115
0.0097899977 0.028683349 0.062876344
0.023786023 0.024515003 0.060318589
0.021527469 0.026364233 0.059741914
0.017660426 0.027285675 0.059382737
0.014614061 0.028050436 0.059633911
0.0059014149 0.026405863 0.069195509
0.00065992866 0.028426379 0.068804264
0.006820512 0.028174803 0.064869881
0.0035561193 0.028243521 0.065101326
-0.00056844112 0.028811039 0.064528227
0.0074835969 0.027909324 0.060373962
0.0043295473 0.02794677 0.060248137
0.00087732356 0.028295241 0.060545087
0.02528422 0.023714487 0.057911575
0.021726437 0.026562518 0.057097077
0.0172401 0.027658023 0.056737483
0.012943716 0.027870359 0.056477666
0.00949171 0.028344104 0.056786895
0.024306044 0.024918621 0.052578747
0.021999121 0.026813714 0.053273499
0.018010173 0.027081743 0.052178025
0.014521733 0.027155947 0.052610815
0.024745002 0.025614176 0.049189985
0.022558082 0.026925202 0.048597157
0.0027842168 0.027706394 0.05735743
-0.0007501971 0.027903052 0.057838976
0.007867638 0.027500793 0.053544402
0.0041953446 0.027828498 0.053435862
-0.00070788153 0.028102186 0.053257465
0.025648542 0.022392511 0.050946891
0.015886238 0.026439067 0.049418509
0.012985662 0.026876181 0.049658895
0.0086806044 0.027616233 0.049591362
0.0042968993 0.028147591 0.048965156
0.0004387442 0.028259251 0.049939096
0.025630644 0.023677941 0.046123981
0.021785196 0.02632406 0.044929862
0.01782188 0.027002521 0.04546541
0.013106406 0.027272319 0.045264602
0.0090233088 0.028001003 0.044825494
0.0059191943 0.028876562 0.044840276
0.025463352 0.024257593 0.041587412
0.022605784 0.026976891 0.041113615
0.018309886 0.027728302 0.041048467
0.014071684 0.028179318 0.041009247
0.010313286 0.028860159 0.040845454
0.02567083 0.02562519 0.037499964
0.023049582 0.027563658 0.036542654
0.018917501 0.028293885 0.036789179
0.015683185 0.028458478 0.037439108
0.02610033 0.027138717 0.03320533
0.023492321 0.028271526 0.033125162
0.020024994 0.029242396 0.033599317
0.0028168443 0.028119124 0.046593368
-0.00071029179 0.02764586 0.046250641
0.0038328799 0.028737448 0.042918444
3.2125041e-05 0.028029028 0.041431606
0.012466667 0.028213341 0.038001359
0.0088296644 0.028396804 0.037924111
0.0052365442 0.028223829 0.037838757
0.027010217 0.02355006 0.035262883
0.017438609 0.028637595 0.034095824
0.013898099 0.028020732 0.033923209
0.0096578496 0.027768858 0.033473492
0.027066167 0.025483809 0.031064332
0.023539526 0.028020266 0.02973181
0.018888799 0.027949538 0.029480517
0.015263697 0.028695993 0.031112611
0.026638025 0.025856741 0.026954591
0.023319375 0.027159872 0.026728451
0.020296536 0.027203962 0.025488317
-0.001661717 0.027940251 0.03828162
0.0037520258 0.02755801 0.03487438
-1.3136305e-05 0.027951941 0.035788298
0.0078172917 0.027648227 0.031322539
0.0046644039 0.028143179 0.031969726
0.00038926397 0.02806762 0.031000257
0.027571863 0.022649517 0.028731287
0.013542207 0.027016489 0.027283728
0.0096025765 0.027384974 0.028173745
0.0052141952 0.027806509 0.027384818
0.027189283 0.023461897 0.024161935
0.02310591 0.026316611 0.023732483
0.018291654 0.027199565 0.023920059
0.014504869 0.026774622 0.023362815
0.026111068 0.024453204 0.020449221
0.022997612 0.026176881 0.019872725
0.019192539 0.026939876 0.019624174
-0.0014914311 0.027541846 0.027345955
0.0082759615 0.026261844 0.023854852
0.0042400779 0.026853627 0.023225129
0.00030304398 0.027344851 0.023893416
0.012896532 0.026364755 0.020158708
0.0093930252 0.026274381 0.020298779
0.0046542827 0.026596785 0.019395173
0.000983092 0.027218446 0.019486248
0.026618104 0.021926537 0.016484916
0.023659393 0.024963286 0.016270339
0.018313784 0.026106423 0.015570164
0.013960511 0.026061898 0.016374528
0.0097820396 0.026501169 0.015643895
0.0063253995 0.026613686 0.016874731
0.025853619 0.022909606 0.012430131
0.023010919 0.025439102 0.012713611
0.019078568 0.02590776 0.012136519
0.014033202 0.025919313 0.013022125
0.01118969 0.026564106 0.012395442
0.023250587 0.025029654 0.0085530281
0.020018954 0.02603584 0.0084525943
-0.00048531033 0.026986687 0.017791808
0.0078894403 0.026352268 0.01404959
0.0048114439 0.026989121 0.014132321
0.00076416694 0.02808575 0.013678789
0.016976157 0.025078159 0.0091580153
0.014099935 0.025759449 0.0096384883
0.0096992422 0.02698206 0.0096900463
0.0055030924 0.02770233 0.0088220239
0.0014973572 0.028300699 0.0079639554
0.023566231 0.02451165 0.0054762959
0.018572319 0.026044458 0.0056490302
0.014505831 0.02626868 0.0048217773
0.010286596 0.026888853 0.004195869
0.0057453052 0.027934456 0.0047684312
0.025858797 0.022928532 0.0011524558
0.023655463 0.025224432 0.0012497306
0.019490903 0.026486874 0.00061571598
0.01550694 0.026411809 0.0010031462
-0.00064261816 0.027962564 0.0064207911
0.0056342939 0.027463451 0.0020872355
0.0011965837 0.027478013 0.001935482
-0.0023429068 0.027350673 0.0011681318
