# .PCD v0.7 - Point Cloud Data file format
VERSION 0.7
FIELDS x y z
SIZE 4 4 4
TYPE F F F
COUNT 1 1 1
WIDTH 427
HEIGHT 1
VIEWPOINT 0 0 0 1 0 0 0
POINTS 427
DATA ascii
-0.029196441 0.02305086 0.17944598
-0.029893789 0.021913884 0.1795342
-0.023186911 0.02558546 0.17990389
-0.02536989 0.022630502 0.18195757
-0.026851567 0.019145407 0.18201438
-0.027820945 0.015288656 0.18174678
-0.028999168 0.010831978 0.18069547
-0.029741315 0.0061792922 0.17965397
-0.030600255 0.0026986301 0.18028289
-0.025157463 0.026468668 0.17788357
-0.027934056 0.024158189 0.17897028
-0.02959002 0.020231757 0.17877257
-0.030151419 0.016419154 0.17788172
-0.03074131 0.011725131 0.17671612
-0.030567389 0.0073507535 0.17696324
-0.026690397 0.027127404 0.17405015
-0.028852796 0.024576178 0.17429286
-0.030690262 0.021060126 0.17435703
-0.031172361 0.017038584 0.17333403
-0.031271596 0.013686904 0.17264137
-0.029103277 0.024069455 0.16919559
-0.030753065 0.021330113 0.1690329
-0.030834414 0.0185137 0.16904828
-0.030908281 0.022955803 0.16603801
-0.019019146 0.019907773 0.18328315
-0.020732155 0.016585777 0.18349791
-0.02240115 0.012977669 0.18340963
-0.023907341 0.0090876147 0.18282184
-0.025665076 0.0040467847 0.18244562
-0.026772147 0.00046518445 0.18308806
-0.021121994 0.021448568 0.18216723
-0.022924738 0.017523566 0.1825161
-0.024665441 0.013953681 0.18248808
-0.026505783 0.0097196382 0.18230826
-0.027576683 0.0051847044 0.18152687
-0.030418156 0.0020081485 0.17953527
-0.030832859 -0.0018150313 0.17919651
-0.031136386 0.0067532696 0.17480886
-0.03167868 0.0028953282 0.17440885
-0.032069061 -0.0013729781 0.1739136
-0.022996664 0.027370846 0.17127293
-0.030997224 0.010944277 0.17091101
-0.03141886 0.0072530922 0.17021862
-0.032008175 0.0032214224 0.16926503
-0.032529488 -0.00016651675 0.16939759
-0.025887372 0.026897443 0.16804516
-0.028052691 0.025617335 0.16817859
-0.031114357 0.016860884 0.16750547
-0.031581987 0.012490317 0.16660649
-0.031884406 0.0078131771 0.16545936
-0.032304637 0.0034704003 0.16588515
-0.026522916 0.027394624 0.16314137
-0.028722266 0.025049914 0.16340357
-0.030287635 0.021241415 0.16295737
-0.031057382 0.017466769 0.16243008
-0.031582203 0.013603219 0.16199964
-0.032082934 0.01070579 0.16267288
-0.027158596 0.027473483 0.15946275
-0.02922423 0.024995808 0.15882391
-0.03018669 0.02185145 0.15890691
-0.030975787 0.018301504 0.15897515
-0.019988157 0.00046601146 0.18233836
-0.021776047 -0.0016846429 0.18279418
-0.016240772 0.019413367 0.18377176
-0.01792711 0.015419083 0.18402168
-0.018887248 0.01152683 0.18338242
-0.020080965 0.0073826658 0.18235907
-0.022023847 0.0039897845 0.18236443
-0.032285884 -0.0015008589 0.16713518
-0.03166125 0.0061995797 0.16268975
-0.031519987 0.0032512126 0.16251224
-0.032175429 -0.00081620179 0.16250446
-0.023271443 0.028180148 0.16032323
-0.030515406 0.012376234 0.15846574
-0.030958852 0.0081994347 0.15919191
-0.030833693 0.0034471396 0.15887162
-0.03192471 -0.00079660118 0.15864187
-0.026103774 0.027233694 0.15585986
-0.028076105 0.026076403 0.15654063
-0.029970881 0.021249687 0.15605032
-0.030652873 0.01737237 0.15604872
-0.030162178 0.013551691 0.15553254
-0.03014059 0.010165685 0.15558982
-0.028192081 0.024678856 0.15180027
-0.029628383 0.021665491 0.15177125
-0.030181088 0.01761394 0.15075096
-0.029980375 0.014611389 0.15142986
-0.028304107 0.02418638 0.14797536
-0.029549735 0.021847893 0.14711198
-0.030460663 0.018591633 0.14755768
-0.012604997 0.013314841 0.1826506
-0.013925531 0.0095269568 0.18227807
-0.015737411 0.0057064667 0.18260235
-0.017106308 0.0023489282 0.1823996
-0.030484326 0.0059358878 0.15623391
-0.030284591 0.0026678368 0.15571815
-0.031301375 -0.00096092653 0.15536731
-0.022340711 0.027217578 0.15507179
-0.029884696 0.012094335 0.15297472
-0.030140612 0.0079004727 0.1527769
-0.030735634 0.0032947129 0.15177357
-0.031027839 -0.00036516692 0.15146267
-0.025180649 0.025716595 0.15002143
-0.029965864 0.013084424 0.14878508
-0.030098584 0.0091756945 0.14798415
-0.030807806 0.0046234606 0.14816868
-0.026935298 0.025199257 0.14547342
-0.029233254 0.022235595 0.14373752
-0.03065707 0.018074613 0.14470431
-0.030156242 0.014007913 0.14447707
-0.029818954 0.010479321 0.14425001
-0.027717717 0.024992874 0.14126128
-0.029208237 0.022006022 0.14065561
-0.030008694 0.017978609 0.14075229
-0.0089367088 0.0074746367 0.18209583
-0.011001258 0.0042247232 0.18255243
-0.012745035 5.5879354e-08 0.18231061
-0.030655719 -0.0017667962 0.149032
-0.021932764 0.025976811 0.14780414
-0.030087614 0.0076333829 0.14532629
-0.030707417 0.0039324979 0.14528057
-0.030625971 -0.00089969672 0.14461088
-0.023252627 0.026390841 0.14277056
-0.029347084 0.012338765 0.1414226
-0.029934186 0.0089859739 0.14168552
-0.030854667 0.0044642724 0.14099216
-0.031207426 -0.0003008917 0.13980541
-0.02576874 0.02649482 0.13895875
-0.02861838 0.021173581 0.13772494
-0.029164495 0.017477704 0.13756412
-0.029156793 0.01340335 0.13724577
-0.030250788 0.0094984574 0.13665432
-0.031291693 0.0052705035 0.13609889
-0.03183277 0.00063477457 0.13655773
-0.024123894 0.029019184 0.13343152
-0.025684198 0.025698453 0.13376984
-0.02837692 0.021971054 0.13403648
-0.02918415 0.017967481 0.1331951
-0.030096769 0.014178859 0.13305265
-0.03084543 0.0099131027 0.13248315
-0.031863574 0.0066922363 0.13207853
-0.026456343 0.025028925 0.12990353
-0.028799461 0.022384916 0.12877938
-0.02964782 0.018569212 0.12857756
-0.030093672 0.015592671 0.12919909
-0.029690763 0.022632048 0.12494281
-0.030620305 0.020396752 0.12463528
-0.0066596884 0.0021123854 0.18262041
-0.031818684 -0.0016186647 0.13764888
-0.031457365 0.00032073259 0.1336354
-0.024831446 0.027219418 0.13139856
-0.030167043 0.013377463 0.13036531
-0.031101707 0.01012291 0.12988544
-0.031909797 0.0054660263 0.12995288
-0.031807102 0.0011565341 0.12947798
-0.024281904 0.02935998 0.12793687
-0.025459491 0.026502341 0.12739572
-0.030366717 0.018018618 0.12645423
-0.030190112 0.014091955 0.12657222
-0.030288843 0.010125109 0.12568814
-0.030922482 0.0057642832 0.12626442
-0.031489577 0.003071907 0.12571335
-0.026540868 0.026553866 0.12322986
-0.029445279 0.023305606 0.12240931
-0.030479832 0.018545095 0.12261549
-0.029857034 0.014827595 0.12170315
-0.027807564 0.025339087 0.11950284
-0.029565109 0.022995491 0.11828738
-0.030385429 0.019340929 0.11787647
-0.0032598693 0.00068103219 0.18279275
-0.031154145 -5.6647696e-05 0.12625808
-0.030022012 0.0084656822 0.12272224
-0.030618789 0.0057474393 0.1231454
-0.031527329 0.0015135594 0.12301105
-0.031437952 -0.0025800345 0.12194288
-0.023683112 0.027373474 0.1190502
-0.029521121 0.013325603 0.11896771
-0.029565802 0.0098918844 0.11903214
-0.030327756 0.0057966919 0.11835194
-0.031221738 0.0020781662 0.11888021
-0.031497765 -0.0018718764 0.1181317
-0.024916271 0.026184652 0.11591291
-0.02829089 0.024252323 0.11559904
-0.030432155 0.0185351 0.11512423
-0.029464647 0.014455744 0.1148141
-0.029446622 0.010763422 0.114411
-0.026069704 0.024984302 0.11221683
-0.028612526 0.022909919 0.11170036
-0.030076541 0.019292828 0.11124051
-0.029654855 0.015456673 0.11046219
-0.028853953 0.022427984 0.10690731
-0.030144366 0.019528003 0.10649925
0.0027927768 -0.002240845 0.18319389
-0.02940101 0.0055069569 0.11536127
-0.03063903 0.0012687864 0.11552328
-0.031340007 -0.0028080307 0.11517149
-0.029404625 0.0094963973 0.11215693
-0.030171571 0.0059532016 0.11221403
-0.030683845 0.0017385334 0.11104858
-0.031444542 -0.0022102501 0.11041582
-0.022630952 0.026748899 0.10826081
-0.025923993 0.024600472 0.10870391
-0.029486205 0.014149505 0.10808426
-0.029362723 0.010261071 0.10732061
-0.03017105 0.0061641969 0.10641831
-0.030538561 0.0028203437 0.106767
-0.023255823 0.027196834 0.10419518
-0.026907517 0.02405905 0.10425311
-0.030169977 0.019663757 0.1036278
-0.030092165 0.015171364 0.10383672
-0.029911753 0.010662469 0.10298461
-0.030155877 0.0077760369 0.1030764
-0.027785597 0.022986641 0.1002475
-0.029451562 0.019371573 0.099253833
-0.029711628 0.015920509 0.099880755
0.0060391482 -0.0032302816 0.18320155
-0.030975835 0.0017724149 0.10501099
-0.031526629 -0.0024257824 0.10567045
-0.022930609 0.027210575 0.10128081
-0.029673003 0.010682956 0.099845231
-0.030405199 0.0062940633 0.10049254
-0.031012084 0.0020089168 0.10101491
-0.031386387 -0.0021038912 0.10032636
-0.022656932 0.026891243 0.09797287
-0.026207171 0.02425712 0.097446024
-0.028508188 0.020763405 0.096811414
-0.02907967 0.014840335 0.096425116
-0.029247589 0.01063168 0.096517563
-0.030124135 0.0065008104 0.096637487
-0.0307927 0.0030235769 0.096840143
-0.026870953 0.024000863 0.092768252
-0.029271005 0.019753268 0.093062341
-0.029505042 0.015840247 0.092033982
-0.029032137 0.011674363 0.093098998
-0.027929867 0.023648709 0.088164449
-0.029527403 0.0205952 0.087610185
-0.029803075 0.016717037 0.087667942
-0.028652254 0.0059890514 0.093289614
-0.029686147 0.0012971507 0.093521237
-0.03038758 -0.0023292648 0.093498051
-0.028833291 0.013699731 0.090390444
-0.028447989 0.010043272 0.090012252
-0.028583156 0.0061056758 0.089280784
-0.029778475 0.0021055648 0.088706136
-0.030563358 -0.001806424 0.089039922
-0.022577411 0.026311308 0.086200833
-0.025094559 0.025314324 0.086513221
-0.029597802 0.018744564 0.084947586
-0.028863629 0.014260758 0.086126029
-0.028776184 0.010869274 0.085247219
-0.02926052 0.0069089509 0.085618675
-0.03021599 0.0039129634 0.085736811
-0.023481868 0.02682386 0.083106816
-0.025973335 0.02506303 0.082186043
-0.028758194 0.020771431 0.082035482
-0.029200768 0.015722003 0.081435144
-0.029387387 0.012278051 0.081592023
-0.026952701 0.02397679 0.077769399
-0.028455097 0.021313183 0.077153802
-0.029091833 0.017328981 0.077936411
-0.029256698 0.022089288 0.073868871
-0.03069108 -0.0023443913 0.086226642
-0.029334711 0.0063643116 0.082750797
-0.03041371 0.0023858864 0.083043218
-0.0309502 -0.0017213058 0.082141936
-0.029421315 0.010880062 0.079055488
-0.02968098 0.0069740512 0.078418076
-0.030516332 0.00298882 0.077801168
-0.030789912 -0.00063370727 0.077714086
-0.022383353 0.026769791 0.075095832
-0.025551278 0.025428731 0.075879395
-0.029221103 0.016438164 0.075261652
-0.029275382 0.011703646 0.074103117
-0.029109385 0.0076447017 0.074153423
-0.026219577 0.024989884 0.071127594
-0.028816512 0.022027344 0.07118845
-0.029519562 0.017276 0.070329607
-0.029455947 0.014075165 0.068821728
-0.02827267 0.021994716 0.066891789
-0.028807219 0.019217638 0.066232741
-0.030098498 -0.0029095244 0.075586855
-0.029113185 0.010045538 0.07102555
-0.028689662 0.006802035 0.071437538
-0.029072957 0.002168606 0.071391881
-0.029785868 -0.0018822877 0.070973873
-0.024480946 0.025677759 0.068244517
-0.029285653 0.012014869 0.067860901
-0.029060448 0.0074807499 0.067667484
-0.029454561 0.0032289284 0.066568434
-0.030196041 -0.00055223051 0.067058623
-0.02451616 0.024640465 0.063753963
-0.027986001 0.022023812 0.063585043
-0.028734896 0.017608359 0.063217819
-0.029140631 0.013638215 0.062815964
-0.029458854 0.0094011212 0.063153744
-0.029354265 0.0058501014 0.063414633
-0.025106886 0.024590608 0.059079349
-0.027889179 0.022014724 0.058606565
-0.028702587 0.017985009 0.058447897
-0.029129487 0.013888737 0.058606207
-0.027968589 0.022421768 0.054441333
-0.028598981 0.018824557 0.055595815
-0.030195318 0.0015790286 0.064478636
-0.030573247 -0.00165674 0.065156102
-0.02219242 0.025794506 0.062253833
-0.029310921 0.0074533229 0.060925782
-0.029907931 0.0044498867 0.061001539
-0.030059699 0.000337773 0.060334742
-0.023671886 0.025985301 0.058003664
-0.029128289 0.012653516 0.056313455
-0.028631784 0.0093069123 0.05621618
-0.028424252 0.0049401261 0.056062877
-0.02468539 0.025720732 0.052952945
-0.028051795 0.023011239 0.05336988
-0.028706651 0.018010169 0.052687764
-0.028741216 0.014173666 0.052443624
-0.026255777 0.026369162 0.048585594
-0.02879546 0.022996411 0.049152851
-0.028619923 0.019312289 0.047905028
-0.027644966 0.023509588 0.044177115
-0.029399876 -0.0008253213 0.056651831
-0.02817248 0.0072286371 0.053651989
-0.028401995 0.0042550485 0.053340852
-0.029091002 -8.871872e-05 0.053566396
-0.027711302 0.012349667 0.04872781
-0.028282892 0.0089794537 0.049241066
-0.028503552 0.0042289486 0.048994005
-0.028889643 0.00026270002 0.049570501
-0.024872636 0.027668953 0.045559466
-0.028081249 0.017115362 0.04559207
-0.02802489 0.013861898 0.045330107
-0.028672112 0.009323433 0.044481337
-0.029322475 0.00515093 0.044650316
-0.025544705 0.026402753 0.041687429
-0.027861092 0.022740044 0.041347206
-0.028453501 0.018802093 0.041101456
-0.028454572 0.013997251 0.040957034
-0.029209133 0.0099843768 0.041226566
-0.029608335 0.006756397 0.041088402
-0.026514288 0.030241325 0.037558317
-0.025931288 0.027176041 0.037267268
-0.028472502 0.023604151 0.036791503
-0.028911937 0.018777926 0.036411762
-0.028709825 0.015778337 0.03770119
-0.026209192 0.030334678 0.033089995
-0.026834965 0.027097188 0.033882022
-0.028766707 0.023530157 0.031917512
-0.029490737 0.019360028 0.033542573
-0.028905012 -0.00033004768 0.046514928
-0.029448448 0.0035620928 0.041741967
-0.029343566 0.00038265437 0.042452574
-0.028422682 0.012547085 0.038219273
-0.02891667 0.0092885224 0.037832677
-0.02897775 0.0050493083 0.037717998
-0.028540434 0.00096251164 0.037766874
-0.028350186 0.014024174 0.034267962
-0.028472416 0.0096326536 0.033873439
-0.028923064 0.0059416313 0.033800066
-0.024894338 0.029873166 0.031716347
-0.026435144 0.027764734 0.030937314
-0.028563675 0.019145019 0.029431522
-0.028493457 0.015469778 0.030306816
-0.026141193 0.02754413 0.026526272
-0.028114621 0.023713863 0.026690781
-0.028361164 0.020247251 0.02580148
-0.028115226 0.0032411912 0.034090638
-0.028521804 -0.00014985073 0.035701215
-0.02762316 0.010186889 0.030157685
-0.028655155 0.0047375313 0.031465471
-0.029247966 0.00068381149 0.031900346
-0.027771199 0.013186585 0.027989388
-0.028033148 0.0094607668 0.027472258
-0.028842313 0.0053613307 0.027086794
-0.029628832 0.0010093758 0.027036846
-0.02998656 -0.0019751024 0.027177393
-0.027014032 0.023453444 0.022368968
-0.028049823 0.018795006 0.023475349
-0.027948432 0.014467423 0.023692727
-0.028403677 0.010219807 0.022575378
-0.02852075 0.0061538066 0.022843301
-0.024693877 0.026827283 0.01984477
-0.026816631 0.023522161 0.018990695
-0.028001782 0.019335538 0.019362509
-0.028108716 0.015037015 0.018918574
-0.028480368 0.011766072 0.018726468
-0.025604382 0.02627443 0.015819788
-0.027111046 0.023816794 0.01507014
-0.027605882 0.020897159 0.015352786
-0.028746739 0.00075442716 0.022921145
-0.02870333 0.0086924247 0.019778311
-0.0288097 0.0053698411 0.020004213
-0.028867092 0.001127108 0.019145072
-0.027412996 0.017673716 0.015954375
-0.027829105 0.014353255 0.015454173
-0.028729359 0.010218548 0.015862107
-0.028767532 0.0057381196 0.015336871
-0.02878885 0.0018277233 0.014773667
-0.024050143 0.02680232 0.01316756
-0.026526036 0.023746043 0.0112468
-0.027288675 0.019337995 0.0122208
-0.027346436 0.015001858 0.011709571
-0.028434552 0.010466345 0.011087716
-0.028884968 0.0074483487 0.012923121
-0.023564337 0.025740566 0.0093595386
-0.026547596 0.023896124 0.0080667138
-0.027393367 0.019571066 0.007705152
-0.026845584 0.016184051 0.008272469
-0.026410101 0.023221307 0.0043688416
-0.027065005 0.021155208 0.0040817261
-0.028749989 0.00043724757 0.013276637
-0.027009459 0.013072151 0.0092611313
-0.027986577 0.01035286 0.0089924335
-0.028609367 0.0056775245 0.0094608665
-0.029034346 0.0013569342 0.0082668662
-0.028531224 -0.0020456519 0.0085288882
-0.022017771 0.026229229 0.0055083632
-0.026919475 0.017929858 0.0047284961
-0.027106851 0.014640932 0.0053880811
-0.027847497 0.010458603 0.0045362115
-0.028664107 0.0062955376 0.0037655234
-0.029243993 0.0031461329 0.0048600435
-0.023150371 0.025987539 0.00031656027
-0.026023079 0.024191309 0.0016099215
-0.027512338 0.019689698 0.0013949275
-0.027107183 0.015568785 0.00021708012
-0.028463749 0.0013021147 0.0022390485
-0.028094247 -0.0024648439 0.0010493398
