# .PCD v0.7 - Point Cloud Data file format
VERSION 0.7
FIELDS x y z
SIZE 4 4 4
TYPE F F F
COUNT 1 1 1
WIDTH 460
HEIGHT 1
VIEWPOINT 0 0 0 1 0 0 0
POINTS 460
DATA ascii
-0.026220195 0.030869478 0.18179154
-0.029216792 0.027807556 0.18234521
-0.031740211 0.024535865 0.18105844
-0.027955372 0.031686462 0.17930627
-0.031158317 0.029473463 0.17958519
-0.033460017 0.025535794 0.17901367
-0.029252576 0.033253472 0.17519599
-0.032312099 0.030902103 0.17535201
-0.033882551 0.027021077 0.17593852
-0.032995 0.032210052 0.17125583
-0.03243535 0.014121915 0.18360856
-0.019975588 0.031190179 0.18115604
-0.023118177 0.029000614 0.1828593
-0.026979983 0.024659261 0.18335089
-0.031011131 0.021341324 0.18218237
-0.033696465 0.017754218 0.18133977
-0.035216488 0.014996762 0.17975062
-0.02152222 0.032758959 0.17748353
-0.025336003 0.032365896 0.17853338
-0.034202583 0.023431968 0.17749867
-0.035693642 0.020053994 0.17694747
-0.036022797 0.016027972 0.17605245
-0.022550402 0.033203807 0.17322898
-0.026115572 0.033449471 0.17395604
-0.034573734 0.02541573 0.17341352
-0.035809156 0.02071432 0.17210147
-0.027783453 0.033701632 0.16959959
-0.033184037 0.031768385 0.16811836
-0.035091702 0.02673216 0.16928393
-0.035940558 0.022931086 0.16937363
-0.029211434 0.033789504 0.16635245
-0.032744773 0.031570137 0.16417733
-0.034315959 0.02739419 0.16478837
-0.011975182 0.029313471 0.18301105
-0.014804034 0.026979422 0.18375811
-0.018716302 0.024333246 0.18372095
-0.0225199 0.021184528 0.18324772
-0.026435427 0.016381726 0.18294677
-0.028590472 0.012654098 0.18338481
-0.013390047 0.032123826 0.18032584
-0.017080121 0.030474421 0.18142757
-0.034665316 0.011660731 0.17951864
-0.014598748 0.033623986 0.17564237
-0.01867367 0.032999039 0.17558521
-0.035769768 0.012828836 0.17372373
-0.016287792 0.033702329 0.17081147
-0.019829389 0.033455353 0.17102206
-0.035866663 0.018457931 0.16897371
-0.035394289 0.014945653 0.17010465
-0.021395778 0.033373121 0.16678816
-0.024494993 0.033397831 0.16685501
-0.034451433 0.023824761 0.1655179
-0.034994505 0.019951498 0.16567099
-0.022353671 0.033689413 0.16331792
-0.026127916 0.033117149 0.16283926
-0.031467978 0.030953359 0.16088468
-0.033961654 0.025016537 0.16161457
-0.03393684 0.02127393 0.16219383
-0.027176086 0.032784883 0.15723601
-0.030970944 0.030960899 0.1568048
-0.033742707 0.026924646 0.15663588
-0.031460971 0.032319263 0.152107
-0.03349448 0.029487664 0.15258154
-0.033074837 0.032227993 0.14884174
-0.023980008 0.0076667955 0.18258429
-0.0090710698 0.028617904 0.1833173
-0.012438897 0.024623355 0.18402165
-0.014687085 0.020362487 0.18293867
-0.018318448 0.017017806 0.18211931
-0.021684457 0.013870118 0.1821304
-0.012065808 0.03370491 0.17360494
-0.013309257 0.033699483 0.16915187
-0.035100795 0.012567292 0.16698864
-0.014741066 0.033547927 0.16400599
-0.018444132 0.03353684 0.16476795
-0.033639461 0.016551366 0.16156727
-0.034501221 0.013206569 0.16236383
-0.015697708 0.033865381 0.16050833
-0.019373387 0.033160128 0.15990776
-0.023010306 0.032432187 0.15928885
-0.033164803 0.018192818 0.15824541
-0.034263454 0.013990391 0.158719
-0.021320492 0.033220559 0.15523052
-0.024171695 0.03293585 0.15598038
-0.033646598 0.023555022 0.15582028
-0.033203632 0.020393588 0.15449658
-0.026023697 0.033497766 0.15142512
-0.029629067 0.033107106 0.14959219
-0.034319691 0.026776718 0.15032929
-0.034693956 0.022719324 0.15028927
-0.026425296 0.033343989 0.14732984
-0.03071497 0.032232191 0.14590102
-0.03386043 0.028012661 0.14532733
-0.034712277 0.022940649 0.14667597
-0.033390347 0.028571336 0.1414822
-0.0082909418 0.02007987 0.18250167
-0.0105423 0.016283916 0.18209791
-0.014284351 0.013384801 0.1822544
-0.017918732 0.009654494 0.1822859
-0.035258591 0.011599854 0.15981895
-0.013252893 0.033421028 0.15773627
-0.016400136 0.032654576 0.15649769
-0.034396902 0.012833364 0.15581328
-0.014813231 0.033442296 0.15433004
-0.01768728 0.033037376 0.1535286
-0.033623107 0.017912377 0.15259373
-0.034336608 0.013954832 0.15155464
-0.019486204 0.033268582 0.14946392
-0.023441527 0.03356301 0.14889681
-0.033906594 0.01868492 0.14787996
-0.034172922 0.015566006 0.14828762
-0.020499684 0.033141281 0.14453626
-0.024106801 0.033050057 0.14456159
-0.027706098 0.031640291 0.14234504
-0.035020705 0.025717542 0.14262652
-0.035048701 0.021224929 0.14344722
-0.025310161 0.032151505 0.14009655
-0.029509392 0.031435031 0.13930154
-0.033841729 0.027945384 0.13931066
-0.035577152 0.022664482 0.13887513
-0.029850321 0.031603746 0.13501385
-0.03387998 0.029034561 0.13459584
-0.03553436 0.026014367 0.13358715
-0.033957772 0.028687449 0.13046515
-0.0072477725 0.013003114 0.18199933
-0.010395858 0.0094494922 0.18253115
-0.013622481 0.0055791172 0.18221343
-0.010699817 0.032972574 0.1507788
-0.034508836 0.011353261 0.14911604
-0.012676974 0.032833781 0.14593896
-0.016899399 0.033131771 0.14635533
-0.03385568 0.012878349 0.14466375
-0.017584998 0.033269726 0.14206561
-0.033844754 0.014522632 0.14007246
-0.018829297 0.032863896 0.13739073
-0.022342721 0.032322582 0.13796839
-0.035383195 0.019684022 0.13682631
-0.034852698 0.01633583 0.13626045
-0.019940069 0.033376284 0.13303587
-0.023830682 0.032769416 0.13357636
-0.028692758 0.031632531 0.13192493
-0.035594728 0.021720268 0.13297743
-0.035494786 0.01778903 0.1320872
-0.025336819 0.033347778 0.12832454
-0.029042892 0.031686585 0.12782997
-0.032899767 0.029207239 0.1277909
-0.03494193 0.02422609 0.12792036
-0.035274487 0.020024454 0.12839258
-0.026306378 0.033661421 0.12375522
-0.029471105 0.032098863 0.1230582
-0.032628711 0.02919515 0.12269932
-0.034612752 0.025228862 0.12415472
-0.0061661256 0.0051845266 0.18256304
-0.0047748117 0.010554671 0.18171906
-0.011694174 0.033013515 0.13979739
-0.034330621 0.011682948 0.13883042
-0.012603553 0.032599781 0.13591796
-0.015480597 0.032725703 0.1349209
-0.034752268 0.013514977 0.13379413
-0.018182255 0.033455893 0.13082352
-0.035174802 0.015325218 0.12930453
-0.034877826 0.012787226 0.12821355
-0.019716941 0.033613741 0.12635732
-0.022017797 0.033596568 0.127435
-0.035140015 0.018148014 0.12541828
-0.019579401 0.0337415 0.12251145
-0.023667326 0.033711646 0.12251893
-0.028533321 0.032755107 0.1204907
-0.033495855 0.02769867 0.12014663
-0.034532554 0.02385246 0.12131712
-0.035007201 0.019357432 0.12151247
-0.024847265 0.033501755 0.1175701
-0.0294143 0.032740161 0.11705101
-0.032919791 0.029548157 0.1170153
-0.034168102 0.024818435 0.11665863
-0.02596052 0.033945996 0.1140911
-0.029860564 0.032598365 0.11215597
-0.032942228 0.029905209 0.11141181
-0.034334987 0.026803736 0.11136192
-0.032910869 0.031193813 0.10821873
-0.0031197043 0.0021038076 0.18271846
-0.010300882 0.031971648 0.12877473
-0.013942228 0.032207809 0.12866718
-0.01544075 0.031822048 0.12338328
-0.034820177 0.015292007 0.12278312
-0.035000049 0.012069803 0.12211722
-0.017631799 0.032069113 0.11874938
-0.021173548 0.033314403 0.1191802
-0.034382608 0.016618537 0.11781025
-0.035115652 0.012373477 0.11846477
-0.021992318 0.033818282 0.11548609
-0.034274526 0.022770394 0.11462635
-0.034535527 0.018398723 0.11394733
-0.023942567 0.033510163 0.1105268
-0.02802575 0.032871384 0.11062604
-0.034407623 0.024014905 0.11028111
-0.03470641 0.020475954 0.1090402
-0.02511787 0.033649333 0.1057108
-0.028880883 0.033115193 0.10703832
-0.03305399 0.030349366 0.10586882
-0.034420978 0.024929624 0.10581785
-0.035287105 0.021248594 0.10584021
-0.028723596 0.032918025 0.10318005
-0.032052137 0.030138908 0.10182083
-0.033916038 0.026886692 0.10240906
0.0020241851 -0.0030974154 0.18297988
-0.010876128 0.030986309 0.12233675
-0.013249379 0.031573705 0.1174708
-0.034887847 0.01112859 0.11542231
-0.016210217 0.032231428 0.11230797
-0.034429483 0.015487054 0.11105955
-0.034981027 0.012104253 0.11102307
-0.017357979 0.032526944 0.1081301
-0.019321593 0.032231167 0.10794711
-0.034733098 0.017151104 0.10722715
-0.03449297 0.013495009 0.1060847
-0.021595407 0.033393078 0.10421389
-0.033892691 0.023433007 0.10243529
-0.034981556 0.019731542 0.10249043
-0.023539854 0.033063192 0.099183559
-0.027800305 0.032227091 0.099378347
-0.03181006 0.028339647 0.099214077
-0.033099048 0.023986921 0.098405242
-0.034500223 0.020786073 0.099291801
-0.028278926 0.032333467 0.095020235
-0.031434927 0.029367045 0.094662547
-0.03261536 0.025959907 0.095316827
-0.029081995 0.031776197 0.090861738
-0.031542912 0.030280866 0.090773761
0.0088564884 -0.0031420456 0.18310526
0.00538594 -0.0064830342 0.18294203
-0.010504426 0.032023598 0.11531532
-0.011276003 0.031914905 0.1117093
-0.01374704 0.032108646 0.10613477
-0.035176005 0.011160747 0.10513943
-0.015372628 0.032360531 0.10174102
-0.01928113 0.032706499 0.10031384
-0.034350328 0.015898913 0.10143137
-0.03482645 0.011802042 0.10038692
-0.017028335 0.032875724 0.098292649
-0.019988617 0.032525849 0.096603692
-0.033598531 0.022349725 0.095759928
-0.034264892 0.018105689 0.096190691
-0.022913404 0.032855388 0.092800558
-0.025830578 0.032931317 0.092838287
-0.033200953 0.024142701 0.092352927
-0.034624096 0.019313671 0.091337204
-0.022964891 0.032635905 0.088213563
-0.027477745 0.03287755 0.088423848
-0.032133888 0.030004809 0.088232577
-0.033933494 0.02544071 0.08774066
-0.034834344 0.021249373 0.086305141
-0.028539926 0.032601919 0.083464205
-0.032086458 0.030677872 0.083799183
-0.033915769 0.026601374 0.083197296
-0.029548842 0.033054568 0.077822328
-0.032107189 0.031044638 0.07799691
-0.010509945 0.031449601 0.09972477
-0.01276475 0.032064069 0.095110416
-0.015995685 0.032121427 0.094369471
-0.033769798 0.011304404 0.09387511
-0.017177312 0.031926714 0.090574622
-0.03501159 0.017195713 0.089586437
-0.034206305 0.012894065 0.08874321
-0.01956437 0.032043263 0.08613044
-0.034599356 0.017579876 0.085089028
-0.034686595 0.014802489 0.084049821
-0.021644469 0.031720351 0.081986785
-0.024610149 0.03173184 0.08051151
-0.033202078 0.024349358 0.080048263
-0.034324288 0.01966574 0.080611646
-0.027604531 0.03230064 0.07686156
-0.033146147 0.025591219 0.0765149
-0.033701073 0.021150522 0.077108324
-0.029267205 0.033090405 0.072637796
-0.0317632 0.03100762 0.072739303
-0.033308841 0.026836986 0.072120368
-0.03129939 0.030799773 0.06830436
-0.033327285 0.028258614 0.06788522
-0.011442477 0.031961441 0.088261425
-0.012777038 0.032551982 0.083442152
-0.015969709 0.032242659 0.08389467
-0.03487169 0.011557868 0.082292795
-0.017555669 0.0321224 0.079338968
-0.021229265 0.031523921 0.078627825
-0.033993736 0.016743734 0.077742994
-0.034984723 0.013834897 0.078267753
-0.018725932 0.031542778 0.075301945
-0.021858655 0.03125716 0.07474488
-0.033188477 0.023124348 0.073937237
-0.033485949 0.019153696 0.073806703
-0.034353558 0.014965674 0.073858559
-0.024528518 0.031660732 0.070695937
-0.032893699 0.023646466 0.069510996
-0.033112481 0.020404326 0.068738639
-0.028100353 0.032293301 0.066449106
-0.031297348 0.03097352 0.065346003
-0.032857105 0.025608076 0.065035522
-0.030129401 0.030009009 0.06157428
-0.031871501 0.027142938 0.061317444
-0.010237023 0.031830162 0.077156484
-0.014629189 0.032062776 0.075497687
-0.034374662 0.011396394 0.074854195
-0.012156331 0.032079902 0.073195755
-0.015604347 0.031402115 0.072360635
-0.032911278 0.015981343 0.07063514
-0.034065753 0.012109156 0.070883214
-0.016187873 0.031458545 0.068372905
-0.020990452 0.03119923 0.068134427
-0.033135496 0.017600544 0.06659168
-0.033712521 0.013478886 0.066524506
-0.017812952 0.031350587 0.064476907
-0.022290103 0.030916246 0.06368041
-0.032403596 0.022959664 0.062188089
-0.032781489 0.019084591 0.062761605
-0.033507306 0.014627008 0.062981129
-0.022968005 0.031073695 0.058838606
-0.028091108 0.030056452 0.058606446
-0.031392429 0.025517784 0.057727754
-0.032505907 0.021540597 0.057789624
-0.02782033 0.03012695 0.053824723
-0.031291865 0.027311558 0.053102732
-0.032607239 0.023650628 0.053422749
-0.028616827 0.030721551 0.049977899
-0.031615164 0.028060136 0.04890722
-0.033478543 0.024715211 0.050396264
-0.01124788 0.032594789 0.06624651
-0.015248692 0.032195255 0.06566596
-0.034065552 0.011136102 0.065337479
-0.015628813 0.031326652 0.061229229
-0.01959005 0.031025868 0.061114967
-0.03280104 0.016332828 0.061552465
-0.032997161 0.013781035 0.059730828
-0.016723216 0.030804349 0.05632782
-0.020061553 0.031196935 0.056816041
-0.032916166 0.019054018 0.057039261
-0.031982854 0.015785627 0.055613935
-0.022268713 0.031265792 0.052650094
-0.026165232 0.031206574 0.052381933
-0.032815117 0.020419471 0.051581383
-0.023574341 0.032153904 0.047774434
-0.027432425 0.031346329 0.048173785
-0.032568254 0.026282486 0.04772383
-0.033304751 0.022804167 0.047468066
-0.028382821 0.030996017 0.043352783
-0.031587094 0.028171489 0.043373287
-0.032206804 0.023816643 0.04287225
-0.029168671 0.030380525 0.03891629
-0.030872164 0.028590379 0.038768709
-0.012756233 0.031361483 0.058672547
-0.032775871 0.011788772 0.05677247
-0.010092456 0.032240257 0.055055678
-0.01458547 0.031516604 0.05455488
-0.032215793 0.013366614 0.053253651
-0.010985467 0.032466751 0.051079273
-0.015262126 0.032105871 0.050060213
-0.019574564 0.031728685 0.050109863
-0.032195099 0.013632186 0.048630834
-0.016135249 0.032872852 0.045765519
-0.020670487 0.032545134 0.045459211
-0.032773979 0.020390391 0.043882132
-0.032754473 0.015443484 0.044647098
-0.017482694 0.033304341 0.041870117
-0.022481199 0.032600261 0.040989697
-0.026049811 0.031782661 0.041178644
-0.032017637 0.026149143 0.040005386
-0.03212218 0.021525955 0.039661586
-0.032435536 0.017011398 0.040921867
-0.022798821 0.032888882 0.036866009
-0.027242213 0.030951036 0.036068261
-0.031033209 0.027740739 0.035870194
-0.032327548 0.022403337 0.036170423
-0.024195328 0.032751977 0.03334105
-0.027362419 0.030742321 0.0317716
-0.030337458 0.02786169 0.031667769
-0.032410264 0.02457295 0.032913446
-0.010231919 0.032272924 0.043188989
-0.013253487 0.032920744 0.043145359
-0.0333471 0.013101342 0.042195976
-0.033373393 0.010126542 0.041979253
-0.014807094 0.032916877 0.038304508
-0.032515168 0.014865058 0.037535906
-0.033239491 0.010801183 0.037561715
-0.017183077 0.032636352 0.035651505
-0.0198735 0.032330763 0.033445537
-0.031821657 0.020001939 0.03255254
-0.032048877 0.016205218 0.033153951
-0.02109039 0.031775244 0.029251397
-0.025369845 0.031035956 0.029395282
-0.031015983 0.026486143 0.029776931
-0.031979077 0.022341553 0.029143512
-0.026762424 0.030449476 0.025153339
-0.030151263 0.027462382 0.024918199
-0.031559926 0.023355478 0.024559915
-0.027975542 0.030225124 0.021128356
-0.030233223 0.027777616 0.020884871
-0.0326408 0.012753213 0.034184873
-0.010334021 0.033004902 0.03414762
-0.013890201 0.032671865 0.033104062
-0.032484513 0.013549119 0.031042635
-0.032822825 0.010067662 0.031028688
-0.014643455 0.032615043 0.02841264
-0.018558472 0.032178912 0.027626991
-0.031283922 0.018957395 0.026619732
-0.032333169 0.01548319 0.027447701
-0.016386274 0.032582458 0.024490178
-0.02041385 0.031891819 0.024229944
-0.023683732 0.030508179 0.023101389
-0.032041002 0.021375913 0.023014247
-0.032937396 0.017285377 0.022231281
-0.021824881 0.032203585 0.019228101
-0.025527989 0.031012343 0.019483268
-0.03038823 0.027497683 0.01810962
-0.032481723 0.022723399 0.018701851
-0.033769585 0.018366743 0.01802057
-0.026630685 0.030949073 0.014647663
-0.03026546 0.028468955 0.01461798
-0.032513574 0.02410532 0.014124811
-0.027071431 0.031141371 0.010393322
-0.030657908 0.028778588 0.010995567
-0.032505944 0.025915908 0.010237753
-0.012821 0.032582447 0.024591506
-0.032309849 0.012933193 0.023425162
-0.013952021 0.032277931 0.021173537
-0.017872963 0.031948321 0.020645261
-0.033299807 0.014117253 0.020437717
-0.032793596 0.011200717 0.019381583
-0.015425202 0.032178905 0.016125321
-0.018651217 0.032177292 0.016926169
-0.03323457 0.016154706 0.014677227
-0.032917067 0.011473847 0.016382992
-0.020225707 0.031517472 0.012224913
-0.023739168 0.031266175 0.01175046
-0.032363735 0.021739416 0.010342121
-0.033250812 0.018176012 0.011101782
-0.021551322 0.031716391 0.0074785352
-0.025581451 0.031015443 0.0072470307
-0.029625183 0.027972614 0.006593287
-0.032084845 0.022775851 0.0066406131
-0.0328421 0.019114595 0.0082032084
-0.02502265 0.030659994 0.0037691593
-0.029141765 0.027691996 0.0028447509
-0.031332068 0.023845658 0.003831327
-0.010769876 0.03212988 0.018809497
-0.011304078 0.0315038 0.014813781
-0.014449582 0.031627961 0.0097618103
-0.017077507 0.031081755 0.0095057487
-0.03226671 0.013610305 0.0086731315
-0.031859592 0.010776246 0.0077049136
-0.01431457 0.031782445 0.0054064989
-0.018273847 0.03165061 0.0051704049
-0.032350481 0.016093023 0.0034937263
-0.020221703 0.032031029 0.00031489134
-0.024242844 0.030551851 0.00045138597
-0.028362723 0.02706898 -0.00022685528
-0.031313211 0.022466844 9.9182129e-05
-0.032612998 0.018356873 -0.00074541569
-0.010914438 0.030934177 0.0033931136
-0.031844277 0.0098175472 0.001594305
-0.012883934 0.030748338 -0.00051856041
