# .PCD v0.7 - Point Cloud Data file format
VERSION 0.7
FIELDS x y z
SIZE 4 4 4
TYPE F F F
COUNT 1 1 1
WIDTH 427
HEIGHT 1
VIEWPOINT 0 0 0 1 0 0 0
POINTS 427
DATA ascii
-0.034062516 0.026892668 0.17944598
-0.034876086 0.0255662 0.1795342
-0.027051397 0.029849704 0.17990389
-0.029598204 0.026402254 0.18195757
-0.031326827 0.022336308 0.18201438
-0.032457769 0.017836764 0.18174678
-0.033832364 0.012637309 0.18069547
-0.034698203 0.0072091743 0.17965397
-0.035700299 0.0031484021 0.18028289
-0.02935037 0.03088011 0.17788357
-0.03258973 0.028184552 0.17897028
-0.034521692 0.023603717 0.17877257
-0.035176653 0.019155679 0.17788172
-0.03586486 0.013679318 0.17671612
-0.035661954 0.0085758772 0.17696324
-0.031138794 0.031648636 0.17405015
-0.0336616 0.028672207 0.17429286
-0.035805304 0.024570148 0.17435703
-0.036367755 0.019878348 0.17333403
-0.03648353 0.015968055 0.17264137
-0.033953827 0.02808103 0.16919559
-0.035878576 0.024885131 0.1690329
-0.035973486 0.021599317 0.16904828
-0.036059659 0.026781771 0.16603801
-0.022189002 0.023225736 0.18328315
-0.024187513 0.019350071 0.18349791
-0.026134675 0.015140614 0.18340963
-0.027891899 0.010602216 0.18282184
-0.029942589 0.004721249 0.18244562
-0.031234171 0.00054271519 0.18308806
-0.024642324 0.02502333 0.18216723
-0.026745528 0.02044416 0.1825161
-0.028776348 0.016279293 0.18248808
-0.030923413 0.011339578 0.18230826
-0.032172795 0.0060488214 0.18152687
-0.035487849 0.0023428397 0.17953527
-0.035971668 -0.002117536 0.17919651
-0.036325783 0.0078788139 0.17480886
-0.03695846 0.0033778828 0.17440885
-0.037413903 -0.0016018078 0.1739136
-0.026829442 0.031932652 0.17127293
-0.036163431 0.012768324 0.17091101
-0.036655333 0.008461941 0.17021862
-0.037342872 0.0037583262 0.16926503
-0.037951067 -0.00019426923 0.16939759
-0.030201931 0.031380348 0.16804516
-0.032728139 0.02988689 0.16817859
-0.036300082 0.01967103 0.16750547
-0.036845651 0.014572037 0.16660649
-0.037198473 0.0091153719 0.16545936
-0.037688743 0.0040488001 0.16588515
-0.030943403 0.031960394 0.16314137
-0.03350931 0.029224899 0.16340357
-0.035335571 0.024781648 0.16295737
-0.036233611 0.020377895 0.16243008
-0.036845904 0.01587042 0.16199964
-0.037430093 0.012490089 0.16267288
-0.031685028 0.032052398 0.15946275
-0.034094937 0.029161777 0.15882391
-0.035217803 0.025493355 0.15890691
-0.036138415 0.021351753 0.15897515
-0.023319513 0.00054367911 0.18233836
-0.025405388 -0.0019654166 0.18279418
-0.018947566 0.022648927 0.18377176
-0.020914961 0.017988931 0.18402168
-0.022035122 0.013447966 0.18338242
-0.023427792 0.0086131096 0.18235907
-0.025694489 0.0046547488 0.18236443
-0.037666865 -0.0017510029 0.16713518
-0.03693812 0.0072328425 0.16268975
-0.03677332 0.0037930813 0.16251224
-0.037537999 -0.00095223635 0.16250446
-0.027150018 0.032876842 0.16032323
-0.035601307 0.01443894 0.15846574
-0.03611866 0.0095660072 0.15919191
-0.035972644 0.0040216642 0.15887162
-0.037245497 -0.00092936866 0.15864187
-0.030454401 0.031772643 0.15585986
-0.032755457 0.030422471 0.15654063
-0.034966026 0.024791304 0.15605032
-0.035761684 0.020267764 0.15604872
-0.035189208 0.015810305 0.15553254
-0.035164021 0.011859965 0.15558982
-0.032890759 0.028792001 0.15180027
-0.034566447 0.025276406 0.15177125
-0.035211273 0.020549595 0.15075096
-0.034977105 0.017046619 0.15142986
-0.033021457 0.028217446 0.14797536
-0.03447469 0.025489209 0.14711198
-0.03553744 0.021690238 0.14755768
-0.014705827 0.015533982 0.1826506
-0.016246453 0.011114783 0.18227807
-0.018360313 0.0066575445 0.18260235
-0.019957356 0.0027404162 0.1823996
-0.035565048 0.0069252024 0.15623391
-0.035332024 0.0031124763 0.15571815
-0.036518268 -0.0011210805 0.15536731
-0.026064161 0.031753838 0.15507179
-0.03486548 0.014110058 0.15297472
-0.035164043 0.0092172176 0.1527769
-0.03585824 0.00384383 0.15177357
-0.036199145 -0.00042602792 0.15146267
-0.029377427 0.030002695 0.15002143
-0.034960177 0.01526516 0.14878508
-0.035115015 0.010704977 0.14798415
-0.035942439 0.0053940369 0.14816868
-0.031424511 0.02939913 0.14547342
-0.034105461 0.025941527 0.14373752
-0.035766579 0.02108705 0.14470431
-0.035182282 0.016342565 0.14447707
-0.034788776 0.012225875 0.14425001
-0.032337338 0.029158354 0.14126128
-0.034076273 0.025673691 0.14065561
-0.035010144 0.020975042 0.14075229
-0.010426161 0.0087204091 0.18209583
-0.0128348 0.004928844 0.18255243
-0.014869208 6.5658242e-08 0.18231061
-0.035765003 -0.0020612618 0.149032
-0.025588222 0.030306276 0.14780414
-0.035102215 0.0089056129 0.14532629
-0.03582532 0.0045879139 0.14528057
-0.035730299 -0.0010496462 0.14461088
-0.027128063 0.030789316 0.14277056
-0.034238268 0.014395227 0.1414226
-0.034923218 0.010483636 0.14168552
-0.035997111 0.0052083172 0.14099216
-0.036408663 -0.00035104062 0.13980541
-0.030063534 0.030910622 0.13895875
-0.033388108 0.024702512 0.13772494
-0.034025248 0.020390656 0.13756412
-0.034016255 0.015637239 0.13724577
-0.035292588 0.011081534 0.13665432
-0.036506973 0.0061489204 0.13609889
-0.037138231 0.00074057095 0.13655773
-0.028144542 0.033855718 0.13343152
-0.029964898 0.029981527 0.13376984
-0.033106409 0.025632897 0.13403648
-0.034048174 0.020962058 0.1331951
-0.035112899 0.016542003 0.13305265
-0.035986334 0.011565286 0.13248315
-0.037174173 0.0078076092 0.13207853
-0.030865733 0.029200414 0.12990353
-0.033599373 0.026115732 0.12877938
-0.034589119 0.021664079 0.12857756
-0.035109282 0.018191449 0.12919909
-0.034639228 0.026404057 0.12494281
-0.035723686 0.023796212 0.12463528
-0.0077696363 0.0024644495 0.18262041
-0.037121795 -0.0018884428 0.13764888
-0.036700256 0.00037418865 0.1336354
-0.028970024 0.031755988 0.13139856
-0.035194885 0.01560704 0.13036531
-0.036285326 0.011810062 0.12988544
-0.037228096 0.0063770297 0.12995288
-0.037108287 0.0013492899 0.12947798
-0.028328884 0.034253307 0.12793687
-0.02970274 0.030919399 0.12739572
-0.035427835 0.021021722 0.12645423
-0.035221796 0.016440615 0.12657222
-0.035336982 0.011812625 0.12568814
-0.036076229 0.006724997 0.12626442
-0.036737837 0.0035838913 0.12571335
-0.030964345 0.03097951 0.12322986
-0.034352824 0.027189877 0.12240931
-0.035559803 0.021635942 0.12261549
-0.0348332 0.01729886 0.12170315
-0.032442153 0.029562268 0.11950284
-0.034492627 0.026828073 0.11828738
-0.035449665 0.022564415 0.11787647
-0.0038031808 0.00079453766 0.18279275
-0.036346503 -6.6090375e-05 0.12625808
-0.035025679 0.0098766293 0.12272224
-0.03572192 0.0067053456 0.1231454
-0.036781881 0.0017658193 0.12301105
-0.03667761 -0.0030100392 0.12194288
-0.027630297 0.031935718 0.1190502
-0.034441307 0.015546536 0.11896771
-0.034493435 0.011540532 0.11903214
-0.035382379 0.0067628063 0.11835194
-0.03642536 0.002424527 0.11888021
-0.036747389 -0.0021838555 0.1181317
-0.029068979 0.030548759 0.11591291
-0.033006042 0.028294377 0.11559904
-0.035504181 0.021624284 0.11512423
-0.034375422 0.016865036 0.1148141
-0.034354392 0.012557325 0.114411
-0.030414652 0.029148351 0.11221683
-0.03338128 0.026728239 0.11170036
-0.035089299 0.022508297 0.11124051
-0.03459733 0.018032784 0.11046219
-0.033662945 0.026165981 0.10690731
-0.035168421 0.02278267 0.10649925
0.0032582395 -0.0026143189 0.18319389
-0.034301177 0.0064247837 0.11536127
-0.035745535 0.0014802497 0.11552328
-0.036563341 -0.0032760361 0.11517149
-0.034305397 0.011079131 0.11215693
-0.035200167 0.0069454019 0.11221403
-0.035797816 0.0020282893 0.11104858
-0.036685299 -0.0025786255 0.11041582
-0.026402779 0.031207049 0.10826081
-0.03024466 0.028700549 0.10870391
-0.034400575 0.016507754 0.10808426
-0.034256514 0.011971249 0.10732061
-0.03519956 0.0071915626 0.10641831
-0.035628323 0.0032904008 0.106767
-0.027131792 0.031729639 0.10419518
-0.031392101 0.028068889 0.10425311
-0.035198305 0.022941049 0.1036278
-0.035107527 0.017699925 0.10383672
-0.034897048 0.012439547 0.10298461
-0.035181854 0.0090720411 0.1030764
-0.03241653 0.026817746 0.1002475
-0.034360152 0.02260017 0.099253833
-0.034663565 0.018573925 0.099880755
0.0070456737 -0.0037686618 0.18320155
-0.036138471 0.0020678174 0.10501099
-0.036781065 -0.0028300788 0.10567045
-0.026752379 0.031745672 0.10128081
-0.034618501 0.012463449 0.099845231
-0.035472732 0.0073430743 0.10049254
-0.036180764 0.0023437357 0.10101491
-0.03661745 -0.0024545407 0.10032636
-0.026433088 0.031373117 0.09797287
-0.030575035 0.028299972 0.097446024
-0.033259556 0.024223972 0.096811414
-0.033926278 0.017313723 0.096425116
-0.034122188 0.012403627 0.096517563
-0.035144825 0.0075842789 0.096637487
-0.035924815 0.0035275063 0.096840143
-0.031349447 0.028001007 0.092768252
-0.034149505 0.02304548 0.093062341
-0.03442255 0.01848029 0.092033982
-0.033870824 0.01362009 0.093098998
-0.032584842 0.027590159 0.088164449
-0.034448639 0.024027735 0.087610185
-0.034770254 0.01950321 0.087667942
-0.03342763 0.0069872267 0.093289614
-0.034633838 0.0015133414 0.093521237
-0.03545218 -0.0027174754 0.093498051
-0.033638839 0.015983019 0.090390444
-0.033189319 0.01171715 0.090012252
-0.033347014 0.0071232882 0.089280784
-0.034741554 0.0024564927 0.088706136
-0.035657253 -0.0021074945 0.089039922
-0.026340311 0.030696524 0.086200833
-0.029276988 0.029533379 0.086513221
-0.03453077 0.021868657 0.084947586
-0.033674236 0.016637551 0.086126029
-0.033572212 0.012680819 0.085247219
-0.034137271 0.0080604432 0.085618675
-0.03525199 0.0045651244 0.085736811
-0.027395515 0.031294502 0.083106816
-0.030302225 0.0292402 0.082186043
-0.033551224 0.024233334 0.082035482
-0.034067564 0.018342337 0.081435144
-0.034285285 0.014324391 0.081592023
-0.031444818 0.027972922 0.077769399
-0.033197615 0.02486538 0.077153802
-0.033940472 0.020217143 0.077936411
-0.034132808 0.025770836 0.073868871
-0.035806257 -0.002735124 0.086226642
-0.034223828 0.0074250293 0.082750797
-0.03548266 0.0027835341 0.083043218
-0.036108568 -0.0020081904 0.082141936
-0.034324866 0.012693406 0.079055488
-0.03462781 0.0081363926 0.078418076
-0.035602387 0.0034869555 0.077801168
-0.035921562 -0.00073932577 0.077714086
-0.026113909 0.031231422 0.075095832
-0.029809823 0.029666852 0.075879395
-0.034091283 0.019177858 0.075261652
-0.034154609 0.013654252 0.074103117
-0.033960946 0.0089188181 0.074153423
-0.030589506 0.029154863 0.071127594
-0.033619262 0.025698569 0.07118845
-0.034439493 0.020155335 0.070329607
-0.03436527 0.016421026 0.068821728
-0.032984782 0.0256605 0.066891789
-0.033608418 0.022420578 0.066232741
-0.035114914 -0.0033944445 0.075586855
-0.033965379 0.011719795 0.07102555
-0.033471271 0.0079357065 0.071437538
-0.033918448 0.0025300402 0.071391881
-0.034750178 -0.0021960018 0.070973873
-0.0285611 0.029957388 0.068244517
-0.034166597 0.014017347 0.067860901
-0.033903852 0.0087275421 0.067667484
-0.034363657 0.0037670834 0.066568434
-0.035228711 -0.0006442694 0.067058623
-0.028602185 0.028747208 0.063753963
-0.032650337 0.025694449 0.063585043
-0.033524044 0.020543087 0.063217819
-0.033997402 0.015911249 0.062815964
-0.034368668 0.010967975 0.063153744
-0.034246642 0.0068251183 0.063414633
-0.029291367 0.028689044 0.059079349
-0.032537371 0.025683844 0.058606565
-0.033486351 0.020982511 0.058447897
-0.0339844 0.016203526 0.058606207
-0.032630023 0.02615873 0.054441333
-0.033365477 0.021961981 0.055595815
-0.035227872 0.0018422008 0.064478636
-0.03566879 -0.0019328631 0.065156102
-0.025891159 0.03009359 0.062253833
-0.034196075 0.0086955447 0.060925782
-0.034892585 0.0051915348 0.061001539
-0.035069648 0.00039406866 0.060334742
-0.027617201 0.030316181 0.058003664
-0.033983003 0.014762434 0.056313455
-0.033403747 0.010858065 0.05621618
-0.033161625 0.0057634804 0.056062877
-0.028799625 0.030007523 0.052952945
-0.032727093 0.026846444 0.05336988
-0.033491097 0.021011867 0.052687764
-0.03353142 0.016535943 0.052443624
-0.030631736 0.030764021 0.048585594
-0.033594701 0.026829146 0.049152851
-0.033389907 0.022531005 0.047905028
-0.032252464 0.027427852 0.044177115
-0.034299854 -0.00096287578 0.056651831
-0.032867894 0.0084334109 0.053651989
-0.03313566 0.0049642236 0.053340852
-0.033939503 -0.0001035044 0.053566396
-0.03232985 0.014407944 0.04872781
-0.032996707 0.010476029 0.049241066
-0.033254143 0.0049337735 0.048994005
-0.033704583 0.00030648336 0.049570501
-0.029018076 0.032280445 0.045559466
-0.032761455 0.019967921 0.04559207
-0.032695703 0.016172213 0.045330107
-0.033450797 0.010877339 0.044481337
-0.034209553 0.0060094185 0.044650316
-0.029802157 0.030803211 0.041687429
-0.032504603 0.026530048 0.041347206
-0.033195753 0.021935776 0.041101456
-0.033197001 0.016330127 0.040957034
-0.034077324 0.011648441 0.041226566
-0.03454306 0.0078824628 0.041088402
-0.030933339 0.035281546 0.037558317
-0.030253168 0.031705379 0.037267268
-0.033217918 0.027538173 0.036791503
-0.033730593 0.021907579 0.036411762
-0.033494797 0.01840806 0.03770119
-0.030577391 0.035390455 0.033089995
-0.031307459 0.031613387 0.033882022
-0.033561155 0.02745185 0.031917512
-0.034405861 0.0225867 0.033542573
-0.033722512 -0.00038505532 0.046514928
-0.034356523 0.0041557755 0.041741967
-0.034234159 0.00044643041 0.042452574
-0.033159796 0.014638267 0.038219273
-0.033736117 0.010836609 0.037832677
-0.033807375 0.0058908588 0.037717998
-0.033297174 0.001122931 0.037766874
-0.033075213 0.016361536 0.034267962
-0.033217818 0.011238095 0.033873439
-0.033743575 0.0069319042 0.033800066
-0.029043399 0.034852028 0.031716347
-0.030840997 0.032392189 0.030937314
-0.03332429 0.022335857 0.029431522
-0.033242363 0.018048074 0.030306816
-0.030498059 0.03213482 0.026526272
-0.032800384 0.027666172 0.026690781
-0.033088025 0.023621792 0.02580148
-0.032801095 0.0037813885 0.034090638
-0.033275437 -0.00017482508 0.035701215
-0.032227021 0.011884705 0.030157685
-0.033431012 0.0055271192 0.031465471
-0.034122624 0.00079778023 0.031900346
-0.032399729 0.015384349 0.027989388
-0.032705341 0.01103756 0.027472258
-0.033649366 0.0062548849 0.027086794
-0.034566969 0.0011776062 0.027036846
-0.03498432 -0.0023042858 0.027177393
-0.031516373 0.027362354 0.022368968
-0.032724794 0.021927508 0.023475349
-0.032606501 0.016878659 0.023692727
-0.033137623 0.011923107 0.022575378
-0.033274207 0.0071794409 0.022843301
-0.028809525 0.0312985 0.01984477
-0.031286072 0.027442522 0.018990695
-0.032668743 0.022558127 0.019362509
-0.0327935 0.017543184 0.018918574
-0.033227094 0.013727085 0.018726468
-0.02987178 0.030653501 0.015819788
-0.031629555 0.027786262 0.01507014
-0.032206859 0.024380021 0.015352786
-0.033537857 0.00088016503 0.022921145
-0.033487216 0.010141161 0.019778311
-0.033611316 0.0062648142 0.020004213
-0.033678275 0.0013149604 0.019145072
-0.03198183 0.020619333 0.015954375
-0.032467291 0.016745463 0.015454173
-0.033517584 0.011921639 0.015862107
-0.03356212 0.0066944729 0.015336871
-0.03358699 0.002132345 0.014773667
-0.028058499 0.031269372 0.01316756
-0.030947041 0.027703719 0.0112468
-0.031836785 0.022560993 0.0122208
-0.031904176 0.017502166 0.011709571
-0.033173643 0.012210735 0.011087716
-0.033699129 0.0086897407 0.012923121
-0.027491726 0.03003066 0.0093595386
-0.030972192 0.02787881 0.0080667138
-0.031958926 0.022832911 0.007705152
-0.031319849 0.018881395 0.008272469
-0.030811787 0.027091522 0.0043688416
-0.03157584 0.024681076 0.0040817261
-0.033541653 0.00051012263 0.013276637
-0.031511039 0.015250843 0.0092611313
-0.032651003 0.012078337 0.0089924335
-0.033377595 0.006623779 0.0094608665
-0.033873402 0.0015830901 0.0082668662
-0.033286426 -0.0023865933 0.0085288882
-0.025687398 0.030600768 0.0055083632
-0.031406052 0.020918164 0.0047284961
-0.03162466 0.017081086 0.0053880811
-0.032488748 0.012201702 0.0045362115
-0.033441454 0.0073447931 0.0037655234
-0.034117993 0.0036704876 0.0048600435
-0.027008766 0.030318797 0.00031656027
-0.030360259 0.028223194 0.0016099215
-0.032097727 0.022971313 0.0013949275
-0.031625044 0.018163584 0.00021708012
-0.033207707 0.0015191343 0.0022390485
-0.03277662 -0.0028756512 0.0010493398
