# .PCD v0.7 - Point Cloud Data file format
VERSION 0.7
FIELDS x y z
SIZE 4 4 4
TYPE F F F
COUNT 1 1 1
WIDTH 364
HEIGHT 1
VIEWPOINT 0 0 0 1 0 0 0
POINTS 364
DATA ascii
-0.011099319 0.028169272 0.18357322
-0.010391385 0.030144248 0.18014932
-0.013595878 0.030115381 0.1803523
-0.014775849 0.031123739 0.17650893
0.011118528 0.025082743 0.18320554
0.0073918048 0.025428109 0.18344501
0.0034304075 0.025224311 0.18309242
-0.00018609641 0.025119781 0.18237633
-0.0058250404 0.024974737 0.18256268
-0.0096636498 0.025631802 0.18384179
0.011457408 0.027860951 0.18089518
0.007627429 0.028251324 0.18062079
0.0035339803 0.028300371 0.18044609
-0.001028339 0.027951071 0.18003845
-0.0058337925 0.028475864 0.1800926
-0.0086079268 0.029028807 0.18035442
0.011666853 0.029572353 0.17580315
0.0075819413 0.029819727 0.17552954
0.0037367649 0.029878378 0.17537645
-0.0009345162 0.029983215 0.175282
-0.0053861085 0.029902749 0.17492768
-0.0094477618 0.030413032 0.17443669
-0.013232551 0.030709861 0.17423624
0.015829856 0.029940862 0.17172778
0.011850341 0.030035276 0.17159539
0.0075518861 0.030394027 0.17118782
0.0037550549 0.030469947 0.17020127
0.00014836181 0.030533144 0.16977063
-0.0046430775 0.030739496 0.16945255
-0.0092772627 0.031319108 0.16965196
-0.013238438 0.031118987 0.16929922
-0.0058525493 0.031616502 0.16638947
-0.0094033265 0.031859279 0.16565928
-0.013533283 0.031873226 0.16497013
-0.017042099 0.032054953 0.16431856
0.0087658241 0.019041283 0.1834521
-0.0065525845 0.018661482 0.18238476
-0.009893598 0.020010762 0.18317917
0.011704899 0.022786926 0.18402544
0.0073789149 0.022625582 0.18413836
0.0034180777 0.021974444 0.18346414
-0.00079899526 0.021875177 0.18244883
-0.0042483178 0.021672862 0.18212387
0.012007286 0.02927828 0.16828203
0.0082705952 0.029934015 0.16840348
0.0047099325 0.030220322 0.16770437
-0.0012522399 0.030024393 0.16725254
0.012230622 0.028892145 0.16339192
0.0082013961 0.029732466 0.16382805
0.0041819396 0.030637214 0.16431397
0.00019115896 0.030896137 0.1643092
-0.0041760365 0.031035457 0.16382533
-0.0087161763 0.030881627 0.16246423
-0.012151442 0.031433038 0.16286552
0.015685774 0.029867856 0.16061273
0.012355686 0.029785294 0.16038069
0.0080375718 0.029906886 0.15979218
0.0043757418 0.03038054 0.15950754
0.00037676308 0.030497227 0.15939495
-0.0042776712 0.03025593 0.15897381
-0.0089348946 0.030138526 0.15864772
-0.013074281 0.030626686 0.15811849
0.0071622855 0.016220059 0.18226129
0.0034808801 0.016480003 0.1820733
-0.00075413968 0.016897662 0.18272674
-0.0045807245 0.016377876 0.18267778
0.013169491 0.029326255 0.15728191
0.0087593943 0.029520597 0.15702307
0.0045014946 0.029950211 0.15639707
0.00049392297 0.030058317 0.15627861
-0.0041781883 0.030161927 0.15612313
-0.0088400245 0.029731035 0.155554
-0.011507765 0.029680813 0.15538049
0.0131087 0.029754793 0.15357071
0.0086700208 0.029844046 0.15279374
0.0046428386 0.030211227 0.15287852
0.00064065895 0.029841337 0.15238798
-0.003644339 0.029797504 0.15232486
-0.0082264245 0.029767361 0.1517145
-0.01272834 0.029796531 0.15168035
0.0014495237 0.029985156 0.14879903
-0.0045818738 0.03007395 0.14856645
-0.0077066375 0.030060053 0.14839882
-0.011274387 0.029621957 0.14787495
0.0035010146 0.012468644 0.18168113
-0.00030676273 0.011780416 0.18255252
-0.0049433536 0.011100718 0.18210346
0.014150447 0.029017672 0.15055189
0.013655577 0.028870124 0.14665031
0.0089358073 0.029160926 0.14664319
0.0049025137 0.029193215 0.14646649
0.00069550384 0.029355526 0.1458472
-0.0029852486 0.029364416 0.14597219
-0.0079133622 0.029361095 0.14533114
-0.012715462 0.029182585 0.14534134
-0.015648955 0.029850176 0.14470506
0.01398714 0.028672663 0.14235583
0.0091431942 0.028985279 0.14179504
0.004946149 0.029374175 0.14118594
0.0010728843 0.029700842 0.14101759
-0.0029671213 0.029748254 0.1408546
-0.0074976329 0.029619558 0.14069793
-0.012108711 0.029479416 0.1399945
0.00053675851 0.029906018 0.13736486
-0.0028113441 0.03008616 0.13658392
-0.0068244049 0.030531459 0.13560373
-0.01114166 0.030263184 0.13536286
0.0035057615 0.0066948454 0.18172479
-0.0005927672 0.0067812884 0.18249413
0.0034982702 0.0094542503 0.18183434
0.013864933 0.028849229 0.13989055
0.0092645353 0.028982162 0.13895494
0.0065492732 0.02937351 0.13913405
0.014182823 0.028579528 0.13506484
0.0094475178 0.028436933 0.13471481
0.0053880112 0.028341703 0.13443607
0.0015117798 0.029373867 0.13453484
-0.0027272217 0.030497739 0.13435262
-0.013534174 0.030390397 0.13420606
-0.01595572 0.030341759 0.13385624
0.0089155883 0.028828178 0.13118294
0.0014605401 0.028714094 0.1307213
-0.0027763061 0.02998209 0.13017845
-0.0066380743 0.030934403 0.13021928
-0.011366359 0.030674405 0.12977296
-0.01609638 0.030264461 0.12920463
-0.0078556156 0.030160598 0.12569144
-0.011245068 0.030147107 0.12551349
-0.015435078 0.030335527 0.1250782
-0.00061789661 0.0032559973 0.18278134
0.014470061 0.028000426 0.12885892
0.0099032652 0.028581467 0.12856209
0.0056141727 0.028477447 0.12881428
0.0015739561 0.02855771 0.12772024
-0.0017941305 0.028895566 0.12687057
0.014693419 0.027880108 0.12395239
0.0099302428 0.028616617 0.12336028
0.0058249175 0.029108303 0.12356514
0.0017525449 0.028709345 0.12303472
-0.002338445 0.029060023 0.12312418
-0.0062553771 0.030021684 0.12348926
-0.010296077 0.030141337 0.12308007
-0.015127505 0.030156968 0.12230524
0.0093842847 0.029286709 0.12002021
0.0059883706 0.029445035 0.11950123
0.0018917563 0.028999381 0.11941332
-0.0022034645 0.02917942 0.11936313
-0.0065447269 0.029659867 0.11877608
-0.010326833 0.030250158 0.11792058
-0.014687386 0.030913556 0.1184575
-0.014548333 0.030990599 0.11367941
-0.00065674982 -0.0028169837 0.1831784
0.012769004 0.028001141 0.1210539
0.01114885 0.028661525 0.11725092
0.0061117718 0.028924584 0.11644799
0.0020198892 0.028363824 0.11597145
-0.0020801099 0.028262207 0.11568576
-0.0058276253 0.028567927 0.1152733
0.011071441 0.028575081 0.11268753
0.0061227242 0.02882266 0.11192232
0.0023823164 0.028293321 0.11160642
-0.0017463616 0.028411491 0.11119086
-0.0060255434 0.028798752 0.11106628
-0.010139899 0.029620886 0.11156297
-0.013857367 0.030448997 0.11062187
0.0057627731 0.029174056 0.10803956
-0.010013724 0.02908613 0.10719931
-0.014099054 0.030076554 0.10686648
0.0034588545 -0.0070914538 0.18322933
-0.00066202285 -0.0073086875 0.18286306
0.01119826 0.028546726 0.10973155
0.0077684652 0.028461661 0.1094926
0.0015948423 0.028308596 0.10906243
-0.0032068517 0.028189506 0.10872787
0.011304802 0.029016957 0.10719031
0.0065180575 0.029451881 0.10634756
0.0023756812 0.028915849 0.10667127
-0.0017433602 0.028852651 0.10641748
-0.0060142782 0.029138396 0.10571784
-0.009926076 0.029613528 0.1047073
-0.01401391 0.029858144 0.10373604
0.011514987 0.029045567 0.10229331
0.006850827 0.029678617 0.10236973
0.0026960613 0.029592888 0.10194671
-0.001580839 0.029464195 0.1020245
-0.0054934928 0.029558711 0.10135305
-0.0097743841 0.029866884 0.10000139
-0.013899532 0.029898813 0.09983027
0.0070771365 0.029894114 0.098194659
0.0024582404 0.029753923 0.097321093
-0.0014143361 0.029923031 0.097480893
-0.0055468269 0.029797452 0.097172737
-0.0096510984 0.029930796 0.096100092
-0.013785737 0.030453902 0.096358836
0.012521447 0.027716827 0.095227122
0.0081757884 0.028023772 0.093957603
0.0029055867 0.027519925 0.092598319
-0.0012656267 0.028048959 0.092862606
-0.0054171481 0.027876582 0.092512429
-0.0095741479 0.02822859 0.092622042
-0.013724432 0.028650027 0.092793047
0.012701426 0.027551806 0.091093659
0.007164719 0.028295824 0.090339541
0.0030001441 0.028176837 0.090178788
-0.0011607156 0.028142912 0.089950085
-0.005504454 0.028108018 0.089281976
-0.0094517786 0.028522816 0.088887155
-0.013609538 0.028876355 0.089000881
-0.010722098 0.029436706 0.085625648
-0.013749383 0.02954895 0.084777594
0.01280964 0.027622158 0.088580549
0.008928163 0.02796747 0.088069558
0.0031134419 0.028204527 0.087198675
-0.0010470874 0.027870808 0.086704135
-0.0045189946 0.027738485 0.086421192
0.013015199 0.028294856 0.083719432
0.0088187782 0.028717468 0.083898127
0.0039387564 0.028968267 0.083891273
-0.00092410017 0.028772235 0.083485126
-0.0050942902 0.028673939 0.083198965
-0.0090855453 0.028853469 0.082918286
-0.013045453 0.029244252 0.081820309
0.0090079056 0.028124366 0.079330504
0.0041013397 0.028735757 0.079649031
-0.00074186322 0.028700914 0.078374088
-0.0049280538 0.028857198 0.078317463
-0.0089164414 0.029409017 0.077865779
-0.013262738 0.03001596 0.0779562
-0.014539706 0.029685512 0.073539138
0.013277289 0.02736911 0.077834845
0.0091158235 0.0275141 0.076753438
0.0049037798 0.027922001 0.076923192
0.0021003985 0.028188996 0.077032149
-0.0055106264 0.027969718 0.074439943
-0.010407999 0.02853574 0.074722588
0.01349696 0.027379889 0.072757483
0.0092868488 0.027397616 0.072575271
0.0050774352 0.027438028 0.072414398
0.00086587371 0.027664151 0.072422087
-0.0037446215 0.027692966 0.071823061
-0.0089113554 0.02802556 0.071270645
-0.01282828 0.029087916 0.07185185
0.013395581 0.028072257 0.068470776
0.0094706183 0.028041039 0.068052828
0.0049714497 0.02789993 0.067917407
0.0010713501 0.02836086 0.06692636
-0.0034282808 0.028355138 0.066915333
-0.008243354 0.028830068 0.066735268
-0.012965048 0.028872114 0.0667395
-0.0023183667 0.029400025 0.063616931
-0.0086355573 0.029243333 0.063176692
-0.012847017 0.029138954 0.062883258
0.014153101 0.027968494 0.065634191
0.0096017113 0.027925882 0.064867735
0.0056896703 0.028544936 0.065771401
0.013926755 0.027685458 0.062783837
0.0096716378 0.028285759 0.0631423
0.0053127897 0.027985096 0.061182201
0.0012876382 0.028715424 0.061083853
-0.0031263456 0.029174004 0.060716808
-0.0069467998 0.029342294 0.060696006
-0.011350342 0.029003976 0.059733391
0.0014498801 0.028275542 0.056539893
-0.0020782547 0.028188024 0.056294024
-0.0070103994 0.028799057 0.056119204
-0.01125353 0.028300932 0.055974126
0.0098572206 0.026859336 0.058718741
0.0063405754 0.027482834 0.058100522
0.014063646 0.026975924 0.055645049
0.010009603 0.027293138 0.054974258
0.0057484107 0.027671508 0.055131495
0.0015486955 0.027784927 0.053741872
-0.0028842231 0.027666194 0.053090096
-0.0069089192 0.02787648 0.052447259
-0.011158165 0.027804237 0.052390754
0.014434893 0.02739164 0.051096737
0.010179378 0.027323944 0.050835907
0.0057231854 0.027705841 0.050542414
0.0017230838 0.028022749 0.049015164
-0.002535763 0.02824872 0.049033344
-0.0067855888 0.028098159 0.048694313
-0.011034295 0.027864676 0.048276663
0.001857012 0.028705563 0.04547894
-0.0025958957 0.029016444 0.045122147
-0.0066386452 0.029000912 0.044584036
-0.011070527 0.028857246 0.04424274
-0.015141226 0.028875997 0.043811262
0.010304597 0.027408957 0.047779441
0.0067513348 0.027403645 0.047610641
0.010468668 0.027600441 0.043761849
0.0061910711 0.027779818 0.04373765
0.0019729745 0.028666632 0.042290926
-0.0015865898 0.028874824 0.042328298
-0.0065624258 0.028965406 0.042187572
-0.0094028125 0.028894953 0.041989625
0.0135242 0.027027983 0.039125741
0.010655863 0.02727163 0.039230049
0.0060295495 0.027431641 0.03864342
0.0021120538 0.027826462 0.038316727
-0.002172461 0.028106332 0.038391232
-0.0064546173 0.028494818 0.038571179
-0.010725535 0.028373836 0.038259149
-0.014967722 0.028326884 0.036960959
0.010742391 0.027271425 0.037113369
0.006846081 0.027443597 0.036040604
0.00223658 0.027523194 0.03484571
-0.0027627496 0.027316997 0.034417331
-0.0063366159 0.02732558 0.034262955
-0.01062452 0.027398739 0.034138858
0.010878427 0.028175766 0.033747554
0.0066052023 0.028308289 0.033074498
0.0023300196 0.028332455 0.032447577
-0.0017647619 0.0280111 0.032403529
-0.006244415 0.028015392 0.031747758
-0.010533947 0.027991073 0.031529367
-0.014822232 0.027922049 0.031267107
0.0151962 0.02861253 0.02857697
0.011291089 0.028603947 0.028047085
0.0068184701 0.028621368 0.027593791
0.0024833526 0.028414607 0.028265655
-0.0018086623 0.028062293 0.027724087
-0.006108609 0.028056161 0.027523696
-0.010564809 0.028324382 0.026783586
-0.014676076 0.028189912 0.026196837
0.0097933104 0.028134074 0.025102794
0.0026289362 0.027428167 0.024080157
-0.0016714337 0.026830725 0.023294151
-0.0059923162 0.027140021 0.02340579
-0.0088705346 0.02740344 0.02353698
0.011379298 0.027753968 0.021566689
0.0070651472 0.027550476 0.021169901
0.0027549202 0.02715775 0.020584822
-0.0018524445 0.026634846 0.020072818
-0.0058901017 0.027214305 0.020252645
-0.01018391 0.028055243 0.019819021
-0.014498773 0.027804799 0.019375086
-0.0057863062 0.027194994 0.016996801
-0.010037497 0.02779351 0.014698744
-0.014725375 0.027716056 0.01441139
-5.7238685e-05 0.025834577 0.018059015
0.011643017 0.026805028 0.015216768
0.0073032794 0.026764154 0.014981568
0.0029734275 0.026446939 0.014468789
-0.0013694457 0.026566284 0.014394701
-0.0056799697 0.027031252 0.013583899
-0.0099854646 0.027327213 0.012603462
-0.013597321 0.02701577 0.012127936
0.011889116 0.027294671 0.009185195
0.00753257 0.027129395 0.0090964437
0.0029624146 0.02708791 0.0092024207
-0.0011700363 0.027639985 0.0089549422
-0.0055183251 0.02781507 0.0089392662
-0.0098607838 0.027857576 0.0087890625
-0.014200598 0.027594974 0.0083292127
-0.0013752221 0.028094735 0.0044874549
-0.005548487 0.028628929 0.0038318634
-0.0096797636 0.028525166 0.0031898618
-0.013847696 0.028234258 0.0027070045
0.0076364256 0.026895711 0.0064021945
0.0040080929 0.026772533 0.0061155558
0.012121299 0.027126485 0.0035435557
0.0077696675 0.026753733 0.0029687285
0.0034002531 0.026840381 0.002864182
-0.00022257947 0.027791109 0.0025810599
