# .PCD v0.7 - Point Cloud Data file format
VERSION 0.7
FIELDS x y z
SIZE 4 4 4
TYPE F F F
COUNT 1 1 1
WIDTH 436
HEIGHT 1
VIEWPOINT 0 0 0 1 0 0 0
POINTS 436
DATA ascii
-0.026225435 0.032345232 0.18192023
-0.029603563 0.030596806 0.18204457
-0.023405727 0.035524335 0.17858493
-0.02624022 0.034397222 0.17847896
-0.03091437 0.032268286 0.17830381
-0.028098652 0.035311546 0.17490226
-0.030709866 0.033565953 0.17527676
-0.020174384 0.026908692 0.18360093
-0.024017207 0.027171185 0.18406531
-0.027377725 0.026312048 0.18377057
-0.010593131 0.034302637 0.18067923
-0.015450872 0.033315845 0.18157813
-0.020471325 0.03193178 0.18214169
-0.023883011 0.030097846 0.18262714
-0.029858127 0.02646488 0.18255183
-0.015975418 0.035692547 0.17717421
-0.020727016 0.035097521 0.17778093
-0.033102013 0.0312062 0.1761362
-0.033367425 0.027669517 0.17585108
-0.016949233 0.035488017 0.17316604
-0.021687534 0.035953201 0.17306489
-0.025893476 0.03525174 0.17324609
-0.030541487 0.033413634 0.17243227
-0.032986391 0.030200617 0.17232722
-0.021944389 0.03622216 0.16891822
-0.026647974 0.035808116 0.16907334
-0.03045222 0.034093961 0.16851509
-0.032538615 0.030482737 0.16831249
-0.029590204 0.033883668 0.16432327
0.00083845295 0.031886332 0.18312824
-0.0033810092 0.0306996 0.18343914
-0.0077157738 0.029056532 0.18332171
-0.012390564 0.027119525 0.18296787
-0.018130168 0.025118487 0.18358815
-0.022034977 0.023167001 0.18446663
0.0002997648 0.034312274 0.18032038
-0.0046985811 0.033788137 0.18064192
-0.0084859487 0.033156253 0.18138242
-0.012626757 0.030922431 0.18268302
0.003027074 0.036215376 0.177275
-0.00065525621 0.035740096 0.1765168
-0.0047818953 0.035416257 0.17538989
-0.0098892273 0.035230327 0.17565465
-0.0064388695 0.035501525 0.1714673
-0.0098227784 0.035211209 0.1703859
-0.014734332 0.034975082 0.17034334
-0.011331661 0.035713103 0.16711619
-0.015501685 0.035266135 0.16604388
-0.020698942 0.035338826 0.16564038
-0.025061518 0.034826871 0.16578427
-0.031380013 0.032024249 0.16537157
-0.032653917 0.028530089 0.16493195
-0.020719217 0.034761142 0.16193852
-0.025536709 0.034342177 0.16191274
-0.030151075 0.032882705 0.16145563
-0.032889422 0.029959433 0.16072842
-0.026363546 0.034073878 0.15762335
-0.029622609 0.033126961 0.15672585
-0.032382235 0.031078408 0.15763956
-0.0089999288 0.020025332 0.18280241
-0.014214747 0.018381925 0.18285361
-0.020230161 0.017600954 0.18402004
0.0024667503 0.029735591 0.1839903
-0.0022660606 0.027940292 0.18431333
-0.00612674 0.025211349 0.18346414
-0.0099576795 0.0223915 0.18255582
-0.014318398 0.021609738 0.1822221
0.00061389524 0.035312641 0.17320111
0.00030278414 0.034768682 0.16831741
-0.004270724 0.035188321 0.16876534
-0.0076625943 0.034887224 0.16767785
-0.00073617697 0.034886453 0.16439205
-0.0040361127 0.03484292 0.16320717
-0.0090932222 0.0352154 0.16426963
-0.012794476 0.035610728 0.16368413
-0.005664363 0.035099503 0.16000944
-0.0091918819 0.03468712 0.15975821
-0.013668883 0.034177449 0.15927851
-0.018185483 0.033783309 0.15888664
-0.014145073 0.033736851 0.15539479
-0.019049164 0.032965176 0.15427247
-0.024567302 0.033978947 0.1553244
-0.030920045 0.031914651 0.1541543
-0.03258568 0.029333251 0.15435457
-0.020494277 0.033319619 0.15091938
-0.025044514 0.033907987 0.15005523
-0.029586561 0.033159312 0.15001374
-0.031600047 0.029841769 0.14925584
-0.025415486 0.034598708 0.14481938
-0.029339075 0.033650663 0.14397424
9.5248688e-05 0.021568632 0.18239722
-0.0037024233 0.019511975 0.18238842
-0.0076223603 0.016607199 0.18327847
-0.012310769 0.015035773 0.18296361
0.0022156695 0.033985749 0.16239637
0.00023683719 0.034780912 0.15793765
-0.0033701435 0.034548197 0.15708464
-0.0080425562 0.034130037 0.1566582
-0.0043707537 0.034251019 0.15299255
-0.0084294593 0.034518093 0.15279192
-0.012959544 0.033793211 0.15277955
-0.016563127 0.033837121 0.15225783
-0.0094779115 0.034803029 0.14883626
-0.013437224 0.034872822 0.14849901
-0.018483408 0.033609457 0.14842227
-0.03249187 0.027926831 0.14822179
-0.013971749 0.035336826 0.14391059
-0.018751929 0.034503255 0.14397696
-0.023244983 0.034781184 0.14273754
-0.030954804 0.033175401 0.14191675
-0.032281436 0.029947206 0.14386186
-0.01906595 0.035093371 0.14049631
-0.023978252 0.035463449 0.1383667
-0.029548444 0.034186125 0.13849965
-0.031863652 0.030689348 0.13823035
-0.025209203 0.036367945 0.13441861
-0.029049855 0.034806386 0.1337567
-0.0020111827 0.014424559 0.18230477
-0.0055962317 0.01171927 0.18279856
-0.0099661089 0.010028884 0.1820468
0.0028613703 0.034327269 0.15022746
-0.0024837889 0.03411502 0.15062451
0.0010830052 0.034338642 0.14622661
-0.0032056225 0.034530733 0.14626801
-0.0074722804 0.034380313 0.14624593
-0.0038944902 0.03453739 0.1417807
-0.0079207793 0.034677956 0.14150512
-0.01208492 0.035151485 0.1414839
-0.0093147382 0.034370944 0.13782826
-0.013047775 0.034721944 0.13723838
-0.017742611 0.034829713 0.13759395
-0.032376371 0.02724429 0.13646305
-0.014165579 0.034284417 0.13316453
-0.018068997 0.034937937 0.13312975
-0.023681471 0.035331022 0.13185763
-0.030056767 0.033339962 0.13111299
-0.032283925 0.030565586 0.13256258
-0.024047893 0.035080604 0.12770915
-0.029171571 0.034332294 0.12712795
-0.031809941 0.031034691 0.12679574
-0.024140026 0.034715667 0.12429437
-0.028877612 0.03402961 0.12254715
-0.032830738 0.031040438 0.12384838
-0.0038486794 0.0075582014 0.18190214
0.0004412774 0.011689398 0.18162769
-0.0010674046 0.034368873 0.14356944
0.0031098099 0.033852827 0.14041504
-0.0017854031 0.033950306 0.13903189
-0.0030348105 0.033336528 0.13510111
-0.0070068026 0.033814352 0.13479966
-0.010726407 0.034095693 0.13416201
-0.0084906528 0.033185404 0.13114068
-0.011837239 0.033101704 0.13025445
-0.016062189 0.03313721 0.12901711
-0.017224371 0.03284362 0.12589264
-0.020513162 0.033971209 0.12581789
-0.032277524 0.029367603 0.12642175
-0.022098577 0.033479538 0.12105113
-0.027390471 0.033876836 0.12064889
-0.031921342 0.031148225 0.12082466
-0.02367888 0.034292299 0.11715585
-0.02767963 0.033903833 0.11670309
-0.031513341 0.031159287 0.11720061
-0.027328458 0.034519739 0.11257213
-0.029923718 0.033366621 0.11220723
-0.0020914292 0.0032719257 0.18187597
-0.0010825964 0.033109557 0.13259739
0.002603556 0.033303004 0.12906933
-0.0017156657 0.033324488 0.12800056
-0.0064094472 0.033150569 0.1284821
-0.010602876 0.032522034 0.12734756
-0.0031547602 0.033715356 0.12352997
-0.0067799683 0.034117084 0.12367603
-0.011588282 0.033204179 0.1241827
-0.015295158 0.032582738 0.12334424
-0.0073063588 0.034799751 0.11873227
-0.011536669 0.033718523 0.11871827
-0.016377162 0.032887712 0.11929637
-0.019642957 0.032543804 0.11886895
-0.012430818 0.034189634 0.1153698
-0.016329166 0.033381265 0.11380112
-0.021210546 0.033828083 0.11500007
-0.031409755 0.029756466 0.11362898
-0.017683927 0.034298673 0.11021227
-0.021758148 0.034503512 0.11004126
-0.026539277 0.034727085 0.10989982
-0.031064432 0.030918201 0.10953182
-0.022226948 0.03501616 0.10611814
-0.026858252 0.034876507 0.10568923
-0.030533025 0.032467794 0.10518366
-0.027437411 0.0345699 0.10169858
-0.031101285 0.033023566 0.10151505
0.00045572946 -0.0023217909 0.18253088
0.00057806727 0.032779437 0.1223579
-0.0012461562 0.033534322 0.11762494
-0.0049008438 0.034598865 0.11677754
-0.0017741658 0.033759996 0.11351234
-0.0068016602 0.034972608 0.11285573
-0.011206759 0.034230463 0.11259955
-0.0080285268 0.034758937 0.10884613
-0.011441902 0.03415532 0.10785252
-0.015945168 0.034501988 0.1079756
-0.012609191 0.03388859 0.1034587
-0.016733097 0.034994904 0.10352457
-0.0210473 0.034352735 0.10271186
-0.031938683 0.030635303 0.10298175
-0.03231816 0.027286854 0.10170335
-0.018204495 0.035296068 0.09991616
-0.021473352 0.033845097 0.09920764
-0.025959354 0.033337116 0.098156691
-0.030698512 0.032315183 0.097957909
-0.0333414 0.029183706 0.09787339
-0.02696106 0.033366643 0.094143271
-0.030605925 0.032527722 0.093140543
-0.033259876 0.030493658 0.093345165
0.006477451 -0.0058667529 0.18269396
0.0022417773 -0.0073929704 0.18261537
0.0023031561 0.033013221 0.1164363
0.00078514684 0.033702817 0.11144835
-0.0043337904 0.034146011 0.1094926
-0.00067921448 0.03360606 0.10651571
-0.005643521 0.034288529 0.10676366
-0.010130174 0.034016211 0.10491097
-0.0057583251 0.033792399 0.10195762
-0.01080073 0.034499355 0.10122222
-0.014485271 0.034584899 0.10046494
-0.0072213467 0.03407884 0.098309636
-0.011209105 0.034621488 0.096904337
-0.015856292 0.034657579 0.096651316
-0.020593166 0.033887427 0.096348822
-0.023951657 0.03285687 0.095664322
-0.012104091 0.034957737 0.092694998
-0.016091401 0.035283994 0.091443419
-0.020927437 0.034322448 0.091978371
-0.025347531 0.033846021 0.092094302
-0.033367559 0.028021783 0.090606868
-0.016781097 0.035264891 0.087613165
-0.021406109 0.035485838 0.087208033
-0.026046138 0.03461903 0.087519884
-0.030491604 0.032777723 0.087323844
-0.033275951 0.031118669 0.086834848
-0.022752421 0.035466302 0.083285987
-0.026393499 0.035060562 0.08313024
-0.030743247 0.033363353 0.082062781
-0.033243634 0.031461086 0.082071006
0.0017812122 0.032223158 0.099046946
-0.0018436927 0.032585207 0.099408209
0.00031527039 0.033252321 0.094861865
-0.0039962307 0.032823071 0.094852507
-0.0080840532 0.032517184 0.093437314
-0.0058463677 0.033461224 0.089948177
-0.0090436731 0.033554327 0.090018928
-0.010896729 0.034534302 0.08624965
-0.015428889 0.035348933 0.085825145
-0.019067401 0.034866773 0.083902538
-0.011926765 0.034693897 0.081934154
-0.015603174 0.034287006 0.08177954
-0.019959413 0.034002259 0.080281496
-0.025471399 0.033923361 0.079847217
-0.02878385 0.033570193 0.079444706
-0.032964602 0.027924564 0.079747021
-0.021252006 0.033800911 0.076970756
-0.025107041 0.033346094 0.076297164
-0.030078277 0.032756992 0.076157928
-0.033208169 0.030437784 0.075601757
-0.026411088 0.034455992 0.071793377
-0.029788004 0.033053163 0.071817577
-0.032571021 0.030591955 0.072171152
0.0028876681 0.032822177 0.092631042
-0.0017860411 0.032358184 0.091750741
0.0020431131 0.032585509 0.087736845
-0.0022217426 0.032967769 0.087991774
-0.0031119026 0.033077307 0.083208084
-0.0075489818 0.033819389 0.083533823
-0.0093143834 0.032945428 0.078972638
-0.013720439 0.033531714 0.077910244
-0.014747456 0.033902753 0.073986709
-0.01940784 0.033817764 0.074473143
-0.023188535 0.03316316 0.073631108
-0.016262932 0.03488759 0.069517732
-0.020320388 0.035094727 0.070242643
-0.023911472 0.034252923 0.070061147
-0.030568171 0.03244859 0.068959773
-0.032823134 0.030066952 0.068454802
-0.021148067 0.034742083 0.065434396
-0.025453936 0.03475162 0.065492988
-0.029783726 0.03302829 0.065103054
-0.032355487 0.030754009 0.064079106
-0.026437502 0.033826925 0.060703456
-0.029527359 0.032774549 0.060743749
-0.00064253062 0.032982681 0.081835449
0.00293265 0.032383069 0.076706707
-0.0015091868 0.031951964 0.076992333
-0.0057733841 0.031742048 0.076838672
0.0015017483 0.033194166 0.07329458
-0.0019603074 0.032485873 0.072215199
-0.0068119848 0.031919904 0.072481573
-0.010395283 0.032027125 0.072477996
-0.0036920505 0.033418737 0.068675816
-0.0072349748 0.03299959 0.067504704
-0.012336046 0.033605602 0.067882657
-0.0088858083 0.033643264 0.064057052
-0.012630921 0.033364624 0.063203275
-0.018126231 0.033573598 0.062370121
-0.023102712 0.034120895 0.062075675
-0.032899678 0.027797973 0.061991751
-0.017223343 0.032878626 0.059540212
-0.02282507 0.032601073 0.057607114
-0.029045384 0.031803422 0.057813525
-0.032100204 0.02910828 0.05796665
-0.024535514 0.031816006 0.054519951
-0.028526077 0.030790344 0.054311693
-0.031374939 0.029070761 0.054294348
-0.00099866651 0.033216257 0.069868326
0.0023645228 0.033443734 0.066409171
-0.001558519 0.033461776 0.065829277
-0.005480147 0.033845689 0.065358162
-0.0022753254 0.033002544 0.061808407
-0.0070294007 0.032901388 0.06134975
-0.010896059 0.033151172 0.060789287
-0.012019869 0.032554705 0.057054758
-0.016725432 0.032592744 0.056527674
-0.017968001 0.032276765 0.051506996
-0.021867255 0.032571752 0.052029788
-0.027586261 0.031211114 0.051634967
-0.031252321 0.029034972 0.051120043
-0.022535458 0.032718129 0.047032416
-0.02705802 0.031664494 0.04704088
-0.030175615 0.029413668 0.046319783
-0.027569991 0.031685136 0.042756259
-0.029666381 0.030296659 0.042260349
-0.00055375416 0.03239907 0.059339404
-0.0050478559 0.032188572 0.058487356
-0.00096763205 0.032845438 0.055108488
-0.0063319867 0.032253437 0.054627001
-0.01075026 0.031820733 0.053345025
-0.0021520918 0.033328295 0.050927401
-0.0057510692 0.032593932 0.049694598
-0.011370418 0.032046627 0.049588203
-0.015164843 0.03151485 0.049209833
-0.0078233313 0.033192463 0.045748413
-0.011017685 0.032868534 0.045073509
-0.016717233 0.032527432 0.04516077
-0.020569237 0.032513283 0.044230163
-0.024872411 0.031460781 0.043918431
-0.030753672 0.025379874 0.042931199
-0.012617345 0.03371818 0.041537583
-0.01650746 0.03311193 0.040754139
-0.021996941 0.032965966 0.040347874
-0.026520006 0.03216083 0.040132344
-0.030412886 0.02972932 0.03950417
-0.017477915 0.033680268 0.03725642
-0.021524269 0.033466328 0.035522699
-0.027106125 0.032897655 0.035424829
-0.03038566 0.030503303 0.035257936
-0.023544816 0.033715319 0.03267175
-0.026805546 0.033148542 0.03068614
-0.030471737 0.031068869 0.031498313
-4.2818487e-05 0.032957025 0.047966897
-0.00071052648 0.033086319 0.043238342
-0.0054176217 0.033197142 0.043730199
-0.0061751506 0.032960072 0.038427949
-0.01065749 0.033615213 0.038793564
-0.014696714 0.033317842 0.038294733
-0.0073400466 0.033372387 0.034130633
-0.011474575 0.033243794 0.033788264
-0.015788844 0.032755014 0.033318043
-0.031431559 0.026447523 0.03340441
-0.017419662 0.032099314 0.029619873
-0.021434102 0.032504141 0.028970003
-0.024938943 0.033150177 0.028374732
-0.031173889 0.029024428 0.028155327
-0.022713348 0.032464705 0.023971796
-0.02659262 0.032626681 0.024434268
-0.030194853 0.030942395 0.024931014
-0.00023160968 0.032924958 0.040263355
0.00010715146 0.033071402 0.037555754
-0.0037315991 0.033029716 0.037088096
-0.00033836439 0.033482861 0.032835841
-0.004959147 0.033350341 0.033131361
-0.0088000549 0.032782149 0.031951904
-0.0054026926 0.033722028 0.028521061
-0.010230124 0.032877918 0.027899563
-0.015005371 0.031702261 0.027324736
-0.018660484 0.030982129 0.026951373
-0.015748121 0.031853955 0.022824287
-0.020092314 0.031999677 0.022830546
-0.024388527 0.032439593 0.021228254
-0.030531172 0.028632268 0.021559894
-0.017152362 0.032531578 0.019173205
-0.020610154 0.03285446 0.018030882
-0.025942072 0.032121897 0.018204391
-0.029365866 0.029495014 0.017077506
-0.022340611 0.033698443 0.013566911
-0.025797699 0.032259699 0.012877464
-0.028992694 0.029659459 0.013141572
0.0011039376 0.033246804 0.029490948
0.00019810628 0.033054948 0.025919497
-0.0047212592 0.032580946 0.024196923
0.0016150726 0.03288627 0.022607803
-0.0048603672 0.032403134 0.021078229
-0.0098426528 0.031605136 0.020862162
-0.013141083 0.031415775 0.020326495
-0.0090669356 0.030753296 0.01643616
-0.014825631 0.031617682 0.015584648
-0.030420426 0.025393911 0.015128672
-0.015835932 0.032359835 0.011066377
-0.019751541 0.033037148 0.0117082
-0.029488701 0.028108019 0.010029554
-0.020856431 0.032829996 0.0075212121
-0.025420431 0.031852167 0.0070003867
-0.029009204 0.029554751 0.006180644
-0.025808385 0.030901864 0.0030540228
0.0011063376 0.032353483 0.019085228
-0.002418289 0.032061849 0.018795669
0.00097537041 0.032606523 0.014520466
-0.0040215282 0.031988468 0.014867604
-0.0086106379 0.030809527 0.013960063
-0.00409899 0.032217674 0.009162426
-0.0089230984 0.031225646 0.0091625452
-0.012609296 0.03119747 0.010238826
-0.029924223 0.024723001 0.0079185367
-0.010086286 0.031588864 0.0047054887
-0.014638219 0.031718213 0.0049962401
-0.01867017 0.031802174 0.004552722
-0.029812332 0.024808701 0.0035835505
-0.015901202 0.031476613 -0.00058329105
-0.019772142 0.031999908 -6.3836575e-05
-0.024659831 0.031216772 0.00014865398
-0.028604411 0.028077018 -0.00033086538
0.0016816994 0.031979229 0.011000037
0.0022405805 0.031676408 0.0077722669
0.0018371744 0.031447053 0.0033883452
-0.0030902978 0.031680398 0.0031322241
-0.0075176815 0.031460438 0.0030933619
0.0024785567 0.031348791 0.00072556734
