# .PCD v0.7 - Point Cloud Data file format
VERSION 0.7
FIELDS x y z
SIZE 4 4 4
TYPE F F F
COUNT 1 1 1
WIDTH 548
HEIGHT 1
VIEWPOINT 0 0 0 1 0 0 0
POINTS 548
DATA ascii
0.032397352 0.027196586 0.18106762
0.034902282 0.023138292 0.17815369
0.034351047 0.026220554 0.17844707
0.033033412 0.028974377 0.17820922
0.03548073 0.027630404 0.17521095
0.033751931 0.029133372 0.17506617
0.026110874 0.024003811 0.18388402
0.024263941 0.0265572 0.18329439
0.032070149 0.01566074 0.18071932
0.031498525 0.020283729 0.18184534
0.030139878 0.02455299 0.18213183
0.027883844 0.028723598 0.18137136
0.025762968 0.031124687 0.17967865
0.034270667 0.016406916 0.17662701
0.034828693 0.0212346 0.1777212
0.030916246 0.030571062 0.17725036
0.028429631 0.032024384 0.17603904
0.034886595 0.017963992 0.17346209
0.035494536 0.021488074 0.17274255
0.035588846 0.025943294 0.17311808
0.032460745 0.03037809 0.17249331
0.036205217 0.022430591 0.16882682
0.03587446 0.026676744 0.16911989
0.033433575 0.030086208 0.16889578
0.03029912 0.00314824 0.18224922
0.028558757 0.0074451631 0.18206662
0.026671538 0.012516863 0.18194985
0.025468023 0.018318815 0.1828354
0.022744916 0.021601576 0.1837472
0.033611029 -0.00042633619 0.17964903
0.032716732 0.0040581049 0.18023747
0.031579755 0.0087683182 0.18013602
0.03089889 0.012527532 0.18084115
0.035127115 0.00017044414 0.17653573
0.034634452 0.0047903247 0.17571405
0.033939037 0.0091878939 0.17539132
0.033788741 0.013012854 0.17496264
0.034485135 0.0097693913 0.16996306
0.034112178 0.014778902 0.17034206
0.027242851 0.031336144 0.16971657
0.035247348 0.015255313 0.16581416
0.035395142 0.020500526 0.16627434
0.034775324 0.025039572 0.16574752
0.031709984 0.030019373 0.16534644
0.027908104 0.031409897 0.16465095
0.036211967 0.015507685 0.16279274
0.034938533 0.020592187 0.16164276
0.034147665 0.025454469 0.1617727
0.032015678 0.029571535 0.16131192
0.029311894 0.031821251 0.16101676
0.033951163 0.025217993 0.15791446
0.032514341 0.028801117 0.15777695
0.016924603 0.01950147 0.1830276
0.029434208 -0.0020584418 0.18230447
0.027521877 0.0020248741 0.18311372
0.024773717 0.0058827274 0.18225193
0.022194829 0.0098269116 0.1815061
0.020753182 0.01476226 0.18175292
0.032164179 -0.0029024538 0.1803413
0.034730937 -0.00052394718 0.17323294
0.034438532 0.00350127 0.17204627
0.034013905 -0.00078357011 0.16907173
0.03401918 0.0039582541 0.16821253
0.033872999 0.0072500873 0.16788635
0.034049124 0.0049793557 0.16337505
0.034754019 0.0091081019 0.16421667
0.03498384 0.009827489 0.15989366
0.034793403 0.013675068 0.1591388
0.034938022 0.017896842 0.15942854
0.027256304 0.032892823 0.15903369
0.033421714 0.01485558 0.15534839
0.033019803 0.019351073 0.15438882
0.033510517 0.024914911 0.15479317
0.031491317 0.029357787 0.15486872
0.027732233 0.03153808 0.15472186
0.033004481 0.021204781 0.15087301
0.033098795 0.02454683 0.14979887
0.031282432 0.028299706 0.15007859
0.02141352 -0.00016685296 0.18229234
0.019217385 0.0035703762 0.18219069
0.01729564 0.0081008505 0.18233752
0.015878269 0.012546457 0.1822083
0.033575576 -0.0030784365 0.16685721
0.033724952 -0.0023607705 0.1623134
0.033980422 0.0025920924 0.16199815
0.034107734 -0.0016301535 0.15846384
0.034079943 0.0036561154 0.15761605
0.034045301 0.0077817375 0.15719905
0.033449713 0.0046103606 0.15316036
0.033729706 0.0082989531 0.15249652
0.033520143 0.012883159 0.15288863
0.033027723 0.016250655 0.15260595
0.033968162 0.0097046308 0.14897639
0.033886358 0.013223431 0.14805248
0.033148926 0.01839966 0.14831138
0.029541874 0.029185301 0.14728743
0.026383512 0.030170303 0.14672047
0.033929039 0.014547405 0.14438114
0.033326752 0.018701296 0.14453638
0.033312965 0.023983048 0.14347643
0.031507995 0.028532049 0.14366508
0.02743591 0.030433943 0.1427612
0.033991147 0.024421355 0.1381512
0.032351192 0.028346449 0.13836485
0.035087533 0.026393339 0.1345973
0.034099296 0.027671274 0.13423374
0.0080961678 0.0075256452 0.18291059
0.013764265 0.0013078945 0.18224624
0.012842602 0.0057151061 0.18273962
0.010671543 0.010582074 0.18241441
0.033011038 0.0019269548 0.15417755
0.033047508 -0.0027295286 0.15085542
0.033217661 0.0024503348 0.15043759
0.033466883 0.0061397008 0.14975506
0.033466123 0.0029946687 0.14557165
0.033660203 0.0075242841 0.14618623
0.034035962 0.011261718 0.14560491
0.034241818 0.0079510324 0.1414656
0.034172311 0.012626369 0.14198959
0.033318806 0.017214967 0.14156315
0.033837669 0.012826824 0.13751045
0.033359647 0.017367445 0.13708305
0.033376813 0.021605972 0.13710803
0.030050747 0.029546717 0.13671815
0.026418166 0.030213108 0.13590133
0.034041181 0.018307595 0.13299799
0.034495857 0.023216888 0.13271394
0.031594548 0.028790357 0.1325528
0.027724743 0.03013817 0.13151622
0.034394544 0.023743082 0.12805265
0.032673959 0.028056908 0.12696576
0.032953598 0.028517716 0.12413013
0.0073675942 0.0038090311 0.18270662
0.032351717 0.00018367823 0.1430214
0.032239202 -0.0022805119 0.14082316
0.033074774 0.0026082406 0.13991314
0.033124734 0.0053885505 0.13803262
0.032369036 0.0071906904 0.13476628
0.0329361 0.011523542 0.13405496
0.032569211 0.01249495 0.13068998
0.032969166 0.01621338 0.13008642
0.025348075 0.03038343 0.128562
0.032417729 0.017486572 0.12541115
0.033994161 0.021080926 0.12564701
0.027568826 0.030527357 0.12518954
0.03347918 0.022411421 0.12176657
0.032707479 0.027745623 0.12121862
0.029031143 0.030669708 0.12053344
0.033735085 0.02348013 0.11769342
0.032683447 0.026925191 0.11696595
0.064720862 0.0085003655 0.076335728
0.064378224 0.010905668 0.075732946
0.067118704 0.008481089 0.073167622
0.065868437 0.011386716 0.073007345
0.067196012 0.010916732 0.06989032
0.0032161311 0.0021118058 0.18276986
0.031831253 0.00018901471 0.13666099
0.031689938 0.0013218764 0.13290423
0.031847462 0.0051182956 0.13204303
0.031711709 0.0012149615 0.12888795
0.031599618 0.0061642858 0.12787494
0.031693004 0.010461939 0.12791517
0.032344129 0.0070432066 0.12293321
0.031927716 0.011016719 0.12319058
0.03220072 0.015019989 0.12382534
0.026225919 0.030914448 0.1220668
0.033424847 0.008015071 0.1196292
0.032648429 0.011334285 0.11849844
0.032284468 0.016111806 0.11882323
0.032557461 0.02021027 0.11869013
0.026841069 0.030996239 0.11767203
0.032710992 0.016434969 0.11453396
0.033158511 0.02119988 0.11457115
0.032760032 0.026347175 0.11383557
0.028857894 0.029655652 0.11388505
0.033518001 0.021560587 0.10955268
0.03372784 0.026603516 0.11067969
0.030435016 0.02936461 0.10945231
0.034413151 0.023246009 0.1054557
0.033638667 0.026372872 0.10568112
0.031658247 0.028989039 0.10493517
0.052679516 0.0091432231 0.086401284
0.05082478 0.012666961 0.085955381
0.056662504 0.0048639122 0.082915485
0.054966211 0.0078993579 0.083986104
0.05309077 0.012626919 0.083642781
0.05132512 0.015316753 0.083040774
0.061291121 -0.00087037124 0.0795241
0.060041014 0.0043358449 0.080342472
0.058962636 0.0097303968 0.080289781
0.056258775 0.013580993 0.079886258
0.053301357 0.015917053 0.078685224
0.065513454 -0.0044852328 0.075729549
0.06450595 -0.00010363571 0.076097429
0.063855514 0.0049670842 0.07678777
0.061965846 0.011037478 0.076496482
0.058538094 0.01427196 0.075696647
0.054640874 0.016327202 0.075799286
0.067619734 -0.0037269592 0.071935833
0.067495987 0.00059493631 0.071676493
0.06716828 0.0049955454 0.072239816
0.063897319 0.01308313 0.071956336
0.061157953 0.014486569 0.071237803
0.068972081 -0.003141107 0.06835252
0.068799578 0.0012491159 0.066667259
0.06873554 0.0071526319 0.068021595
0.066072822 0.012232316 0.067117751
0.062127043 0.014379402 0.066917598
0.069673061 0.0023297239 0.062677681
0.068751283 0.0065767895 0.061989009
0.066503666 0.011348696 0.062065899
-0.0034082981 -0.00058453809 0.18312734
0.031642154 -0.0015650792 0.12717757
0.031178778 0.00010653585 0.12252223
0.031848501 0.0044868523 0.12258685
0.031383265 0.0009914441 0.11757076
0.032581434 0.0055740862 0.11737299
0.032846216 0.010180032 0.11586154
0.032504302 0.006010286 0.1131739
0.032740511 0.010815113 0.11203802
0.032860409 0.015598733 0.11180526
0.025743166 0.030335773 0.11093098
0.032927364 0.011022074 0.10751635
0.03334574 0.016045796 0.10784829
0.033655688 0.019575462 0.10696554
0.027920306 0.030613028 0.10712868
0.034403909 0.016243169 0.10274285
0.033990007 0.020780073 0.10328847
0.032995712 0.025983941 0.10219067
0.028953489 0.030035418 0.10203022
0.035072364 0.016773814 0.098907709
0.033944018 0.021027695 0.097931385
0.032446984 0.02559492 0.097760856
0.030296531 0.029229805 0.097932875
0.0390663 0.015920971 0.092133701
0.035576198 0.019810943 0.094582856
0.044113334 0.01033006 0.089052737
0.042444333 0.013736831 0.090043664
0.040664084 0.017966364 0.08958751
0.051766638 0.001151111 0.084961236
0.05052533 0.0057177525 0.086675346
0.04841359 0.010693825 0.087247789
0.046823896 0.015371365 0.086700261
0.043118771 0.018801831 0.086116731
0.039909806 0.021181047 0.086129427
0.055571504 -0.0031431839 0.081812799
0.055106085 0.00096142478 0.083053887
0.049459431 0.01709461 0.082121968
0.045729186 0.018710133 0.081441998
0.05930708 -0.0035953224 0.079973757
0.051575497 0.017758382 0.077880323
0.048701875 0.019093128 0.076074004
0.056194149 0.015084444 0.072623253
0.053013552 0.01724175 0.072800338
0.06798581 -0.0060363598 0.07082355
0.056817532 0.015165828 0.069089234
0.054509994 0.016331665 0.068141818
0.069050603 -0.0046936739 0.066293716
0.069446087 -0.00056681037 0.064384818
0.058739394 0.015017376 0.064056575
0.069316506 -0.0040806998 0.061511934
0.069166228 0.00037143752 0.060367942
0.065832488 0.011497336 0.059378564
0.060857236 0.014647954 0.059915245
0.068926588 0.00074141659 0.056202948
0.06927415 0.0058776829 0.056932867
0.066493347 0.010732678 0.056116879
0.062719651 0.013896025 0.055559397
0.069001891 0.0020115562 0.05253154
0.068688154 0.0055306796 0.051503479
0.066498645 0.010137689 0.052002132
-0.0063794088 -0.007019599 0.1830489
-0.0078051118 -0.0023869029 0.18309987
0.03117956 -0.002730554 0.12013704
0.032080323 -0.0014144201 0.11601323
0.032252353 -0.00049631577 0.11113799
0.032343637 0.0050398335 0.11077553
0.03245315 0.0011631818 0.10690415
0.033037268 0.0052519073 0.10673541
0.03336411 0.010299741 0.10498959
0.033804707 0.0065112798 0.10133988
0.03461783 0.011085548 0.101623
0.036488935 0.0071355612 0.096591234
0.036557078 0.01166767 0.097203255
0.035943583 0.016249849 0.096724987
0.03415525 0.021024559 0.095855534
0.029138248 0.030242912 0.095582843
0.041216664 0.0023507178 0.091827929
0.039934333 0.0074613825 0.09299922
0.039445903 0.012677869 0.093570292
0.037375979 0.017245071 0.093488395
0.035584442 0.02168221 0.09282887
0.033531487 0.025820768 0.092650473
0.030739129 0.029861035 0.091667414
0.027342767 0.032381918 0.090366006
0.045782257 -0.0018302407 0.087802827
0.044816919 0.003372876 0.08910507
0.043235775 0.0082696257 0.089878082
0.038342901 0.019010955 0.09041059
0.037433308 0.02202259 0.088530838
0.034541965 0.026014136 0.087455809
0.031850182 0.030105494 0.086551726
0.028424347 0.032236196 0.08661437
0.049207639 -0.0013187174 0.085672617
0.047927059 0.0028424412 0.08724159
0.041954543 0.020152804 0.0833655
0.038595811 0.022271959 0.083449483
0.035521504 0.026232976 0.083225906
0.032459307 0.030213188 0.083019912
0.043145113 0.020038174 0.079705894
0.040724635 0.021187903 0.078713775
0.044490613 0.019945273 0.075150967
0.04102882 0.0211454 0.07489866
0.050451148 0.017742896 0.068964303
0.046174996 0.019206192 0.070566118
0.051588081 0.017182246 0.065624475
0.047510657 0.018185081 0.066839635
0.053616032 0.016448714 0.06146419
0.069311544 -0.00624259 0.058601558
0.055834606 0.016592611 0.056930959
0.069381319 -0.0046860594 0.055005968
0.068936169 -0.0013967007 0.054572642
0.060655456 0.015274337 0.053394556
0.057667371 0.016889777 0.05292511
0.069728173 -0.0043822322 0.049495637
0.069693565 0.00020153262 0.050248384
0.069750488 0.0039089099 0.049573958
0.066198476 0.010751449 0.049122274
0.061947726 0.014293963 0.048974216
0.069682144 0.00048672967 0.045628548
0.069120742 0.0051390752 0.045300186
0.06662149 0.0096479766 0.044808328
0.063922092 0.011560955 0.042976916
0.068219043 0.0062456205 0.040751278
0.031439647 -0.002579215 0.10373312
0.032096561 0.0014127307 0.10342503
0.032164406 -0.0014414079 0.098804832
0.032732096 0.0023812326 0.10014021
0.034912899 -0.0011713216 0.094576657
0.03501277 0.0031167446 0.095963478
0.038318414 -0.00040640216 0.092647374
0.037552901 0.0031917663 0.093802154
0.026908077 0.032450877 0.084571362
0.036182523 0.022894239 0.079829335
0.034409411 0.025640579 0.079241097
0.03175443 0.029844627 0.080398738
0.027496627 0.032229308 0.079912603
0.036845788 0.021975968 0.076447666
0.033686008 0.025212381 0.075564921
0.031324454 0.029307697 0.076157928
0.038086649 0.021579793 0.07180202
0.034540899 0.025416279 0.072201312
0.032257304 0.028882284 0.07243371
0.042875804 0.019190922 0.066295803
0.040010825 0.02102392 0.068017364
0.045385823 0.018026713 0.063133299
0.049847573 0.01703538 0.059139192
0.04635331 0.017334975 0.058565676
0.050978545 0.017300447 0.054963171
0.053086117 0.01722854 0.05000931
0.060519069 0.014634187 0.045271218
0.056097429 0.016915979 0.046941161
0.068338774 -0.0061782617 0.04282254
0.068659455 -0.00051729381 0.042225599
0.061043333 0.013299192 0.041748464
0.057802066 0.015944537 0.041386127
0.06811706 -0.0044539645 0.039580762
0.068555318 -0.0010032225 0.038612723
0.068348974 0.0044195764 0.038580179
0.066125982 0.0087309591 0.038292408
0.061708178 0.012545465 0.037566423
0.069132105 -0.0002209153 0.034006059
0.068388246 0.0039319526 0.033679426
0.066257946 0.0085122176 0.033299029
0.063817285 0.01162256 0.033880532
0.068958178 0.0051001143 0.030572832
0.067622878 0.008047184 0.030357003
0.02968107 0.03051303 0.072979629
0.027915239 0.031607915 0.073987246
0.036062106 0.022421751 0.069491923
0.034389883 0.025231205 0.0689888
0.031313371 0.029520731 0.069283366
0.028524879 0.031718574 0.070405543
0.037252851 0.022043476 0.0657987
0.034700058 0.025201963 0.065129519
0.031525649 0.028310617 0.06459558
0.042557623 0.018835925 0.061187327
0.038669303 0.020861743 0.061111867
0.034389883 0.02490739 0.060715377
0.043337356 0.018359784 0.056519449
0.040369965 0.020146439 0.057813823
0.045588549 0.017802998 0.052542269
0.04780354 0.018034043 0.048204601
0.053429097 0.016877443 0.043343663
0.050109006 0.018149763 0.043135703
0.053860005 0.016872432 0.039520383
0.068613157 -0.0063936543 0.037059665
0.060626075 0.013257842 0.034541368
0.057851244 0.015359789 0.034992278
0.053394958 0.01740282 0.036161363
0.069440678 -0.0059000123 0.03211683
0.069479525 -0.0019851513 0.031664312
0.062692627 0.012773475 0.031202078
0.059449419 0.015024927 0.030323207
0.06903965 -0.0065515451 0.028165519
0.069571294 -0.00079821609 0.027448297
0.069028437 0.0038185529 0.027536154
0.067046873 0.008774111 0.027393162
0.063893341 0.012443405 0.026482761
0.060257159 0.014446293 0.026178539
0.069222815 0.00033995323 0.023011625
0.069130555 0.0040803943 0.022568405
0.067916639 0.0084020942 0.022536516
0.064918548 0.011746113 0.021840394
0.027242137 0.031118872 0.067248344
0.029296044 0.028644897 0.061462104
0.026137155 0.030520838 0.062156081
0.035698969 0.021796353 0.057774484
0.033200115 0.024064844 0.057516992
0.029426524 0.028112929 0.057465792
0.037741363 0.020687945 0.053873599
0.034406256 0.023180258 0.052405059
0.041571926 0.018623848 0.052125573
0.039786164 0.019531365 0.048913956
0.035362884 0.023091661 0.049588382
0.046143718 0.018400446 0.0452649
0.042214654 0.019008044 0.044941545
0.046897676 0.018546015 0.041731894
0.043777771 0.018995661 0.040425956
0.047658622 0.017279925 0.036214769
0.054793753 0.016047364 0.032700121
0.050456833 0.016573474 0.031428397
0.054645002 0.015774436 0.028278649
0.057079613 0.015080265 0.023731172
0.068262704 -0.0026022699 0.020592749
0.066131227 0.0094461376 0.018968105
0.062571213 0.013343986 0.020358324
0.059529245 0.014264948 0.019682467
0.06810087 -0.001775464 0.015734196
0.068033211 0.0027599093 0.016105473
0.065890729 0.0073482394 0.014914095
0.063078657 0.010823674 0.015532434
0.069053739 -0.00039384514 0.011976898
0.06904462 0.0031167455 0.010924578
0.066844881 0.0069408733 0.010959685
0.028313193 0.029360486 0.055234134
0.025836116 0.030644521 0.05628556
0.031386834 0.025243144 0.054385364
0.030493528 0.026779559 0.051787138
0.027389223 0.029540947 0.050420463
0.035397485 0.023447668 0.047110438
0.031576898 0.026575463 0.046837926
0.028754042 0.029210303 0.046166182
0.038640041 0.020166388 0.043501318
0.035348438 0.022840729 0.043452442
0.032397177 0.025189491 0.042642534
0.039986495 0.019634916 0.039172471
0.045887481 0.017808847 0.034417689
0.043162465 0.018962072 0.035197318
0.046257868 0.017307933 0.029817641
0.043496057 0.018448282 0.030563772
0.04909781 0.016661789 0.026111484
0.055536754 0.015768314 0.02053082
0.05166661 0.016016696 0.021651685
0.057010435 0.015332161 0.017363727
0.052834637 0.016291825 0.017368555
0.06833744 -0.0036186464 0.013219357
0.061639801 0.01139209 0.012920618
0.057688192 0.014077363 0.013266742
0.067610055 -0.0065431483 0.0098949671
0.068820976 -0.0024493672 0.0093414783
0.066078015 0.008269079 0.0085721016
0.062106457 0.010511877 0.0085408092
0.068659112 -0.0018338319 0.0058017373
0.069384798 0.0029655397 0.0057894588
0.066873252 0.0072193891 0.0049720407
0.064050473 0.0095727611 0.0043642521
0.06805779 0.003042141 0.0014207959
0.066597059 0.0059920475 0.001095891
0.030172985 0.027905114 0.043765128
0.026057081 0.030164178 0.043993115
0.034745183 0.022465289 0.040039957
0.031499922 0.026733264 0.040010571
0.028844818 0.029717583 0.039454579
0.03798306 0.020035911 0.036116302
0.034752384 0.022318935 0.036316454
0.032142863 0.026593134 0.035471261
0.029129613 0.030015802 0.034698427
0.039330918 0.019500265 0.031753659
0.03515587 0.021705721 0.031876326
0.032487325 0.02716534 0.03132236
0.030982688 0.029576749 0.032232344
0.040644478 0.019198991 0.027267039
0.046575241 0.017584343 0.023254454
0.042399134 0.019238327 0.022995532
0.048131131 0.01713321 0.019061983
0.044982351 0.018490063 0.017938793
0.04973229 0.016675416 0.01436007
0.055223025 0.014533934 0.0098884702
0.051801793 0.015516045 0.009816587
0.059779391 0.01143314 0.0056053996
0.056317825 0.013364448 0.0056848526
0.068166688 -0.0037222579 0.0029733181
0.061414585 0.010656433 0.0021237731
0.057629138 0.013368412 0.00065153837
0.034012824 0.022930786 0.029192269
0.032916069 0.025467221 0.029049516
0.029068271 0.03050282 0.028847933
0.035056576 0.021761805 0.024982512
0.03242654 0.026508089 0.024247885
0.030432604 0.02998348 0.024458766
0.040685382 0.020448761 0.020349026
0.037184533 0.021298651 0.020419359
0.041884806 0.019886291 0.016874313
0.03834641 0.02110439 0.01540041
0.047517538 0.017468045 0.012211025
0.043718953 0.01816747 0.011949718
0.04743395 0.015892372 0.0078732371
0.051059332 0.014920795 0.0035880208
0.055229031 0.014631579 -0.00054937601
0.026901826 0.031331766 0.025219202
0.03311545 0.022865275 0.021327794
0.032392051 0.024368269 0.02118367
0.027436545 0.029605508 0.020862997
0.034150295 0.022563074 0.0184986
0.032105796 0.025935931 0.01818949
0.028807623 0.028172588 0.016163528
0.035940871 0.022416802 0.014276087
0.032677948 0.025739778 0.013822854
0.041048694 0.019238794 0.0095111728
0.036441598 0.021918952 0.0097469687
0.04525315 0.016256317 0.0056093335
0.041809704 0.018459909 0.005204618
0.046624862 0.015709359 0.0011556745
0.043383725 0.017053988 -8.4936619e-05
0.025691846 0.028727837 0.014870703
0.031209644 0.026181947 0.0099615455
0.027002813 0.028831705 0.01070863
0.035453741 0.021388287 0.0062289834
0.031792395 0.025118653 0.0063921809
0.028098136 0.028769303 0.0067195892
0.039078631 0.019005824 0.0012571216
0.0350569 0.02071372 0.0023428798
0.032035425 0.024419315 0.0024817586
0.024651432 0.02989468 0.0078507066
0.026140243 0.029238377 0.0036382079
0.032794401 0.021910539 0.0001578331
0.030647343 0.025286783 -0.00024086237
