# .PCD v0.7 - Point Cloud Data file format
VERSION 0.7
FIELDS x y z
SIZE 4 4 4
TYPE F F F
COUNT 1 1 1
WIDTH 397
HEIGHT 1
VIEWPOINT 0 0 0 1 0 0 0
POINTS 397
DATA ascii
-0.021948963 -0.030026186 0.17935824
-0.017711852 -0.031959578 0.18016306
-0.01260739 -0.033752691 0.18064246
-0.0077469307 -0.036054667 0.18057284
-0.0031196028 -0.037318278 0.18034467
0.00051628333 -0.038114123 0.17940751
-0.025045089 -0.029283468 0.17799979
-0.022449929 -0.031562731 0.17726809
-0.018763706 -0.034138639 0.17717528
-0.014058802 -0.036842372 0.17738438
-0.0088445973 -0.038224235 0.17669043
-0.0041546542 -0.038882948 0.17573196
-0.00074816868 -0.038830556 0.17654866
-0.018860668 -0.035199046 0.17297101
-0.014623743 -0.03764287 0.17256266
-0.0093684457 -0.038052861 0.17265642
-0.015652921 -0.038213406 0.16850716
-0.019270817 -0.023846153 0.18237835
-0.014917698 -0.025486825 0.18253264
-0.01065647 -0.027247751 0.18187243
-0.0056743291 -0.029335488 0.181647
-0.00054145139 -0.031943202 0.18239537
-0.024768857 -0.025168568 0.18037516
-0.02077277 -0.02737283 0.18115187
-0.016325844 -0.028780872 0.18159977
-0.010945289 -0.029905517 0.18162724
-0.0062649418 -0.032717399 0.18189266
-0.0026190178 -0.033950623 0.1815629
0.0027952399 -0.036781665 0.1798256
-0.02886956 -0.024730828 0.17618439
-0.026485682 -0.027501475 0.1757749
-0.023340987 -0.030793646 0.17474532
0.00095154531 -0.039049119 0.174146
-0.026106955 -0.02819415 0.17099595
-0.022912323 -0.031326622 0.1712828
-0.020227641 -0.034230251 0.17098039
-0.008846404 -0.038340908 0.17021286
-0.0043638172 -0.038844697 0.1703099
0.00046445057 -0.03923858 0.16914988
-0.023086168 -0.031722736 0.16659504
-0.019678617 -0.035107791 0.16706827
-0.014491625 -0.038633268 0.16653594
-0.0095751714 -0.038862001 0.16633961
-0.0048786746 -0.039024852 0.16559589
0.00016884506 -0.039615359 0.16579118
-0.022375403 -0.033020109 0.1629504
-0.019699927 -0.035454184 0.16287363
-0.015443911 -0.037865788 0.16212091
-0.010063925 -0.038590074 0.1621902
-0.022246981 -0.018766191 0.1821982
-0.017932994 -0.020635037 0.18294424
-0.013496798 -0.022067862 0.18268868
-0.0092599224 -0.023089292 0.18171474
-0.00373118 -0.024727959 0.18126956
0.00028721429 -0.028291512 0.18258262
-0.027297698 -0.02666552 0.16861829
-0.028668918 -0.02383801 0.16398644
-0.026712239 -0.02741492 0.16459283
-0.023890456 -0.030697275 0.16386181
-0.0035925806 -0.038251065 0.16240367
0.00023123063 -0.039205395 0.16277337
-0.026491629 -0.027897395 0.16000789
-0.023433065 -0.030568734 0.15972579
-0.020035582 -0.034042131 0.15964317
-0.009562362 -0.037380736 0.15871021
-0.0043240292 -0.037124999 0.1584847
0.00038576964 -0.038525995 0.15909559
-0.026182666 -0.029105235 0.15618369
-0.023193268 -0.030774061 0.15555835
-0.019774511 -0.033891819 0.15530589
-0.01564455 -0.036120955 0.15542483
-0.010719834 -0.036392529 0.15492803
-0.020045748 -0.034118824 0.1518026
-0.015589294 -0.036293 0.15104836
-0.012695122 -0.036654394 0.15115142
-0.015199894 -0.014863438 0.18218774
-0.010972926 -0.015873795 0.18203402
-0.0067861821 -0.01802716 0.18206233
-0.0020287558 -0.019915558 0.18165764
-0.0066434508 -0.021629672 0.18127137
-0.028119357 -0.025736278 0.1575298
-0.0026146602 -0.037346337 0.15602964
0.00066817645 -0.037604075 0.15596101
-0.027799688 -0.026709003 0.15356597
-0.023858566 -0.030193068 0.15289122
-0.0088897292 -0.036618523 0.15260851
-0.0042436831 -0.036852088 0.15249076
0.0003598202 -0.037446029 0.1517182
-0.026229765 -0.02825496 0.14914751
-0.023648717 -0.030743666 0.1491887
-0.020140994 -0.033997498 0.1489552
-0.016438019 -0.036240671 0.14874953
-0.010229018 -0.03710673 0.14865181
-0.0049567549 -0.037553813 0.14775267
-0.001114863 -0.037064873 0.14794993
-0.022497125 -0.03100783 0.14501673
-0.020094128 -0.033833362 0.1443851
-0.016232386 -0.036268558 0.14448693
-0.011797165 -0.037261497 0.14399588
-0.0077829352 -0.037654903 0.14404765
-0.016273022 -0.035908826 0.14051157
-0.013309295 -0.036913022 0.14023599
-0.0085980836 -0.010966439 0.18217337
-0.0047133616 -0.013123152 0.18246773
-0.00085026771 -0.015029425 0.18198907
-0.028912608 -0.024607966 0.15054893
0.0022914531 -0.037172727 0.14887685
-0.028097849 -0.024959257 0.14657038
-0.024787461 -0.028445221 0.14601493
-0.0029847389 -0.037146594 0.14480191
0.00087248534 -0.036656521 0.14499295
-0.027125159 -0.025736477 0.14151275
-0.023762733 -0.029047869 0.14206824
-0.021353135 -0.031898331 0.14145041
-0.0098076724 -0.036763586 0.14096874
-0.0050207386 -0.037125316 0.14121246
0.00032105111 -0.036977652 0.13992822
-0.023418587 -0.029507447 0.13743374
-0.020117272 -0.032553017 0.13769576
-0.01619925 -0.03536487 0.13731223
-0.011478793 -0.036819506 0.13749209
-0.0063200295 -0.037628669 0.13683477
-0.0019670678 -0.037884124 0.13549572
-0.019928366 -0.032599069 0.13339165
-0.016160486 -0.035254735 0.13271841
-0.012098623 -0.037241854 0.13248712
-0.0077132345 -0.038414802 0.13242415
-0.0036449349 -0.038798921 0.13214263
-0.013053921 -0.037089579 0.12887037
-0.0068147033 -0.0057758978 0.18180528
-0.0025883073 -0.0079771047 0.18184462
-0.0095336195 -0.0082585588 0.18205509
-0.028005395 -0.025015358 0.1355651
-0.02469397 -0.028142661 0.13506752
0.00070981216 -0.03795087 0.13434058
-0.026945651 -0.025489159 0.13154301
-0.023856655 -0.028998321 0.13143939
-0.020670943 -0.032218646 0.13080326
-0.01778969 -0.034294609 0.13046753
-0.0067781676 -0.038539086 0.12976295
-0.00079944916 -0.038143963 0.12915525
-0.023045655 -0.029958241 0.12645805
-0.02063993 -0.032417811 0.12632191
-0.016599655 -0.035111856 0.12679064
-0.012178585 -0.037346799 0.12630048
-0.0075858207 -0.03803771 0.12586266
-0.0029874556 -0.037950236 0.1250205
-0.020021904 -0.033175997 0.12212753
-0.016932361 -0.034525599 0.12190384
-0.012546125 -0.036333725 0.12169874
-0.0075196438 -0.037465446 0.12162888
-0.00070474448 -0.0034583772 0.18166196
-0.028111275 -0.023459192 0.12848592
-0.024316322 -0.026948001 0.12781823
-0.026738439 -0.024269966 0.12339014
-0.024339557 -0.027398631 0.12398392
-0.0013199244 -0.037862185 0.1225211
0.0027440852 -0.037819434 0.12251401
-0.024003215 -0.02836265 0.11924845
-0.0214094 -0.032110699 0.11994153
-0.016313881 -0.034578104 0.11913633
-0.011763217 -0.035988152 0.11862195
-0.0072309128 -0.036476731 0.11841279
-0.0024316348 -0.037359759 0.11803198
0.0018122317 -0.037562415 0.11780387
-0.023498798 -0.029692288 0.11579347
-0.020979524 -0.032373019 0.11504745
-0.01687951 -0.034409102 0.11484003
-0.012349321 -0.03590209 0.11438465
-0.007543345 -0.03670596 0.11339068
-0.0041975155 -0.037006825 0.11350328
-0.020678982 -0.033392854 0.11083472
-0.017239332 -0.03477212 0.11051983
-0.012634882 -0.036187351 0.11076862
0.0018162818 0.0025009352 0.18218905
-0.026208047 -0.025553588 0.11745423
0.0033088373 -0.037536401 0.11556995
-0.027723499 -0.022930788 0.11466867
-0.024909809 -0.027088102 0.11258501
-0.022235345 -0.030323369 0.11190885
-0.0020600175 -0.037061952 0.11160856
0.002557002 -0.037240978 0.11054194
-0.023750879 -0.02791653 0.10819149
-0.021702623 -0.031316537 0.10782862
-0.017306983 -0.034620743 0.10780138
-0.012804758 -0.036286466 0.10795647
-0.0079035861 -0.036994994 0.10783744
-0.0029280987 -0.036942381 0.10645777
0.00074248295 -0.037006408 0.10606474
-0.02115887 -0.032289699 0.10371935
-0.017728958 -0.035180207 0.10389477
-0.0130382 -0.036324415 0.1031484
-0.0084313797 -0.036959797 0.10327137
-0.0047325045 -0.037261348 0.10307068
-0.020556552 -0.033117376 0.099478722
-0.017844278 -0.034993023 0.099866748
-0.014659105 -0.035622306 0.099258065
-0.00074595725 0.008703691 0.18353379
0.0036585091 0.0068197539 0.18288594
-0.026706833 -0.024233703 0.11128396
-0.025892224 -0.025931887 0.10709375
-0.0011929851 -0.037237801 0.10388726
0.0026334813 -0.03740672 0.10513598
-0.025129771 -0.026830155 0.10226321
-0.022467826 -0.030957133 0.10127503
-0.0075762714 -0.036474515 0.10000753
-0.0030055139 -0.037067279 0.10041076
0.0022588223 -0.037595723 0.10079771
-0.024453662 -0.027604656 0.098008752
-0.021544619 -0.03095999 0.096686125
-0.017566018 -0.033890679 0.096058428
-0.012727341 -0.035366286 0.096226633
-0.0082581434 -0.035888787 0.096565425
-0.0026288442 -0.036871884 0.096692801
0.0016081128 -0.037404574 0.096372962
-0.020899739 -0.031089108 0.093249798
-0.017483568 -0.034108765 0.092401862
-0.013037234 -0.035184633 0.092478216
-0.026921555 -0.023188705 0.099807322
-0.02609876 -0.02428248 0.095051229
-0.023555046 -0.027070429 0.094369471
-0.0058523337 -0.034935322 0.093943894
-0.0024781404 -0.035185095 0.0930143
0.002818902 -0.036129665 0.092428148
-0.025279649 -0.025130926 0.090946734
-0.022241637 -0.028072199 0.090181947
-0.018817764 -0.032027297 0.090215266
-0.012782024 -0.034296092 0.089789391
-0.0075899544 -0.034527119 0.090240419
-0.0026961546 -0.035335757 0.089190423
0.0020946143 -0.036431652 0.088370979
-0.020991761 -0.029722938 0.086002409
-0.01753787 -0.032694411 0.086245537
-0.013036364 -0.034490161 0.086000025
-0.008021269 -0.034978334 0.084679186
-0.0035371641 -0.036272038 0.084665954
0.00014808867 -0.036550205 0.085077643
-0.017462844 -0.033074584 0.081960261
-0.013683805 -0.03488946 0.081032217
-0.0097556347 -0.035931662 0.081219435
-0.026701074 -0.024003897 0.088635027
-0.026827987 -0.025146738 0.084093392
-0.023254775 -0.027879316 0.084132612
-0.0025231056 -0.036290526 0.081753552
0.0017907368 -0.037145127 0.082680821
-0.026096193 -0.025615791 0.079457879
-0.023245499 -0.028669734 0.079291761
-0.019042492 -0.031813502 0.079332888
-0.012719173 -0.034983605 0.078178585
-0.0081589576 -0.03608232 0.078772008
-0.003839693 -0.036997169 0.078643441
0.00088248029 -0.037795231 0.077878416
-0.021715768 -0.028670471 0.074719727
-0.018231928 -0.032535441 0.075007081
-0.013684779 -0.03476622 0.074292064
-0.0091372747 -0.035110515 0.073681653
-0.004505706 -0.036076851 0.074163854
-0.014399407 -0.03475311 0.069579005
-0.01066175 -0.035508145 0.069725215
-0.027188271 -0.024044607 0.07736963
0.0030799685 -0.037063733 0.074347675
-0.026816875 -0.023610577 0.072860897
-0.023151059 -0.026740028 0.072613895
-0.019512262 -0.030449508 0.071669996
-0.0072718486 -0.034606498 0.070658386
-0.0026600705 -0.034615874 0.070981026
0.0016288059 -0.03603974 0.071054459
-0.025624074 -0.024523618 0.069011033
-0.023204476 -0.027150417 0.068010628
-0.01926484 -0.03048851 0.068034828
-0.015390542 -0.034667537 0.067050755
-0.0088668959 -0.035217155 0.067202985
-0.0035383152 -0.035256598 0.067128241
0.0012433873 -0.035958868 0.066594124
-0.022092141 -0.028304895 0.064350486
-0.019003449 -0.030776007 0.063702047
-0.015383677 -0.03332226 0.062587082
-0.01010762 -0.035075355 0.062818468
-0.0052899634 -0.035417296 0.062360406
-0.015527366 -0.033331193 0.059550226
-0.011708987 -0.034812495 0.05931282
-0.027291192 -0.023366757 0.066437542
0.002223162 -0.036111157 0.063728392
-0.027202372 -0.023147807 0.06238395
-0.023393687 -0.026810236 0.061653674
-0.020532379 -0.029922381 0.061548948
-0.0045838235 -0.035653464 0.0602265
-0.00024501979 -0.035270415 0.059837759
-0.022790831 -0.026981112 0.057431042
-0.019704819 -0.030280458 0.057287395
-0.015548134 -0.033014141 0.056220591
-0.010775443 -0.034412351 0.056284368
-0.0058376393 -0.034599345 0.056304753
-0.014652318 -0.032606948 0.052495599
-0.011666482 -0.034012236 0.052491844
-0.026547996 -0.022163514 0.058859944
-0.024440125 -0.024593126 0.058339059
0.0017820895 -0.034473632 0.056496501
-0.023342181 -0.02575887 0.054303229
-0.019229967 -0.028668711 0.053274333
-0.0086711021 -0.03336117 0.053055227
-0.0048744353 -0.033902649 0.052656591
-4.356727e-06 -0.034204818 0.053796947
-0.026618354 -0.023136942 0.051081598
-0.023505896 -0.025625704 0.050086021
-0.019387437 -0.028687356 0.050211489
-0.015483494 -0.0314968 0.049282491
-0.010553407 -0.033776198 0.049247146
-0.0056901285 -0.033787359 0.04875499
-4.2671338e-05 -0.033916112 0.049424946
-0.023174653 -0.02659516 0.04684478
-0.019780263 -0.0290638 0.045389414
-0.015654445 -0.032050565 0.045116127
-0.011195637 -0.034266684 0.045202196
-0.0059303273 -0.034543667 0.044608593
-0.018994633 -0.031014558 0.0413118
-0.016035249 -0.032548565 0.041418493
-0.01144978 -0.034406576 0.040741444
-0.0081331935 -0.035177324 0.041652679
-0.024788279 -0.024065498 0.047635376
-8.7819993e-05 -0.033737283 0.046166122
-0.026505008 -0.022175126 0.043148577
-0.024065619 -0.025554243 0.043678761
-0.0042730663 -0.034649096 0.042001903
-0.00052600913 -0.034428999 0.042625368
-0.023745421 -0.025716553 0.0392223
-0.020679398 -0.029261556 0.039231181
-0.016098207 -0.032335266 0.038114846
-0.011440033 -0.0340841 0.037781537
-0.0060149734 -0.034120217 0.03799814
-0.00043147244 -0.033807322 0.037905335
-0.020168697 -0.029582124 0.034510851
-0.016077813 -0.031903137 0.034601152
-0.011393483 -0.033615325 0.034230649
-0.0070137591 -0.03395018 0.033986032
-0.024003195 -0.025081653 0.03614974
-0.0038981643 -0.033092659 0.034352481
-0.00039037596 -0.033511057 0.035547912
-0.026991267 -0.023126153 0.032894015
-0.024563178 -0.025439246 0.033174992
-0.020349173 -0.028768022 0.031260312
-0.015889283 -0.031027943 0.030677378
-0.011903541 -0.032275606 0.030201674
-0.0055705654 -0.033540305 0.031564057
-0.00090820435 -0.034394365 0.032146275
-0.027541142 -0.023873992 0.028317511
-0.024567876 -0.026122583 0.028512895
-0.020901047 -0.029118648 0.028268814
-0.016061142 -0.03109663 0.027587414
-0.011031253 -0.032687884 0.027456343
-0.006283801 -0.033722032 0.027152896
-0.0012906864 -0.034844577 0.027290344
0.0026636394 -0.035515938 0.026740968
-0.020668279 -0.029548606 0.023986757
-0.016401457 -0.031478114 0.02371937
-0.011824846 -0.032883421 0.022342086
-0.007250804 -0.033455484 0.02300936
-0.025275435 -0.024534158 0.02478981
-0.0010665515 -0.033995941 0.02334106
-0.024342094 -0.024980308 0.021781802
-0.021056551 -0.028053729 0.020061553
-0.016340507 -0.030930651 0.020044982
-0.010046657 -0.033245653 0.019555807
-0.0063159144 -0.033738598 0.020121694
-0.0015795762 -0.034331046 0.019747257
-0.023249082 -0.025432598 0.018279731
-0.020275947 -0.027943907 0.01644814
-0.016383342 -0.030655302 0.016605079
-0.011614699 -0.032786854 0.015717387
-0.0067617176 -0.033730328 0.015493333
-0.0015255744 -0.034399025 0.015908897
-0.01568866 -0.03080737 0.013218224
-0.01188639 -0.032478578 0.011687934
-0.0086234715 -0.033530772 0.012766182
-0.025624469 -0.022416633 0.018964529
-0.024532393 -0.023077628 0.01446861
-0.021170279 -0.026515018 0.014029205
-0.0008885581 -0.03373193 0.012803972
-0.023609046 -0.02407215 0.0091879964
-0.020525444 -0.026633538 0.0095273852
-0.016424598 -0.029361511 0.0095487237
-0.012153517 -0.031739164 0.0088425875
-0.0065917852 -0.033296525 0.0093851089
-0.0015970422 -0.033908073 0.0082992315
0.0023865793 -0.033286486 0.0085288882
-0.01987911 -0.027473835 0.004850626
-0.016633542 -0.029879086 0.0041008592
-0.012068755 -0.032144461 0.0042122006
-0.0072356276 -0.033713125 0.0036682487
-0.003004441 -0.033904783 0.0037119985
-0.015512996 -0.031174969 0.00032901764
-0.01316131 -0.032136552 0.00022286177
-0.025296945 -0.021717142 0.0081337094
-0.02482339 -0.022344647 0.0030562878
-0.02166833 -0.025707694 0.0033745766
-0.0005783271 -0.033142563 0.00183779
0.0028212564 -0.032909248 0.0011757612
