# .PCD v0.7 - Point Cloud Data file format
VERSION 0.7
FIELDS x y z
SIZE 4 4 4
TYPE F F F
COUNT 1 1 1
WIDTH 384
HEIGHT 1
VIEWPOINT 0 0 0 1 0 0 0
POINTS 384
DATA ascii
-0.02141865 -0.020883098 0.18329057
-0.029527647 -0.0091358479 0.18078023
-0.028207818 -0.012901601 0.18164328
-0.026627017 -0.017191395 0.18063593
-0.024660908 -0.020792004 0.18046579
-0.022847649 -0.023438185 0.17945486
-0.030819872 -0.010200817 0.17650464
-0.030578425 -0.013687834 0.17716214
-0.028286174 -0.017702399 0.17649448
-0.026195085 -0.02078636 0.17710793
-0.030802287 -0.013637874 0.1736809
-0.028349034 -0.017591096 0.17288095
-0.027319128 0.00066510122 0.18285996
-0.026158947 -0.0028272397 0.18331587
-0.024966139 -0.0063421419 0.18311995
-0.023406439 -0.010970559 0.18238202
-0.021114552 -0.01539357 0.18227091
-0.019640332 -0.018450946 0.18259043
-0.030008651 0.0028962074 0.18012249
-0.029356793 0.00028208178 0.18027681
-0.02893045 -0.0040134988 0.18061686
-0.028382963 -0.0072569028 0.18135294
-0.024102934 -0.016238336 0.18227038
-0.022768404 -0.019246843 0.18204111
-0.021159761 -0.024220362 0.18026942
-0.031260867 0.0024912115 0.17745307
-0.030687757 -0.00026360899 0.1761041
-0.030508773 -0.0041686827 0.1755138
-0.030459672 -0.0078723338 0.17569667
-0.025720844 -0.021140803 0.17440754
-0.0232601 -0.024143551 0.17446873
-0.031024674 -0.0047647404 0.17049062
-0.030965799 -0.0085818395 0.1707575
-0.030469203 -0.013378516 0.17064762
-0.028547376 -0.017599147 0.17097414
-0.026153663 -0.020883963 0.17028198
-0.023861935 -0.024214268 0.16944471
-0.0316316 -0.0090671219 0.16612175
-0.031171611 -0.013502014 0.16661322
-0.029171206 -0.017669361 0.16618532
-0.026877038 -0.020824527 0.16552547
-0.024449769 -0.02402775 0.16542697
-0.022746004 -0.026495567 0.16553372
-0.032183006 -0.01018063 0.16285759
-0.031377032 -0.013416342 0.16245648
-0.030102527 -0.016790172 0.16136438
-0.02564539 0.0019811774 0.18385687
-0.023165056 -0.0015845806 0.18369478
-0.020713201 -0.0051914603 0.1823824
-0.019023966 -0.0084232204 0.18150601
-0.017289717 -0.012438109 0.18136144
-0.016947763 -0.017686106 0.18310153
-0.03050982 0.0001632357 0.17260528
-0.030259451 0.00027383398 0.16880554
-0.030685462 -0.0030644517 0.16800269
-0.030203238 -0.00072604045 0.16370803
-0.030826386 -0.0039009345 0.16401073
-0.031136394 -0.006921459 0.16405499
-0.025777847 -0.021902198 0.16292715
-0.023810819 -0.024324588 0.16255409
-0.030815175 -0.0040689828 0.15988404
-0.030853909 -0.0080447951 0.15950876
-0.031162901 -0.012126454 0.15936598
-0.028194295 -0.017952787 0.15879372
-0.025408566 -0.020175451 0.15853614
-0.023041718 -0.023537591 0.15856612
-0.030735552 -0.0087759057 0.15527594
-0.030323034 -0.012134557 0.1548084
-0.028737279 -0.016334983 0.15446097
-0.026649535 -0.019057356 0.15360302
-0.030720724 -0.012694523 0.15129066
-0.029099913 -0.016348515 0.15101221
-0.018255264 0.00054372149 0.18240854
-0.016635731 -0.0031334814 0.18231845
-0.014898596 -0.0067890026 0.18287513
-0.013565013 -0.01073535 0.18217307
-0.029737251 0.0022056149 0.16727763
-0.0299825 0.0022241594 0.16236398
-0.030586051 0.00084177218 0.15803483
-0.030355746 -0.0030799927 0.15679437
-0.030224429 -0.0062152911 0.15673658
-0.022182116 -0.023086958 0.1550402
-0.031255167 -0.00072062947 0.15425599
-0.030896369 -0.0036488068 0.15339297
-0.030710004 -0.0072184466 0.15300134
-0.030755768 -0.010599496 0.15264857
-0.024659423 -0.02038293 0.15246266
-0.022301262 -0.022840165 0.15156895
-0.031135157 -0.0048232274 0.14959311
-0.031353168 -0.0077776075 0.14863649
-0.030872088 -0.011724062 0.14875296
-0.02905817 -0.016222468 0.1481455
-0.026184106 -0.0201093 0.14792243
-0.023404038 -0.02190003 0.14817506
-0.031657718 -0.0087032802 0.14472502
-0.031449594 -0.011978086 0.14416254
-0.029740578 -0.015908821 0.14407712
-0.027559357 -0.018761408 0.1433551
-0.030742599 -0.014439614 0.14050275
-0.012946736 -0.0016163257 0.18267515
-0.0097462805 -0.0046653347 0.18256781
-0.0086078579 -0.0088370126 0.18199876
-0.029701784 0.0028291559 0.15502745
-0.030452386 0.0021799915 0.15088832
-0.030349351 -0.002335798 0.15024975
-0.020612512 -0.023699064 0.14842778
-0.030574339 0.0015924908 0.14607146
-0.030740028 -0.0028823856 0.14668748
-0.021715594 -0.022757649 0.14501682
-0.030657157 0.00010534003 0.14231652
-0.030678574 -0.0033096429 0.14195499
-0.031113209 -0.0069010616 0.14195853
-0.025762953 -0.020192064 0.14135975
-0.022684291 -0.022802051 0.14033332
-0.030468022 -0.0073978622 0.1371778
-0.030652717 -0.011387228 0.1377371
-0.029555012 -0.015481835 0.13774094
-0.027141698 -0.019385902 0.13715732
-0.023922991 -0.022725685 0.13584295
-0.021547571 -0.025123395 0.13628477
-0.030072 -0.011669639 0.13261539
-0.029513616 -0.015260695 0.13242725
-0.028092477 -0.019154755 0.13232046
-0.025643593 -0.02192474 0.13135529
-0.028478019 -0.01888188 0.12854165
-0.0061944705 -0.0031733061 0.18168354
-0.010147628 -0.00041954569 0.18189198
-0.030062009 0.0024672495 0.13935417
-0.030138934 -0.0014855266 0.13917622
-0.029606484 0.00087301247 0.13561353
-0.029742561 -0.00261267 0.13536108
-0.029807536 -0.0055315965 0.13427508
-0.022875831 -0.024124708 0.1341868
-0.030092593 -0.0035624458 0.1314238
-0.030019306 -0.0066162441 0.13050601
-0.029738989 -0.01011913 0.13022226
-0.029797947 -0.013645078 0.1300697
-0.023594242 -0.023274379 0.1291073
-0.030536735 -0.007450921 0.12641889
-0.029700641 -0.010526385 0.12627709
-0.028904581 -0.01457642 0.12579063
-0.027842196 -0.01851793 0.12548065
-0.025159847 -0.021822987 0.12530422
-0.027416147 -0.01821401 0.12176585
-0.026143951 -0.020619305 0.12142032
-0.0022465433 -0.0015467315 0.18144998
-0.029049715 -0.00070971996 0.13241613
-0.029398551 -0.0014591813 0.12816361
-0.029480571 -0.0045994292 0.12738875
-0.029573636 -0.0023880806 0.1233924
-0.03048623 -0.0058527868 0.12402034
-0.029302018 -0.010228596 0.12299651
-0.023671897 -0.0226171 0.12290996
-0.021471323 -0.025162486 0.12283796
-0.030052569 -0.0030133147 0.11967975
-0.030822013 -0.0064722309 0.11954176
-0.029899836 -0.010335588 0.11963278
-0.028587159 -0.01421264 0.11966068
-0.026675327 -0.017805036 0.11858112
-0.024325475 -0.021433726 0.11802804
-0.021837262 -0.024465935 0.11737579
-0.030983975 -0.0071479194 0.11508685
-0.029932884 -0.010344977 0.11439544
-0.028705245 -0.014037426 0.11388665
-0.026883399 -0.017702812 0.11345023
-0.025084337 -0.020673573 0.11381167
-0.029363055 -0.014174869 0.11055648
0.0024429928 0.00032857823 0.18255419
-0.02847633 0.0010035625 0.12219435
-0.029185528 -0.00055311806 0.11723876
-0.029921642 -0.0042786095 0.11603737
-0.029629111 -0.0020167846 0.11257243
-0.030495439 -0.0053385966 0.11223972
-0.029980961 -0.0093005262 0.11163533
-0.023952724 -0.02146906 0.11137193
-0.021510784 -0.02432427 0.11099082
-0.030535955 -0.0065484508 0.10778171
-0.030434279 -0.010088793 0.10831076
-0.029462622 -0.014103776 0.10768354
-0.027407439 -0.017716097 0.10801905
-0.024535319 -0.020950481 0.10660666
-0.021934409 -0.023366701 0.10649353
-0.030923197 -0.010301284 0.10344011
-0.02964481 -0.013992484 0.10288936
-0.027715795 -0.017379515 0.10346425
-0.025494877 -0.019733708 0.10311085
0.0054228604 0.0059969639 0.18308279
0.0070358366 0.0021984852 0.18284047
-0.028707612 0.0021840576 0.11621559
-0.029455127 0.00059011206 0.11162555
-0.029551771 -0.0002215039 0.10677141
-0.030109316 -0.0044277571 0.10644299
-0.021423662 -0.024577992 0.1044566
-0.029577028 -0.0015380178 0.10255867
-0.030558206 -0.0054196226 0.10216427
-0.031035313 -0.0092797885 0.10070395
-0.027071338 -0.017675629 0.10036051
-0.024432981 -0.02088448 0.10035163
-0.02185026 -0.024126034 0.10040253
-0.030576125 -0.0052534081 0.098171592
-0.030556438 -0.0098502096 0.096760631
-0.029484654 -0.013690922 0.09674412
-0.027394829 -0.017086228 0.096568167
-0.024621759 -0.020618573 0.095726073
-0.021985672 -0.024058513 0.096532762
-0.030385619 -0.010165548 0.092487395
-0.029551271 -0.013233048 0.091895401
-0.026999598 -0.016999612 0.092666864
-0.025185481 -0.020234481 0.092436075
-0.028290553 0.0018674051 0.098964155
-0.02969691 -0.0019481592 0.099471629
-0.028788142 0.00063131005 0.095326543
-0.02894699 -0.0029035336 0.0942958
-0.020953102 -0.02353511 0.092542589
-0.029112205 -0.0047232378 0.090108395
-0.029316284 -0.0082890624 0.090241015
-0.028142776 -0.01437564 0.089856744
-0.025890904 -0.016805371 0.089187503
-0.024207659 -0.020501409 0.08970207
-0.021438982 -0.023612358 0.088971317
-0.029547488 -0.005823778 0.08649838
-0.029329192 -0.0089252796 0.085800707
-0.028562609 -0.012895348 0.085762262
-0.026127489 -0.016367037 0.084742844
-0.02424309 -0.019888928 0.084777415
-0.022523247 -0.022915421 0.084994733
-0.028246867 -0.01335723 0.081609845
-0.027163591 -0.01591268 0.081457853
-0.028669542 0.002314697 0.092740178
-0.028765224 0.0018102201 0.087861478
-0.028794086 -0.0016656937 0.088254988
-0.029426843 0.00090111047 0.083726525
-0.029321535 -0.0025718985 0.083323598
-0.029404597 -0.0067508258 0.083130181
-0.023884509 -0.020618852 0.082104206
-0.021496205 -0.023927316 0.082416534
-0.029024716 -0.0037900563 0.079391599
-0.02865223 -0.007976044 0.078758776
-0.028647058 -0.012457037 0.079081595
-0.026753331 -0.016612764 0.078722298
-0.024877569 -0.020149855 0.078768194
-0.022333173 -0.023606472 0.077640295
-0.028412296 -0.012556002 0.073656142
-0.026899025 -0.016258759 0.073231101
-0.024985677 -0.019506902 0.073254943
-0.023329157 -0.022350755 0.073037624
-0.029031768 -0.012470134 0.069835722
-0.027637467 -0.015669929 0.069613636
-0.028782729 0.0024894243 0.077294111
-0.028452596 -0.0016258201 0.077032864
-0.028014297 -0.0054988917 0.075998902
-0.028882045 0.0018611606 0.073488593
-0.028293621 -0.0018873252 0.072662652
-0.027724452 -0.0057596788 0.072187185
-0.028284281 -0.0097516188 0.07243377
-0.023948183 -0.020513993 0.070630908
-0.022087432 -0.02362767 0.07174778
-0.028436005 -0.0062694792 0.067656815
-0.028850233 -0.011567216 0.067967117
-0.027232002 -0.016180472 0.067373574
-0.02427903 -0.019515796 0.066859782
-0.021529887 -0.023132693 0.066356182
-0.028878594 -0.007635152 0.064099252
-0.028770126 -0.010835833 0.06294471
-0.027351666 -0.015117387 0.062783659
-0.024957955 -0.018382575 0.062648952
-0.028533328 -0.00088488404 0.069930851
-0.028624721 0.0020460188 0.066367269
-0.028776234 -0.0015849005 0.066245735
-0.0291765 -0.0047730771 0.065526366
-0.028435813 -0.002795374 0.06220156
-0.028692348 -0.0059198947 0.061335742
-0.02867922 -0.0089586265 0.061245799
-0.02450574 -0.018881962 0.060346663
-0.021443157 -0.021204814 0.060102522
-0.028194962 -0.007068221 0.057118952
-0.028285109 -0.010472948 0.057445824
-0.026685301 -0.013848064 0.056110859
-0.024266794 -0.01732851 0.056057632
-0.027990047 -0.00095796399 0.059510171
-0.028144889 -0.004032677 0.058192074
-0.020288996 -0.021407504 0.056736767
-0.028720845 -0.00088622142 0.055368543
-0.02822512 -0.0052383691 0.054225385
-0.027409058 -0.0092747547 0.053483546
-0.025475403 -0.014964445 0.053055227
-0.023320083 -0.01751606 0.052470148
-0.020549461 -0.020650795 0.053609014
-0.029436722 0.001892467 0.051207185
-0.029165355 -0.0012665335 0.050478995
-0.028486202 -0.0053405971 0.049532592
-0.027574401 -0.0097938161 0.04969877
-0.026210498 -0.013588944 0.049098372
-0.023968777 -0.017047241 0.048797786
-0.02104615 -0.020691663 0.048844278
-0.029549478 -0.0025708275 0.04645133
-0.029358352 -0.0057211495 0.045461118
-0.028358391 -0.0095269112 0.045267224
-0.026984038 -0.013732692 0.044603705
-0.024489477 -0.017324252 0.044565618
-0.021890745 -0.020912718 0.045483291
-0.020337259 -0.023339339 0.044868767
-0.029948853 -0.00716535 0.041997492
-0.029446138 -0.01000856 0.041418493
-0.027834237 -0.013931938 0.040785015
-0.026208878 -0.016373342 0.041609287
-0.029147983 -0.00012990553 0.047403634
-0.02821324 0.002762666 0.043524206
-0.029522214 -0.00089722686 0.043780088
-0.030173058 -0.0042363573 0.043349922
-0.023838714 -0.018516846 0.042261779
-0.022007173 -0.02086019 0.042417586
-0.029197855 -0.001573367 0.038776219
-0.029961526 -0.0053137639 0.039025366
-0.029327886 -0.0098289195 0.038085818
-0.027735667 -0.013787414 0.037934184
-0.024703301 -0.017382102 0.038193405
-0.021354906 -0.020213 0.036935806
-0.029819299 -0.0055530034 0.034152508
-0.029148998 -0.0096218474 0.034674108
-0.027529053 -0.013742864 0.033754528
-0.025535021 -0.017068051 0.034032941
-0.028841384 0.0010880008 0.040406108
-0.029179404 0.00056687556 0.037350595
-0.021178465 -0.020271832 0.034066081
-0.029301936 0.0027982332 0.032822967
-0.02967068 -0.00048780628 0.03318435
-0.029797111 -0.0036041467 0.032206833
-0.02834107 -0.0091325697 0.030574977
-0.027127584 -0.011721075 0.030317247
-0.024553867 -0.016861074 0.030364335
-0.021659184 -0.020608786 0.031883776
-0.02986823 -0.0014091991 0.028692067
-0.029684309 -0.0049416954 0.028278232
-0.028412325 -0.0090366397 0.027403533
-0.026698394 -0.012973784 0.027133882
-0.024870997 -0.01710007 0.027280331
-0.022430029 -0.020340238 0.026979208
-0.020055749 -0.023200452 0.026895285
-0.029067 -0.0060559302 0.023792326
-0.028583473 -0.0089636268 0.023788035
-0.026982524 -0.013145055 0.022709727
-0.025479361 -0.016937815 0.021974444
-0.02323452 -0.019914094 0.021955788
-0.029376907 0.0004990017 0.025448084
-0.020757513 -0.021309193 0.023336709
-0.029002689 -6.6145323e-05 0.021161675
-0.028748089 -0.0042555025 0.021086812
-0.027904581 -0.008542384 0.020101666
-0.027031695 -0.012054303 0.019616961
-0.021941302 -0.020708958 0.019073308
-0.028336145 -0.003959843 0.018078864
-0.027748624 -0.0086330604 0.016095102
-0.026926806 -0.012838476 0.015734136
-0.025187176 -0.01662405 0.016200542
-0.023042612 -0.019621098 0.015199482
-0.019637106 -0.022200445 0.016115725
-0.026771197 -0.013425751 0.010453522
-0.025442813 -0.01554817 0.012096703
-0.028360678 0.0015010824 0.018404722
-0.028603593 0.00078787003 0.014533818
-0.028105818 -0.0035084798 0.014918923
-0.027679585 -0.006651131 0.014045775
-0.020667287 -0.020966038 0.013411939
-0.029290298 -0.00083820429 0.0092089176
-0.028727749 -0.0037685893 0.0096899867
-0.02766398 -0.0080530783 0.010163248
-0.026893729 -0.011250199 0.0099946856
-0.024519881 -0.016646076 0.0094204545
-0.022216868 -0.019878939 0.0090689659
-0.019131854 -0.022291457 0.0084174871
-0.029863801 -0.00091057457 0.0054064393
-0.029537886 -0.0041152807 0.0046507716
-0.028733978 -0.0082725193 0.0047113299
-0.027384741 -0.012427013 0.0048707724
-0.02522801 -0.016224951 0.0041259527
-0.02274128 -0.019387618 0.0035697222
-0.028825535 -0.0081386566 0.00036197901
-0.027079759 -0.012128377 8.1300735e-05
-0.025172852 -0.016047981 -0.0003811717
-0.028041795 0.0020981757 0.0080908537
-0.028651839 0.00173287 0.0029979348
-0.021202859 -0.02081424 0.001856029
-0.018770402 -0.022226878 0.0022041798
