# .PCD v0.7 - Point Cloud Data file format
VERSION 0.7
FIELDS x y z
SIZE 4 4 4
TYPE F F F
COUNT 1 1 1
WIDTH 548
HEIGHT 1
VIEWPOINT 0 0 0 1 0 0 0
POINTS 548
DATA ascii
0.02776916 0.023311362 0.18106762
0.029916242 0.019832823 0.17815369
0.029443754 0.02247476 0.17844707
0.028314352 0.02483518 0.17820922
0.030412056 0.023683203 0.17521095
0.028930224 0.024971463 0.17506617
0.022380749 0.020574696 0.18388402
0.020797666 0.022763316 0.18329439
0.027488701 0.013423492 0.18071932
0.026998736 0.017386053 0.18184534
0.025834184 0.02104542 0.18213183
0.023900438 0.024620224 0.18137136
0.022082543 0.026678301 0.17967865
0.029374857 0.014063071 0.17662701
0.029853167 0.018201085 0.1777212
0.026499638 0.02620377 0.17725036
0.024368254 0.02744947 0.17603904
0.029902797 0.015397708 0.17346209
0.030423885 0.018418349 0.17274255
0.030504728 0.022237111 0.17311808
0.027823498 0.026038364 0.17249331
0.031033045 0.019226221 0.16882682
0.030749537 0.022865783 0.16911989
0.028657349 0.025788179 0.16889578
0.025970671 0.0026984913 0.18224922
0.024478935 0.0063815676 0.18206662
0.022861319 0.010728739 0.18194985
0.021829734 0.015701842 0.1828354
0.019495642 0.018515635 0.1837472
0.028809454 -0.00036543142 0.17964903
0.028042914 0.0034783757 0.18023747
0.027068362 0.0075157015 0.18013602
0.026484763 0.010737885 0.18084115
0.030108953 0.00014609471 0.17653573
0.029686674 0.0041059931 0.17571405
0.029090604 0.0078753382 0.17539132
0.02896178 0.011153875 0.17496264
0.029558688 0.0083737634 0.16996306
0.02923901 0.01266763 0.17034206
0.023351017 0.026859552 0.16971657
0.030212013 0.013075983 0.16581416
0.030338697 0.017571881 0.16627434
0.02980742 0.021462491 0.16574752
0.027179986 0.025730891 0.16534644
0.023921229 0.02692277 0.16465095
0.031038828 0.013292301 0.16279274
0.029947318 0.017650446 0.16164276
0.029269427 0.021818116 0.1617727
0.02744201 0.025347032 0.16131192
0.025124483 0.027275357 0.16101676
0.029100997 0.021615423 0.15791446
0.027869435 0.024686672 0.15777695
0.014506804 0.016715547 0.1830276
0.025229322 -0.0017643785 0.18230447
0.023590181 0.0017356072 0.18311372
0.021234617 0.0050423373 0.18225193
0.019024141 0.0084230676 0.1815061
0.017788442 0.012653366 0.18175292
0.027569296 -0.0024878178 0.1803413
0.029769376 -0.00044909772 0.17323294
0.02951874 0.0030010883 0.17204627
0.029154774 -0.00067163166 0.16907173
0.029159296 0.003392789 0.16821253
0.029034002 0.0062143607 0.16788635
0.029184964 0.004268019 0.16337505
0.029789159 0.0078069456 0.16421667
0.029986151 0.0084235622 0.15989366
0.029822914 0.011721486 0.1591388
0.02994688 0.015340151 0.15942854
0.023362547 0.028193846 0.15903369
0.028647186 0.012733355 0.15534839
0.028302688 0.016586635 0.15438882
0.028723303 0.021355638 0.15479317
0.026992559 0.025163818 0.15486872
0.023770485 0.02703264 0.15472186
0.028289555 0.018175526 0.15087301
0.028370393 0.02104014 0.14979887
0.026813513 0.024256893 0.15007859
0.018354446 -0.00014301669 0.18229234
0.016472045 0.0030603227 0.18219069
0.014824835 0.0069435863 0.18233752
0.013609947 0.010754107 0.1822083
0.028779067 -0.0026386604 0.16685721
0.0289071 -0.0020235181 0.1623134
0.029126076 0.0022217929 0.16199815
0.029235199 -0.0013972744 0.15846384
0.02921138 0.0031338125 0.15761605
0.029181685 0.0066700606 0.15719905
0.028671183 0.0039517377 0.15316036
0.028911179 0.0071133883 0.15249652
0.028731553 0.011042709 0.15288863
0.028309477 0.013929133 0.15260595
0.029115567 0.0083182547 0.14897639
0.029045448 0.011334369 0.14805248
0.028413363 0.015771138 0.14831138
0.02532161 0.025015973 0.14728743
0.022614438 0.025860257 0.14672047
0.029082034 0.012469204 0.14438114
0.028565791 0.016029682 0.14453638
0.02855397 0.020556899 0.14347643
0.027006853 0.024456043 0.14366508
0.023516497 0.026086237 0.1427612
0.029135268 0.020932589 0.1381512
0.027729591 0.024296956 0.13836485
0.030075032 0.022622863 0.1345973
0.029227968 0.023718236 0.13423374
0.0069395727 0.006450553 0.18291059
0.01179794 0.0011210523 0.18224624
0.011007944 0.0048986627 0.18273962
0.0091470368 0.009070348 0.18241441
0.028295174 0.0016516764 0.15417755
0.028326435 -0.0023395959 0.15085542
0.028472282 0.002100287 0.15043759
0.028685899 0.0052626007 0.14975506
0.028685249 0.0025668591 0.14557165
0.028851602 0.0064493865 0.14618623
0.029173682 0.0096529014 0.14560491
0.029350128 0.0068151704 0.1414656
0.029290551 0.010822602 0.14198959
0.028558975 0.014755685 0.14156315
0.029003717 0.01099442 0.13751045
0.028593982 0.014886383 0.13708305
0.028608698 0.018519405 0.13710803
0.025757784 0.025325757 0.13671815
0.022644144 0.025896952 0.13590133
0.029178157 0.015692225 0.13299799
0.029567882 0.019900192 0.13271394
0.027081043 0.02467745 0.1325528
0.023764066 0.025832716 0.13151622
0.029481038 0.020351216 0.12805265
0.028006252 0.024048779 0.12696576
0.028245943 0.024443757 0.12413013
0.0063150809 0.0032648838 0.18270662
0.027730044 0.00015743822 0.1430214
0.027633602 -0.001954725 0.14082316
0.028349806 0.0022356352 0.13991314
0.02839263 0.0046187574 0.13803262
0.027744889 0.0061634495 0.13476628
0.028230941 0.0098773222 0.13405496
0.027916467 0.010709957 0.13068998
0.028259285 0.013897183 0.13008642
0.021726923 0.02604294 0.128562
0.027786626 0.01498849 0.12541115
0.029137855 0.018069364 0.12564701
0.023630425 0.026166309 0.12518954
0.028696444 0.019209789 0.12176657
0.028034981 0.023781963 0.12121862
0.024883835 0.026288323 0.12053344
0.028915787 0.020125827 0.11769342
0.028014384 0.023078736 0.11696595
0.055475026 0.007286028 0.076335728
0.055181339 0.0093477163 0.075732946
0.057530314 0.0072695045 0.073167622
0.056458663 0.0097600427 0.073007345
0.057596579 0.0093572 0.06989032
0.0027566841 0.0018101193 0.18276986
0.027283931 0.00016201194 0.13666099
0.027162805 0.0011330368 0.13290423
0.027297825 0.0043871105 0.13204303
0.027181465 0.0010413947 0.12888795
0.027085384 0.0052836742 0.12787494
0.027165432 0.0089673754 0.12791517
0.027723538 0.0060370341 0.12293321
0.027366618 0.0094429031 0.12319058
0.027600616 0.012874275 0.12382534
0.022479359 0.026498098 0.1220668
0.02864987 0.0068700607 0.1196292
0.02798437 0.0097151017 0.11849844
0.027672403 0.01381012 0.11882323
0.027906394 0.017323088 0.11869013
0.023006627 0.026568204 0.11767203
0.028037997 0.014087116 0.11453396
0.028421579 0.018171325 0.11457115
0.028080028 0.022583295 0.11383557
0.024735337 0.025419131 0.11388505
0.028729716 0.018480504 0.10955268
0.028909579 0.022803016 0.11067969
0.026087154 0.025169667 0.10945231
0.02949699 0.019925151 0.1054557
0.028833145 0.02260532 0.10568112
0.027135644 0.02484775 0.10493517
0.045153871 0.0078370487 0.086401284
0.043564096 0.010857394 0.085955381
0.048567861 0.0041690692 0.082915485
0.047113899 0.0067708781 0.083986104
0.045506369 0.010823073 0.083642781
0.043992963 0.013128646 0.083040774
0.052535243 -0.00074603409 0.0795241
0.051463727 0.0037164381 0.080342472
0.0505394 0.008340341 0.080289781
0.048221808 0.011640852 0.079886258
0.045686875 0.013643189 0.078685224
0.056154385 -0.0038444847 0.075729549
0.055290814 -8.8829547e-05 0.076097429
0.054733299 0.0042575002 0.07678777
0.05311358 0.009460697 0.076496482
0.05017551 0.012233108 0.075696647
0.046835039 0.013994744 0.075799286
0.057959773 -0.0031945352 0.071935833
0.057853702 0.00050994381 0.071676493
0.057572808 0.0042818934 0.072239816
0.054769132 0.011214112 0.071956336
0.052421104 0.01241706 0.071237803
0.059118934 -0.0026923791 0.06835252
0.05897107 0.0010706708 0.066667259
0.058916178 0.0061308276 0.068021595
0.056633849 0.010484841 0.067117751
0.053251751 0.0123252 0.066917598
0.059719771 0.0019969083 0.062677681
0.058929674 0.0056372471 0.061989009
0.057003144 0.0097274547 0.062065899
-0.0029213987 -0.00050103274 0.18312734
0.027121846 -0.0013414966 0.12717757
0.026724666 9.1315247e-05 0.12252223
0.027298715 0.0038458733 0.12258685
0.026899939 0.0008498095 0.11757076
0.027926944 0.0047777882 0.11737299
0.0281539 0.0087257419 0.11586154
0.02786083 0.0051516742 0.1131739
0.028063295 0.0092700962 0.11203802
0.028166063 0.013370343 0.11180526
0.022065572 0.026002092 0.11093098
0.028223455 0.0094474927 0.10751635
0.028582064 0.01375354 0.10784829
0.028847734 0.016778966 0.10696554
0.023931693 0.026239738 0.10712868
0.029489065 0.013922716 0.10274285
0.029134292 0.017811492 0.10328847
0.028282039 0.022271948 0.10219067
0.024817279 0.025744643 0.10203022
0.030062025 0.014377557 0.098907709
0.029094871 0.018023739 0.097931385
0.027811699 0.021938503 0.097760856
0.025968457 0.02505412 0.097932875
0.033485401 0.013646547 0.092133701
0.030493885 0.016980808 0.094582856
0.037811428 0.0088543389 0.089052737
0.036380861 0.011774426 0.090043664
0.03485493 0.015399741 0.08958751
0.044371404 0.00098666456 0.084961236
0.043307424 0.0049009323 0.086675346
0.041497365 0.0091661355 0.087247789
0.040134765 0.013175456 0.086700261
0.036958952 0.016115855 0.086116731
0.034208406 0.018155182 0.086129427
0.04763272 -0.0026941579 0.081812799
0.04723379 0.00082407705 0.083053887
0.0423938 0.014652524 0.082121968
0.039196447 0.016037257 0.081441998
0.050834645 -0.0030817054 0.079973757
0.044207573 0.015221472 0.077880323
0.041744463 0.016365539 0.076074004
0.048166417 0.012929524 0.072623253
0.045440186 0.014778643 0.072800338
0.05827355 -0.005174024 0.07082355
0.048700742 0.012999283 0.069089234
0.046722852 0.01399857 0.068141818
0.059186231 -0.0040231477 0.066293716
0.059525218 -0.00048583746 0.064384818
0.050348051 0.012872037 0.064056575
0.059414145 -0.0034977403 0.061511934
0.059285339 0.00031837448 0.060367942
0.056427848 0.0098548597 0.059378564
0.052163344 0.012555391 0.059915245
0.05907993 0.000635501 0.056202948
0.059377845 0.0050380137 0.056932867
0.0569943 0.0091994377 0.056116879
0.053759702 0.011910879 0.055559397
0.059144482 0.0017241929 0.05253154
0.058875561 0.0047405809 0.051503479
0.056998834 0.0086894473 0.052002132
-0.0054680649 -0.0060167992 0.1830489
-0.0066900961 -0.0020459169 0.18309987
0.026725339 -0.0023404742 0.12013704
0.02749742 -0.0012123594 0.11601323
0.027644873 -0.00042541325 0.11113799
0.027723117 0.0043198578 0.11077553
0.027816987 0.00099701434 0.10690415
0.02831766 0.0045016347 0.10673541
0.028597811 0.0088283503 0.10498959
0.028975463 0.0055810972 0.10133988
0.029672427 0.0095018987 0.101623
0.03127623 0.0061161951 0.096591234
0.031334639 0.010000859 0.097203255
0.030808788 0.013928442 0.096724987
0.029275931 0.018021051 0.095855534
0.024975643 0.025922496 0.095582843
0.035328574 0.0020149006 0.091827929
0.034229428 0.0063954713 0.09299922
0.033810779 0.010866745 0.093570292
0.032036554 0.014781488 0.093488395
0.03050095 0.018584751 0.09282887
0.028741278 0.022132087 0.092650473
0.026347823 0.025595173 0.091667414
0.02343666 0.027755931 0.090366006
0.039241936 -0.0015687775 0.087802827
0.038414501 0.0028910358 0.08910507
0.037059236 0.0070882505 0.089878082
0.032865342 0.016295103 0.09041059
0.032085694 0.018876508 0.088530838
0.029607397 0.022297831 0.087455809
0.027300153 0.02580471 0.086551726
0.024363725 0.027631028 0.08661437
0.042177979 -0.0011303285 0.085672617
0.041080337 0.002436378 0.08724159
0.035961036 0.017273832 0.0833655
0.033082124 0.019090252 0.083449483
0.030447003 0.022485409 0.083225906
0.027822265 0.025897019 0.083019912
0.036981527 0.017175579 0.079705894
0.034906831 0.01816106 0.078713775
0.03813481 0.017095948 0.075150967
0.03516756 0.018124629 0.07489866
0.04324384 0.015208198 0.068964303
0.039578572 0.016462451 0.070566118
0.044218358 0.014727641 0.065624475
0.040723424 0.015587213 0.066839635
0.0459566 0.014098898 0.06146419
0.059409894 -0.0053507909 0.058601558
0.047858231 0.014222236 0.056930959
0.059469704 -0.0040166229 0.055005968
0.059088144 -0.0011971723 0.054572642
0.051990394 0.01309229 0.053394556
0.049429175 0.014476952 0.05292511
0.059767008 -0.0037562009 0.049495637
0.05973734 0.00017274357 0.050248384
0.059786133 0.0033504963 0.049573958
0.056741558 0.0092155281 0.049122274
0.053098049 0.012251969 0.048974216
0.05972755 0.00041719712 0.045628548
0.059246354 0.0044049211 0.045300186
0.057104137 0.0082696956 0.044808328
0.054790366 0.0099093905 0.042976916
0.058473472 0.0053533893 0.040751278
0.026948268 -0.0022107558 0.10373312
0.027511338 0.0012109121 0.10342503
0.027569491 -0.0012354916 0.098804832
0.028056083 0.0020410558 0.10014021
0.029925339 -0.0010039909 0.094576657
0.030010948 0.0026714951 0.095963478
0.032844357 -0.00034834538 0.092647374
0.032188199 0.0027357992 0.093802154
0.023064066 0.027815038 0.084571362
0.031013593 0.019623633 0.079829335
0.029493783 0.021977641 0.079241097
0.027218085 0.02558111 0.080398738
0.023568535 0.027625121 0.079912603
0.031582102 0.018836543 0.076447666
0.028873721 0.021610614 0.075564921
0.026849531 0.025120884 0.076157928
0.032645702 0.018496968 0.07180202
0.029606488 0.021785384 0.072201312
0.027649118 0.024756245 0.07243371
0.036750685 0.01644936 0.066295803
0.034294993 0.018020503 0.068017364
0.03890213 0.015451469 0.063133299
0.042726491 0.014601754 0.059139192
0.039731409 0.014858549 0.058565676
0.043695889 0.014828955 0.054963171
0.045502387 0.01476732 0.05000931
0.051873486 0.01254359 0.045271218
0.048083514 0.014499409 0.046941161
0.058576096 -0.0052956529 0.04282254
0.058850959 -0.00044339336 0.042225599
0.052322857 0.011399305 0.041748464
0.049544625 0.013666745 0.041386127
0.058386054 -0.0038176831 0.039580762
0.058761697 -0.00085990317 0.038612723
0.058584832 0.0037882067 0.038580179
0.056679413 0.0074836789 0.038292408
0.052892726 0.010753258 0.037566423
0.059256088 -0.00018935651 0.034006059
0.058618497 0.0033702459 0.033679426
0.056792524 0.0072961869 0.033299029
0.054700531 0.0099621946 0.033880532
0.059107006 0.0043715276 0.030572832
0.057962466 0.0068975855 0.030357003
0.025440916 0.026154026 0.072979629
0.023927348 0.027092498 0.073987246
0.030910378 0.019218644 0.069491923
0.029477045 0.021626748 0.0689888
0.026840035 0.025303483 0.069283366
0.024449898 0.027187351 0.070405543
0.031931017 0.018894408 0.0657987
0.029742908 0.021601683 0.065129519
0.027021989 0.024266243 0.06459558
0.036477964 0.016145078 0.061187327
0.033145115 0.017881494 0.061111867
0.029477043 0.02134919 0.060715377
0.037146311 0.015736958 0.056519449
0.034602828 0.017268376 0.057813823
0.0390759 0.015259714 0.052542269
0.040974464 0.015457753 0.048204601
0.045796368 0.014466379 0.043343663
0.042950578 0.015556939 0.043135703
0.04616572 0.014462085 0.039520383
0.058811277 -0.0054802764 0.037059665
0.051965211 0.011363864 0.034541368
0.04958678 0.013165534 0.034992278
0.045767106 0.014916704 0.036161363
0.05952058 -0.0050571524 0.03211683
0.059553877 -0.0017015561 0.031664312
0.053736541 0.010948694 0.031202078
0.050956644 0.01287851 0.030323207
0.059176844 -0.0056156088 0.028165519
0.059632536 -0.00068418495 0.027448297
0.059167236 0.0032730456 0.027536154
0.057468753 0.0075206673 0.027393162
0.05476572 0.010665777 0.026482761
0.051648993 0.012382537 0.026178539
0.059333842 0.00029138848 0.023011625
0.059254766 0.0034974813 0.022568405
0.058214262 0.0072017964 0.022536516
0.055644467 0.010068096 0.021840394
0.023350403 0.026673319 0.067248344
0.025110899 0.02455277 0.061462104
0.022403276 0.026160719 0.062156081
0.030599114 0.018682588 0.057774484
0.028457243 0.020627011 0.057516992
0.025222735 0.024096798 0.057465792
0.032349743 0.017732525 0.053873599
0.02949108 0.019868795 0.052405059
0.03563308 0.015963299 0.052125573
0.034102425 0.016741171 0.048913956
0.030311048 0.019792851 0.049588382
0.039551761 0.01577181 0.0452649
0.036183991 0.016292611 0.044941545
0.040198006 0.015896585 0.041731894
0.037523802 0.016281996 0.040425956
0.040850244 0.014811365 0.036214769
0.046966076 0.013754884 0.032700121
0.043248713 0.014205834 0.031428397
0.04683857 0.013520944 0.028278649
0.048925385 0.012925941 0.023731172
0.058510888 -0.0022305176 0.020592749
0.056683909 0.0080966912 0.018968105
0.053632472 0.011437703 0.020358324
0.05102507 0.012227098 0.019682467
0.058372177 -0.0015218258 0.015734196
0.058314182 0.0023656376 0.016105473
0.056477766 0.0062984908 0.014914095
0.054067418 0.009277435 0.015532434
0.059188917 -0.00033758022 0.011976898
0.059181102 0.0026714969 0.010924578
0.057295609 0.0059493221 0.010959685
0.024268452 0.025166132 0.055234134
0.022145243 0.026266733 0.05628556
0.026902998 0.021636982 0.054385364
0.026137311 0.022953909 0.051787138
0.023476476 0.025320813 0.050420463
0.030340701 0.020098003 0.047110438
0.027065912 0.022778969 0.046837926
0.024646323 0.025037404 0.046166182
0.033120036 0.017285476 0.043501318
0.030298661 0.019577768 0.043452442
0.027769011 0.021590993 0.042642534
0.034274142 0.016829928 0.039172471
0.039332125 0.015264726 0.034417689
0.036996398 0.016253205 0.035197318
0.039649602 0.014835373 0.029817641
0.037282333 0.015812814 0.030563772
0.042083837 0.014281534 0.026111484
0.047602929 0.013515695 0.02053082
0.044285666 0.013728594 0.021651685
0.048866089 0.013141853 0.017363727
0.045286834 0.013964422 0.017368555
0.058574952 -0.0031016972 0.013219357
0.052834108 0.009764649 0.012920618
0.049447019 0.01206631 0.013266742
0.057951473 -0.0056084134 0.0098949671
0.058989406 -0.0020994581 0.0093414783
0.056638297 0.007087783 0.0085721016
0.053234108 0.0090101808 0.0085408092
0.058850665 -0.0015718564 0.0058017373
0.059472684 0.0025418922 0.0057894588
0.057319932 0.006188048 0.0049720407
0.054900408 0.0082052248 0.0043642521
0.058335248 0.0026075486 0.0014207959
0.057083197 0.0051360391 0.001095891
0.02586256 0.02391867 0.043765128
0.022334641 0.02585501 0.043993115
0.029781584 0.019255962 0.040039957
0.026999932 0.022914225 0.040010571
0.024724131 0.025472214 0.039454579
0.032556906 0.017173639 0.036116302
0.029787758 0.019130517 0.036316454
0.027551029 0.022794116 0.035471261
0.02496824 0.025727831 0.034698427
0.033712216 0.016714513 0.031753659
0.030133605 0.018604903 0.031876326
0.027846282 0.023284577 0.03132236
0.026556589 0.025351502 0.032232344
0.034838125 0.016456278 0.027267039
0.039921638 0.015072294 0.023254454
0.036342118 0.016489994 0.022995532
0.041255254 0.01468561 0.019061983
0.038556296 0.015848625 0.017938793
0.042627681 0.014293214 0.01436007
0.047334019 0.012457659 0.0098884702
0.044401541 0.013299467 0.009816587
0.051239479 0.0097998353 0.0056053996
0.048272423 0.011455241 0.0056848526
0.058428589 -0.0031905081 0.0029733181
0.052641071 0.0091340849 0.0021237731
0.049396403 0.011458639 0.00065153837
0.029153848 0.019654959 0.029192269
0.028213775 0.021829046 0.029049516
0.024915662 0.026145274 0.028847933
0.030048493 0.018652976 0.024982512
0.02779418 0.02272122 0.024247885
0.02608509 0.025700126 0.024458766
0.034873184 0.017527509 0.020349026
0.031872455 0.018255986 0.020419359
0.035901267 0.017045392 0.016874313
0.032868348 0.018089477 0.01540041
0.040729314 0.014972608 0.012211025
0.037473388 0.015572117 0.011949718
0.040657673 0.013622034 0.0078732371
0.043765143 0.012789254 0.0035880208
0.047339171 0.012541352 -0.00054937601
0.023058711 0.0268558 0.025219202
0.028384671 0.019598808 0.021327794
0.027764617 0.020887088 0.02118367
0.023517037 0.025376149 0.020862997
0.029271683 0.019339778 0.0184986
0.027519256 0.0222308 0.01818949
0.024692249 0.024147931 0.016163528
0.030806459 0.019214401 0.014276087
0.028009672 0.022062667 0.013822854
0.035184596 0.016490396 0.0095111728
0.031235658 0.018787675 0.0097469687
0.038788415 0.013933986 0.0056093335
0.03583689 0.015822779 0.005204618
0.039964166 0.013465165 0.0011556745
0.037186049 0.014617704 -8.4936619e-05
0.022021584 0.02462386 0.014870703
0.026751123 0.02244167 0.0099615455
0.023145268 0.02471289 0.01070863
0.03038892 0.018332817 0.0062289834
0.027250627 0.021530274 0.0063921809
0.024084115 0.024659403 0.0067195892
0.03349597 0.016290708 0.0012571216
0.030048775 0.017754618 0.0023428798
0.027458936 0.020930842 0.0024817586
0.0211298 0.025624011 0.0078507066
0.022405921 0.025061466 0.0036382079
0.028109489 0.018780462 0.0001578331
0.026269151 0.021674387 -0.00024086237
