# .PCD v0.7 - Point Cloud Data file format
VERSION 0.7
FIELDS x y z
SIZE 4 4 4
TYPE F F F
COUNT 1 1 1
WIDTH 457
HEIGHT 1
VIEWPOINT 0 0 0 1 0 0 0
POINTS 457
DATA ascii
0.027124889 0.023821041 0.17741224
0.024676161 0.02607209 0.17858282
0.026222741 0.026519584 0.17552227
0.026431382 0.01765056 0.17943305
0.024658686 0.019937402 0.18113774
0.021579225 0.023442134 0.18186149
0.018219437 0.026322242 0.18177158
0.014829252 0.028487545 0.18093306
0.027703159 0.018793654 0.17707875
0.027000476 0.021656953 0.17831275
0.023623263 0.025086692 0.17967433
0.02043234 0.028287081 0.17764157
0.01671442 0.030111495 0.17644379
0.027895944 0.022515902 0.17358011
0.025177568 0.027221125 0.17346528
0.021248071 0.028857207 0.17294794
0.017617628 0.029880229 0.1723021
0.028264048 0.023761468 0.16931856
0.026680399 0.027366865 0.16957772
0.022511266 0.02877121 0.16853172
0.02830442 0.024340007 0.16561666
0.025776889 0.027749151 0.16515112
0.025010003 0.010750564 0.18257436
0.022816077 0.012709816 0.18302783
0.020395314 0.015552455 0.18323365
0.01756735 0.018633159 0.18284535
0.014006324 0.022703774 0.18267664
0.010648059 0.024529217 0.18306118
0.027017459 0.011283766 0.18004891
0.025413385 0.014822958 0.18076161
0.022471206 0.017091533 0.18194318
0.019843198 0.019613549 0.18215236
0.0098605724 0.028919611 0.17892632
0.028462557 0.012677079 0.17610398
0.027746042 0.015831148 0.17617118
0.011317381 0.029373065 0.1739575
0.028517203 0.013617193 0.17134684
0.028154567 0.017004143 0.17098922
0.016032673 0.029881503 0.16976064
0.028275859 0.018281721 0.16666114
0.028129315 0.020973185 0.16701472
0.019983983 0.028674601 0.16620648
0.017032644 0.029324362 0.16590524
0.027434289 0.021789379 0.16234529
0.026132081 0.026024286 0.16215575
0.021806451 0.028354535 0.16231552
0.025944673 0.025949776 0.15737307
0.023250496 0.0272888 0.15774298
0.0063318149 0.020310869 0.18233937
0.023847517 0.0076450678 0.18227595
0.021175342 0.010221435 0.18339819
0.017698774 0.012849116 0.18319553
0.014454857 0.015674263 0.18230656
0.011920738 0.018838489 0.18209431
0.026875783 0.0086870305 0.17989075
0.028537225 0.010610718 0.17353848
0.028457727 0.011816551 0.16889197
0.0098137129 0.028548999 0.16690487
0.02811436 0.012760617 0.16425437
0.02813291 0.015444065 0.16432303
0.014201231 0.028245945 0.16189331
0.010929193 0.028499953 0.16229391
0.027825996 0.016535707 0.16091406
0.026774082 0.019309741 0.15909594
0.018977929 0.02781916 0.15921193
0.016453527 0.027673647 0.15905565
0.027089253 0.020684682 0.15566194
0.026751077 0.024093559 0.15537417
0.020569976 0.027094644 0.15472943
0.01739483 0.027873486 0.15367734
0.027749525 0.022143772 0.15069902
0.026828934 0.025620773 0.15101796
0.022098325 0.027437035 0.15035784
0.01821542 0.028536441 0.15078017
0.028095515 0.023052791 0.14631552
0.0269573 0.025670797 0.14608449
0.023282707 0.027289391 0.14604527
0.016953819 0.006829286 0.18223134
0.014125227 0.0092139645 0.18227214
0.011399421 0.012167363 0.18217891
0.0082656629 0.015235588 0.18178755
0.028006924 0.011072597 0.1619567
0.0096419314 0.028834794 0.16005677
0.027744541 0.011470595 0.15736026
0.027075285 0.014686653 0.15703061
0.013930926 0.027628852 0.15673172
0.010642135 0.028875954 0.15582633
0.027367562 0.015376131 0.15331542
0.014580216 0.027859084 0.15201521
0.011625024 0.028410025 0.15181002
0.027480315 0.016860358 0.14830515
0.027733909 0.019095192 0.1496259
0.016167758 0.028492199 0.14743808
0.027561264 0.020559045 0.1451422
0.026511876 0.025046242 0.14267132
0.021936238 0.028083283 0.14340636
0.01809733 0.028841879 0.14375442
0.02653051 0.021170741 0.14060938
0.025966218 0.024569901 0.13885421
0.023477167 0.027469415 0.13836154
0.020221822 0.029007476 0.13909733
0.023618465 0.027421178 0.13463938
0.010687109 0.0062444359 0.18222654
0.0079528149 0.008757567 0.18238091
0.0047865403 0.011286294 0.1818513
0.027411837 0.0095097413 0.15078193
0.027372405 0.013029323 0.14999819
0.0098092034 0.028403874 0.1488663
0.027480833 0.010977539 0.14617023
0.02733176 0.01373685 0.14658201
0.010650274 0.027864672 0.14433372
0.027365636 0.014992092 0.14187133
0.026832957 0.018370192 0.1418148
0.015393605 0.02862555 0.14116645
0.012430831 0.028534532 0.14028361
0.026607083 0.018916933 0.13731807
0.016836578 0.028954698 0.13674212
0.01366733 0.029075786 0.13610336
0.026808962 0.020264562 0.13308477
0.025724411 0.023540583 0.13358185
0.0232841 0.026962433 0.13204604
0.019483721 0.028707827 0.13303775
0.016091708 0.029360708 0.13202658
0.027288027 0.02126608 0.12877527
0.025951451 0.023722129 0.12834188
0.023490295 0.026944168 0.12763578
0.020844346 0.028127884 0.12760031
0.025922175 0.024461634 0.12490487
0.023545049 0.026853357 0.12474829
0.0072018569 0.0022430348 0.18171331
0.0044776052 0.0053206701 0.18259731
0.0095187547 0.0036098922 0.18174875
0.027380008 0.0089289462 0.13991821
0.026996065 0.011957087 0.13881883
0.009642777 0.028272912 0.13761604
0.026922245 0.014791212 0.13591009
0.011517915 0.029075064 0.1332114
0.0090629691 0.028311484 0.13385773
0.027389672 0.015775468 0.13157409
0.027368339 0.018147079 0.13141698
0.017586317 0.028827984 0.12979341
0.013682922 0.029116986 0.12946132
0.010502588 0.029515918 0.12964427
0.02765609 0.019044761 0.12654844
0.018384494 0.028499808 0.12627897
0.015818942 0.028777361 0.12484008
0.027685691 0.020533096 0.12228292
0.026645366 0.023827534 0.12253422
0.023569714 0.026731078 0.1218136
0.019747674 0.028041214 0.12175068
0.026557507 0.023725515 0.11718625
0.023842655 0.026534799 0.11729497
0.026657533 0.024605218 0.11387491
0.024821902 0.026609344 0.11384511
0.0017751371 0.0026443573 0.18268993
0.026309313 0.011375749 0.13284343
0.026500372 0.0089757387 0.13022768
0.026342008 0.012246708 0.12805423
0.011803463 0.028737351 0.12618062
0.026220266 0.014098879 0.12320444
0.012755069 0.028567217 0.12282246
0.0093151629 0.028697126 0.12205058
0.027592035 0.017892966 0.12036622
0.01789055 0.027982153 0.1186229
0.014312276 0.028380051 0.11816555
0.027835313 0.020134281 0.11596709
0.022324689 0.02704341 0.11444056
0.019333189 0.027952904 0.11499548
0.016086029 0.028520247 0.11325824
0.028105982 0.020305499 0.1107887
0.027185952 0.023756651 0.11122787
0.024070045 0.026955435 0.11106306
0.020149857 0.02828164 0.11010987
0.028579393 0.021305015 0.10639071
0.027609551 0.02419473 0.10645562
0.024953045 0.027324483 0.10654837
0.021572117 0.028456219 0.10632265
0.02726547 0.024607737 0.10255337
0.025337672 0.026538139 0.10242397
-0.002341164 -0.0014573989 0.18234468
0.025999382 0.0082389833 0.12662923
0.025546972 0.0097938115 0.12235868
0.026161175 0.012729336 0.11756015
0.026357012 0.015780853 0.11646944
0.011772997 0.028246157 0.1152494
0.02698772 0.01326235 0.11252528
0.027091846 0.016338095 0.11335009
0.013362861 0.028671898 0.11161709
0.0099752182 0.02918306 0.1107372
0.027267996 0.014275383 0.10837775
0.027463146 0.016857732 0.1075241
0.018577129 0.028757155 0.10717559
0.015194764 0.029066795 0.10738611
0.028414628 0.018731942 0.10381454
0.019452065 0.028134592 0.1028012
0.016444772 0.02915157 0.10249233
0.028355489 0.02019378 0.099204421
0.027402937 0.023335051 0.099365771
0.024010941 0.026289277 0.09887892
0.020387091 0.027442258 0.098538339
0.028727368 0.020837184 0.095374107
0.027287612 0.023517137 0.094593823
0.024956675 0.026091708 0.09467572
0.026274614 0.025906533 0.090807259
-0.0025936691 -0.0075410102 0.18225068
-0.0051155193 -0.0046776989 0.18268123
0.026175238 0.0087527698 0.11633223
0.026895661 0.0093912585 0.1116581
0.027342919 0.01198934 0.10712284
0.012962965 0.028898539 0.10364693
0.0087925578 0.028768159 0.10484076
0.027602846 0.013485996 0.1026237
0.028223194 0.01673083 0.10055542
0.01345774 0.028576443 0.099832952
0.010378539 0.028243698 0.10160899
0.030069377 0.014442029 0.096657097
0.028762903 0.01785963 0.097211897
0.018962182 0.027661216 0.095953465
0.016193418 0.028627517 0.096095562
0.035242677 0.012181125 0.091892719
0.032559674 0.015538962 0.093083918
0.029620757 0.019397786 0.092876256
0.028104303 0.022956798 0.092249751
0.023764463 0.02672614 0.092280209
0.020141196 0.027653329 0.091757715
0.016390136 0.028498786 0.091775775
0.037559528 0.013710237 0.089025378
0.034189939 0.017160309 0.08884728
0.030458217 0.02021475 0.088188946
0.027992992 0.02361838 0.088587224
0.025041191 0.026734335 0.088238657
0.021683658 0.027789133 0.087279379
0.039323092 0.015266564 0.085151255
0.035483751 0.017930444 0.084361374
0.03100686 0.020032709 0.083942354
0.027760312 0.023508079 0.08356303
0.025334714 0.026158234 0.083537281
0.02227054 0.027386276 0.083022416
0.044403575 0.014355802 0.082028925
0.040935375 0.016654968 0.081078112
0.037291862 0.018209467 0.079838157
0.045067575 0.014673557 0.076645255
0.041851226 0.01662283 0.076316714
0.038849384 0.018180508 0.076567471
0.046159066 0.01450501 0.072242796
0.027172973 0.0091200899 0.099147856
0.028685585 0.010665171 0.096531034
0.012197101 0.027780004 0.094579458
0.0093383528 0.027664509 0.093048751
0.01381544 0.02835631 0.089594841
0.011115419 0.028398914 0.088240862
0.019326702 0.027846027 0.085339129
0.015223116 0.028356463 0.084914267
0.03088134 0.019240199 0.080862641
0.02744407 0.022629568 0.080267847
0.02437349 0.025910471 0.080024183
0.019604316 0.0272479 0.080472171
0.016667798 0.028298073 0.081150353
0.035233911 0.018499348 0.077315807
0.031015392 0.019254118 0.077200115
0.027540307 0.022260576 0.076838434
0.024480272 0.025339473 0.076213777
0.021499729 0.026812265 0.076608002
0.03980146 0.016265023 0.072657049
0.036638524 0.017689221 0.073054135
0.032063048 0.019478597 0.072965264
0.027738655 0.02304673 0.073479652
0.025007233 0.0256822 0.072731972
0.044399895 0.014256527 0.069033921
0.040897064 0.015785946 0.06837225
0.037331391 0.017137099 0.068782926
0.041671485 0.015332971 0.064545274
0.010416477 0.029180583 0.082460344
0.014922647 0.028411852 0.078024924
0.011541994 0.02903639 0.078155875
0.019050777 0.026932541 0.074104667
0.016115099 0.027547639 0.073298454
0.031078117 0.019810157 0.070206523
0.028597515 0.021856092 0.070644677
0.025007248 0.025524389 0.069583595
0.020703848 0.027170081 0.069683492
0.035443649 0.017607119 0.067257941
0.032414015 0.018964197 0.066517651
0.028338093 0.021735471 0.065429986
0.025311537 0.025632661 0.065777838
0.022402739 0.027151911 0.065226555
0.040766582 0.015776906 0.062656522
0.036910467 0.017312586 0.062464416
0.03298609 0.01860996 0.061910152
0.028149316 0.022326687 0.061569154
0.025683539 0.024798391 0.061411321
0.045100518 0.013752712 0.058625221
0.041329786 0.015328436 0.058399498
0.037881427 0.016689159 0.057951212
0.042517677 0.014526086 0.05434078
0.0094235651 0.028665598 0.075155497
0.013392346 0.02727917 0.070877135
0.009642195 0.028221905 0.070952892
0.014832562 0.027190568 0.066690266
0.011798517 0.028146941 0.066227853
0.019683607 0.026822742 0.062621176
0.016309749 0.02713038 0.062532961
0.031861927 0.018295087 0.058862686
0.028638525 0.020417014 0.05838114
0.025668966 0.023899125 0.058512449
0.022108678 0.026013367 0.057619512
0.018089226 0.026726289 0.058703899
0.039629214 0.015622485 0.055062115
0.036415156 0.017018329 0.055059493
0.032663628 0.018228615 0.05446279
0.028898584 0.020673262 0.053813756
0.026035594 0.023771508 0.053778291
0.02279409 0.026096784 0.053601742
0.044048037 0.013858191 0.050857067
0.040779203 0.014532682 0.051029503
0.036802933 0.016463144 0.050481915
0.032899704 0.018514421 0.050414622
0.029210836 0.021316901 0.050815403
0.026576782 0.024123928 0.050236344
0.02406667 0.026256884 0.050176442
0.044578485 0.013599702 0.04638952
0.040985875 0.014081436 0.046023309
0.037829988 0.015956376 0.047068298
0.04331018 0.01447741 0.041343391
0.010084971 0.028413069 0.065219641
0.014497745 0.027285725 0.061377048
0.01158531 0.027286489 0.059776366
0.016400453 0.026657898 0.055689871
0.02125073 0.026891617 0.052398443
0.018232079 0.026674693 0.051583111
0.032562856 0.019039337 0.048084676
0.030119229 0.021204866 0.048579395
0.027040944 0.024449185 0.047654748
0.022674266 0.026733499 0.047408998
0.01939711 0.026850361 0.047934353
0.040392969 0.014727089 0.044626713
0.036944468 0.016936615 0.044983864
0.03311165 0.018346472 0.043843567
0.029788069 0.020976074 0.04317373
0.026970947 0.024167245 0.04349941
0.024259092 0.026638789 0.043324411
0.04084935 0.014954211 0.040916145
0.037786089 0.016809782 0.039918005
0.034188189 0.018221634 0.040343106
0.042187028 0.014723066 0.035689652
0.039200298 0.015998444 0.03619951
0.044064783 0.01466909 0.032548308
0.0099529503 0.026980188 0.057005942
0.014598069 0.026349522 0.05256778
0.010486591 0.026646901 0.053452373
0.015351886 0.026260493 0.048869312
0.011957502 0.026116347 0.048999369
0.016998887 0.026644923 0.044900119
0.013070123 0.026537558 0.045337915
0.026505724 0.02354956 0.040398896
0.022459785 0.026549729 0.041027486
0.017761502 0.026565377 0.040287793
0.033157114 0.018275507 0.036920488
0.02988076 0.020718215 0.036759317
0.026816422 0.023654887 0.03647846
0.023523085 0.026090235 0.036301911
0.020014087 0.026895067 0.035797179
0.040383097 0.014922361 0.032117069
0.037532207 0.016367521 0.032843232
0.033654913 0.018235706 0.032573164
0.030044474 0.020593878 0.031504273
0.027052432 0.023221772 0.031281948
0.022696666 0.026410237 0.033193886
0.042071767 0.014653218 0.028673053
0.03779659 0.016071633 0.027794003
0.03421133 0.018091708 0.029169321
0.030529577 0.020934831 0.028902113
0.042781975 0.014427892 0.024201572
0.038898259 0.016026575 0.025384068
0.044174712 0.014475421 0.020252049
0.0096336566 0.026452042 0.046635032
0.01127693 0.026654582 0.042037189
0.015133995 0.026195012 0.037101448
0.012323841 0.026151512 0.037526667
0.016989861 0.026656765 0.033870995
0.025679734 0.02418242 0.029643357
0.022677658 0.025208699 0.029190361
0.019050984 0.026439944 0.028846085
0.033684224 0.018287823 0.026034534
0.030119911 0.020338323 0.025452673
0.026670527 0.022671919 0.025699675
0.023355834 0.024347074 0.025198042
0.041173514 0.015092676 0.022169948
0.03779481 0.015989672 0.021784008
0.033878177 0.017337471 0.022001505
0.030445356 0.019430961 0.021408141
0.041870367 0.0147026 0.017702997
0.03864599 0.015664851 0.016673148
0.04362566 0.014316259 0.01344949
0.040024862 0.015371989 0.012888968
0.044738449 0.013788712 0.0088797212
0.0092204306 0.026513258 0.038368285
0.010984218 0.026596876 0.035443485
0.011792832 0.026971962 0.031751573
0.0086363954 0.027654208 0.031252861
0.015710499 0.026358221 0.02805829
0.012783573 0.027218677 0.026761591
0.025335137 0.022447903 0.021807373
0.022051582 0.024680553 0.022602916
0.018007632 0.02662234 0.023231685
0.014374235 0.027595934 0.021906376
0.033262886 0.017052429 0.019020259
0.02934869 0.019731916 0.019183159
0.026353067 0.022314766 0.019250214
0.022933554 0.025263485 0.019174099
0.019019943 0.026880361 0.018244743
0.036506094 0.016013118 0.01499182
0.033654325 0.017510891 0.015766025
0.029972892 0.01960358 0.014708638
0.026760286 0.022460638 0.014261842
0.023805937 0.025590701 0.014197767
0.020614538 0.027165685 0.014326513
0.042074956 0.014235085 0.010407329
0.038148738 0.016088402 0.011240244
0.034650847 0.017958684 0.010608137
0.030735107 0.01962067 0.010422111
0.027792078 0.022279754 0.010583699
0.02395653 0.025533888 0.0099397898
0.042982463 0.014627823 0.0073993802
0.039288066 0.016017824 0.0065401793
0.035898194 0.017996907 0.0072419047
0.04406105 0.014059624 0.0027444363
0.010599027 0.027202576 0.022739947
0.011992268 0.027900733 0.019387066
0.0088523785 0.027399428 0.019434392
0.017083189 0.02709326 0.014515758
0.014177317 0.027758965 0.015276134
0.01886428 0.027060589 0.011060476
0.01530819 0.027896617 0.010845244
0.029932475 0.019538799 0.0068181157
0.026517835 0.022187352 0.0070137382
0.023696145 0.024605302 0.006375134
0.019570332 0.026678227 0.0074127913
0.037405878 0.016182875 0.0027563572
0.03474848 0.017646382 0.0035690665
0.030481007 0.019059915 0.0029688478
0.026434438 0.021564996 0.003056407
0.022802852 0.025153592 0.0044414997
0.042120051 0.013883426 -0.0010755658
0.038526572 0.014652222 -0.00053411722
0.034437921 0.017129011 4.4345856e-05
0.010712553 0.026872151 0.011781633
0.012149255 0.027609866 0.0084578991
0.0088098673 0.026922159 0.0082147717
0.017632855 0.026513537 0.004373312
0.01411935 0.027235597 0.0039839149
0.028467219 0.019361049 0.00032216311
0.026297975 0.021273725 6.6757202e-06
0.02298327 0.024136065 0.00057941675
0.018843673 0.026144594 -7.9214573e-05
0.015906578 0.027280813 -0.001527667
0.011282471 0.026998453 0.0013577342
