# .PCD v0.7 - Point Cloud Data file format
VERSION 0.7
FIELDS x y z
SIZE 4 4 4
TYPE F F F
COUNT 1 1 1
WIDTH 485
HEIGHT 1
VIEWPOINT 0 0 0 1 0 0 0
POINTS 485
DATA ascii
0.029476864 0.010963329 0.18001834
0.029656904 0.013917061 0.1797727
0.024703043 -0.010106981 0.18215188
0.025091223 -0.0074427971 0.18229613
0.02497673 -0.0034741908 0.18200791
0.024537768 0.00048604928 0.18148446
0.024804149 0.0055337958 0.18178001
0.0251769 0.0098005952 0.18276289
0.026919365 -0.011343293 0.17997274
0.027460508 -0.0075093727 0.18039903
0.027389288 -0.0035469728 0.18014273
0.02723418 0.0010728576 0.17979112
0.027767198 0.0058233836 0.17957345
0.028700352 0.0093764961 0.17953098
0.028835535 0.012949022 0.17989904
0.02892576 -0.011563967 0.17556691
0.029103246 -0.0077182883 0.17525232
0.029053228 -0.0037522241 0.17501196
0.029076168 0.00075049297 0.1749807
0.029431241 0.0051607727 0.17438096
0.030203309 0.0094457706 0.17428115
0.030513935 0.013403552 0.17430896
0.029637286 -0.0032552041 0.17085779
0.029772162 5.9027465e-05 0.17078972
0.030193448 0.004911867 0.16939384
0.030670371 0.0092709223 0.16916421
0.030963473 0.013238044 0.1691823
0.031253662 0.0098188752 0.16591218
0.031443615 0.013370587 0.1651412
0.022421122 -0.011449428 0.18238688
0.022417903 -0.007425318 0.18308452
0.021927135 -0.0037301471 0.18235749
0.020980699 0.00023232332 0.18146873
0.021123393 0.0048807752 0.18164265
0.022547619 0.0098553952 0.18318921
0.02524725 -0.01281546 0.18087077
0.028848972 -0.013147007 0.17260316
0.028545499 -0.011998855 0.16864696
0.028939299 -0.0079965936 0.16873974
0.029294321 -0.0042131231 0.16829076
0.02973686 -4.5998586e-05 0.16801888
0.029999051 0.0032406144 0.16713214
0.028582487 -0.012244417 0.16315731
0.028787766 -0.0082371812 0.16310984
0.029414637 -0.0042208889 0.16338387
0.029929724 -0.00021579837 0.16357327
0.030071037 0.0044369386 0.16344419
0.030285869 0.0088806292 0.16285574
0.030987024 0.012697087 0.16234314
0.03147861 0.016126556 0.16269881
0.029642496 -0.0036952747 0.1598326
0.029935496 -0.00035587355 0.1598888
0.029644642 0.0036339541 0.15946326
0.029320836 0.0089573367 0.15894485
0.030486498 0.01320033 0.15888482
0.016910179 -0.0075104544 0.18185848
0.016600065 -0.0038236335 0.18190277
0.016346915 0.00053552928 0.18195191
0.016541157 0.0049274648 0.18173257
0.019309197 -0.0021655443 0.18147975
0.019356353 0.0018349559 0.18130642
0.029177275 -0.012960708 0.15791589
0.029181514 -0.0084580481 0.15786034
0.029271076 -0.0046603321 0.15720701
0.029377086 -0.00047602056 0.15667945
0.02916389 0.0042088153 0.15674275
0.028789096 0.0084748073 0.15564024
0.029439108 0.012521463 0.15560663
0.029964719 0.015508537 0.15539852
0.028992943 -0.012926586 0.15384069
0.02876544 -0.0086522866 0.15335461
0.02884141 -0.0049656346 0.15322816
0.028599603 -0.00060162786 0.15328753
0.02832474 0.0034093251 0.15287161
0.028627396 0.008737281 0.15190387
0.029292328 0.012726578 0.15128618
0.012538739 -0.0030442781 0.18186152
0.011905738 0.00057127752 0.18244445
0.011866041 0.0043282383 0.18203741
0.028244479 -0.013767407 0.15073037
0.028406126 -0.0087738149 0.15055215
0.028461916 -0.0044762543 0.1503801
0.028114762 -0.000720785 0.15010718
0.027927415 0.003301379 0.14975837
0.028042369 0.0073288693 0.14964598
0.028215868 -0.013686485 0.14613476
0.028177194 -0.0089746295 0.14586806
0.028341498 -0.0049301414 0.14579555
0.028431773 -0.00089108292 0.14566475
0.028215306 0.0031391645 0.14529216
0.028527567 0.0078496393 0.1453023
0.028643949 0.012553033 0.14515859
0.028199673 -0.0084593464 0.14208171
0.028536865 -0.0051137004 0.1412366
0.029039793 -0.0010696893 0.14103007
0.028801868 0.0027749748 0.14064845
0.029011438 0.0074898847 0.14021158
0.029403601 0.012108386 0.13993382
0.029722197 0.0068771662 0.1368483
0.029735532 0.011595679 0.13662463
0.056234989 0.0055872928 0.078977287
0.059228897 -0.006441806 0.073915303
0.059100151 -0.0038893172 0.073896468
0.058839902 0.00044100563 0.073952317
0.058692455 0.0043704966 0.073902786
0.060656294 -0.0043237647 0.070528328
0.060550589 0.0042043063 0.069702804
0.0069890195 -0.0034967079 0.18193179
0.006634457 0.00058960891 0.18239075
0.0094301868 -0.0041735936 0.18185252
0.028107915 -0.013947723 0.14038455
0.027988622 -0.0094392998 0.13952249
0.028597457 -0.0052266228 0.13844502
0.029192243 -0.0011582724 0.13872021
0.029075298 0.0035605396 0.13839146
0.027790956 -0.01413436 0.13633534
0.026825411 -0.0094313566 0.13532323
0.027212927 -0.0046709795 0.1353991
0.028411541 -0.0011456548 0.13452017
0.029170685 0.0027517704 0.13470322
0.029497249 0.0068024923 0.13452908
0.029642344 0.011507677 0.13369954
0.02926331 0.0025825885 0.13001183
0.030069096 0.0066263508 0.12951273
0.029873218 0.011182399 0.12930113
0.029723577 0.015821064 0.12858379
0.030066542 0.0078545241 0.12561381
0.050039597 0.0047824895 0.082655728
0.050011344 0.010205322 0.08237648
0.052180205 -0.002586701 0.079687893
0.052277479 0.00060591649 0.080390394
0.052659273 0.0046950192 0.081127107
0.052466817 0.0094154878 0.080329478
0.052678127 0.012752479 0.078778386
0.05484673 -0.010433575 0.075912237
0.054276161 -0.0076649687 0.077243626
0.054879427 -0.003581529 0.077624798
0.05571454 0.0004980184 0.078224599
0.056412324 0.0037396566 0.078335881
0.05552515 0.0092733288 0.077637911
0.054891486 0.012674169 0.077877045
0.056693263 -0.011078363 0.07329911
0.058578476 -0.007896103 0.074448466
0.057835732 -0.0032125288 0.075760305
0.057733655 -0.00094213139 0.076222658
0.057344709 0.0089435475 0.073094785
0.058938045 -0.01067024 0.069825113
0.060640864 -0.0079767974 0.069343805
0.061133265 -0.0037096075 0.068959057
0.060764298 0.00012751616 0.069093883
0.060555391 0.0041614422 0.068420351
0.058770776 0.0082605779 0.068797529
0.05664422 0.010978479 0.067625642
0.05983717 -0.0108397 0.06567806
0.060915828 -0.0081677185 0.064594626
0.061195798 -0.0040977132 0.064683676
0.060945868 -4.6920031e-05 0.064255178
0.060569286 0.0040030787 0.063702524
0.05919344 0.0074314461 0.064219296
0.061066952 -0.0083238175 0.060711384
0.060928959 -0.0042598736 0.060391486
0.060628399 -0.00052059494 0.060432255
0.0024045876 0.0005984712 0.18218684
0.027177572 -0.014293408 0.13297966
0.026917987 -0.0095494809 0.13253421
0.026846819 -0.0056539341 0.13269362
0.027683718 -0.0027725378 0.13186252
0.027434859 -0.014497633 0.12839738
0.027466075 -0.0097313058 0.12818766
0.027490549 -0.0056478623 0.12800637
0.027889609 -0.001556001 0.12813172
0.028894441 0.002472278 0.12683624
0.027319143 -0.013312301 0.12438801
0.027563913 -0.009932098 0.12345678
0.027851088 -0.0058459179 0.12307885
0.027867794 -0.0017668976 0.12258101
0.028417468 0.0023252943 0.12259263
0.029725108 0.0062507265 0.12324294
0.029970083 0.010505831 0.12347835
0.029917667 0.015256253 0.12320137
0.029208848 0.0066169249 0.1186865
0.029634271 0.010352449 0.11837423
0.030138168 0.014409831 0.11762798
0.044445634 0.00086280151 0.085641742
0.044045653 0.0049794591 0.086077869
0.043888349 0.0090805469 0.086167336
0.043768339 0.012474164 0.085471988
0.046836223 -0.014290057 0.082571208
0.046071 -0.011351712 0.083473861
0.046006579 -0.0076028891 0.08323884
0.046144418 -0.0031539053 0.082836807
0.046325888 0.00076561305 0.083391011
0.047053251 0.0048641497 0.083869159
0.047258634 0.0089456607 0.083867669
0.046739206 0.012874037 0.082808316
0.045404691 0.015741993 0.081840336
0.048183307 -0.015762968 0.079893947
0.049365267 -0.011658917 0.079807878
0.050023198 -0.0075490144 0.080229759
0.050047569 -0.0037422702 0.080849648
0.049947433 0.00068292936 0.081965923
0.049719367 0.0079214657 0.081549048
0.048687153 0.012866067 0.079428494
0.050479122 -0.015729209 0.076283991
0.052721806 -0.011962344 0.07622093
0.051136136 -0.015372904 0.072619915
0.053774662 -0.013009554 0.071500719
0.05340825 0.012494895 0.070483863
0.055428948 -0.012717327 0.066931903
0.057163544 0.009535674 0.065173566
0.05486916 0.012505346 0.064160049
0.057470031 -0.012031966 0.061907411
0.05828435 0.0085845441 0.061461985
0.056339879 0.011323795 0.060652614
0.058516964 -0.012090604 0.057690084
0.060881242 -0.0084536532 0.057492316
0.060646433 -0.004384649 0.057076097
0.060010724 -2.3720559e-05 0.057061434
0.059655957 0.0038165927 0.057754457
0.058346119 0.0077154147 0.056540191
0.05757875 0.011069195 0.056056619
0.059050646 -0.011341001 0.05376792
0.060146518 -0.0084293066 0.053268731
0.060019203 -0.0045607295 0.052384377
0.059649773 -0.00070894038 0.053068876
0.059379205 0.0033748697 0.052615464
0.058922973 0.0063934247 0.052842617
-0.0026072604 0.00062612968 0.18239987
0.02749397 -0.011135482 0.12093985
0.027949333 -0.0059426497 0.12067589
0.027918272 -0.0018480329 0.12044924
0.027668033 -0.010797632 0.11743981
0.028114915 -0.0060931155 0.11693442
0.027729342 -0.0021628158 0.11666268
0.027621083 0.0021210059 0.11667526
0.028027246 0.0058978596 0.11510742
0.028966069 0.010256028 0.11490542
0.027412739 -0.011058562 0.11317211
0.027944939 -0.0061161951 0.11149353
0.02763268 -0.0019772339 0.11186671
0.027536938 0.0019514057 0.11190885
0.028383391 0.0060195746 0.11071461
0.028878603 0.010134079 0.11093402
0.029631002 0.014240311 0.11137182
0.028799977 0.0093255369 0.10698825
0.028985739 0.014455284 0.10640711
0.035794616 0.010765604 0.091287076
0.035419006 0.013166088 0.092541873
0.038189292 -0.0058627641 0.08824867
0.038111791 -0.0027576094 0.088530362
0.037810668 0.0012246136 0.089316726
0.037821651 0.005175835 0.08938849
0.03873013 0.0091497358 0.089294016
0.03884973 0.013256782 0.089206517
0.038189396 0.016083345 0.087209761
0.040367808 -0.015632922 0.084691346
0.041870918 -0.011960397 0.086196661
0.041391544 -0.0073163845 0.086232901
0.041507363 -0.0032054104 0.086144149
0.041444726 0.00093374425 0.08688724
0.041369934 0.0050677834 0.087618828
0.041815128 0.0096164076 0.087475896
0.042007074 0.01390087 0.086122572
0.042192526 0.015884163 0.083874226
0.043921966 -0.019921077 0.080140054
0.043835931 -0.016934959 0.082654297
0.044902582 -0.013784857 0.084091663
0.044481192 -0.0060342019 0.084006011
0.044567432 -0.0039830357 0.083988845
0.044857163 0.015742825 0.081335485
0.047598124 -0.017841954 0.079445541
0.046398334 0.014211159 0.076834738
0.046710186 0.014041549 0.071104705
0.050496954 -0.01622439 0.069026291
0.051598549 -0.014799368 0.070011079
0.049419984 0.013846468 0.066614926
0.050710149 -0.016439645 0.064172447
0.052026682 -0.014999758 0.065373778
0.050695285 0.01370602 0.062778592
0.054384112 -0.014069551 0.061120927
0.05469811 0.013030832 0.058565974
0.056572743 -0.014020884 0.05551821
0.057632394 0.0091695972 0.053478122
0.05630105 0.012307613 0.054570854
0.057528634 -0.012824264 0.05129683
0.059841719 -0.0094259921 0.050379694
0.059530277 -0.00019656021 0.050165832
0.05932878 0.003895595 0.049780548
0.058005914 0.0076818075 0.049824536
0.055790562 0.011567968 0.049904048
0.058139868 -0.011639731 0.04671663
0.059751801 -0.0086928802 0.046735466
0.060114488 -0.0047909832 0.046338499
0.059397288 -0.00086844875 0.045697868
0.059339304 0.0033996515 0.045191348
0.057969026 0.0072661224 0.045286238
0.059667144 -0.007708163 0.041892946
0.059569512 -0.0049663801 0.041671932
0.059252042 -0.00083350349 0.04185468
0.059673533 0.00351498 0.040573061
0.0586804 0.0060617472 0.042345881
0.066786289 0.0081366338 0.025690019
-0.0068888837 -0.0032083853 0.18261272
-0.0073580914 0.00066095823 0.18282917
0.027780993 -0.011376617 0.11105126
0.028427634 -0.0063965563 0.10939699
0.028223531 0.0018349388 0.10882348
0.027955873 -0.01130861 0.10726666
0.028626017 -0.0066876686 0.10705322
0.028268848 -0.0023570475 0.10709983
0.02841006 0.0017336503 0.10603923
0.028992739 0.0060118823 0.10559338
0.029347045 0.010133131 0.10488993
0.029401455 0.013761579 0.10414261
0.028229713 -0.010995295 0.10200411
0.029539756 -0.0065522376 0.10208684
0.029751472 -0.002576286 0.10148531
0.029796176 0.0015528997 0.10132509
0.03002332 0.0055254255 0.10073727
0.030238204 0.0097776335 0.1003232
0.03011528 0.013899997 0.10001826
0.030967049 -0.0075912746 0.096841276
0.032072529 -0.0027716018 0.096586764
0.03216546 0.0013584604 0.096470416
0.032027211 0.0054820948 0.09615171
0.032371964 0.009610421 0.096256971
0.032598905 0.013732558 0.096258461
0.033196144 -0.016324401 0.091593385
0.033301849 -0.011841303 0.092937469
0.034248181 -0.0070615285 0.092750549
0.034693737 -0.002920188 0.092948735
0.034878373 0.001207425 0.092916012
0.0350531 0.0053308406 0.09287411
0.035024337 0.0092846788 0.092908204
0.03458374 0.014965183 0.092991114
0.033371992 0.017304555 0.091096103
0.03595984 -0.016879894 0.08876282
0.036749788 -0.012022349 0.08924222
0.036867857 -0.0073668803 0.089376211
0.036936779 -0.0033087586 0.090191007
0.036667533 -0.00026612781 0.090601742
0.034990057 0.016861727 0.087290466
0.037299003 -0.019886723 0.083102047
0.038530827 -0.017175814 0.085346878
0.03888391 -0.012783138 0.087207496
0.037990041 0.016001588 0.084039509
0.040119104 -0.020646906 0.08068949
0.040854335 -0.0184453 0.083265483
0.043317471 -0.020051407 0.077576458
0.049568806 -0.017272135 0.05821383
0.051713295 -0.015329314 0.057962
0.05231493 -0.01699244 0.051449299
0.051822729 -0.015503747 0.053980887
0.049735155 0.013416054 0.051647723
0.054062657 -0.015013231 0.048972189
0.053366099 0.012696773 0.045657933
0.05260374 0.014512477 0.044126868
0.05681859 -0.012754799 0.044921696
0.056843672 0.0088802893 0.043462455
0.055140138 0.010959669 0.042687893
0.057762776 -0.012605674 0.040175736
0.059234772 -0.0095041115 0.041237295
0.059877429 -0.0050341142 0.039918363
0.059542485 -0.00056194892 0.039896071
0.059677772 0.0018263793 0.039410233
0.057550807 0.0073558842 0.039072931
0.058558293 -0.012785909 0.035795987
0.059946761 -0.0093201976 0.036025167
0.060128435 -0.0051830565 0.0360291
0.060126696 -0.0010557771 0.035844445
0.060090832 0.0030687258 0.035624564
0.058786564 0.0063020126 0.035532176
0.060291514 -0.0085809221 0.031481266
0.060341172 -0.0056413887 0.031263769
0.059826598 -0.0012129019 0.031372905
0.059151955 0.0029099742 0.030493677
0.062117457 0.01096692 0.024844348
0.063920617 -0.013962811 0.023623645
0.066469178 -0.0071268501 0.021818936
0.065219775 0.0010990571 0.020133555
0.065309443 0.0059901709 0.022122681
0.027313981 -0.013260994 0.099559069
0.028659735 -0.01247869 0.096051633
0.030645642 -0.012559948 0.09381187
0.03421104 0.017310159 0.077531338
0.044742413 -0.018054701 0.060552537
0.046140127 -0.018950274 0.055788815
0.048687715 -0.017857337 0.051626742
0.049429026 -0.019231521 0.048701108
0.051962052 -0.015813641 0.046919763
0.050174017 0.014596498 0.044808865
0.051562533 -0.015481606 0.041942835
0.052092995 0.013043974 0.040572464
0.051814303 0.014426643 0.040230572
0.054464016 -0.014796984 0.037964642
0.056213483 0.0086526116 0.035574555
0.053709373 0.011296995 0.036186934
0.051350459 0.014340602 0.036644638
0.056675181 -0.014537155 0.032897472
0.05865746 -0.012221681 0.032741785
0.056958318 0.0074156462 0.031798899
0.054742608 0.010652022 0.031894624
0.056308355 -0.0138099 0.028288722
0.058935542 -0.010664553 0.02850759
0.059532523 -0.0051564099 0.027573705
0.058869228 -0.0013525109 0.027241409
0.058588333 0.0028564082 0.028654397
0.056554303 0.0070046582 0.027275562
0.055642147 0.0098419636 0.028660655
0.058712177 -0.01046705 0.024848044
0.058899317 -0.005297381 0.023762167
0.05854639 -0.0014745052 0.023753583
0.058196936 0.0027143182 0.024259329
0.058768325 0.0068045403 0.022217989
0.059369344 0.010316717 0.024097621
0.063919134 -0.0099920835 0.019230187
0.064285345 -0.0058301394 0.019439399
0.059818473 0.0073925285 0.019420087
0.062144127 0.012226929 0.020608068
0.034188304 0.015591587 0.065397561
0.041939482 -0.018212138 0.057872295
0.044576678 -0.019782107 0.053274691
0.046164904 -0.019926921 0.049661994
0.047335625 -0.017856102 0.043799996
0.049022455 -0.017871426 0.040443659
0.049499378 -0.018171882 0.036229551
0.051505208 -0.016295794 0.03607589
0.051984429 0.012837846 0.033172786
0.049499888 0.01428151 0.032684565
0.053576026 -0.016460499 0.031902134
0.053113103 0.012361805 0.029626071
0.055407949 -0.014782817 0.027399957
0.055884618 0.0083298841 0.024769247
0.054661121 0.011328054 0.025213122
0.056168623 -0.01404109 0.022876143
0.057410259 -0.011654872 0.021423399
0.058549456 -0.0071065375 0.021890521
0.058484621 -0.0015517735 0.02158004
0.058293752 0.0026102455 0.021198153
0.057040878 0.0068249502 0.021816432
0.055259228 0.011376321 0.021343887
0.058018479 -0.018543476 0.01545769
0.058280315 -0.010765327 0.017524898
0.05922997 -0.0065490818 0.018345177
0.059483118 -0.0016743728 0.018400848
0.059394274 0.0024923303 0.01812607
0.058572803 0.0052910047 0.018197715
0.06042828 -0.00040781926 0.015101254
0.031244926 0.015595459 0.062660515
0.034527082 0.015309096 0.055446744
0.039228864 -0.019858049 0.05327785
0.040957589 -0.021640338 0.044633985
0.045744948 -0.019034147 0.038788855
0.047103986 -0.019289734 0.032806754
0.049592003 -0.017983524 0.030004442
0.048265357 0.014193613 0.028277874
0.0518612 -0.01678591 0.024879813
0.053376421 -0.01611512 0.020690858
0.053672995 -0.014831359 0.01568836
0.056065425 -0.012918359 0.016346037
0.056217466 -0.013044627 0.013309777
0.030353973 0.016130079 0.055602252
0.031496339 0.016663315 0.050427377
0.031926412 0.016550733 0.046672761
0.040735755 -0.020638475 0.035973787
0.045702033 -0.019516064 0.028228521
0.048404727 -0.018240239 0.024567187
0.051018629 -0.022690244 0.018949687
0.048997063 -0.017083228 0.018736899
0.050051298 -0.018815286 0.011337519
0.051994137 -0.016762812 0.014722109
0.031848807 0.016495112 0.044508219
0.03093476 0.016385406 0.039427102
0.044775061 -0.018542349 0.018713057
0.04486917 -0.018680988 0.015597522
0.049057655 -0.018776579 0.012443244
0.029950976 0.015520543 0.032688141
0.035907526 0.015865412 0.025271952
0.028721657 0.014793051 0.030986607
0.03163372 0.015930098 0.023133814
0.033459306 0.017072843 0.014161408
0.036544409 0.015463167 0.010896742
0.039242711 0.013739052 0.0029093623
0.033821736 0.015407961 0.005926311
0.034461889 0.014572316 0.0022636056
