# .PCD v0.7 - Point Cloud Data file format
VERSION 0.7
FIELDS x y z
SIZE 4 4 4
TYPE F F F
COUNT 1 1 1
WIDTH 524
HEIGHT 1
VIEWPOINT 0 0 0 1 0 0 0
POINTS 524
DATA ascii
0.021304641 -0.030093871 0.17875284
0.023371799 -0.028171146 0.17907166
0.025706492 -0.025449187 0.17897448
0.021957025 -0.03137986 0.17573738
0.024687834 -0.029934406 0.17581838
0.027150637 -0.027083253 0.17564613
0.02542622 -0.03064207 0.17167842
0.027653517 -0.028691715 0.17064053
0.014589856 -0.029536158 0.18028384
0.016999863 -0.027305841 0.18118989
0.020162838 -0.024870658 0.18136457
0.023493955 -0.021914965 0.18155676
0.026022373 -0.017972073 0.18058494
0.027027551 -0.015281334 0.17957386
0.01584808 -0.031243006 0.17762628
0.019058624 -0.030237002 0.17889297
0.021247396 -0.027201368 0.17980647
0.026304593 -0.02259242 0.17833656
0.027473241 -0.019642625 0.17679808
0.028229479 -0.016711462 0.17552024
0.017318601 -0.031972624 0.17422706
0.019932039 -0.031958871 0.17424533
0.027682627 -0.024236033 0.17361236
0.027335085 -0.020855237 0.17233285
0.02131293 -0.032076485 0.16971165
0.025059393 -0.031102104 0.16833124
0.028106339 -0.025850035 0.16884226
0.02078335 -0.032181367 0.16605672
0.02501394 -0.030308133 0.16407287
0.027281959 -0.027607039 0.16409481
0.012639375 -0.022675904 0.18264535
0.015404835 -0.020281743 0.18264741
0.018960008 -0.017301118 0.18224978
0.022424359 -0.013735037 0.18239424
0.02463432 -0.010792878 0.18228349
0.026900697 -0.0084270798 0.18115616
0.0093987603 -0.029425858 0.17982805
0.011524537 -0.028143693 0.18084916
0.014061831 -0.025055621 0.18191826
0.017153298 -0.022529667 0.18200499
0.02073287 -0.019090047 0.18227288
0.02399376 -0.015828077 0.18203428
0.027212476 -0.012946701 0.17957437
0.028252237 -0.0089948364 0.17848754
0.010600656 -0.031180792 0.17647851
0.013036047 -0.031345017 0.17630503
0.028803423 -0.014506723 0.17456087
0.028915044 -0.0111471 0.17424554
0.011509445 -0.032023385 0.17137715
0.01461778 -0.031865306 0.17165422
0.027746677 -0.018819716 0.17055929
0.028695099 -0.015573975 0.16963992
0.015931016 -0.03197673 0.16714767
0.019052446 -0.032267027 0.16705894
0.027738079 -0.020429265 0.16644946
0.028329976 -0.016648393 0.16579792
0.016231028 -0.032209568 0.16314769
0.0194996 -0.031388458 0.16258296
0.023127548 -0.03044495 0.16135225
0.027299415 -0.025516972 0.16146988
0.027637573 -0.021687316 0.16198489
0.02065126 -0.031301502 0.15781254
0.024023052 -0.030317411 0.15744114
0.026424641 -0.026751989 0.15695339
0.024204362 -0.03055314 0.15235525
0.026405865 -0.027985463 0.15236819
0.025542835 -0.030435933 0.14904258
0.0077186776 -0.023702808 0.18200552
0.0099829379 -0.02087925 0.18285143
0.012849297 -0.01773956 0.18249264
0.015414743 -0.014688801 0.18185741
0.018703053 -0.01179007 0.18195891
0.022941528 -0.0090032052 0.18321845
0.028266046 -0.0097231977 0.16712159
0.010079553 -0.031071136 0.16460574
0.012752302 -0.031761054 0.16542387
0.028059423 -0.014847998 0.16303256
0.0281861 -0.010577826 0.1628592
0.014476224 -0.031903975 0.1603854
0.027025912 -0.018647663 0.15907556
0.027228173 -0.016017888 0.15857577
0.015334567 -0.032095812 0.15583992
0.018029336 -0.031441938 0.15638492
0.0262668 -0.020776527 0.15483576
0.016169015 -0.032179534 0.15260297
0.019297451 -0.031356223 0.15142074
0.022410562 -0.031032605 0.14960504
0.026969148 -0.02679099 0.15009323
0.026548894 -0.022454983 0.15065816
0.01949336 -0.031418469 0.1470485
0.023400981 -0.030348316 0.14598387
0.026063189 -0.027593773 0.14597374
0.026505116 -0.023979198 0.14660886
0.0065155351 -0.017145898 0.18173045
0.009006368 -0.013930021 0.18206882
0.012050346 -0.011020791 0.18260399
0.015025889 -0.0081790602 0.18250442
0.027465615 -0.012838934 0.16009742
0.028118081 -0.0091786282 0.16017038
0.010764908 -0.031254463 0.15764686
0.027027141 -0.013339836 0.15608072
0.028033769 -0.010407912 0.15588173
0.010934442 -0.031695962 0.15333113
0.026838249 -0.018290406 0.15273839
0.027366947 -0.015031892 0.1520265
0.014424619 -0.032203402 0.14983919
0.017371751 -0.031696714 0.14921299
0.027053587 -0.019483108 0.1485157
0.027490817 -0.016517717 0.1477308
0.015038834 -0.032121539 0.14573777
0.018457368 -0.031477544 0.14465886
0.021403527 -0.030408701 0.14308104
0.026034523 -0.025610875 0.14265469
0.026743233 -0.022209413 0.14403141
0.027350396 -0.018789422 0.14347285
0.018717166 -0.031079091 0.13984883
0.02250528 -0.029821455 0.13955051
0.025310026 -0.026957607 0.13931862
0.026447123 -0.023035636 0.13911688
0.022898957 -0.029725961 0.13479143
0.025238385 -0.027404664 0.13411748
0.007827092 -0.0050553214 0.18314248
0.0087915864 -0.0041127899 0.18308309
0.0057711103 -0.010319209 0.1820831
0.0085421465 -0.0081870221 0.18286428
0.011140639 -0.0046000523 0.18259829
0.027198734 -0.0094432291 0.14888781
0.0098132156 -0.031232998 0.14647007
0.02757751 -0.014109647 0.14549971
0.027296159 -0.010959039 0.14442232
0.012147957 -0.031158004 0.14199492
0.027505977 -0.015683873 0.14121976
0.027429681 -0.013811541 0.13815904
0.013212577 -0.030687366 0.13744339
0.016506789 -0.030920262 0.13761711
0.026529172 -0.02130278 0.13716161
0.027489249 -0.017808039 0.13681477
0.017729424 -0.031085946 0.13394976
0.021313623 -0.029990386 0.13237941
0.025809752 -0.025979357 0.13141531
0.026775323 -0.023044564 0.1329855
0.027916979 -0.018714584 0.13213658
0.018598955 -0.031096149 0.12909472
0.022441767 -0.030388128 0.12848315
0.025323227 -0.027564686 0.1283192
0.027274273 -0.023648463 0.12734258
0.028184023 -0.020898677 0.12766534
0.019486995 -0.031422015 0.12557769
0.022735702 -0.030747278 0.12312993
0.025339816 -0.028099522 0.12316287
0.026537679 -0.025204245 0.12369323
0.02333105 -0.031163886 0.11924255
0.024709361 -0.029341152 0.11950797
0.0051883254 -0.0047144983 0.18284678
0.0034128383 -0.010258636 0.18205515
0.026963603 -0.0082740029 0.14218107
0.027224772 -0.0097008534 0.13810962
0.027764587 -0.0084382314 0.13509715
0.010297336 -0.030954145 0.13556504
0.027604472 -0.01278555 0.13409981
0.0122268 -0.030234607 0.13170975
0.014389414 -0.029956467 0.12952545
0.028659498 -0.017421653 0.12959987
0.028284848 -0.014301774 0.12977192
0.015850786 -0.03060564 0.12689739
0.028533684 -0.01841723 0.12631795
0.0286096 -0.015654348 0.12464523
0.01810566 -0.031175733 0.12273285
0.021065492 -0.031262901 0.12251937
0.026124058 -0.026866956 0.12066516
0.027144061 -0.023997309 0.12167302
0.028122731 -0.019826483 0.12184566
0.019263722 -0.031652946 0.11789453
0.022553463 -0.03146844 0.11706561
0.025645236 -0.028250588 0.1171748
0.026933979 -0.024002198 0.1173802
0.022719713 -0.030945847 0.11230552
0.025041716 -0.02872196 0.11183983
0.026395192 -0.025554026 0.11419052
0.025287939 -0.029572008 0.10836148
0.0028869708 -0.0020068565 0.18292415
0.027492307 -0.010281987 0.13128969
0.0093332641 -0.029968578 0.12842086
0.028218826 -0.011705389 0.1272783
0.010967897 -0.029326031 0.12389073
0.013886104 -0.029776487 0.12433231
0.028246623 -0.012438335 0.12244931
0.011810434 -0.029892549 0.12035525
0.013921178 -0.030115969 0.11934483
0.027859189 -0.017770533 0.11847866
0.028055411 -0.014871153 0.11854178
0.015406454 -0.03038027 0.11539441
0.026925679 -0.022211429 0.11430162
0.02754355 -0.018934982 0.11451161
0.027995549 -0.01552825 0.11358243
0.018378582 -0.031166311 0.11125463
0.020526096 -0.031410836 0.11069739
0.025784168 -0.027090307 0.10996771
0.026676813 -0.023820581 0.11105555
0.02737345 -0.020164726 0.10974616
0.022043414 -0.031183288 0.10752434
0.02548087 -0.028941311 0.1057862
0.026846154 -0.024717743 0.10636443
0.027625678 -0.021371117 0.10636592
0.022160407 -0.030576285 0.10328257
0.024815448 -0.028518476 0.10120004
0.026242115 -0.026046831 0.10173082
0.044053715 -0.019611847 0.081661105
0.045626432 -0.019663416 0.078428328
-0.0015810453 0.0025071749 0.18312716
0.011671167 -0.029996555 0.11645722
0.027818456 -0.012092753 0.11579454
0.0092739165 -0.029724248 0.11396426
0.012003055 -0.029814662 0.11223525
0.027919455 -0.013260858 0.11112839
0.028510824 -0.0095339781 0.11236238
0.014583085 -0.030247748 0.10888845
0.027893826 -0.018144909 0.10787034
0.027893741 -0.014949083 0.10670459
0.01625552 -0.030265279 0.10397047
0.019078225 -0.030397095 0.10333371
0.026646495 -0.022511207 0.10261261
0.0272677 -0.019215027 0.10280132
0.027988033 -0.016002437 0.10311085
0.016678857 -0.030155225 0.099805832
0.02094016 -0.030128526 0.099914849
0.025639433 -0.027505118 0.09938091
0.02667471 -0.024095289 0.099443018
0.027913595 -0.020366969 0.09776485
0.03014121 -0.017881272 0.096373379
0.021563265 -0.029954754 0.095126629
0.024589967 -0.028596923 0.095529497
0.027184624 -0.025401708 0.094958425
0.029545939 -0.02197591 0.094096422
0.032414932 -0.019285809 0.093773901
0.035090901 -0.015943609 0.092408895
0.036836933 -0.013852573 0.091068983
0.022022873 -0.030155458 0.091066301
0.02502236 -0.029016016 0.09068352
0.028097352 -0.026568243 0.090327621
0.031449657 -0.024096901 0.090692341
0.034886647 -0.021579457 0.090355694
0.037308518 -0.01839447 0.089413702
0.038866092 -0.014401864 0.088104427
0.029017543 -0.025746027 0.086349308
0.031801734 -0.024168868 0.086476326
0.035054665 -0.022447169 0.085226238
0.039128039 -0.020489763 0.084963262
0.041579284 -0.017103581 0.08516562
0.036709886 -0.022112785 0.08058846
0.040220931 -0.021821205 0.080554128
0.044574521 -0.017982192 0.08011955
0.046031732 -0.014342617 0.080261707
0.037262972 -0.022828728 0.077408612
0.040471714 -0.021643467 0.075239778
0.044403143 -0.019861678 0.075796843
0.047985245 -0.016691547 0.075645626
0.044459648 -0.020429211 0.070764899
0.048400197 -0.017631467 0.070911944
0.049887892 -0.017463375 0.065901816
0.053245474 -0.016227465 0.066775322
0.05073766 -0.017698828 0.062153041
-0.0070419256 0.0021735672 0.18362403
-0.0041893986 0.0051474045 0.18334824
0.011126631 -0.029463388 0.10601729
0.028001931 -0.012432742 0.10574561
0.028227087 -0.0092261909 0.10480857
0.012301138 -0.029584927 0.10183775
0.027545378 -0.017665572 0.09998703
0.028511398 -0.014241114 0.10052216
0.028355442 -0.010572278 0.099818647
0.014289027 -0.029883159 0.097240984
0.018047744 -0.029718386 0.097353518
0.027963178 -0.018162696 0.098578036
0.030262385 -0.015990146 0.097186208
0.031930517 -0.012659573 0.096048832
0.018005319 -0.029645212 0.092314661
0.032054637 -0.016671576 0.094064116
0.033935856 -0.01467244 0.093859375
0.03668841 -0.01142489 0.091610432
0.020747337 -0.030014928 0.088213384
0.024143163 -0.029532872 0.087940156
0.038511198 -0.012695126 0.089311302
0.021011248 -0.029535346 0.084047139
0.024798503 -0.029167043 0.084342897
0.027930552 -0.026953241 0.08425355
0.031131215 -0.024504289 0.083598852
0.025399955 -0.02884954 0.078722835
0.028424088 -0.027471088 0.079140723
0.031499766 -0.024702765 0.079146564
0.034720883 -0.023043592 0.079998434
0.028673287 -0.027957484 0.074589431
0.032376606 -0.025579983 0.074499846
0.035814963 -0.023670543 0.074822545
0.039515354 -0.022372385 0.073468864
0.036586486 -0.023767052 0.07023865
0.040077187 -0.022387549 0.070227206
0.043783896 -0.021097736 0.068207443
0.045911025 -0.018369902 0.067647278
0.040563159 -0.02214326 0.065538585
0.044692643 -0.020940334 0.06487602
0.047340464 -0.01833738 0.064482331
0.041412551 -0.021882575 0.061147809
0.044952229 -0.021233693 0.060521662
0.048076123 -0.018938527 0.060296476
0.051618036 -0.017136212 0.0590657
0.045858726 -0.020719014 0.057065725
0.048348103 -0.019065302 0.0554564
0.052960213 -0.016889449 0.055272639
0.052349068 -0.017374873 0.051121294
0.0096440595 -0.029026879 0.099937618
0.010071192 -0.029272914 0.094870985
0.01242132 -0.029185783 0.091098368
0.015176992 -0.029222641 0.090355337
0.01316722 -0.029370774 0.087253153
0.016206913 -0.029201858 0.085945964
0.018063059 -0.029082863 0.081554055
0.02191644 -0.028706597 0.080016375
0.019457379 -0.028972747 0.078020394
0.021546945 -0.028550025 0.076148689
0.023703137 -0.0285952 0.072952926
0.027746946 -0.027225215 0.070468545
0.030321578 -0.02586058 0.071135759
0.025126524 -0.02866121 0.067785084
0.027666781 -0.027299095 0.067417443
0.031351879 -0.024872111 0.067284763
0.034044374 -0.023300169 0.066279173
0.03100189 -0.024975793 0.062800825
0.035080291 -0.022978537 0.062204659
0.038586993 -0.022209741 0.062287152
0.036565512 -0.022966528 0.057771444
0.03903643 -0.021553013 0.057335079
0.042102516 -0.020740606 0.057713568
0.039947726 -0.021647315 0.053882778
0.043378454 -0.02025893 0.053066432
0.046130486 -0.019141948 0.053034842
0.044593815 -0.019668978 0.049315035
0.047524646 -0.018467277 0.048902273
0.050512023 -0.017254977 0.048033297
0.051785722 -0.016714565 0.044350803
0.0095685003 -0.029170789 0.088498533
0.010698584 -0.029366668 0.08350879
0.012166554 -0.029864812 0.078908563
0.015371403 -0.029527849 0.080119014
0.013470711 -0.030345852 0.07596755
0.016412593 -0.029633511 0.074998677
0.017129486 -0.029579746 0.070364296
0.020552849 -0.029024487 0.070883811
0.021445857 -0.028460732 0.065626621
0.024146605 -0.027946319 0.062579632
0.026792387 -0.027105028 0.061616242
0.0305325 -0.024876783 0.061749816
0.027795244 -0.026801135 0.056283772
0.031078376 -0.025336724 0.056945682
0.034679964 -0.023637159 0.056591213
0.037385799 -0.021956213 0.054498732
0.031925526 -0.025376391 0.053397715
0.035362024 -0.024259027 0.052176237
0.039164647 -0.022235097 0.051142037
0.041846301 -0.020763662 0.050364733
0.036138713 -0.024169451 0.047829807
0.039579038 -0.022553414 0.047060668
0.043234531 -0.020603489 0.046767116
0.046433568 -0.018720018 0.045704961
0.039893232 -0.022633063 0.043379664
0.043581668 -0.020893689 0.042276084
0.047288552 -0.018745853 0.042140424
0.050107382 -0.017040564 0.041392207
0.04429242 -0.020433726 0.038592637
0.04775057 -0.019129319 0.037075222
0.051261403 -0.017057821 0.03731972
0.048094422 -0.018898331 0.033398449
0.051747203 -0.017454432 0.032265007
0.05146201 -0.017531028 0.029426217
0.010631202 -0.029986268 0.072823822
0.011801261 -0.030121438 0.068665147
0.015564144 -0.029611547 0.067915261
0.012263897 -0.029830903 0.064643919
0.01561545 -0.029274052 0.0632658
0.019107815 -0.028802961 0.0630759
0.016493894 -0.029414717 0.058759868
0.020580346 -0.028285747 0.05875355
0.02303654 -0.027110647 0.057170749
0.020697549 -0.028921768 0.053846419
0.02451393 -0.027356245 0.053858757
0.022035364 -0.029163305 0.049686193
0.025655458 -0.027420817 0.049490809
0.029828772 -0.025532894 0.049383879
0.025280636 -0.027966294 0.046079278
0.029965892 -0.025542591 0.044116855
0.034383688 -0.024293032 0.044892311
0.034456376 -0.023812991 0.039833605
0.038502146 -0.022255212 0.039358795
0.035874963 -0.0232193 0.035684884
0.03886719 -0.022059308 0.035003603
0.042720251 -0.020912578 0.035792887
0.039672077 -0.022296073 0.031248927
0.04315424 -0.020641804 0.03054148
0.04666388 -0.019163745 0.030868113
0.046811022 -0.018801287 0.026337028
0.050735254 -0.01715624 0.025931299
0.051300578 -0.01694054 0.021115661
0.0093611069 -0.030304085 0.066766679
0.01050493 -0.029846147 0.061906397
0.011937191 -0.029888764 0.058281481
0.014472799 -0.029971199 0.057349861
0.016310252 -0.029984616 0.053118885
0.017469741 -0.03004358 0.047352016
0.020385634 -0.030080982 0.048853874
0.021720981 -0.029916903 0.044055104
0.025393607 -0.028592674 0.043958247
0.022424717 -0.029430356 0.039671123
0.0254471 -0.027827069 0.039103687
0.028767223 -0.026143594 0.038781285
0.031858951 -0.025005408 0.038509429
0.032745875 -0.024097025 0.034228921
0.036777787 -0.023255534 0.033162355
0.03394239 -0.024041871 0.029182494
0.037367303 -0.023021711 0.029315889
0.041508093 -0.02131776 0.027546108
0.037818108 -0.022312462 0.025055766
0.041718379 -0.020977417 0.024608314
0.046648789 -0.018728632 0.023487151
0.042902444 -0.020601775 0.02074784
0.046285816 -0.018988648 0.019798279
0.050212514 -0.017901879 0.018961012
0.046815429 -0.019146364 0.016821444
0.051050063 -0.017791536 0.014961123
0.050758146 -0.017382106 0.010749876
0.0091569172 -0.0296112 0.055145204
0.01015764 -0.029264644 0.050466716
0.01315792 -0.029625732 0.049503446
0.010796542 -0.029447895 0.046812534
0.01443774 -0.029919047 0.045718908
0.015215816 -0.030142309 0.041410029
0.018898081 -0.0298394 0.040797234
0.016789638 -0.029933251 0.037367702
0.020375647 -0.029562954 0.036301553
0.023835482 -0.02835303 0.036311984
0.02054308 -0.029457364 0.032101512
0.024170673 -0.027569013 0.032084107
0.027711121 -0.025125494 0.03160429
0.030916754 -0.024382487 0.03109622
0.024509219 -0.02769996 0.028373241
0.028008085 -0.025661446 0.026890635
0.03163648 -0.024503335 0.027004421
0.02865538 -0.025965635 0.023826659
0.03294646 -0.024548873 0.022578001
0.036212061 -0.022801787 0.02219075
0.033170134 -0.024849966 0.018498242
0.03706551 -0.022908349 0.017771065
0.040491447 -0.021327216 0.017629087
0.037293978 -0.02310002 0.013706148
0.041066289 -0.021147376 0.012785852
0.044869959 -0.019268125 0.013138056
0.047653943 -0.018133648 0.012352288
0.041591167 -0.021102756 0.009275496
0.044793587 -0.019354682 0.0085776448
0.048288617 -0.016903479 0.0075480342
0.052345611 -0.016078956 0.0076444745
0.048804063 -0.016522925 0.0043795705
0.0092491182 -0.029340751 0.043212593
0.01035618 -0.029470496 0.039162159
0.01335675 -0.030460969 0.038662791
0.014425518 -0.030071082 0.034846902
0.015759163 -0.029958628 0.030689955
0.018585421 -0.029492188 0.029398143
0.020310704 -0.02887373 0.025549412
0.023479903 -0.027753225 0.024837554
0.020622944 -0.028629692 0.020868242
0.023914184 -0.027458824 0.021381736
0.027529642 -0.025911577 0.0201267
0.028572176 -0.025251832 0.015727162
0.031167153 -0.024709668 0.015142977
0.033309769 -0.024477895 0.011859119
0.03592544 -0.023317879 0.011297762
0.036330022 -0.022377193 0.0070781112
0.039910223 -0.021169372 0.0063334107
0.044176996 -0.018789023 0.0060833693
0.041103344 -0.02068815 0.0014544129
0.044466544 -0.019237023 0.0022988915
0.047648285 -0.017091658 0.0021870732
0.010274748 -0.029761963 0.032945395
0.012640542 -0.030166231 0.031607926
0.010498266 -0.030271366 0.028122604
0.013672479 -0.02989785 0.027829051
0.013962794 -0.029402051 0.023909569
0.017726691 -0.028961947 0.023440778
0.015377671 -0.029565949 0.019067824
0.018327197 -0.029136924 0.018962801
0.022841332 -0.026956948 0.017909408
0.019946344 -0.028796054 0.014600873
0.022831464 -0.027369695 0.014706075
0.026136624 -0.025713535 0.014572322
0.020457096 -0.029035345 0.010258853
0.023497924 -0.027750451 0.0098483562
0.027099092 -0.025814615 0.0099976659
0.030489959 -0.02428221 0.0093064308
0.027760183 -0.025399251 0.0060724616
0.031418778 -0.024065357 0.0050883293
0.035585165 -0.022242023 0.0040948391
0.032810178 -0.024165448 0.00052016973
0.035890091 -0.022954475 0.00095921755
0.03917937 -0.021340057 0.00014895201
0.0091125248 -0.029320993 0.0211218
0.012009979 -0.029162534 0.020800591
0.012864307 -0.029240537 0.016575873
0.014448893 -0.029066455 0.0115605
0.017367743 -0.028879657 0.012345493
0.017903164 -0.029042114 0.0080542564
0.022077575 -0.0278228 0.0061153769
0.019511711 -0.028380353 0.0047437549
0.022776585 -0.027251028 0.0031110644
0.026401134 -0.025197087 0.0027791858
0.029381815 -0.024172258 0.0019127727
0.02341189 -0.026437258 -0.00057095289
0.0092388298 -0.027914388 0.012573838
0.011335433 -0.028603524 0.01016134
0.013984352 -0.02893737 0.0056846738
0.015789391 -0.028751491 0.0046126842
0.017451765 -0.028553804 0.0012398958
0.02054978 -0.027600298 0.00049549341
0.0086315097 -0.027484171 0.0096545219
0.0094191218 -0.027810324 0.0034201741
