# .PCD v0.7 - Point Cloud Data file format
VERSION 0.7
FIELDS x y z
SIZE 4 4 4
TYPE F F F
COUNT 1 1 1
WIDTH 524
HEIGHT 1
VIEWPOINT 0 0 0 1 0 0 0
POINTS 524
DATA ascii
0.024855416 -0.035109516 0.17875284
0.027267098 -0.032866336 0.17907166
0.029990906 -0.029690718 0.17897448
0.02561653 -0.036609836 0.17573738
0.028802473 -0.034923475 0.17581838
0.031675741 -0.03159713 0.17564613
0.029663924 -0.035749082 0.17167842
0.032262433 -0.033473667 0.17064053
0.0170215 -0.034458853 0.18028384
0.019833174 -0.031856816 0.18118989
0.023523312 -0.029015768 0.18136457
0.027409613 -0.025567457 0.18155676
0.030359434 -0.020967418 0.18058494
0.031532142 -0.017828222 0.17957386
0.018489424 -0.036450174 0.17762628
0.022235062 -0.035276502 0.17889297
0.024788629 -0.031734928 0.17980647
0.030688692 -0.026357826 0.17833656
0.032052115 -0.022916397 0.17679808
0.03293439 -0.019496707 0.17552024
0.020205032 -0.037301391 0.17422706
0.023254046 -0.03728535 0.17424533
0.032296393 -0.028275369 0.17361236
0.031890932 -0.024331108 0.17233285
0.024865083 -0.037422564 0.16971165
0.029235955 -0.036285784 0.16833124
0.032790728 -0.030158373 0.16884226
0.02424724 -0.037544928 0.16605672
0.029182931 -0.035359487 0.16407287
0.031828951 -0.032208208 0.16409481
0.014745937 -0.02645522 0.18264535
0.017972309 -0.023662034 0.18264741
0.022120008 -0.020184638 0.18224978
0.026161751 -0.016024208 0.18239424
0.028740037 -0.012591689 0.18228349
0.031384148 -0.0098315924 0.18115616
0.01096522 -0.034330167 0.17982805
0.013445292 -0.032834306 0.18084916
0.016405469 -0.029231558 0.18191826
0.020012181 -0.026284613 0.18200499
0.024188351 -0.022271723 0.18227288
0.027992718 -0.018466089 0.18203428
0.031747892 -0.015104486 0.17957437
0.032960944 -0.010493976 0.17848754
0.012367431 -0.03637759 0.17647851
0.015208721 -0.036569186 0.17630503
0.033603996 -0.016924512 0.17456087
0.033734217 -0.01300495 0.17424554
0.013427686 -0.037360616 0.17137715
0.017054077 -0.037176188 0.17165422
0.032371119 -0.021956334 0.17055929
0.033477616 -0.018169638 0.16963992
0.018586185 -0.037306182 0.16714767
0.022227854 -0.037644863 0.16705894
0.032361094 -0.023834143 0.16644946
0.03305164 -0.019423123 0.16579792
0.018936202 -0.03757783 0.16314769
0.022749532 -0.036619868 0.16258296
0.026982138 -0.035519104 0.16135225
0.031849317 -0.029769799 0.16146988
0.032243833 -0.025301868 0.16198489
0.024093134 -0.036518414 0.15781254
0.028026896 -0.035370313 0.15744114
0.030828748 -0.031210653 0.15695339
0.028238418 -0.035645325 0.15235525
0.030806843 -0.032649707 0.15236819
0.029799975 -0.035508588 0.14904258
0.0090051256 -0.027653277 0.18200552
0.011646761 -0.024359124 0.18285143
0.014990846 -0.020696154 0.18249264
0.017983867 -0.017136933 0.18185741
0.021820229 -0.013755082 0.18195891
0.026765116 -0.010503739 0.18321845
0.032977052 -0.011343729 0.16712159
0.01175948 -0.03624966 0.16460574
0.014877686 -0.037054561 0.16542387
0.032735992 -0.017322663 0.16303256
0.032883782 -0.012340798 0.1628592
0.016888926 -0.037221305 0.1603854
0.031530231 -0.021755606 0.15907556
0.031766202 -0.018687535 0.15857577
0.017890329 -0.037445113 0.15583992
0.021034226 -0.036682259 0.15638492
0.030644597 -0.024239281 0.15483576
0.018863851 -0.03754279 0.15260297
0.022513691 -0.036582258 0.15142074
0.026145656 -0.036204707 0.14960504
0.031464003 -0.031256154 0.15009323
0.030973708 -0.02619748 0.15065816
0.022742251 -0.036654882 0.1470485
0.027301144 -0.03540637 0.14598387
0.030407052 -0.032192733 0.14597374
0.030922636 -0.027975731 0.14660886
0.0076014576 -0.020003546 0.18173045
0.010507427 -0.016251691 0.18206882
0.014058737 -0.012857588 0.18260399
0.017530201 -0.0095422361 0.18250442
0.032043219 -0.014978755 0.16009742
0.03280443 -0.010708401 0.16017038
0.01255906 -0.03646354 0.15764686
0.031531662 -0.01556314 0.15608072
0.032706063 -0.012142564 0.15588173
0.01275685 -0.036978621 0.15333113
0.031311288 -0.021338806 0.15273839
0.031928103 -0.017537206 0.1520265
0.016828721 -0.037570633 0.14983919
0.020267043 -0.036979504 0.14921299
0.031562518 -0.022730293 0.1485157
0.032072619 -0.01927067 0.1477308
0.017545305 -0.037475128 0.14573777
0.021533597 -0.0367238 0.14465886
0.024970781 -0.035476819 0.14308104
0.030373609 -0.029879356 0.14265469
0.031200439 -0.025910985 0.14403141
0.031908795 -0.021920992 0.14347285
0.021836698 -0.03625894 0.13984883
0.026256159 -0.034791697 0.13955051
0.029528363 -0.03145054 0.13931862
0.030854978 -0.026874907 0.13911688
0.026715446 -0.034680288 0.13479143
0.029444784 -0.03197211 0.13411748
0.0091316067 -0.0058978745 0.18314248
0.010256851 -0.0047982554 0.18308309
0.0067329616 -0.012039077 0.1820831
0.009965837 -0.0095515251 0.18286428
0.012997412 -0.0053667286 0.18259829
0.031731855 -0.011017102 0.14888781
0.01144875 -0.036438495 0.14647007
0.032173764 -0.016461253 0.14549971
0.031845521 -0.012785546 0.14442232
0.014172615 -0.036351003 0.14199492
0.032090306 -0.018297851 0.14121976
0.032001294 -0.016113464 0.13815904
0.015414671 -0.035801925 0.13744339
0.019257922 -0.03607364 0.13761711
0.030950701 -0.024853243 0.13716161
0.032070789 -0.020776046 0.13681477
0.02068433 -0.036266938 0.13394976
0.024865892 -0.034988787 0.13237941
0.030111376 -0.030309249 0.13141531
0.031237876 -0.026885325 0.1329855
0.032569807 -0.021833681 0.13213658
0.02169878 -0.036278844 0.12909472
0.026182061 -0.035452813 0.12848315
0.029543765 -0.032158799 0.1283192
0.031819984 -0.027589874 0.12734258
0.032881361 -0.02438179 0.12766534
0.022734828 -0.036659017 0.12557769
0.026524983 -0.035871822 0.12312993
0.029563118 -0.032782774 0.12316287
0.030960627 -0.029404953 0.12369323
0.027219556 -0.036357865 0.11924255
0.028827589 -0.034231346 0.11950797
0.0060530459 -0.0055002482 0.18284678
0.0039816448 -0.01196841 0.18205515
0.031457536 -0.0096530039 0.14218107
0.031762235 -0.011317661 0.13810962
0.032392018 -0.0098446039 0.13509715
0.012013559 -0.036113169 0.13556504
0.032205217 -0.014916475 0.13409981
0.014264601 -0.035273708 0.13170975
0.016787648 -0.03494921 0.12952545
0.033436082 -0.02032526 0.12959987
0.032998987 -0.016685404 0.12977192
0.018492579 -0.03570658 0.12689739
0.033289298 -0.021486768 0.12631795
0.033377863 -0.018263403 0.12464523
0.021123271 -0.036371689 0.12273285
0.024576409 -0.036473386 0.12251937
0.030478068 -0.031344783 0.12066516
0.031668071 -0.02799686 0.12167302
0.032809854 -0.023130897 0.12184566
0.022474343 -0.036928438 0.11789453
0.026312377 -0.036713179 0.11706561
0.029919442 -0.032959018 0.1171748
0.031422973 -0.028002562 0.1173802
0.026506329 -0.036103487 0.11230552
0.029215334 -0.033508953 0.11183983
0.03079439 -0.029813029 0.11419052
0.029502597 -0.034500677 0.10836148
0.0033681323 -0.0023413324 0.18292415
0.032074358 -0.011995652 0.13128969
0.010888807 -0.03496334 0.12842086
0.032921962 -0.013656287 0.1272783
0.012795881 -0.034213703 0.12389073
0.016200455 -0.034739234 0.12433231
0.032954391 -0.014511389 0.12244931
0.01377884 -0.03487464 0.12035525
0.016241373 -0.035135299 0.11934483
0.032502383 -0.020732287 0.11847866
0.032731313 -0.017349679 0.11854178
0.017974194 -0.035443649 0.11539441
0.031413291 -0.025913334 0.11430162
0.032134142 -0.022090811 0.11451161
0.032661472 -0.01811629 0.11358243
0.021441679 -0.0363607 0.11125463
0.023947116 -0.036645975 0.11069739
0.030081527 -0.031605355 0.10996771
0.031122947 -0.027790675 0.11105555
0.031935692 -0.023525514 0.10974616
0.025717316 -0.0363805 0.10752434
0.029727682 -0.033764862 0.1057862
0.031320512 -0.028837366 0.10636443
0.032229956 -0.024932969 0.10636592
0.025853809 -0.035672329 0.10328257
0.028951356 -0.033271551 0.10120004
0.030615801 -0.03038797 0.10173082
0.051395997 -0.022880485 0.081661105
0.053230841 -0.022940654 0.078428328
-0.0018445528 0.0029250374 0.18312716
0.013616361 -0.034995981 0.11645722
0.032454867 -0.014108212 0.11579454
0.010819571 -0.034678288 0.11396426
0.014003565 -0.034783773 0.11223525
0.032572694 -0.015471002 0.11112839
0.033262629 -0.011122975 0.11236238
0.017013598 -0.035289038 0.10888845
0.032542799 -0.021169059 0.10787034
0.032542698 -0.017440598 0.10670459
0.018964775 -0.03530949 0.10397047
0.022257928 -0.035463277 0.10333371
0.031087577 -0.026263073 0.10261261
0.031812314 -0.02241753 0.10280132
0.032652706 -0.01866951 0.10311085
0.019458666 -0.035181098 0.099805832
0.024430186 -0.035149947 0.099914849
0.029912671 -0.032089304 0.09938091
0.031120492 -0.028111169 0.099443018
0.032565862 -0.023761462 0.09776485
0.035164744 -0.020861484 0.096373379
0.025157142 -0.034947213 0.095126629
0.028688295 -0.033363074 0.095529497
0.031715397 -0.029635327 0.094958425
0.03447026 -0.025638562 0.094096422
0.037817422 -0.022500113 0.093773901
0.040939383 -0.018600877 0.092408895
0.042976424 -0.016161334 0.091068983
0.02569335 -0.035181366 0.091066301
0.029192753 -0.033852018 0.09068352
0.032780241 -0.030996282 0.090327621
0.036691267 -0.028113049 0.090692341
0.040701091 -0.025176035 0.090355694
0.043526605 -0.021460215 0.089413702
0.045343772 -0.016802175 0.088104427
0.033853799 -0.030037029 0.086349308
0.037102029 -0.028197015 0.086476326
0.040897109 -0.026188366 0.085226238
0.045649376 -0.023904722 0.084963262
0.048509162 -0.019954178 0.08516562
0.042828199 -0.02579825 0.08058846
0.04692442 -0.02545807 0.080554128
0.052003607 -0.020979226 0.08011955
0.053703688 -0.016733052 0.080261707
0.043473467 -0.026633516 0.077408612
0.047217004 -0.025250712 0.075239778
0.051803663 -0.023171954 0.075796843
0.055982787 -0.019473474 0.075645626
0.051869586 -0.02383408 0.070764899
0.056466892 -0.020570042 0.070911944
0.058202539 -0.020373937 0.065901816
0.062119715 -0.018932043 0.066775322
0.059193935 -0.020648632 0.062153041
-0.0082155792 0.0025358282 0.18362403
-0.0048876316 0.0060053053 0.18334824
0.012981068 -0.03437395 0.10601729
0.032668918 -0.014504867 0.10574561
0.032931603 -0.010763888 0.10480857
0.014351328 -0.03451575 0.10183775
0.032136273 -0.020609833 0.09998703
0.033263296 -0.016614631 0.10052216
0.033081349 -0.012334325 0.099818647
0.016670533 -0.034863684 0.097240984
0.021055704 -0.034671452 0.097353518
0.032623708 -0.021189809 0.098578036
0.035306115 -0.01865517 0.097186208
0.03725227 -0.014769502 0.096048832
0.021006206 -0.034586079 0.092314661
0.037397075 -0.019450173 0.094064116
0.039591834 -0.017117847 0.093859375
0.042803146 -0.013329037 0.091610432
0.024205226 -0.035017416 0.088213384
0.028167024 -0.034455016 0.087940156
0.044929728 -0.014810981 0.089311302
0.024513124 -0.0344579 0.084047139
0.028931588 -0.034028217 0.084342897
0.032585647 -0.031445447 0.08425355
0.036319751 -0.028588336 0.083598852
0.029633282 -0.033657797 0.078722835
0.033161432 -0.032049604 0.079140723
0.036749728 -0.028819894 0.079146564
0.040507693 -0.026884187 0.079998434
0.033452168 -0.032617062 0.074589431
0.037772704 -0.029843312 0.074499846
0.041784123 -0.027615635 0.074822545
0.046101242 -0.026101112 0.073468864
0.042684235 -0.02772823 0.07023865
0.046756715 -0.026118806 0.070227206
0.051081207 -0.024614025 0.068207443
0.053562861 -0.021431554 0.067647278
0.047323685 -0.025833804 0.065538585
0.052141413 -0.024430385 0.06487602
0.055230536 -0.02139361 0.064482331
0.048314642 -0.025529671 0.061147809
0.052444264 -0.024772638 0.060521662
0.056088805 -0.022094943 0.060296476
0.060221042 -0.019992251 0.0590657
0.053501841 -0.024172183 0.057065725
0.056406118 -0.022242852 0.0554564
0.061786912 -0.019704355 0.055272639
0.061073914 -0.020270685 0.051121294
0.011251401 -0.033864692 0.099937618
0.011749725 -0.034151733 0.094870985
0.014491539 -0.034050081 0.091098368
0.017706491 -0.034093082 0.090355337
0.015361758 -0.034265906 0.087253153
0.018908067 -0.034068838 0.085945964
0.021073569 -0.033930007 0.081554055
0.025569178 -0.03349103 0.080016375
0.022700274 -0.033801533 0.078020394
0.025138102 -0.033308364 0.076148689
0.027653661 -0.033361066 0.072952926
0.032371432 -0.031762749 0.070468545
0.035375174 -0.030170675 0.071135759
0.02931428 -0.033438079 0.067785084
0.032277908 -0.031848941 0.067417443
0.036577191 -0.029017465 0.067284763
0.039718434 -0.027183531 0.066279173
0.03616887 -0.029138425 0.062800825
0.040927004 -0.026808288 0.062204659
0.045018159 -0.025911363 0.062287152
0.042659763 -0.026794281 0.057771444
0.045542501 -0.025145181 0.057335079
0.049119599 -0.02419737 0.057713568
0.04660568 -0.0252552 0.053882778
0.050608195 -0.023635417 0.053066432
0.053818904 -0.022332273 0.053034842
0.052026119 -0.022947136 0.049315035
0.055445418 -0.021545155 0.048902273
0.058930695 -0.020130806 0.048033297
0.060416676 -0.019500325 0.044350803
0.01116325 -0.034032587 0.088498533
0.012481681 -0.034261111 0.08350879
0.014194313 -0.034842279 0.078908563
0.017933305 -0.034449156 0.080119014
0.015715828 -0.03540349 0.07596755
0.019148026 -0.03457243 0.074998677
0.019984402 -0.034509704 0.070364296
0.023978325 -0.033861902 0.070883811
0.025020167 -0.033204187 0.065626621
0.02817104 -0.032604039 0.062579632
0.031257782 -0.031622533 0.061616242
0.035621248 -0.02902291 0.061749816
0.032427784 -0.031267989 0.056283772
0.036258105 -0.029559512 0.056945682
0.040459961 -0.027576685 0.056591213
0.043616768 -0.025615584 0.054498732
0.037246447 -0.029605787 0.053397715
0.041255694 -0.028302196 0.052176237
0.045692086 -0.025940947 0.051142037
0.048820682 -0.024224274 0.050364733
0.042161833 -0.028197695 0.047829807
0.046175543 -0.026312318 0.047060668
0.050440289 -0.024037406 0.046767116
0.054172494 -0.021840019 0.045704961
0.046542104 -0.026405241 0.043379664
0.050845277 -0.024375971 0.042276084
0.055169977 -0.021870159 0.042140424
0.058458615 -0.019880656 0.041392207
0.051674485 -0.023839345 0.038592637
0.055709001 -0.02231754 0.037075222
0.059804969 -0.019900791 0.03731972
0.056110159 -0.022048051 0.033398449
0.060371734 -0.020363504 0.032265007
0.060039014 -0.020452864 0.029426217
0.012403069 -0.034983978 0.072823822
0.013768138 -0.035141677 0.068665147
0.018158168 -0.034546804 0.067915261
0.01430788 -0.034802724 0.064643919
0.018218026 -0.034153059 0.0632658
0.022292454 -0.033603456 0.0630759
0.019242875 -0.034317169 0.058759868
0.024010401 -0.033000037 0.05875355
0.026875963 -0.031629086 0.057170749
0.024147142 -0.033742059 0.053846419
0.028599584 -0.03191562 0.053858757
0.025707923 -0.034023855 0.049686193
0.029931365 -0.031990949 0.049490809
0.034800235 -0.029788379 0.049383879
0.029494073 -0.032627344 0.046079278
0.034960207 -0.029799687 0.044116855
0.040114302 -0.028341871 0.044892311
0.040199108 -0.027781824 0.039833605
0.044919167 -0.025964413 0.039358795
0.041854125 -0.027089182 0.035684884
0.045345053 -0.025735857 0.035003603
0.049840294 -0.024398006 0.035792887
0.046284091 -0.026012082 0.031248927
0.050346617 -0.024082106 0.03054148
0.054441191 -0.022357704 0.030868113
0.05461286 -0.021934835 0.026337028
0.05919113 -0.020015612 0.025931299
0.059850674 -0.019763965 0.021115661
0.010921291 -0.035354767 0.066766679
0.012255752 -0.034820504 0.061906397
0.013926722 -0.034870222 0.058281481
0.01688493 -0.034966398 0.057349861
0.019028628 -0.034982048 0.053118885
0.020381365 -0.035050843 0.047352016
0.023783239 -0.035094477 0.048853874
0.025341146 -0.034903053 0.044055104
0.029625876 -0.033358123 0.043958247
0.02616217 -0.034335416 0.039671123
0.029688284 -0.032464914 0.039103687
0.033561759 -0.030500859 0.038781285
0.037168775 -0.029172976 0.038509429
0.038203519 -0.028113196 0.034228921
0.042907417 -0.027131455 0.033162355
0.039599456 -0.028048851 0.029182494
0.043595187 -0.026858665 0.029315889
0.048426107 -0.024870716 0.027546108
0.044121124 -0.026031209 0.025055766
0.048671443 -0.024473656 0.024608314
0.054423586 -0.02185007 0.023487151
0.050052851 -0.024035409 0.02074784
0.054000117 -0.022153424 0.019798279
0.058581263 -0.020885522 0.018961012
0.054618001 -0.022337424 0.016821444
0.059558406 -0.020756794 0.014961123
0.05921784 -0.020279126 0.010749876
0.01068307 -0.034546398 0.055145204
0.011850581 -0.034142084 0.050466716
0.015350907 -0.034563351 0.049503446
0.012595965 -0.034355879 0.046812534
0.016844032 -0.034905553 0.045718908
0.017751785 -0.035166025 0.041410029
0.022047762 -0.034812637 0.040797234
0.019587908 -0.034922127 0.037367702
0.023771588 -0.034490108 0.036301553
0.027808063 -0.033078536 0.036311984
0.023966927 -0.034366924 0.032101512
0.028199119 -0.032163851 0.032084107
0.032329638 -0.029313076 0.03160429
0.03606955 -0.028446237 0.03109622
0.02859409 -0.032316621 0.028373241
0.032676101 -0.029938355 0.026890635
0.036909226 -0.028587226 0.027004421
0.033431277 -0.030293241 0.023826659
0.038437538 -0.028640354 0.022578001
0.042247407 -0.026602084 0.02219075
0.038698487 -0.028991625 0.018498242
0.043243092 -0.026726406 0.017771065
0.047240019 -0.02488175 0.017629087
0.04350964 -0.026950024 0.013706148
0.047910664 -0.024671938 0.012785852
0.052348286 -0.022479482 0.013138056
0.05559627 -0.021155925 0.012352288
0.048523024 -0.024619877 0.009275496
0.052259184 -0.022580467 0.0085776448
0.05633672 -0.019720722 0.0075480342
0.061069876 -0.018758779 0.0076444745
0.056938075 -0.019276746 0.0043795705
0.010790639 -0.034230877 0.043212593
0.01208221 -0.034382246 0.039162159
0.015582874 -0.035537794 0.038662791
0.01682977 -0.035082925 0.034846902
0.018385692 -0.034951732 0.030689955
0.021682991 -0.034407549 0.029398143
0.023695819 -0.033686019 0.025549412
0.027393222 -0.032378763 0.024837554
0.024060102 -0.03340131 0.020868242
0.027899884 -0.032035295 0.021381736
0.032117914 -0.030230172 0.0201267
0.033334203 -0.029460467 0.015727162
0.036361679 -0.028827945 0.015142977
0.038861394 -0.028557545 0.011859119
0.041913014 -0.027204189 0.011297762
0.042385023 -0.026106726 0.0070781112
0.046561927 -0.024697602 0.0063334107
0.051539827 -0.021920528 0.0060833693
0.0479539 -0.024136174 0.0014544129
0.051877633 -0.02244319 0.0022988915
0.055589668 -0.019940266 0.0021870732
0.011987206 -0.034722291 0.032945395
0.014747298 -0.035193935 0.031607926
0.012247978 -0.035316594 0.028122604
0.015951224 -0.034880824 0.027829051
0.016289927 -0.034302391 0.023909569
0.020681141 -0.033788942 0.023440778
0.017940614 -0.034493603 0.019067824
0.021381728 -0.033993077 0.018962801
0.026648223 -0.031449772 0.017909408
0.023270734 -0.033595394 0.014600873
0.026636709 -0.031931311 0.014706075
0.030492727 -0.029999126 0.014572322
0.023866612 -0.033874568 0.010258853
0.027414246 -0.032375526 0.0098483562
0.031615607 -0.030117052 0.0099976659
0.035571616 -0.028329242 0.0093064308
0.03238688 -0.029632458 0.0060724616
0.03665524 -0.028076248 0.0050883293
0.041516025 -0.025949027 0.0040948391
0.038278542 -0.028193021 0.00052016973
0.041871771 -0.026780218 0.00095921755
0.045709267 -0.024896735 0.00014895201
0.010631278 -0.034207825 0.0211218
0.01401164 -0.034022953 0.020800591
0.015008357 -0.034113962 0.016575873
0.016857041 -0.033910863 0.0115605
0.020262364 -0.033692934 0.012345493
0.020887025 -0.033882465 0.0080542564
0.025757171 -0.032459933 0.0061153769
0.022763662 -0.033110414 0.0047437549
0.026572682 -0.031792864 0.0031110644
0.03080132 -0.029396599 0.0027791858
0.034278784 -0.028200967 0.0019127727
0.027313871 -0.030843468 -0.00057095289
0.010778636 -0.032566786 0.012573838
0.013224672 -0.033370774 0.01016134
0.01631508 -0.033760265 0.0056846738
0.018420957 -0.033543408 0.0046126842
0.020360393 -0.033312775 0.0012398958
0.023974743 -0.032200348 0.00049549341
0.010070097 -0.032064866 0.0096545219
0.010988973 -0.032445375 0.0034201741
