# .PCD v0.7 - Point Cloud Data file format
VERSION 0.7
FIELDS x y z
SIZE 4 4 4
TYPE F F F
COUNT 1 1 1
WIDTH 406
HEIGHT 1
VIEWPOINT 0 0 0 1 0 0 0
POINTS 406
DATA ascii
0.029028151 0.027034732 0.17966205
0.026402723 0.029633624 0.18168679
0.02241943 0.031551365 0.18216419
0.017691899 0.032077197 0.18149018
0.012989814 0.032618035 0.18010816
0.029996682 0.029157076 0.1775203
0.027720105 0.031869277 0.17842516
0.023505766 0.033708785 0.17827865
0.018673901 0.033904485 0.17701519
0.014387686 0.033952679 0.17654932
0.030583166 0.030068785 0.17367065
0.028111875 0.032258224 0.17422783
0.024027508 0.033821125 0.17327735
0.020051215 0.034090102 0.17327785
0.022897735 0.022529313 0.18265572
0.019366721 0.024231778 0.18352732
0.015227895 0.026364971 0.18356201
0.010560666 0.027786205 0.18275106
0.0047249305 0.030130865 0.18227941
0.00034913328 0.031247837 0.18281519
0.028207872 0.023329372 0.17987561
0.024947055 0.024614498 0.18185899
0.02074714 0.027560538 0.18305779
0.016519807 0.02941291 0.18291226
0.010578983 0.031506848 0.1808731
0.0064612082 0.032938678 0.17960301
0.0020260112 0.034350254 0.17981049
-0.0024113143 0.035696454 0.17932138
0.030924302 0.025408486 0.17600432
0.012189419 0.034689881 0.17509997
0.0074623534 0.034775138 0.17468634
0.0027788114 0.035566747 0.17435151
-0.0017760079 0.036646321 0.17367435
0.031391874 0.027609628 0.17156601
0.028070413 0.031726304 0.17117643
0.022146562 0.033427794 0.17045844
0.018419664 0.033876114 0.17086166
0.01361557 0.035037398 0.17076212
0.0080799479 0.035690341 0.16954929
0.003341171 0.036420185 0.16970941
-0.00057620183 0.037105918 0.16971481
0.030745454 0.029499311 0.16698837
0.028235391 0.031622291 0.16750675
0.024003292 0.033494189 0.16737682
0.019428328 0.034449533 0.1666092
0.014931217 0.035635203 0.16599989
0.010392253 0.036186218 0.16553104
0.031248644 0.030319387 0.16394424
0.02881173 0.032369815 0.16260588
0.024635293 0.033894077 0.16251796
0.019819062 0.03487413 0.1623807
0.016040038 0.035911843 0.16281128
0.028974818 0.033319931 0.15907288
0.026441582 0.034325942 0.15939048
0.00054367725 0.023319513 0.18233836
-0.0021788394 0.02487747 0.18244433
0.022266343 0.018869201 0.1825633
0.017739158 0.020238684 0.18357822
0.013305913 0.021662999 0.18313712
0.0086185988 0.023440806 0.18236801
0.0045629242 0.025944652 0.18230519
0.00076970924 0.02785714 0.18308854
0.0033070063 0.036083307 0.16702935
-0.0015787911 0.037060242 0.16704246
0.0077391062 0.035818815 0.16328275
0.0033168485 0.03568536 0.16265589
-0.0010676719 0.036766659 0.16224927
0.032438628 0.028755199 0.1615214
0.022698997 0.033375159 0.15956616
0.019772077 0.034383658 0.15930739
0.014650241 0.034774695 0.15935522
0.0098696938 0.034860939 0.15932727
0.032321092 0.030357292 0.1572631
0.029596817 0.032611843 0.15633258
0.024405785 0.033530694 0.1562278
0.019851543 0.034101263 0.15545455
0.015414512 0.03415677 0.15479523
0.028343502 0.032166798 0.15159824
0.024724962 0.033147264 0.15127486
0.021066587 0.033807777 0.15129614
0.015464572 0.014493806 0.18233189
0.010993311 0.015926899 0.18206888
0.0067343507 0.018557463 0.18273172
0.0021482967 0.019973136 0.18276685
-0.0027545979 0.037065603 0.15985578
0.007579667 0.033921644 0.15618932
0.0028925659 0.034066539 0.15601465
-0.0016965298 0.035738312 0.15589529
0.01386269 0.034224782 0.15251434
0.0097333957 0.033787403 0.15226999
0.0055871028 0.033340164 0.15202206
0.029561874 0.029227698 0.14933026
0.024938833 0.033382867 0.14908248
0.019602895 0.03408432 0.14915836
0.015283933 0.034495499 0.14874071
0.011226866 0.034244135 0.14862597
0.027961072 0.030962572 0.14522263
0.024898872 0.032736778 0.14492333
0.020477066 0.034269709 0.1445345
0.016409766 0.034668706 0.14449477
0.0018713088 0.010480529 0.18300453
0.00042433571 0.011099562 0.18294513
0.0085458281 0.010827698 0.18208319
0.0050362395 0.013111797 0.1827327
-2.2190623e-05 0.014043852 0.1825867
-0.00039657578 0.034077991 0.15319234
0.003055851 0.033390976 0.14963847
-0.0019534407 0.034051515 0.14896905
0.030253749 0.025440369 0.14769644
0.0094106644 0.033678055 0.1458604
0.0042944476 0.03374644 0.14517072
-0.001110225 0.034199145 0.14365983
0.029117242 0.026790798 0.14252901
0.014711875 0.033961296 0.14185023
0.010268899 0.033865076 0.14120412
0.0052957246 0.034100398 0.13984856
0.0015170667 0.034665518 0.14032093
0.028886769 0.028205801 0.13765419
0.024661867 0.031281091 0.13828647
0.020245463 0.032898039 0.13795042
0.015586492 0.033884954 0.13714761
0.010882461 0.034270536 0.13619262
0.0069570462 0.034966893 0.13646215
0.028317383 0.029520994 0.13297826
0.025173053 0.031855084 0.13310397
0.020619063 0.033132255 0.13251019
0.017120903 0.033944793 0.13242513
0.025374472 0.032657646 0.12909615
0.022766631 0.033742111 0.12878865
0.006269333 0.0053279959 0.18215245
0.0025788946 0.0072166873 0.18253681
0.0095336204 0.0082585579 0.18205509
-0.0030875402 0.034729145 0.14150107
-0.00094001275 0.034966119 0.1380783
0.031052507 0.025862411 0.13685083
0.0094390102 0.035193592 0.13419053
0.0054294458 0.035185456 0.13423005
0.00056932867 0.034954082 0.13366303
0.030912533 0.027865598 0.13207623
0.014949136 0.034107149 0.13099965
0.011148493 0.034810726 0.13065636
0.0064777238 0.035352141 0.12980157
0.0023024445 0.03547987 0.12963766
0.034130551 0.02829567 0.12979209
0.030180134 0.029272055 0.12727222
0.026285626 0.032715973 0.12683129
0.02058531 0.033523008 0.12673786
0.016544741 0.03357726 0.12643263
0.011829827 0.033941802 0.12648478
0.029135026 0.030484108 0.12324104
0.026165996 0.032908749 0.12259358
0.021860544 0.033494975 0.12226671
0.025491908 0.032812424 0.1184597
0.00064271217 0.0034112984 0.18254131
-0.0011652056 0.0341985 0.1303241
0.0044692662 0.034892857 0.12673533
0.00048962794 0.035035484 0.12687933
0.014614545 0.032718267 0.12335891
0.010668011 0.03347937 0.12335336
0.0061687864 0.034475215 0.12314311
0.0012490414 0.035006016 0.12195507
-0.0026003914 0.035702385 0.12159193
0.030569188 0.027812982 0.120675
0.020091245 0.033021338 0.11947387
0.015952118 0.032704934 0.11925799
0.011202357 0.032881979 0.119048
0.006215292 0.03418453 0.11910439
0.0023625912 0.035258956 0.11859298
0.028854985 0.02909128 0.11563319
0.026200861 0.031429868 0.11528379
0.021374194 0.032835532 0.11523199
0.017235618 0.032529544 0.11502057
0.02605504 0.031208659 0.11175573
0.022058666 0.033129945 0.11097103
-0.001822666 -0.0024891293 0.18242612
0.010275685 0.032177117 0.11567831
0.005840776 0.03293477 0.11526239
0.00089206081 0.034112088 0.11488938
-0.0032771239 0.035512246 0.11528862
0.030076647 0.024944959 0.11281759
0.015554087 0.032344133 0.11241794
0.01104405 0.032549746 0.1117745
0.0062963506 0.033006255 0.11112964
0.002114092 0.033292294 0.11074108
0.029358067 0.026132533 0.10847217
0.026773512 0.029698426 0.10837609
0.021170855 0.032447889 0.10759389
0.016383426 0.032381378 0.10748643
0.011708095 0.032646623 0.10764319
0.02628113 0.030240631 0.10377789
0.021866895 0.032579191 0.10348505
0.01712675 0.033026699 0.10281986
0.022069179 0.032592244 0.099614739
0.00031718519 -0.0087684086 0.18292084
-0.0040041646 -0.0076537314 0.18281794
0.00539428 0.033255715 0.10848886
0.00019781105 0.034182884 0.11006492
-0.0034577046 0.03514602 0.10986537
0.011232335 0.033103235 0.10514086
0.0067900391 0.033626981 0.10580999
0.0015365127 0.034203079 0.10592008
-0.0032296237 0.035263091 0.10510159
0.028512988 0.028839393 0.10180503
0.016337473 0.033531114 0.10036659
0.012193075 0.034147725 0.10141557
0.0068203695 0.034364611 0.10155851
0.0025604125 0.034962181 0.10111624
-0.0016600071 0.034498677 0.10114831
0.02727107 0.030213289 0.097713232
0.022150623 0.0324127 0.0965482
0.017468989 0.033227906 0.096815109
0.012719561 0.033879906 0.096952498
0.0074913432 0.033976682 0.097307026
0.030782383 0.027669704 0.094148159
0.027858183 0.030957513 0.092452168
0.022708632 0.033244461 0.092330039
0.017884165 0.03322703 0.092727423
0.027471308 0.031668145 0.088823497
0.023727724 0.033139884 0.088603914
-2.4942681e-05 0.033967409 0.098345637
0.01089222 0.032341864 0.093824387
0.0063728848 0.032836363 0.093484879
0.0017450107 0.03356472 0.093670547
-0.0033103712 0.034101322 0.093392372
0.015995674 0.032248314 0.090105832
0.011787558 0.03195978 0.089859784
0.0070559261 0.032652728 0.089034617
0.0022059493 0.034218691 0.089268565
0.028972533 0.029678328 0.086438477
0.022935405 0.032174084 0.08606863
0.017383847 0.032293569 0.085917234
0.012871264 0.032815073 0.085073531
0.032040849 0.027079204 0.083134532
0.028901577 0.029997457 0.082110703
0.023646012 0.032098968 0.081827462
0.018165214 0.032645911 0.081894934
0.024674403 0.031993374 0.078059971
0.005204333 0.032690525 0.086194277
0.0022050189 0.033923529 0.086055219
-0.0027192971 0.034914803 0.087127924
0.010764355 0.032993145 0.083204925
0.0073653283 0.033319466 0.083313346
0.0026200535 0.034561094 0.082601786
-0.0022532614 0.034952477 0.08183831
0.017572707 0.032797594 0.079076469
0.012844405 0.033296969 0.079058826
0.0079931729 0.033694752 0.078295946
0.0027177595 0.034411203 0.078487158
0.032073319 0.026443953 0.075003266
0.029111035 0.029676761 0.075887561
0.024758745 0.031907279 0.075747669
0.019392107 0.032437712 0.074770153
0.014888075 0.032508068 0.073506176
0.032292109 0.028151378 0.070788503
0.029084792 0.030123305 0.071619987
0.025224738 0.032365609 0.070381224
0.020522835 0.032753341 0.070593417
0.016702361 0.033065587 0.070030272
-0.0034018587 0.034680825 0.0786677
0.0073675434 0.032463588 0.074613214
0.0024921149 0.033654805 0.07585305
-0.0025791787 0.034271352 0.075608134
0.012732779 0.032244828 0.071676075
0.0076216441 0.031370021 0.071547329
0.002692325 0.032290723 0.070880175
-0.0022783419 0.034032676 0.070695519
0.029436195 0.028525827 0.067835271
0.020150555 0.032631613 0.068166196
0.014963431 0.032881238 0.06760329
0.0095599862 0.032165185 0.067220807
0.0049689901 0.032428268 0.067648768
0.029060055 0.027861316 0.063325107
0.024796963 0.03043017 0.063281834
0.019701382 0.03154432 0.063552797
0.014899749 0.032724198 0.062760115
0.011421664 0.033463906 0.062876344
0.02775036 0.028600836 0.060318589
0.025115382 0.030758273 0.059741914
0.020603828 0.031833287 0.059382737
0.017049735 0.032725509 0.059633911
0.0068849833 0.030806839 0.069195509
0.00076991692 0.033164106 0.068804264
0.0079572638 0.032870602 0.064869881
0.0041488055 0.032950774 0.065101326
-0.0006631827 0.033612877 0.064528227
0.0087308623 0.032560878 0.060373962
0.0050511383 0.032604564 0.060248137
0.001023544 0.033011116 0.060545087
0.029498257 0.0276669 0.057911575
0.025347508 0.030989602 0.057097077
0.02011345 0.032267693 0.056737483
0.015101002 0.032515418 0.056477666
0.011073661 0.033068124 0.056786895
0.028357051 0.029071726 0.052578747
0.025665641 0.031282663 0.053273499
0.021011868 0.031595364 0.052178025
0.016942022 0.03168194 0.052610815
0.028869171 0.029883202 0.049189985
0.02631776 0.031412736 0.048597157
0.0032482529 0.032324124 0.05735743
-0.00087522995 0.032553561 0.057838976
0.0091789104 0.03208426 0.053544402
0.0048945691 0.032466579 0.053435862
-0.00082586147 0.032785881 0.053257465
0.029923297 0.026124595 0.050946891
0.018533945 0.030845577 0.049418509
0.015149938 0.031355541 0.049658895
0.010127371 0.032218937 0.049591362
0.0050130486 0.032838855 0.048965156
0.00051186793 0.032969125 0.049939096
0.029902417 0.027624266 0.046123981
0.025416061 0.030711405 0.044929862
0.020792194 0.03150294 0.04546541
0.015290807 0.031817704 0.045264602
0.010527194 0.032667838 0.044825494
0.0069057262 0.03368932 0.044840276
0.029707246 0.028300526 0.041587412
0.026373416 0.031473041 0.041113615
0.021361534 0.032349683 0.041048467
0.016416965 0.032875869 0.041009247
0.012032167 0.033670183 0.040845454
0.029949302 0.029896051 0.037499964
0.026891178 0.0321576 0.036542654
0.022070417 0.033009529 0.036789179
0.018297048 0.033201553 0.037439108
0.030450385 0.031661838 0.03320533
0.027407706 0.032983445 0.033125162
0.023362495 0.03411613 0.033599317
0.0032863189 0.032805644 0.046593368
-0.0008286722 0.032253504 0.046250641
0.0044716932 0.033527024 0.042918444
3.7478283e-05 0.032700531 0.041431606
0.014544444 0.032915562 0.038001359
0.010301274 0.033129606 0.037924111
0.0061093015 0.0329278 0.037838757
0.031511918 0.027475068 0.035262883
0.020345043 0.033410531 0.034095824
0.016214449 0.032690853 0.033923209
0.011267491 0.032397002 0.033473492
0.031577196 0.029731108 0.031064332
0.02746278 0.032690313 0.02973181
0.022036932 0.03260779 0.029480517
0.017807648 0.033478659 0.031112611
0.031077698 0.030166198 0.026954591
0.027205937 0.031686515 0.026728451
0.023679292 0.031737961 0.025488317
-0.001938669 0.032596957 0.03828162
0.0043773637 0.03215101 0.03487438
-1.5324913e-05 0.032610599 0.035788298
0.0091201728 0.032256264 0.031322539
0.0054418049 0.03283371 0.031969726
0.00045414176 0.032745555 0.031000257
0.032167174 0.026424434 0.028731287
0.015799241 0.031519234 0.027283728
0.011203006 0.031949136 0.028173745
0.0060832277 0.032440927 0.027384818
0.031720828 0.027372211 0.024161935
0.026956894 0.030702716 0.023732483
0.021340262 0.031732824 0.023920059
0.016922347 0.031237062 0.023362815
0.030462913 0.028528735 0.020449221
0.026830547 0.030539695 0.019872725
0.022391297 0.031429853 0.019624174
-0.001740003 0.032132156 0.027345955
0.0096552884 0.030638818 0.023854852
0.0049467576 0.031329229 0.023225129
0.00035355147 0.031902324 0.023893416
0.015045954 0.030758878 0.020158708
0.010958528 0.030653445 0.020298779
0.0054299966 0.031029584 0.019395173
0.0011469396 0.031754851 0.019486248
0.031054452 0.025580961 0.016484916
0.027602624 0.029123833 0.016270339
0.02136608 0.030457493 0.015570164
0.016287263 0.030405549 0.016374528
0.011412379 0.03091803 0.015643895
0.0073796324 0.031049302 0.016874731
0.030162556 0.026727874 0.012430131
0.02684607 0.02967895 0.012713611
0.02225833 0.030225718 0.012136519
0.01637207 0.030239195 0.013022125
0.013054638 0.030991456 0.012395442
0.027125685 0.029201262 0.0085530281
0.023355445 0.030375144 0.0084525943
-0.00056619477 0.031484466 0.017791808
0.0092043467 0.030744314 0.01404959
0.0056133512 0.031487308 0.014132321
0.00089152716 0.032766704 0.013678789
0.019805517 0.029257851 0.0091580153
0.016449923 0.03005269 0.0096384883
0.011315782 0.031479068 0.0096900463
0.0064202743 0.032319382 0.0088220239
0.0017469171 0.033017483 0.0079639554
0.027493935 0.028596923 0.0054762959
0.021667708 0.030385202 0.0056490302
0.016923469 0.030646794 0.0048217773
0.012001029 0.031370327 0.004195869
0.0067028566 0.032590199 0.0047684312
0.030168597 0.026749954 0.0011524558
0.027598042 0.029428506 0.0012497306
0.022739388 0.030901354 0.00061571598
0.018091431 0.030813778 0.0010031462
-0.00074972212 0.032622993 0.0064207911
0.0065733423 0.032040689 0.0020872355
0.0013960144 0.03205768 0.001935482
-0.0027333917 0.031909119 0.0011681318
