# .PCD v0.7 - Point Cloud Data file format
VERSION 0.7
FIELDS x y z
SIZE 4 4 4
TYPE F F F
COUNT 1 1 1
WIDTH 448
HEIGHT 1
VIEWPOINT 0 0 0 1 0 0 0
POINTS 448
DATA ascii
0.022318378 -0.034561131 0.18138623
0.026102386 -0.032702066 0.18148029
0.029135019 -0.031104688 0.18068066
0.018813161 -0.037837669 0.17784977
0.022187751 -0.036551353 0.17896
0.026762336 -0.03562668 0.17933068
0.029980795 -0.033461753 0.17867339
0.022733364 -0.038367465 0.1747627
0.027305501 -0.03743368 0.17513496
0.030239195 -0.035527736 0.17502469
0.024145568 -0.039502691 0.1715309
0.027031139 -0.038157381 0.17145306
0.023970509 -0.026032472 0.1838311
0.025899108 -0.024679948 0.18341088
0.0064720362 -0.035883203 0.17959306
0.010082542 -0.034596454 0.18052748
0.01544802 -0.033307541 0.18157405
0.02023185 -0.031706847 0.18250006
0.024382651 -0.029785404 0.18276593
0.028651476 -0.027683716 0.18153676
0.0074001579 -0.037074231 0.17717436
0.010610744 -0.036830291 0.17677242
0.01585342 -0.036840811 0.17824775
0.031359129 -0.030823555 0.17735475
0.031773709 -0.027821079 0.17561808
0.011995247 -0.038239632 0.17282823
0.017084979 -0.03878944 0.17385364
0.031032078 -0.03215437 0.17230383
0.017181957 -0.039602749 0.16892081
0.022589153 -0.039246675 0.1687957
0.026996324 -0.037382521 0.16808701
0.029721573 -0.033769511 0.16884431
0.018268146 -0.039654315 0.16507319
0.022424649 -0.03874043 0.16431594
0.026435714 -0.036331907 0.16457522
0.0003260579 -0.03155094 0.18243355
0.0034608967 -0.030153288 0.18295032
0.0076922607 -0.029004917 0.1832864
0.012275107 -0.027332122 0.18289834
0.01827443 -0.025363503 0.18276492
0.021765169 -0.022585796 0.18347058
0.00019360706 -0.035119839 0.18024269
0.0043474343 -0.034191068 0.18097466
0.0082790451 -0.031606227 0.18177509
0.012270145 -0.030119058 0.18213478
0.028772563 -0.023760755 0.18162847
-0.0033985274 -0.037946258 0.1761919
0.00061702635 -0.037492819 0.17550239
0.0053439904 -0.037467219 0.17582554
0.0017937981 -0.037785508 0.17129758
0.0056679081 -0.037739109 0.17084831
0.0094878674 -0.037818432 0.17123127
0.030953757 -0.026315182 0.1690678
0.0072210333 -0.037964098 0.16673175
0.010822412 -0.03854692 0.16693032
0.029872457 -0.030698329 0.16532695
0.011733118 -0.038549371 0.16283977
0.016143883 -0.038719904 0.16213417
0.021439798 -0.038620636 0.16189289
0.026308838 -0.035472527 0.16168693
0.029047571 -0.031879101 0.16137829
0.017736096 -0.038032778 0.15888578
0.021809898 -0.037638437 0.15699655
0.025873564 -0.035756502 0.15642881
0.028218439 -0.033292979 0.15629613
0.023298457 -0.038040623 0.1527009
0.02535031 -0.036948267 0.15244979
0.019190617 -0.016190143 0.18253762
-0.0025459249 -0.029249035 0.18255463
0.0014915988 -0.02723277 0.18329301
0.0060877874 -0.025124839 0.18340576
0.010429887 -0.022552226 0.18228894
0.014915693 -0.021102719 0.18198881
0.019242939 -0.020451467 0.18322888
-0.00013647042 -0.037529577 0.168908
-0.0034159673 -0.037128001 0.16398644
-0.00011550728 -0.036963735 0.16365197
0.0046852436 -0.037343632 0.16463211
0.030799173 -0.025449738 0.16253501
1.1867844e-05 -0.037688389 0.16042969
0.0049717575 -0.036939733 0.15968949
0.0090704067 -0.03662207 0.15921694
0.013091072 -0.036886767 0.15901166
0.030180292 -0.029550504 0.1589725
0.030982951 -0.026304251 0.15849078
0.0098426556 -0.036310516 0.15485707
0.014227529 -0.036543194 0.15510029
0.018077025 -0.037183434 0.15564665
0.029245282 -0.030105863 0.15486479
0.014617754 -0.037021227 0.15037203
0.020042719 -0.037003212 0.15030283
0.025770273 -0.035633996 0.1493046
0.02808433 -0.032452408 0.15062705
0.015475464 -0.037944846 0.14718646
0.020609256 -0.036833964 0.14526731
0.025317594 -0.035629313 0.1441296
-0.00030900538 -0.021102661 0.1820831
0.003389508 -0.019820362 0.18205115
0.0078371745 -0.017293697 0.18189389
0.01263427 -0.015487318 0.181638
-0.0010227924 -0.037660576 0.15740627
0.0036010947 -0.03663639 0.15682095
-0.00046220701 -0.037951723 0.15346414
0.004445455 -0.037050702 0.15353835
0.0083013792 -0.036889967 0.15302902
0.02942346 -0.028315555 0.15153441
0.0012264168 -0.037972141 0.14968589
0.0049899649 -0.037578572 0.14900732
0.0094821081 -0.037477981 0.14930385
0.013054154 -0.038037017 0.1485807
0.028226987 -0.028480833 0.1476424
0.0099498127 -0.037817921 0.1446254
0.014508543 -0.037991423 0.14418897
0.018789988 -0.037574429 0.14331064
0.027682584 -0.031395406 0.1432412
0.014678432 -0.038075309 0.13995206
0.02035144 -0.037881263 0.13901821
0.025570896 -0.03676806 0.13929904
0.028142512 -0.033901133 0.1375196
0.020020302 -0.03801436 0.13555411
0.025398709 -0.037709955 0.13421977
0.027932718 -0.034806993 0.133816
0.026100177 -0.036938112 0.13007236
0.0016251628 -0.01407149 0.18179813
0.0058119614 -0.01230797 0.18226522
0.0099522555 -0.010023718 0.18173566
-0.0021306081 -0.037101198 0.14634013
0.0030665882 -0.0373623 0.14656812
0.02833507 -0.02612105 0.14521015
-0.00099360943 -0.037250686 0.1417315
0.0038075401 -0.037000485 0.14209732
0.0077136462 -0.036888577 0.14163798
0.028772423 -0.027596202 0.14155227
0.02936307 -0.024930919 0.13995171
0.0041452982 -0.036301233 0.13792843
0.0085865902 -0.036285702 0.13725674
0.012596962 -0.036918789 0.13708106
0.028394092 -0.029233219 0.13686651
0.0099637266 -0.036552817 0.13275409
0.013629915 -0.036645506 0.13293976
0.018549232 -0.036844876 0.13206434
0.022053491 -0.037238121 0.13123542
0.028608207 -0.031549737 0.13199487
0.014838728 -0.036413573 0.12901124
0.018341361 -0.036766332 0.12815005
0.023958981 -0.036935613 0.12728316
0.028055334 -0.033614278 0.12733823
0.019117907 -0.036973253 0.12464264
0.024307955 -0.036770802 0.12231839
0.027573358 -0.035079908 0.12189755
0.025037587 -0.037554637 0.11875653
0.027205316 -0.03662299 0.11863548
0.0036859601 -0.0070883161 0.18252251
-0.0018932773 -0.036991797 0.13553753
0.0029425984 -0.036400635 0.13527453
0.0065676873 -0.036362611 0.13471216
-0.00048183464 -0.036382191 0.13120809
0.0032747928 -0.036306389 0.13125008
0.0075257402 -0.036220092 0.13074508
0.011513006 -0.03647811 0.13019696
0.028888728 -0.029071691 0.12926275
0.029267082 -0.02570693 0.12901953
0.008535292 -0.036851075 0.12619743
0.012901714 -0.036653657 0.12656683
0.016659176 -0.037044924 0.12603149
0.029253179 -0.030289298 0.12633657
0.029444953 -0.02664344 0.12393057
0.00977562 -0.03731434 0.12267739
0.013252942 -0.036943011 0.12186718
0.017822925 -0.036798626 0.12174761
0.021661974 -0.037390228 0.12072521
0.029133644 -0.032647952 0.12118816
0.029819191 -0.027885059 0.12100336
0.018571673 -0.037333895 0.11733109
0.023296468 -0.037681449 0.11649585
0.028217137 -0.035658017 0.11628538
0.029462043 -0.031914447 0.11497116
0.023365723 -0.03773547 0.11184692
0.027580887 -0.036697678 0.1112836
0.0021889608 -0.0033910095 0.18288422
-0.003413476 -0.035968918 0.12833998
0.0019346531 -0.035411634 0.12775698
-0.0013663219 -0.035191473 0.12443733
0.0022192812 -0.035596576 0.12360847
0.0060907351 -0.036529977 0.12417492
0.0031082788 -0.036190204 0.11937898
0.0075882426 -0.037051294 0.11980897
0.011891024 -0.036658559 0.11886889
0.029889481 -0.026151314 0.11791182
0.0084097935 -0.037089705 0.11445236
0.012662602 -0.036866635 0.11531699
0.016119506 -0.036939245 0.11522686
0.029624188 -0.028097637 0.11335301
0.0094437972 -0.037879266 0.1113494
0.012832452 -0.036971118 0.11075974
0.017702784 -0.037111547 0.11086798
0.021241624 -0.037488408 0.11004615
0.029616941 -0.031646483 0.11045307
0.018015403 -0.037805986 0.1061303
0.022548975 -0.037429914 0.10617805
0.027280733 -0.035339572 0.10556161
0.022849128 -0.037031461 0.10180885
0.026168691 -0.035741419 0.10123008
-0.0006975343 0.003715039 0.18339604
-0.001584799 -0.0350761 0.12140462
0.00038609561 -0.035608169 0.11709172
0.0016459245 -0.035645228 0.11257255
0.0054313196 -0.036313958 0.11320519
0.03008341 -0.025047638 0.11136687
0.0071214153 -0.0368075 0.10841292
0.011850543 -0.036818165 0.10777533
0.029905094 -0.026826711 0.10629177
0.0088823829 -0.037405815 0.10402399
0.012201069 -0.037105549 0.10364467
0.016441317 -0.037031103 0.10267478
0.02886836 -0.029386062 0.10232788
0.012716621 -0.036725231 0.099563062
0.017760769 -0.036790181 0.099678993
0.021652211 -0.036332924 0.098355472
0.02723553 -0.034754556 0.099024534
0.029944513 -0.031626668 0.09798497
0.022415301 -0.036353998 0.094475985
0.026737303 -0.035689116 0.09443146
0.030944329 -0.033338837 0.093809664
0.023675043 -0.037126385 0.0897277
0.026519174 -0.036217723 0.089051187
0.03070418 -0.034014303 0.089471877
-0.0069493186 0.0062216166 0.18315047
-0.0020239956 0.0069798278 0.18363032
-0.001051777 -0.035621759 0.11117697
0.00015856698 -0.035609514 0.10687542
0.0057506878 -0.03598845 0.1052177
0.0017148163 -0.035913143 0.10248637
0.0061859055 -0.036595974 0.10152346
0.029990375 -0.025837332 0.10011089
0.0028433297 -0.0361095 0.098658144
0.0067890999 -0.036317479 0.097303391
0.011524154 -0.036271431 0.096633375
0.015787987 -0.036066182 0.096894622
0.030926824 -0.028527483 0.097299933
0.011929831 -0.036085587 0.092162907
0.01662684 -0.036498193 0.092451811
0.020657852 -0.036514223 0.092161834
0.034242764 -0.02874906 0.091349185
0.016953735 -0.037332527 0.087405145
0.021484429 -0.037374739 0.08806479
0.028249003 -0.035892554 0.087018967
0.031469509 -0.034214258 0.087125182
0.034876928 -0.030793004 0.08700937
0.018275833 -0.037276436 0.08344996
0.022338748 -0.037342802 0.083214998
0.026702538 -0.036719315 0.08322376
0.031099919 -0.034762118 0.082932174
0.034860048 -0.031756312 0.081955314
0.027039064 -0.035829023 0.078641474
0.030972447 -0.034808919 0.078920364
0.033766214 -0.033151448 0.078428686
-0.0022781696 -0.034615051 0.099918365
-0.0011925073 -0.03470264 0.095241427
0.0033523543 -0.034733307 0.094328284
0.0050795022 -0.034547828 0.090576053
0.0093226898 -0.034536295 0.08986032
0.0064372839 -0.035064764 0.086164951
0.010187184 -0.034861948 0.085384429
0.012239095 -0.035499036 0.081593871
0.015438899 -0.036241166 0.081285477
0.020250833 -0.036064047 0.080058575
0.035937876 -0.029793289 0.078532636
0.016183179 -0.036221452 0.077293992
0.020498414 -0.035544597 0.076134503
0.025592806 -0.035314929 0.075284362
0.030067157 -0.03372572 0.075054765
0.034754619 -0.030568503 0.075565696
0.021503132 -0.0363959 0.072207808
0.025730468 -0.035466421 0.070946038
0.030035201 -0.033096381 0.071335733
0.033964477 -0.030644702 0.071767986
-0.0027166475 -0.034207713 0.091939867
-0.0018938072 -0.034532811 0.088361382
0.0020729853 -0.034238733 0.08781302
-0.0013504643 -0.035051681 0.083496034
0.0031553796 -0.035056315 0.083725274
0.0067891595 -0.034907725 0.082784474
0.0037169922 -0.034806203 0.078680933
0.008769975 -0.035032075 0.0791412
0.010622323 -0.035223313 0.074557841
0.015332446 -0.036381196 0.074453652
0.015402125 -0.036793552 0.070406735
0.019783955 -0.036702529 0.069945753
0.030435294 -0.032129955 0.068685234
0.034397036 -0.030004369 0.068659484
0.016241295 -0.036315251 0.065983653
0.020862162 -0.036404759 0.065502048
0.025425928 -0.035225153 0.065587103
0.029563397 -0.032501299 0.064645469
0.03370868 -0.029770598 0.063701034
0.025682807 -0.034132756 0.060730755
0.027956858 -0.033239778 0.060670316
-0.0030569145 -0.034807943 0.081197441
-0.0027875612 -0.034445278 0.077374697
0.0018368028 -0.034323916 0.077029526
-0.002634692 -0.034808148 0.072723746
0.0021105045 -0.033952806 0.072494268
0.0072868136 -0.03417585 0.072229326
0.0026995242 -0.034258951 0.068524718
0.0073658754 -0.034334265 0.068020701
0.011592966 -0.035566673 0.067247808
0.0080068465 -0.034737531 0.06412822
0.013145069 -0.034844678 0.062674105
0.01728284 -0.035052158 0.061204493
0.013330069 -0.035013076 0.05872643
0.019181348 -0.034869831 0.057870805
0.024232119 -0.033646755 0.057314038
0.029157516 -0.031566914 0.057403862
0.033380061 -0.029476913 0.057220638
0.018342745 -0.035398737 0.053907037
0.023632307 -0.034157593 0.052960575
0.029016424 -0.032186836 0.052930832
0.03363733 -0.030525954 0.052928567
0.023964822 -0.035037916 0.049431026
0.029083531 -0.032709938 0.049200714
0.033679456 -0.03096837 0.049130738
-0.0026688483 -0.035047259 0.070258856
-0.0025176425 -0.035342369 0.066664398
0.002103108 -0.035041474 0.06617552
-0.0017219801 -0.034165576 0.061611891
0.0025154306 -0.034559976 0.062524021
0.0069082598 -0.034407493 0.060801089
0.0075773061 -0.034698937 0.05747658
0.011367346 -0.034857169 0.056003273
0.012852347 -0.034836184 0.05310601
0.016522348 -0.034970265 0.051273644
0.018720757 -0.035242222 0.047647297
0.023044325 -0.035451647 0.047560632
0.028413374 -0.033506103 0.046507776
0.033813804 -0.03155065 0.046498358
0.023342194 -0.035420332 0.042692482
0.027509738 -0.033844981 0.042334974
0.032090392 -0.031420391 0.042513371
0.028875493 -0.033218559 0.038031042
0.0013909061 -0.03340346 0.058765113
0.0014720587 -0.034051389 0.055119336
0.0062885084 -0.033958722 0.053757489
-0.001910232 -0.035098962 0.050819814
0.0014654668 -0.034629472 0.050339758
0.0065469262 -0.033929877 0.050154269
0.011313098 -0.033499133 0.048838556
0.0027574459 -0.035345532 0.046356618
0.0065644667 -0.034537829 0.045389473
0.012006275 -0.034124456 0.045085847
0.015585775 -0.033724736 0.044650614
0.008402843 -0.035035823 0.042084157
0.01176224 -0.034618821 0.040947378
0.017143844 -0.034124836 0.0402233
0.020733345 -0.034843937 0.040151119
0.032305695 -0.030563604 0.039016008
0.034841139 -0.028727654 0.038990498
0.013609631 -0.03516734 0.03732866
0.016975259 -0.034700472 0.036862195
0.022684053 -0.035155334 0.035948217
0.027034279 -0.033833925 0.03561908
0.031600177 -0.031364799 0.035232723
0.022661649 -0.035001326 0.031322241
0.027208179 -0.03416473 0.030908525
0.031683803 -0.03200867 0.030479252
0.027352925 -0.034883283 0.027279437
0.031570088 -0.032937057 0.027155697
0.0347654 -0.031065326 0.027432203
-0.00035496615 -0.034879263 0.047935545
-0.003205264 -0.034715522 0.043230176
0.00086431485 -0.035441566 0.04380095
0.0013696877 -0.034922626 0.039174438
0.006161564 -0.03487188 0.038949072
0.010742962 -0.034627609 0.038204312
0.0071422937 -0.034355711 0.034141123
0.011391508 -0.034489419 0.034041941
0.016184803 -0.034195572 0.033589721
0.012008649 -0.034271535 0.029791713
0.016703982 -0.033628654 0.030098915
0.020515626 -0.034002639 0.028484046
0.022465453 -0.034968916 0.025155962
0.027124247 -0.034627359 0.023807108
0.03183981 -0.031883214 0.023503661
0.022647928 -0.034918364 0.020581901
0.026684824 -0.033778802 0.020847917
0.030974042 -0.03110248 0.019938171
0.00060532056 -0.034329567 0.036162317
-0.0029780883 -0.034918129 0.032413542
0.00041613169 -0.034810636 0.033027709
0.0046628322 -0.034350425 0.032721102
0.0090164654 -0.033486951 0.030440331
0.000798692 -0.034896433 0.028346181
0.0057857116 -0.034676146 0.028320193
0.010282589 -0.033643667 0.027190208
0.015697442 -0.032601137 0.026676178
0.0067962143 -0.034744479 0.023666203
0.010819511 -0.033673715 0.023158133
0.015600926 -0.033281755 0.02335602
0.019529134 -0.033595908 0.022882044
0.016391587 -0.033954889 0.018256605
0.021165052 -0.034421377 0.018305302
0.025980171 -0.033422559 0.017663062
0.030798499 -0.030858809 0.017538249
0.017899521 -0.034867369 0.01482296
0.021545764 -0.035074063 0.013919652
0.026612587 -0.033671178 0.01401186
0.030869616 -0.031389475 0.013680279
0.035315391 -0.029028688 0.013070166
0.023206161 -0.035202552 0.0091084242
0.026688073 -0.0339632 0.0093511939
0.031058647 -0.032296006 0.0090742111
0.035521083 -0.029937997 0.0086858869
-0.00033577997 -0.03457287 0.02486366
0.00019742828 -0.034095749 0.02140516
0.0046053501 -0.034215979 0.020447969
0.009401666 -0.033434428 0.019783914
0.0060043335 -0.033702627 0.016119361
0.01027463 -0.033130836 0.016088903
0.0137642 -0.03347249 0.015698195
0.0097626913 -0.032865018 0.012932599
0.015477694 -0.033704989 0.011340082
0.019227093 -0.034139596 0.010287941
0.016129956 -0.033452425 0.0076997876
0.020828597 -0.033975907 0.0068281293
0.025621943 -0.03364094 0.0058246255
0.030716311 -0.031744007 0.0052499771
0.035209317 -0.029402303 0.0052101016
0.021484174 -0.033730228 0.0030019879
0.025950577 -0.032800626 0.0016185045
0.03035289 -0.031143773 0.0013599992
0.034991171 -0.029165694 0.0011238456
-0.0016797837 -0.03324049 0.018548727
-0.00093976408 -0.033326607 0.014491439
0.0033561205 -0.033390727 0.014361858
0.00071954262 -0.033493746 0.0096693039
0.0042675743 -0.033234287 0.0094200969
0.0091094421 -0.032291807 0.0094687939
0.0056954427 -0.032757681 0.0050805807
0.0092054643 -0.032420415 0.0047616959
0.014087697 -0.032485727 0.0044624805
0.018288231 -0.032401215 0.0042052269
0.015806993 -0.032367565 -0.000418365
0.019521462 -0.032905355 -0.00011444092
0.0236325 -0.032632235 -0.00054734945
-0.0026475554 -0.032288074 0.0076821446
-0.0015380867 -0.032746643 0.0031709075
0.0035823612 -0.033170242 0.003467679
-0.00014549214 -0.032732062 -0.0011075139
