# .PCD v0.7 - Point Cloud Data file format
VERSION 0.7
FIELDS x y z
SIZE 4 4 4
TYPE F F F
COUNT 1 1 1
WIDTH 448
HEIGHT 1
VIEWPOINT 0 0 0 1 0 0 0
POINTS 448
DATA ascii
0.019130038 -0.029623827 0.18138623
0.022373475 -0.028030347 0.18148029
0.024972875 -0.026661161 0.18068066
0.016125567 -0.032432288 0.17784977
0.019018073 -0.031329732 0.17896
0.022939146 -0.030537156 0.17933068
0.025697824 -0.028681504 0.17867339
0.019485742 -0.032886401 0.1747627
0.023404714 -0.032086011 0.17513496
0.025919311 -0.030452343 0.17502469
0.020696202 -0.033859447 0.1715309
0.023169547 -0.032706328 0.17145306
0.020546151 -0.022313546 0.1838311
0.022199238 -0.02115424 0.18341088
0.0055474588 -0.03075703 0.17959306
0.008642179 -0.029654104 0.18052748
0.01324116 -0.028549319 0.18157405
0.017341588 -0.027177298 0.18250006
0.020899415 -0.025530348 0.18276593
0.02455841 -0.023728902 0.18153676
0.0063429927 -0.031777915 0.17717436
0.0090949237 -0.031568822 0.17677242
0.013588646 -0.03157784 0.17824775
0.026879255 -0.026420189 0.17735475
0.027234606 -0.023846639 0.17561808
0.01028164 -0.032776829 0.17282823
0.014644265 -0.033248093 0.17385364
0.026598923 -0.027560888 0.17230383
0.014727393 -0.033945214 0.16892081
0.019362133 -0.033640008 0.1687957
0.023139708 -0.032042161 0.16808701
0.025475636 -0.028945295 0.16884431
0.01565841 -0.033989411 0.16507319
0.019221127 -0.033206083 0.16431594
0.022659183 -0.031141635 0.16457522
0.0002794778 -0.027043665 0.18243355
0.0029664831 -0.025845677 0.18295032
0.0065933662 -0.024861358 0.1832864
0.01052152 -0.023427533 0.18289834
0.015663797 -0.021740146 0.18276492
0.018655859 -0.019359253 0.18347058
0.00016594958 -0.03010272 0.18024269
0.0037263716 -0.029306632 0.18097466
0.0070963241 -0.027091052 0.18177509
0.010517268 -0.025816336 0.18213478
0.024662197 -0.020366361 0.18162847
-0.0029130243 -0.032525364 0.1761919
0.00052888039 -0.032136701 0.17550239
0.0045805643 -0.032114763 0.17582554
0.0015375419 -0.032387577 0.17129758
0.0048582065 -0.03234781 0.17084831
0.0081324587 -0.0324158 0.17123127
0.026531791 -0.022555869 0.1690678
0.0061894576 -0.032540657 0.16673175
0.0092763528 -0.033040218 0.16693032
0.025604963 -0.026312854 0.16532695
0.010056958 -0.033042319 0.16283977
0.013837614 -0.033188492 0.16213417
0.018376969 -0.033103403 0.16189289
0.022550434 -0.030405028 0.16168693
0.024897918 -0.027324941 0.16137829
0.015202368 -0.03259952 0.15888578
0.018694198 -0.032261517 0.15699655
0.022177342 -0.030648429 0.15642881
0.024187235 -0.028536838 0.15629613
0.019970108 -0.032606248 0.1527009
0.021728838 -0.031669941 0.15244979
0.016449099 -0.013877265 0.18253762
-0.002182221 -0.025070602 0.18255463
0.0012785131 -0.023342375 0.18329301
0.0052181026 -0.021535577 0.18340576
0.0089399032 -0.019330477 0.18228894
0.01278488 -0.018088046 0.18198881
0.016493946 -0.01752983 0.18322888
-0.00011697505 -0.03216821 0.168908
-0.0029279711 -0.031824004 0.16398644
-9.900704e-05 -0.031683203 0.16365197
0.0040159225 -0.032008827 0.16463211
0.02639929 -0.021814059 0.16253501
1.0172836e-05 -0.032304332 0.16042969
0.0042615058 -0.031662628 0.15968949
0.0077746348 -0.031390347 0.15921694
0.01122092 -0.031617232 0.15901166
0.025868822 -0.025329005 0.1589725
0.026556816 -0.0225465 0.15849078
0.0084365625 -0.031123299 0.15485707
0.012195026 -0.031322736 0.15510029
0.015494594 -0.031871516 0.15564665
0.025067385 -0.025805026 0.15486479
0.012529504 -0.031732481 0.15037203
0.017179474 -0.03171704 0.15030283
0.022088807 -0.030543426 0.1493046
0.024072284 -0.027816352 0.15062705
0.013264684 -0.032524154 0.14718646
0.017665077 -0.031571969 0.14526731
0.021700798 -0.030539414 0.1441296
-0.00026486162 -0.018087996 0.1820831
0.0029052927 -0.016988883 0.18205115
0.0067175776 -0.014823169 0.18189389
0.010829374 -0.013274845 0.181638
-0.00087668002 -0.032280497 0.15740627
0.0030866517 -0.031402618 0.15682095
-0.00039617717 -0.032530051 0.15346414
0.0038103908 -0.031757746 0.15353835
0.007115467 -0.031619973 0.15302902
0.025220109 -0.024270479 0.15153441
0.0010512145 -0.032547548 0.14968589
0.004277112 -0.032210205 0.14900732
0.0081275208 -0.032123983 0.14930385
0.011189275 -0.03260316 0.1485807
0.024194559 -0.02441214 0.1476424
0.0085284114 -0.032415364 0.1446254
0.012435894 -0.032564078 0.14418897
0.016105704 -0.032206658 0.14331064
0.023727929 -0.02691035 0.1432412
0.012581513 -0.032635983 0.13995206
0.017444091 -0.032469653 0.13901821
0.021917911 -0.031515483 0.13929904
0.024122156 -0.029058114 0.1375196
0.017160261 -0.032583736 0.13555411
0.021770323 -0.032322817 0.13421977
0.023942329 -0.029834567 0.133816
0.022371583 -0.031661239 0.13007236
0.0013929964 -0.012061277 0.18179813
0.0049816817 -0.010549689 0.18226522
0.008530505 -0.0085917581 0.18173566
-0.0018262351 -0.03180103 0.14634013
0.0026285043 -0.032024831 0.14656812
0.024287203 -0.02238947 0.14521015
-0.00085166562 -0.031929158 0.1417315
0.0032636048 -0.031714704 0.14209732
0.0066116969 -0.031618778 0.14163798
0.024662077 -0.023653887 0.14155227
0.025168346 -0.02136936 0.13995171
0.003553112 -0.03111534 0.13792843
0.007359935 -0.031102031 0.13725674
0.010797397 -0.03164468 0.13708106
0.024337793 -0.025057048 0.13686651
0.0085403379 -0.031330984 0.13275409
0.011682784 -0.031410433 0.13293976
0.015899342 -0.03158132 0.13206434
0.018902991 -0.031918388 0.13123542
0.024521321 -0.027042633 0.13199487
0.012718911 -0.031211635 0.12901124
0.015721165 -0.031513996 0.12815005
0.02053627 -0.031659096 0.12728316
0.024047431 -0.028812239 0.12733823
0.016386777 -0.031691357 0.12464264
0.020835392 -0.03151783 0.12231839
0.023634309 -0.030068493 0.12189755
0.02146079 -0.032189686 0.11875653
0.023318842 -0.031391133 0.11863548
0.0031593943 -0.0060756998 0.18252251
-0.00162281 -0.031707257 0.13553753
0.0025222264 -0.031200545 0.13527453
0.0056294454 -0.03116795 0.13471216
-0.00041300058 -0.031184735 0.13120809
0.0028069653 -0.031119764 0.13125008
0.0064506349 -0.031045794 0.13074508
0.0098682921 -0.031266954 0.13019696
0.024761766 -0.024918593 0.12926275
0.025086071 -0.022034513 0.12901953
0.0073159644 -0.031586636 0.12619743
0.011058612 -0.031417422 0.12656683
0.014279295 -0.031752791 0.12603149
0.025074154 -0.025962256 0.12633657
0.025238533 -0.022837233 0.12393057
0.0083791027 -0.031983718 0.12267739
0.011359665 -0.031665437 0.12186718
0.015276793 -0.031541679 0.12174761
0.018567406 -0.032048769 0.12072521
0.024971694 -0.027983963 0.12118816
0.025559306 -0.023901481 0.12100336
0.015918577 -0.032000482 0.11733109
0.019968402 -0.032298382 0.11649585
0.024186116 -0.030564014 0.11628538
0.02525318 -0.027355241 0.11497116
0.020027764 -0.032344691 0.11184692
0.023640759 -0.031455155 0.1112836
0.001876252 -0.0029065795 0.18288422
-0.0029258365 -0.030830501 0.12833998
0.0016582748 -0.030352829 0.12775698
-0.0011711335 -0.030164119 0.12443733
0.0019022413 -0.030511351 0.12360847
0.0052206297 -0.031311408 0.12417492
0.0026642391 -0.031020174 0.11937898
0.0065042088 -0.031758253 0.11980897
0.010192307 -0.031421624 0.11886889
0.025619555 -0.022415411 0.11791182
0.0072083948 -0.031791173 0.11445236
0.010853658 -0.031599972 0.11531699
0.013816719 -0.031662207 0.11522686
0.025392162 -0.024083689 0.11335301
0.0080946824 -0.032467943 0.1113494
0.010999246 -0.031689532 0.11075974
0.015173816 -0.0318099 0.11086798
0.018207107 -0.03213292 0.11004615
0.02538595 -0.027125554 0.11045307
0.015441774 -0.032405131 0.1061303
0.019327693 -0.032082781 0.10617805
0.023383485 -0.03029106 0.10556161
0.019584965 -0.03174125 0.10180885
0.022430306 -0.030635502 0.10123008
-0.00059788645 0.0031843192 0.18339604
-0.0013583973 -0.030065227 0.12140462
0.00033093896 -0.030521287 0.11709172
0.0014107917 -0.030553054 0.11257255
0.0046554166 -0.031126251 0.11320519
0.025785781 -0.021469405 0.11136687
0.0061040707 -0.03154929 0.10841292
0.010157608 -0.031558424 0.10777533
0.025632937 -0.022994325 0.10629177
0.0076134717 -0.032062128 0.10402399
0.01045806 -0.031804759 0.10364467
0.014092558 -0.031740945 0.10267478
0.024744309 -0.025188051 0.10232788
0.010899961 -0.031478766 0.099563062
0.015223516 -0.031534441 0.099678993
0.018559039 -0.031142505 0.098355472
0.02334474 -0.029789617 0.099024534
0.025666727 -0.027108571 0.09798497
0.019213116 -0.031160573 0.094475985
0.022917688 -0.030590668 0.09443146
0.026523709 -0.028576147 0.093809664
0.020292895 -0.031822614 0.0897277
0.022730723 -0.031043764 0.089051187
0.02631787 -0.029155118 0.089471877
-0.005956559 0.0053328145 0.18315047
-0.001734853 0.0059827091 0.18363032
-0.00090152305 -0.030532937 0.11117697
0.00013591442 -0.03052244 0.10687542
0.0049291607 -0.030847242 0.1052177
0.0014698412 -0.030782692 0.10248637
0.0053022043 -0.03136798 0.10152346
0.025706036 -0.022146285 0.10011089
0.0024371399 -0.030950999 0.098658144
0.0058192285 -0.031129269 0.097303391
0.0098778456 -0.031089796 0.096633375
0.013532561 -0.030913873 0.096894622
0.026508704 -0.024452126 0.097299933
0.010225569 -0.030930502 0.092162907
0.014251579 -0.031284168 0.092451811
0.017706729 -0.031297907 0.092161834
0.02935094 -0.02464205 0.091349185
0.014531773 -0.031999305 0.087405145
0.018415224 -0.032035489 0.08806479
0.02421343 -0.030765045 0.087018967
0.026973866 -0.029326506 0.087125182
0.029894508 -0.026394006 0.08700937
0.015665 -0.03195123 0.08344996
0.019147499 -0.032008115 0.083214998
0.022887889 -0.0314737 0.08322376
0.026657073 -0.029796101 0.082932174
0.029880043 -0.027219692 0.081955314
0.02317634 -0.030710591 0.078641474
0.026547812 -0.029836217 0.078920364
0.02894247 -0.028415527 0.078428686
-0.001952718 -0.029670043 0.099918365
-0.0010221489 -0.029745119 0.095241427
0.0028734477 -0.029771406 0.094328284
0.004353859 -0.029612428 0.090576053
0.0079908771 -0.029602539 0.08986032
0.0055176723 -0.030055512 0.086164951
0.0087318718 -0.029881669 0.085384429
0.010490653 -0.030427748 0.081593871
0.013233342 -0.031063855 0.081285477
0.017357856 -0.030912044 0.080058575
0.030803893 -0.025537105 0.078532636
0.013871296 -0.031046959 0.077293992
0.017570071 -0.030466797 0.076134503
0.021936692 -0.030269939 0.075284362
0.025771849 -0.028907759 0.075054765
0.029789677 -0.026201576 0.075565696
0.018431257 -0.03119649 0.072207808
0.022054687 -0.030399794 0.070946038
0.025744459 -0.028368328 0.071335733
0.029112408 -0.026266888 0.071767986
-0.0023285551 -0.029320898 0.091939867
-0.0016232627 -0.029599551 0.088361382
0.0017768443 -0.029347485 0.08781302
-0.0011575408 -0.030044297 0.083496034
0.002704611 -0.03004827 0.083725274
0.0058192792 -0.029920906 0.082784474
0.0031859931 -0.029833887 0.078680933
0.0075171213 -0.030027492 0.0791412
0.0091048479 -0.03019141 0.074557841
0.013142097 -0.031183878 0.074453652
0.013201822 -0.031537332 0.070406735
0.016957678 -0.031459313 0.069945753
0.026087396 -0.027539961 0.068685234
0.029483173 -0.025718031 0.068659484
0.01392111 -0.031127358 0.065983653
0.017881852 -0.031204075 0.065502048
0.021793652 -0.030192988 0.065587103
0.025340056 -0.027858257 0.064645469
0.028893156 -0.025517657 0.063701034
0.022013834 -0.029256649 0.060730755
0.023963021 -0.028491242 0.060670316
-0.0026202118 -0.029835379 0.081197441
-0.0023893388 -0.029524524 0.077374697
0.0015744017 -0.029420501 0.077029526
-0.0022583064 -0.029835554 0.072723746
0.0018090047 -0.029102406 0.072494268
0.0062458399 -0.029293587 0.072229326
0.0023138775 -0.029364815 0.068524718
0.0063136076 -0.029429367 0.068020701
0.0099368272 -0.030485719 0.067247808
0.006863012 -0.029775027 0.06412822
0.011267202 -0.029866867 0.062674105
0.014813863 -0.030044707 0.061204493
0.011425774 -0.030011207 0.05872643
0.016441157 -0.029888425 0.057870805
0.020770388 -0.02884008 0.057314038
0.024992157 -0.027057353 0.057403862
0.028611481 -0.025265923 0.057220638
0.015722351 -0.030341774 0.053907037
0.020256262 -0.029277937 0.052960575
0.024871221 -0.027588718 0.052930832
0.028831998 -0.026165102 0.052928567
0.020541277 -0.030032501 0.049431026
0.024928741 -0.02803709 0.049200714
0.028868105 -0.026544318 0.049130738
-0.0022875844 -0.030040508 0.070258856
-0.0021579796 -0.030293459 0.066664398
0.0018026633 -0.03003555 0.06617552
-0.0014759824 -0.029284779 0.061611891
0.0021560816 -0.029622838 0.062524021
0.0059213657 -0.029492136 0.060801089
0.0064948341 -0.029741948 0.05747658
0.009743439 -0.029877571 0.056003273
0.011016298 -0.029859586 0.05310601
0.014162012 -0.029974513 0.051273644
0.016046364 -0.030207621 0.047647297
0.019752279 -0.030387128 0.047560632
0.024354322 -0.028719516 0.046507776
0.028983261 -0.027043417 0.046498358
0.020007595 -0.030360285 0.042692482
0.023579776 -0.029009981 0.042334974
0.02750605 -0.026931765 0.042513371
0.024750421 -0.028473049 0.038031042
0.0011922065 -0.028631538 0.058765113
0.0012617651 -0.029186904 0.055119336
0.00539015 -0.029107476 0.053757489
-0.0016373424 -0.030084826 0.050819814
0.0012561148 -0.029682403 0.050339758
0.0056116516 -0.029082749 0.050154269
0.0096969409 -0.028713543 0.048838556
0.0023635263 -0.030296169 0.046356618
0.0056266859 -0.029603854 0.045389473
0.010291093 -0.02924953 0.045085847
0.013359236 -0.028906915 0.044650614
0.0072024367 -0.030030707 0.042084157
0.010081919 -0.029673276 0.040947378
0.014694723 -0.02924986 0.0402233
0.017771438 -0.029866232 0.040151119
0.027690597 -0.026197374 0.039016008
0.029863831 -0.024623699 0.038990498
0.011665397 -0.030143432 0.03732866
0.014550223 -0.02974326 0.036862195
0.019443475 -0.030133145 0.035948217
0.023172239 -0.02900051 0.03561908
0.027085867 -0.026884118 0.035232723
0.019424271 -0.030001139 0.031322241
0.023321297 -0.029284056 0.030908525
0.027157545 -0.027436009 0.030479252
0.023445364 -0.029899959 0.027279437
0.027060077 -0.028231762 0.027155697
0.029798917 -0.026627425 0.027432203
-0.00030425657 -0.029896511 0.047935545
-0.002747369 -0.02975616 0.043230176
0.00074084196 -0.030378487 0.04380095
0.0011740187 -0.029933678 0.039174438
0.0052813413 -0.029890181 0.038949072
0.0092082536 -0.029680805 0.038204312
0.0061219665 -0.029447755 0.034141123
0.0097641498 -0.02956236 0.034041941
0.013872688 -0.029310491 0.033589721
0.010293128 -0.029375602 0.029791713
0.014317699 -0.028824557 0.030098915
0.017584823 -0.02914512 0.028484046
0.019256102 -0.029973358 0.025155962
0.023249354 -0.029680597 0.023807108
0.027291268 -0.027328469 0.023503661
0.01941251 -0.029930025 0.020581901
0.022872705 -0.028953262 0.020847917
0.026549177 -0.026659271 0.019938171
0.00051884539 -0.029425342 0.036162317
-0.0025526471 -0.029929824 0.032413542
0.00035668351 -0.02983769 0.033027709
0.0039967131 -0.029443221 0.032721102
0.0077283988 -0.028703103 0.030440331
0.0006845938 -0.029911228 0.028346181
0.0049591819 -0.029722409 0.028320193
0.0088136485 -0.028837426 0.027190208
0.013454949 -0.027943831 0.026676178
0.0058253268 -0.029780982 0.023666203
0.0092738662 -0.028863182 0.023158133
0.013372222 -0.028527217 0.02335602
0.016739259 -0.028796496 0.022882044
0.014049931 -0.029104192 0.018256605
0.018141473 -0.029504037 0.018305302
0.02226872 -0.028647907 0.017663062
0.026398715 -0.026450407 0.017538249
0.015342448 -0.029886315 0.01482296
0.018467799 -0.030063482 0.013919652
0.022810789 -0.028861012 0.01401186
0.026459672 -0.026905267 0.013680279
0.030270336 -0.024881735 0.013070166
0.019890996 -0.030173618 0.0091084242
0.022875492 -0.029111315 0.0093511939
0.026621699 -0.027682291 0.0090742111
0.030446641 -0.025661141 0.0086858869
-0.00028781127 -0.029633887 0.02486366
0.00016922411 -0.029224928 0.02140516
0.0039474433 -0.029327981 0.020447969
0.0080585722 -0.028658085 0.019783914
0.0051465714 -0.028887967 0.016119361
0.0088068256 -0.02839786 0.016088903
0.011797885 -0.028690707 0.015698195
0.0083680218 -0.028170018 0.012932599
0.013266595 -0.028889991 0.011340082
0.016480366 -0.029262513 0.010287941
0.013825676 -0.028673509 0.0076997876
0.017853083 -0.029122204 0.0068281293
0.021961667 -0.028835092 0.0058246255
0.026328269 -0.027209152 0.0052499771
0.030179415 -0.025201973 0.0052101016
0.018415008 -0.028911624 0.0030019879
0.022243354 -0.028114827 0.0016185045
0.026016764 -0.026694665 0.0013599992
0.029992431 -0.024999168 0.0011238456
-0.0014398145 -0.028491851 0.018548727
-0.00080551207 -0.028565664 0.014491439
0.0028766734 -0.028620623 0.014361858
0.00061675068 -0.028708924 0.0096693039
0.0036579203 -0.028486531 0.0094200969
0.007808093 -0.027678691 0.0094687939
0.0048818081 -0.028078012 0.0050805807
0.0078903986 -0.027788932 0.0047616959
0.012075169 -0.027844908 0.0044624805
0.015675627 -0.027772469 0.0042052269
0.013548852 -0.027743626 -0.000418365
0.016732682 -0.028204588 -0.00011444092
0.02025643 -0.027970489 -0.00054734945
-0.0022693332 -0.027675495 0.0076821446
-0.0013183597 -0.02806855 0.0031709075
0.0030705947 -0.028431635 0.003467679
-0.00012470689 -0.028056053 -0.0011075139
